-1.48107 66.8179 54.9021 -0.0141361 -0.999095 0.0103054
-1.33419 66.8441 56.1579 -0.0232707 -0.997743 0.0347866
-1.14537 66.8736 57.5191 -0.0621856 -0.996781 0.0505903
-1.23049 66.9506 58.8471 -0.0292332 -0.99822 0.0301596
-1.43006 66.911 60.2613 -0.0180575 -0.997905 -0.0621184
-1.56468 66.6017 61.7798 0.0395264 -0.944061 -0.325551
-1.54051 66.222 63.2034 0.105251 -0.961282 -0.246918
-1.82738 65.7315 64.6753 0.151683 -0.94622 -0.285762
-1.88324 65.6959 64.8394 0.164404 -0.949484 -0.267304
-1.9391 65.6602 65.0035 0.177078 -0.952268 -0.248654
-1.99496 65.6246 65.1676 0.189683 -0.954565 -0.229841
-2.05082 65.5889 65.3318 0.202202 -0.956368 -0.210891
-2.10668 65.5533 65.4959 0.214613 -0.957674 -0.191836
-2.16254 65.5176 65.66 0.226898 -0.958483 -0.172704
-2.2184 65.482 65.8241 0.238754 -0.957655 -0.153344
-2.7399 65.0778 67.0983 0.272515 -0.943186 -0.190047
-2.86941 64.7758 68.3369 0.226479 -0.917127 -0.310368
-1.77552 64.325 70.1369 0.301658 -0.78327 -0.51919
-0.489334 63.6723 71.5141 0.203814 -0.809763 -0.550221
-0.364487 63.6107 71.6267 0.163023 -0.818021 -0.551603
-0.239639 63.549 71.7393 0.121579 -0.824915 -0.552027
-0.114792 63.4874 71.8519 0.0796924 -0.830378 -0.551471
0.0100557 63.4257 71.9644 0.0375833 -0.834366 -0.549928
0.134903 63.3641 72.077 -0.00452224 -0.836856 -0.547404
0.259751 63.3024 72.1896 -0.0463997 -0.837851 -0.543923
0.384598 63.2408 72.3022 -0.0877993 -0.837066 -0.539325
1.50362 62.5145 73.3325 -0.0658324 -0.848033 -0.525839
2.5601 61.615 74.5866 0.0394383 -0.807481 -0.587541
3.00234 60.9277 75.6216 -0.0324964 -0.829494 -0.557569
3.33824 60.1999 76.6847 -0.0328516 -0.829207 -0.557975
3.51888 59.1723 77.9328 0.0254385 -0.750367 -0.660531
3.35783 58.141 79.0981 0.0354399 -0.749336 -0.661164
2.69496 56.945 80.3038 0.0764627 -0.724027 -0.685521
2.20877 55.9099 81.3408 0.0676106 -0.721599 -0.689002
1.57477 55.0286 82.1075 0.127845 -0.696499 -0.706077
0.667091 54.2063 82.7543 0.133756 -0.6825 -0.718278
-0.36248 53.3932 83.2543 0.173161 -0.657222 -0.733535
-1.60589 52.6425 83.6377 0.177784 -0.641221 -0.746199
-2.69179 51.6668 84.176 0.196992 -0.63235 -0.749218
-2.17292 51.489 84.472 0.209436 -0.639977 -0.739301
-1.35399 52.2768 84.0221 0.191082 -0.649898 -0.735302
0.0431647 52.168 84.4502 0.172726 -0.659819 -0.731303
2.17889 52.8525 84.2886 0.146245 -0.677592 -0.72075
3.36777 53.24 84.1656 0.147715 -0.677837 -0.720218
4.68013 53.5756 84.0709 0.101207 -0.708502 -0.698204
6.1145 53.8125 84.0212 0.0950777 -0.72016 -0.687263
7.54711 54.2917 83.6302 0.0400389 -0.73465 -0.677115
7.60423 55.6952 82.0694 0.044049 -0.748237 -0.661866
7.09867 56.5914 81.0528 0.0569484 -0.732952 -0.677893
6.46246 57.3694 80.1582 0.0527534 -0.73101 -0.680305
5.98388 58.2755 79.0822 0.0369595 -0.758745 -0.650339
5.52502 59.1651 78.0182 0.031199 -0.754556 -0.655435
5.16642 59.9877 76.891 -0.0332141 -0.828923 -0.558376
4.91384 60.7991 75.7015 -0.0328554 -0.82921 -0.557971
4.75623 61.4161 74.7222 -0.061782 -0.856258 -0.51284
4.02698 62.4215 73.1627 -0.0681201 -0.847623 -0.526208
3.46312 62.9898 72.3054 -0.158843 -0.880506 -0.446425
3.24292 63.9581 70.5372 -0.196422 -0.869308 -0.453565
3.06583 64.5045 69.2826 -0.201787 -0.917508 -0.342726
3.04809 64.5805 69.0697 -0.210422 -0.923354 -0.321155
3.03036 64.6564 68.8569 -0.21896 -0.928684 -0.299336
3.01262 64.7324 68.644 -0.227387 -0.933486 -0.277305
2.99488 64.8084 68.4311 -0.235688 -0.93775 -0.255099
2.97714 64.8844 68.2182 -0.243847 -0.941468 -0.232757
2.95941 64.9603 68.0054 -0.251852 -0.944636 -0.210318
2.94167 65.0363 67.7925 -0.259646 -0.947093 -0.18779
2.85917 65.2977 66.4964 -0.229086 -0.96212 -0.135562
2.69763 65.5411 64.7938 -0.194551 -0.970121 -0.144966
2.57252 65.8162 62.882 -0.231666 -0.962566 -0.138733
2.52412 66.0388 61.6121 -0.243068 -0.956977 -0.15847
2.42175 66.2645 59.6844 -0.276068 -0.958226 -0.0747626
2.38708 66.3369 58.2826 -0.24697 -0.968747 0.0112367
2.29694 66.3693 57.007 -0.217231 -0.975561 -0.0199068
2.27758 66.4416 55.126 -0.195831 -0.979834 -0.0397017
2.25033 66.4972 53.778 -0.114607 -0.992432 -0.0401962
2.19162 66.5547 52.5068 -0.144223 -0.988862 -0.0367769
2.48718 66.5797 51.2569 -0.169953 -0.983455 -0.0627121
1.40452 66.7303 51.3191 -0.137826 -0.987512 -0.0763114
-0.206035 66.8326 52.0334 -0.0394977 -0.997149 -0.0608615
-1.52449 66.8301 52.4099 0.0322052 -0.996808 -0.053348
-1.62863 66.8205 53.6872 -0.0133831 -0.999179 -0.0199855
-1.54713 66.8016 54.1437 -0.0462757 -0.99847 -0.00395824
-2.66461 66.7441 54.3183 0.0898737 -0.995656 0.0243129
-2.67025 66.7442 54.2991 0.0897878 -0.995687 0.023342
-2.67589 66.7443 54.28 0.0897017 -0.995717 0.0223711
-2.68153 66.7444 54.2608 0.0896156 -0.995746 0.0214001
-2.68718 66.7445 54.2416 0.0895293 -0.995775 0.0204291
-2.69282 66.7446 54.2224 0.089443 -0.995802 0.0194581
-2.69846 66.7447 54.2033 0.0893566 -0.995828 0.0184871
-2.7041 66.7448 54.1841 0.0892701 -0.995853 0.0175161
-2.74358 66.7456 54.0499 0.0886622 -0.996004 0.0107162
-2.78307 66.7463 53.9157 0.0880499 -0.996108 0.00391421
-2.82255 66.7471 53.7815 0.0874335 -0.996166 -0.00288889
-2.86204 66.7478 53.6472 0.086813 -0.996177 -0.00969218
-2.90152 66.7486 53.513 0.0861884 -0.996142 -0.0164947
-2.94101 66.7493 53.3788 0.0855599 -0.996061 -0.0232955
-2.98049 66.7501 53.2446 0.0849276 -0.995933 -0.0300936
-3.01998 66.7508 53.1104 0.0842915 -0.995758 -0.0368881
-2.95233 66.8251 51.6264 0.191748 -0.9735 -0.124624
-2.7584 66.8417 51.5739 0.168054 -0.978383 -0.120521
-2.56448 66.8583 51.5213 0.144165 -0.982692 -0.116329
-2.37055 66.8749 51.4688 0.120124 -0.986415 -0.112055
-2.17662 66.8915 51.4163 0.0959737 -0.98954 -0.107706
-1.98269 66.9081 51.3637 0.0717588 -0.992059 -0.10329
-1.78877 66.9247 51.3112 0.0475236 -0.99397 -0.0988148
-1.59484 66.9413 51.2586 0.0233125 -0.995272 -0.0942895
-1.40091 66.9579 51.2061 -0.000830419 -0.995966 -0.0897225
-1.22374 66.9582 51.1572 -0.00986408 -0.995608 -0.0930999
-1.04657 66.9585 51.1083 -0.0189038 -0.995156 -0.0964713
-0.869404 66.9588 51.0594 -0.0279469 -0.994611 -0.0998357
-0.692235 66.9591 51.0105 -0.0369911 -0.993973 -0.103192
-0.515067 66.9594 50.9617 -0.0460337 -0.993242 -0.106539
-0.337898 66.9597 50.9128 -0.0550722 -0.992418 -0.109877
-0.16073 66.96 50.8639 -0.064104 -0.991502 -0.113204
0.0164391 66.9603 50.815 -0.0731267 -0.990493 -0.116519
0.214826 66.9429 50.6984 -0.0838394 -0.990318 -0.110637
0.413214 66.9255 50.5817 -0.0945413 -0.989996 -0.104738
0.611601 66.9081 50.4651 -0.105228 -0.989526 -0.0988238
0.809988 66.8907 50.3485 -0.115893 -0.988908 -0.0928976
1.00838 66.8733 50.2319 -0.126534 -0.988143 -0.086962
1.20676 66.8559 50.1152 -0.137145 -0.987232 -0.0810197
1.40515 66.8385 49.9986 -0.147715 -0.986133 -0.0750699
2.74155 66.6705 49.3264 -0.180097 -0.981576 -0.0621375
3.85791 66.4846 48.7352 -0.192523 -0.979345 -0.0611975
3.85767 66.3786 50.7032 -0.180097 -0.981576 -0.0621374
3.49235 66.3432 52.4404 -0.161492 -0.985428 -0.0534038
3.55743 66.2166 54.568 -0.176306 -0.982435 -0.0611354
3.49121 66.1737 55.7517 -0.19509 -0.98012 -0.0359125
3.50086 66.1274 57.1057 -0.194348 -0.980406 -0.0321232
3.52737 66.0718 58.3074 -0.229838 -0.971449 -0.0569339
3.60008 65.9079 59.9041 -0.25364 -0.963289 -0.0843785
3.63543 65.7715 61.522 -0.259564 -0.957603 -0.116617
3.73512 65.5005 63.2991 -0.220262 -0.968155 -0.118998
3.82761 65.2561 65.1156 -0.238976 -0.963211 -0.121384
3.87175 64.9522 66.7916 -0.275806 -0.94535 -0.173908
4.10727 64.6447 68.0897 -0.286946 -0.929589 -0.224851
4.22181 64.2643 69.227 -0.298071 -0.913864 -0.275691
4.25734 64.1672 69.4405 -0.281686 -0.91122 -0.300551
4.29287 64.0701 69.6539 -0.264971 -0.907744 -0.325255
4.3284 63.973 69.8674 -0.247971 -0.903436 -0.349733
4.36394 63.8759 70.0809 -0.230728 -0.898304 -0.373918
4.39947 63.7788 70.2944 -0.21329 -0.892361 -0.397743
4.435 63.6817 70.5078 -0.195706 -0.885627 -0.421146
4.47053 63.5846 70.7213 -0.177979 -0.877907 -0.443956
4.82399 62.9097 71.9689 -0.159539 -0.886505 -0.434346
5.21133 62.311 72.997 -0.158148 -0.874507 -0.458504
5.62762 61.7876 73.9934 -0.0640757 -0.856359 -0.51239
6.00979 61.1578 74.9781 -0.100209 -0.83629 -0.539052
6.21743 60.4006 76.1094 -0.0985197 -0.833153 -0.544197
6.51814 59.6074 77.2693 -0.0956481 -0.83518 -0.541578
6.95438 58.9464 78.221 -0.0689884 -0.804916 -0.586106
7.31182 58.0238 79.3212 -0.0452019 -0.772625 -0.633251
7.82702 57.2324 80.3077 -0.0232353 -0.789976 -0.612698
8.48701 56.5089 81.1381 0.00126217 -0.756103 -0.654401
8.86958 55.7111 82.0734 0.00833992 -0.755686 -0.65486
9.09657 54.8312 83.081 0.00879032 -0.752205 -0.658871
8.81625 54.0004 84.0214 0.0400345 -0.734651 -0.677115
7.94395 53.4373 84.5681 0.0523879 -0.737875 -0.672901
6.71138 53.0584 84.8875 0.0806872 -0.717663 -0.690599
5.56243 52.7959 84.9706 0.107335 -0.696845 -0.709145
4.3566 52.5163 85.0524 0.149183 -0.678083 -0.719686
2.76229 51.9579 85.248 0.147717 -0.677835 -0.72022
0.662522 51.4419 85.2504 0.165415 -0.658751 -0.733951
-0.445553 51.108 85.2912 0.191078 -0.649898 -0.735303
-1.60169 50.6383 85.3702 0.209434 -0.639976 -0.739302
-3.38301 50.0515 85.3885 0.219929 -0.647088 -0.729809
-5.42923 49.1434 85.5067 0.24213 -0.633529 -0.734848
-6.57854 48.6383 85.5483 0.272841 -0.621565 -0.734313
-7.71445 48.2422 85.4624 0.278234 -0.62754 -0.72711
-9.2449 47.967 85.1046 0.295694 -0.610786 -0.734361
-10.4798 47.3447 85.0814 0.320598 -0.596699 -0.735641
-11.9729 46.3299 85.1764 0.391992 -0.579991 -0.71411
-13.3159 45.435 85.1508 0.412793 -0.567073 -0.712682
-14.2507 44.7378 85.1522 0.408955 -0.582216 -0.702695
-15.5379 44.1412 84.7813 0.474864 -0.540428 -0.694581
-16.5015 44.8897 83.5448 0.489231 -0.534551 -0.688914
-17.0483 45.4669 82.6878 0.502899 -0.525411 -0.686258
-15.7387 46.3971 82.8867 0.464476 -0.547749 -0.695869
-14.5033 47.3074 82.9787 0.430996 -0.566769 -0.701668
-13.4524 47.9212 83.0878 0.415397 -0.560575 -0.716247
-11.8862 48.8708 83.2151 0.354216 -0.570564 -0.740848
-10.7239 49.5101 83.2597 0.323427 -0.579694 -0.747477
-8.93107 50.1597 83.4172 0.272314 -0.610718 -0.743551
-7.40161 50.7928 83.4449 0.261007 -0.619769 -0.740109
-6.26817 51.4278 83.315 0.252547 -0.617377 -0.744956
-4.63679 51.7962 83.5307 0.237584 -0.618263 -0.749203
-3.07393 52.643 83.2516 0.196783 -0.632994 -0.748728
-1.99114 53.3971 82.8975 0.177784 -0.641221 -0.746199
-0.985349 54.1212 82.4811 0.159 -0.648807 -0.744156
-0.000124281 54.8292 82.0522 0.129176 -0.675235 -0.725722
0.855293 55.6827 81.3666 0.104796 -0.684501 -0.72144
1.30027 56.5113 80.5995 0.0972885 -0.714377 -0.692965
1.8242 57.5577 79.5595 0.0753518 -0.720773 -0.689046
2.26175 58.3604 78.7748 0.0598448 -0.732911 -0.677184
2.33355 59.3441 77.6674 0.0454416 -0.748306 -0.661795
1.89407 60.3786 76.3302 0.0731694 -0.80662 -0.585591
1.42736 61.1841 75.1027 0.0394397 -0.807479 -0.587543
0.522829 62.025 73.9851 0.0216995 -0.790396 -0.612211
-0.309304 62.6694 73.089 0.0688148 -0.786454 -0.613803
-1.35362 63.142 72.0838 0.142627 -0.850103 -0.506935
-2.41056 63.6745 70.8934 0.14792 -0.85084 -0.504137
-3.2243 64.0107 69.9555 0.169825 -0.894106 -0.414407
-3.34082 64.0601 69.754 0.187914 -0.901877 -0.38898
-3.45733 64.1095 69.5525 0.2059 -0.908749 -0.363017
-3.57385 64.1589 69.351 0.223725 -0.914687 -0.336593
-3.69037 64.2082 69.1494 0.241331 -0.919668 -0.30979
-3.80689 64.2576 68.9479 0.258663 -0.923677 -0.282692
-3.9234 64.307 68.7464 0.275669 -0.926706 -0.255386
-4.03992 64.3564 68.5449 0.292299 -0.92876 -0.227961
-4.10467 64.6116 67.4222 0.284465 -0.935346 -0.209163
-3.73402 64.9665 66.2046 0.276629 -0.941934 -0.190357
-3.21356 65.306 65.1478 0.36717 -0.926807 -0.0788395
-2.89377 65.7412 63.832 0.369868 -0.905267 -0.209018
-2.7439 66.1129 62.4874 0.370006 -0.905458 -0.207943
-2.60702 66.5402 61.0969 0.438298 -0.861484 -0.256398
-2.59819 66.5676 60.9295 0.431531 -0.873312 -0.226071
-2.58936 66.595 60.7621 0.424243 -0.884234 -0.195314
-2.58053 66.6224 60.5947 0.416452 -0.894202 -0.164227
-2.57171 66.6498 60.4273 0.40818 -0.903174 -0.132913
-2.56288 66.6772 60.2599 0.399456 -0.911119 -0.101477
-2.55405 66.7046 60.0925 0.39031 -0.918017 -0.0700262
-2.54522 66.732 59.9251 0.380485 -0.923141 -0.0386364
-2.31306 66.7581 58.4831 0.216203 -0.974587 0.0586197
-2.31931 66.7662 58.2956 0.200107 -0.979044 0.0378275
-2.32557 66.7744 58.1081 0.183813 -0.982815 0.016938
-2.33182 66.7825 57.9206 0.167356 -0.985888 -0.00400442
-2.33807 66.7907 57.7331 0.15077 -0.988254 -0.0249547
-2.34432 66.7988 57.5456 0.13409 -0.989907 -0.0458677
-2.35058 66.807 57.3581 0.117354 -0.990848 -0.0666986
-2.35683 66.8151 57.1706 0.100598 -0.991081 -0.0874035
-2.37407 66.8125 56.9787 0.0949925 -0.992943 -0.0709924
-2.39132 66.8098 56.7869 0.0893482 -0.994507 -0.0545309
-2.40856 66.8072 56.595 0.0836702 -0.995767 -0.0380339
-2.4258 66.8045 56.4031 0.0779635 -0.996724 -0.0215166
-2.44304 66.8019 56.2112 0.0722335 -0.997375 -0.00499404
-2.46029 66.7992 56.0194 0.0664853 -0.997721 0.0115185
-2.47753 66.7966 55.8275 0.0606772 -0.996987 0.0279843
-2.57663 66.7679 54.9641 0.0898783 -0.995656 0.0243103
-3.72121 66.5077 55.1143 0.278051 -0.95716 -0.0805413
-3.59187 66.5326 56.3315 0.329824 -0.940738 0.0348374
-3.36464 66.5035 57.9879 0.32517 -0.934641 -0.143912
-3.62844 66.3281 59.2334 0.290477 -0.954488 -0.0676449
-3.63217 66.2288 60.3909 0.404217 -0.883567 -0.231635
-3.84323 65.8555 61.6471 0.370139 -0.90565 -0.206871
-4.04408 65.4517 63.0504 0.390032 -0.894067 -0.218839
-4.28515 64.9742 64.4614 0.410268 -0.882813 -0.228739
-4.73227 64.6696 65.5566 0.367168 -0.926813 -0.0787708
-5.12753 64.4213 66.6359 0.407777 -0.907382 -0.0905363
-5.21538 63.8653 68.6255 0.421896 -0.871184 -0.251083
-4.61578 63.7867 69.6689 0.426123 -0.789526 -0.439472
-3.97745 63.4829 70.7149 0.286832 -0.835715 -0.452991
-3.00406 63.0097 71.8413 0.14792 -0.85084 -0.504137
-2.14764 62.4966 72.8862 0.144663 -0.823916 -0.547937
-1.35752 62.0551 73.7587 0.106697 -0.805168 -0.580897
-0.335445 61.3816 74.7364 0.0689154 -0.786492 -0.613743
0.332116 60.8022 75.5538 0.0687585 -0.786626 -0.613589
0.701421 59.9633 76.6938 0.0891586 -0.788674 -0.608312
1.16854 59.209 77.7402 0.0672975 -0.768492 -0.635052
0.869688 58.1899 78.8022 0.0742454 -0.717518 -0.692572
0.605517 57.3841 79.6108 0.0715716 -0.710052 -0.700401
-0.158562 56.0422 80.8782 0.101041 -0.69944 -0.707202
-1.10356 55.2397 81.4455 0.153563 -0.665975 -0.729997
-2.16302 54.4589 81.935 0.156278 -0.657392 -0.737076
-3.3179 53.6071 82.3711 0.19657 -0.633635 -0.748243
-4.49921 52.7566 82.781 0.196783 -0.632994 -0.748728
-5.67997 52.3995 82.6935 0.244152 -0.623096 -0.743062
-6.87531 52.0726 82.5748 0.252546 -0.617377 -0.744956
-8.00327 51.4493 82.6912 0.260992 -0.611679 -0.746815
-9.27461 50.9751 82.6224 0.272014 -0.609904 -0.744329
-10.4808 50.4824 82.5853 0.294764 -0.609713 -0.735372
-11.8865 49.8705 82.4305 0.34688 -0.579554 -0.737422
-13.2411 49.0615 82.3415 0.423064 -0.549608 -0.720381
-14.2324 48.4748 82.207 0.423035 -0.549593 -0.720409
-15.3171 47.8167 82.0333 0.440357 -0.518265 -0.733135
-16.1879 47.054 82.0698 0.474211 -0.545234 -0.691174
-17.5818 46.4432 81.57 0.492795 -0.530663 -0.689433
-18.4155 45.5158 81.614 0.537856 -0.51167 -0.670004
-18.1157 44.6018 82.5804 0.515351 -0.541212 -0.664457
-17.4282 44.2157 83.3985 0.444414 -0.65917 -0.587256
-16.763 43.2808 84.5457 0.378517 -0.518688 -0.755091
-16.1522 42.5925 85.4867 0.51917 -0.529408 -0.670962
-15.1991 43.2368 85.7159 0.497258 -0.534486 -0.682959
-14.035 43.9659 85.8917 0.446556 -0.570471 -0.689311
-12.678 44.7939 86.0158 0.406671 -0.589371 -0.69804
-11.6082 45.5487 86.0111 0.369862 -0.581597 -0.724123
-10.2063 46.3115 86.0691 0.335533 -0.596283 -0.729053
-9.32445 47.0724 85.8191 0.296427 -0.612599 -0.732703
-8.23293 47.221 86.1369 0.292005 -0.618846 -0.72917
-7.07519 47.5718 86.2783 0.269157 -0.629928 -0.728523
-5.66106 48.0678 86.3636 0.25245 -0.646202 -0.720185
-4.52846 48.572 86.3107 0.249801 -0.642496 -0.72443
-3.13113 49.0123 86.3751 0.232593 -0.6424 -0.730205
-1.47109 49.6601 86.2819 0.205467 -0.65536 -0.726833
0.0251755 50.2861 86.1444 0.219962 -0.671791 -0.707328
1.46328 50.7459 86.077 0.181657 -0.679626 -0.71071
2.82227 51.1062 86.0798 0.181692 -0.679617 -0.71071
4.03394 51.4172 86.0287 0.145204 -0.691263 -0.707864
5.48219 51.889 85.8497 0.108193 -0.697132 -0.708732
6.76298 52.2144 85.7265 0.10905 -0.697417 -0.70832
8.35355 52.6542 85.4586 0.052326 -0.737867 -0.672915
9.24102 53.1722 84.9691 0.0641676 -0.739002 -0.67064
9.87421 53.8309 84.2661 0.0275652 -0.763286 -0.645472
10.3982 54.8434 83.103 0.0274236 -0.759407 -0.650037
10.1833 55.6469 82.1642 0.00834353 -0.755685 -0.65486
9.72354 56.5608 81.0525 -0.0690323 -0.793676 -0.604411
9.07337 57.3402 80.1056 -0.0693568 -0.792351 -0.60611
8.3742 58.3299 78.8719 -0.0342186 -0.7813 -0.622974
8.07257 59.228 77.5911 -0.0927749 -0.837206 -0.538961
7.5849 60.0318 76.4265 -0.0956492 -0.835179 -0.541579
7.43797 60.8242 75.2302 -0.118162 -0.83997 -0.529203
6.87259 61.6127 74.0976 -0.139915 -0.869259 -0.470955
6.34003 62.3051 72.7281 -0.126263 -0.90532 -0.405527
5.89959 63.0074 71.2647 -0.247298 -0.886867 -0.390269
5.60546 63.5305 70.2623 -0.257862 -0.907222 -0.325085
5.32673 63.935 69.1239 -0.298058 -0.91387 -0.275687
5.36211 64.2907 67.9067 -0.298071 -0.913848 -0.275746
5.01062 64.6437 66.6624 -0.27584 -0.945346 -0.173879
4.97206 64.8689 65.4805 -0.278666 -0.945237 -0.16992
4.98058 65.042 64.3735 -0.257715 -0.958256 -0.12381
4.88995 65.2603 62.872 -0.257681 -0.95827 -0.12377
4.72404 65.4559 61.7204 -0.251555 -0.960627 -0.117359
4.79989 65.5627 60.5091 -0.23122 -0.968351 -0.0939916
4.86303 65.6627 59.3233 -0.231073 -0.968358 -0.094277
4.78734 65.7748 58.1643 -0.236423 -0.969126 -0.069999
4.65761 65.8926 56.5355 -0.223241 -0.973775 -0.0438735
4.69027 65.9557 55.2705 -0.210329 -0.975322 -0.0671468
4.80613 66.0269 53.7722 -0.205328 -0.976735 -0.0618721
4.81118 66.0966 52.5917 -0.195241 -0.979988 -0.0377294
5.13628 66.0933 51.2297 -0.198991 -0.978867 -0.0471386
5.28962 66.1449 49.6132 -0.203727 -0.977658 -0.051649
5.46809 66.1725 48.3086 -0.206416 -0.977181 -0.050078
5.81388 66.1457 47.0867 -0.21911 -0.975135 -0.0332031
6.01534 66.1474 45.3816 -0.234388 -0.971852 -0.023319
5.72406 66.2473 44.2753 -0.238786 -0.970706 -0.0265858
5.28726 66.3393 44.8784 -0.240854 -0.970266 -0.0238035
4.5829 66.4782 45.9065 -0.227108 -0.972142 -0.0579755
3.56766 66.6494 46.9978 -0.213675 -0.97583 -0.0458141
2.61874 66.79 47.8917 -0.202196 -0.976747 -0.0707684
1.54015 66.9369 48.6271 -0.167602 -0.980825 -0.0994568
1.33402 66.9554 48.7352 -0.161387 -0.981882 -0.099306
1.12788 66.974 48.8434 -0.155164 -0.9829 -0.0991512
0.921746 66.9925 48.9515 -0.148935 -0.98388 -0.0989924
0.715611 67.011 49.0596 -0.142699 -0.98482 -0.0988297
0.509476 67.0295 49.1677 -0.136458 -0.985721 -0.0986631
0.303342 67.0481 49.2759 -0.130212 -0.986582 -0.0984925
0.097207 67.0666 49.384 -0.123962 -0.987404 -0.0983181
-0.0594351 67.0708 49.4677 -0.110931 -0.988253 -0.105124
-0.216077 67.075 49.5513 -0.0978586 -0.988887 -0.111916
-0.372719 67.0792 49.635 -0.0847542 -0.989308 -0.11869
-0.529362 67.0834 49.7186 -0.0716257 -0.989512 -0.12544
-0.686004 67.0876 49.8023 -0.0584818 -0.989501 -0.132163
-0.842646 67.0918 49.886 -0.0453311 -0.989275 -0.138854
-0.999288 67.096 49.9696 -0.0321821 -0.988833 -0.145509
-1.15593 67.1002 50.0533 -0.0190435 -0.988178 -0.152124
-1.3051 67.0875 50.0698 -0.00785319 -0.988775 -0.149208
-1.45426 67.0749 50.0863 0.00334872 -0.989239 -0.146268
-1.60343 67.0622 50.1028 0.0145577 -0.989571 -0.143307
-1.75259 67.0496 50.1193 0.0257693 -0.98977 -0.140326
-1.90176 67.0369 50.1358 0.0369789 -0.989836 -0.137325
-2.05092 67.0243 50.1523 0.048182 -0.989768 -0.134306
-2.20009 67.0116 50.1688 0.0593741 -0.989567 -0.131271
-2.34925 66.999 50.1853 0.0705507 -0.989233 -0.12822
-2.49842 66.9863 50.2018 0.0817073 -0.988767 -0.125154
-2.70277 66.9616 50.2121 0.106912 -0.986804 -0.121601
-2.90712 66.9369 50.2224 0.132159 -0.984186 -0.117953
-3.11147 66.9122 50.2327 0.157397 -0.980908 -0.114216
-3.31581 66.8876 50.2431 0.182577 -0.976974 -0.110396
-3.52016 66.8629 50.2534 0.207648 -0.972389 -0.1065
-3.72451 66.8382 50.2637 0.232559 -0.967162 -0.102537
-3.92886 66.8135 50.274 0.256238 -0.957475 -0.0981228
-5.10584 66.3638 50.7123 0.300727 -0.945888 -0.121896
-5.15917 66.2092 52.0774 0.341358 -0.936421 -0.0811851
-4.41884 66.4177 53.0514 0.336197 -0.93998 -0.0304179
-3.90276 66.5254 54.1401 0.290725 -0.955825 -0.0433247
-3.76392 66.5187 54.8232 0.284099 -0.955628 -0.0778691
-6.09086 49.7625 84.7532 0.238245 -0.627982 -0.740781
-6.824 49.7827 84.4945 0.265973 -0.61524 -0.742084
-8.00778 49.5505 84.254 0.270941 -0.610713 -0.744057
-9.11666 49.2443 84.1011 0.286259 -0.595658 -0.750189
-10.9726 48.4412 83.981 0.323428 -0.579695 -0.747476
-12.045 47.7299 84.0205 0.377879 -0.617791 -0.689595
-11.5239 47.7651 84.2744 0.357528 -0.606602 -0.709419
-10.0109 48.5866 84.2606 0.309523 -0.610438 -0.729082
-8.70919 48.9834 84.469 0.276546 -0.615977 -0.73759
-7.51961 49.2115 84.715 0.271216 -0.620814 -0.735549
-6.41273 49.5461 84.8354 0.242131 -0.633531 -0.734846
-15.4829 45.5136 83.7551 0.464777 -0.548895 -0.694764
-14.4299 45.7602 84.2372 0.418296 -0.556468 -0.717894
-12.9457 46.6075 84.4288 0.398003 -0.570384 -0.718432
-12.7626 47.2214 84.0428 0.398002 -0.570381 -0.718435
-14.1153 46.4956 83.8505 0.412816 -0.563269 -0.715703
-14.9402 46.0197 83.7182 0.464776 -0.548896 -0.694763
-30.5857 28.4767 68.7708 0.485356 -0.861411 -0.149258
-31.1296 28.5597 67.1472 0.41691 -0.880969 -0.223783
-31.602 27.8655 68.9999 0.449489 -0.8712 -0.191807
-30.4836 28.5144 68.8971 0.488643 -0.861392 -0.138683
-30.2484 28.4294 70.3463 0.517317 -0.848952 -0.0992803
-29.1112 29.2018 70.0657 0.545976 -0.834766 -0.0712541
-29.185 29.297 68.8117 0.516616 -0.847565 -0.12033
-29.6206 29.2626 67.4269 0.477404 -0.864731 -0.155944
-30.5047 29.2173 65.8111 0.39721 -0.866158 -0.296392
-31.4837 28.8542 65.6587 0.373129 -0.857011 -0.355398
-32.976 27.6947 66.9313 0.41225 -0.865725 -0.283849
-33.0373 27.1841 68.6053 0.4777 -0.840752 -0.25483
-32.4986 27.1336 69.9536 0.50121 -0.845595 -0.183734
-31.1699 27.9019 70.2454 0.535733 -0.827411 -0.16847
-30.8442 28.0988 70.3146 0.511146 -0.846108 -0.146223
-30.4053 28.1828 71.4905 0.554402 -0.822967 -0.123953
-31.6343 27.3771 71.3429 0.542368 -0.825532 -0.152808
-33.3741 26.5565 70.2212 0.501283 -0.845597 -0.183522
-34.2807 26.4356 68.7895 0.453106 -0.85021 -0.268027
-34.6335 26.6807 67.4738 0.448389 -0.839554 -0.306753
-34.1773 27.3436 66.2575 0.407473 -0.851571 -0.326701
-33.2917 28.1366 65.4254 0.402675 -0.837446 -0.369508
-32.2707 28.9088 64.6909 0.376893 -0.856261 -0.353227
-31.5123 29.6459 63.8142 0.378737 -0.83618 -0.396687
-30.864 30.3392 62.841 0.322101 -0.84938 -0.414708
-30.731 31.1979 61.5222 0.296584 -0.803836 -0.515642
-30.4916 31.8021 60.7354 0.294507 -0.788929 -0.53901
-30.3576 30.9359 62.1452 0.296536 -0.803787 -0.515744
-29.8207 30.4743 63.422 0.317936 -0.873882 -0.36776
-29.3708 30.0853 64.805 0.398352 -0.866826 -0.29988
-29.0182 29.7882 66.3325 0.381283 -0.89264 -0.237893
-28.4646 29.8379 67.8216 0.477403 -0.872751 -0.0984597
-28.0099 29.9959 69.2157 0.540785 -0.83961 -0.0343834
-27.4878 30.2997 70.5778 0.5877 -0.80905 -0.00684841
-27.3195 30.4286 71.6813 0.681391 -0.729295 0.0597695
-28.3666 29.6363 71.5777 0.62891 -0.776283 -0.0431002
-29.9655 28.4735 71.4788 0.543188 -0.830819 -0.121187
-30.3146 28.2413 71.5057 0.543246 -0.830773 -0.121243
-30.6687 39.6011 53.9624 0.501438 -0.466271 -0.728735
-30.3564 40.8427 53.386 0.526435 -0.450887 -0.72081
-30.4502 41.0517 53.1853 0.525025 -0.456563 -0.718261
-30.8474 39.6593 53.8002 0.50194 -0.474352 -0.72322
-31.0374 38.649 54.3132 0.42749 -0.519449 -0.739882
-31.14 37.5061 55.0367 0.413606 -0.521446 -0.745558
-30.7924 38.5564 54.5197 0.466518 -0.4837 -0.738643
-30.8113 39.1937 54.1193 0.50093 -0.45819 -0.734255
6.95106 55.221 82.5604 0.0531196 -0.752697 -0.656221
5.34278 54.2889 83.4152 0.0973359 -0.724845 -0.682001
4.98448 54.0697 83.5953 0.0950778 -0.72016 -0.687263
3.36285 53.8234 83.6201 0.133777 -0.682629 -0.718416
4.57483 54.5606 83.0093 0.0995904 -0.729491 -0.676701
5.59154 55.177 82.4944 0.09959 -0.729491 -0.676702
6.7331 55.8131 81.8636 0.0550382 -0.742906 -0.66713
6.07847 56.175 81.4173 0.0569501 -0.732953 -0.677892
5.18018 55.6649 81.9079 0.0763855 -0.741381 -0.666723
4.13772 55.0376 82.4438 0.0676029 -0.721659 -0.68894
3.14102 54.4444 82.9674 0.0977782 -0.709485 -0.697904
2.08619 53.7576 83.4363 0.13966 -0.668498 -0.730483
1.42086 53.3092 83.7194 0.13966 -0.668501 -0.730481
0.399106 53.4085 83.4204 0.173161 -0.657222 -0.733535
1.41542 54.1 82.9946 0.133781 -0.682629 -0.718415
2.62871 54.8789 82.446 0.127845 -0.696499 -0.706077
3.75607 55.5559 81.8634 0.0676029 -0.721659 -0.68894
4.74711 56.1458 81.3429 0.0580904 -0.725344 -0.685931
5.67115 56.6796 80.8386 0.0485566 -0.729067 -0.682718
5.86404 56.791 80.7333 0.0527541 -0.73102 -0.680314
5.31943 57.215 80.2418 0.0485566 -0.729067 -0.682718
4.35386 56.6572 80.7688 0.0580904 -0.725344 -0.685931
3.3706 56.072 81.285 0.0676184 -0.721538 -0.689065
3.09094 55.9056 81.4319 0.0676106 -0.721599 -0.689002
3.50918 56.9 80.4317 0.0676194 -0.721538 -0.689065
4.8567 57.6863 79.7056 0.0427708 -0.744098 -0.6667
4.94283 57.7342 79.6545 0.0369605 -0.758744 -0.650339
4.70036 58.3164 78.9616 0.0369605 -0.758744 -0.650339
5.08293 58.5293 78.7349 0.0369595 -0.758745 -0.650339
4.52214 58.9404 78.2349 0.0254385 -0.750367 -0.660531
4.13767 58.7266 78.4629 0.0254389 -0.750367 -0.660532
4.40574 59.6047 77.4757 0.0254385 -0.750367 -0.660531
4.50547 59.6602 77.4166 -0.00389709 -0.791632 -0.610986
4.05314 60.7266 75.8596 -0.0324946 -0.829496 -0.557567
3.7618 60.5962 76.0704 -0.0324931 -0.829494 -0.55757
3.93678 61.3085 75.0006 -0.047163 -0.843252 -0.535445
3.96383 61.319 74.9799 -0.0617843 -0.856257 -0.512841
3.77742 61.8328 74.1444 -0.0617843 -0.856257 -0.512841
3.86115 61.8653 74.0801 -0.0649549 -0.851972 -0.519542
3.24616 62.2326 73.568 -0.0681198 -0.847623 -0.526209
2.97818 62.1259 73.7746 -0.066976 -0.847828 -0.526024
1.4348 63.3242 72.0365 -0.0659285 -0.847408 -0.526832
2.5583 63.8194 71.0994 -0.131552 -0.860824 -0.491605
2.24679 64.2988 70.3155 -0.199469 -0.895047 -0.398877
1.05895 63.8125 71.3116 -0.109672 -0.826722 -0.551817
0.846256 63.7228 71.4882 -0.10967 -0.826723 -0.551817
0.0453362 64.0841 71.1061 0.0476623 -0.828512 -0.557939
0.983135 64.4795 70.3274 -0.108244 -0.815365 -0.568738
1.13094 64.5157 70.1994 -0.131412 -0.828574 -0.544239
1.27874 64.5519 70.0714 -0.15456 -0.840774 -0.518855
1.42654 64.5881 69.9434 -0.177595 -0.851898 -0.492675
1.57434 64.6243 69.8154 -0.200422 -0.861894 -0.465799
1.72215 64.6605 69.6874 -0.222951 -0.870721 -0.438335
1.86995 64.6967 69.5594 -0.245092 -0.878354 -0.410396
2.01775 64.7329 69.4314 -0.266763 -0.884779 -0.382103
2.20914 65.1578 68.1222 -0.248027 -0.947482 -0.201894
1.26019 65.131 69.0758 -0.293524 -0.879857 -0.373758
1.122 65.0966 69.1955 -0.293963 -0.85973 -0.417672
0.983819 65.0623 69.3151 -0.293709 -0.837318 -0.461122
0.845634 65.0279 69.4348 -0.292743 -0.812719 -0.503775
0.707448 64.9936 69.5545 -0.291062 -0.786082 -0.545305
0.569263 64.9592 69.6742 -0.288679 -0.757601 -0.58541
0.431077 64.9249 69.7938 -0.28562 -0.727509 -0.623821
0.292892 64.8905 69.9135 -0.281927 -0.696066 -0.660309
0.209685 64.8373 69.975 -0.217026 -0.719268 -0.659965
0.126478 64.784 70.0364 -0.149403 -0.739511 -0.656356
0.043271 64.7308 70.0979 -0.079968 -0.756287 -0.649335
-0.039936 64.6776 70.1593 -0.00975762 -0.769223 -0.638906
-0.123143 64.6244 70.2208 0.0601405 -0.778119 -0.625231
-0.20635 64.5711 70.2822 0.128669 -0.782962 -0.608617
-0.289557 64.5179 70.3437 0.194879 -0.783918 -0.589487
-0.79503 64.8415 69.8041 0.185494 -0.756281 -0.627401
0.0636438 65.5408 69.1888 0.218692 -0.898331 -0.38102
0.175873 65.5417 69.0718 0.153086 -0.91814 -0.36549
0.288103 65.5425 68.9547 0.0841058 -0.933923 -0.34744
0.400333 65.5434 68.8377 0.0126699 -0.944962 -0.326935
0.512562 65.5442 68.7207 -0.0600961 -0.950719 -0.304175
0.624792 65.5451 68.6036 -0.132937 -0.950902 -0.279486
0.737021 65.5459 68.4866 -0.204571 -0.945509 -0.253304
0.849251 65.5468 68.3696 -0.273802 -0.934825 -0.226131
0.96148 65.5476 68.2525 -0.339612 -0.919382 -0.198496
1.07371 65.5485 68.1355 -0.401229 -0.899893 -0.170905
2.10546 65.3893 67.023 -0.229037 -0.971223 -0.0653318
2.11106 65.5137 65.7647 -0.190792 -0.974114 -0.121242
1.99481 65.5317 65.8913 -0.200913 -0.973379 -0.110302
1.87855 65.5497 66.0179 -0.211002 -0.972426 -0.0993225
1.7623 65.5677 66.1444 -0.221053 -0.971255 -0.088311
1.64604 65.5857 66.271 -0.231059 -0.969866 -0.0772748
1.52979 65.6037 66.3976 -0.241014 -0.96826 -0.0662214
1.41354 65.6217 66.5241 -0.25091 -0.966438 -0.0551581
1.29728 65.6397 66.6507 -0.260741 -0.964401 -0.0440923
1.18103 65.6577 66.7773 -0.270501 -0.962153 -0.0330316
1.09877 65.6672 66.8649 -0.253842 -0.967245 -0.00114087
1.0165 65.6766 66.9524 -0.236633 -0.9711 0.0311484
0.934236 65.6861 67.04 -0.218932 -0.973658 0.0637107
0.851971 65.6956 67.1275 -0.200801 -0.974876 0.0964131
0.769706 65.705 67.2151 -0.18231 -0.974726 0.129118
0.687441 65.7145 67.3026 -0.163534 -0.973198 0.161687
0.605176 65.7239 67.3902 -0.144555 -0.970296 0.193981
0.522911 65.7334 67.4777 -0.125453 -0.966046 0.225867
0.440647 65.7429 67.5653 -0.10631 -0.960488 0.257218
0.358382 65.7523 67.6528 -0.0872083 -0.953677 0.287915
0.276117 65.7618 67.7404 -0.0682254 -0.945682 0.317852
0.187494 65.7309 67.8259 -0.029695 -0.960195 0.277747
0.098872 65.6999 67.9114 0.0100655 -0.97182 0.23551
0.0102495 65.669 67.9969 0.0506818 -0.980188 0.191473
-0.00241086 65.6646 68.0091 0.0565582 -0.981105 0.185027
-0.0150712 65.6601 68.0213 0.0624325 -0.981946 0.178564
-0.0277316 65.6557 68.0335 0.0683034 -0.982711 0.172086
-0.0403919 65.6513 68.0458 0.0741694 -0.983401 0.165594
-0.0530523 65.6469 68.058 0.0800293 -0.984015 0.15909
-0.0657126 65.6424 68.0702 0.0858817 -0.984553 0.152575
-0.078373 65.638 68.0824 0.0917252 -0.985016 0.146051
-0.0910334 65.6336 68.0946 0.0976063 -0.985405 0.139465
-0.103694 65.6292 68.1068 0.103482 -0.985717 0.132866
-0.116354 65.6248 68.119 0.109351 -0.985952 0.126256
-0.129015 65.6203 68.1313 0.115212 -0.98611 0.119634
-0.141675 65.6159 68.1435 0.121064 -0.986191 0.113004
-0.154336 65.6115 68.1557 0.126905 -0.986195 0.106367
-0.166996 65.6071 68.1679 0.132733 -0.986122 0.0997236
-0.179656 65.6027 68.1801 0.138551 -0.985972 0.0930727
-0.192317 65.5982 68.1923 0.144361 -0.985745 0.086412
-0.204977 65.5938 68.2045 0.15016 -0.985441 0.0797429
-0.217637 65.5894 68.2168 0.155948 -0.985059 0.0730671
-0.230297 65.585 68.229 0.161724 -0.984601 0.0663861
-0.242958 65.5805 68.2412 0.167486 -0.984065 0.0597014
-0.255618 65.5761 68.2534 0.173232 -0.983453 0.0530147
-0.268278 65.5717 68.2656 0.178921 -0.98277 0.0463747
-0.280939 65.5673 68.2778 0.184599 -0.982011 0.0397286
-0.293599 65.5629 68.29 0.190264 -0.981176 0.0330779
-0.30626 65.5584 68.3023 0.195915 -0.980265 0.0264241
-0.31892 65.554 68.3145 0.20155 -0.979279 0.0197688
-0.331581 65.5496 68.3267 0.207168 -0.978218 0.0131135
-0.344241 65.5452 68.3389 0.212768 -0.977081 0.00645978
-0.432863 65.5142 68.4244 0.250928 -0.967203 -0.0394225
-0.521486 65.4833 68.5099 0.287363 -0.954117 -0.0841583
-0.610108 65.4523 68.5954 0.321798 -0.938206 -0.12734
-1.51478 64.8591 69.3489 0.417825 -0.810255 -0.410986
-1.88843 65.0663 68.5606 0.358893 -0.891545 -0.276303
-0.675926 65.5945 67.4462 0.279237 -0.946482 -0.161861
-0.583263 65.6058 67.3493 0.241794 -0.957338 -0.158241
-0.4906 65.6172 67.2525 0.203493 -0.966837 -0.154327
-0.397936 65.6285 67.1556 0.164496 -0.974886 -0.150129
-0.305273 65.6399 67.0588 0.124978 -0.981409 -0.145661
-0.21261 65.6512 66.9619 0.0851275 -0.986351 -0.14094
-0.119947 65.6625 66.8651 0.0451375 -0.989682 -0.135989
-0.106709 65.6641 66.8513 0.0394367 -0.990024 -0.135266
-0.0934717 65.6658 66.8374 0.0337336 -0.990334 -0.134538
-0.0802341 65.6674 66.8236 0.0280289 -0.990611 -0.133806
-0.0669965 65.669 66.8097 0.022323 -0.990855 -0.133069
-0.0537589 65.6706 66.7959 0.0166166 -0.991067 -0.132328
-0.0405212 65.6723 66.782 0.0109102 -0.991245 -0.131583
-0.0272836 65.6739 66.7682 0.00520435 -0.991391 -0.130833
-0.014046 65.6755 66.7544 -0.000464703 -0.991503 -0.130084
-0.000808401 65.6771 66.7405 -0.00613467 -0.991583 -0.12933
0.0124292 65.6787 66.7267 -0.011805 -0.99163 -0.128572
0.0256668 65.6804 66.7129 -0.0174751 -0.991645 -0.12781
0.0389044 65.682 66.6991 -0.0231445 -0.991627 -0.127044
0.052142 65.6836 66.6852 -0.0288125 -0.991577 -0.126273
0.0653796 65.6852 66.6714 -0.0344787 -0.991494 -0.125499
0.0786172 65.6868 66.6576 -0.0400893 -0.991381 -0.124728
0.0918549 65.6885 66.6437 -0.0456995 -0.991235 -0.123953
0.105092 65.6901 66.6299 -0.0513087 -0.991058 -0.123174
0.11833 65.6917 66.616 -0.0569165 -0.990849 -0.122391
0.131568 65.6933 66.6022 -0.0625223 -0.990608 -0.121604
0.144805 65.695 66.5883 -0.0681256 -0.990335 -0.120814
0.158043 65.6966 66.5745 -0.0737257 -0.99003 -0.120019
0.250706 65.7079 66.4777 -0.112362 -0.987057 -0.114423
0.418211 65.7112 66.2997 -0.117326 -0.986089 -0.117743
0.585716 65.7146 66.1217 -0.122287 -0.985084 -0.121059
0.753221 65.7179 65.9437 -0.127244 -0.984043 -0.124372
0.920725 65.7213 65.7656 -0.132197 -0.982966 -0.12768
1.08823 65.7246 65.5876 -0.137144 -0.981853 -0.130983
1.25574 65.728 65.4096 -0.142086 -0.980704 -0.134281
1.42324 65.7313 65.2316 -0.147022 -0.979519 -0.137573
2.04543 65.7073 64.5568 -0.19455 -0.970122 -0.144963
1.84855 65.906 63.4913 -0.207441 -0.969301 -0.132
0.454927 65.8657 64.9497 -0.0991399 -0.986566 -0.129842
0.344153 65.8641 65.0681 -0.100795 -0.98665 -0.127918
0.233379 65.8625 65.1866 -0.102449 -0.986727 -0.125992
0.122605 65.8609 65.305 -0.104103 -0.986798 -0.124066
0.0118305 65.8593 65.4235 -0.105756 -0.986863 -0.122139
-0.0989436 65.8577 65.542 -0.107409 -0.986921 -0.120211
-0.209718 65.8561 65.6604 -0.109061 -0.986973 -0.118282
-0.320492 65.8545 65.7789 -0.110712 -0.987018 -0.116353
-0.431266 65.8529 65.8973 -0.112362 -0.987057 -0.114423
-0.561472 65.8033 66.0276 -0.0705889 -0.989802 -0.123727
-0.580073 65.7962 66.0462 -0.0645296 -0.990049 -0.125056
-0.598674 65.7891 66.0648 -0.0584667 -0.990257 -0.126379
-0.617275 65.782 66.0834 -0.0524008 -0.990428 -0.127699
-0.635875 65.775 66.1021 -0.0463327 -0.99056 -0.129013
-0.654476 65.7679 66.1207 -0.040263 -0.990654 -0.130322
-0.673077 65.7608 66.1393 -0.0341924 -0.99071 -0.131626
-0.691678 65.7537 66.1579 -0.0281217 -0.990727 -0.132925
-0.710279 65.7466 66.1765 -0.021991 -0.990706 -0.134231
-0.72888 65.7395 66.1951 -0.0158583 -0.990646 -0.135532
-0.747481 65.7324 66.2137 -0.00972422 -0.990547 -0.136828
-0.766081 65.7254 66.2324 -0.00358952 -0.990409 -0.138119
-0.784682 65.7183 66.251 0.00254509 -0.990232 -0.139404
-0.803283 65.7112 66.2696 0.00867887 -0.990017 -0.140683
-0.821884 65.7041 66.2882 0.0148111 -0.989762 -0.141957
-0.95209 65.6545 66.4185 0.0579662 -0.986869 -0.150765
-1.0823 65.605 66.5488 0.101092 -0.982041 -0.159297
-1.2125 65.5554 66.6791 0.143937 -0.975308 -0.167501
-1.34271 65.5058 66.8094 0.186255 -0.96673 -0.175334
-1.47291 65.4562 66.9397 0.227813 -0.9564 -0.182759
-1.60312 65.4066 67.07 0.268398 -0.944436 -0.189747
-1.94351 65.246 67.388 0.268398 -0.944436 -0.189744
-1.12524 65.7801 65.3039 0.209104 -0.970876 -0.116945
-1.02362 65.8036 65.1981 0.177087 -0.976418 -0.123482
-0.921997 65.8271 65.0924 0.144582 -0.980924 -0.12994
-0.820375 65.8505 64.9866 0.111691 -0.984352 -0.136296
-0.718753 65.874 64.8809 0.0785218 -0.986672 -0.142525
-0.617131 65.8975 64.7751 0.0451862 -0.987864 -0.148605
-0.51551 65.921 64.6693 0.0117986 -0.98792 -0.154514
-0.413888 65.9445 64.5636 -0.0215259 -0.986845 -0.160232
-0.312266 65.9679 64.4578 -0.0546738 -0.984652 -0.165743
-0.210645 65.9914 64.3521 -0.0875349 -0.98137 -0.171029
-0.109023 66.0149 64.2463 -0.120004 -0.977034 -0.17608
0.0716717 66.0312 64.061 -0.126335 -0.975837 -0.178273
0.252366 66.0475 63.8757 -0.132661 -0.974595 -0.180459
0.433061 66.0638 63.6904 -0.138982 -0.973308 -0.182637
0.613756 66.08 63.5051 -0.145297 -0.971975 -0.184806
0.794451 66.0963 63.3198 -0.151605 -0.970597 -0.186967
0.975145 66.1126 63.1345 -0.157905 -0.969175 -0.189119
1.15584 66.1289 62.9492 -0.164196 -0.967708 -0.191261
1.91909 66.1025 62.1555 -0.243068 -0.956977 -0.15847
1.75446 66.3241 61.0697 -0.215423 -0.963409 -0.159489
0.745134 66.3468 62.1135 -0.187604 -0.969063 -0.160379
0.612267 66.3396 62.2501 -0.180947 -0.968825 -0.169224
0.4794 66.3324 62.3867 -0.174264 -0.968467 -0.178053
0.346533 66.3252 62.5233 -0.167557 -0.967991 -0.186863
0.213667 66.3181 62.66 -0.160829 -0.967396 -0.195652
0.0807997 66.3109 62.7966 -0.154081 -0.966682 -0.204416
-0.0520671 66.3037 62.9332 -0.147318 -0.965849 -0.213151
-0.184934 66.2965 63.0698 -0.14054 -0.964898 -0.221855
-0.295967 66.271 63.1819 -0.105795 -0.968283 -0.226353
-0.406999 66.2455 63.294 -0.0706986 -0.970478 -0.230596
-0.518032 66.22 63.4061 -0.03538 -0.971456 -0.234565
-0.629064 66.1946 63.5182 2.82092e-05 -0.971206 -0.238242
-0.740097 66.1691 63.6303 0.0353916 -0.969727 -0.241612
-0.851129 66.1436 63.7424 0.0705768 -0.967035 -0.244666
-0.962162 66.1181 63.8545 0.105454 -0.963158 -0.247397
-0.862177 66.1838 63.5745 0.0846392 -0.966262 -0.243256
-0.762192 66.2495 63.2946 0.063737 -0.968927 -0.238992
-0.662207 66.3152 63.0146 0.0427763 -0.971147 -0.234613
-0.562223 66.3808 62.7347 0.0217861 -0.972918 -0.230122
-0.462238 66.4465 62.4547 0.000795409 -0.974237 -0.225526
-0.362253 66.5122 62.1748 -0.0201665 -0.975103 -0.220833
-0.262268 66.5779 61.8948 -0.0410706 -0.975518 -0.216049
-0.0690254 66.5768 61.7003 -0.0652712 -0.974525 -0.214571
0.124217 66.5758 61.5059 -0.089505 -0.972952 -0.212961
0.31746 66.5747 61.3114 -0.113729 -0.970799 -0.211223
0.510702 66.5736 61.1169 -0.137899 -0.968067 -0.209357
0.703945 66.5725 60.9224 -0.161974 -0.964761 -0.207368
0.897187 66.5715 60.728 -0.185909 -0.960888 -0.20526
1.09043 66.5704 60.5335 -0.209664 -0.956461 -0.203037
1.16187 66.56 60.459 -0.219773 -0.957252 -0.188062
1.23331 66.5495 60.3845 -0.229827 -0.957732 -0.173001
1.30475 66.5391 60.31 -0.239816 -0.957897 -0.157868
1.3762 66.5286 60.2354 -0.249729 -0.957747 -0.142679
1.44764 66.5182 60.1609 -0.259556 -0.957281 -0.127447
1.51908 66.5077 60.0864 -0.269289 -0.956503 -0.112189
1.59052 66.4973 60.0119 -0.278917 -0.955412 -0.0969187
1.65839 66.5415 58.7074 -0.256291 -0.966571 0.00742727
0.717832 66.7381 59.6965 -0.215141 -0.975971 -0.0345741
0.604277 66.7447 59.8121 -0.20444 -0.977517 -0.0516246
0.490722 66.7512 59.9277 -0.193629 -0.978667 -0.0686959
0.377167 66.7578 60.0433 -0.18272 -0.979417 -0.0857671
0.263612 66.7644 60.1589 -0.171728 -0.979764 -0.102817
0.150056 66.771 60.2746 -0.160665 -0.979709 -0.119825
0.0365013 66.7776 60.3902 -0.149545 -0.97925 -0.136769
-0.0770539 66.7841 60.5058 -0.138381 -0.978391 -0.15363
-0.190609 66.7907 60.6214 -0.127189 -0.977134 -0.170386
-0.289437 66.7834 60.7188 -0.113786 -0.977195 -0.179286
-0.388264 66.7762 60.8162 -0.100337 -0.977001 -0.188151
-0.487092 66.7689 60.9136 -0.0868503 -0.976554 -0.196974
-0.58592 66.7616 61.0111 -0.073338 -0.975853 -0.205747
-0.684748 66.7543 61.1085 -0.0598101 -0.974899 -0.214466
-0.783575 66.7471 61.2059 -0.0462772 -0.973692 -0.223121
-0.882403 66.7398 61.3033 -0.0327499 -0.972234 -0.231708
-0.870091 66.765 61.1157 -0.0362153 -0.977177 -0.209316
-0.857779 66.7903 60.928 -0.0396705 -0.981606 -0.18675
-0.845467 66.8155 60.7404 -0.0431099 -0.98551 -0.164046
-0.833154 66.8408 60.5527 -0.0465277 -0.988881 -0.14124
-0.820842 66.866 60.3651 -0.0499184 -0.991714 -0.11837
-0.80853 66.8913 60.1774 -0.0532766 -0.994005 -0.0954738
-0.796218 66.9165 59.9898 -0.056597 -0.995755 -0.0725876
-0.659681 66.9029 59.8512 -0.0640408 -0.996224 -0.0586293
-0.523144 66.8893 59.7125 -0.0714817 -0.996443 -0.0446318
-0.386607 66.8757 59.5739 -0.078914 -0.996412 -0.0306053
-0.25007 66.8621 59.4352 -0.0863319 -0.996129 -0.0165605
-0.113533 66.8484 59.2966 -0.09373 -0.995594 -0.00250791
0.023004 66.8348 59.1579 -0.101103 -0.994809 0.0115417
0.159541 66.8212 59.0193 -0.108444 -0.993773 0.0255778
0.296078 66.8076 58.8806 -0.115749 -0.992489 0.0395898
0.432615 66.794 58.742 -0.123012 -0.990958 0.0535672
1.28803 66.6122 57.8558 -0.24702 -0.968945 0.0112391
1.23991 66.5905 56.6606 -0.133831 -0.990402 0.0345523
0.219741 66.7654 57.7083 -0.134456 -0.990297 0.0351202
-0.355504 66.8657 58.295 -0.0873122 -0.99474 0.0535571
-0.424559 66.8089 57.1198 -0.0617579 -0.99684 0.049968
-0.271988 66.7874 56.9643 -0.072988 -0.996366 0.0439132
-0.119416 66.766 56.8089 -0.0842155 -0.995729 0.0378464
0.0331549 66.7445 56.6534 -0.0954347 -0.994929 0.0317704
0.185726 66.723 56.4979 -0.10664 -0.993966 0.0256882
0.338297 66.7015 56.3424 -0.117826 -0.992841 0.0196028
0.490869 66.6801 56.187 -0.128988 -0.991554 0.0135172
0.64344 66.6586 56.0315 -0.140119 -0.990107 0.00743436
1.60279 66.5401 55.0504 -0.11028 -0.993643 -0.0226232
1.43968 66.5825 53.9835 -0.114626 -0.992595 -0.0402028
0.0445521 66.7387 55.4092 -0.102888 -0.994654 0.0087521
-0.612604 66.7889 56.0717 -0.073842 -0.997055 0.0206889
-0.717658 66.781 54.9422 -0.0496476 -0.998432 0.0258599
0.730336 66.6969 53.4794 -0.118929 -0.991221 -0.0577657
1.50358 66.648 52.6946 -0.144223 -0.988862 -0.0367769
0.366226 66.7904 52.625 -0.074078 -0.995976 -0.0504375
-0.562658 66.7792 53.5559 -0.0429037 -0.998508 -0.0337763
-1.01336 66.7832 54.0093 -0.0429038 -0.998508 -0.0337763
