2.42875 -12.6246 9.6447 0.046775 0.00934627 0.99886
2.13448 -11.4942 9.63145 0.0261907 0.023751 0.999375
2.13448 -11.4942 9.63145 0.0261907 0.023751 0.999375
1.75037 -11.5669 9.62489 -0.0589558 0.00982032 0.998212
1.78582 -12.3967 9.63514 -0.059388 0.00916129 0.998193
1.83146 -13.3743 9.64452 -0.0578862 0.00543896 0.998308
2.1497 -13.4115 9.65024 0.0125175 -0.0101359 0.99987
2.35313 -13.0417 9.65144 0.0296598 -0.0012406 0.999373
3.84724 -13.189 9.48637 0.204978 0.0204064 0.978554
3.95324 -12.4384 9.43859 0.213657 0.0367585 0.976217
3.62264 -11.2001 9.47332 0.176777 0.0059082 0.984233
3.21464 -10.4439 9.52718 0.11204 0.00911106 0.993085
2.814 -9.60121 9.57126 0.00748626 0.0419204 0.998886
2.21663 -8.49824 9.51684 0.0215268 0.0496763 0.998533
2.16135 -7.40434 9.48968 0.0568683 0.0562846 0.995905
2.54637 -6.38563 9.42439 0.0562941 0.0424973 0.997508
3.04222 -5.69998 9.33698 0.105667 0.0649871 0.992276
3.52722 -4.98845 9.297 0.137532 -0.0299153 0.98779
4.02623 -4.37929 9.20484 0.225714 0.0170162 0.974045
4.67562 -3.74353 9.03445 0.238233 0.0235566 0.970922
5.55605 -2.95518 8.77515 0.313587 -0.0216489 0.949313
6.55386 -2.28887 8.3932 0.397518 0.028562 0.917096
5.54329 -2.43117 8.79131 0.320209 -0.0255299 0.946969
4.81847 -2.54376 9.00797 0.207804 -0.0380645 0.97743
3.98289 -2.69894 9.19302 0.208327 0.0101459 0.978007
3.1481 -2.74853 9.32785 0.0646466 0.0538438 0.996455
2.12839 -3.00115 9.36622 -0.015692 0.0436614 0.998923
1.46182 -3.58502 9.34627 -0.0829015 -0.00624733 0.996538
1.14522 -4.45967 9.33893 -0.088587 0.0177232 0.995828
0.866225 -5.24719 9.30799 -0.127066 0.00443121 0.991768
0.361399 -6.06602 9.2635 -0.141494 0.0468443 0.98868
-0.502197 -6.79185 9.1351 -0.240304 0.0359801 0.969429
-1.16044 -7.13533 8.9582 -0.267126 0.015682 0.963534
-0.773222 -7.97489 9.10793 -0.293589 0.0631833 0.953841
-0.272584 -8.84378 9.29068 -0.231888 0.0450055 0.971701
0.0371311 -9.84064 9.41122 -0.232222 0.0457588 0.971586
0.202527 -10.753 9.47382 -0.232474 -0.00649397 0.972581
0.229108 -11.547 9.45598 -0.199918 -0.0261107 0.979049
0.256188 -12.7649 9.45985 -0.170314 0.0192725 0.984782
0.467088 -13.9664 9.54089 -0.151712 0.0383772 0.987679
0.678082 -14.9325 9.56231 -0.073891 -0.007322 0.997239
0.774378 -15.7101 9.56374 -0.0869133 0.00249933 0.996079
0.847432 -16.5892 9.59516 -0.0657481 0.0421597 0.996945
0.911869 -17.3484 9.63152 -0.0694911 0.0503054 0.996273
1.30659 -18.1336 9.70665 0.00897811 0.0333528 0.9957
2.47705 -17.8843 9.5974 0.0844394 0.00185605 0.996383
2.82956 -17.2156 9.57229 0.0921509 -0.00688193 0.995721
3.11943 -16.3314 9.54548 0.121513 -0.00908434 0.992269
3.39203 -15.4731 9.53532 0.131908 -0.0301631 0.990803
3.5734 -14.5391 9.52931 0.171313 -0.0400787 0.984401
3.80414 -13.4624 9.50109 0.204979 0.0204069 0.978554
5.19143 -13.7341 9.09283 0.341285 -0.00192164 0.939958
5.41341 -12.7449 9.00467 0.382634 0.00034514 0.9239
5.48427 -11.8967 8.96567 0.387405 0.011764 0.921835
5.28826 -11.0717 9.02585 0.343241 0.0228947 0.938881
4.83076 -10.365 9.17538 0.31207 0.0437486 0.949051
4.41926 -9.56225 9.27026 0.286285 0.0263643 0.957782
4.07263 -8.86994 9.3473 0.168981 0.0576198 0.983922
3.65619 -8.03065 9.37206 0.169192 0.0442281 0.984542
3.78858 -7.16975 9.3184 0.184067 0.0363794 0.982162
4.26797 -6.61065 9.19131 0.24495 -0.00491474 0.969523
4.84186 -5.97147 9.04224 0.277005 0.0278955 0.960462
5.28383 -5.31427 8.89474 0.268684 0.0178881 0.962956
5.89842 -4.81271 8.71905 0.341011 0.0440064 0.938179
6.71942 -4.2268 8.36962 0.38459 0.0114891 0.922986
7.38836 -3.7711 8.06173 0.44033 0.00973664 0.89757
7.98584 -3.20383 7.76049 0.426846 0.0132972 0.904226
8.47019 -2.31208 7.49111 0.489535 0.0143794 0.871865
8.40264 -1.53617 7.49803 0.463856 0.0416661 0.884904
7.73066 -0.77276 7.80525 0.431077 0.0297175 0.901722
6.95188 -0.499062 8.16227 0.422 0.020324 0.906368
6.26402 -0.640512 8.48137 0.397112 0.00720949 0.917742
5.36275 -0.892124 8.82142 0.304593 0.0340197 0.950543
4.48264 -1.07304 9.09272 0.241066 0.028759 0.970082
3.71714 -1.26302 9.22259 0.105906 0.0186651 0.994201
2.89292 -1.11592 9.31222 0.0791382 -0.00560854 0.995648
1.85537 -1.37504 9.35763 0.0474619 0.0057516 0.998856
0.690537 -2.08947 9.28703 -0.0848918 0.00928817 0.996347
0.0711199 -2.86197 9.19527 -0.235581 0.0693383 0.965125
-0.193593 -3.64029 9.16702 -0.288335 -0.0652176 0.955306
-0.540981 -4.34497 9.07336 -0.229992 -0.0130769 0.973105
-1.08246 -5.23545 8.94664 -0.209527 0.0135208 0.977709
-1.7719 -5.55253 8.76911 -0.267505 -0.0028289 0.96347
-2.68301 -5.57281 8.46983 -0.326419 -0.00665605 0.94517
-3.43918 -5.35274 8.17591 -0.372665 0.00460216 0.927949
-4.19784 -5.32229 7.86644 -0.394061 -0.00426447 0.919063
-5.09212 -5.58767 7.47734 -0.404237 -0.0104594 0.914541
-5.8184 -6.70116 7.12888 -0.413338 -0.0056005 0.910474
-5.69401 -7.78373 7.18001 -0.425358 -0.000964875 0.905002
-5.07403 -8.35246 7.47642 -0.427787 0.00464983 0.903868
-4.12177 -8.64578 7.91393 -0.407573 0.00741368 0.913143
-3.11519 -8.65693 8.33818 -0.362375 0.0191207 0.931813
-2.38753 -8.74727 8.61854 -0.357895 0.0147334 0.933646
-1.72668 -9.0459 8.86011 -0.308062 0.053505 0.949804
-1.48703 -9.84484 8.99072 -0.313587 0.060206 0.947649
-1.26162 -10.817 9.09679 -0.277817 0.0208715 0.960084
-1.22692 -11.8375 9.12443 -0.335475 0.013408 0.941954
-1.19085 -12.5894 9.13537 -0.271643 -0.00312743 0.961549
-1.19734 -13.5181 9.13899 -0.275926 0.00904669 0.961136
-1.01739 -14.2754 9.19778 -0.275927 0.009045 0.961136
-0.784612 -15.1307 9.273 -0.227338 0.0198938 0.973613
-0.811622 -15.9917 9.29721 -0.232019 0.0569703 0.971041
-0.690814 -16.7467 9.37037 -0.232018 0.0569726 0.971042
-0.615828 -17.6264 9.41984 -0.189873 0.0325467 0.981269
-0.38238 -18.6997 9.51985 -0.20293 0.0589129 0.977419
0.0615686 -19.4743 9.65871 -0.145243 0.0503965 0.986349
0.950611 -19.8633 9.74986 -0.0690447 0.0868432 0.993826
2.02047 -19.9062 9.76035 0.0365341 0.0561515 0.996924
2.77449 -19.6544 9.66753 0.217119 0.0778876 0.973033
3.54331 -19.0316 9.48641 0.178698 0.0318316 0.983389
4.07199 -18.4108 9.35925 0.281388 -0.020732 0.959297
4.24826 -17.6331 9.33108 0.287717 -0.0305363 0.957228
4.5095 -16.8605 9.26969 0.289725 -0.0181067 0.956939
4.8639 -16.0458 9.18191 0.298452 -0.0203663 0.954177
4.8696 -15.2339 9.19126 0.304055 -0.00835988 0.952591
5.10161 -14.2523 9.11832 0.317522 -0.0167827 0.947913
5.17976 -13.8114 9.09691 0.341285 -0.00192186 0.939958
-3.58093 -7.23847 8.12755 -0.369903 0.00980289 0.929019
-4.17939 -6.98608 7.87766 -0.396835 0.00896417 0.917707
-3.69379 -7.2369 8.0826 -0.369903 0.00980289 0.929019
-10.3691 -10.1964 4.79575 -0.469831 -0.0123658 0.88267
-10.8969 -9.60627 4.52307 -0.469891 -0.0163502 0.882573
-11.6981 -9.2742 4.10263 -0.473299 -0.0177506 0.880713
-12.3559 -9.37721 3.74437 -0.474064 -0.0220599 0.880214
-12.9088 -9.80429 3.43586 -0.474063 -0.0220597 0.880214
-13.335 -10.7705 3.17865 -0.482321 -0.0180217 0.875809
-13.1235 -11.5246 3.28018 -0.482921 -0.0174919 0.875489
-12.4623 -12.1683 3.63405 -0.483351 -0.0145013 0.875307
-11.7734 -12.363 4.00773 -0.480712 -0.0106168 0.876814
-10.9019 -12.0847 4.48576 -0.475886 -0.0101436 0.879448
-10.328 -11.3721 4.80393 -0.47162 -0.00944017 0.881751
-10.3522 -10.3167 4.80306 -0.469831 -0.012366 0.88267
-14.2001 -5.64145 2.84854 -0.483985 -0.0251308 0.874715
-13.8457 -4.78124 3.07281 -0.482441 -0.0292387 0.87544
-13.9835 -3.85071 3.02958 -0.48197 -0.0365028 0.875427
-14.6338 -2.97135 2.70802 -0.482206 -0.036331 0.875304
-15.3455 -2.78931 2.32069 -0.484594 -0.0385065 0.873891
-16.4515 -2.85358 1.70074 -0.490709 -0.0398647 0.87041
-17.2546 -3.49508 1.21854 -0.490582 -0.0381054 0.870561
-17.4908 -4.44523 1.04569 -0.484421 -0.0344281 0.874127
-17.355 -5.34298 1.07491 -0.504604 -0.0544473 0.861632
-16.8983 -6.0317 1.30484 -0.507418 -0.0395623 0.86079
-16.247 -6.39832 1.67056 -0.500654 -0.0353285 0.864887
-15.4403 -6.45484 2.12787 -0.494385 -0.0307486 0.868699
-14.7724 -6.21719 2.51284 -0.487013 -0.0279327 0.872948
-14.3642 -5.82141 2.75258 -0.483986 -0.0251305 0.874715
-15.3597 -4.68907 2.23538 -0.488889 -0.0314183 0.871778
-15.9515 -4.87914 1.89537 -0.490086 -0.0324932 0.871068
-15.934 -4.30736 1.92766 -0.490041 -0.0359276 0.870959
-15.3332 -4.5285 2.25582 -0.486679 -0.0323781 0.872977
-11.5644 1.79047 4.63897 -0.473145 -0.0617593 0.878817
-12.0671 2.36138 4.40378 -0.477085 -0.0564873 0.87704
-12.2898 3.18065 4.33737 -0.480891 -0.0576365 0.874884
-12.1916 4.2614 4.4654 -0.481419 -0.0617382 0.874313
-11.5733 5.16317 4.86644 -0.479008 -0.0629018 0.875554
-10.9452 5.52272 5.23329 -0.476509 -0.0637023 0.876855
-10.0991 5.67661 5.70411 -0.468893 -0.0671623 0.880679
-9.17565 5.53199 6.17906 -0.46335 -0.0680095 0.88356
-8.59673 5.1354 6.44418 -0.448907 -0.0774195 0.890218
-7.88511 4.24999 6.73059 -0.44633 -0.0720772 0.891961
-7.80989 3.50195 6.70698 -0.436526 -0.0675202 0.897136
-7.97128 2.7616 6.57375 -0.43994 -0.0714795 0.895154
-8.23309 2.07999 6.39343 -0.449124 -0.0681755 0.890865
-8.89786 1.6271 6.02467 -0.450301 -0.0620909 0.890708
-9.68531 1.28753 5.59671 -0.460666 -0.0606551 0.885491
-10.6985 1.33826 5.0686 -0.464318 -0.0608363 0.883576
-11.5079 1.75009 4.66655 -0.472855 -0.0647199 0.878755
-10.7357 3.01227 5.16453 -0.467854 -0.0591966 0.881812
-9.91132 2.80302 5.58511 -0.46684 -0.063084 0.882089
-9.29396 3.40272 5.95167 -0.455951 -0.0670622 0.887475
-9.61285 4.09477 5.84057 -0.46059 -0.068647 0.88494
-10.3135 4.13139 5.47022 -0.469289 -0.0649917 0.88065
-10.7938 3.30311 5.15216 -0.471519 -0.0615121 0.879692
-8.63965 10.1973 6.85548 -0.480953 -0.0768893 0.873355
-7.81544 10.2125 7.29317 -0.466647 -0.073884 0.881352
-7.07766 10.3874 7.67705 -0.44314 -0.0897825 0.891945
-6.41705 11.0004 8.06895 -0.42011 -0.0937324 0.902254
-6.1871 11.8287 8.25508 -0.405182 -0.0763495 0.910808
-6.4794 12.9475 8.19666 -0.43573 -0.0750885 0.89694
-6.96435 13.4972 8.00709 -0.430518 -0.0709715 0.899758
-7.68239 13.7824 7.65287 -0.462401 -0.0638753 0.884367
-8.46137 13.7919 7.24626 -0.47692 -0.058168 0.876849
-9.11195 13.4504 6.85612 -0.501993 -0.0601986 0.862774
-9.61516 12.9 6.52603 -0.501368 -0.0569665 0.863357
-9.90665 12.0256 6.29459 -0.493994 -0.0650363 0.86701
-9.72681 11.186 6.33871 -0.488506 -0.0688848 0.869781
-9.30819 10.6229 6.52136 -0.484993 -0.0780213 0.87103
-8.22928 11.7552 7.21472 -0.477627 -0.0763144 0.875242
-7.67871 11.9811 7.52896 -0.454351 -0.0775314 0.887405
-7.96131 11.6561 7.35221 -0.470981 -0.0813081 0.878348
-2.63855 11.1822 9.44644 -0.140697 -0.0773327 0.987028
-2.44988 10.2087 9.38472 -0.15893 -0.111833 0.979715
-2.20506 9.37415 9.32122 -0.201976 -0.133082 0.970307
-1.99476 8.53856 9.3114 -0.220423 -0.0483436 0.974206
-1.80141 7.72287 9.31467 -0.171426 -0.0432702 0.982974
-1.44883 7.0227 9.36653 -0.170015 -0.00926806 0.982562
-1.29777 6.2079 9.36859 -0.114538 -0.0458574 0.99236
-1.05059 5.36915 9.35861 -0.114834 -0.0453656 0.992348
-0.762236 4.65686 9.35879 -0.174415 -0.0751563 0.981605
-0.145355 3.50585 9.3711 -0.155338 -0.072715 0.985182
0.835722 2.73939 9.45036 -0.0856653 -0.0542704 0.992849
1.69237 2.64639 9.47166 -0.0274349 -0.0348539 0.999016
2.36968 2.94072 9.42531 0.132385 0.0306056 0.990726
2.87007 3.58419 9.33857 0.171177 0.0264637 0.984089
3.39758 4.4198 9.24262 0.209079 -0.0226861 0.977636
3.87772 5.12558 9.10862 0.258201 0.0306808 0.965444
4.25855 6.24557 8.93823 0.316411 0.0512662 0.947236
4.59997 6.92597 8.78997 0.314084 0.0475948 0.948201
4.98753 7.75085 8.65544 0.362229 0.00854137 0.930777
5.06302 8.80855 8.57484 0.403656 0.0473385 0.913685
4.98735 9.64205 8.57135 0.375177 0.0493509 0.925371
4.89821 10.3798 8.55402 0.362294 0.0423865 0.930812
4.94844 11.1248 8.51891 0.37452 0.0335423 0.926431
5.18009 12.0932 8.39522 0.389914 0.00946431 0.920803
5.59287 13.1486 8.18398 0.416777 0.0362449 0.90816
5.71566 13.8766 8.09049 0.428755 0.0402753 0.902517
5.73475 14.6482 8.04982 0.424733 0.0403512 0.904402
5.44109 15.3225 8.16347 0.417118 0.011477 0.90878
4.88148 15.7598 8.41636 0.423979 -0.000327696 0.905672
4.03641 16.1059 8.77947 0.379055 0.0188075 0.925183
3.26687 16.1486 9.08035 0.333503 0.00455288 0.942668
2.43244 16.1906 9.37695 0.334598 -0.00687883 0.942336
1.46499 16.8301 9.6453 0.226439 0.00673303 0.973356
0.967744 17.5856 9.76088 0.224111 -0.00205166 0.974562
0.822054 18.5002 9.81125 0.228822 -0.0297143 0.973015
0.759837 19.7146 9.89298 0.190054 -0.0867799 0.977931
0.393696 20.5549 10.0223 0.12931 -0.0678916 0.989076
-0.283592 21.4213 10.1842 0.122494 -0.0850637 0.988812
-0.882444 22.0787 10.3034 0.119721 -0.0673661 0.990519
-1.79939 22.3451 10.3811 0.052995 -0.0902737 0.994506
-2.60179 22.0735 10.2262 -0.146739 -0.169529 0.97454
-3.46884 21.6639 10.0244 -0.223659 -0.114882 0.963196
-3.88694 21.031 9.84349 -0.270882 -0.0963808 0.957775
-4.21803 20.2051 9.67073 -0.320918 -0.0918841 0.941114
-4.41857 19.4607 9.52078 -0.356354 -0.0475161 0.933007
-4.46427 18.4988 9.45195 -0.317602 -0.0623176 0.946167
-4.19659 17.6121 9.48687 -0.339689 -0.0757898 0.93702
-3.76553 16.9286 9.56362 -0.277977 -0.0825119 0.957037
-3.09061 16.0294 9.66481 -0.254596 -0.102566 0.961593
-2.63124 15.4032 9.70246 -0.166586 -0.102262 0.980244
-2.2875 14.6952 9.71109 -0.17668 -0.0738198 0.981496
-2.07547 13.9649 9.69433 -0.176407 -0.0736686 0.981557
-2.22921 13.0732 9.63115 -0.220911 -0.0288984 0.974866
-2.41942 12.1445 9.55855 -0.221269 -0.0336283 0.974633
-2.62964 11.2463 9.45273 -0.140697 -0.0773328 0.987028
-1.06009 11.4444 9.64671 -0.0716006 -0.063803 0.99539
-0.93761 10.5778 9.60123 -0.0958727 -0.0859681 0.991094
-0.69987 9.58833 9.54392 -0.129953 -0.0704907 0.989011
-0.478072 8.74156 9.51726 -0.121979 -0.038743 0.991776
-0.21742 7.94793 9.50013 -0.0273465 -0.0452898 0.9986
0.0369174 7.03898 9.4814 -0.0428528 -0.0166592 0.998942
0.407853 5.83103 9.47754 -0.000587819 -0.0197237 0.999588
0.826822 4.95992 9.47102 -0.0182412 0.0379652 0.999113
1.70486 4.7369 9.45106 0.090668 0.0272553 0.995508
2.2128 5.43117 9.39554 0.0729988 0.00655252 0.997311
2.65677 6.19261 9.34244 0.163657 0.026348 0.985763
3.04258 7.14335 9.27804 0.233049 -0.0226032 0.971335
3.34139 7.91562 9.17645 0.257723 0.0365959 0.965525
3.5467 8.81906 9.11412 0.246464 0.00172999 0.969134
3.5009 9.64353 9.10574 0.29535 0.0433277 0.954406
3.40225 10.5846 9.10665 0.291026 -0.00965151 0.956666
3.50798 11.5354 9.07224 0.34203 0.0180262 0.939221
3.75084 12.5104 8.96157 0.317729 0.0186291 0.94795
4.08935 13.5666 8.82092 0.382058 0.0223982 0.923729
3.96798 14.3147 8.8516 0.375491 0.0281039 0.926179
2.76661 14.6871 9.26849 0.316475 -0.00280757 0.948573
1.79855 14.9181 9.57521 0.230746 -0.0222832 0.97256
0.806218 15.4043 9.78339 0.174305 -0.00465122 0.984659
0.210409 15.9896 9.89708 0.120645 -0.000418741 0.990979
-0.307525 16.7028 9.96445 0.116242 -0.015004 0.993108
-0.620342 17.5732 10.0204 0.12556 -0.024153 0.991792
-0.643999 18.3865 10.052 0.0633944 -0.0183687 0.99564
-0.702596 19.1748 10.0434 0.0116541 -0.0425583 0.997552
-1.03478 19.9858 10.1281 0.0186711 -0.0962962 0.995178
-1.56551 20.5365 10.1832 0.0128194 -0.108943 0.993763
-2.47665 20.2594 10.0905 -0.0938824 -0.105524 0.989975
-2.77788 19.5451 9.97757 -0.2089 -0.101505 0.972018
-2.84931 18.3654 9.89585 -0.179137 -0.0523138 0.982432
-2.51565 17.6733 9.9392 -0.190239 -0.0112535 0.981673
-2.01608 17.0402 9.98642 -0.0889479 -0.128212 0.98775
-1.40248 16.2005 9.96263 -0.0867464 -0.0604875 0.994392
-0.899521 15.1643 9.91047 -0.0441496 -0.0680581 0.996704
-0.739655 13.9743 9.83944 0.0155908 -0.0407767 0.999047
-0.734328 13.1655 9.80635 0.0138935 -0.0367902 0.999217
-0.811341 12.2351 9.72574 -0.0836608 -0.0891091 0.992502
-1.03986 11.4844 9.65078 -0.0713453 -0.0652078 0.995318
0.541121 11.4474 9.71667 -0.0147711 -0.0456772 0.998783
0.674787 12.242 9.72677 0.103894 0.00373465 0.994581
0.724287 13.0187 9.72558 0.139788 -0.0623259 0.988218
1.09826 13.5647 9.70423 0.148305 -0.0318583 0.988428
2.12642 13.2855 9.47348 0.282919 0.001646 0.959142
2.1928 12.3962 9.47008 0.311415 0.000983412 0.950273
2.00974 11.6303 9.52413 0.283141 0.00244585 0.959075
1.93862 10.7405 9.5303 0.232567 -0.0632842 0.970519
1.96013 9.84863 9.49592 0.205662 0.015184 0.978505
1.99554 9.09711 9.46661 0.156619 -0.0391853 0.986881
1.88084 8.30902 9.48463 0.18694 0.0326858 0.981827
1.32878 7.94949 9.51542 0.0213415 -0.041985 0.99889
0.986498 9.19521 9.57883 0.0304449 -0.042005 0.998641
0.689771 10.2968 9.64575 0.0448667 -0.0602305 0.997176
0.538833 11.0692 9.70358 0.0123096 -0.0527396 0.998045
0.537837 11.133 9.70577 -0.0130096 -0.0345333 0.999319
9.69885 5.04886 6.47604 0.496707 0.0479879 0.866589
10.506 5.86774 5.97023 0.498516 0.0418993 0.86585
11.2731 6.16664 5.5053 0.508091 0.0394243 0.860401
11.9934 6.18475 5.07914 0.509238 0.0401264 0.859689
12.7825 5.89172 4.61943 0.516141 0.0366697 0.855719
13.5488 5.03783 4.18903 0.523633 0.0332854 0.851294
13.7218 4.2783 4.11192 0.523764 0.0308834 0.851304
13.6345 3.3771 4.19985 0.525927 0.0315022 0.849943
13.1936 2.70996 4.49627 0.527962 0.0293851 0.848759
12.3558 2.07341 5.03405 0.521658 0.0318462 0.85256
11.6713 1.90875 5.45955 0.521814 0.0333088 0.852409
11.034 2.00613 5.8443 0.515326 0.0319833 0.856397
10.2723 2.44549 6.28108 0.501715 0.036043 0.864259
9.78782 3.13995 6.53157 0.495565 0.036382 0.867804
9.52035 4.35063 6.61897 0.499592 0.0500989 0.864811
9.61348 4.67583 6.54634 0.498461 0.0497467 0.865483
10.9064 3.85057 5.84091 0.510566 0.0441942 0.858702
11.5505 3.48583 5.47122 0.519837 0.0387198 0.853388
12.3103 4.10597 4.98159 0.516732 0.037826 0.855311
11.9039 4.68 5.20174 0.518284 0.0382729 0.854349
11.2518 4.61912 5.596 0.510565 0.0441944 0.858702
16.4267 7.91971 2.33467 0.516911 0.0283779 0.855569
16.9689 7.3382 2.02615 0.517181 0.028129 0.855414
17.8546 7.17414 1.49651 0.516521 0.0282148 0.855809
18.5122 7.314 1.08916 0.530105 0.0334857 0.84727
18.7886 8.05184 0.88938 0.529712 0.0243863 0.847827
18.6958 8.91766 0.922454 0.519751 0.015664 0.854049
18.6254 9.80892 0.943298 0.536875 0.0177662 0.843475
18.1349 10.4905 1.22494 0.513674 0.026761 0.857568
17.2578 10.4454 1.75161 0.51348 0.0268311 0.857682
16.6268 10.0637 2.14203 0.512777 0.0290114 0.858031
16.2485 9.32596 2.39319 0.513301 0.0290736 0.857716
16.2318 8.38867 2.43649 0.514836 0.0317455 0.856701
16.3701 8.07726 2.36365 0.516911 0.0283787 0.855569
-16.3737 13.03 2.51385 -0.511465 -0.0350809 0.858588
-16.6622 13.8992 2.37574 -0.512636 -0.0336985 0.857944
-17.1363 14.5495 2.11697 -0.512905 -0.0326741 0.857823
-17.8501 14.8138 1.69936 -0.512515 -0.030781 0.858124
-18.5049 14.7849 1.30666 -0.513506 -0.0239639 0.857751
-19.0526 14.4154 0.970509 -0.510556 -0.0215023 0.859574
-19.0811 13.6115 0.931869 -0.505855 -0.030145 0.862083
-19.01 12.7062 0.931853 -0.507398 -0.05651 0.859678
-18.9248 11.6895 0.926006 -0.521048 -0.0485333 0.852146
-18.1689 11.2427 1.36483 -0.515576 -0.0379769 0.855997
-17.2319 11.5128 1.93758 -0.51324 -0.0362629 0.857479
