18.183 3.81437 48.7068 -0.346026 0.0179222 -0.938015
18.1015 4.6711 48.7404 -0.341536 -0.0109575 -0.939732
18.0064 5.4539 48.7561 -0.349275 -0.0300091 -0.936476
17.8102 6.37842 48.8246 -0.348575 -0.0118985 -0.937163
17.7435 7.2378 48.8258 -0.358645 -0.00456339 -0.933137
17.8767 8.42541 48.7917 -0.370954 0.00760168 -0.92862
17.9469 9.19944 48.7902 -0.391683 0.0206153 -0.919678
17.8213 10.1338 48.8389 -0.375501 -0.014458 -0.926709
17.616 10.8794 48.9152 -0.385769 0.00738357 -0.922391
17.2063 12.1341 49.126 -0.404442 0.0494923 -0.912956
16.7657 12.9605 49.3825 -0.396131 0.0729754 -0.915229
16.305 13.5477 49.6408 -0.39362 0.102665 -0.913496
15.3293 13.8544 50.0699 -0.329638 0.123929 -0.935602
14.4912 13.8107 50.3372 -0.296845 0.126676 -0.946373
13.5205 13.409 50.5209 -0.225689 0.130101 -0.96545
12.8751 12.9415 50.5906 -0.191829 0.127518 -0.973109
12.1397 12.2541 50.6261 -0.157783 0.134708 -0.978063
11.7044 11.6188 50.6202 -0.132015 0.0975513 -0.986436
11.2148 10.9938 50.6263 -0.121322 0.0980016 -0.987671
10.5949 10.3103 50.6311 -0.114372 0.0862518 -0.989687
10.164 9.65966 50.6218 -0.0994589 0.074652 -0.992237
9.74605 9.00146 50.6141 -0.0895305 0.0708605 -0.99346
9.17079 8.33188 50.6218 -0.0934324 0.0651095 -0.993494
8.44618 7.6373 50.6367 -0.0786877 0.0615407 -0.994998
7.85245 6.80043 50.6393 -0.0682853 0.0477781 -0.996492
7.37406 6.01664 50.6327 -0.063139 0.0430791 -0.997075
6.6437 5.22888 50.6423 -0.0527433 0.0373008 -0.997911
5.91012 4.82098 50.664 -0.0492738 0.0396475 -0.997998
5.25713 4.33062 50.6706 -0.0323927 0.0343421 -0.998848
4.67701 3.73219 50.6713 -0.0243114 0.0282052 -0.999306
4.04112 3.13887 50.6736 -0.0265951 0.0228641 -0.999385
3.38299 2.43612 50.6654 -0.0118094 0.024622 -0.999627
2.65285 1.64058 50.66 4.75981e-05 0.0142103 -0.99989
2.05745 0.96882 50.6483 0.00380176 0.0135518 -0.999901
1.45563 0.300252 50.6384 0.013976 0.0027858 -0.999898
0.686622 -0.381823 50.6194 0.0222085 0.0102695 -0.999701
-0.0794249 -1.14041 50.5956 0.0344307 -0.000222765 -0.999407
-0.681613 -1.80647 50.5761 0.0331494 -0.00303369 -0.999446
-1.43099 -2.50759 50.5477 0.0432224 -0.00763198 -0.999035
-1.95007 -3.0559 50.5279 0.0455076 -0.00648262 -0.998943
-2.63304 -3.62037 50.4964 0.0506312 -0.00151487 -0.998716
-3.44942 -4.45844 50.4592 0.0596267 -0.00720614 -0.998195
-4.20777 -5.16378 50.4149 0.0686575 -0.00320816 -0.997635
-4.94445 -5.77826 50.369 0.0731341 -0.00897166 -0.997282
-5.39434 -6.38099 50.3424 0.0765745 -0.0213344 -0.99683
-5.98126 -7.03343 50.3083 0.0815622 -0.0257182 -0.996324
-6.70434 -8.17336 50.2771 0.0925051 -0.0266115 -0.995357
-7.22732 -8.74507 50.2503 0.0953058 -0.0343336 -0.994837
-8.1582 -9.33301 50.1791 0.10331 -0.0415297 -0.993767
-8.8275 -9.69561 50.1216 0.107642 -0.0444053 -0.993197
-9.58061 -9.95705 50.0432 0.126784 -0.0458679 -0.990861
-10.6243 -10.2683 49.9182 0.138956 -0.0583638 -0.988543
-10.8671 -11.1735 49.9421 0.15243 -0.0656356 -0.986104
-11.3051 -11.9995 49.9341 0.156673 -0.0701369 -0.985157
-11.897 -12.8652 49.9057 0.158119 -0.091202 -0.983181
-12.4373 -13.6153 49.8847 0.206562 -0.104266 -0.972862
-12.7901 -14.2796 49.8813 0.201118 -0.134962 -0.969746
-13.0434 -15.643 50.0482 0.16747 -0.163101 -0.972069
-12.9423 -16.3027 50.1897 0.162185 -0.183096 -0.969625
-13.7557 -16.1878 50.0125 0.233596 -0.182012 -0.955062
-14.8197 -15.8 49.6074 0.357642 -0.172342 -0.917441
-15.7083 -15.7271 49.1981 0.459875 -0.161005 -0.873265
-16.4418 -15.7339 48.8179 0.452196 -0.0876362 -0.887344
-17.1951 -15.7809 48.4014 0.487501 -0.0585831 -0.871155
-17.8214 -16.1438 48.0222 0.533211 -0.0312822 -0.845234
-18.4198 -16.6981 47.6281 0.568869 0.0284851 -0.821935
-18.9183 -17.3819 47.2559 0.583383 0.0350718 -0.811438
-19.3176 -18.2557 46.9221 0.594234 0.0402397 -0.803209
-19.5099 -19.2135 46.743 0.597348 0.0307604 -0.801392
-19.7626 -20.0799 46.5241 0.602267 0.017364 -0.7981
-20.4127 -20.9482 46.0024 0.61626 0.0162624 -0.787375
-21.0447 -21.0125 45.502 0.642212 0.0103453 -0.766263
-21.6244 -20.9862 45.0204 0.639558 0.0273035 -0.768258
-22.2254 -21.0042 44.5107 0.66021 0.023253 -0.750696
-22.8436 -21.0135 43.9614 0.669178 0.0242834 -0.742665
-23.5999 -20.9838 43.2669 0.685283 0.0244641 -0.727813
-24.2811 -21.0391 42.6095 0.69781 0.0172881 -0.716075
-24.9502 -21.058 41.9498 0.707515 0.0202535 -0.706386
-25.5092 -21.0836 41.3855 0.708663 0.0131952 -0.705423
-26.0414 -21.1124 40.8416 0.716635 0.0172108 -0.697231
-26.6151 -21.1425 40.2497 0.718029 0.0105686 -0.695933
-27.2862 -21.1241 39.5596 0.716974 0.0112716 -0.697007
-27.8871 -21.1253 38.9399 0.719421 0.0162651 -0.694384
-28.1648 -20.5904 38.6628 0.723166 0.0191714 -0.690387
-28.1547 -19.5506 38.72 0.720955 0.0474755 -0.691353
-28.176 -18.773 38.7701 0.720748 0.0879951 -0.68759
-27.8812 -18.323 39.1276 0.702243 0.103252 -0.70441
-27.314 -18.3407 39.7085 0.721416 0.0841076 -0.687375
-26.7211 -18.3355 40.3364 0.722366 0.0987107 -0.684429
-26.1532 -18.2114 40.9207 0.710091 0.0975876 -0.697315
-25.584 -18.0342 41.5175 0.713555 0.107893 -0.692241
-25.0248 -17.8982 42.0979 0.69996 0.114818 -0.704892
-24.4395 -17.7472 42.7081 0.697664 0.109034 -0.708079
-23.867 -17.5112 43.2823 0.680862 0.0938112 -0.726379
-23.3515 -17.234 43.7941 0.656861 0.0897984 -0.748645
-22.8199 -16.7107 44.3214 0.650658 0.0976904 -0.753039
-22.4855 -16.1246 44.6754 0.631871 0.0965012 -0.769042
-22.2503 -15.4678 44.9554 0.61623 0.100374 -0.780945
-22.0166 -14.6065 45.2295 0.6 0.0838445 -0.795594
-22.0889 -13.8509 45.2748 0.584036 0.107962 -0.804513
-22.439 -12.8504 45.1612 0.570077 0.124261 -0.81214
-22.3254 -12.1329 45.3507 0.563626 0.113729 -0.818049
-21.6796 -12.0541 45.7973 0.557184 0.103193 -0.823952
-21.0756 -11.7075 46.227 0.531032 0.0923242 -0.842243
-20.4392 -11.1716 46.6513 0.487756 0.0885574 -0.868477
-19.9331 -10.5349 46.9816 0.471239 0.0744718 -0.878836
-19.4352 -9.59505 47.3041 0.445372 0.0665394 -0.89287
-19.2212 -8.6814 47.464 0.424213 0.0486414 -0.904148
-19.1881 -7.88619 47.512 0.40617 0.0528621 -0.91226
-19.101 -7.00515 47.597 0.403764 0.0414003 -0.913926
-18.439 -6.43152 47.8833 0.353279 0.0405026 -0.934575
-18.3842 -5.42033 47.9618 0.353851 0.0572791 -0.933546
-18.2003 -6.47754 47.9724 0.357753 0.0504425 -0.932453
-18.2662 -7.19543 47.9229 0.349283 0.0287408 -0.936576
-18.196 -8.0995 47.9213 0.351585 0.0374165 -0.935365
-18.0919 -9.08239 47.9125 0.3631 0.0349823 -0.930981
-17.945 -9.90623 47.947 0.374072 0.0287624 -0.926954
-17.6951 -10.6545 48.0299 0.383638 0.0286596 -0.922996
-17.0589 -11.6251 48.2857 0.397672 -0.00711873 -0.917366
-16.9187 -11.7288 48.3444 0.383393 -0.00527123 -0.92357
-15.9293 -10.3461 48.7054 0.316529 -0.0154619 -0.948457
-15.1444 -10.5272 48.9533 0.288051 -0.00681768 -0.957591
-14.3869 -10.1143 49.1631 0.253827 -0.0212723 -0.967016
-13.6244 -9.7887 49.3517 0.233498 -0.0326274 -0.971744
-12.7802 -9.56172 49.5238 0.185785 -0.0429407 -0.981652
-11.962 -9.15984 49.6572 0.175987 -0.0328832 -0.983843
-11.3652 -8.56055 49.7375 0.14964 -0.0311354 -0.988204
-10.7732 -7.83413 49.8125 0.141462 -0.0250114 -0.989567
-10.2889 -7.20944 49.8661 0.134894 -0.0158639 -0.990733
-9.59 -6.26861 49.9448 0.112076 0.00308803 -0.993695
-9.08094 -5.69662 50.004 0.112225 0.00327913 -0.993677
-8.50045 -4.73147 50.0728 0.101208 0.0130291 -0.99478
-8.01347 -3.72912 50.1374 0.0888457 0.0247716 -0.995737
-7.32377 -2.94509 50.2161 0.085392 0.0219424 -0.996106
-6.8446 -2.33887 50.2729 0.074412 0.0379157 -0.996459
-5.84722 -1.74423 50.3575 0.0630618 0.0357038 -0.997371
-5.19455 -1.1999 50.4087 0.0525309 0.0392471 -0.997848
-4.66334 -0.614891 50.4548 0.0399821 0.0341172 -0.998618
-3.96181 0.299141 50.5226 0.030879 0.0466667 -0.998407
-3.44495 1.27355 50.5793 0.0226688 0.0449026 -0.998734
-2.99583 1.89745 50.6239 0.01513 0.0569141 -0.998264
-2.50656 2.62544 50.6752 0.0126789 0.066053 -0.997734
-1.66747 3.1472 50.7158 0.00606921 0.0656141 -0.997827
-0.908525 3.89155 50.7591 -0.00309413 0.066102 -0.997785
-0.396839 4.51993 50.7991 -0.0104867 0.0700503 -0.997488
0.367586 5.21749 50.8389 -0.0197748 0.0725167 -0.997171
1.13798 6.02066 50.8834 -0.018546 0.0747795 -0.997028
1.77293 6.51793 50.9039 -0.0273609 0.0753447 -0.996782
2.61668 7.04531 50.9175 -0.0369117 0.0742477 -0.996556
3.3142 7.41488 50.9174 -0.0418994 0.0747692 -0.99632
3.98365 8.00855 50.9331 -0.0478386 0.0737508 -0.996127
4.76094 8.5976 50.9375 -0.0509713 0.0774001 -0.995681
5.18563 9.27998 50.9667 -0.0578006 0.0778496 -0.995288
5.44716 10.2069 51.0264 -0.0565161 0.0819211 -0.995035
5.87956 11.2782 51.0907 -0.0600116 0.0834247 -0.994692
6.62172 12.0565 51.1104 -0.059907 0.0891853 -0.994212
7.2284 12.5673 51.1195 -0.0594217 0.0871014 -0.994426
8.23479 13.3016 51.1267 -0.0627523 0.094592 -0.993536
8.82685 14.0183 51.1643 -0.0576443 0.104098 -0.992884
9.28603 14.6501 51.2131 -0.0473505 0.117037 -0.991998
9.8749 15.7975 51.3159 -0.0401833 0.105571 -0.9936
9.86903 16.7787 51.4141 -0.0400144 0.091474 -0.995003
9.03934 17.4096 51.4896 -0.0153501 0.0748431 -0.997077
7.75517 17.4559 51.5064 -0.00425429 0.0650388 -0.997874
6.67361 17.1112 51.4973 -0.0189285 0.058375 -0.998115
5.74657 16.8608 51.4939 -0.0122122 0.0473481 -0.998804
4.87839 17.0287 51.5096 -0.00737771 0.0392959 -0.999185
3.90957 17.3504 51.5274 -0.00106103 0.0312047 -0.999512
3.14541 17.4889 51.5336 -0.0130701 0.0237149 -0.999633
2.30716 17.6393 51.5411 -0.00235733 0.0175099 -0.999844
1.45182 17.6922 51.5439 0.00081561 0.0131871 -0.999908
0.251822 17.6048 51.5448 0.000812248 0.00626274 -0.999977
-0.483466 17.2813 51.5416 0.00237061 0.00391681 -0.99999
-1.56083 17.2244 51.5406 0.0021407 0.00151852 -0.999994
-2.35202 17.1667 51.5332 0.00975354 0.00278827 -0.999949
-3.37947 17.1301 51.5259 0.00443199 0.00697437 -0.999963
-4.41042 17.327 51.5222 0.00535063 0.00913841 -0.999944
-5.23493 17.2141 51.5143 0.008544 0.00925112 -0.999921
-6.12192 17.015 51.5063 0.00514413 0.00983167 -0.999938
-6.93809 17.1056 51.5022 0.010392 0.0102579 -0.999893
-7.77381 17.0731 51.4952 0.00565702 0.0182973 -0.999814
-8.77174 17.2787 51.4914 0.00447803 0.0218597 -0.999741
-9.57752 17.4074 51.4937 0.00109346 0.024847 -0.999691
-10.5855 17.2546 51.4882 -0.00251509 0.0426505 -0.999087
-11.539 16.8945 51.47 0.00650792 0.0465854 -0.998893
-12.3959 17.0903 51.4824 -0.00303457 0.0565834 -0.998393
-13.2062 17.3737 51.4994 0.0139968 0.0809809 -0.996617
-14.2675 17.4214 51.4923 0.00936168 0.105511 -0.994374
-15.035 17.3028 51.4539 0.0638276 0.170804 -0.983236
-15.6569 17.5814 51.4518 0.0829932 0.162693 -0.983151
-14.9988 18.0548 51.5639 -0.0066673 0.125185 -0.992111
-14.6403 18.775 51.6217 -0.0350502 0.0628951 -0.997404
-14.5992 19.5251 51.6526 -0.0328963 0.0256544 -0.99911
-14.6482 20.4797 51.6638 -0.0212319 0.0058503 -0.999757
-14.6295 21.2486 51.665 -0.0161613 -0.00662627 -0.999847
-14.8678 22.0392 51.6611 -0.00928533 -0.00797815 -0.999925
-14.6073 22.6543 51.6544 0.0185455 0.0129068 -0.999745
-13.5883 22.8435 51.6505 0.00684517 0.00413379 -0.999894
-12.7673 22.778 51.6511 -0.00989353 0.0294585 -0.999517
-11.9953 22.6073 51.6384 -0.0227257 0.0237559 -0.999361
-11.2334 22.5772 51.6236 -0.0167351 0.0147985 -0.999747
-9.95858 22.5756 51.6017 -0.0170604 0.0185902 -0.999682
-8.7803 22.8136 51.5861 -0.0138745 0.0118507 -0.999834
-7.69959 22.7771 51.5696 -0.0105472 0.00368942 -0.999906
-6.92561 22.7324 51.5654 -0.00685197 0.0106839 -0.999919
-5.75694 22.8652 51.5626 -7.26001e-05 0.0109263 -0.99994
-4.59463 22.7077 51.5612 0.000791733 0.01288 -0.999917
-3.50875 22.8234 51.5645 0.00239865 0.0138211 -0.999902
-2.44485 22.7559 51.5672 0.0039105 0.00941021 -0.999948
-1.65398 22.7554 51.5722 0.0103153 0.00875969 -0.999908
-0.714612 22.9149 51.5844 0.0147541 0.0166928 -0.999752
0.0486206 22.8335 51.5957 0.018767 0.0163382 -0.99969
0.895662 22.7738 51.6118 0.0230006 0.0176317 -0.99958
1.71941 22.8731 51.633 0.0219388 0.0210283 -0.99953
2.48351 22.8139 51.6486 0.0240869 0.026016 -0.999371
3.37727 22.7907 51.6666 0.0204385 0.0311164 -0.999307
4.328 22.8638 51.687 0.0180392 0.0316845 -0.999334
5.09402 22.8183 51.7003 0.0191781 0.0309361 -0.999332
5.94514 22.8686 51.7204 0.0259838 0.0289299 -0.999244
6.77977 22.7157 51.7377 0.0326648 0.0374536 -0.998705
7.66811 22.4977 51.7465 0.0194617 0.0447115 -0.99881
8.81552 22.698 51.771 0.00850792 0.0440983 -0.998991
10.1553 22.8743 51.791 0.0100266 0.0418742 -0.999073
10.9907 22.8259 51.7973 0.0254922 0.0560721 -0.99788
11.8087 22.727 51.7854 -0.0118771 0.0477053 -0.998791
12.5687 22.7009 51.7744 -0.0511494 0.0489747 -0.997199
13.7411 22.8746 51.6421 -0.163075 0.0567487 -0.982889
14.5174 22.637 51.4505 -0.26051 -0.141446 -0.955054
14.3568 22.0516 51.5905 -0.161715 -0.100064 -0.981751
14.1027 21.1112 51.6462 -0.0453931 -0.0165737 -0.998676
14.182 20.1144 51.6289 -0.0126704 0.0192278 -0.999654
14.1752 19.2945 51.6115 0.00573268 0.0214974 -0.999692
14.3365 18.459 51.528 0.0272847 0.218741 -0.973585
14.9328 17.7945 51.2508 -0.366033 0.463358 -0.775202
15.6024 17.6397 50.8067 -0.53328 0.326817 -0.780258
16.2729 17.5551 50.3513 -0.56919 0.17827 -0.802647
16.8988 17.623 49.8897 -0.598063 0.12727 -0.791279
17.4908 17.767 49.4342 -0.617935 0.0536831 -0.784394
18.0304 18.3675 49.031 -0.606714 0.00652942 -0.794861
18.2162 19.0884 48.8871 -0.607731 -0.00130979 -0.794142
18.1948 20.013 48.9014 -0.611195 0.00123716 -0.791479
18.2977 20.9363 48.8251 -0.610917 0.00383496 -0.791685
18.4758 21.9755 48.6906 -0.615627 0.00714143 -0.788006
19.0423 22.6903 48.2401 -0.628673 0.00109314 -0.777669
19.7074 22.7545 47.6894 -0.646709 -0.00856533 -0.762482
20.3104 22.8743 47.1922 -0.642146 -0.0190062 -0.766271
21.0212 22.9554 46.5815 -0.648583 -0.0235785 -0.760775
21.83 22.815 45.8601 -0.659634 -0.0141939 -0.751387
22.7566 22.8211 44.9538 -0.71834 -0.0132686 -0.695035
23.3961 22.828 44.3125 -0.711112 -0.00813988 -0.703013
24.0046 22.8081 43.6864 -0.719313 -0.0142746 -0.69454
24.5744 22.8806 43.0999 -0.711923 -0.0138746 -0.702121
25.1603 22.8895 42.5036 -0.717169 0.00213025 -0.696874
25.7082 22.9048 41.9301 -0.725576 -0.00314209 -0.688135
26.3011 22.9199 41.3073 -0.722178 -0.00331793 -0.691699
26.8556 22.8989 40.7291 -0.722502 0.00267902 -0.691364
27.46 22.8222 40.0925 -0.727159 0.00114941 -0.686468
27.2871 22.2649 40.2748 -0.72619 0.000952536 -0.687492
27.0771 21.4009 40.4987 -0.728234 -0.00467678 -0.685303
27.101 20.6264 40.4813 -0.727311 -0.0103666 -0.68622
27.113 19.8585 40.4844 -0.731324 -0.0197453 -0.681743
27.1448 19.0318 40.4782 -0.730921 -0.0311179 -0.681752
27.3094 18.1935 40.3822 -0.743449 -0.0930534 -0.662287
27.7945 17.5709 39.9511 -0.72494 -0.128713 -0.676659
28.3295 17.4855 39.3927 -0.726653 -0.142221 -0.672123
28.866 17.5937 38.7936 -0.723082 -0.143606 -0.675669
29.4752 17.6124 38.1359 -0.724155 -0.148271 -0.673509
30.0218 17.5762 37.5569 -0.720713 -0.147918 -0.677269
30.1235 17.0865 37.5549 -0.722813 -0.145007 -0.675659
29.4962 17.118 38.2227 -0.724358 -0.149614 -0.672994
29.037 17.0724 38.7243 -0.720417 -0.149174 -0.677308
28.4806 16.7058 39.3944 -0.716814 -0.143897 -0.682253
27.6134 16.514 40.3462 -0.724941 -0.128713 -0.676659
26.9902 16.7267 40.9594 -0.715921 -0.123418 -0.687186
26.3743 16.7998 41.5802 -0.708249 -0.118569 -0.695917
25.8493 16.8219 42.1154 -0.711401 -0.115979 -0.69315
25.0812 16.7923 42.9028 -0.711685 -0.10516 -0.694583
24.3693 16.6745 43.6408 -0.702118 -0.0957244 -0.705592
23.63 16.578 44.393 -0.696467 -0.0874737 -0.712114
22.9718 16.4291 45.0371 -0.68711 -0.0808073 -0.722046
22.4309 16.3641 45.5523 -0.673768 -0.0561579 -0.73667
21.8728 16.4055 46.0656 -0.669796 -0.0429642 -0.741218
21.2957 16.4251 46.5633 -0.656357 -0.0522462 -0.75264
20.6819 15.5644 47.1098 -0.619488 -0.0449934 -0.783662
20.8028 14.7389 47.0536 -0.600151 -0.0329887 -0.799206
21.0505 14.0062 46.9031 -0.584839 -0.0500685 -0.809425
21.3686 13.3273 46.7068 -0.59859 -0.0493243 -0.799535
21.6247 12.1232 46.5907 -0.598119 -0.0601282 -0.799112
21.5436 11.1936 46.7324 -0.595624 -0.0796055 -0.799309
21.628 10.2866 46.7551 -0.565095 -0.0742844 -0.821558
21.848 9.45079 46.6467 -0.580489 -0.0448253 -0.813034
22.3714 8.67405 46.3436 -0.566677 -0.0786546 -0.820177
23.1292 8.61411 45.7957 -0.596917 -0.0711114 -0.799145
23.7588 8.9699 45.2546 -0.628705 -0.103018 -0.77078
24.4431 9.00362 44.6876 -0.641344 -0.110097 -0.759149
25.0831 8.53868 44.1932 -0.660045 -0.110119 -0.743111
25.4633 7.83341 43.957 -0.658409 -0.0990458 -0.746115
25.3661 6.62788 44.1925 -0.649089 -0.0935554 -0.754931
24.9688 6.03032 44.6081 -0.631001 -0.0888092 -0.770354
24.1909 5.7258 45.2407 -0.613227 -0.068036 -0.786972
23.3148 5.94503 45.864 -0.585269 -0.0534381 -0.809076
22.5305 6.21816 46.4 -0.562705 -0.0397022 -0.825704
21.7363 5.83017 46.9376 -0.52405 -0.0423668 -0.850633
21.3279 5.11353 47.2146 -0.478247 -0.0350416 -0.87742
20.959 4.22793 47.4465 -0.487151 -0.0257108 -0.872939
20.8656 3.4247 47.5337 -0.446736 -0.021977 -0.894396
20.8049 2.22199 47.6088 -0.452762 -0.0484976 -0.890311
20.4913 1.02883 47.8189 -0.447271 -0.026835 -0.893996
20.8449 0.109136 47.6635 -0.455719 -0.0166045 -0.889969
20.9953 -1.04085 47.6285 -0.451204 -0.029468 -0.891884
21.2573 -1.96334 47.5201 -0.493358 -0.0218731 -0.869403
20.9439 -2.93761 47.7074 -0.476971 -0.0207423 -0.878674
20.7708 -3.68698 47.8153 -0.431942 -0.0181048 -0.900942
20.5651 -4.70681 47.9179 -0.442152 0.0188152 -0.896743
19.989 -5.85582 48.1616 -0.398723 0.00814341 -0.917035
19.4803 -6.93104 48.3944 -0.416875 -0.0269438 -0.908564
19.9553 -8.03455 48.2199 -0.408322 -0.0406827 -0.911931
20.344 -8.78244 48.0743 -0.386178 -0.0389233 -0.921603
20.4291 -9.59342 48.0293 -0.441554 0.0261075 -0.896843
20.5033 -10.6595 47.9892 -0.450999 -0.0193701 -0.892314
20.5784 -11.9117 47.9316 -0.477103 0.037664 -0.87804
20.7563 -12.848 47.8126 -0.514953 -0.00238474 -0.856195
20.577 -13.6057 47.9115 -0.545426 0.0196595 -0.837929
20.4901 -14.4419 47.9691 -0.544783 -0.0322086 -0.837959
20.9205 -15.3975 47.6873 -0.586341 0.0178398 -0.809868
21.8386 -16.268 46.8939 -0.660525 0.0674484 -0.747769
22.4046 -16.5062 46.3725 -0.670635 0.0663898 -0.738685
23.1512 -16.6728 45.6206 -0.699829 0.0946561 -0.708011
23.7399 -16.5351 45.0569 -0.700061 0.0945754 -0.707793
24.3268 -16.3226 44.4748 -0.717881 0.122247 -0.685349
24.8937 -16.359 43.8713 -0.727974 0.140247 -0.671105
25.6655 -16.4274 43.0392 -0.715497 0.15709 -0.680724
26.1466 -16.6559 42.4765 -0.71552 0.165312 -0.678752
26.6695 -16.7777 41.8736 -0.734502 0.168531 -0.657346
27.2588 -16.6538 41.2631 -0.729892 0.19284 -0.655798
27.8713 -16.4924 40.6446 -0.712432 0.200971 -0.672347
28.372 -16.6661 40.0619 -0.708911 0.206577 -0.674367
28.8961 -17.0214 39.4023 -0.708547 0.206566 -0.674753
28.8998 -17.1727 39.3521 -0.708546 0.206563 -0.674755
28.2767 -17.3967 39.9383 -0.711855 0.205059 -0.671711
27.7274 -17.4799 40.4969 -0.712615 0.212156 -0.668705
27.1233 -17.6483 41.1234 -0.745754 0.178053 -0.641521
26.7385 -18.248 41.4555 -0.764432 0.123508 -0.632735
26.5807 -18.9922 41.5458 -0.774598 0.0508404 -0.629678
26.5624 -19.9068 41.532 -0.757459 0.0187215 -0.65254
26.5467 -20.7656 41.5441 -0.759099 -0.00834653 -0.650922
26.6462 -21.7692 41.4544 -0.753299 -0.0217456 -0.657319
26.8978 -22.316 41.1967 -0.747996 -0.0450521 -0.662173
26.578 -22.7921 41.5802 -0.736032 -0.0396276 -0.675786
26.0589 -22.7283 42.1434 -0.737961 -0.0119349 -0.674738
25.4767 -22.607 42.7876 -0.746002 -0.0125684 -0.665824
24.8439 -22.747 43.5062 -0.753578 -0.0117729 -0.657253
24.3396 -22.7912 44.0837 -0.752509 -0.0198507 -0.658283
23.8036 -22.7928 44.6817 -0.738695 -0.0156975 -0.673857
23.1809 -22.7475 45.3605 -0.73573 -0.0148662 -0.67711
22.6427 -22.7224 45.9407 -0.731127 -0.00855053 -0.682187
22.0964 -22.7601 46.5307 -0.733836 -0.00610918 -0.679299
21.4234 -22.7369 47.2459 -0.721732 -0.00236442 -0.692168
20.7038 -22.6419 47.9636 -0.690265 -0.030489 -0.722423
20.028 -22.6609 48.5959 -0.633035 -0.0547961 -0.770785
19.4261 -22.5413 49.0465 -0.608268 -0.0897438 -0.788642
18.8921 -22.0639 49.3865 -0.484302 0.00963461 -0.874822
18.6877 -21.2359 49.5057 -0.490601 -0.0152218 -0.871251
18.5812 -20.3314 49.5274 -0.521029 -0.0485343 -0.852151
18.5856 -19.5624 49.4798 -0.548097 -0.0551983 -0.834591
18.5391 -18.6755 49.4586 -0.541905 -0.0450722 -0.83923
18.3106 -17.9898 49.5404 -0.565785 -0.112055 -0.816903
17.6505 -17.1823 49.7398 -0.387212 -0.144097 -0.909146
17.0031 -16.6137 49.8751 -0.315487 -0.1638 -0.933862
16.428 -15.6703 49.916 -0.237444 -0.0874998 -0.967452
16.1693 -14.9212 49.9118 -0.241393 -0.082904 -0.96686
15.9228 -14.1333 49.9105 -0.243256 -0.0736195 -0.96715
15.7445 -13.3593 49.8941 -0.227158 -0.0841213 -0.970218
15.4167 -12.5774 49.9031 -0.222537 -0.0704615 -0.972266
15.2674 -11.7502 49.8973 -0.191439 -0.0477648 -0.980342
15.4409 -10.9085 49.8224 -0.191438 -0.0477653 -0.980342
15.9476 -9.9287 49.6527 -0.250351 -0.0422917 -0.967231
16.1603 -9.19141 49.5628 -0.256776 -0.0369938 -0.965763
16.4157 -8.3321 49.4626 -0.254714 -0.0346356 -0.966396
16.663 -7.61901 49.3764 -0.260159 -0.0140315 -0.965464
16.9546 -6.78979 49.2854 -0.26061 -0.014588 -0.965334
17.1093 -5.94615 49.2183 -0.252245 -0.0355955 -0.967008
16.8779 -5.12269 49.2493 -0.251052 -0.0204121 -0.967668
16.6095 -4.42186 49.3124 -0.247797 -0.00762312 -0.968782
16.1734 -3.76739 49.413 -0.242305 -0.0149014 -0.970086
15.8475 -2.72764 49.4839 -0.239255 -0.00661094 -0.970934
15.9565 -1.83025 49.4478 -0.245541 -0.0146089 -0.969274
16.0296 -1.03345 49.4188 -0.248493 -0.0160189 -0.968493
15.891 -0.215366 49.424 -0.23821 -0.0385457 -0.970448
15.8146 0.652112 49.4238 -0.251631 0.00599415 -0.967805
16.1781 1.52452 49.3294 -0.261576 -0.00538847 -0.965166
16.4223 2.29813 49.2568 -0.265401 -0.0137876 -0.96404
16.4901 3.24409 49.2287 -0.270775 0.00635173 -0.962407
16.4902 4.05945 49.225 -0.25468 0.018717 -0.966568
16.4189 4.88399 49.2748 -0.280215 0.014102 -0.95983
16.3185 5.68444 49.3138 -0.280906 0.00910316 -0.959687
16.1423 6.85614 49.3626 -0.245391 0.000826414 -0.969424
16.1916 8.03075 49.363 -0.302197 0.0112714 -0.953172
16.2728 8.77722 49.3581 -0.293695 0.0261284 -0.955542
16.2647 9.88941 49.4054 -0.315949 0.0372005 -0.947705
15.9239 10.5469 49.5446 -0.336694 0.0427484 -0.940642
15.7837 11.5317 49.6405 -0.337642 0.043469 -0.94027
15.4525 12.1958 49.808 -0.343267 0.104807 -0.933292
14.6603 12.163 50.0591 -0.27827 0.126572 -0.952127
13.8712 11.6529 50.2219 -0.246337 0.117547 -0.961412
13.2383 10.9001 50.2827 -0.203797 0.0890754 -0.974952
12.8248 10.2562 50.305 -0.182578 0.0584946 -0.98145
12.1289 9.39997 50.3553 -0.15065 0.0716491 -0.985937
11.4567 8.6773 50.4044 -0.135602 0.0722685 -0.988124
10.8224 7.5724 50.4107 -0.111492 0.0591756 -0.992002
10.2587 6.98206 50.4418 -0.105347 0.0406265 -0.993503
9.68264 6.38338 50.4688 -0.0913442 0.0429411 -0.994893
9.26248 5.61507 50.4804 -0.087542 0.0349626 -0.995505
8.84137 4.96796 50.4891 -0.0789816 0.0380587 -0.996149
8.09624 4.21101 50.5293 -0.0654777 0.0211176 -0.997594
7.51079 3.57392 50.5506 -0.0584562 0.0177296 -0.998133
6.70401 3.31084 50.5877 -0.0450458 0.0179343 -0.998821
5.99779 2.72282 50.6098 -0.040329 0.0141815 -0.999076
5.07961 1.79659 50.6288 -0.0267735 0.0025794 -0.999638
4.51625 1.18054 50.6407 -0.0118576 0.00410338 -0.999903
3.69615 0.270747 50.6533 -0.0107579 -0.00461594 -0.999931
3.1315 -0.3957 50.6577 0.00446355 -0.0102149 -0.999938
2.5423 -1.18551 50.6583 0.0139237 -0.0131122 -0.999817
1.70169 -1.93206 50.6503 0.0268121 -0.0125411 -0.999552
1.10173 -2.40605 50.6424 0.0310028 -0.0156321 -0.999386
0.549185 -2.91465 50.6305 0.0348808 -0.0180521 -0.999228
0.00461083 -3.5214 50.6209 0.0419658 -0.0178968 -0.998959
-0.733918 -4.31881 50.6051 0.0469791 -0.0264195 -0.998546
-1.51655 -5.09971 50.5842 0.0549985 -0.0260228 -0.998147
-2.37014 -5.93194 50.5531 0.0616272 -0.0226323 -0.997836
-3.0387 -6.43611 50.519 0.0716021 -0.0306711 -0.996962
-3.79395 -7.15026 50.4862 0.0721156 -0.0296818 -0.996955
-4.3756 -7.75041 50.4584 0.0774201 -0.0331806 -0.996446
-4.76988 -8.42706 50.4503 0.079652 -0.0324586 -0.996291
-5.26018 -9.27482 50.4432 0.0823285 -0.0388428 -0.995848
-6.02631 -9.84979 50.4021 0.0836488 -0.0423422 -0.995595
-6.6931 -10.408 50.3692 0.0864848 -0.0439715 -0.995278
-7.5843 -10.8803 50.3083 0.0951904 -0.0509257 -0.994156
-8.26721 -11.1927 50.2594 0.0995866 -0.0616676 -0.99307
-8.98596 -11.6151 50.2074 0.109008 -0.0633023 -0.992023
-9.45073 -12.1928 50.1981 0.100854 -0.0730312 -0.992217
-9.7219 -13.0124 50.2309 0.115078 -0.0739343 -0.990497
-10.3788 -13.8094 50.2189 0.127889 -0.0913524 -0.987572
-10.9016 -14.4648 50.2237 0.118287 -0.106362 -0.987267
-11.3982 -15.4019 50.2677 0.129713 -0.141185 -0.981418
-11.1324 -16.218 50.3983 0.0804881 -0.109082 -0.990756
-10.5381 -16.9477 50.5122 0.0621338 -0.0830177 -0.994565
-9.3878 -16.9562 50.574 0.0458569 -0.0730411 -0.996191
-8.24949 -16.8663 50.6138 0.0390414 -0.0438929 -0.998273
-7.21922 -16.7507 50.6453 0.0292238 -0.0372316 -0.998836
-6.43074 -16.8 50.6708 0.0348655 -0.0271906 -0.999022
-5.61812 -16.9052 50.6996 0.0199966 -0.00767529 -0.999764
-4.53051 -17.0768 50.726 0.0160566 -0.00246663 -0.999835
-3.51175 -16.9662 50.7378 0.0124372 0.00405971 -0.999914
-2.55781 -16.7741 50.7478 0.0101092 0.0104863 -0.999894
-1.78016 -16.8273 50.7541 0.00146897 0.0182472 -0.999832
-0.600878 -16.8113 50.757 0.00227226 0.0198752 -0.999799
0.265245 -16.974 50.7526 -0.000867746 0.0226763 -0.999742
1.04266 -17.1243 50.7472 -0.00576211 0.0248127 -0.999675
2.26498 -17.2026 50.7368 -0.00563324 0.0282582 -0.999577
3.45722 -17.2721 50.7255 -0.0087274 0.0323052 -0.999439
4.54418 -17.1392 50.7203 -0.00813747 0.0305033 -0.999502
5.50254 -17.0417 50.7122 -0.0105018 0.0286432 -0.999533
6.42215 -17.125 50.7017 -0.00995419 0.0234254 -0.999676
7.42119 -17.1892 50.6914 -0.0078569 0.0232424 -0.999699
8.32626 -17.2075 50.6883 -0.00459973 0.0138389 -0.999894
9.26158 -17.4982 50.6814 -0.00463993 0.00506077 -0.999976
10.1083 -17.4762 50.6788 -0.00702351 -0.00483529 -0.999913
11.4156 -17.6064 50.6618 -0.0122373 -0.0197173 -0.999704
12.4585 -17.778 50.6579 -0.00799978 -0.0257101 -0.999637
13.2019 -17.6839 50.6484 -0.0218501 -0.0397153 -0.9988
14.0108 -17.9848 50.6504 -0.0232453 -0.0952445 -0.995182
13.63 -18.9024 50.6921 0.0093745 -0.0158764 -0.99983
13.6061 -19.7796 50.7026 0.00589684 -0.00451552 -0.999972
13.6489 -20.6513 50.7062 0.0027425 -0.00176063 -0.999995
13.7882 -21.6952 50.704 0.00125145 0.00615074 -0.99998
13.4758 -22.2837 50.6989 -0.0481175 0.0320939 -0.998006
12.4901 -22.5168 50.711 -0.000692987 -0.00466122 -0.999936
11.7049 -22.7 50.7064 0.0118 -0.038794 -0.999178
10.9102 -22.7119 50.6883 0.0331624 0.0101972 -0.999231
10.0539 -22.6697 50.6722 0.0206801 0.0091161 -0.999745
8.93191 -22.7691 50.6532 0.0117493 0.00955737 -0.999885
8.1798 -22.6997 50.645 -0.00826304 0.0220186 -0.999605
7.43103 -22.6577 50.6423 0.00444347 0.0133457 -0.999901
6.66945 -22.6938 50.6436 -0.00703322 -0.00101744 -0.999943
5.3208 -22.5919 50.644 -0.00161314 -0.00103593 -0.999998
4.14386 -22.719 50.6459 -0.00126123 0.000576684 -0.999999
3.32451 -22.7505 50.648 -0.00314692 0.00113638 -0.999994
2.30707 -22.6458 50.6556 -0.0121591 0.00483438 -0.999914
1.42653 -22.6635 50.669 -0.0187532 0.00486304 -0.999812
0.618343 -22.7536 50.6848 -0.0222755 -0.00987674 -0.999703
-0.290788 -22.7084 50.7002 -0.0138241 -0.00859836 -0.999867
-1.30278 -22.5718 50.7139 -0.0129113 -0.0033627 -0.999911
-2.61899 -22.732 50.7318 -0.0129301 -0.00841571 -0.999881
-3.53521 -22.6477 50.7399 -0.00354413 -0.00978189 -0.999946
-4.48614 -22.6348 50.7436 -0.00608365 -0.00870708 -0.999944
-5.43351 -22.6107 50.7478 -0.00771626 -0.00488573 -0.99994
-6.37512 -22.7094 50.7611 -0.0185447 -0.00743014 -0.999782
-7.34843 -22.7349 50.7779 -0.0164956 -0.0151545 -0.999749
-8.12858 -22.7134 50.79 -0.0172579 -0.0183354 -0.999681
-8.99113 -22.6472 50.8037 -0.0161995 -0.019883 -0.999671
-9.98886 -22.7354 50.8137 -0.0115571 -0.0510237 -0.998436
-10.8272 -22.8198 50.8358 0.00411724 -0.0757269 -0.996825
-11.954 -22.5966 50.7862 0.0201971 -0.0882606 -0.995848
-13.038 -22.187 50.6976 0.0581959 -0.0628338 -0.996326
-13.7853 -21.8034 50.5905 0.168064 -0.0363902 -0.985004
-13.9251 -21.0604 50.5423 0.112392 -0.0250463 -0.993348
-13.8525 -20.2138 50.521 0.0679085 -0.0249084 -0.997381
-13.9357 -19.2006 50.488 0.077234 -0.0366914 -0.996338
-13.9767 -18.3597 50.4127 0.0263348 -0.0931113 -0.994779
-14.382 -17.7396 50.2911 0.143264 -0.292072 -0.934777
-15.1256 -17.5196 49.8975 0.454185 -0.226589 -0.861611
-15.9336 -17.5396 49.3966 0.537755 -0.180679 -0.822907
-16.5405 -17.4649 48.9601 0.578525 -0.0791476 -0.811816
-17.1638 -17.5789 48.5273 0.567191 -0.0349029 -0.822747
-17.6699 -18.0018 48.1299 0.600039 0.070246 -0.79688
-17.9422 -18.6671 47.9128 0.579646 0.0202515 -0.814617
-17.9802 -19.4323 47.8715 0.594927 0.0122158 -0.803687
-18.1301 -20.2368 47.7469 0.600027 0.00633814 -0.799955
-18.5035 -21.0279 47.4554 0.60227 0.014887 -0.798154
-18.8786 -21.7268 47.1586 0.594002 0.0191393 -0.80418
-19.5548 -22.5338 46.652 0.586316 0.0284252 -0.809498
-20.2392 -22.7035 46.1542 0.597675 -0.0624098 -0.799306
-21.0761 -22.6817 45.4825 0.633743 -0.0212012 -0.773253
-21.9372 -22.6447 44.7519 0.666175 -0.0330025 -0.745065
-22.5491 -22.701 44.1948 0.686995 0.00637938 -0.726478
-23.2912 -22.6297 43.5116 0.678015 0.0153027 -0.734889
-24.0142 -22.6752 42.8313 0.690894 0.00485028 -0.722886
-24.7202 -22.6917 42.1506 0.688679 0.00837042 -0.724978
-25.3123 -22.6905 41.5759 0.704768 -0.00707806 -0.709384
-25.9005 -22.7823 40.982 0.715322 -0.00927093 -0.698707
-26.4759 -22.8207 40.3853 0.723322 -0.00369459 -0.690501
-27.0082 -22.72 39.829 0.720262 0.00453863 -0.693687
-27.6038 -22.7575 39.2151 0.714029 0.0033317 -0.700108
-28.2057 -22.8014 38.6003 0.717192 -0.00252991 -0.696863
-28.7628 -22.7927 38.0196 0.723137 0.000537577 -0.690704
-29.3113 -22.7568 37.4438 0.723978 -0.00425857 -0.689804
-29.7999 -22.6455 36.9214 0.732678 -0.00937936 -0.680511
-29.8606 -22.2647 36.85 0.732348 -0.0137293 -0.680792
-29.4513 -21.8411 37.2881 0.73578 -0.00504287 -0.677194
-29.3727 -20.8889 37.3734 0.735555 0.00650919 -0.677434
-29.3985 -20.11 37.358 0.73744 0.0143852 -0.675254
-29.3443 -19.1365 37.4746 0.748878 0.0646637 -0.659546
-29.4563 -18.3439 37.4549 0.764763 0.121238 -0.632803
-29.8984 -17.6299 37.133 0.732791 0.21873 -0.64434
-30.6195 -17.324 36.4582 0.707841 0.238799 -0.66478
-30.4058 -17.0189 36.7958 0.700351 0.25538 -0.666551
-29.5188 -16.6737 37.8483 0.69568 0.24955 -0.673613
-28.9984 -16.6132 38.4248 0.707502 0.196319 -0.678695
-28.4421 -16.6429 38.9763 0.696888 0.211544 -0.685271
-27.8727 -16.6817 39.5434 0.688667 0.209193 -0.694136
-27.2222 -16.6747 40.1848 0.688825 0.199862 -0.696833
-26.5517 -16.5225 40.8804 0.692692 0.178194 -0.698874
-25.7909 -16.2911 41.6756 0.67865 0.173532 -0.713668
-24.9226 -16.137 42.5307 0.675055 0.132194 -0.725828
-24.298 -15.8719 43.1582 0.662476 0.125575 -0.73837
-23.8215 -15.5012 43.6358 0.656381 0.116612 -0.745363
-23.4799 -14.8413 44.0469 0.621977 0.13186 -0.77169
-23.4986 -13.7222 44.2152 0.606799 0.140794 -0.78217
-24.0807 -12.9206 43.9173 0.60801 0.163632 -0.77677
-24.5754 -12.0967 43.7204 0.595009 0.159141 -0.787563
-24.6755 -11.2982 43.802 0.58158 0.156777 -0.798239
-24.8138 -10.475 43.8651 0.579074 0.159836 -0.799452
-24.0819 -10.266 44.4338 0.575935 0.1595 -0.801784
-23.3399 -10.385 44.9226 0.551311 0.13332 -0.823579
-22.6927 -10.5135 45.3268 0.530856 0.117788 -0.839212
-21.6878 -10.1362 46.0256 0.530762 0.100584 -0.84136
-21.1794 -9.47933 46.3908 0.493692 0.0974289 -0.864162
-20.8449 -8.70274 46.6501 0.477726 0.06265 -0.876272
-20.7841 -7.93262 46.7383 0.47775 0.0626001 -0.876263
-20.6717 -6.77953 46.8867 0.434668 0.0649021 -0.898209
-20.4548 -5.87248 47.0644 0.416893 0.082991 -0.905159
-20.016 -5.03102 47.3165 0.398275 0.0702881 -0.914569
-19.7606 -4.1171 47.5006 0.399973 0.0724252 -0.913661
-20.0819 -2.98231 47.4652 0.398911 0.084635 -0.913076
-20.3532 -2.22761 47.4202 0.410628 0.0998978 -0.906314
-20.6512 -1.49341 47.3661 0.410622 0.0999088 -0.906316
-20.8189 -0.215271 47.4297 0.379282 0.0863455 -0.921182
-20.7499 0.631402 47.5341 0.37136 0.0853578 -0.924557
-20.9351 1.82495 47.5609 0.400414 0.0741213 -0.913332
-21.0958 3.00798 47.6046 0.400372 0.103057 -0.910539
-21.1573 4.13027 47.6837 0.416948 0.0705479 -0.906189
-21.1639 5.19817 47.7965 0.417244 0.127209 -0.899847
-21.1574 6.22621 47.9392 0.399546 0.124481 -0.908222
-21.0254 7.28172 48.1307 0.403931 0.101532 -0.909138
-20.9189 8.13876 48.2764 0.407835 0.106899 -0.906777
-20.9811 8.92466 48.3544 0.425922 0.129527 -0.895354
-21.0475 9.67049 48.4196 0.422214 0.0936151 -0.901649
-21.028 10.7841 48.5508 0.453146 0.0811681 -0.886768
-21.1662 11.8757 48.5806 0.510477 0.0917398 -0.854984
-21.0976 12.813 48.7095 0.506972 0.0702844 -0.859079
-21.1903 13.9358 48.7638 0.496855 0.106987 -0.861214
-21.0896 14.8729 48.9515 0.530198 0.134793 -0.837091
-21.2682 15.7425 48.9826 0.627278 0.12088 -0.769357
-21.8102 16.545 48.6651 0.657208 0.103805 -0.745426
-22.3575 16.8677 48.1843 0.670209 0.0735968 -0.737973
-22.9151 16.9441 47.6562 0.71797 0.0318488 -0.695345
-23.5471 16.8339 47.0147 0.697516 -0.00907245 -0.71619
-24.2213 16.7956 46.3155 0.724154 -0.0365484 -0.688669
-24.8418 16.9551 45.6407 0.720385 -0.0569968 -0.691229
-25.6953 16.5987 44.7554 0.735569 -0.0718947 -0.673435
-26.2928 16.5903 44.0998 0.733228 -0.107478 -0.671435
-26.9506 16.821 43.3354 0.735857 -0.114294 -0.667422
-27.4874 16.8388 42.7296 0.740168 -0.129979 -0.65974
-28.0984 16.9806 42.0053 0.751981 -0.13812 -0.644552
-28.531 17.1643 41.4683 0.742191 -0.153549 -0.652361
-28.4378 17.5784 41.4841 0.745786 -0.139471 -0.651422
-27.8894 17.5634 42.1241 0.749629 -0.138085 -0.647284
-27.3158 17.584 42.7753 0.745082 -0.128064 -0.654521
-26.819 17.6748 43.3281 0.74823 -0.11581 -0.653253
-26.3402 17.5714 43.8889 0.745172 -0.112605 -0.65729
-25.775 17.5993 44.5275 0.753429 -0.0908523 -0.651223
-25.2833 17.0959 45.1487 0.740216 -0.0856985 -0.666885
-24.9136 17.6564 45.5019 0.760861 -0.0521368 -0.646814
-24.6148 18.3666 45.802 0.760956 -0.0388224 -0.647641
-24.5491 19.1813 45.8439 0.7596 -0.0165599 -0.650134
-24.4695 19.9433 45.9264 0.760494 -0.00528643 -0.649308
-24.5262 20.8951 45.8605 0.758579 0.0054406 -0.651559
-24.5646 21.6914 45.824 0.757371 0.00772666 -0.652939
-24.8065 22.4034 45.5561 0.760668 0.0164671 -0.648932
-25.2351 22.8051 45.063 0.761225 0.018211 -0.648232
-24.7123 22.9833 45.681 0.759908 0.019021 -0.649752
-24.0882 22.8722 46.4055 0.757552 0.0184584 -0.652514
-23.5989 22.9222 46.9862 0.769249 0.01929 -0.638654
-23.0943 22.8955 47.5937 0.761258 0.0309027 -0.647679
-22.5542 22.8968 48.2136 0.747445 0.0292025 -0.663666
-22.0283 22.9057 48.7847 0.724414 0.0562375 -0.68633
-21.3934 22.9476 49.377 0.622074 0.0545357 -0.780561
-20.7949 22.8647 49.8254 0.61221 0.0578494 -0.788329
-20.1944 22.6125 50.2438 0.586407 0.0715761 -0.806503
-19.9107 21.9865 50.4009 0.556462 0.0579965 -0.828846
-19.8809 21.2144 50.3985 0.556528 0.0116129 -0.830748
-20.0618 20.4168 50.2707 0.596814 0.00130427 -0.802379
-19.8485 19.6929 50.4061 0.568626 -5.20773e-05 -0.822548
-19.6131 18.972 50.5708 0.552913 0.0185487 -0.832941
-19.3164 18.2069 50.7005 0.541849 0.118583 -0.831636
-18.6182 17.7399 50.8974 0.325848 0.237856 -0.914321
-17.8909 17.6045 51.0632 0.22329 0.224079 -0.948385
-17.0916 17.5237 51.1996 0.19264 0.217406 -0.956529
-16.287 17.5245 51.3493 0.159815 0.185186 -0.969621
-15.5762 17.0868 51.3734 0.145377 0.193661 -0.970238
-15.9943 16.2377 51.1509 0.143583 0.161742 -0.976332
-15.9842 15.2324 50.9858 0.171165 0.171832 -0.969675
-16.2784 14.4401 50.7931 0.17546 0.170613 -0.96959
-16.4098 13.5866 50.6183 0.175811 0.172302 -0.969228
-16.3098 12.7444 50.4858 0.221728 0.152499 -0.963105
-16.4381 11.9586 50.3328 0.224452 0.150818 -0.962744
-16.6162 11.1769 50.1765 0.220626 0.136508 -0.965759
-16.6329 10.3688 50.0577 0.254378 0.136477 -0.957407
-16.9713 9.35263 49.833 0.258174 0.125636 -0.957894
-16.9867 8.42991 49.7246 0.246327 0.12053 -0.961493
-16.8129 7.60051 49.6502 0.245664 0.13719 -0.959598
-16.7402 6.45527 49.5259 0.228678 0.126293 -0.965275
-16.3741 5.42978 49.4998 0.247912 0.127009 -0.960398
-16.3767 4.67415 49.3985 0.236851 0.106 -0.965746
-16.5024 3.7668 49.268 0.254646 0.113251 -0.960172
-16.4239 2.97416 49.2007 0.265557 0.107237 -0.958113
-16.4991 2.09523 49.0909 0.257593 0.086421 -0.96238
-16.9061 0.869737 48.8843 0.250423 0.0662265 -0.965869
-16.9188 0.0447159 48.814 0.286424 0.0835056 -0.954457
-16.9172 -0.875949 48.7336 0.285328 0.0813107 -0.954971
-17.1524 -1.7538 48.5872 0.276933 0.085706 -0.957059
-17.2095 -2.7594 48.5216 0.303673 0.0575648 -0.951035
-17.1807 -3.62535 48.4791 0.307743 0.0615586 -0.949455
-16.9492 -4.48261 48.4982 0.291163 0.0608055 -0.954739
-16.631 -5.46574 48.5509 0.277721 0.0355821 -0.959999
-16.4873 -6.58273 48.5423 0.300501 0.0306444 -0.953035
-16.5575 -7.60471 48.5097 0.310477 0.0164851 -0.950399
-16.5294 -8.42702 48.504 0.320257 0.0152646 -0.947208
-16.3958 -9.45301 48.5418 0.338199 -0.0022053 -0.941072
-16.0147 -10.2595 48.6755 0.316528 -0.015459 -0.948457
-18.8163 -1.79036 48.0495 0.327232 0.0816415 -0.941332
-18.6698 -1.03919 48.1641 0.314839 0.0886661 -0.944985
-18.742 -0.133375 48.2286 0.311721 0.0899325 -0.945905
-18.5777 0.932045 48.3698 0.330991 0.0841536 -0.939709
-18.4378 1.98018 48.5326 0.332653 0.107276 -0.936894
-18.1062 3.04198 48.7286 0.279551 0.0863976 -0.956236
-18.132 4.03801 48.8368 0.299617 0.0997309 -0.948663
-18.1308 4.8686 48.9353 0.279259 0.111441 -0.953727
-18.3103 5.6433 48.9747 0.280292 0.125729 -0.951633
-18.3446 6.39228 49.0668 0.277859 0.129855 -0.951805
-18.3793 7.15068 49.1568 0.319366 0.109064 -0.941163
-18.4658 7.89369 49.2137 0.337195 0.113714 -0.934542
-18.6656 9.08052 49.2956 0.325983 0.124611 -0.937127
-18.4774 10.1018 49.4933 0.304329 0.136696 -0.942683
-18.3698 10.872 49.6365 0.310416 0.138753 -0.940393
-18.2309 11.8589 49.8357 0.288999 0.138682 -0.946897
-18.0864 12.6099 50.0007 0.312636 0.146197 -0.938555
-18.0956 13.7969 50.2208 0.320992 0.20432 -0.92478
-17.8995 14.9563 50.5085 0.26443 0.164595 -0.950255
-17.7338 15.6859 50.6862 0.265176 0.197192 -0.94382
-18.4853 16.0963 50.5464 0.318081 0.169127 -0.932856
-19.1855 16.2651 50.3227 0.325215 0.233907 -0.916255
-19.8446 16.5812 50.119 0.479779 0.23817 -0.844277
-20.3931 17.1171 49.8958 0.587309 0.168591 -0.791467
-20.8473 17.8727 49.6677 0.652645 0.0815924 -0.752694
-21.0399 18.5908 49.5421 0.621443 -0.00361459 -0.783451
-21.2536 19.5486 49.3499 0.653164 0.00513531 -0.757199
-21.3678 20.5606 49.2709 0.672963 0.0314076 -0.739009
-21.6745 21.2782 49.0265 0.676433 0.0361511 -0.735587
-22.259 21.341 48.4536 0.70907 0.0379844 -0.704029
-22.8162 21.3009 47.851 0.749806 0.0170836 -0.661364
-23.3491 21.059 47.2314 0.756601 0.0127419 -0.653752
-23.3658 20.209 47.2019 0.75602 0.00228361 -0.654544
-23.3873 19.3949 47.176 0.748683 -0.00144581 -0.662926
-23.3715 18.6432 47.1982 0.746406 -0.00431128 -0.665466
-22.8263 18.5553 47.8018 0.736802 -0.00091381 -0.67609
-22.244 18.4527 48.4114 0.70699 0.0104951 -0.707027
-21.734 18.2214 48.9296 0.71858 -0.00334466 -0.695437
-21.1851 17.8764 49.3755 0.614516 0.0738006 -0.785316
-20.5806 17.4258 49.817 0.601444 0.135485 -0.786966
-20.268 16.7155 49.8956 0.587213 0.183301 -0.788405
-19.8871 16.0103 49.927 0.456876 0.223519 -0.86099
-19.6274 15.0574 49.8349 0.471417 0.19674 -0.859686
-19.5897 14.1747 49.6939 0.41028 0.193716 -0.891148
-19.4821 12.8877 49.5255 0.399475 0.107387 -0.910433
-19.4912 12.0651 49.4149 0.344492 0.125764 -0.930283
-19.5319 11.1777 49.2762 0.352771 0.13063 -0.926544
-19.4441 10.2059 49.1657 0.345416 0.141179 -0.92777
-19.4673 9.09759 49.019 0.332027 0.117931 -0.935824
-19.3506 8.33 48.9555 0.327205 0.128129 -0.936227
-19.3726 7.27388 48.8212 0.364271 0.0941151 -0.926525
-19.5325 6.42231 48.6607 0.359302 0.134891 -0.923132
-19.5646 5.25208 48.4816 0.338293 0.110762 -0.9345
-19.5644 4.06159 48.3397 0.366327 0.0858067 -0.926521
-19.5171 3.12594 48.2653 0.344391 0.075984 -0.935746
-19.4013 2.38315 48.244 0.350971 0.111404 -0.929425
-19.1481 1.52196 48.2279 0.332653 0.107276 -0.936894
-18.6794 0.40574 48.2969 0.325211 0.0678786 -0.943202
-19.2371 0.0574286 48.0738 0.353946 0.0754477 -0.932215
-19.1662 -0.761161 48.0198 0.335834 0.0968211 -0.936932
-18.8532 -1.67757 48.046 0.338716 0.0814119 -0.93736
-18.8369 -1.71591 48.0485 0.338717 0.0814125 -0.93736
-25.7858 -5.5616 44.0126 0.56794 0.11882 -0.814447
-26.4973 -4.76069 43.6352 0.574391 0.118876 -0.809858
-27.0304 -4.33502 43.3006 0.588322 0.104196 -0.801886
-27.6592 -3.98177 42.881 0.609966 0.109184 -0.784867
-28.4576 -3.57532 42.3316 0.604234 0.128412 -0.786391
-29.1452 -3.367 41.8211 0.624351 0.110887 -0.773234
-30.0416 -3.33922 41.0835 0.640891 0.122359 -0.757808
-30.5132 -3.80921 40.6059 0.643767 0.121745 -0.755475
-30.8044 -4.56316 40.2557 0.634725 0.114785 -0.764134
-30.6399 -5.49096 40.2403 0.636063 0.127783 -0.760983
-30.3835 -6.32578 40.2998 0.632013 0.141909 -0.761853
-29.8321 -7.08294 40.5998 0.630282 0.162965 -0.75907
-29.1155 -8.19392 40.9532 0.63274 0.183332 -0.752349
-28.6294 -8.70835 41.2406 0.636573 0.181685 -0.74951
-28.1353 -9.23642 41.5383 0.628781 0.177642 -0.756901
-27.57 -9.54897 41.9214 0.617175 0.182071 -0.76547
-26.9511 -9.60794 42.4074 0.619316 0.181852 -0.763792
-26.3567 -9.60623 42.8813 0.605743 0.165168 -0.778309
-25.5006 -9.71853 43.5164 0.590436 0.157238 -0.791418
-24.9165 -10.0284 43.8794 0.578257 0.158591 -0.800292
-24.787 -9.71418 44.0353 0.579923 0.152528 -0.800241
-25.0383 -8.6192 44.053 0.572349 0.136869 -0.808356
-25.0707 -7.78083 44.1689 0.546737 0.135754 -0.826226
-25.2668 -7.07381 44.1457 0.551004 0.120388 -0.825773
-25.5815 -6.05605 44.0838 0.545041 0.121064 -0.829622
-25.5824 -6.05336 44.0837 0.556763 0.119229 -0.821949
-26.8042 -6.74603 43.0984 0.596714 0.133159 -0.791328
-26.5219 -7.76517 43.1283 0.599022 0.147757 -0.786982
-27.2012 -7.83845 42.5975 0.600231 0.145731 -0.786435
-27.7859 -7.53162 42.2105 0.60294 0.160976 -0.781115
-28.3203 -6.9843 41.8888 0.636584 0.148728 -0.75673
-28.9024 -6.08445 41.5726 0.633822 0.134114 -0.761763
-29.0772 -5.17149 41.5879 0.631373 0.135813 -0.763486
-28.3615 -5.28302 42.1416 0.61743 0.121687 -0.777157
-27.7346 -5.6223 42.5826 0.611376 0.136844 -0.779418
-27.1511 -5.95552 42.973 0.593133 0.141062 -0.79265
-26.9926 -6.2629 43.0376 0.596713 0.133157 -0.79133
-34.2752 -0.205595 37.5824 0.701509 0.0573276 -0.710258
-34.7065 -0.756235 37.0887 0.713481 0.0741284 -0.696742
-35.193 -0.962188 36.5562 0.725952 0.0681569 -0.68432
-35.7215 -0.871504 36.0071 0.724142 0.0615088 -0.686903
-36.2966 -0.4669 35.4133 0.739107 0.0492284 -0.671787
-36.6784 0.182542 35.0326 0.744119 0.0329568 -0.667234
-36.682 0.939868 35.0692 0.752424 0.033007 -0.657733
-36.3633 1.70282 35.4649 0.751885 0.00912346 -0.659152
-35.7483 2.24752 36.1403 0.728916 0.0123438 -0.684487
-35.0385 2.1242 36.8925 0.728333 0.0102991 -0.685146
-34.4176 1.66254 37.5329 0.703595 0.0195688 -0.710331
-34.1284 0.787945 37.7877 0.695172 0.0314846 -0.718153
-34.2229 -0.0823971 37.6423 0.693705 0.054571 -0.718189
-38.6884 5.27989 32.5911 0.808404 -0.0390387 -0.587332
-39.315 4.69809 31.7591 0.81189 -0.0383678 -0.582543
-39.7649 4.66784 31.0926 0.831265 -0.0272351 -0.555208
-40.2077 4.86504 30.3877 0.852588 -0.0346548 -0.521434
-40.5811 5.56719 29.7014 0.869002 -0.0407558 -0.493128
-40.6629 6.37568 29.5498 0.863292 0.000699302 -0.504704
-40.5028 7.13789 29.8248 0.868837 -0.0124204 -0.494636
-40.0485 7.7258 30.5041 0.83938 -0.0382229 -0.542159
-39.6004 7.89988 31.1759 0.83159 -0.0371844 -0.554068
-38.9023 7.54525 32.1591 0.794376 -0.0611616 -0.604339
-38.4982 6.81027 32.7444 0.789535 -0.040196 -0.612218
-38.4981 5.89093 32.8083 0.807149 -0.0519695 -0.588055
-38.5607 5.60151 32.7454 0.808404 -0.0390412 -0.587332
-44.3176 9.76911 23.8837 0.553819 0.0140229 -0.832519
-44.9372 9.07048 23.5691 0.422125 -0.0189261 -0.90634
-45.7831 8.91592 23.2277 0.301644 -0.0193502 -0.953224
-46.6531 9.45412 22.9784 0.229163 0.021163 -0.973158
-46.9018 10.3321 22.9282 0.235679 -0.000449019 -0.971831
-46.391 11.2738 23.09 0.31235 0.00665137 -0.949944
-45.6342 11.5772 23.3658 0.38039 0.0378564 -0.924051
-44.8312 11.2217 23.6798 0.37612 0.0429823 -0.925574
-44.3221 10.6545 23.8768 0.503784 -0.0386672 -0.862838
-44.2568 10.1286 23.9302 0.553817 0.0140257 -0.83252
-51.1058 12.335 22.0616 0.193866 -0.00918986 -0.980985
-51.5584 11.5403 21.9799 0.194933 -0.0091618 -0.980773
-52.6084 11.0685 21.7745 0.195867 -0.00935519 -0.980586
-53.5263 11.0664 21.5878 0.199657 -0.00880872 -0.979826
-54.4039 11.6734 21.4061 0.195489 -0.00920344 -0.980663
-54.8476 12.592 21.3137 0.191498 -0.00724647 -0.981464
-54.7712 13.5025 21.3189 0.191987 -0.0113722 -0.981331
-54.4126 14.1748 21.3816 0.192256 -0.0108847 -0.981284
-53.6897 14.6991 21.5177 0.19263 -0.00965231 -0.981224
-52.63 14.8177 21.7247 0.192819 -0.00962314 -0.981187
-51.7755 14.4674 21.8994 0.197617 -0.0136737 -0.980184
-51.2347 13.8188 22.0182 0.196658 -0.0160631 -0.980338
-51.0369 12.8554 22.0705 0.193681 -0.00888408 -0.981024
-51.0453 12.7418 22.0699 0.193944 -0.00882444 -0.980973
-52.7953 12.8704 21.7162 0.198866 -0.0134726 -0.979933
-52.9364 12.7792 21.6887 0.198596 -0.0124397 -0.980002
-59.339 17.3095 20.5811 0.128171 0.00462737 -0.991741
-59.9489 16.6892 20.5039 0.120125 -0.00586728 -0.992741
-60.9478 16.8595 20.3883 0.108903 -0.00518249 -0.994039
-61.3247 17.5951 20.3478 0.105404 0.00185842 -0.994428
-60.9691 18.4126 20.3883 0.106579 0.00391879 -0.994296
-60.1408 18.6141 20.4833 0.124743 -0.00140275 -0.992165
-59.2757 17.8287 20.5917 0.128209 0.00451983 -0.991737
-59.2993 17.3795 20.5865 0.128171 0.00462737 -0.991741
-57.0067 4.0298 20.8758 0.16615 0.00964075 -0.986009
-57.9725 3.36365 20.7172 0.144366 0.00305865 -0.98942
-58.2908 2.28711 20.6703 0.133715 0.00404715 -0.991012
-58.0191 1.42313 20.7006 0.13763 0.0108032 -0.990424
-57.4116 0.726462 20.7782 0.144135 0.0130214 -0.989452
-56.4933 0.390543 20.9097 0.156657 0.0166109 -0.987469
-55.7628 0.517722 21.0342 0.15934 0.00981254 -0.987144
-54.9947 1.17199 21.1818 0.189932 0.0168437 -0.981638
-54.5912 1.991 21.2794 0.192502 0.0211707 -0.981068
-54.6851 2.8828 21.2823 0.185876 0.0195371 -0.982379
-55.1868 3.57046 21.2008 0.186603 0.0190519 -0.982251
-55.8658 3.95538 21.078 0.19147 0.0113268 -0.981433
-56.6332 4.08023 20.9428 0.173815 0.00924031 -0.984729
-56.6421 -6.63793 20.7233 0.1574 0.0230748 -0.987241
-57.367 -6.82752 20.6096 0.135528 0.026512 -0.990413
-58.2157 -7.49317 20.4808 0.132431 0.0226546 -0.990933
-58.3692 -8.43779 20.4374 0.126615 0.036425 -0.991283
-57.9569 -9.34929 20.4543 0.128536 0.0314055 -0.99118
-57.102 -9.96948 20.563 0.152888 0.0281899 -0.987841
-56.1363 -9.78179 20.7202 0.160784 0.0274582 -0.986598
-55.5585 -9.32069 20.8287 0.172379 0.0289914 -0.984604
-55.1428 -8.32351 20.9277 0.169375 0.0273209 -0.985166
-55.4057 -7.44567 20.91 0.16668 0.0302167 -0.985548
-56.0764 -6.81104 20.8123 0.166022 0.0262542 -0.985767
-56.4519 -6.66971 20.7542 0.163392 0.0261309 -0.986215
-57.8939 -13.9318 20.3559 0.127131 0.0107545 -0.991824
-58.6376 -13.972 20.2613 0.125531 0.0127843 -0.992007
-59.44 -14.5806 20.1702 0.100189 0.0208073 -0.994749
-59.7206 -15.5848 20.1188 0.105115 0.0180112 -0.994273
-59.2238 -16.4747 20.1584 0.111689 0.0192189 -0.993557
-58.5714 -16.8842 20.2316 0.120786 0.0113948 -0.992611
-57.486 -16.5926 20.3709 0.136091 0.0092302 -0.990614
-56.8567 -15.865 20.4691 0.144497 0.00678812 -0.989482
-56.9234 -14.9067 20.476 0.14197 0.028118 -0.989471
-57.3875 -14.2417 20.4222 0.148475 0.011888 -0.988845
-57.5774 -14.0467 20.396 0.138603 0.0103065 -0.990243
-32.7836 -22.5461 33.9167 0.709593 -0.00698106 -0.704556
-32.2072 -22.3836 34.4877 0.702156 -0.00720313 -0.711972
-32.6005 -22.7672 34.1036 0.705695 -0.00787417 -0.708472
-32.6281 -22.7516 34.076 0.706741 -0.00983629 -0.7074
-30.3672 -22.4675 36.3236 0.716186 -0.0248808 -0.697465
-30.3136 -22.4359 36.3775 0.719365 -0.0246211 -0.694177
-31.067 -17.4075 35.9647 0.693522 0.248262 -0.676309
-31.595 -17.4101 35.4209 0.721206 0.24116 -0.649387
-31.2396 -17.1876 35.8684 0.693522 0.248264 -0.676308
-31.7745 -17.2409 35.2844 0.72321 0.239383 -0.647806
-31.9023 -17.3461 35.1126 0.708383 0.213016 -0.672917
-31.809 -17.2734 35.2338 0.716803 0.225311 -0.659567
-23.955 -19.3066 43.0145 0.6972 0.0469089 -0.71534
-23.4034 -19.2781 43.5374 0.682617 0.0546734 -0.728705
