15.9302 12.786 52.0859 -0.217326 0.0983856 -0.971128
14.9368 12.9184 52.3067 -0.18745 0.0828159 -0.978777
13.9303 12.7433 52.4385 -0.125647 0.0853135 -0.9884
12.8694 12.1923 52.5076 -0.0949422 0.0871594 -0.991655
12.1479 11.4012 52.5124 -0.0856976 0.0700037 -0.993849
11.7382 10.7269 52.497 -0.081655 0.0597162 -0.994787
11.1548 9.74174 52.487 -0.0621746 0.0547384 -0.996563
10.6431 9.00886 52.493 -0.0596661 0.0378015 -0.997475
10.1253 8.41227 52.4987 -0.0537325 0.035128 -0.997937
9.3587 7.80978 52.518 -0.0480174 0.0289561 -0.998427
8.437 7.13254 52.5378 -0.0426489 0.033953 -0.998513
7.88537 6.48998 52.5352 -0.0298525 0.0361803 -0.998892
7.36135 5.73015 52.524 -0.0283079 0.0291345 -0.99917
6.77168 5.13944 52.5286 -0.01733 0.013782 -0.999755
5.97887 4.54373 52.536 -0.0203539 0.0118723 -0.999722
5.27481 3.94769 52.5407 -0.00404785 0.0153672 -0.999874
4.63902 3.23612 52.5323 -0.00418472 0.00917173 -0.99993
4.20661 2.60639 52.5268 0.00963572 0.0110581 -0.999892
3.46963 1.69532 52.5136 0.0013637 0.00899025 -0.999959
2.62344 0.91701 52.51 -0.000349766 -0.0034219 -0.999994
1.73082 0.0905441 52.5047 0.0134254 0.00289216 -0.999906
1.04264 -0.515055 52.4922 0.0190994 0.0052258 -0.999803
0.274601 -1.35435 52.4721 0.029018 0.00825253 -0.999497
-0.262308 -1.90476 52.4534 0.0338432 -0.00105504 -0.999427
-0.784066 -2.47577 52.438 0.0537104 -0.0116399 -0.998437
-1.68222 -3.31644 52.3915 0.0498923 -0.00172655 -0.998752
-2.24906 -3.84081 52.3654 0.053556 -0.0141387 -0.998388
-3.12402 -4.65739 52.3291 0.0617287 -0.0180108 -0.99793
-3.80973 -5.09723 52.2969 0.0555989 -0.00573619 -0.998417
-4.64428 -5.93823 52.2543 0.0636206 -0.0149304 -0.997862
-5.22695 -6.44403 52.2262 0.0595169 -0.0140827 -0.998128
-6.01248 -7.21849 52.1815 0.0679776 -0.0123872 -0.99761
-6.84262 -8.21697 52.1385 0.0831245 -0.0238103 -0.996255
-7.57253 -8.94609 52.0949 0.0847864 -0.0235209 -0.99612
-8.22334 -9.53566 52.0523 0.0859269 -0.0242054 -0.996007
-8.88496 -9.95865 52.0048 0.0903008 -0.0239985 -0.995625
-9.62409 -10.3064 51.948 0.0935211 -0.0257036 -0.995271
-10.495 -10.9764 51.8839 0.102915 -0.034257 -0.994073
-10.8687 -11.6707 51.8646 0.109772 -0.0315537 -0.993456
-11.1794 -12.6797 51.8803 0.102802 -0.0469669 -0.993592
-11.5657 -13.7417 51.8975 0.0975135 -0.0527728 -0.993834
-11.7563 -14.8154 51.9482 0.0882853 -0.0721289 -0.99348
-11.5932 -15.924 52.0392 0.0596162 -0.074301 -0.995452
-11.1832 -16.791 52.1251 0.046151 -0.0627292 -0.996886
-10.3082 -17.639 52.1949 0.0294206 -0.0378295 -0.99885
-9.55021 -18.0362 52.2237 0.0150884 -0.0245368 -0.999585
-8.78439 -18.3268 52.2397 0.0137781 -0.0115345 -0.999839
-7.85644 -18.5133 52.2566 0.0175327 -0.0114016 -0.999781
-6.8802 -18.6161 52.2696 0.0114135 0.000134715 -0.999908
-5.92788 -18.5781 52.2848 0.0131206 0.00622354 -0.999891
-4.70402 -18.6051 52.2975 0.00929874 0.00870055 -0.999915
-3.59685 -18.6913 52.3136 0.0173411 0.0219599 -0.999608
-2.73394 -18.6183 52.3255 0.00994387 0.0208484 -0.999733
-1.46843 -18.4364 52.341 0.0108275 0.0298673 -0.999455
-0.640274 -18.5087 52.3487 0.0105679 0.0390984 -0.999179
0.131361 -18.64 52.3509 0.00958854 0.039992 -0.999154
1.40835 -18.7598 52.3537 0.00290224 0.0366569 -0.999316
2.20689 -18.7532 52.3569 0.00448454 0.032405 -0.999464
2.9826 -18.6246 52.3676 0.010078 0.0430347 -0.999023
3.94386 -18.6229 52.379 0.0165178 0.0434341 -0.998918
4.87437 -18.7761 52.389 0.0121054 0.041897 -0.999033
6.086 -19.0272 52.3891 0.0155286 0.0317526 -0.999356
6.85038 -18.9282 52.4078 0.0193441 0.0276462 -0.999431
7.73996 -18.7085 52.4311 0.0195278 0.0275574 -0.999429
8.48462 -18.5873 52.4488 0.0189519 0.0269781 -0.999456
9.41319 -18.8009 52.4633 0.027838 0.0231621 -0.999343
10.2673 -18.9657 52.4861 0.0392491 0.0200833 -0.999028
11.0182 -19.0673 52.5123 0.0343565 0.0130599 -0.999313
11.9618 -19.1067 52.5467 0.0405401 0.00245953 -0.999174
12.6389 -19.4379 52.573 0.0389919 0.00130031 -0.999239
12.7393 -20.3697 52.5762 0.042685 -0.000334777 -0.999089
11.7233 -20.8369 52.5332 0.0419618 0.00060586 -0.999119
10.8574 -20.8232 52.4967 0.042146 0.000761735 -0.999111
10.0426 -20.8269 52.4648 0.0381837 0.00260685 -0.999267
9.21608 -20.8434 52.429 0.0351521 0.0130213 -0.999297
8.45712 -20.8481 52.4023 0.0348942 0.012784 -0.999309
7.69317 -20.8037 52.3773 0.0322121 0.0136411 -0.999388
6.76985 -20.7381 52.352 0.0193659 0.0269912 -0.99944
5.81444 -20.7463 52.3351 0.0198807 0.023744 -0.999517
4.55388 -20.6704 52.317 0.0119739 0.0322351 -0.999409
3.49117 -20.6236 52.3095 0.0120611 0.0212426 -0.999702
2.54698 -20.6632 52.2995 0.0107675 0.0280551 -0.999548
1.66512 -20.6272 52.293 0.00222651 0.0268699 -0.999614
0.894946 -20.5394 52.2948 -0.00470522 0.0195286 -0.999786
-0.0869753 -20.5444 52.3002 -0.00449672 0.0142552 -0.999888
-0.994544 -20.7143 52.3008 -0.00321127 0.0146347 -0.999888
-1.98238 -20.8308 52.2965 0.0079546 0.01145 -0.999903
-2.71067 -21.1577 52.2866 0.00454283 0.00836866 -0.999905
-3.70108 -20.6148 52.2843 0.0064507 0.00637272 -0.999927
-4.51429 -20.48 52.2821 0.00124135 -0.000635085 -0.999998
-5.26967 -20.4772 52.2821 0.000448303 -0.00155698 -0.999999
-6.70627 -20.6138 52.2783 0.000462927 -0.00869253 -0.999926
-7.54708 -20.5981 52.2816 -0.00206043 -0.0155773 -0.999874
-8.94225 -20.7879 52.2818 0.00174518 -0.0188269 -0.999819
-9.93916 -21.1101 52.2882 -0.0078474 -0.0170099 -0.99979
-10.6791 -20.7097 52.294 -0.0172946 -0.0164357 -0.999712
-11.8358 -20.7996 52.3273 -0.0250798 -0.0332787 -0.999131
-12.7131 -20.6142 52.3302 0.00544995 -0.0551221 -0.998449
-12.91 -19.7898 52.2883 -0.000215817 -0.0464131 -0.998906
-13.0088 -18.9092 52.2398 0.00885139 -0.0815399 -0.99662
-13.1342 -18.0228 52.1477 0.0335421 -0.107719 -0.993535
-13.4013 -17.265 52.0462 0.0466609 -0.104118 -0.993317
-13.8596 -16.5801 51.9149 0.141204 -0.131309 -0.981234
-14.7605 -15.9481 51.6848 0.179879 -0.13304 -0.974651
-15.7439 -15.4531 51.4122 0.271751 -0.145673 -0.948811
-16.7863 -15.4133 51.0291 0.323121 -0.121094 -0.938342
-17.6032 -15.4619 50.6965 0.399998 -0.071781 -0.913701
-18.3641 -15.626 50.3546 0.441969 -0.0724451 -0.8941
-19.0629 -15.9617 50.0085 0.476817 -0.0145386 -0.878882
-20.1278 -16.7822 49.3702 0.541982 0.0130705 -0.840289
-20.4953 -17.5145 49.1511 0.559385 -0.0123508 -0.828815
-20.5774 -17.7658 49.0997 0.55589 -0.00709237 -0.831226
-19.1634 -18.1948 50.0173 0.518526 -0.00791558 -0.855025
-18.6765 -17.6633 50.2979 0.513225 -0.03113 -0.857669
-18.0618 -17.4275 50.6549 0.522086 -0.0787264 -0.849213
-17.3322 -17.3615 51.0672 0.461189 -0.119344 -0.879239
-16.5259 -17.3896 51.5232 0.431791 -0.235567 -0.870669
-15.8313 -17.5213 51.8448 0.26413 -0.248103 -0.93203
-15.1295 -18.0217 52.0911 0.0379837 -0.199505 -0.97916
-14.8988 -18.7699 52.1923 0.00934207 -0.0778745 -0.996919
-14.8585 -19.7808 52.2503 0.0431111 -0.0289259 -0.998649
-14.8404 -20.7468 52.274 0.0557072 -0.0201145 -0.998245
-14.8169 -21.4972 52.2936 0.0675414 -0.0256578 -0.997387
-14.4522 -22.2057 52.3335 0.0669597 -0.0200848 -0.997554
-13.4747 -22.5944 52.3842 0.032919 -0.0203554 -0.998459
-12.7071 -22.6397 52.4171 -0.0117101 -0.0440416 -0.997541
-11.9575 -22.6291 52.3805 -0.0425107 -0.00893158 -0.999049
-11.1547 -22.536 52.3461 -0.0460474 -0.0132142 -0.998834
-10.3427 -22.5508 52.3292 -0.0037038 -0.0250215 -0.99968
-9.25552 -22.5778 52.3364 0.00127958 -0.060074 -0.998193
-8.40936 -22.5283 52.3315 -0.0220168 -0.0492817 -0.998534
-7.54485 -22.6057 52.3234 -0.0103514 -0.0268926 -0.999577
-6.53603 -22.6248 52.3097 -0.0127023 -0.0223853 -0.999669
-5.71277 -22.5006 52.2986 -0.00453181 -0.0121653 -0.999915
-4.68274 -22.5299 52.2902 -0.0100247 -0.00641429 -0.999929
-3.76009 -22.5617 52.29 0.00428936 -0.00544727 -0.999976
-2.66495 -22.6247 52.2944 0.00261334 -0.00701744 -0.999972
-1.44273 -22.6404 52.2972 -0.0026665 -0.0325223 -0.999467
-0.644189 -22.5988 52.2901 -0.0220236 -0.00227872 -0.999653
0.476302 -22.3997 52.2782 -0.0108766 0.00430815 -0.999931
1.26525 -22.424 52.2768 -0.000766434 0.00670894 -0.999951
2.11742 -22.4724 52.2797 0.016748 -0.00246002 -0.999857
3.21949 -22.5147 52.2944 0.00857623 -0.0129894 -0.999877
3.99883 -22.492 52.2959 0.00438928 -0.0306255 -0.999479
4.88923 -22.5886 52.3109 0.0118211 -0.027719 -0.999546
6.18252 -22.5062 52.333 0.0206876 -0.0105453 -0.99973
6.94375 -22.5505 52.3488 0.0255355 -0.00852245 -0.999616
7.69555 -22.5781 52.3713 0.0289873 -0.0138019 -0.999484
8.59879 -22.5406 52.3987 0.038906 0.000523612 -0.999242
9.72851 -22.591 52.4425 0.0424109 -0.000392085 -0.999091
10.5773 -22.5859 52.484 0.0492664 -0.000244064 -0.998786
11.7616 -22.6 52.5442 0.0481336 -0.0153379 -0.998723
12.7127 -22.5576 52.5923 0.0443208 -0.0273888 -0.99852
13.8537 -22.6419 52.6286 0.0129886 -0.0191393 -0.999513
14.549 -22.3857 52.6366 0.017069 0.0139989 -0.999756
14.8397 -21.6207 52.6612 0.0436848 0.0206698 -0.998697
14.7035 -20.8013 52.6603 0.0436083 -0.00018522 -0.999049
14.7604 -19.9985 52.6611 0.0416008 -0.00210756 -0.999132
14.5686 -19.2026 52.6476 0.0456212 -0.0195746 -0.998767
14.6356 -18.4725 52.6313 0.0355823 -0.032931 -0.998824
14.5126 -17.7018 52.5569 -0.00339201 -0.123476 -0.992301
13.7478 -17.2859 52.5323 -0.0404873 -0.0562143 -0.997493
12.308 -17.2882 52.5343 0.0094457 -0.0169436 -0.999812
11.5556 -17.1557 52.5334 -0.00210174 -0.0147344 -0.999889
10.805 -17.0854 52.5278 0.0136721 0.0138611 -0.999782
10.0402 -17.0933 52.5237 0.00816247 0.0238141 -0.999673
9.15084 -16.7357 52.5248 0.0102515 0.0295628 -0.999507
8.05524 -16.4525 52.5319 0.00558286 0.0481545 -0.998803
7.33521 -16.7378 52.5093 0.0106216 0.0522852 -0.998576
6.63229 -17.014 52.4877 0.00427481 0.0597595 -0.998202
5.81998 -16.9574 52.4859 0.00649271 0.060614 -0.99814
5.0014 -16.8538 52.4869 0.00969882 0.0599083 -0.998151
3.83164 -16.6055 52.4865 0.0106059 0.0664275 -0.997706
3.05168 -16.6549 52.4766 0.00783134 0.0700985 -0.997509
1.88158 -16.8264 52.4532 0.0117834 0.0700087 -0.997477
0.879349 -16.8051 52.4443 0.00839232 0.0613237 -0.998083
0.0220413 -16.6849 52.4415 0.0156865 0.0604422 -0.998048
-0.861558 -16.4486 52.4399 0.0187279 0.0532174 -0.998407
-1.75985 -16.3579 52.4282 0.0217778 0.0484779 -0.998569
-2.56792 -16.5464 52.3992 0.025457 0.0438812 -0.998712
-3.61193 -16.6244 52.3693 0.0235917 0.037549 -0.998995
-4.57168 -16.6252 52.3441 0.0271369 0.0297845 -0.999188
-5.56979 -16.5982 52.3169 0.0355673 0.0150224 -0.999254
-6.74262 -16.5473 52.2807 0.0274606 0.0126867 -0.999542
-7.68804 -16.5235 52.2462 0.0351238 -0.000978308 -0.999382
-8.50838 -16.3994 52.2188 0.0340925 -0.0227809 -0.999076
-9.49333 -16.0349 52.1654 0.0389995 -0.0332772 -0.998681
-9.89043 -15.3243 52.1171 0.0563694 -0.0393849 -0.997633
-9.91615 -14.4122 52.0796 0.0602517 -0.0382266 -0.997443
-9.48323 -13.6142 52.0817 0.078349 -0.0406129 -0.996098
-9.14565 -12.8017 52.0765 0.0818594 -0.0414568 -0.995774
-8.52629 -11.87 52.0949 0.0841984 -0.0325794 -0.995914
-7.5917 -11.3349 52.1587 0.0859669 -0.0317613 -0.995791
-6.82037 -10.8545 52.2088 0.0831005 -0.0299427 -0.996091
-6.20644 -10.3625 52.2465 0.0836219 -0.02699 -0.996131
-5.5134 -9.75689 52.2871 0.0815746 -0.0281302 -0.99627
-4.97703 -9.1369 52.3124 0.0801082 -0.029088 -0.996362
-4.50523 -8.49951 52.3292 0.0770742 -0.0328346 -0.996485
-3.99375 -7.93513 52.3506 0.0757414 -0.0306205 -0.996656
-3.33101 -7.31546 52.3819 0.074617 -0.0344968 -0.996615
-2.5985 -6.69832 52.415 0.0717072 -0.0357088 -0.996785
-1.784 -6.1462 52.4522 0.0692673 -0.0331005 -0.99704
-1.1742 -5.46638 52.4726 0.0610248 -0.0282498 -0.997736
-0.577212 -4.80609 52.4902 0.0606372 -0.0290228 -0.997738
0.165648 -4.1324 52.5145 0.0563227 -0.0306626 -0.99794
0.897622 -3.47431 52.5356 0.0536398 -0.0245996 -0.998257
1.58892 -2.8126 52.5487 0.044605 -0.0324139 -0.998479
2.1372 -2.16539 52.5528 0.0389326 -0.03298 -0.998697
2.67462 -1.57588 52.5537 0.0369829 -0.0287638 -0.998892
3.37714 -0.980093 52.5607 0.0246762 -0.0238645 -0.999386
3.96653 -0.381351 52.5567 0.0176948 -0.0241596 -0.999552
4.92264 0.509603 52.5472 0.00987418 -0.0261459 -0.999609
5.5658 1.32902 52.5376 -0.000482487 -0.0162607 -0.999868
6.09343 1.92476 52.5276 -4.95793e-05 -0.00812845 -0.999934
6.57037 2.62827 52.5215 -0.0101354 -0.00422103 -0.99994
7.48049 3.19402 52.5089 -0.0124004 -0.00364378 -0.999916
8.28577 3.89264 52.4881 -0.0273907 -0.00217217 -0.999594
8.97731 4.68642 52.4721 -0.0294164 0.00358624 -0.999561
9.4849 5.41977 52.4549 -0.0480427 0.0101552 -0.998785
10.1242 5.97889 52.4333 -0.0477982 0.0179934 -0.998683
10.9155 6.65148 52.403 -0.0665769 0.0230095 -0.997516
11.691 7.36605 52.3706 -0.0764818 0.028896 -0.996563
12.4792 8.20986 52.3284 -0.0852918 0.0371551 -0.995663
12.9884 9.05787 52.3076 -0.104431 0.0320149 -0.993966
13.5484 9.96311 52.283 -0.12968 0.0546959 -0.989846
14.0998 10.8167 52.2531 -0.146764 0.0628088 -0.987173
15.1335 11.1514 52.1229 -0.174563 0.0684627 -0.981802
16.1396 10.5515 51.8683 -0.190429 0.0437637 -0.980203
16.4008 9.7967 51.8 -0.22498 0.0285764 -0.973944
16.5749 8.90358 51.7435 -0.224073 0.00704793 -0.974547
16.3978 8.05402 51.7603 -0.206473 0.0428746 -0.977512
16.2409 7.08707 51.7602 -0.211668 0.0268271 -0.976973
16.3987 5.95063 51.7009 -0.202771 0.0216393 -0.978987
16.5781 5.17326 51.6468 -0.186289 0.00769174 -0.982419
16.8272 4.27866 51.5865 -0.193015 0.0124207 -0.981117
16.702 3.33138 51.6092 -0.194124 -0.00346326 -0.980971
16.3471 2.2346 51.6761 -0.187458 0.00852846 -0.982236
16.1691 1.2347 51.7053 -0.190786 0.0010923 -0.981631
16.2363 0.474041 51.694 -0.18742 -0.00231856 -0.982275
16.5239 -0.471668 51.6438 -0.189896 -0.00723822 -0.981766
16.7201 -1.22548 51.6082 -0.193293 -0.0040019 -0.981133
16.6694 -1.98972 51.6287 -0.197897 -0.019245 -0.980034
16.5689 -2.98642 51.6619 -0.214841 -0.0182691 -0.976478
16.5956 -3.89121 51.6708 -0.220707 -0.00831268 -0.975304
16.5996 -4.9743 51.6782 -0.220998 -0.00614184 -0.975254
16.634 -6.21556 51.6807 -0.222347 -0.0115547 -0.974894
16.6848 -7.0645 51.6805 -0.219704 -0.0124556 -0.975487
16.5209 -8.04964 51.7337 -0.220791 -0.0195023 -0.975126
16.323 -8.81256 51.7939 -0.2198 -0.0190259 -0.975359
16.1504 -9.79542 51.8507 -0.217441 -0.0271964 -0.97565
15.9976 -10.765 51.9046 -0.185091 -0.014426 -0.982615
15.9741 -11.5677 51.9424 -0.185494 -0.0401736 -0.981816
16.2149 -12.3179 51.9304 -0.175047 -0.0381475 -0.983821
16.459 -13.0309 51.917 -0.174782 -0.0538162 -0.983135
16.6191 -14.1011 51.9308 -0.193283 -0.0407798 -0.980295
16.4127 -15.0209 52.0336 -0.20507 -0.0784341 -0.9756
16.3671 -15.9583 52.14 -0.171071 -0.096375 -0.980397
16.5867 -16.8156 52.1797 -0.16102 -0.141908 -0.975068
16.899 -17.2849 52.2198 -0.197584 -0.175799 -0.963968
17.6501 -17.3354 52.0446 -0.264221 -0.156054 -0.951128
18.3515 -17.2715 51.7927 -0.356544 -0.172857 -0.917907
19.2445 -17.2474 51.3799 -0.419514 -0.19712 -0.886088
20.344 -17.8152 50.7557 -0.567149 -0.0735554 -0.819768
20.8685 -18.2369 50.3912 -0.617491 -0.0236375 -0.786223
21.4548 -18.5827 49.9159 -0.638504 0.00239848 -0.769615
21.6947 -18.047 49.7051 -0.65656 -0.0328674 -0.753443
22.1166 -17.4422 49.3612 -0.661715 0.0376256 -0.74881
22.7313 -17.2461 48.845 -0.665941 0.0598294 -0.743317
23.2008 -17.3046 48.4018 -0.67186 0.0670208 -0.737509
23.7562 -17.3365 47.8825 -0.693532 0.0964902 -0.713934
24.0464 -17.0198 47.6467 -0.687841 0.0993958 -0.719024
23.4075 -16.8046 48.2674 -0.662494 0.073542 -0.745449
22.7693 -16.6513 48.8588 -0.665937 0.0598308 -0.74332
22.2233 -16.0927 49.3381 -0.626868 0.0332821 -0.778414
21.769 -15.5685 49.7398 -0.58477 0.0392747 -0.808567
21.2614 -14.754 50.0913 -0.546137 0.0241869 -0.837342
21.1821 -13.5125 50.1826 -0.534909 0.0448156 -0.843413
21.1126 -12.6637 50.2429 -0.493506 0.0174192 -0.869568
21.0804 -11.9032 50.2833 -0.475869 0.0552658 -0.877778
21.2637 -10.6184 50.1985 -0.440031 0.0215369 -0.897503
21.5064 -9.90401 50.1103 -0.428031 0.0325602 -0.903177
21.5643 -9.12556 50.0995 -0.454457 0.0191561 -0.890563
21.4223 -8.39031 50.1874 -0.458401 0.0226825 -0.888426
21.3941 -7.48015 50.2127 -0.413634 0.00725414 -0.910414
21.2191 -6.41203 50.316 -0.381434 0.00436266 -0.9235
21.3241 -5.59885 50.265 -0.391424 -0.00963047 -0.92016
21.3102 -4.60387 50.229 -0.443506 -0.0315311 -0.895022
21.5304 -3.62137 50.124 -0.441164 0.00640674 -0.897395
21.7837 -2.66619 50.0117 -0.439833 0.0116795 -0.898004
21.857 -1.90797 49.9834 -0.443608 0.0122503 -0.896127
21.6703 -1.07236 50.0789 -0.450696 -0.005675 -0.892659
21.5451 -0.227927 50.1201 -0.419441 -0.0224317 -0.907435
21.5614 0.688168 50.0944 -0.426159 -0.00540465 -0.904632
21.7309 1.66272 50.0102 -0.457305 -0.00860749 -0.889268
21.8349 2.52093 49.944 -0.456917 -0.0330863 -0.888847
21.8736 3.50534 49.8789 -0.464806 -0.0348615 -0.884701
21.9708 4.51215 49.8086 -0.487985 -0.0157415 -0.872165
22.3294 5.12242 49.589 -0.499309 -0.0204223 -0.866183
23.1935 5.35374 49.0296 -0.581033 -0.0396116 -0.812915
24.0319 5.26594 48.4196 -0.595422 -0.0500628 -0.801817
24.7915 5.37463 47.8434 -0.61045 -0.0644237 -0.78943
25.404 5.51833 47.3581 -0.618168 -0.0589665 -0.783754
25.9414 5.86212 46.8741 -0.648354 -0.0643638 -0.758613
26.1733 6.59169 46.6082 -0.657656 -0.0711759 -0.749948
26.3147 7.63874 46.3728 -0.656812 -0.0894299 -0.748733
26.0438 8.40665 46.5203 -0.660474 -0.088257 -0.745644
25.5738 8.87684 46.8812 -0.660555 -0.0880708 -0.745594
25.0238 9.39356 47.3018 -0.641169 -0.0842302 -0.762761
24.172 10.1635 47.9311 -0.641185 -0.0861311 -0.762538
23.7317 11.0119 48.189 -0.628646 -0.0982179 -0.771464
23.4808 12.1265 48.2971 -0.63805 -0.0783528 -0.765735
23.257 12.8971 48.4156 -0.642075 -0.0653298 -0.76357
23.0387 13.6735 48.5299 -0.633231 -0.0390663 -0.772603
22.7911 14.6112 48.671 -0.648143 -0.0710049 -0.758081
22.5632 15.7275 48.7958 -0.668958 -0.0360993 -0.742256
22.7507 16.5444 48.6024 -0.682436 -0.0346915 -0.729853
23.3311 16.8852 48.013 -0.711763 -0.0473154 -0.700825
23.8312 17.3311 47.4645 -0.716482 -0.0650785 -0.694497
24.1254 16.9584 47.2035 -0.709948 -0.0712901 -0.700637
24.6863 17.0637 46.6241 -0.711989 -0.0810688 -0.697495
25.1631 17.3604 46.0983 -0.721864 -0.0862849 -0.686633
25.881 17.3196 45.3583 -0.715015 -0.0931537 -0.692876
25.8584 17.4875 45.3591 -0.721401 -0.101091 -0.684978
25.1767 17.4775 46.0693 -0.722994 -0.0861761 -0.685459
24.6352 17.4676 46.6296 -0.711925 -0.0806743 -0.697607
23.9061 17.4801 47.3738 -0.710298 -0.0692929 -0.700482
23.4007 17.4239 47.9015 -0.713909 -0.0583232 -0.697805
22.8562 17.494 48.4513 -0.700886 -0.0260805 -0.712796
22.3515 17.8381 48.9383 -0.703056 -0.00798404 -0.711075
22.004 18.4101 49.2508 -0.672951 -0.0162832 -0.739508
21.9091 19.279 49.3137 -0.665388 -0.0196515 -0.746086
21.8662 20.1897 49.3368 -0.676842 -0.00555855 -0.736107
21.9007 21.1022 49.2973 -0.676217 -0.0068879 -0.73667
21.9699 21.8625 49.2245 -0.675242 -0.0104683 -0.737518
22.065 22.6857 49.118 -0.681021 -0.0166736 -0.732074
21.472 22.8614 49.6742 -0.688589 -0.00984918 -0.725051
20.8181 22.8801 50.2851 -0.660385 0.0362817 -0.749552
20.1478 22.6312 50.8056 -0.598992 0.030001 -0.800141
20.0863 22.0834 50.8355 -0.605143 0.019361 -0.795882
20.3903 21.3581 50.5927 -0.612364 -0.00460343 -0.790563
20.7417 20.5274 50.3086 -0.633443 -0.00331233 -0.773723
20.8383 19.7136 50.221 -0.635248 0.00344453 -0.772276
20.5419 18.8092 50.4516 -0.624936 -0.00373972 -0.780552
20.1369 18.2076 50.7473 -0.582988 0.0152908 -0.812084
19.646 17.727 51.0745 -0.574021 0.0472174 -0.817477
18.8984 17.5016 51.509 -0.478791 0.0816313 -0.874125
18.1223 17.4723 51.9292 -0.491539 0.139533 -0.859605
17.4488 17.5069 52.3103 -0.458267 0.200195 -0.864891
16.6857 17.5116 52.7139 -0.479337 0.245246 -0.842669
15.9563 17.413 52.9794 -0.215348 0.32767 -0.919659
15.1572 17.6452 53.1687 -0.0476816 0.247506 -0.966951
14.6069 18.2135 53.2711 0.0422604 0.13263 -0.990264
14.347 19.0206 53.3296 0.0344625 0.0419012 -0.998527
14.0831 19.9625 53.3596 0.00614392 0.0244564 -0.999682
14.0339 20.7732 53.3763 -0.00681517 0.0124296 -0.9999
14.2193 21.7488 53.3839 -0.00655556 0.00809865 -0.999945
14.6441 22.3919 53.38 -0.00710353 -0.00555374 -0.999959
14.4577 22.7211 53.3801 -0.00508517 0.00190271 -0.999985
13.5467 22.7077 53.382 -0.0069949 -0.0154756 -0.999835
12.7726 22.6926 53.3926 -0.0505361 0.00685012 -0.997743
11.9852 22.7206 53.3986 0.0136612 0.0532869 -0.998486
11.1474 22.6434 53.3805 0.023733 0.00953634 -0.999639
10.2659 22.5412 53.3575 0.02526 0.0187231 -0.999504
9.50187 22.6088 53.3625 -0.00791695 0.00351287 -0.999962
8.72325 22.6544 53.383 -0.0253249 0.0624766 -0.997294
7.86031 22.7039 53.3861 -0.00455024 0.0556584 -0.998222
6.86721 22.6487 53.3852 0.000764145 0.0276092 -0.999608
6.12707 22.562 53.3868 -0.00603307 0.023202 -0.999713
5.05446 22.6753 53.3908 -0.0033016 0.0171025 -0.999848
4.29527 22.5129 53.3905 -0.0019848 0.0268159 -0.999635
3.5412 22.5887 53.3966 -0.00557758 0.0250825 -0.99967
2.77481 22.6593 53.4037 -0.0108761 0.0363864 -0.999262
2.02495 22.6155 53.4065 -0.00597123 0.0394794 -0.999203
0.789012 22.6559 53.4139 -0.0108597 0.021611 -0.999707
-0.218717 22.5701 53.423 -0.0155319 0.0275165 -0.999472
-1.04466 22.5541 53.4359 -0.0162043 0.0275115 -0.99949
-2.05792 22.6421 53.4539 -0.0163411 0.0220213 -0.999613
-3.29786 22.5922 53.4774 -0.010044 0.0180237 -0.99974
-4.35369 22.7012 53.4987 -0.0196101 0.0126682 -0.999725
-5.16523 22.6564 53.5116 -0.0152438 0.00956252 -0.999838
-6.24016 22.5754 53.5267 -0.013608 0.00466135 -0.999897
-7.02103 22.69 53.5404 -0.0213909 0.00417697 -0.999762
-7.8554 22.7222 53.5604 -0.026964 0.00518954 -0.999623
-8.67751 22.7411 53.5872 -0.0412915 0.00847103 -0.999109
-9.58248 22.7191 53.6239 -0.0422945 0.0179817 -0.998937
-10.3433 22.6935 53.6519 -0.0348525 0.0174685 -0.99924
-11.1492 22.7545 53.6831 -0.0384237 0.0148491 -0.999151
-11.9348 22.7543 53.7131 -0.0375613 0.0142046 -0.999193
-12.7576 22.7482 53.7394 -0.0274746 0.0118392 -0.999552
-13.6713 22.7932 53.7612 -0.0203239 0.0113626 -0.999729
-14.4773 22.7677 53.7755 -0.0158541 0.011887 -0.999804
-15.1725 22.5235 53.7817 -0.0103292 0.0132118 -0.999859
-14.7739 21.934 53.7716 -0.0111799 0.0101425 -0.999886
-14.5573 21.1293 53.7631 -0.0141374 0.0056447 -0.999884
-14.3083 20.2994 53.7529 -0.0221027 0.00571042 -0.999738
-14.1337 19.5274 53.7412 -0.0255108 0.0095009 -0.999625
-14.1915 18.6885 53.7208 -0.0238857 0.0426252 -0.998789
-14.4759 17.9564 53.6807 -0.0195596 0.0843566 -0.996244
-14.7781 17.1613 53.5784 0.0313103 0.124736 -0.991396
-13.6897 17.0246 53.5967 0.00327567 0.0898535 -0.995785
-12.9031 16.8491 53.5766 -0.00109337 0.0742317 -0.997211
-11.7583 16.8251 53.5821 -0.0068329 0.0603215 -0.997997
-10.9891 16.9776 53.573 -0.0198664 0.0419196 -0.998923
-10.1139 16.9656 53.5576 -0.0150396 0.0414766 -0.999026
-9.09167 16.8387 53.5426 -0.00818886 0.0263121 -0.99962
-7.7467 16.6788 53.5334 -0.00277239 0.0167085 -0.999857
-7.00077 16.5739 53.5292 -0.00309436 0.0112135 -0.999931
-6.13935 16.6203 53.5273 -0.00406298 0.0077675 -0.99996
-5.23616 16.8509 53.519 -0.0146424 0.00551211 -0.999878
-4.16922 16.8505 53.5066 -0.0126046 0.000307982 -0.999921
-3.42466 16.7105 53.4972 -0.014821 -0.00527167 -0.999858
-2.61371 16.6689 53.4826 -0.0187442 -0.0158313 -0.999699
-1.82639 16.7131 53.467 -0.0198511 -0.0158468 -0.999677
-1.04877 16.728 53.451 -0.0202247 -0.015551 -0.999675
-0.264054 16.815 53.4336 -0.0195431 -0.0163689 -0.999674
0.880807 16.9894 53.4075 -0.0216996 -0.0186292 -0.999591
1.90075 16.9684 53.3811 -0.0283383 -0.0156297 -0.999476
2.71649 16.8732 53.3617 -0.038887 -0.00211783 -0.999241
3.94015 16.8958 53.3252 -0.0236644 0.00413158 -0.999711
4.88297 16.862 53.2937 -0.0350134 0.0103108 -0.999334
5.8018 16.5105 53.259 -0.0241536 0.0225865 -0.999452
6.99454 16.6525 53.219 -0.0394236 0.0376091 -0.998515
7.83053 16.4084 53.1874 -0.0338754 0.0533573 -0.997869
8.34783 15.7991 53.1242 -0.0448296 0.0652855 -0.996859
8.78456 15.1207 53.0614 -0.0389346 0.0760995 -0.996251
8.72103 14.0328 52.9719 -0.0549952 0.0845202 -0.994903
8.31283 13.2727 52.9314 -0.0640768 0.080525 -0.994672
7.24604 12.653 52.956 -0.0705466 0.0807462 -0.994232
6.79471 11.8994 52.9287 -0.067947 0.0781994 -0.994609
6.18688 11.423 52.9337 -0.0708761 0.0808671 -0.994202
5.4976 10.6056 52.9142 -0.0682653 0.0840508 -0.99412
4.97117 9.74588 52.8751 -0.0639268 0.0887159 -0.994002
4.42899 9.0036 52.8433 -0.0600189 0.0900877 -0.994124
3.90268 8.3642 52.8182 -0.056758 0.0849652 -0.99476
3.04179 7.5646 52.7953 -0.0550892 0.0814161 -0.995143
2.40313 7.09999 52.7888 -0.0451876 0.0780047 -0.995928
1.3877 6.35471 52.7724 -0.0417024 0.0838716 -0.995604
0.689059 5.91653 52.7651 -0.0399314 0.0811768 -0.995895
-0.0328161 5.21112 52.7342 -0.0371588 0.0807029 -0.996045
-0.66433 4.24189 52.6801 -0.0323729 0.0841994 -0.995897
-1.40701 3.38354 52.6332 -0.0268277 0.0748779 -0.996832
-2.06231 2.94736 52.6086 -0.0115724 0.0838191 -0.996414
-2.88934 2.39878 52.5756 -0.00940618 0.0721067 -0.997353
-3.51072 1.60167 52.5199 -0.00488587 0.0781439 -0.99693
-4.0183 0.932887 52.47 -0.00255023 0.0676416 -0.997648
-4.57791 0.0345349 52.4038 0.0133943 0.0660541 -0.997726
-5.07715 -0.552333 52.3574 0.0146211 0.0676687 -0.997601
-5.64789 -1.15545 52.3059 0.0209377 0.0616343 -0.997848
-6.24554 -1.77756 52.2578 0.0298254 0.0593429 -0.997792
-6.81558 -2.26388 52.2119 0.0289152 0.048497 -0.998345
-7.54687 -2.81023 52.1575 0.0519501 0.047513 -0.997519
-8.21789 -3.27534 52.1004 0.0506679 0.0435601 -0.997756
-8.70403 -3.97787 52.042 0.060396 0.0438657 -0.99721
-9.33582 -4.80647 51.9718 0.0653687 0.0337151 -0.997291
-10.0583 -5.97626 51.887 0.0854901 0.0160258 -0.99621
-10.6322 -6.79349 51.8198 0.0982037 0.0169696 -0.99497
-11.3542 -7.81851 51.7423 0.107311 0.0118607 -0.994089
-12.1132 -8.71544 51.6543 0.114413 -0.00815834 -0.993378
-12.7851 -9.32687 51.575 0.132721 -0.00949094 -0.991103
-13.6054 -9.48936 51.4594 0.147361 -0.00654556 -0.989046
-14.5644 -9.70574 51.3007 0.172939 -0.00964197 -0.984885
-15.4135 -9.84107 51.1257 0.205462 0.0133233 -0.978574
-16.2841 -9.53386 50.9291 0.232367 0.00559158 -0.972612
-16.7945 -8.95155 50.8104 0.264736 0.0410535 -0.963425
-16.9169 -8.10316 50.8091 0.260594 0.0361856 -0.96477
-16.7983 -7.01147 50.8779 0.246312 0.0262435 -0.968835
-16.6658 -5.81999 50.9651 0.229866 0.0547821 -0.971624
-16.5873 -4.86554 51.0307 0.220982 0.053559 -0.973806
-16.837 -3.94063 51.0259 0.214787 0.0581808 -0.974926
-16.8492 -3.00148 51.0875 0.217228 0.0746249 -0.973264
-16.911 -2.06593 51.1569 0.198842 0.0969002 -0.975229
-17.1081 -1.13528 51.2068 0.208866 0.100404 -0.9727
-17.0587 -0.273862 51.3096 0.203655 0.0526958 -0.977147
-16.9971 0.510553 51.3808 0.187202 0.076098 -0.979369
-16.949 1.33616 51.4649 0.192453 0.103119 -0.975873
-17.0276 2.29582 51.5385 0.188108 0.0817936 -0.978736
-16.9374 3.21355 51.6404 0.188183 0.0944614 -0.977581
-16.8364 4.07065 51.7491 0.175533 0.100744 -0.979305
-16.7087 5.22951 51.8924 0.17537 0.102579 -0.979144
-16.7086 6.12512 51.9868 0.17054 0.106412 -0.979452
-16.6491 7.04458 52.0927 0.18398 0.108501 -0.976889
-16.8289 8.12949 52.1851 0.174463 0.110778 -0.978412
-16.8304 8.9906 52.2832 0.172831 0.109979 -0.97879
-16.8577 9.84263 52.3709 0.172016 0.115753 -0.978221
-16.5643 10.8273 52.5487 0.170992 0.126172 -0.97716
-16.5342 11.7084 52.6708 0.166706 0.12801 -0.977654
-16.6023 12.6314 52.7851 0.163106 0.142266 -0.976298
-16.6019 13.701 52.9444 0.166682 0.148878 -0.974706
-16.5582 14.5405 53.0741 0.122333 0.136832 -0.982977
-16.476 15.7619 53.2627 0.12569 0.156927 -0.979461
-16.0564 16.4229 53.4059 0.0861404 0.155439 -0.984083
-15.4995 16.7268 53.5017 0.0217741 0.144366 -0.989277
-14.8028 17.6315 53.6469 0.0178617 0.144968 -0.989275
-15.5566 17.5063 53.6135 0.0256901 0.143765 -0.989278
-16.4937 17.3469 53.5223 0.0894046 0.173151 -0.980829
-17.6729 17.546 53.4149 0.162254 0.2004 -0.966185
-18.5619 17.6093 53.2511 0.227538 0.170495 -0.958347
-19.382 17.5894 53.0443 0.306925 0.161658 -0.937766
-20.1121 17.6115 52.7907 0.389565 0.185469 -0.902131
-20.8626 17.5005 52.4139 0.4791 0.170125 -0.859502
-21.5619 17.5388 51.9653 0.550056 0.179093 -0.815699
-22.2821 17.5244 51.4213 0.601334 0.141363 -0.786146
-22.868 17.4927 50.925 0.648446 0.0962528 -0.755151
-23.2252 17.2704 50.5886 0.660505 0.0609568 -0.748343
-22.7459 16.7558 50.9394 0.631588 0.0926258 -0.769669
-22.3358 15.902 51.1238 0.581518 0.10016 -0.806991
-22.3057 15.0231 51.0625 0.561133 0.0963008 -0.821477
-22.1566 14.2478 51.075 0.536405 0.0793232 -0.840225
-21.9931 13.5183 51.1118 0.519096 0.0758854 -0.851341
-21.8986 12.3529 51.0464 0.43256 0.0895733 -0.897144
-22.0588 11.6059 50.8738 0.448196 0.114876 -0.886523
-22.2707 10.3487 50.6389 0.450711 0.0664412 -0.890194
-22.2559 9.45685 50.5839 0.452279 0.0525362 -0.890328
-22.0988 8.65643 50.6137 0.465006 0.0781563 -0.881776
-21.946 7.61927 50.578 0.418661 0.0840828 -0.904131
-21.9125 6.77646 50.5393 0.411574 0.0531111 -0.909828
-21.9843 5.95098 50.429 0.396444 0.106179 -0.911898
-21.9303 5.06943 50.346 0.394404 0.121138 -0.910897
-21.8819 4.28347 50.2582 0.40372 0.113851 -0.907668
-21.9358 3.09295 50.103 0.40762 0.0984922 -0.907825
-21.7753 1.92671 50.0597 0.415434 0.0917409 -0.904985
-21.6651 0.842783 49.9788 0.361927 0.109069 -0.925804
-21.5636 -0.383007 49.8825 0.376475 0.094568 -0.921587
-21.6743 -1.13287 49.7619 0.375603 0.0861424 -0.922769
-21.6029 -1.90827 49.7162 0.363199 0.110209 -0.925124
-21.524 -2.82657 49.6296 0.376633 0.10022 -0.920687
-21.4376 -3.87392 49.5751 0.385212 0.0785894 -0.919476
-21.5162 -5.21336 49.4112 0.415951 0.0988031 -0.904004
-21.5846 -6.49258 49.2579 0.422079 0.0725903 -0.903644
-21.4571 -7.51502 49.2335 0.423011 0.0758653 -0.902942
-21.5061 -8.25924 49.147 0.422205 0.0771487 -0.903212
-21.7201 -8.96434 48.9691 0.440686 0.0840475 -0.893559
-22.2591 -9.65554 48.6316 0.479859 0.0981924 -0.871674
-23.0866 -9.73865 48.1538 0.492098 0.110318 -0.86348
-23.9045 -9.63645 47.6878 0.516431 0.107227 -0.849493
-24.7245 -9.68448 47.1687 0.531446 0.124213 -0.837769
-25.3504 -9.62228 46.7563 0.556458 0.146941 -0.81778
-26.1387 -9.05818 46.3095 0.572231 0.14055 -0.807959
-26.331 -7.89465 46.3648 0.54166 0.128247 -0.830757
-26.5087 -6.92368 46.3975 0.542734 0.124557 -0.830615
-26.9479 -6.28015 46.1991 0.5539 0.109038 -0.825412
-27.4106 -5.71054 45.9685 0.549066 0.114643 -0.827879
-27.9169 -4.90124 45.7319 0.556705 0.0951799 -0.825239
-28.5491 -4.31609 45.3706 0.565147 0.0875871 -0.820291
-29.3434 -3.76731 44.8721 0.579154 0.0948256 -0.809568
-29.9482 -3.39692 44.4713 0.593216 0.0960828 -0.799289
-30.5428 -3.07598 44.0652 0.606872 0.0968405 -0.788878
-31.2672 -2.97947 43.5194 0.60712 0.0965102 -0.788727
-32.1038 -3.3427 42.8359 0.608104 0.0917805 -0.788512
-32.4567 -3.92093 42.4909 0.613614 0.0946541 -0.783912
-32.5364 -5.20572 42.2607 0.617938 0.110642 -0.7783
-32.2379 -5.92201 42.3946 0.611851 0.106024 -0.783833
-31.7141 -6.53934 42.719 0.602284 0.118355 -0.789304
-31.1963 -7.25612 42.9884 0.590065 0.128965 -0.796983
-30.6025 -7.95964 43.2876 0.586033 0.162427 -0.793841
-30.1145 -8.59808 43.5253 0.598111 0.183989 -0.779531
-29.7645 -9.25852 43.6184 0.601706 0.209074 -0.770868
-28.8944 -10.0665 44.0784 0.592504 0.204363 -0.779102
-28.3186 -9.92543 44.5392 0.581252 0.200763 -0.788568
-27.7097 -9.83193 45.0144 0.594038 0.182095 -0.783525
-26.9303 -10.1225 45.5371 0.584339 0.164319 -0.794679
-26.3981 -10.7908 45.7867 0.580304 0.162561 -0.798011
-25.962 -11.6047 45.9319 0.576435 0.168043 -0.799678
-25.7408 -12.569 45.8624 0.574235 0.204107 -0.792839
-25.3162 -13.615 45.9355 0.593847 0.170589 -0.786286
-24.9101 -14.4015 46.0715 0.601423 0.166545 -0.781316
-24.8977 -15.4564 45.8522 0.643587 0.163322 -0.747744
-25.215 -16.1589 45.4255 0.672547 0.159823 -0.722589
-25.7035 -16.4315 44.9144 0.664593 0.167491 -0.728191
-26.4044 -16.792 44.1653 0.680092 0.182995 -0.709921
-26.2058 -17.3822 44.2034 0.685967 0.179155 -0.705182
-25.7546 -17.1875 44.6913 0.663798 0.17024 -0.728279
-25.2136 -17.4831 45.14 0.691905 0.138669 -0.708399
-24.7885 -17.9823 45.4841 0.717988 0.0934748 -0.689576
-24.61 -18.705 45.6032 0.71034 0.0462931 -0.702335
-24.5649 -19.6324 45.611 0.709656 0.02001 -0.704264
-24.5594 -20.4232 45.6044 0.70981 0.00734606 -0.704352
-24.5568 -21.2833 45.6012 0.708327 -0.0014731 -0.705879
-24.7255 -22.0754 45.4291 0.715576 -0.00265268 -0.698529
-24.797 -22.5368 45.358 0.715336 -0.00376808 -0.698771
-24.2681 -22.5268 45.8933 0.706875 -0.00146565 -0.707324
-23.7203 -22.6336 46.4276 0.695013 0.00212902 -0.718994
-23.0935 -22.6855 47.0258 0.685255 -0.00731512 -0.728247
-22.4263 -22.6467 47.6423 0.670148 -0.000644779 -0.742198
-21.8425 -22.6559 48.1475 0.644464 -0.00698293 -0.76454
-21.1488 -22.6468 48.7252 0.615053 -0.0235878 -0.787966
-20.5106 -22.5842 49.2005 0.584184 -0.0454316 -0.809771
-19.831 -22.1822 49.6426 0.548741 -0.0127949 -0.835892
-19.515 -21.5044 49.8326 0.524409 -0.0314748 -0.850885
-19.4287 -20.7238 49.8646 0.535672 -0.0150678 -0.844285
-19.3042 -19.8096 49.9331 0.534265 -0.00221171 -0.845314
-19.2916 -18.9451 49.9386 0.534389 -0.00267391 -0.845235
-19.1911 -18.3529 50.002 0.526028 -0.0022914 -0.8504
-14.8314 -13.7813 51.4149 0.232954 -0.0776243 -0.96929
-14.1918 -13.4044 51.5154 0.177516 -0.0691533 -0.981668
-13.3429 -13.5724 51.6703 0.131811 -0.0710217 -0.988727
-13.591 -14.4289 51.7049 0.150436 -0.0921162 -0.984212
-14.3611 -14.1324 51.5457 0.169209 -0.0931275 -0.981171
-14.6111 -13.8894 51.4795 0.204338 -0.0911873 -0.973982
-26.6313 -16.7911 43.9481 0.674144 0.19942 -0.710953
-26.8905 -17.2669 43.5637 0.707296 0.21279 -0.674131
-27.4927 -17.1423 43.0084 0.681243 0.224077 -0.69692
-27.1131 -16.8612 43.4698 0.681767 0.229818 -0.694506
-26.9434 -16.7923 43.6548 0.662498 0.218148 -0.716554
-27.9464 -17.4465 42.459 0.687343 0.221444 -0.691716
-28.0372 -17.379 42.3908 0.690209 0.227258 -0.686987
-28.3054 -8.12603 44.9528 0.576124 0.156965 -0.802149
-28.9096 -7.69988 44.5955 0.583913 0.135237 -0.800471
-29.4212 -7.01775 44.3369 0.587912 0.133036 -0.7979
-29.8526 -6.42759 44.1133 0.590692 0.129831 -0.796384
-30.316 -5.84355 43.8618 0.595338 0.12552 -0.793611
-30.687 -5.36545 43.6591 0.590706 0.123986 -0.797281
-30.6924 -4.9462 43.7179 0.600983 0.103532 -0.792482
-30.0529 -5.18983 44.1626 0.595195 0.116922 -0.794982
-29.5116 -5.67609 44.4887 0.590255 0.12972 -0.796726
-28.8915 -6.3505 44.838 0.589822 0.129603 -0.797065
-28.374 -6.97018 45.1081 0.577821 0.13786 -0.804406
-28.0004 -7.62323 45.2606 0.573401 0.140032 -0.807214
-28.2056 -8.12242 45.0252 0.576122 0.156968 -0.80215
-35.2697 -0.208714 40.5065 0.649568 0.0561116 -0.758219
-35.8643 -0.798079 39.9501 0.655066 0.0584691 -0.75327
-36.4916 -0.952062 39.3788 0.66541 0.0604694 -0.744025
-37.0366 -0.730972 38.8999 0.676968 0.0431728 -0.734727
-37.4977 -0.0601016 38.5171 0.680074 0.0329465 -0.732297
-37.6395 1.06442 38.4098 0.68373 0.012104 -0.729634
-36.9786 1.94318 39.0398 0.685327 0.000439498 -0.728236
-36.3013 2.11722 39.6737 0.675916 -0.0050838 -0.736919
-35.5772 1.75333 40.3268 0.661746 -0.00573407 -0.749706
-35.1974 1.12762 40.6434 0.649765 0.0234701 -0.759773
-35.1328 0.368556 40.6614 0.647274 0.0491536 -0.760671
-35.1863 -0.0390936 40.5895 0.64841 0.0506018 -0.759605
-39.9973 5.54986 36.0531 0.701456 -0.0531714 -0.710727
-40.5307 4.96995 35.5528 0.719708 -0.0402928 -0.693107
-41.1999 4.7936 34.8674 0.720448 -0.0401606 -0.692345
-41.7743 5.05011 34.2587 0.725746 -0.0258922 -0.687476
-42.2297 5.81899 33.7467 0.727043 -0.0279886 -0.686022
-42.2519 6.77115 33.6699 0.72009 -0.0404813 -0.692699
-41.8634 7.41846 34.0328 0.71621 -0.0511733 -0.696006
-41.1433 7.87597 34.7388 0.715051 -0.0513899 -0.697181
-40.439 7.70733 35.4623 0.701171 -0.0539025 -0.710952
-39.883 6.90157 36.0679 0.699356 -0.0504967 -0.712988
-39.7899 6.11202 36.2157 0.703105 -0.0522215 -0.709162
-39.9583 5.62558 36.0859 0.701458 -0.0531702 -0.710725
-45.6139 9.86354 29.9672 0.689403 -0.0365871 -0.723453
-46.2457 9.16897 29.4267 0.658639 -0.036519 -0.751539
-46.8445 9.03678 28.9192 0.610937 -0.0377739 -0.790327
-47.6301 9.64529 28.2977 0.582286 -0.0569203 -0.810776
-47.6914 10.6383 28.1853 0.579734 -0.0561314 -0.812712
-47.2241 11.2594 28.492 0.60064 -0.0499478 -0.79784
-46.6689 11.4533 28.9345 0.644685 -0.0308752 -0.763825
-45.827 11.0218 29.7019 0.691278 -0.0401923 -0.72147
-45.6069 9.90665 29.9717 0.689335 -0.0367583 -0.723509
-51.13 12.1681 26.1559 0.384403 -0.0516757 -0.921718
-51.0565 12.9281 26.1387 0.383307 -0.0669972 -0.921188
-51.2543 13.7318 25.9979 0.367446 -0.0575051 -0.928056
-51.8182 14.3422 25.7354 0.355089 -0.083605 -0.931086
-52.5269 14.7349 25.4598 0.312369 -0.0539807 -0.948426
-53.3777 14.7215 25.1806 0.301652 -0.0372625 -0.95269
-54.383 14.228 24.8881 0.292894 -0.0318918 -0.95558
-54.7286 13.5249 24.7995 0.289673 -0.0262345 -0.956753
-54.8187 12.6807 24.7906 0.298941 -0.0221095 -0.953865
-54.3575 11.6568 24.9679 0.311896 -0.0163703 -0.949975
-53.6374 11.2453 25.2344 0.334312 -0.0266021 -0.942085
-52.6277 11.0432 25.6118 0.345649 -0.0353428 -0.937698
-51.9299 11.2775 25.8773 0.373826 -0.0476763 -0.926273
-51.4189 11.785 26.0569 0.379972 -0.0541975 -0.923393
-55.5327 3.78176 24.6181 0.303999 0.0330608 -0.952099
-54.7683 2.89509 24.8386 0.31657 0.0256134 -0.948223
-54.6491 1.94806 24.8502 0.32023 0.0349361 -0.946692
-54.9888 1.24221 24.7099 0.316897 0.0331698 -0.94788
-55.7764 0.586111 24.4417 0.286903 0.0273916 -0.957564
-56.9518 0.492222 24.1045 0.25607 0.018847 -0.966475
-57.6446 0.840473 23.9332 0.229004 0.0199383 -0.973221
-58.1208 1.44189 23.8326 0.230106 0.0184816 -0.97299
-58.1994 2.62867 23.831 0.213775 0.0192909 -0.976546
-57.8501 3.349 23.9346 0.258167 0.0147442 -0.965988
-57.1102 3.86593 24.1477 0.279008 0.028247 -0.959873
-56.0995 4.05263 24.447 0.283419 0.0253784 -0.958645
-56.0664 4.04075 24.4567 0.295914 0.027786 -0.954758
-56.7679 -6.71976 23.9516 0.224534 0.0287496 -0.974042
-55.8397 -7.11805 24.1773 0.259262 0.0369924 -0.965098
-55.3184 -7.64844 24.2972 0.262082 0.035297 -0.9644
-55.2866 -8.71477 24.264 0.263055 0.0402133 -0.963943
-55.9295 -9.58523 24.06 0.241104 0.047039 -0.969359
-56.9354 -9.91173 23.8065 0.220722 0.0334657 -0.974763
-57.6609 -9.65115 23.655 0.213254 0.0345243 -0.976382
-58.2388 -8.99001 23.5595 0.195791 0.0355607 -0.980001
-58.3445 -8.16872 23.5656 0.196611 0.0280447 -0.98008
-57.9839 -7.30618 23.6643 0.198284 0.0308476 -0.979659
-57.1421 -6.79852 23.863 0.224533 0.0287493 -0.974042
-57.8521 -14.0358 23.4476 0.19356 0.0158723 -0.980954
-58.6859 -14.1749 23.2852 0.170541 0.0298598 -0.984838
-59.3751 -14.6093 23.1624 0.161342 0.0248949 -0.986584
-59.5588 -15.6181 23.1063 0.164387 0.0182073 -0.986202
-59.1129 -16.4911 23.1648 0.157086 0.0184861 -0.987412
-58.3472 -16.7521 23.2892 0.173469 0.0155344 -0.984702
-57.5108 -16.5033 23.4444 0.191236 0.0176968 -0.981363
-56.8615 -15.6914 23.5945 0.18988 0.035071 -0.981178
-57.0453 -14.762 23.5939 0.192494 0.0352599 -0.980661
-57.657 -14.1654 23.4847 0.196936 0.0151552 -0.980299
-40.704 -19.6164 32.0064 0.297731 0.0686862 -0.952176
-39.9825 -18.6808 32.3377 0.276051 0.199342 -0.940244
-39.0541 -18.3214 32.7607 0.299327 0.340695 -0.883929
-38.3075 -18.5349 32.967 0.569642 0.217775 -0.790463
-37.6648 -18.9814 33.3159 0.540674 0.132894 -0.830669
-37.2759 -19.6403 33.488 0.604325 0.125527 -0.786788
-37.2889 -20.3798 33.3972 0.564953 0.049902 -0.823613
-37.693 -21.0565 33.1026 0.507115 0.0223522 -0.860929
-38.2355 -21.544 32.8718 0.392585 -0.0843574 -0.915839
-38.9382 -21.6925 32.5662 0.367369 0.0307423 -0.929567
-39.9908 -21.426 32.2061 0.281449 -0.0252235 -0.959245
-40.6013 -20.8424 32.0097 0.288234 -0.0290503 -0.957119
-40.7565 -20.203 31.9476 0.297731 0.0686889 -0.952176
-35.1061 17.7502 38.2045 0.653085 -0.206522 -0.728487
-35.6462 18.1606 37.6183 0.623163 -0.180137 -0.760055
-35.9042 18.8534 37.2884 0.599869 -0.141134 -0.787552
-35.7231 19.8375 37.2688 0.617808 -0.0922843 -0.780115
-35.3296 20.4012 37.579 0.641911 -0.00757816 -0.766742
-34.7502 20.5946 38.0673 0.649271 -0.0331389 -0.759835
-34.1851 20.5492 38.5814 0.70651 -0.0288384 -0.707115
-33.7615 20.1361 39.0418 0.715356 -0.0640841 -0.695278
-33.4881 19.5341 39.3919 0.715697 -0.0844659 -0.693265
-33.5734 18.7292 39.4248 0.705469 -0.122638 -0.697919
-33.9832 18.0582 39.1765 0.677659 -0.18363 -0.712044
-34.5283 17.6959 38.7482 0.674741 -0.203308 -0.709132
-34.8674 17.6904 38.4402 0.658647 -0.213908 -0.721407
-43.0142 19.7936 32.7019 0.5481 -0.00177094 -0.836409
-43.4798 19.5879 32.3909 0.563684 0.0110177 -0.825917
-43.3996 20.3299 32.4493 0.554567 0.000829322 -0.8321
-43.0729 19.9387 32.6634 0.547986 -5.42528e-05 -0.836487
-59.209 17.8579 23.6253 0.192537 -0.000879166 -0.981287
-59.4378 17.0717 23.5796 0.196868 -0.00111101 -0.980414
-60.0957 16.6607 23.4519 0.189459 -0.00103436 -0.981888
-60.941 16.7917 23.2951 0.16811 -0.00318771 -0.985763
-61.3075 17.7069 23.2344 0.1432 -0.000614165 -0.989694
-61.0342 18.4088 23.2787 0.179389 -0.00395978 -0.983759
-60.1681 18.7345 23.4342 0.184004 -0.00648105 -0.982893
-59.4719 18.2979 23.5716 0.190541 -0.00700833 -0.981654
-59.3162 18.0436 23.6036 0.191808 -0.0049298 -0.981417
10.2985 19.0336 53.2834 0.00723491 0.0411193 -0.999112
10.3137 18.966 53.2809 0.00296646 0.0374808 -0.999293
12.1808 15.1798 52.9006 -0.0561113 0.119475 -0.99125
12.2487 14.2183 52.7788 -0.0681443 0.120492 -0.990369
12.9518 14.2624 52.7264 -0.0966538 0.130594 -0.98659
13.1287 14.8354 52.7831 -0.0844986 0.126533 -0.988351
12.1971 15.1791 52.8996 -0.056918 0.121543 -0.99095
18.4813 13.3385 51.3564 -0.347145 0.0560981 -0.93585
19.1798 13.8465 51.0939 -0.434539 0.0297955 -0.898509
19.8173 13.6453 50.7446 -0.482987 0.0115431 -0.875552
20.0345 12.6799 50.612 -0.458583 0.0409271 -0.886815
20.28 11.7185 50.4426 -0.472863 0.0346341 -0.880455
20.4111 10.9588 50.391 -0.463204 -0.0369018 -0.885483
20.8618 10.1142 50.1916 -0.468588 -0.0487531 -0.882043
21.1512 9.32514 50.0785 -0.463865 -0.0447408 -0.884775
21.1261 8.47945 50.1482 -0.466548 -0.0726785 -0.881505
20.4971 8.03396 50.4719 -0.416487 -0.0343294 -0.908493
20.0051 8.13357 50.6851 -0.394942 -0.0413149 -0.917777
20.0457 9.39916 50.6333 -0.420044 -0.0255035 -0.906829
20.0999 10.1689 50.569 -0.438796 -0.0292146 -0.897953
19.7789 11.1584 50.7134 -0.454028 -0.0252835 -0.890491
19.6449 11.6804 50.7823 -0.451003 0.0232197 -0.891807
19.0585 12.4707 51.0627 -0.391465 0.0392964 -0.91926
18.554 13.1886 51.321 -0.359822 0.0450382 -0.931061
18.5302 13.22 51.3305 -0.326307 0.0547227 -0.943542
25.7021 22.6024 45.3847 -0.724783 -0.0102676 -0.68889
25.7199 22.5956 45.3661 -0.724337 -0.0135707 -0.689312
36.7337 20.578 34.2162 -0.646912 -0.0184191 -0.762341
36.9761 21.3713 33.9903 -0.648081 -0.0157503 -0.761402
37.4732 21.8847 33.5854 -0.561464 0.01106 -0.827413
38.1462 22.2214 33.1321 -0.516147 0.0128732 -0.856403
39.1412 22.0668 32.632 -0.425209 0.00395054 -0.905086
39.7077 21.6358 32.3291 -0.453108 0.0319708 -0.890882
40.1223 20.4368 32.1625 -0.482915 -0.0488426 -0.874304
39.7749 19.6369 32.399 -0.493875 -0.0637027 -0.866968
38.9577 19.0286 32.9336 -0.505789 -0.0754925 -0.859348
38.2661 18.9915 33.3498 -0.500629 -0.149576 -0.851564
37.5689 19.252 33.7032 -0.531926 -0.0924295 -0.8416
37.038 19.6875 34.0317 -0.619979 -0.0914775 -0.779183
36.7368 20.4696 34.2179 -0.635994 -0.0520883 -0.76987
36.7297 20.5137 34.2211 -0.644544 -0.0327835 -0.763718
31.2312 4.39735 42.2275 -0.675732 -0.0688727 -0.733921
30.6741 4.7288 42.7105 -0.67661 -0.0693235 -0.733071
30.0732 4.70402 43.2667 -0.673829 -0.0712978 -0.735438
29.3597 4.05823 43.9821 -0.673937 -0.0701753 -0.735449
29.1784 3.03619 44.2393 -0.673002 -0.0592778 -0.737261
29.5965 2.24731 43.9223 -0.670545 -0.0600257 -0.739436
30.3657 1.83575 43.2516 -0.676586 -0.0533815 -0.734426
31.1642 2.26248 42.4869 -0.675775 -0.0600266 -0.734625
31.5995 2.95468 42.025 -0.673754 -0.0671141 -0.735901
31.4855 3.8566 42.0447 -0.676951 -0.0702101 -0.732672
31.3486 4.17951 42.1403 -0.675942 -0.0699823 -0.733623
35.0931 -1.23812 39.0494 -0.687286 -0.0325596 -0.725656
35.6021 -0.983922 38.5558 -0.688763 -0.030009 -0.724358
36.1835 -0.911331 38.004 -0.685478 -0.0377999 -0.727112
36.7941 -1.42541 37.4431 -0.696108 -0.0321936 -0.717215
37.1187 -2.31823 37.1604 -0.695434 -0.0210614 -0.718264
36.9813 -3.04198 37.3142 -0.691091 -0.0208888 -0.722466
36.4871 -3.64221 37.8043 -0.691087 -0.0209285 -0.722468
35.812 -3.74081 38.4412 -0.685291 -0.00947178 -0.728208
35.2403 -3.52866 38.9737 -0.684047 -0.0129861 -0.729322
34.7644 -2.79605 39.4113 -0.687326 -0.00860787 -0.726298
34.7623 -1.97805 39.3919 -0.689216 -0.0194137 -0.724296
34.9215 -1.53343 39.2251 -0.687746 -0.0325431 -0.725221
40.8037 -8.71231 33.553 -0.717299 0.0136247 -0.696632
41.4914 -8.14668 32.8549 -0.723536 0.00936062 -0.690155
42.3243 -8.30414 31.9639 -0.729799 0.00613886 -0.683634
42.9521 -9.08825 31.2768 -0.7351 0.00358795 -0.677946
42.9063 -10.2267 31.3228 -0.740325 0.00108759 -0.672242
42.2923 -11.0306 31.9832 -0.729098 -0.00451508 -0.684395
41.5668 -11.2114 32.7243 -0.714787 0.00584298 -0.699318
40.9125 -10.793 33.3781 -0.698939 0.0140832 -0.715042
40.5662 -10.2215 33.7432 -0.708934 0.0246661 -0.704843
40.5019 -9.45811 33.8336 -0.711261 0.026504 -0.702414
40.7043 -8.87488 33.6519 -0.715065 0.0216895 -0.698675
44.7647 -13.7793 29.2865 -0.748988 0.00147975 -0.662582
44.4469 -14.7293 29.6529 -0.78806 0.0182621 -0.615328
44.663 -15.8223 29.3508 -0.807659 0.03077 -0.587548
45.2046 -16.4436 28.5598 -0.770794 0.0911767 -0.630249
45.8683 -16.5994 27.7702 -0.671514 0.121833 -0.730849
46.4415 -16.4284 27.2781 -0.63422 0.127025 -0.761461
47.0511 -15.9576 26.8943 -0.607914 0.0997228 -0.786767
47.3484 -15.1265 26.7446 -0.592735 0.0767625 -0.801731
47.2176 -14.0694 26.9338 -0.583353 0.0603216 -0.809868
46.7697 -13.3971 27.3205 -0.623167 0.0524969 -0.780325
46.0954 -13.1349 27.9271 -0.693116 0.0430399 -0.71954
45.4288 -13.2947 28.5582 -0.714344 0.0352842 -0.698143
44.9388 -13.5544 29.0902 -0.748989 0.00148122 -0.662581
38.8935 -19.5188 34.4007 -0.457175 0.0336876 -0.888739
38.1894 -18.7731 34.8068 -0.462399 0.0736921 -0.883604
37.5374 -18.4753 35.1717 -0.451432 0.0635339 -0.88997
36.8601 -18.4224 35.5376 -0.510138 0.083211 -0.856053
36.2332 -18.6646 35.9045 -0.527771 0.0814548 -0.845336
35.6211 -19.0545 36.2385 -0.560097 0.092659 -0.822101
35.1907 -19.6167 36.5171 -0.590741 0.0496896 -0.805327
34.9797 -20.3771 36.6219 -0.620253 0.0430681 -0.782769
35.1433 -21.174 36.4734 -0.619401 0.0237079 -0.784717
35.5377 -21.8032 36.196 -0.535971 -0.0518681 -0.842642
36.1504 -22.2274 35.8074 -0.538554 -0.0142058 -0.841943
36.8904 -22.4273 35.347 -0.535318 0.00655207 -0.844625
37.6882 -22.3319 34.8899 -0.475999 0.0367309 -0.878679
38.6716 -21.7034 34.429 -0.431547 0.0649711 -0.899748
39.0557 -21.0703 34.2806 -0.443996 0.0220605 -0.895671
39.1104 -20.2932 34.2657 -0.453068 0.0147729 -0.891353
39.0056 -19.786 34.3329 -0.457175 0.0336906 -0.888738
25.5032 -17.2044 46.1886 -0.705483 0.148403 -0.693015
24.9715 -17.4683 46.6637 -0.702804 0.129258 -0.699542
24.3843 -17.2768 47.2879 -0.691922 0.10822 -0.713729
24.7662 -16.8056 46.997 -0.685429 0.136934 -0.714937
25.4869 -17.1948 46.207 -0.696071 0.138727 -0.704443
25.4954 -17.1993 46.1977 -0.700777 0.143565 -0.698729
21.5293 -19.5504 49.8382 -0.661348 0.0125891 -0.749973
21.3988 -20.3274 49.9464 -0.650031 -0.0112234 -0.759438
21.6678 -21.0528 49.7403 -0.662253 -0.0231217 -0.748923
21.8604 -21.904 49.6339 -0.676806 -0.0678197 -0.733031
22.3159 -22.4057 49.2226 -0.721366 -0.0450393 -0.691088
22.1205 -22.4902 49.4337 -0.711451 -0.0565199 -0.700264
21.4941 -22.6939 50.0272 -0.644607 -0.0578138 -0.762325
20.9154 -22.7303 50.5053 -0.624455 -0.0697584 -0.77794
20.3071 -22.5412 50.9643 -0.6085 -0.0951844 -0.787825
20.433 -21.7863 50.8062 -0.613603 -0.05706 -0.787453
20.6938 -21.1122 50.5563 -0.626267 -0.0363467 -0.778438
21.1856 -20.3565 50.1294 -0.650034 -0.011228 -0.759435
21.4668 -19.6527 49.8916 -0.66083 0.00541016 -0.750481
21.4726 -19.6333 49.8868 -0.661346 0.0125892 -0.749975
54.3926 -13.3651 23.6014 -0.283683 0.000670588 -0.958918
54.7589 -14.1319 23.4877 -0.288093 0.0143308 -0.957495
55.7339 -14.5845 23.2016 -0.265626 0.0129295 -0.963987
56.5993 -14.4857 22.9738 -0.232304 0.0137142 -0.972521
57.3658 -13.5064 22.796 -0.225652 0.00802354 -0.974132
57.1442 -12.4066 22.8598 -0.227537 0.0023725 -0.973732
56.6345 -11.8224 22.9837 -0.241773 -0.00255786 -0.970329
55.5164 -11.7373 23.2785 -0.267468 -0.00533591 -0.963552
54.712 -12.261 23.5065 -0.274951 -0.00592511 -0.96144
54.4173 -13.1208 23.5943 -0.29646 0.00284299 -0.954945
