1.71349 -11.437 11.1866 -0.0709397 0.114397 0.990373
1.61671 -11.4971 11.1818 -0.14595 0.121181 0.98141
1.61671 -11.4971 11.1818 -0.14595 0.121181 0.98141
1.60977 -11.4084 11.1724 -0.125019 0.11067 0.985467
0.0820395 -11.8918 10.9433 -0.29831 0.0655963 0.952212
-0.0228124 -10.9844 10.858 -0.289348 0.0443607 0.956195
-0.17654 -10.1101 10.7697 -0.233996 0.0456505 0.967165
-0.568753 -9.12586 10.5863 -0.31564 0.0407068 0.947959
-0.984922 -8.45975 10.4269 -0.313058 0.0295672 0.949269
-1.80231 -7.68527 10.0712 -0.353115 0.044059 0.934423
-0.964388 -7.34029 10.3767 -0.352906 0.0291737 0.935204
-0.144208 -6.99225 10.6173 -0.197718 0.0417763 0.979368
0.67546 -6.26506 10.7507 -0.165533 0.0194822 0.986012
1.17597 -5.26916 10.8633 -0.197706 -0.00516466 0.979929
1.33713 -4.45733 10.8597 -0.152694 0.0272759 0.9878
1.64662 -3.75865 10.8989 -0.145863 -0.00331345 0.989079
2.0613 -3.12003 10.9039 0.0288976 0.0101693 0.999531
2.91106 -2.7206 10.8442 0.0804568 0.0228126 0.996497
3.95895 -2.58172 10.6502 0.248636 0.0198903 0.968391
4.96818 -2.59711 10.3615 0.298564 0.00994436 0.954338
5.74645 -2.49263 10.0819 0.423505 0.00116014 0.9058
5.18122 -3.0828 10.2925 0.309067 -0.0129681 0.950952
4.40872 -3.97719 10.5474 0.321838 0.00831615 0.946758
3.61613 -4.79631 10.7873 0.179041 -0.0221351 0.981344
2.92411 -5.54636 10.8617 0.108658 0.0198025 0.993882
2.54357 -6.24166 10.9147 0.152188 0.0356203 0.985887
2.38153 -7.16475 10.9893 0.0970075 0.0348154 0.99437
2.41572 -7.91773 10.9962 0.0488912 0.0200702 0.998169
2.50589 -8.67761 10.9909 0.0228756 0.0301237 0.998691
2.6814 -9.43755 11.0367 0.0146836 0.0635565 0.99787
2.99762 -10.1813 11.0191 0.105219 0.0294086 0.994014
3.40905 -10.8714 11.0084 0.181492 0.0917012 0.977244
3.65099 -11.8133 10.9962 0.233028 0.0250317 0.971873
3.57569 -12.8714 11.0323 0.260236 0.0193137 0.965352
3.35314 -14.1216 11.1321 0.200854 0.0250242 0.979302
3.17921 -14.9753 11.209 0.191178 0.0744984 0.978724
3.1142 -15.7178 11.2667 0.0159566 -0.12229 0.981059
3.1285 -16.5519 11.2621 0.214818 -0.0201596 0.976446
2.67338 -17.4328 11.3078 0.0869088 0.01818 0.995752
2.2568 -18.1414 11.3468 0.105947 0.0381266 0.992753
1.63359 -18.6037 11.4074 -0.0582505 -0.00984984 0.998253
0.970482 -18.4064 11.363 -0.0895791 0.0225531 0.995724
0.678283 -17.6234 11.319 -0.144953 0.0810576 0.982722
0.655301 -16.8825 11.2075 -0.198842 0.0752999 0.974992
0.522789 -15.8904 11.1698 -0.1639 0.0452995 0.984257
0.548481 -15.1291 11.1445 -0.22073 0.0491521 0.974096
0.454876 -14.0621 11.11 -0.1938 -0.0297135 0.980591
0.317539 -13.2894 11.1169 -0.260957 0.0167629 0.965205
0.167644 -12.3107 10.999 -0.29074 0.0651161 0.954551
0.112386 -12.0436 10.9633 -0.29831 0.0655957 0.952212
-1.38544 -12.6013 10.484 -0.349879 0.0531835 0.935284
-1.19296 -13.4079 10.6089 -0.359822 0.0881617 0.928846
-1.1655 -14.4076 10.6833 -0.38323 0.0271877 0.923253
-1.09655 -15.4622 10.741 -0.365235 0.0130129 0.930533
-0.960888 -16.298 10.7936 -0.347105 0.00571684 0.937809
-0.925917 -17.1478 10.8329 -0.33215 0.0609267 0.941202
-0.837318 -18.1364 10.9384 -0.308296 0.0611611 0.948829
-0.698667 -18.9054 11.0266 -0.262458 0.0817764 0.960055
-0.260316 -19.6943 11.2066 -0.302412 0.0492231 0.951906
0.573813 -20.3713 11.4254 -0.143618 0.102841 0.984275
1.8419 -20.6461 11.6165 -0.0949929 0.12894 0.985825
2.76847 -20.2766 11.4722 0.132238 0.103522 0.985681
3.47864 -19.459 11.2754 0.202717 0.0715291 0.974142
3.93547 -18.7506 11.1076 0.295557 0.0463233 0.954201
4.41247 -17.7637 10.9059 0.332583 0.0183294 0.942896
4.75644 -17.1139 10.78 0.413144 0.0272595 0.910073
4.72097 -16.1488 10.7583 0.427699 0.0360133 0.903203
4.69968 -15.2968 10.7715 0.368412 0.0277261 0.925409
4.97025 -14.1357 10.6186 0.441802 0.0164842 0.896961
5.09369 -13.0941 10.5225 0.423956 0.0335819 0.90506
5.36834 -11.9914 10.4294 0.42842 -0.0318749 0.903017
5.18439 -11.1468 10.5186 0.346947 0.0269653 0.937451
4.80659 -10.1535 10.6198 0.327827 0.0431961 0.943522
4.43756 -9.32098 10.7201 0.298415 0.00747892 0.954407
4.12636 -8.43309 10.7529 0.221264 0.0578114 0.973499
3.93471 -7.39048 10.7369 0.224571 0.0312349 0.973735
4.19796 -6.6434 10.6688 0.253445 0.013635 0.96671
4.672 -6.08105 10.5174 0.292462 0.00825723 0.956242
5.46908 -5.33301 10.2234 0.350315 0.0694061 0.934057
5.99207 -4.78114 9.99909 0.386908 0.0221037 0.921634
6.57575 -4.07308 9.72817 0.404687 0.0162314 0.914311
7.42149 -3.49514 9.26381 0.461818 0.0301029 0.886193
7.94181 -2.9356 8.95182 0.499469 0.0196905 0.866108
8.35162 -2.31548 8.69667 0.503938 0.0240763 0.863404
8.28827 -1.24122 8.70462 0.499474 0.0272481 0.865876
7.72628 -0.820687 9.01179 0.494256 0.0180374 0.869129
6.93647 -0.62948 9.45226 0.469194 0.01762 0.882843
6.02708 -0.835376 9.92947 0.459989 0.0302474 0.887402
4.99722 -0.889933 10.3223 0.292706 0.0339962 0.955194
4.19238 -0.930177 10.5512 0.25681 0.0390591 0.965496
3.4375 -0.955427 10.7003 0.171926 0.0540385 0.983627
2.57187 -1.11779 10.8321 0.08368 0.0541293 0.995021
1.55336 -1.33361 10.8587 -0.0234851 -0.0047448 0.999713
0.75824 -1.95493 10.7941 -0.204248 -0.0201533 0.978712
0.210319 -2.83106 10.65 -0.215336 -0.0349283 0.975915
-0.195182 -3.55387 10.548 -0.251914 0.00211811 0.966808
-0.345846 -4.56539 10.4974 -0.292704 -0.00420837 0.956194
-0.676595 -5.64677 10.423 -0.251398 0.0324281 0.966879
-1.34171 -5.80065 10.2056 -0.34206 0.012238 0.939598
-2.42843 -5.76577 9.79641 -0.380177 0.00339267 0.924713
-3.52087 -5.42807 9.32068 -0.394372 -0.00572678 0.918822
-4.4993 -5.31807 8.86178 -0.435162 -0.0100982 0.900236
-5.31894 -5.75466 8.45013 -0.446213 -0.0143387 0.8948
-5.83087 -6.53164 8.17748 -0.449938 -0.00886028 0.892961
-5.75521 -7.33007 8.21179 -0.460383 -0.0126844 0.88763
-5.33386 -7.94561 8.42776 -0.466451 0.00824635 0.884509
-4.83448 -8.44718 8.69508 -0.465438 0.00786364 0.885045
-4.12871 -8.61102 9.04655 -0.441427 0.0167474 0.897141
-3.24884 -8.77339 9.47871 -0.425718 0.0249701 0.904511
-2.53357 -9.23239 9.83809 -0.411005 0.0419823 0.910261
-1.97956 -9.7682 10.0944 -0.386264 0.0414232 0.921458
-1.79742 -10.6182 10.2201 -0.361237 0.0407431 0.930998
-1.63986 -11.4598 10.3224 -0.350481 0.055425 0.934928
-1.5277 -12.0298 10.3983 -0.350181 0.0543033 0.935106
-10.4184 -11.2942 5.64555 -0.487193 -0.00799169 0.873249
-10.4917 -10.52 5.61516 -0.486356 -0.0117291 0.873682
-10.786 -9.81933 5.46043 -0.483867 -0.0122067 0.875046
-11.4016 -9.40699 5.1267 -0.485752 -0.0172858 0.873926
-12.2106 -9.39204 4.67611 -0.488086 -0.0182755 0.872604
-12.956 -9.86686 4.247 -0.490005 -0.0201795 0.871486
-13.2743 -10.6036 4.05234 -0.49177 -0.0165535 0.870565
-13.0655 -11.5537 4.15202 -0.493641 -0.0172987 0.869494
-12.1924 -12.1952 4.63507 -0.490866 -0.0125087 0.871146
-11.4582 -12.1231 5.05189 -0.490837 -0.00864458 0.871209
-10.606 -11.5333 5.53787 -0.491367 -0.00827183 0.870913
-10.4431 -11.354 5.63143 -0.489088 -0.00592954 0.872212
-14.4723 -5.89582 3.50811 -0.492823 -0.0303809 0.869599
-13.9312 -4.88921 3.85341 -0.493183 -0.0349018 0.869225
-13.988 -4.04725 3.8552 -0.492372 -0.0381853 0.869543
-14.5275 -3.30281 3.5847 -0.49237 -0.0405819 0.869439
-15.389 -2.85319 3.11615 -0.495092 -0.0413671 0.867855
-16.1311 -2.79595 2.69618 -0.495991 -0.0423247 0.867294
-17.0148 -3.29289 2.16422 -0.498178 -0.0429296 0.866011
-17.5684 -4.11235 1.80571 -0.498729 -0.0411771 0.865779
-17.5635 -5.02715 1.76555 -0.502342 -0.0400982 0.863739
-17.204 -5.75311 1.94217 -0.503155 -0.0358535 0.863451
-16.5294 -6.19897 2.31832 -0.502332 -0.0333807 0.864026
-15.8541 -6.42194 2.69969 -0.499388 -0.0325156 0.865768
-15.0333 -6.3012 3.1747 -0.494235 -0.0316491 0.868752
-14.6192 -6.03451 3.41998 -0.493529 -0.0310149 0.869175
-15.5708 -4.69906 2.9287 -0.49657 -0.0356574 0.867264
-15.6897 -4.4602 2.8709 -0.496151 -0.0387591 0.867369
-15.5638 -4.51745 2.94009 -0.495359 -0.0367448 0.867909
-11.5736 1.86693 5.54771 -0.489921 -0.0628077 0.869501
-12.0978 2.48831 5.29412 -0.49328 -0.0609645 0.867731
-12.2717 3.39452 5.2601 -0.494976 -0.0606675 0.866783
-12.0683 4.16215 5.43156 -0.496648 -0.0628786 0.865672
-11.5551 5.0209 5.78973 -0.496941 -0.0653235 0.865322
-10.8853 5.46659 6.20768 -0.497111 -0.0674602 0.865057
-9.92721 5.50676 6.75808 -0.491147 -0.0761317 0.867744
-9.15851 5.44035 7.18574 -0.484478 -0.0742537 0.871646
-8.48888 5.17364 7.53444 -0.482632 -0.0758667 0.872531
-8.0587 4.5698 7.71606 -0.473509 -0.0776922 0.877356
-7.75478 3.57627 7.78868 -0.47007 -0.0811934 0.878887
-7.91986 2.80656 7.63167 -0.467175 -0.0771469 0.880793
-8.27806 2.1422 7.38567 -0.467513 -0.0725084 0.881008
-9.25385 1.45591 6.80441 -0.479229 -0.0637891 0.875369
-10.1343 1.26668 6.3065 -0.483945 -0.065835 0.872618
-10.8961 1.44799 5.89768 -0.485646 -0.0638383 0.871817
-11.4656 1.79164 5.60303 -0.489338 -0.0628693 0.869825
-10.4838 3.03061 6.2444 -0.4898 -0.0670195 0.869255
-10.4724 3.71239 6.30394 -0.490981 -0.0666767 0.868615
-9.58036 3.62452 6.797 -0.485719 -0.0731367 0.87105
-9.63677 3.0743 6.72051 -0.482511 -0.070181 0.873074
-10.3629 3.00212 6.31033 -0.489799 -0.067019 0.869256
-8.75462 10.3146 7.87979 -0.50877 -0.0794971 0.857224
-8.11322 10.1546 8.24529 -0.497617 -0.0850161 0.86315
-7.24545 10.4234 8.77451 -0.504669 -0.0881967 0.858752
-6.70386 10.8509 9.12682 -0.475523 -0.105986 0.873295
-6.37996 11.5218 9.37629 -0.477636 -0.0717192 0.875626
-6.38331 12.3447 9.44306 -0.476318 -0.073834 0.876167
-6.75396 13.1035 9.31507 -0.471483 -0.0991912 0.876279
-7.36474 13.5222 9.0173 -0.497733 -0.0781259 0.863804
-8.29226 13.7609 8.48298 -0.522255 -0.063279 0.850439
-9.01795 13.5694 8.01708 -0.532251 -0.0699413 0.843692
-9.59452 12.8905 7.59893 -0.529449 -0.0659055 0.845774
-9.85539 12.1976 7.38347 -0.527543 -0.0647837 0.847055
-9.7279 11.3528 7.38767 -0.521518 -0.0715371 0.850204
-9.02187 10.4694 7.73553 -0.50877 -0.079497 0.857224
-2.77476 10.9354 10.8084 -0.308937 -0.110638 0.944625
-2.66952 12.3956 10.9861 -0.253424 -0.0803412 0.963462
-2.57074 13.4301 11.0922 -0.227903 -0.0864455 0.969786
-2.65193 14.332 11.1898 -0.204473 -0.136429 0.969318
-2.90496 15.226 11.2653 -0.200356 -0.146939 0.968641
-3.21288 16.0011 11.2429 -0.338928 -0.0476673 0.939604
-3.74582 16.8433 11.0941 -0.340375 -0.0982627 0.933793
-4.22403 17.5967 11.0303 -0.366165 -0.121624 0.922568
-4.55765 18.3598 10.956 -0.367572 -0.0626493 0.92788
-4.79599 19.0959 10.8964 -0.394159 -0.0419274 0.918085
-4.80747 20.0057 10.944 -0.396616 -0.0710162 0.915234
-4.40421 21.2037 11.2135 -0.427021 -0.0582024 0.902367
-3.5449 22.0884 11.6117 -0.22473 -0.214799 0.950451
-2.82847 22.5073 11.8605 -0.18588 -0.169049 0.967921
-1.97647 22.5316 11.9804 -0.0834876 -0.22244 0.971365
-1.23375 22.2169 11.9446 0.181052 -0.215704 0.959073
-0.430211 21.9355 11.7556 0.170886 -0.123464 0.974412
0.228974 21.2932 11.595 0.196682 -0.0490805 0.979238
0.619271 20.6521 11.4855 0.244002 -0.0433378 0.967547
0.751711 19.7168 11.3855 0.288387 -0.0613287 0.955548
0.803049 18.9093 11.3756 0.300943 0.0300691 0.953168
0.790525 17.932 11.4097 0.246743 0.00805999 0.966856
0.845509 17.1256 11.3874 0.189429 -0.00451329 0.981832
1.15864 16.4396 11.2973 0.251606 -0.0384207 0.967067
1.83478 15.9291 11.0615 0.323555 -0.0370554 0.945018
2.69246 15.9318 10.7319 0.408618 0.0298413 0.912186
3.41658 16.0801 10.4031 0.420755 0.0268576 0.906591
4.09614 16.0279 10.0616 0.452069 0.0253731 0.891622
4.75671 15.8483 9.73174 0.459366 0.0276867 0.887774
5.61893 15.0236 9.2916 0.482028 0.0414897 0.875115
5.83416 13.9822 9.23316 0.486184 0.0492946 0.872461
5.49887 12.9126 9.46954 0.448948 0.0379196 0.892585
5.32345 12.1734 9.58656 0.434497 0.0438721 0.899604
5.31121 11.4084 9.65563 0.422756 0.0553644 0.903939
5.19649 10.6375 9.7328 0.40382 0.0409908 0.913867
5.26198 9.87855 9.7392 0.419625 0.0491164 0.906183
5.46178 9.07472 9.68862 0.439345 0.041714 0.897349
5.38146 8.08019 9.77782 0.448181 0.0450361 0.892786
5.06739 7.05108 9.95382 0.40131 0.0122397 0.91586
4.56654 6.12819 10.1976 0.316929 0.0592786 0.946595
4.08851 5.17706 10.4179 0.317535 0.0601947 0.946334
3.68269 4.2548 10.5804 0.223836 0.0177226 0.974466
3.11116 3.2539 10.7188 0.222524 -0.00127002 0.974926
2.59609 2.70841 10.7927 0.135125 -0.000985989 0.990681
1.77287 2.29824 10.8633 -0.00417117 -0.00990746 0.999942
0.895637 2.2452 10.8382 -0.0879155 -0.0376409 0.995417
0.137015 2.67617 10.7711 -0.143735 -0.0238107 0.988929
-0.4034 3.51747 10.6912 -0.203982 -0.043048 0.977121
-1.00034 4.65438 10.6602 -0.220851 -0.0765442 0.972219
-1.18496 5.56312 10.7018 -0.168786 -0.0774393 0.982606
-1.5468 6.6817 10.7465 -0.221572 -0.0767883 0.970185
-1.91543 7.74822 10.7738 -0.172911 -0.0905813 0.980745
-1.99683 8.95307 10.8598 -0.263514 -0.0644315 0.962499
-2.41981 9.9701 10.8077 -0.207628 -0.0540041 0.976081
-2.73742 10.6818 10.7909 -0.308938 -0.110638 0.944625
-1.03081 10.8321 11.1476 -0.0467327 -0.0289912 0.996909
-0.747386 10.001 11.1471 -0.123674 -0.067123 0.99005
-0.470261 9.10622 11.1301 -0.0843151 -0.0133339 0.99635
-0.316116 8.29692 11.0988 -0.13174 -0.114179 0.984687
-0.0327763 7.41665 11.0212 -0.0627509 -0.147165 0.985231
0.400319 6.31851 10.9377 -0.0222536 -0.0756143 0.996889
0.591418 5.5428 10.8921 -0.0267506 -0.0636815 0.997612
1.00619 4.48251 10.866 -0.0424047 0.0214128 0.998871
1.99519 4.59972 10.8431 0.126873 0.0112113 0.991856
2.44666 5.44619 10.7828 0.11548 -0.0154716 0.993189
2.79961 6.16287 10.728 0.257601 -0.0093856 0.96617
3.31867 7.29535 10.6116 0.286638 0.00716413 0.957259
3.8249 8.42394 10.4109 0.325036 0.0245552 0.944793
3.83809 9.26508 10.3578 0.292875 0.0587491 0.954344
3.65643 10.0405 10.399 0.339631 0.00561832 0.94049
3.70936 10.9669 10.3647 0.338581 0.0192774 0.940727
3.73156 11.9653 10.3236 0.39845 0.0342184 0.916551
3.79032 12.7268 10.2697 0.39845 0.0342188 0.916551
3.94674 13.5116 10.1811 0.393442 0.0235027 0.919049
3.781 14.2201 10.2549 0.411407 -0.000332524 0.911432
3.00733 14.4195 10.6037 0.407334 -0.00649512 0.913252
2.29771 14.3535 10.9178 0.347894 -0.0168025 0.93533
1.57028 14.3712 11.1449 0.29999 -0.0338794 0.95334
0.737129 14.7107 11.3694 0.197533 -0.0869259 0.976435
0.0427594 15.282 11.528 0.158763 -0.0201051 0.987112
-0.469379 15.9224 11.596 0.123504 0.0353477 0.991714
-0.823226 16.7638 11.6349 0.017579 -0.0478187 0.998701
-0.971417 17.7028 11.6739 0.0218456 -0.0133258 0.999485
-0.922223 18.8474 11.6809 0.0453004 -0.0203072 0.998765
-0.831285 19.7794 11.6852 0.133156 -0.017692 0.990075
-1.39309 20.4927 11.7874 0.0456467 -0.0923461 0.99468
-2.16847 20.6969 11.8305 -0.133508 -0.0373851 0.989071
-2.90957 20.366 11.6762 -0.204313 0.029884 0.974487
-3.23552 19.5627 11.5335 -0.332797 -0.0790643 0.939678
-2.93565 18.7137 11.5455 -0.177339 -0.0944608 0.97959
-2.3964 17.7407 11.5554 -0.14202 -0.0959197 0.984401
-1.90987 16.9857 11.5676 -0.179124 -0.0823521 0.980229
-1.47409 16.1147 11.56 -0.137827 -0.098738 0.985522
-1.18869 15.1663 11.506 -0.0987322 -0.0908514 0.990958
-1.03288 14.372 11.459 -0.0827758 -0.0711809 0.993984
-1.06037 13.0468 11.3477 -0.0809895 -0.086842 0.992925
-1.10895 12.0242 11.2427 -0.0419365 -0.0814809 0.995792
-1.06054 11.0664 11.1664 -0.0400527 -0.082953 0.995745
0.57287 11.4671 11.2326 0.219499 -0.162583 0.96197
0.731416 10.6628 11.1479 0.139893 -0.0305666 0.989695
0.969637 9.79566 11.0801 0.159563 -0.0333152 0.986461
1.26015 9.07595 11.0213 0.143731 0.0155981 0.989494
1.38344 8.33609 11.0151 0.128458 -0.0129377 0.991101
1.90858 8.06618 10.9403 0.16194 0.0313529 0.985416
2.17343 9.08564 10.8607 0.214451 0.00460426 0.976724
2.12895 9.91113 10.8677 0.230901 -0.0104267 0.972921
2.12844 11.0957 10.8592 0.235631 0.017061 0.971693
2.18726 11.9219 10.8639 0.281218 -0.0352581 0.958996
1.65904 12.8195 11.0518 0.276905 -0.0466083 0.959766
0.820946 12.8873 11.2849 0.126687 -0.006156 0.988349
0.486848 12.2265 11.2991 0.0288415 0.0172941 0.999434
0.556704 11.5463 11.2497 0.219499 -0.162584 0.96197
9.98538 5.17862 7.39481 0.535966 0.053665 0.842532
10.5616 5.83143 6.98669 0.535966 0.0536655 0.842532
11.2003 6.09723 6.56395 0.532359 0.0529004 0.844864
12.0591 6.10265 6.01569 0.53838 0.0423737 0.841636
12.8312 5.86299 5.53791 0.533412 0.0411538 0.844854
13.3656 5.32807 5.22015 0.538783 0.0351145 0.841712
13.6799 4.50691 5.05265 0.541199 0.0315731 0.840301
13.625 3.45059 5.12584 0.543381 0.0303819 0.838933
13.1988 2.84554 5.42531 0.546794 0.0275354 0.836814
12.7024 2.3 5.77043 0.549474 0.0301434 0.834967
11.9792 2.07293 6.25527 0.550791 0.0313558 0.834052
11.1372 2.1784 6.80593 0.550061 0.0283473 0.834643
10.5304 2.45807 7.19235 0.536802 0.0337976 0.84303
9.98738 3.06636 7.51289 0.537067 0.0353537 0.842799
9.68707 4.09125 7.64728 0.529511 0.0431336 0.847206
9.77931 4.7509 7.55314 0.535304 0.0538792 0.842939
11.1706 4.01802 6.7005 0.54498 0.0458661 0.837183
11.819 3.71506 6.295 0.544979 0.0458669 0.837183
11.5451 4.31257 6.44287 0.54376 0.0419019 0.838194
16.4073 7.98525 3.19049 0.530844 0.0311015 0.846898
16.2708 8.90537 3.23868 0.528562 0.034842 0.848179
16.5003 9.84754 3.05819 0.527352 0.0338497 0.848972
17.2263 10.4281 2.58455 0.527181 0.0327703 0.84912
17.9413 10.5579 2.13088 0.531295 0.032906 0.846548
18.6678 10.4464 1.67291 0.53816 0.0301072 0.842305
19.1767 9.98156 1.36499 0.549226 0.0287027 0.835181
19.5493 9.10525 1.16372 0.537718 0.0395073 0.842199
19.5308 8.17484 1.21795 0.532951 0.0352973 0.845409
18.9937 7.46972 1.58571 0.532003 0.0343295 0.846045
18.1373 7.2264 2.13434 0.531766 0.0308239 0.846324
17.4215 7.28569 2.58017 0.531243 0.0287534 0.846732
16.8303 7.52644 2.94197 0.530825 0.0305193 0.846932
16.5586 7.79232 3.10265 0.530824 0.0305181 0.846932
17.8667 8.97164 2.23687 0.531949 0.0326729 0.846145
17.8831 8.95754 2.22716 0.532755 0.0336217 0.8456
-16.5052 12.6936 3.26432 -0.526578 -0.0345743 0.849421
-16.524 13.7058 3.29151 -0.526405 -0.0315401 0.849648
-17.0287 14.518 3.0077 -0.527616 -0.0313588 0.848904
-17.7478 14.8737 2.57274 -0.529006 -0.0300529 0.848086
-18.759 14.9492 1.94402 -0.530623 -0.0286838 0.847123
-19.7026 14.312 1.33087 -0.531022 -0.0293593 0.846849
-20.0402 13.6572 1.09669 -0.530433 -0.0309791 0.847156
-20.1667 12.7875 0.987507 -0.534053 -0.0284784 0.844971
-19.7279 11.7247 1.22736 -0.52905 -0.0281345 0.848124
-19.1819 11.2719 1.55059 -0.526735 -0.0350399 0.849307
-18.5236 11.0115 1.94867 -0.527367 -0.0355032 0.848896
-17.5182 11.2681 2.58107 -0.52435 -0.0327557 0.850873
-16.8464 11.7616 3.01529 -0.525523 -0.0346307 0.850074
-16.5289 12.5606 3.24408 -0.525046 -0.0348251 0.850361
-16.5194 12.6095 3.25195 -0.52555 -0.0357587 0.85001
-18.0041 13.0792 2.35031 -0.526937 -0.0319621 0.849303
