24.5247 -19.3243 48.0364 -0.705875 0.00121883 -0.708332
23.9314 -19.2728 48.6251 -0.70194 0.00305355 -0.712229
23.9314 -19.2728 48.6251 -0.70194 0.00305355 -0.712229
23.3275 -19.2787 49.2188 -0.700393 0.00507178 -0.713739
22.6953 -19.3097 49.829 -0.686007 0.00503584 -0.72754
22.1422 -19.2784 50.341 -0.675422 0.00383423 -0.737421
21.595 -19.6142 50.8237 -0.643806 0.00455094 -0.765175
21.0607 -19.9595 51.2614 -0.601093 -0.0025932 -0.79828
20.5409 -19.5759 51.602 -0.530275 -0.0148963 -0.847695
19.9561 -19.2435 51.9677 -0.515884 0.0191152 -0.856445
19.1975 -19.2687 52.3731 -0.456534 0.0227568 -0.889408
18.4877 -19.2814 52.6717 -0.335024 -0.000922851 -0.942209
17.5836 -19.2551 52.9507 -0.25111 0.017928 -0.967768
16.7201 -19.2766 53.1556 -0.192854 0.015605 -0.980851
16.2283 -19.821 53.2258 -0.12327 0.00270434 -0.992354
16.4017 -20.5074 53.2016 -0.157353 -0.0264916 -0.987187
17.1888 -20.5803 53.0449 -0.235385 -0.0267596 -0.971509
18.1002 -20.5691 52.7978 -0.290137 -0.0341016 -0.956377
18.8537 -20.5566 52.5277 -0.408259 -0.0266447 -0.912475
19.7054 -20.6036 52.1135 -0.469994 -0.036009 -0.881935
20.3986 -20.5564 51.7155 -0.516028 -0.0367864 -0.85574
20.8738 -20.1092 51.393 -0.553585 -0.0541672 -0.831029
21.5281 -20.152 50.8881 -0.652243 -0.0218746 -0.757689
22.0245 -20.5666 50.4536 -0.674819 -0.00585572 -0.737949
22.6662 -20.5717 49.8547 -0.686796 -0.00482153 -0.726832
23.3369 -20.5103 49.2051 -0.701093 -0.000866915 -0.713069
23.9087 -20.5443 48.6416 -0.701278 0.00677974 -0.712852
24.6105 -20.5192 47.9575 -0.699507 -0.0175255 -0.714411
25.2072 -20.4533 47.3627 -0.709825 -0.0224492 -0.704021
25.8159 -20.4951 46.728 -0.72278 0.00203545 -0.69107
26.3587 -20.5525 46.1628 -0.722319 0.00250057 -0.691552
26.8794 -20.5722 45.6144 -0.726084 0.00714471 -0.687569
27.4271 -20.5817 45.0373 -0.725502 0.00663905 -0.688186
28.0702 -20.5512 44.3576 -0.728711 0.00232678 -0.684817
28.6273 -20.5607 43.7628 -0.730931 0.0020215 -0.682448
28.8751 -20.0638 43.4976 -0.732412 0.00161827 -0.680859
28.8092 -19.3178 43.5718 -0.732994 0.00328267 -0.680227
28.2925 -19.2953 44.1274 -0.731019 0.00496914 -0.682339
27.7267 -19.3475 44.7312 -0.728609 0.00619629 -0.684901
27.188 -19.2736 45.301 -0.724153 0.00813177 -0.689592
26.6209 -19.2846 45.8939 -0.720695 0.00120419 -0.693251
26.0404 -19.3021 46.4953 -0.717585 -0.00155364 -0.696466
25.5009 -19.3326 47.047 -0.713688 -0.00534361 -0.700441
24.9225 -19.3431 47.6365 -0.712094 -0.0024912 -0.702074
24.5962 -19.3389 47.9654 -0.707013 -0.000255733 -0.707195
44.5221 -19.6342 31.8588 -0.91815 0.000385415 -0.396232
44.5702 -20.5028 31.7491 -0.916426 -0.00213347 -0.400198
44.8841 -20.578 31.0301 -0.917305 -0.00185116 -0.398178
45.1998 -20.5449 30.3053 -0.916723 -0.00122493 -0.399521
45.3501 -19.9472 29.9576 -0.918133 -0.00446576 -0.396227
45.2263 -19.3304 30.2512 -0.920023 0.00232747 -0.391803
44.93 -19.2671 30.9326 -0.913498 0.0105086 -0.406706
44.6248 -19.2996 31.6245 -0.915973 0.00232981 -0.401234
44.5267 -19.5048 31.8483 -0.917845 -2.15614e-05 -0.396939
43.9054 19.4435 30.4593 -0.913118 0.0239573 -0.406987
43.8408 20.2291 30.6512 -0.916454 0.0221242 -0.399523
44.0253 20.7127 30.2497 -0.917811 0.0183625 -0.396593
44.3602 20.7444 29.4619 -0.921553 0.00508591 -0.388218
44.6319 20.4396 28.8219 -0.91771 -9.19756e-07 -0.397235
44.5999 19.4999 28.8923 -0.918012 -0.00578104 -0.396511
44.264 19.4621 29.6594 -0.914436 0.00531512 -0.404695
43.9794 19.442 30.2925 -0.912933 0.0206668 -0.407571
29.5214 19.7864 42.3923 -0.735553 -0.00492793 -0.677447
29.4975 20.5885 42.4167 -0.73377 -0.000338552 -0.679393
28.9873 20.7456 42.9643 -0.731809 -0.00277329 -0.681504
28.4771 20.6718 43.512 -0.7308 -0.00326756 -0.682584
27.8805 20.7336 44.15 -0.730523 -0.00528917 -0.682867
27.3019 20.7667 44.7773 -0.73983 -0.000377414 -0.672787
26.7412 20.7294 45.394 -0.73953 0.00897011 -0.673064
26.1649 20.6847 46.014 -0.729255 0.00975475 -0.684173
25.5025 20.6303 46.7126 -0.725956 0.00322332 -0.687734
24.9657 20.6753 47.2755 -0.725104 -0.00439445 -0.688625
24.3949 20.7248 47.8784 -0.728064 -0.00632096 -0.68548
23.7695 20.7141 48.5451 -0.730864 -0.00676662 -0.682488
23.2548 20.726 49.0977 -0.731868 -0.00419848 -0.681433
22.6382 20.7177 49.7564 -0.727504 0.00391091 -0.686092
22.0698 20.653 50.3439 -0.71205 0.0195989 -0.701852
21.4473 20.7693 50.9395 -0.669612 0.0402457 -0.741556
20.7821 20.7152 51.4723 -0.591487 0.0258996 -0.805898
20.0186 20.7631 51.9899 -0.532008 0.0252813 -0.846356
19.3226 20.7097 52.4112 -0.509336 0.0114388 -0.860489
18.6695 20.7098 52.7932 -0.501208 0.0174884 -0.86515
17.9357 20.7471 53.1889 -0.443537 0.0229302 -0.895963
17.1876 20.6995 53.5361 -0.360373 0.0244958 -0.931852
16.4363 20.7413 53.7807 -0.266987 0.071061 -0.961077
15.7158 20.4644 53.8771 -0.0941489 0.0163613 -0.995194
15.8594 19.6315 53.8584 -0.12246 -0.0103362 -0.992342
16.3823 19.1763 53.8036 -0.191557 -0.076262 -0.978059
17.2072 19.367 53.5295 -0.344884 -0.0319324 -0.938102
17.9701 19.5139 53.1638 -0.463902 -0.0245659 -0.885546
18.6307 19.4523 52.8046 -0.497474 -0.0169369 -0.867314
19.3154 19.437 52.4036 -0.520309 0.00166156 -0.853976
20.096 19.417 51.9202 -0.538597 -0.0219031 -0.842279
20.802 19.5229 51.4337 -0.590806 -0.0109474 -0.806739
21.4826 19.5217 50.8823 -0.671376 -0.00231405 -0.741113
22.1279 19.4525 50.2707 -0.700273 -0.000514052 -0.713848
22.683 19.5311 49.7086 -0.718999 -0.00255907 -0.695006
23.2643 19.4359 49.0978 -0.727927 -0.0092773 -0.685586
23.7938 19.4593 48.5305 -0.731657 -0.00615035 -0.681645
24.3241 19.4718 47.9619 -0.729308 -0.00415808 -0.68417
24.9161 19.4883 47.3318 -0.728007 -0.00184592 -0.685567
25.5652 19.4854 46.6421 -0.728426 0.00256495 -0.685117
26.1103 19.4461 46.0629 -0.729179 0.00293162 -0.684317
26.6646 19.4495 45.4695 -0.733599 0.0023112 -0.679579
27.2095 19.474 44.8811 -0.734371 -0.00315214 -0.678741
27.7195 19.4587 44.3285 -0.735758 0.00129658 -0.677241
28.329 19.4592 43.6751 -0.729522 -0.000187552 -0.683953
28.8583 19.4416 43.1114 -0.731114 -0.00494069 -0.682237
29.3843 19.4383 42.5443 -0.735012 -0.00593759 -0.678028
29.5186 19.6332 42.3968 -0.735317 -0.00632283 -0.677694
-15.8189 19.7056 54.4622 0.00182016 -0.000542612 -0.999993
-16.2007 20.3809 54.4565 0.0168447 0.000945725 -0.999858
-16.8232 20.7419 54.4341 0.0653036 0.015556 -0.997744
-17.5774 20.6957 54.3591 0.137989 0.0294485 -0.98996
-18.4905 20.7641 54.2135 0.174712 0.0362053 -0.983954
-19.2837 20.7256 54.0306 0.264238 0.0678946 -0.962065
-20.1056 20.6446 53.7686 0.340301 0.0323058 -0.939643
-20.8533 20.692 53.4233 0.468079 0.0155384 -0.88355
-21.5268 20.7116 53.036 0.523796 0.0362164 -0.851074
-22.2221 20.7035 52.555 0.609059 0.027196 -0.792658
-22.862 20.6297 52.0337 0.632534 0.00991306 -0.774417
-23.4354 20.6684 51.5229 0.674014 0.0154512 -0.738477
-24.0094 20.7402 50.973 0.704182 0.0211781 -0.709704
-24.6528 20.7338 50.3105 0.725739 0.00743952 -0.68793
-25.2607 20.686 49.6514 0.742591 0.00555922 -0.669722
-25.823 20.7361 49.023 0.746514 -0.0028711 -0.665364
-26.3842 20.7511 48.3953 0.745428 -0.00228714 -0.666582
-26.7811 20.4234 47.9514 0.747237 0.00169042 -0.664556
-26.769 19.6685 47.9668 0.747051 -0.00302494 -0.66476
-26.2197 19.4536 48.5834 0.745952 -0.00199759 -0.665997
-25.6617 19.4444 49.2073 0.744026 -0.00100109 -0.66815
-25.1507 19.4993 49.7705 0.736588 -0.00263104 -0.676328
-24.5453 19.4572 50.4144 0.719973 -0.00135481 -0.693991
-23.9098 19.4529 51.0566 0.708211 -0.0166984 -0.705731
-23.2826 19.4738 51.6498 0.683237 -0.0149425 -0.729886
-22.5873 19.5284 52.26 0.63188 -0.0326676 -0.774378
-21.9599 19.4533 52.7487 0.586053 -0.0339471 -0.80944
-21.3348 19.4948 53.1583 0.497512 -0.0377799 -0.866372
-20.6046 19.342 53.5549 0.427537 -0.0220154 -0.903379
-19.9184 19.1851 53.8233 0.301358 -0.0214063 -0.953271
-19.1298 19.1086 54.0327 0.235545 0.00789365 -0.971831
-18.3201 19.0446 54.204 0.178087 0.0213384 -0.983768
-17.5489 19.2499 54.34 0.131127 0.00158447 -0.991364
-16.7171 19.4348 54.4278 0.0767136 0.000863562 -0.997053
-15.9266 19.5289 54.4609 0.0161454 -0.00239075 -0.999867
-15.8193 19.7044 54.4622 0.00623232 -0.00167521 -0.999969
-45.2224 19.9839 32.2913 0.900698 -0.00149523 -0.434443
-45.3767 19.4027 31.9724 0.90626 -0.00862341 -0.422624
-45.714 19.4308 31.2245 0.917842 -0.0103847 -0.396777
-46.01 19.4594 30.5114 0.92706 -0.00523994 -0.374875
-46.0418 20.3356 30.4298 0.924975 -0.00254842 -0.38002
-45.8334 20.7483 30.9379 0.922694 0.00856816 -0.385403
-45.4526 20.7211 31.8182 0.907403 0.0155888 -0.419761
-45.2302 20.3023 32.2742 0.90127 0.00234494 -0.433251
-45.2258 20.1081 32.2836 0.9007 -0.00149909 -0.434439
-44.7582 -19.2494 30.6182 0.930539 0.0026043 -0.366137
-45.0823 -19.2188 29.7767 0.935987 0.00612716 -0.351965
-45.295 -19.5869 29.2087 0.936087 0.000930383 -0.351766
-45.3177 -20.4411 29.1484 0.934564 -0.0005169 -0.355788
-45.0387 -20.5538 29.876 0.932779 0.0115094 -0.360264
-44.7016 -20.5626 30.7552 0.934108 0.00210152 -0.356975
-44.5379 -20.0395 31.1787 0.931946 -0.00656175 -0.362538
-44.6295 -19.3208 30.941 0.928853 -0.00097882 -0.370448
-44.7529 -19.2502 30.6316 0.92885 -0.00101222 -0.370456
-31.6933 -19.8189 39.3898 0.722112 -0.000356636 -0.691776
-31.5063 -20.5313 39.5807 0.71778 0.0031766 -0.696263
-30.8668 -20.4621 40.2439 0.721138 0.00542138 -0.69277
-30.3456 -20.5501 40.7872 0.723522 0.00531321 -0.69028
-29.8195 -20.5335 41.3407 0.725111 -6.68871e-07 -0.688632
-29.2656 -20.5495 41.9215 0.719967 -0.00679634 -0.693965
-28.722 -20.5689 42.4766 0.712215 -0.00719694 -0.701925
-28.0897 -20.4751 43.115 0.710463 -0.00516215 -0.703716
-27.5242 -20.5414 43.6876 0.711423 -0.00343483 -0.702756
-26.9967 -20.5521 44.2253 0.71439 -0.00294779 -0.699741
-26.3859 -20.544 44.8469 0.712654 0.00306696 -0.701509
-25.8007 -20.5441 45.4452 0.715694 0.00539518 -0.698393
-25.2472 -20.5659 46.0148 0.716559 0.000504236 -0.697526
-24.5918 -20.5865 46.6901 0.718611 -0.00372875 -0.695402
-24.3364 -20.0054 46.9477 0.716917 -0.00748483 -0.697118
-24.5265 -19.3084 46.7486 0.711249 -0.00563011 -0.702904
-25.0793 -19.2813 46.1859 0.714606 -0.000433037 -0.699528
-25.6079 -19.3052 45.6459 0.713673 -0.00338 -0.700467
-26.1341 -19.2808 45.1095 0.715686 -0.000255034 -0.698423
-26.6699 -19.2823 44.5581 0.718941 0.000712183 -0.69507
-27.2885 -19.3349 43.9191 0.717503 -0.00733372 -0.696516
-27.8181 -19.3176 43.38 0.710837 -0.00613136 -0.70333
-28.3832 -19.3823 42.8097 0.70981 -0.00480033 -0.704376
-28.9046 -19.3244 42.2824 0.711547 -0.00290078 -0.702632
-29.4718 -19.2852 41.7012 0.719488 -0.00232305 -0.6945
-30.0543 -19.315 41.0971 0.719116 0.00268399 -0.694885
-30.6626 -19.3062 40.4661 0.72086 0.00588113 -0.693056
-31.2202 -19.2328 39.8864 0.72227 0.00563806 -0.691587
-31.6686 -19.5756 39.4154 0.722113 -5.71771e-05 -0.691775
-31.6855 -19.6989 39.3977 0.722112 -0.000359464 -0.691776
-18.5026 -20.0354 51.4076 0.518592 0.00666336 -0.854996
-17.9829 -20.5848 51.734 0.535782 -0.00986931 -0.844299
-17.343 -20.6116 52.1383 0.531819 -0.00999611 -0.846799
-16.977 -20.0558 52.363 0.531616 -0.00570169 -0.846965
-17.0661 -19.3163 52.3004 0.5283 -0.0058617 -0.849038
-17.7244 -19.2406 51.8898 0.532347 -0.000948261 -0.846526
