-15.0106 20.3373 55.1552 -0.0127471 0.00058255 -0.999918
-15.7615 20.5983 55.16 0.00446006 0.00239137 -0.999953
-15.7615 20.5983 55.16 0.00446006 0.00239137 -0.999953
-16.6912 20.5242 55.1449 0.033252 0.00672764 -0.999329
-17.4488 20.4911 55.0984 0.0948002 0.020567 -0.995059
-18.2087 20.5198 54.9957 0.167182 0.0402906 -0.985091
-18.9956 20.5895 54.8486 0.200247 0.0413702 -0.978844
-19.8871 20.5582 54.6021 0.319272 0.0332206 -0.947081
-20.8429 20.4988 54.2364 0.416754 0.0457209 -0.90699
-21.5385 20.4789 53.87 0.494558 0.0179942 -0.868958
-22.2239 20.4629 53.4457 0.555041 0.0225127 -0.831249
-22.8731 20.547 52.984 0.614616 0.0233753 -0.78848
-23.4965 20.554 52.4813 0.649939 0.014514 -0.759848
-24.0992 20.5801 51.9444 0.677883 0.00687694 -0.735137
-24.6538 20.4868 51.4143 0.696151 0.0137594 -0.717764
-24.6975 19.7475 51.3655 0.69648 0.00077416 -0.717575
-24.0473 19.6115 51.9868 0.68158 0.00222184 -0.731741
-23.4484 19.6498 52.5158 0.644185 -0.00162297 -0.764831
-22.7774 19.5774 53.0579 0.609301 0.00586353 -0.792918
-22.1487 19.6323 53.5 0.556215 -0.0183313 -0.830776
-21.3603 19.4149 53.9671 0.471875 -0.0181995 -0.881477
-20.6681 19.1132 54.2961 0.377775 0.00372264 -0.92555
-20.0157 18.7452 54.5158 0.294336 0.0402661 -0.954721
-19.2483 18.5573 54.715 0.243152 0.0754948 -0.967046
-18.4744 18.7743 54.8965 0.189166 0.0631929 -0.979737
-17.8091 19.3105 55.0304 0.13931 0.0204757 -0.990037
-17.0936 19.6183 55.1148 0.0828924 0.00832389 -0.996524
-16.239 19.5807 55.1556 0.0142051 -0.00192798 -0.999854
-15.3522 19.6381 55.1575 -0.00356964 0.00293946 -0.999989
-15.0083 20.133 55.1548 -0.0121232 0.00156952 -0.999925
15.5829 20.0195 54.4684 -0.0516345 0.0143315 -0.998559
15.9973 20.5537 54.4503 -0.0803627 0.0463731 -0.995686
16.8167 20.5812 54.3609 -0.166273 0.0532543 -0.984119
17.5961 20.5479 54.1433 -0.329632 0.060758 -0.942152
18.3555 20.5906 53.8539 -0.382228 0.0359348 -0.923315
19.0784 20.5137 53.5264 -0.436473 0.0196547 -0.899476
19.7623 20.501 53.1737 -0.491531 0.0171918 -0.870583
20.4805 20.5563 52.7408 -0.549088 0.025787 -0.835065
21.1722 20.5356 52.2138 -0.629537 0.0189613 -0.776739
21.7924 20.5062 51.6749 -0.671058 0.0200673 -0.741133
22.3693 20.543 51.1338 -0.696435 0.0217339 -0.71729
22.9065 20.513 50.5955 -0.717335 0.0139981 -0.696588
23.5883 20.5138 49.875 -0.730319 0.000846187 -0.683106
24.2066 20.4823 49.2143 -0.729674 -0.00125039 -0.683794
24.8637 20.5318 48.5145 -0.728495 0.00123994 -0.68505
25.3788 20.5662 47.9673 -0.728009 0.00244681 -0.685564
25.912 20.5372 47.4014 -0.727099 0.00510692 -0.686514
26.4373 20.5292 46.8444 -0.728223 0.00546383 -0.685319
27.1361 20.5581 46.0974 -0.731852 0.00554103 -0.681441
27.6646 20.4453 45.5227 -0.737883 4.73743e-05 -0.674919
27.6144 19.6699 45.5825 -0.733475 -0.00725509 -0.679677
27.1176 19.5786 46.1163 -0.730782 -0.00291261 -0.682604
26.5894 19.6104 46.6778 -0.727363 0.00241462 -0.686246
25.9823 19.6229 47.3213 -0.728287 0.00418562 -0.685259
25.452 19.6304 47.8861 -0.729085 0.00177286 -0.684421
24.8514 19.6429 48.5274 -0.730392 -0.000322193 -0.683028
24.2263 19.6232 49.195 -0.729475 -0.000958906 -0.684007
23.6651 19.6839 49.7921 -0.728551 0.000370216 -0.684991
23.0587 19.6743 50.4271 -0.719704 -0.000172832 -0.694281
22.4156 19.6215 51.073 -0.699742 0.008414 -0.714346
21.776 19.6288 51.6792 -0.6701 0.00699225 -0.742238
21.177 19.6571 52.1953 -0.63704 -0.00831952 -0.770786
20.539 19.6332 52.6918 -0.567829 -0.0307543 -0.82228
19.857 19.6597 53.1138 -0.501921 0.0047427 -0.864901
19.1334 19.6216 53.492 -0.435241 0.00192309 -0.90028
18.3956 19.6128 53.824 -0.382353 -0.00910458 -0.923882
17.6497 19.3895 54.1134 -0.322009 -0.0180812 -0.946411
16.9396 19.1844 54.3092 -0.222465 -0.00971889 -0.974892
16.2398 18.908 54.4147 -0.120308 0.0208103 -0.992519
15.7512 19.5794 54.4537 -0.0650474 0.00956454 -0.997784
15.6128 19.9284 54.4658 -0.0517838 0.0113896 -0.998593
44.5315 20.2503 31.6484 -0.910337 0.00392541 -0.41385
44.641 19.5711 31.3971 -0.914014 0.00406889 -0.405663
45.006 19.6301 30.5795 -0.913068 0.00522165 -0.407773
45.2458 19.9769 30.0475 -0.912803 0.00339763 -0.408385
45.0901 20.5783 30.4019 -0.914015 0.00407071 -0.405659
44.7444 20.5251 31.1777 -0.912293 0.00665848 -0.409484
44.5369 20.336 31.6373 -0.910337 0.00392441 -0.413848
45.5735 -19.4246 32.054 -0.917809 -0.000495364 -0.397021
45.2361 -19.6562 32.8354 -0.918116 0.0038404 -0.396293
45.2863 -20.3654 32.7177 -0.917087 -0.00120783 -0.398685
45.6784 -20.4375 31.8119 -0.917656 0.00151163 -0.397372
45.9221 -20.1397 31.2541 -0.915884 0.000746523 -0.401442
45.8398 -19.4441 31.4407 -0.915584 -0.00323276 -0.402115
45.5819 -19.4255 32.0345 -0.917825 -0.00248636 -0.396972
27.0285 -19.6737 46.5809 -0.715916 0.00117814 -0.698186
26.4987 -19.4434 47.1229 -0.712813 -0.00134163 -0.701348
25.9239 -19.5154 47.7067 -0.713788 -0.00607353 -0.700331
25.3486 -19.4388 48.2878 -0.70882 -0.00954786 -0.705324
24.6699 -19.4685 48.968 -0.706065 -0.00484334 -0.708127
24.105 -19.5107 49.5291 -0.703032 0.00121551 -0.711157
23.5642 -19.5202 50.0556 -0.693963 0.000832824 -0.72001
23.0148 -19.514 50.5733 -0.683609 0.00753652 -0.729793
22.4276 -19.4363 51.0991 -0.646051 -0.00303195 -0.763288
21.7679 -19.4772 51.6451 -0.629243 0.00656146 -0.777155
21.0934 -19.4424 52.1644 -0.583022 0.0232718 -0.812123
20.4442 -19.4713 52.5884 -0.504824 0.0176958 -0.863041
19.7586 -19.4168 52.9514 -0.422625 0.0516505 -0.904258
18.9853 -19.4566 53.2655 -0.335761 0.0195809 -0.941744
18.1368 -19.3906 53.5304 -0.261552 -0.002515 -0.964977
17.3132 -19.3501 53.7177 -0.198363 -0.00587068 -0.980111
16.465 -19.4378 53.8521 -0.0836076 0.0207849 -0.996212
15.9164 -19.8318 53.8954 -0.0478165 -0.00830594 -0.998692
16.2608 -20.3879 53.8852 -0.0636028 -0.0338423 -0.997167
17.1798 -20.4075 53.7569 -0.189177 -0.0279988 -0.981544
18.1002 -20.3429 53.5452 -0.239333 -0.0129658 -0.970839
18.8233 -20.385 53.3259 -0.350648 -0.00733317 -0.936478
19.6518 -20.395 52.9966 -0.424294 -0.0141804 -0.905032
20.32 -20.3778 52.65 -0.481328 -0.0228864 -0.876242
20.964 -20.3602 52.2587 -0.56577 -0.0228393 -0.82395
21.5818 -20.3944 51.8033 -0.608333 -0.0313761 -0.793061
22.2222 -20.4108 51.2806 -0.64996 -0.00884174 -0.759917
22.81 -20.3562 50.7637 -0.677089 -0.0119852 -0.735784
23.4123 -20.3125 50.2003 -0.689298 -0.006324 -0.724451
24.0171 -20.3883 49.616 -0.702219 0.000986088 -0.71196
24.6127 -20.3799 49.0291 -0.702168 -0.00270445 -0.712007
25.1594 -20.345 48.489 -0.705077 -0.0158097 -0.708954
25.7591 -20.3694 47.8842 -0.717786 -0.0113291 -0.696172
26.4333 -20.3898 47.1898 -0.716319 0.000837778 -0.697773
26.969 -20.2845 46.6407 -0.716364 0.00167818 -0.697725
26.9929 -19.8844 46.6171 -0.715912 0.00117153 -0.69819
-16.8285 -19.91 53.1076 0.31873 -0.0190742 -0.947654
-17.2642 -19.4059 52.939 0.385923 0.0367856 -0.921797
-18.0937 -19.4367 52.5353 0.457454 0.000752425 -0.889169
-18.8842 -19.4136 52.1153 0.469043 -0.00589307 -0.883149
-19.6501 -19.486 51.7139 0.46153 0.0088511 -0.887061
-19.8788 -20.183 51.5878 0.460499 -0.00324259 -0.887654
-19.1224 -20.36 51.9876 0.469558 0.00575537 -0.882883
-18.4213 -20.4527 52.3678 0.476097 -0.00836018 -0.87935
-17.5946 -20.4514 52.8012 0.455458 -0.0169419 -0.890089
-16.879 -20.3204 53.1031 0.320746 -0.0715242 -0.944091
-16.8384 -20.1543 53.1092 0.318728 -0.0190737 -0.947654
-22.9564 -19.985 49.3985 0.707162 -0.0069531 -0.707017
-23.3186 -20.392 49.04 0.703317 -0.00692826 -0.710835
-23.957 -20.3701 48.4112 0.701719 -0.0148393 -0.712291
-24.5058 -20.4068 47.8657 0.70918 -0.0126407 -0.704914
-25.0998 -20.3875 47.2616 0.714231 -0.0020755 -0.699904
-25.6489 -20.379 46.7001 0.713954 0.00344514 -0.700184
-26.2737 -20.3898 46.0643 0.712302 0.00402414 -0.701861
-26.8778 -20.374 45.4509 0.714265 -0.00272374 -0.699866
-27.4529 -20.3736 44.8625 0.717792 -0.00882621 -0.696197
-28.0137 -20.4263 44.2827 0.719293 -0.00548929 -0.694685
-28.6509 -20.398 43.6312 0.712477 -0.00307768 -0.701689
-29.2906 -20.3187 42.9841 0.711491 -0.00410001 -0.702683
-29.8569 -20.3605 42.407 0.717933 -0.00460275 -0.696091
-29.9314 -19.6089 42.3269 0.715386 -0.00167882 -0.698727
-29.4401 -19.4535 42.8278 0.713132 -0.00272729 -0.701024
-28.7659 -19.4705 43.512 0.711858 -0.0025986 -0.702318
-28.226 -19.4913 44.0606 0.715352 -0.00320188 -0.698757
-27.65 -19.4777 44.6517 0.718289 -0.00318088 -0.695737
-27.079 -19.4636 45.2435 0.718478 -0.000292139 -0.695547
-26.4855 -19.5361 45.8519 0.714379 0.00278152 -0.699751
-25.9382 -19.5572 46.4085 0.712785 0.00176184 -0.701381
-25.3393 -19.45 47.0167 0.710629 -0.00218603 -0.703558
-24.7986 -19.463 47.559 0.705595 -0.00819632 -0.708566
-24.1811 -19.4773 48.1723 0.70376 -0.0120736 -0.710335
-23.5786 -19.4327 48.7703 0.705344 -0.0113371 -0.708774
-22.997 -19.6159 49.3537 0.708059 -0.00888365 -0.706098
-22.958 -19.883 49.3959 0.707157 -0.00695448 -0.707022
-45.286 -19.9876 32.1938 0.925184 -0.0098503 -0.37939
-45.4038 -19.4151 31.8956 0.926476 -0.00284956 -0.376343
-45.7137 -19.4229 31.1221 0.92891 -0.00386543 -0.370285
-45.9394 -19.91 30.5489 0.932369 -0.00574877 -0.361462
-45.7754 -20.3984 30.9818 0.931651 -0.0136318 -0.3631
-45.4877 -20.4066 31.7124 0.926693 -0.0186943 -0.375354
-45.2915 -20.051 32.1821 0.925182 -0.00985442 -0.379396
-46.3634 19.5521 32.3801 0.88241 -0.00564055 -0.470368
-45.9421 19.8339 33.1373 0.869696 0.000192075 -0.493587
-46.0494 20.5907 32.9621 0.869908 0.0164077 -0.492941
-46.4407 20.569 32.2541 0.882504 0.0203775 -0.469838
-46.6564 20.0612 31.8193 0.893262 0.00834795 -0.44946
