20.6897 -13.6221 52.79 -0.445659 -0.0170022 -0.895041
20.6599 -12.8486 52.8088 -0.422253 0.0155963 -0.906296
20.6794 -11.7834 52.828 -0.42577 0.023855 -0.904517
20.8128 -10.8187 52.7977 -0.429637 0.035662 -0.902297
21.0156 -9.94643 52.7597 -0.407588 0.0740964 -0.910155
21.169 -9.20146 52.7481 -0.447167 0.031388 -0.893805
21.167 -8.29666 52.7595 -0.391713 0.00274298 -0.920071
20.9982 -7.26204 52.8148 -0.404477 -0.0219354 -0.914285
20.9036 -6.45026 52.817 -0.332469 0.00362421 -0.942425
20.8853 -5.67031 52.8477 -0.309627 0.0301069 -0.950381
20.7958 -4.8782 52.911 -0.340932 0.0221648 -0.939827
20.7766 -4.05914 52.9697 -0.304284 0.0628014 -0.950509
20.7956 -3.27647 52.9985 -0.255354 0.0272661 -0.966263
20.8736 -2.51872 53.0009 -0.261795 0.00485103 -0.965111
21.0069 -1.71402 52.9745 -0.276458 0.0449654 -0.959973
21.1222 -0.866385 52.946 -0.362314 0.0245821 -0.931717
21.163 -0.0728463 52.9516 -0.327844 0.0189324 -0.944199
21.0752 0.764002 52.9819 -0.291439 -0.00837965 -0.955868
20.9444 1.58965 53.0198 -0.254135 0.0333572 -0.966593
20.9241 2.37215 53.0383 -0.325659 -0.0523092 -0.944039
21.0411 3.11802 52.9578 -0.344496 -0.039535 -0.937955
21.2653 3.96428 52.857 -0.404969 -0.0124539 -0.913569
21.5048 4.77299 52.7363 -0.464922 0.0300898 -0.88484
22.058 5.64841 52.405 -0.509532 -0.021251 -0.860189
22.6709 6.30577 52.0281 -0.549644 0.0212421 -0.835129
23.3342 6.74739 51.5941 -0.560845 0.00610073 -0.827899
23.973 6.93884 51.0995 -0.613757 0.00732807 -0.789461
24.5516 6.84021 50.592 -0.664002 -0.0098355 -0.747666
25.1677 6.54704 50.0802 -0.648654 -0.0440029 -0.759429
25.8075 6.26009 49.5278 -0.665799 -0.0516061 -0.744345
26.2421 7.20324 49.0626 -0.675496 -0.0651928 -0.734476
25.926 7.84608 49.297 -0.675741 -0.0592907 -0.73475
25.5842 8.56105 49.5529 -0.674446 -0.066806 -0.73526
25.0581 9.14078 49.9681 -0.667054 -0.0798231 -0.740721
24.576 9.68911 50.3407 -0.661931 -0.0738716 -0.745915
24.1354 10.8541 50.6138 -0.664618 -0.078046 -0.743096
24.0531 11.6147 50.602 -0.661675 -0.0837792 -0.745096
23.9386 12.5075 50.6132 -0.66328 -0.0669073 -0.745374
23.6356 13.3117 50.8006 -0.654393 -0.0730725 -0.752616
23.401 14.2409 50.9262 -0.682619 -0.0458518 -0.729334
23.3618 15.1408 50.894 -0.681912 -0.0603083 -0.728942
23.1484 15.7652 51.0471 -0.680419 -0.0503384 -0.731028
22.2521 15.859 51.7952 -0.62738 -0.0124376 -0.778614
21.57 15.7278 52.3308 -0.577267 0.0276616 -0.816087
20.8584 15.5248 52.8272 -0.563021 0.0186249 -0.826001
20.1309 15.501 53.2234 -0.387149 0.019378 -0.921814
19.3624 15.4601 53.5267 -0.349534 0.0491666 -0.935633
18.491 15.322 53.7932 -0.27705 0.0610021 -0.958917
17.7127 15.0242 53.9819 -0.240555 0.0646265 -0.968416
16.7542 14.7752 54.1415 -0.164225 0.0886914 -0.982365
15.9689 14.7749 54.2536 -0.114068 0.0870549 -0.989651
14.9688 14.9954 54.3723 -0.0857889 0.0918257 -0.992073
14.1768 15.3953 54.459 -0.0600821 0.0801086 -0.994961
13.5774 15.8697 54.5295 -0.0527031 0.0777683 -0.99557
12.9672 16.5537 54.61 -0.0405629 0.0754307 -0.996318
12.5502 17.2914 54.6788 -0.0336892 0.0681061 -0.997109
12.236 18.0047 54.7363 -0.0314015 0.0630199 -0.997518
11.877 18.9077 54.7895 -0.031729 0.0320132 -0.998956
11.6901 19.6608 54.8144 -0.0228361 0.024985 -0.999422
11.6002 20.4638 54.8364 -0.0203033 0.0251863 -0.999477
11.3194 21.0975 54.858 -0.0199701 0.0250632 -0.999486
10.54 21.0882 54.8731 -0.0209641 0.0290701 -0.999358
9.75629 21.069 54.8846 -0.0131277 0.0298095 -0.999469
8.85883 21.063 54.9002 -0.0200945 0.0264678 -0.999446
8.05607 21.0445 54.9162 -0.0208817 0.0227794 -0.999522
7.26426 21.0575 54.9348 -0.0357497 0.0171331 -0.999214
6.282 20.9917 54.9631 -0.0290842 0.0255449 -0.999251
5.43967 21.0178 54.9805 -0.0156125 0.0169577 -0.999734
4.54622 21.054 55.0027 -0.0264376 0.0215213 -0.999419
3.79273 21.095 55.0245 -0.0273673 0.0206276 -0.999412
2.87021 21.1069 55.0456 -0.0172007 0.0148984 -0.999725
1.94214 21.14 55.0617 -0.0192955 0.00589539 -0.999796
1.50799 20.4509 55.0693 -0.0270514 0.00507956 -0.999621
1.4472 19.4005 55.0722 -0.0281459 -0.00538451 -0.999586
1.60803 18.6068 55.0751 -0.0262981 -0.0140642 -0.999543
2.40499 18.5561 55.0536 -0.0290377 -0.0134496 -0.999488
3.17642 18.6129 55.0295 -0.031349 -0.012516 -0.99943
3.95651 18.6306 55.0067 -0.0273083 -0.00777893 -0.999597
4.79977 18.6101 54.9841 -0.0290982 -0.00369537 -0.99957
5.61394 18.5108 54.9595 -0.0310707 -0.000160266 -0.999517
6.43302 18.4685 54.9309 -0.0328878 0.0123222 -0.999383
7.17685 18.2717 54.902 -0.0320017 0.0297825 -0.999043
7.90269 17.984 54.8714 -0.0226056 0.0397962 -0.998952
8.83062 17.3684 54.809 -0.0377774 0.0507547 -0.997996
9.75033 16.5495 54.7304 -0.040182 0.0520031 -0.997838
10.227 15.8266 54.665 -0.0438188 0.0661451 -0.99684
10.4391 14.9176 54.5931 -0.0472095 0.0700897 -0.99642
10.3599 14.1369 54.54 -0.0458567 0.0715226 -0.996383
10.0813 13.385 54.4983 -0.0459604 0.0726715 -0.996292
9.60163 12.67 54.474 -0.0520046 0.0668404 -0.996407
9.14473 12.0443 54.4543 -0.0511994 0.0699595 -0.996235
8.57805 11.4329 54.4411 -0.0586115 0.067726 -0.995981
7.98619 10.7032 54.4246 -0.043134 0.0648172 -0.996964
7.49661 10.1343 54.4012 -0.0569543 0.0834829 -0.99488
6.84762 9.52098 54.3887 -0.0478131 0.0606672 -0.997012
6.22774 9.0457 54.389 -0.0612686 0.0780156 -0.995062
5.62984 8.37804 54.3727 -0.0384891 0.0713031 -0.996711
5.03783 7.71387 54.3457 -0.0339324 0.0777432 -0.99639
4.5525 7.07313 54.3111 -0.0315397 0.0743025 -0.996737
4.02324 6.46672 54.2876 -0.0312752 0.0617713 -0.9976
3.49444 5.93244 54.274 -0.0450246 0.0715209 -0.996394
2.8852 5.38397 54.2572 -0.0305199 0.0711114 -0.997001
2.35167 4.85353 54.2336 -0.01837 0.076042 -0.996935
1.81867 4.32087 54.2123 -0.0332205 0.0576493 -0.997784
1.16035 3.65465 54.1974 -0.0311359 0.0620825 -0.997585
0.615554 2.99456 54.1711 -0.0304664 0.0662872 -0.997335
0.150872 2.39204 54.147 -0.0254863 0.0664659 -0.997463
-0.531602 1.81479 54.1229 -0.012313 0.0667181 -0.997691
-1.18344 1.3641 54.1075 -0.0320733 0.0660753 -0.997299
-1.8729 0.880439 54.091 -0.0190261 0.0685003 -0.997452
-2.50687 0.460048 54.0774 -0.0115243 0.0693812 -0.997482
-3.06985 -0.0948725 54.0465 -0.000735941 0.0669887 -0.997753
-3.55756 -0.882916 53.9952 0.00813966 0.0625956 -0.998006
-3.97659 -1.57886 53.9497 0.00688329 0.0563112 -0.998382
-4.44964 -2.17442 53.9176 0.00145584 0.0490192 -0.998797
-5.00659 -2.76491 53.8793 0.00812242 0.0571898 -0.998317
-5.61747 -3.37343 53.8395 0.0202816 0.050184 -0.998534
-6.23113 -4.05659 53.7953 0.0194514 0.0461757 -0.998744
-6.97238 -4.64486 53.7559 0.0289098 0.0382812 -0.998849
-7.70278 -5.14025 53.7118 0.0271615 0.0492385 -0.99841
-8.24533 -5.72882 53.675 0.0203489 0.0369961 -0.999108
-8.73741 -6.5861 53.6326 0.0364532 0.0285357 -0.998928
-9.15599 -7.22706 53.5986 0.0383006 0.0213997 -0.999005
-9.79897 -7.90927 53.5569 0.0479896 0.0183583 -0.998679
-10.4635 -8.35887 53.5132 0.0533795 0.0237408 -0.998287
-11.0675 -8.99866 53.4649 0.055863 0.0174018 -0.998281
-11.6504 -9.6987 53.4153 0.0637759 0.014017 -0.997859
-12.2552 -10.201 53.3637 0.0781624 0.0157808 -0.996803
-12.9018 -10.6838 53.3048 0.0849379 0.00365794 -0.996379
-13.5616 -11.1444 53.2451 0.091421 -0.00789384 -0.995781
-14.34 -11.6186 53.1713 0.111551 -0.00773519 -0.993657
-15.0799 -11.8625 53.0806 0.137064 -0.0116824 -0.990414
-16.0467 -12.0188 52.9317 0.181606 -0.0170807 -0.983125
-16.8839 -11.7399 52.7595 0.191072 -0.00568842 -0.981412
-17.556 -11.2547 52.6127 0.227322 -0.00169883 -0.973818
-18.2033 -10.6556 52.4582 0.268918 0.0337966 -0.962561
-18.7115 -9.67533 52.3487 0.256886 0.0494888 -0.964938
-18.8421 -8.64968 52.3879 0.247919 0.0699178 -0.966253
-18.7844 -7.61353 52.4856 0.241518 0.0802205 -0.967075
-18.7197 -6.8191 52.5723 0.238855 0.0925787 -0.966632
-18.5445 -5.70818 52.7139 0.233578 0.0812643 -0.968936
-18.372 -4.96874 52.839 0.184596 0.143976 -0.970663
-18.3423 -4.15017 52.9369 0.136232 0.091498 -0.986443
-18.2503 -3.4038 53.0029 0.146757 0.048921 -0.987962
-18.2093 -2.62075 53.0728 0.157824 0.0875401 -0.983579
-18.4264 -1.82165 53.1154 0.145376 0.0915429 -0.985053
-18.5862 -0.972337 53.166 0.135224 0.0862273 -0.987056
-18.548 -0.225523 53.245 0.134247 0.102401 -0.985642
-18.5134 0.522854 53.3243 0.118631 0.0925179 -0.988619
-18.5318 1.29945 53.3969 0.116612 0.0936588 -0.988748
-18.5756 2.13401 53.4657 0.115041 0.0852289 -0.989698
-18.5192 2.93357 53.5443 0.113061 0.0969945 -0.988842
-18.317 3.74013 53.6406 0.109145 0.089233 -0.990013
-18.1222 4.49433 53.7301 0.109212 0.0914597 -0.989802
-18.1162 5.31345 53.8066 0.112574 0.0909057 -0.989476
-18.2278 6.09651 53.8691 0.115069 0.0983055 -0.988481
-18.2587 6.84576 53.9432 0.114887 0.108469 -0.987439
-18.2967 7.67567 54.0285 0.114396 0.107372 -0.987616
-18.3618 8.56599 54.117 0.118588 0.101935 -0.98768
-18.4646 9.34675 54.1889 0.119315 0.111513 -0.986574
-18.4462 10.2034 54.2817 0.13303 0.0982959 -0.986222
-18.4294 11.0879 54.3774 0.140019 0.107657 -0.984279
-18.4523 11.836 54.4529 0.128062 0.107308 -0.985934
-18.4889 12.6672 54.541 0.144821 0.108678 -0.983471
-18.5474 13.5218 54.6296 0.16072 0.111346 -0.980699
-18.7113 14.2822 54.6905 0.154476 0.117021 -0.981042
-19.5437 14.4106 54.5525 0.211058 0.101526 -0.971964
-20.2846 14.5764 54.39 0.276824 0.0704948 -0.958067
-21.0784 14.8094 54.1489 0.359955 0.036206 -0.932267
-21.7607 14.9995 53.8595 0.435406 0.0123243 -0.900066
-21.7963 14.1801 53.8534 0.471978 0.0337954 -0.880399
-21.8139 13.3681 53.7736 0.396278 0.0916759 -0.913469
-21.8445 12.5977 53.6861 0.465589 0.0850357 -0.880906
-21.9132 11.725 53.5805 0.430703 0.074476 -0.899416
-21.9476 10.855 53.531 0.402721 -0.0162515 -0.915179
-21.9279 9.98251 53.5087 0.425998 0.064207 -0.902443
-21.8065 9.21039 53.5201 0.367539 0.131888 -0.920609
-21.6275 8.47609 53.4952 0.429343 0.103966 -0.897137
-21.5711 7.62329 53.4335 0.329665 0.0442725 -0.943059
-21.6176 6.8165 53.3202 0.396956 0.119422 -0.910035
-21.59 6.06847 53.2448 0.355622 0.120259 -0.926861
-21.4983 5.2887 53.1898 0.329148 0.0767272 -0.94106
-21.3162 4.38538 53.1762 0.363761 0.103688 -0.925703
-21.2068 3.63975 53.129 0.257274 0.103998 -0.960726
-21.1214 2.82008 53.0647 0.265225 0.102578 -0.958577
-21.0948 1.96833 52.9783 0.294392 0.080212 -0.952304
-21.1711 1.19194 52.8793 0.347841 0.0593684 -0.935672
-21.2863 0.411817 52.7156 0.385643 0.153347 -0.909801
-21.1602 -0.712571 52.5618 0.374113 0.139857 -0.916354
-21.0708 -1.74431 52.4458 0.320722 0.148222 -0.935504
-21.1276 -2.67777 52.302 0.315743 0.116424 -0.941675
-21.1114 -3.50373 52.2066 0.327428 0.114669 -0.93746
-21.0667 -4.57685 52.077 0.351279 0.126712 -0.927657
-21.2194 -5.61107 51.9201 0.34618 0.0848786 -0.934318
-21.2221 -6.44156 51.8309 0.364942 0.112212 -0.924243
-21.0742 -7.6553 51.7716 0.374599 0.0668606 -0.924773
-21.12 -8.77881 51.6499 0.390734 0.0970504 -0.915373
-21.3805 -9.77114 51.4331 0.395172 0.0954603 -0.913634
-21.9066 -10.5281 51.127 0.394809 0.0946466 -0.913875
-22.4804 -10.9749 50.7801 0.453365 0.0843709 -0.887323
-23.5363 -11.2165 50.1665 0.513964 0.107283 -0.851077
-24.2208 -11.2032 49.761 0.513903 0.121895 -0.84905
-25.0444 -11.0588 49.262 0.541815 0.127608 -0.830754
-25.7204 -10.8983 48.8484 0.555374 0.148406 -0.818252
-26.3988 -10.4925 48.463 0.553651 0.147467 -0.819586
-26.5454 -10.5899 48.3464 0.553655 0.147471 -0.819582
-26.1227 -11.2845 48.5053 0.554825 0.158637 -0.816637
-25.7598 -12.068 48.5897 0.558117 0.165755 -0.81302
-24.9489 -12.6611 49.0321 0.574375 0.15277 -0.804009
-24.3578 -13.4898 49.3144 0.564691 0.116036 -0.816894
-24.0956 -14.198 49.4038 0.596773 0.127682 -0.792187
-23.8574 -14.9852 49.4713 0.624897 0.0883019 -0.775698
-23.454 -15.4828 49.7369 0.620073 0.0889728 -0.779483
-22.7301 -15.5241 50.2889 0.60079 0.0485843 -0.797929
-22.0828 -15.4889 50.7364 0.549626 0.0100811 -0.834707
-21.3343 -15.4145 51.1984 0.492236 -0.0159544 -0.869192
-20.4273 -15.4032 51.6551 0.437567 -0.0245449 -0.898851
-19.6133 -15.3357 52.0254 0.405366 -0.0294736 -0.913679
-18.7087 -15.5745 52.4097 0.370768 -0.0573449 -0.926953
-18.0323 -15.16 52.632 0.293624 -0.0863942 -0.951869
-17.2538 -15.3312 52.8828 0.247643 -0.122646 -0.960509
-16.3316 -15.2831 53.0691 0.166179 -0.136654 -0.976581
-15.5323 -15.4894 53.2114 0.111349 -0.131448 -0.98505
-14.5997 -15.6226 53.3179 0.0852498 -0.0916161 -0.992088
-13.8024 -16.0494 53.4075 0.0576727 -0.077055 -0.99534
-13.2533 -16.5929 53.4788 0.0366081 -0.0839255 -0.995737
-12.7694 -17.3012 53.5483 0.0295004 -0.0671098 -0.997266
-12.4741 -18.1903 53.6101 0.00457598 -0.0539192 -0.998521
-12.3842 -19.022 53.6457 -0.00393817 -0.0380232 -0.999266
-12.3194 -19.9127 53.6781 -0.00590835 -0.0367459 -0.999299
-11.9636 -20.5387 53.6981 -0.016399 -0.0325861 -0.999317
-11.1956 -20.6195 53.6827 -0.0199899 -0.0328596 -0.99926
-10.3655 -20.5587 53.6644 -0.0185516 -0.0369526 -0.999145
-9.52755 -20.4755 53.6474 -0.014157 -0.0382437 -0.999166
-8.59242 -20.3931 53.6354 -0.0159633 -0.0286556 -0.999462
-7.91699 -20.7316 53.6348 -0.0126449 -0.024247 -0.999611
-7.37854 -21.3073 53.6418 -0.0200683 -0.0238399 -0.999514
-6.74476 -21.7624 53.6389 -0.0148296 -0.0181476 -0.999725
-5.87519 -21.5288 53.6483 0.0275655 -0.0184334 -0.99945
-5.28564 -21.0176 53.6546 0.0263923 -0.014642 -0.999536
-4.7091 -20.5312 53.6688 0.0355127 0.00593611 -0.999352
-3.73474 -20.5827 53.6998 0.0317641 0.00126646 -0.999495
-2.8535 -20.7051 53.7213 0.0208702 0.00351388 -0.999776
-2.02633 -20.7284 53.739 0.0196563 0.000285139 -0.999801
-1.23487 -20.7528 53.7495 0.0123424 0.00410017 -0.999915
-0.268859 -20.8422 53.7595 0.0120594 0.00584648 -0.99991
0.574393 -20.8944 53.7726 0.0211696 0.00613713 -0.999757
1.4395 -20.8543 53.7895 0.0156792 0.00970975 -0.99983
2.2287 -20.79 53.8004 0.0151785 0.00321265 -0.99988
3.08916 -20.8398 53.8197 0.0237397 0.00157143 -0.99971
3.95141 -20.898 53.8425 0.0230766 -0.00285588 -0.99973
4.7806 -20.9096 53.8609 0.0197999 -0.0105423 -0.999748
5.6167 -20.9008 53.8794 0.0212214 -0.0088517 -0.999735
6.6022 -20.946 53.9037 0.0248569 -0.00404832 -0.999683
7.38318 -20.9627 53.9234 0.0261051 -0.00502855 -0.999647
8.22465 -20.9635 53.9486 0.0290083 -0.000406024 -0.999579
9.12718 -20.9685 53.9764 0.0301839 -0.00153065 -0.999542
9.91233 -20.9788 54.0035 0.0355237 -0.00633013 -0.999349
10.7137 -20.9814 54.0377 0.0473875 -0.00918592 -0.998833
11.5842 -21.0089 54.0767 0.0435768 -0.00535671 -0.999034
11.832 -20.3088 54.0846 0.0446901 -0.00190727 -0.998995
11.9375 -19.4598 54.0898 0.043906 0.000501552 -0.999036
11.8981 -18.6179 54.0941 0.0435013 0.0107037 -0.998994
11.1398 -18.6014 54.0619 0.0471068 0.0129225 -0.998806
10.2781 -18.5023 54.0364 0.025052 0.0307485 -0.999209
9.49665 -18.3053 54.0229 0.0275568 0.0354908 -0.998983
8.732 -18.1762 54.008 0.0244614 0.0405175 -0.998879
7.80095 -18.2028 53.9835 0.0242122 0.0522008 -0.998333
6.92161 -18.3253 53.9587 0.0238111 0.057995 -0.998019
6.10171 -18.3063 53.9375 0.0243342 0.062776 -0.997725
5.24819 -18.2306 53.9278 0.0137013 0.0619363 -0.997986
4.46267 -18.2824 53.9118 0.0124417 0.0581871 -0.998228
3.64687 -18.3222 53.8933 0.0228754 0.0608016 -0.997888
2.74836 -18.2631 53.8791 0.0157786 0.0361345 -0.999217
1.72453 -18.3854 53.8602 0.0190789 0.0527206 -0.998427
0.927413 -18.3144 53.8453 0.0210849 0.0415146 -0.998911
0.131517 -18.2433 53.8362 0.01353 0.0543565 -0.998421
-0.617281 -18.1927 53.8243 0.0284532 0.0496697 -0.998338
-1.38822 -18.1442 53.8104 0.0157718 0.0486849 -0.998674
-2.21438 -18.1604 53.7906 0.0255312 0.0485609 -0.998494
-2.99615 -18.2936 53.7623 0.0233945 0.0506047 -0.998439
-3.72748 -18.46 53.7371 0.028585 0.0414684 -0.998731
-4.45754 -18.7667 53.7031 0.0327978 0.0364418 -0.998797
-5.14309 -19.0945 53.6756 0.0224406 0.0295706 -0.999311
-5.89949 -19.2738 53.6515 0.0285812 0.0300754 -0.999139
-6.74693 -19.2643 53.6353 0.0231212 0.0131203 -0.999636
-7.67112 -19.0988 53.6195 0.0184497 0.0101418 -0.999778
-8.37253 -18.8261 53.6175 0.00479251 0.00408439 -0.99998
-9.12438 -18.4099 53.6198 0.0089576 0.00791277 -0.999923
-9.77822 -17.9189 53.6154 0.0155672 -0.0023866 -0.999876
-10.0059 -17.0243 53.6039 0.0276906 -0.011012 -0.999556
-10.4958 -16.3215 53.5755 0.0421379 -0.016129 -0.998982
-11.2295 -16.3134 53.5493 0.0373267 -0.038665 -0.998496
-11.5789 -15.0559 53.4883 0.0612068 -0.0342321 -0.9975
-11.4813 -14.2467 53.4644 0.0673459 -0.0308935 -0.997251
-11.2825 -13.5267 53.4587 0.0717835 -0.0264201 -0.997069
-10.9227 -12.789 53.4678 0.0770142 -0.0187986 -0.996853
-10.483 -12.1382 53.4935 0.0790811 -0.0110502 -0.996806
-10.0063 -11.5511 53.525 0.0774335 -0.011148 -0.996935
-9.48712 -10.968 53.5578 0.0745927 -0.0130348 -0.997129
-8.76097 -10.406 53.604 0.0739371 -0.0181797 -0.997097
-8.11641 -9.9702 53.6463 0.0817412 -0.0150755 -0.996538
-7.38 -9.452 53.6972 0.0766443 -0.0140642 -0.996959
-6.65729 -8.76382 53.7429 0.0765603 -0.0216422 -0.99683
-6.13062 -8.19909 53.7717 0.0712688 -0.0197675 -0.997261
-5.54903 -7.66441 53.8044 0.0805836 -0.0202703 -0.996542
-4.95411 -7.057 53.8328 0.0695792 -0.0333023 -0.99702
-4.50186 -6.37761 53.8524 0.0706841 -0.0236986 -0.997217
-3.95712 -5.72128 53.8787 0.070519 -0.0209754 -0.997276
-3.25743 -5.14554 53.9097 0.0801018 -0.0272085 -0.996415
-2.55144 -4.67311 53.9518 0.076429 -0.0265793 -0.996721
-1.97443 -4.15516 53.9834 0.0700928 -0.0300341 -0.997075
-1.32226 -3.53571 54.0103 0.0758589 -0.0221531 -0.996872
-0.78296 -2.94939 54.0331 0.0657533 -0.0296668 -0.997395
-0.219846 -2.39262 54.0498 0.0575747 -0.0347975 -0.997731
0.433906 -1.81607 54.0731 0.0531249 -0.0312023 -0.9981
1.02938 -1.28415 54.0955 0.0590483 -0.0281912 -0.997839
1.5923 -0.75084 54.1082 0.0469629 -0.0345811 -0.998295
2.09092 -0.17998 54.1155 0.0490234 -0.0186743 -0.998606
2.65788 0.569719 54.1292 0.0421532 -0.0188739 -0.998919
3.28488 1.3286 54.1362 0.0290971 -0.0222001 -0.99933
3.87718 1.93466 54.1439 0.0165585 -0.00575821 -0.999839
4.44304 2.49291 54.1499 0.0227774 -0.00346043 -0.999735
4.96629 3.1337 54.1586 0.0157114 0.00142392 -0.999876
5.50484 3.70286 54.1668 0.0184798 -0.00702618 -0.999804
6.16619 4.23622 54.1806 0.0151952 0.000939083 -0.999884
6.79111 4.70578 54.194 0.0175531 0.00675297 -0.999819
7.31077 5.29587 54.208 0.00741568 0.0232929 -0.999701
7.84383 5.88169 54.22 0.000305121 0.0144376 -0.999896
8.33261 6.4695 54.2296 -0.00404741 0.0193217 -0.999805
8.89063 7.05523 54.237 -0.00976694 0.026049 -0.999613
9.52386 7.7021 54.2452 -0.0169703 0.0237994 -0.999573
10.1337 8.20267 54.2462 -0.0177518 0.0296532 -0.999403
10.7179 8.73591 54.2474 -0.0292886 0.0250321 -0.999258
11.2481 9.26912 54.2478 -0.0326183 0.037031 -0.998782
11.8723 9.83117 54.2435 -0.0491371 0.0365613 -0.998123
12.6441 10.2974 54.2265 -0.0459646 0.0444765 -0.99795
13.3643 10.517 54.1967 -0.0686326 0.0490543 -0.996394
14.3313 10.5957 54.1248 -0.0923075 0.0591946 -0.993964
15.2478 10.3694 54.0185 -0.104009 0.054339 -0.993086
16.1734 9.59848 53.8777 -0.119538 0.0494381 -0.991597
16.731 9.03452 53.7874 -0.118843 0.0372907 -0.992213
17.1371 8.34613 53.7114 -0.124219 0.0397184 -0.99146
17.2556 8.01902 53.6835 -0.123905 0.0393768 -0.991512
15.6786 7.53807 53.8485 -0.100743 0.0267373 -0.994553
15.9691 5.94809 53.776 -0.117045 0.026258 -0.992779
16.352 4.76681 53.7082 -0.115429 0.0195167 -0.993124
16.0593 3.68865 53.7329 -0.115068 0.00746539 -0.993329
16.203 2.92843 53.7136 -0.111455 0.00427974 -0.99376
16.0508 1.94787 53.7262 -0.111766 0.005033 -0.993722
16.0386 1.17521 53.7237 -0.112689 0.00324543 -0.993625
16.1932 0.208169 53.7023 -0.115082 0.00376296 -0.993348
16.2913 -0.809243 53.6886 -0.116037 0.00293185 -0.99324
16.3894 -1.60171 53.6758 -0.117613 0.000913115 -0.993059
16.4585 -2.51146 53.6671 -0.11949 -0.000127818 -0.992834
16.5589 -3.44695 53.655 -0.12107 -0.000164418 -0.992644
16.5666 -4.20496 53.6538 -0.12356 -8.22286e-05 -0.992337
16.3856 -4.96704 53.6765 -0.123661 -0.00505466 -0.992311
16.5202 -5.91045 53.6613 -0.128539 -0.00117947 -0.991704
16.3888 -6.78524 53.6828 -0.129714 -0.00786094 -0.99152
16.301 -7.52924 53.6986 -0.131674 -0.00565636 -0.991277
16.2718 -8.33721 53.7071 -0.130919 -0.00521504 -0.991379
16.3444 -9.19582 53.7033 -0.129758 -0.0067158 -0.991523
16.2812 -10.0091 53.7181 -0.130662 -0.00883706 -0.991388
16.268 -10.9845 53.7281 -0.132412 -0.014242 -0.991074
16.0015 -11.8729 53.7821 -0.13636 -0.0176568 -0.990496
16.1069 -12.8261 53.7941 -0.140053 -0.0338928 -0.989564
16.2113 -13.8159 53.8113 -0.117696 -0.0484678 -0.991822
16.3373 -14.8371 53.8541 -0.111281 -0.0552792 -0.99225
16.2803 -15.6446 53.9067 -0.113071 -0.0593067 -0.991815
15.8825 -16.4185 54.0123 -0.0714311 -0.11393 -0.990918
15.4723 -17.1324 54.1217 -0.0409153 -0.0943261 -0.994251
14.3753 -17.0587 54.1365 -0.0274327 -0.0656545 -0.997465
13.2975 -16.7962 54.1396 -0.000658888 -0.00265224 -0.999995
12.303 -16.6549 54.1399 -0.0136152 0.00775405 -0.999753
11.2043 -16.9506 54.1139 0.0144547 0.0380085 -0.999173
10.2262 -16.7639 54.1065 0.00877251 0.0434772 -0.998983
9.40101 -16.5747 54.1078 0.0114493 0.051286 -0.998618
8.1674 -16.3875 54.1085 0.0119051 0.0716268 -0.99736
7.38031 -16.4084 54.0976 0.00818417 0.0734223 -0.997259
6.17248 -16.6122 54.0646 0.0180042 0.0761036 -0.996932
5.17569 -16.3079 54.0741 0.0171395 0.0834969 -0.99636
4.31608 -16.444 54.0482 0.0144159 0.0883421 -0.995986
3.30343 -16.4824 54.0267 0.0198563 0.0888266 -0.995849
2.54217 -16.4384 54.0155 0.0194961 0.0888169 -0.995857
1.59672 -16.6315 53.9794 0.0193561 0.0890815 -0.995836
0.637118 -16.4839 53.9743 0.0224057 0.0863332 -0.996005
-0.226081 -16.3072 53.9707 0.0206073 0.0782099 -0.99672
-1.14471 -16.1988 53.9536 0.0310029 0.0743976 -0.996745
-2.06378 -16.2032 53.9254 0.0290862 0.0720273 -0.996978
-2.92878 -16.3653 53.8885 0.0376956 0.0667091 -0.997009
-3.93454 -16.4161 53.8455 0.0395904 0.0559696 -0.997647
-4.79798 -16.6925 53.7984 0.0354945 0.0552951 -0.997839
-5.95108 -16.7344 53.7478 0.0394632 0.0422259 -0.99831
-6.7297 -16.5387 53.7269 0.0320828 0.0366192 -0.998805
-7.80797 -16.5936 53.6825 0.0445184 0.0236924 -0.998728
-8.68336 -15.8253 53.6539 0.0516011 0.00502635 -0.998643
-9.46547 -15.025 53.6077 0.0709915 -0.00449682 -0.997467
-9.5286 -14.1771 53.597 0.0709265 -0.0139387 -0.997384
-9.18826 -13.4939 53.6148 0.0762948 -0.00802607 -0.997053
-8.54203 -12.6133 53.6567 0.0829275 -0.0144641 -0.996451
-7.74404 -11.8813 53.7132 0.0838702 -0.0133922 -0.996387
-7.06093 -11.3408 53.7635 0.0841205 -0.014571 -0.996348
-6.42322 -10.8778 53.8094 0.0858099 -0.021196 -0.996086
-5.72491 -10.4427 53.8602 0.086806 -0.0219788 -0.995981
-5.09671 -9.56517 53.8971 0.0853581 -0.0251881 -0.99602
-4.30293 -8.9526 53.945 0.0840041 -0.0291289 -0.996039
-3.41313 -8.03987 53.9946 0.0845644 -0.029472 -0.995982
-3.01731 -7.30613 54.0027 0.0844344 -0.0348228 -0.99582
-2.40152 -6.71592 54.0332 0.0831184 -0.0362557 -0.99588
-1.53195 -6.02164 54.0783 0.0838007 -0.0431703 -0.995547
-0.551994 -5.20469 54.1235 0.0784515 -0.0403309 -0.996102
0.0315898 -4.59229 54.1437 0.0706541 -0.0414673 -0.996637
0.687822 -3.91713 54.1634 0.071116 -0.0400339 -0.996664
1.2071 -3.35715 54.1773 0.0661203 -0.0432046 -0.996872
2.06007 -2.67123 54.2026 0.0642033 -0.0421174 -0.997048
2.92544 -1.8983 54.2175 0.0561315 -0.040805 -0.997571
3.46966 -1.15982 54.2139 0.0413561 -0.0368981 -0.998463
4.0003 -0.574856 54.2143 0.0387496 -0.0385931 -0.998499
4.66696 0.257161 54.2093 0.0367857 -0.0330602 -0.998776
5.40838 0.802801 54.2132 0.0282888 -0.0312195 -0.999091
5.94494 1.36717 54.2148 0.0242956 -0.0268043 -0.999333
6.39276 2.08206 54.205 0.021874 -0.0166768 -0.999622
6.94048 2.6255 54.2079 0.0164456 -0.0187588 -0.999672
7.68331 3.11514 54.2086 0.0138062 -0.0141517 -0.999805
8.24807 3.67767 54.2042 -0.0067379 -0.00735535 -0.999909
8.72381 4.26151 54.2026 -0.00533443 0.00160502 -0.999984
9.5843 5.3076 54.1984 -0.0171724 0.0111888 -0.99979
10.1502 5.86341 54.1929 -0.035316 0.01086 -0.999288
10.7417 6.36328 54.184 -0.0340914 0.0234413 -0.999144
11.3308 6.85891 54.1706 -0.0426296 0.0170679 -0.998945
11.9475 7.43405 54.154 -0.0554084 0.0206392 -0.99825
12.7626 8.23672 54.1278 -0.0657896 0.032872 -0.997292
13.6752 8.82938 54.0851 -0.0716821 0.0389449 -0.996667
14.8991 8.43721 53.961 -0.0959582 0.0458574 -0.994328
15.5285 7.73011 53.8677 -0.0962306 0.033865 -0.99471
15.6541 7.59331 53.8525 -0.0986292 0.0243065 -0.994822
23.0367 4.17624 51.8223 -0.579622 -0.0306341 -0.814309
22.7668 3.36463 52.0367 -0.527058 -0.00869967 -0.849606
22.4492 2.23927 52.2433 -0.523304 -0.0240239 -0.851641
22.5354 1.22616 52.2095 -0.542774 -0.0157708 -0.839731
22.7191 0.164788 52.1098 -0.513933 -0.0247979 -0.857472
22.7589 -0.613818 52.1085 -0.502082 -0.00442384 -0.864459
22.5844 -1.72764 52.1867 -0.488097 0.0194047 -0.872563
22.4514 -2.66416 52.2159 -0.517212 0.0532017 -0.854202
22.3366 -3.79406 52.2506 -0.504504 0.0298406 -0.862894
22.4078 -4.73946 52.1871 -0.487231 0.0107077 -0.872918
22.5846 -5.54568 52.0724 -0.469155 0.01513 -0.882956
22.5384 -6.52893 52.0881 -0.48886 0.014797 -0.871879
22.6745 -7.60482 51.96 -0.510025 0.0386518 -0.859291
22.8001 -8.42838 51.8565 -0.514877 0.0212657 -0.85691
22.7429 -9.34873 51.8635 -0.52649 0.0416687 -0.84916
22.5597 -10.2579 51.9325 -0.53561 0.0468507 -0.843078
22.3241 -11.0256 52.0274 -0.466303 0.0380322 -0.883807
22.2091 -11.9762 52.0494 -0.472965 0.0297287 -0.880579
22.2111 -13.2896 52.003 -0.478392 0.0228887 -0.877797
22.2449 -14.2034 51.9158 -0.514482 0.0710239 -0.854555
22.4936 -15.094 51.6866 -0.56227 0.0635793 -0.824506
22.753 -16.0946 51.4196 -0.626646 0.0365354 -0.778447
22.9083 -16.9979 51.2522 -0.623682 0.0166157 -0.781237
22.6925 -17.3455 51.4245 -0.617001 0.0100109 -0.786773
21.9151 -17.4629 52.0269 -0.598139 -0.0107883 -0.80128
21.2406 -17.4819 52.5256 -0.592917 -0.0169247 -0.805086
20.4999 -17.4625 53.0287 -0.530595 -0.0402625 -0.846615
19.7526 -17.3582 53.3464 -0.349024 -0.0888761 -0.93289
18.956 -17.2258 53.5621 -0.253137 -0.0853507 -0.963589
18.1582 -17.1889 53.7552 -0.215653 -0.104748 -0.970836
17.3005 -17.2477 53.9354 -0.200144 -0.120936 -0.972042
16.4319 -17.1935 54.0526 -0.111803 -0.129304 -0.984821
15.6148 -17.2572 54.1255 -0.0676646 -0.107487 -0.991901
14.538 -17.5251 54.1627 -0.00957135 -0.0455347 -0.998554
14.1181 -18.2189 54.1718 0.0274327 -0.0174655 -0.999469
13.7698 -19.2769 54.1662 0.0342799 -0.00346895 -0.999406
13.6641 -20.035 54.1625 0.0409645 -0.000472959 -0.99916
13.6672 -20.9623 54.1629 0.0413402 0.000243088 -0.999145
13.965 -21.8741 54.1726 0.0382484 0.00358211 -0.999261
14.5698 -22.1557 54.1937 0.0356104 0.00436131 -0.999356
14.0643 -22.5615 54.1735 0.037985 0.00382346 -0.99927
13.2647 -22.6228 54.1452 0.0324788 0.00140374 -0.999471
12.4619 -22.7472 54.1212 0.0293157 -0.00453691 -0.99956
11.548 -22.7267 54.0924 0.0354236 -0.0149257 -0.999259
10.6894 -22.6546 54.0583 0.038167 -0.0197895 -0.999068
9.79118 -22.6774 54.0211 0.0416606 -0.0186279 -0.998958
8.92698 -22.6627 53.9876 0.0328159 -0.0158959 -0.999335
8.03042 -22.6533 53.961 0.0246845 -0.0166533 -0.999556
7.23737 -22.6737 53.9447 0.0203946 -0.022177 -0.999546
6.42095 -22.6564 53.9258 0.0290984 -0.0239538 -0.999289
5.64738 -22.6223 53.9021 0.0263111 -0.0143698 -0.999532
4.73375 -22.5847 53.8872 -0.00869136 -0.0284211 -0.999225
3.81561 -22.6029 53.8666 0.0395805 -0.0355543 -0.998422
3.00435 -22.5331 53.833 0.0358021 -0.00956329 -0.999313
2.19954 -22.5387 53.81 0.0191635 -0.00624731 -0.999797
1.13784 -22.649 53.7964 0.00956886 -0.0118308 -0.999877
0.263913 -22.6252 53.7851 0.0155787 -0.0209028 -0.999656
-0.631948 -22.5621 53.7681 0.0149552 -0.014996 -0.999776
-1.46231 -22.5358 53.7612 -0.00275566 -0.0164066 -0.999862
-2.28015 -22.5707 53.7509 0.0198824 -0.0161723 -0.999671
-3.09399 -22.6183 53.7373 0.0112378 -0.0153493 -0.999817
-3.964 -22.6525 53.7204 0.0257993 -0.0226295 -0.999411
-5.02422 -22.8473 53.7009 -0.0214441 -0.0917387 -0.992297
-5.86903 -23.0422 53.6654 0.038884 0.00993527 -0.999194
-6.60108 -23.1213 53.6392 -0.100657 0.022177 -0.994674
-7.97843 -22.8002 53.722 -0.0675425 -0.0468258 -0.9963
-8.73255 -22.6677 53.7455 -0.0282304 -0.0712482 -0.997059
-9.62519 -22.5422 53.735 0.0082981 -0.0424092 -0.999066
-10.4445 -22.5295 53.7346 -0.00744824 -0.0375709 -0.99926
-11.3844 -22.5761 53.7468 -0.0108163 -0.027637 -0.99956
-12.2671 -22.5217 53.7579 -0.0203591 -0.0209545 -0.999556
-13.0758 -22.475 53.766 0.0252624 -0.0300084 -0.999209
-13.9222 -22.4863 53.7336 0.0418853 -0.0192886 -0.998915
-14.5955 -22.4387 53.7116 0.00501153 -0.0537161 -0.99853
-14.2904 -21.9567 53.7046 0.0373954 -0.0332449 -0.998747
-14.151 -21.1354 53.6901 0.0439423 -0.0186835 -0.998856
-14.4265 -20.2747 53.6663 0.0282776 -0.0162168 -0.999427
-14.5468 -19.39 53.6427 0.0224602 -0.0252701 -0.999428
-14.5567 -18.5141 53.6125 -0.00158229 -0.0547319 -0.998364
-14.8443 -17.8132 53.5521 0.00698579 -0.102283 -0.994731
-15.4172 -17.3101 53.4887 0.0164952 -0.14915 -0.988103
-16.1931 -17.3486 53.4569 0.120053 -0.232553 -0.965146
-16.9598 -17.4586 53.3084 0.312182 -0.204174 -0.927823
-17.6748 -17.5622 53.0536 0.406531 -0.107276 -0.907317
-18.4447 -17.7207 52.7135 0.420815 -0.069674 -0.904466
-19.3177 -17.6943 52.3016 0.41897 -0.0626574 -0.905835
-20.0324 -17.5699 51.9634 0.427605 -0.0788053 -0.900524
-20.9051 -17.5442 51.5298 0.472494 -0.0597451 -0.879306
-21.6148 -17.4026 51.0828 0.555163 -0.0770251 -0.828167
-22.299 -17.3225 50.5673 0.658094 -0.0250669 -0.748043
-22.9197 -17.3758 50.0344 0.660906 0.0514493 -0.748372
-23.5668 -17.464 49.4247 0.669808 0.0755137 -0.73841
-24.2527 -17.4395 48.7867 0.68403 0.119191 -0.719637
-24.8242 -17.4514 48.2417 0.669643 0.141533 -0.729016
-25.1099 -16.8383 48.1043 0.662773 0.1428 -0.735077
-25.0888 -15.9942 48.2941 0.660812 0.150334 -0.735341
-25.3705 -14.7361 48.3273 0.63057 0.162789 -0.758868
-26.0698 -13.9338 47.948 0.596073 0.187923 -0.780629
-26.9536 -13.6523 47.3409 0.596033 0.187896 -0.780666
-27.0682 -12.4997 47.5661 0.584437 0.195519 -0.787351
-27.511 -11.7984 47.408 0.588547 0.19408 -0.784606
-28.1127 -11.1556 47.1193 0.585273 0.196665 -0.786625
-28.9736 -10.6667 46.6128 0.569699 0.203995 -0.796134
-29.7201 -10.6434 46.0798 0.575507 0.222193 -0.786947
-30.5509 -9.73056 45.7127 0.5665 0.184401 -0.803165
-31.2883 -8.88862 45.4015 0.557166 0.177786 -0.811006
-31.8222 -8.26955 45.1495 0.576554 0.168129 -0.799573
-32.3264 -7.48522 44.9432 0.580475 0.14673 -0.80065
-32.8593 -6.81239 44.6648 0.587339 0.113203 -0.801385
-33.3556 -6.16272 44.394 0.58647 0.115185 -0.801739
-33.7567 -5.29441 44.204 0.595275 0.0854969 -0.798961
-33.7999 -4.3322 44.2696 0.594183 0.074814 -0.800843
-33.5478 -3.45803 44.5383 0.593412 0.0755486 -0.801344
-32.9643 -3.13218 44.995 0.588435 0.0727852 -0.805262
-32.3987 -2.87519 45.4306 0.572657 0.0723054 -0.816599
-31.5264 -2.88129 46.0408 0.572107 0.0711134 -0.81709
-30.5141 -3.43511 46.6796 0.557137 0.0803163 -0.826526
-30.046 -3.96834 46.9425 0.555103 0.0808387 -0.827843
-29.0736 -4.48319 47.5425 0.5544 0.0850293 -0.827889
-28.4809 -5.22318 47.8549 0.546435 0.0862174 -0.833052
-27.9825 -5.7669 48.1231 0.545422 0.0926911 -0.833007
-27.5718 -6.50693 48.2958 0.537133 0.109711 -0.836332
-27.3247 -7.26282 48.3543 0.537995 0.121982 -0.834042
-26.9223 -7.87443 48.5213 0.540536 0.128527 -0.831446
-26.4195 -8.39991 48.7727 0.545104 0.118925 -0.82989
-25.5047 -9.07421 49.2775 0.538846 0.112696 -0.834768
-24.7154 -9.37613 49.7186 0.517612 0.117545 -0.847503
-24.0152 -9.42283 50.1333 0.491109 0.111244 -0.863702
-23.3493 -9.41728 50.498 0.477417 0.0979413 -0.873201
-22.6949 -8.79734 50.9139 0.454223 0.104634 -0.884572
-22.6906 -7.86537 51.0426 0.43339 0.10134 -0.895095
-22.8782 -6.87656 51.0531 0.441069 0.107071 -0.890879
-22.9383 -5.83052 51.1578 0.445299 0.0964785 -0.890068
-22.8222 -4.79687 51.3284 0.435344 0.11242 -0.893217
-22.7126 -3.85368 51.4909 0.402211 0.102492 -0.909792
-22.8865 -2.96833 51.5258 0.420228 0.132916 -0.897599
-22.7414 -1.99044 51.7311 0.43918 0.116048 -0.890637
-22.8117 -1.08727 51.8107 0.420004 0.108652 -0.900995
-22.933 -0.261324 51.8331 0.429508 0.0765059 -0.899817
-22.9962 0.503215 51.9059 0.471341 0.130599 -0.872228
-22.8081 1.26514 52.121 0.470868 0.129426 -0.872658
-22.7805 2.15755 52.2431 0.45869 0.0875083 -0.884277
-22.8194 3.06331 52.3208 0.456086 0.106456 -0.883546
-22.952 4.16014 52.367 0.484779 0.0797583 -0.870992
-23.0859 5.05237 52.3622 0.491324 0.0754786 -0.867631
-23.1253 5.87597 52.413 0.501325 0.0760118 -0.861914
-23.1832 6.94658 52.4875 0.517177 0.0910268 -0.850886
-23.0984 7.86859 52.6331 0.529377 0.0846495 -0.844153
-23.2534 8.68176 52.5995 0.557289 0.0868722 -0.825761
-23.4328 9.43375 52.5521 0.563477 0.0696078 -0.823194
-23.4501 10.5402 52.6089 0.549581 0.0282123 -0.834964
-23.4762 11.3161 52.6146 0.536555 0.0673594 -0.839588
-23.3997 12.3047 52.7389 0.60344 0.0347468 -0.796651
-23.2994 13.1895 52.8303 0.565519 0.0313088 -0.824141
-23.2889 13.9563 52.8578 0.611706 0.0145063 -0.790922
-23.2728 14.9108 52.883 0.582366 0.00667716 -0.812899
-23.417 15.7532 52.8114 0.599677 0.0392384 -0.799105
-23.7051 16.4539 52.6151 0.610722 0.0294497 -0.791297
-24.08 17.0904 52.3652 0.624997 0.0707896 -0.777164
-24.7508 17.1387 51.7639 0.672652 0.0599119 -0.73753
-25.5423 17.1465 51.0027 0.705799 -0.00058684 -0.708412
-26.1477 17.1889 50.3906 0.724305 -0.0241106 -0.689049
-26.7358 17.2096 49.7779 0.715354 -0.0374883 -0.697691
-27.4515 17.3743 49.0248 0.713551 -0.0551619 -0.698369
-28.0484 17.4501 48.4078 0.715013 -0.0679909 -0.695797
-28.8125 17.695 47.5957 0.718254 -0.0673916 -0.69251
-29.1024 18.3509 47.2281 0.722799 -0.0734208 -0.687134
-29.3637 19.2566 46.8913 0.720765 -0.0296273 -0.692546
-29.4149 20.0746 46.8113 0.724192 -0.0170948 -0.689387
-29.3331 20.8085 46.8838 0.723296 -0.00725016 -0.690497
-28.9745 21.3512 47.2519 0.723414 -0.00884851 -0.690355
-28.5792 22.0158 47.6548 0.724087 -0.0105942 -0.689625
-28.1198 22.4719 48.1326 0.731687 -0.0129231 -0.681518
-27.6064 22.7129 48.6829 0.73421 -0.00722463 -0.678881
-27.0605 22.5872 49.2759 0.734091 -0.00657439 -0.679019
-26.5499 22.411 49.8336 0.737984 -0.0143286 -0.674659
-26.0358 22.4221 50.398 0.735921 -0.0204356 -0.676759
-25.4855 22.5458 50.9936 0.73715 -0.0253279 -0.675255
-25.1243 22.1946 51.4038 0.74512 -0.0296755 -0.666229
-25.2706 21.2794 51.269 0.746365 -0.0154851 -0.665356
-25.2544 20.3909 51.2974 0.74447 -0.00553406 -0.667616
-25.2867 19.4314 51.2688 0.739812 -0.00220549 -0.672809
-25.2424 18.6637 51.319 0.734618 -0.00221814 -0.67847
-24.9955 17.9415 51.5716 0.716607 0.0201625 -0.697168
-24.5254 17.5771 52.0051 0.676361 0.06312 -0.733835
-23.9134 17.5732 52.5431 0.625 0.0707905 -0.777162
-23.2026 17.4008 53.0826 0.620769 0.0948923 -0.77823
-22.6269 17.4971 53.5279 0.569697 0.0958682 -0.816244
-22.0156 17.2285 53.917 0.536418 0.119169 -0.835172
-21.4576 16.809 54.1993 0.450589 0.134436 -0.879161
-20.6215 16.4837 54.4762 0.299465 0.139429 -0.94371
-19.8343 16.2985 54.6801 0.246124 0.139412 -0.959034
-19.1106 16.0848 54.8233 0.190495 0.125007 -0.973696
-18.2751 16.1368 54.9822 0.149985 0.123052 -0.980766
-17.5605 16.6813 55.147 0.121692 0.149781 -0.981194
-16.8207 17.3496 55.3276 0.0876442 0.160262 -0.983176
-15.9503 17.515 55.4093 0.0431117 0.134894 -0.989922
-15.3765 17.5727 55.4387 0.0135118 0.116022 -0.993153
-14.6055 17.6362 55.455 0.00583582 0.0945515 -0.995503
-14.0235 17.5204 55.4574 0.00867915 0.0754245 -0.996961
-13.1553 17.6412 55.4622 0.0157106 0.0595296 -0.998103
-12.2636 17.6541 55.4533 -0.0149576 0.0444494 -0.9989
-11.4379 17.5819 55.4387 -0.0182434 0.0383036 -0.999072
-10.5429 17.6125 55.4233 -0.0201978 0.0241763 -0.999482
-9.70916 17.5795 55.4021 -0.0256591 0.0171746 -0.999523
-8.97273 17.513 55.3841 -0.0211303 0.0176177 -0.999621
-8.1483 17.5005 55.3653 -0.0299626 0.0111533 -0.999487
-7.25685 17.5059 55.3386 -0.0273514 0.00512231 -0.999613
-6.42606 17.4825 55.3161 -0.023316 0.00218994 -0.999726
-5.64384 17.505 55.295 -0.0321517 -0.00670758 -0.99946
-4.89137 17.5023 55.2761 -0.0225287 -0.00958074 -0.9997
-4.10404 17.5372 55.2551 -0.0259574 -0.0148071 -0.999553
-3.14881 17.5226 55.2308 -0.0249206 -0.0228062 -0.999429
-2.3649 17.4811 55.2099 -0.0333728 -0.0301401 -0.998984
-1.57616 17.5591 55.183 -0.0308914 -0.028104 -0.999128
-0.760048 17.9782 55.1494 -0.0182514 -0.019661 -0.999614
-0.450724 18.6781 55.1325 -0.021407 -0.0143316 -0.999666
-0.37135 19.659 55.1214 -0.0235793 -0.00434644 -0.999713
-0.333479 20.4077 55.1186 -0.0226452 -0.000878156 -0.999743
-0.305155 21.1957 55.1218 -0.0198602 0.0111475 -0.999741
-0.439406 22.1819 55.1487 -0.0276896 0.0350962 -0.999
-0.516222 22.6995 55.1702 -0.0289897 0.0414543 -0.99872
0.426243 22.7837 55.1363 -0.0432061 0.0204661 -0.998857
1.25942 22.8287 55.1092 -0.0236078 0.0220584 -0.999473
2.02139 22.8674 55.0942 -0.0172984 0.0239847 -0.999563
2.81383 22.8209 55.083 -0.00287753 0.0219751 -0.999739
3.56232 22.8059 55.0834 0.00262802 0.0505965 -0.998716
4.45025 22.8327 55.0682 -0.0349227 0.0449803 -0.998361
5.39519 22.7641 55.0372 -0.0189948 0.0310373 -0.999338
6.21925 22.7544 55.0247 -0.0267863 0.0530214 -0.998234
7.14938 22.8336 55.0006 -0.0337116 0.040956 -0.998575
7.96347 22.786 54.9794 -0.0210424 0.0506714 -0.998494
8.80966 22.8311 54.965 -0.00267234 0.0435639 -0.99902
9.56864 22.7787 54.9645 0.00319984 0.0630148 -0.998007
10.3836 22.8099 54.9543 -0.0341351 0.0643798 -0.997311
11.3478 22.81 54.9163 -0.0344976 0.0398889 -0.998608
12.2203 22.8961 54.8978 -0.0211867 0.0430764 -0.998847
13.0655 22.9981 54.8818 -0.0248264 0.0428233 -0.998774
14.0259 22.8385 54.8492 -0.0254822 0.0459473 -0.998618
14.0469 22.4222 54.8296 -0.0254305 0.0453789 -0.998646
13.5975 21.7572 54.8198 -0.0324258 0.0259573 -0.999131
13.4693 20.7694 54.8043 -0.0159498 0.0178796 -0.999713
13.3996 19.9957 54.7905 -0.0127467 0.0271154 -0.999524
13.6437 19.2052 54.7595 -0.0137075 0.0399688 -0.999107
13.9656 18.351 54.7151 -0.000359447 0.0556302 -0.998451
14.4468 17.4307 54.6321 -0.0283573 0.0896311 -0.995571
15.0364 16.932 54.5643 -0.0386717 0.10539 -0.993679
15.7288 16.6384 54.4921 -0.0685924 0.131201 -0.98898
16.4646 16.435 54.3871 -0.16998 0.138989 -0.975597
17.3978 16.7035 54.2472 -0.233638 0.152733 -0.96015
18.0586 17.1046 54.1151 -0.295854 0.144489 -0.944172
18.9178 17.2446 53.8442 -0.352797 0.118706 -0.927544
19.629 17.2943 53.5596 -0.36479 0.0773016 -0.927427
20.4282 17.3274 53.1555 -0.487365 0.0790294 -0.868646
21.0409 17.5467 52.7877 -0.551691 0.0690909 -0.831058
21.7498 17.684 52.2431 -0.670537 0.00176727 -0.741874
22.4983 17.6728 51.5592 -0.682773 -0.00488234 -0.730614
23.1714 17.6263 50.9242 -0.69563 -0.0317744 -0.717567
23.7166 17.678 50.3704 -0.716559 -0.0483804 -0.695828
24.3401 17.6235 49.7287 -0.723523 -0.0645793 -0.687273
24.9471 17.6191 49.0922 -0.719446 -0.0800525 -0.689879
25.0873 17.0889 49.0044 -0.715425 -0.0792786 -0.69416
24.8248 16.2708 49.3734 -0.709483 -0.0761975 -0.700504
24.7069 15.3386 49.591 -0.69392 -0.077136 -0.715853
24.7278 14.4892 49.6605 -0.686329 -0.0895122 -0.721762
24.9806 13.6773 49.5198 -0.692009 -0.0869466 -0.716634
25.4012 12.5023 49.2716 -0.678371 -0.0925315 -0.728849
25.349 11.6506 49.4329 -0.683078 -0.0938682 -0.724288
25.5828 10.8507 49.2975 -0.682706 -0.0765436 -0.726673
26.2617 10.2005 48.7471 -0.680024 -0.0860792 -0.728098
26.7576 9.4043 48.3709 -0.681123 -0.0812857 -0.727643
27.2404 8.43202 48.0251 -0.677956 -0.0751598 -0.73125
27.7051 7.52336 47.6957 -0.67478 -0.0777359 -0.733911
27.7283 6.73279 47.7542 -0.675543 -0.0736501 -0.733633
27.5952 5.95273 47.9507 -0.676025 -0.0633266 -0.734153
27.2853 5.16873 48.3005 -0.673918 -0.0587124 -0.73647
26.8417 4.72472 48.7321 -0.663083 -0.0466217 -0.747092
26.301 4.4556 49.2247 -0.656704 -0.0445395 -0.752832
25.4349 4.46976 49.9711 -0.646357 -0.0384437 -0.762066
24.675 4.83456 50.5744 -0.618248 -0.0384119 -0.785044
23.9452 5.06761 51.1226 -0.591018 -0.0449062 -0.805408
23.4433 4.67574 51.5127 -0.591028 -0.0449168 -0.805399
23.1705 4.39695 51.7188 -0.579621 -0.030633 -0.81431
29.6159 3.89606 46.2867 -0.668749 -0.0555691 -0.741409
29.6029 3.07683 46.3616 -0.665056 -0.0576357 -0.744566
30.0088 2.17925 46.0671 -0.666229 -0.0554347 -0.743684
30.5405 1.69231 45.6266 -0.665777 -0.0484791 -0.744572
31.2765 1.54965 44.9822 -0.663376 -0.0510833 -0.74654
32.0753 2.08565 44.2357 -0.659961 -0.0582079 -0.749042
32.4013 3.05787 43.8735 -0.658613 -0.0606985 -0.750022
32.2738 4.23284 43.8876 -0.660905 -0.0651473 -0.747629
31.7839 4.72021 44.276 -0.662732 -0.0669397 -0.745859
31.2088 5.06427 44.7561 -0.663127 -0.0672578 -0.745478
30.6066 5.03201 45.2977 -0.665658 -0.0660384 -0.743329
29.9462 4.55144 45.9322 -0.665991 -0.0662828 -0.743009
29.6245 3.93705 46.2755 -0.669879 -0.0643356 -0.739676
29.6174 3.91547 46.2839 -0.669832 -0.060181 -0.740054
35.4674 -1.49803 41.4974 -0.651679 -0.0349838 -0.757684
36.1346 -0.857572 40.8908 -0.650073 -0.0370989 -0.758959
36.8731 -0.843785 40.258 -0.650307 -0.0429732 -0.758455
37.5944 -1.28263 39.6658 -0.649562 -0.0410956 -0.759197
37.9389 -2.13378 39.4143 -0.648003 -0.0314274 -0.760989
37.5942 -3.33548 39.7533 -0.646187 -0.027501 -0.762683
36.9929 -3.77815 40.2804 -0.647647 -0.0236216 -0.761556
36.2082 -3.74731 40.9437 -0.647618 -0.0189093 -0.761727
35.6579 -3.45023 41.406 -0.648693 -0.0203988 -0.760777
35.3002 -2.67944 41.6909 -0.650667 -0.0216611 -0.759052
35.3448 -1.92341 41.6211 -0.6521 -0.0329409 -0.757415
41.4997 -8.63326 36.5486 -0.649469 -0.0104034 -0.760316
41.2452 -9.61209 36.7706 -0.63791 -0.00569779 -0.770089
41.3912 -10.3484 36.6551 -0.636791 -0.00221462 -0.771024
41.8834 -10.9084 36.2536 -0.640783 -0.0124797 -0.76762
42.6075 -11.2421 35.659 -0.646112 -0.0251862 -0.762666
43.3484 -11.1591 35.0086 -0.656978 -0.0256713 -0.753462
43.7845 -10.6156 34.602 -0.668738 -0.0229676 -0.743143
44.0267 -9.68633 34.3571 -0.670041 -0.0186328 -0.742084
43.8628 -8.77376 34.4801 -0.668154 -0.0187929 -0.743785
43.3176 -8.25131 34.9575 -0.66861 -0.0176009 -0.743405
42.5815 -7.97747 35.6048 -0.658338 -0.0104109 -0.75265
41.9097 -8.18121 36.1919 -0.651504 -0.00575146 -0.758624
41.5532 -8.55214 36.5018 -0.649469 -0.0104005 -0.760317
45.8434 -13.8614 32.7123 -0.724194 0.00119886 -0.689356
45.5164 -14.7506 33.0828 -0.735876 -0.0169648 -0.676904
45.6296 -15.6792 32.9849 -0.769229 -0.0222406 -0.638475
46.1327 -16.4421 32.3036 -0.831824 0.0350739 -0.553931
46.6418 -16.7603 31.5527 -0.80207 0.105434 -0.58785
47.2535 -16.726 30.8464 -0.697699 0.133317 -0.703877
47.8541 -16.4074 30.3358 -0.665417 0.144774 -0.732299
48.4457 -15.39 29.9883 -0.652966 0.124783 -0.747038
48.4754 -14.57 30.086 -0.646221 0.0973665 -0.756904
48.1315 -13.7814 30.4766 -0.635574 0.0901691 -0.766756
47.4525 -13.2744 31.1307 -0.683003 0.0463822 -0.728941
46.794 -13.186 31.7682 -0.699462 0.0480971 -0.71305
46.1491 -13.5489 32.4051 -0.712295 0.00686668 -0.701847
45.9968 -13.6847 32.5583 -0.712295 0.00686668 -0.701847
54.2501 -13.15 26.8561 -0.386155 0.0152918 -0.92228
54.5658 -14.1051 26.6993 -0.38503 0.0244565 -0.92258
55.1396 -14.5674 26.4532 -0.372425 0.0213252 -0.927771
55.8702 -14.7531 26.1682 -0.357558 0.0165441 -0.933744
56.7322 -14.4516 25.8593 -0.331451 0.0232275 -0.943154
57.3437 -13.8168 25.6674 -0.326385 0.0059093 -0.944938
57.4462 -12.7535 25.6217 -0.312192 -0.00706135 -0.949993
56.9739 -12.0777 25.7827 -0.353645 0.010429 -0.935322
56.2559 -11.6406 26.0556 -0.34879 0.00652109 -0.937178
55.4386 -11.6937 26.3727 -0.381209 8.68461e-05 -0.924489
54.7772 -12.0264 26.6461 -0.401493 0.00833812 -0.915749
54.3444 -12.7947 26.8199 -0.39695 0.0164836 -0.917573
55.019 -6.76618 26.4928 -0.397132 -0.0217023 -0.917505
54.2936 -6.43163 26.8041 -0.402629 -0.0105846 -0.915302
53.7863 -5.91557 27.0387 -0.43996 0.0076604 -0.897985
53.5048 -5.15222 27.1792 -0.446561 -0.0141666 -0.894412
53.6121 -4.19458 27.0868 -0.452218 -0.0376972 -0.89111
53.9864 -3.55612 26.875 -0.437122 -0.00632984 -0.899118
54.7394 -3.04183 26.5129 -0.43225 -0.0220849 -0.901483
55.4869 -2.9963 26.1971 -0.382207 -0.0374783 -0.923317
56.294 -3.20214 25.8911 -0.342532 -0.0442431 -0.938464
57.0837 -3.89986 25.6178 -0.348806 -0.0223482 -0.936894
57.4058 -5.06097 25.5326 -0.336215 -0.0251104 -0.94145
56.9842 -5.99304 25.7104 -0.330999 -0.031367 -0.94311
56.2582 -6.60541 25.9886 -0.350967 -0.0169164 -0.936235
55.5714 -6.78219 26.2576 -0.361104 -0.0272829 -0.932127
55.3882 -6.78113 26.3334 -0.397132 -0.0217025 -0.917505
54.7982 8.44063 26.146 -0.377401 -0.044489 -0.924792
55.54 8.55712 25.8477 -0.369915 -0.0248394 -0.928733
56.4204 8.69391 25.5204 -0.330344 -0.0239564 -0.943557
57.0046 9.40543 25.2896 -0.315833 -0.0311666 -0.948107
57.298 10.4876 25.1652 -0.278641 -0.0379724 -0.959644
57.2177 11.2629 25.1633 -0.315147 -0.0313267 -0.948511
56.5991 12.1023 25.3254 -0.306197 -0.04153 -0.950999
55.9759 12.5411 25.5214 -0.327221 -0.0358914 -0.944266
54.9226 12.4714 25.908 -0.350024 -0.0541526 -0.935174
54.2374 12.1956 26.186 -0.375801 -0.0668125 -0.924289
53.6491 11.8149 26.4527 -0.374733 -0.0625856 -0.925007
53.3553 11.0417 26.631 -0.403316 -0.0674076 -0.912575
53.1533 10.2239 26.7715 -0.400817 -0.0490192 -0.914829
53.6126 9.19066 26.6188 -0.398877 -0.0447376 -0.915901
54.2292 8.68354 26.3776 -0.388215 -0.032174 -0.921007
54.7077 8.4803 26.1829 -0.391435 -0.0387727 -0.919358
55.007 10.3371 25.9769 -0.364606 -0.0407481 -0.93027
55.52 10.4208 25.7722 -0.364499 -0.0396507 -0.930359
55.174 10.3037 25.913 -0.364608 -0.0407481 -0.930269
57.5553 15.7123 24.9241 -0.265947 -0.0193195 -0.963786
58.3051 15.9209 24.7138 -0.25227 -0.0160768 -0.967513
58.5237 17.1114 24.6295 -0.250045 -0.0232431 -0.967955
57.8117 17.4505 24.8092 -0.262819 -0.0167992 -0.964669
56.9326 16.803 25.0686 -0.267206 -0.0242473 -0.963331
57.5039 15.7702 24.9368 -0.264505 -0.0229023 -0.964112
40.4304 20.428 35.8577 -0.517756 -0.0293071 -0.855026
40.2817 21.1562 35.9277 -0.520486 -0.0218025 -0.853592
39.5759 22.0371 36.3154 -0.492013 -0.0320005 -0.869967
38.8731 22.2567 36.7082 -0.492603 -0.040334 -0.869309
38.0844 22.1456 37.1581 -0.502942 -0.0464227 -0.862944
37.2334 21.7062 37.6961 -0.515082 -0.0314261 -0.856381
36.8289 21.1091 37.9713 -0.569638 -0.0365072 -0.821085
36.8074 20.3536 38.0228 -0.559248 -0.0683436 -0.825917
37.1594 19.6415 37.8621 -0.547899 -0.0671305 -0.833723
37.6764 19.0827 37.5585 -0.54482 -0.0548031 -0.83676
38.3497 18.8183 37.1661 -0.501689 -0.0457697 -0.863836
39.1568 18.9171 36.685 -0.506319 -0.0408809 -0.861369
39.7532 19.2887 36.3138 -0.521442 -0.0363319 -0.852513
40.1776 19.9695 36.0265 -0.517755 -0.0293059 -0.855027
31.5318 20.2594 42.2273 -0.694396 -0.0182857 -0.719361
31.3239 19.5348 42.4599 -0.70379 -0.0475517 -0.708815
30.9839 18.9351 42.8545 -0.695658 -0.089217 -0.712811
30.4277 18.5641 43.4296 -0.678657 -0.0977774 -0.727909
29.8355 18.5948 44.0049 -0.693027 -0.0666844 -0.71782
29.3344 18.9279 44.4742 -0.709965 -0.0486609 -0.702554
28.8859 19.3781 44.8951 -0.709387 -0.0188522 -0.704567
28.534 20.0909 45.2337 -0.714072 -0.0144768 -0.699923
28.4773 20.8846 45.2784 -0.713955 -0.00931206 -0.700129
28.7301 21.648 45.0084 -0.719366 -0.00663354 -0.6946
29.0974 22.1828 44.6268 -0.717702 0.00258163 -0.696345
29.562 22.5094 44.1524 -0.707985 0.00411522 -0.706216
30.1046 22.6125 43.6094 -0.706 -0.00135342 -0.70821
30.6862 22.4396 43.0411 -0.694705 0.00848464 -0.719244
31.1098 21.9425 42.626 -0.697035 0.00620416 -0.71701
31.5057 21.0787 42.2412 -0.692863 -0.0021144 -0.721066
31.5358 20.5844 42.2152 -0.692989 -0.0171449 -0.720741
30.2817 20.6574 43.4459 -0.71137 -0.0187368 -0.702521
29.8102 20.7043 43.9218 -0.706967 -0.0156868 -0.707058
30.2361 20.4481 43.4999 -0.710674 -0.0268078 -0.703011
22.7585 22.6082 51.2832 -0.71711 -0.0220118 -0.696574
22.6679 22.6342 51.3757 -0.714689 -0.016648 -0.699235
10.1484 18.9782 54.8305 -0.0305736 0.0252246 -0.999212
9.80953 18.7623 54.8348 -0.0320713 0.0261153 -0.999142
9.07953 19.2948 54.867 -0.0279047 0.0153446 -0.999489
9.5836 19.4169 54.8555 -0.0245149 0.0141432 -0.999598
10.0584 19.2092 54.8387 -0.0311799 0.0234169 -0.999239
7.77574 15.8883 54.7803 -0.0466229 0.0556447 -0.997362
7.14055 16.3524 54.8359 -0.0581513 0.0491219 -0.99701
6.34841 16.6883 54.8928 -0.0551709 0.0297461 -0.998034
5.55461 16.7666 54.939 -0.0484179 0.0244087 -0.998492
4.80438 16.7836 54.9667 -0.0348596 0.0262939 -0.999046
3.51743 16.9131 55.0208 -0.0418736 0.0126219 -0.999043
2.61738 16.8269 55.0577 -0.048145 0.0123015 -0.998752
1.70999 16.8465 55.0924 -0.0342876 -0.00385181 -0.999405
0.925147 16.8934 55.1199 -0.0352944 -0.00826528 -0.999305
-0.148755 16.7596 55.1538 -0.0272514 -0.0148066 -0.999519
