21.5704 20.4299 52.8854 -0.625131 0.0186551 -0.77997
20.8396 20.3811 53.4255 -0.583813 0.0030344 -0.811795
20.8396 20.3811 53.4255 -0.583813 0.0030344 -0.811795
20.1957 20.4001 53.8241 -0.482302 0.00174372 -0.876003
19.5215 20.3557 54.1724 -0.426181 0.0102774 -0.904343
18.7108 20.3363 54.499 -0.321186 0.0238115 -0.946629
17.9987 20.3924 54.7323 -0.283916 0.0303091 -0.958351
17.2055 20.447 54.9081 -0.163986 0.000422735 -0.986463
16.3489 20.4431 54.9986 -0.0649482 0.0143227 -0.997786
15.5142 20.2926 55.0374 -0.0345786 0.0104418 -0.999347
15.6052 19.5583 55.0193 -0.0328823 0.0268656 -0.999098
15.8717 18.7711 54.9828 -0.0589207 0.0398264 -0.997348
16.5755 18.4966 54.9178 -0.0801699 0.0328414 -0.996226
17.3316 18.8506 54.8408 -0.153053 0.0421127 -0.98732
18.1602 19.0783 54.6564 -0.28222 0.0356217 -0.958688
18.9184 19.254 54.4172 -0.367349 0.0261692 -0.929489
19.6155 19.3515 54.1169 -0.444213 0.00700638 -0.895894
20.3211 19.5983 53.7518 -0.490005 -0.000886082 -0.871533
20.9982 19.7527 53.3184 -0.57609 -0.0465403 -0.81606
21.7167 19.8498 52.7593 -0.630985 0.00715538 -0.775564
22.3747 19.8786 52.1797 -0.680027 0.000267281 -0.73317
22.9129 19.705 51.6691 -0.701114 -0.00309186 -0.713042
23.454 19.8688 51.1289 -0.712223 0.00260678 -0.701878
23.9916 19.7984 50.5714 -0.724755 -0.00915554 -0.688945
24.6047 19.7791 49.9178 -0.731997 -0.00432993 -0.681294
25.1792 19.7354 49.3009 -0.732868 0.00108672 -0.680369
25.7185 19.7349 48.725 -0.728715 0.00613842 -0.68479
25.6702 20.4471 48.7814 -0.727538 0.00474361 -0.686051
25.1564 20.3063 49.3265 -0.729081 0.00108134 -0.684427
24.5703 20.4237 49.9504 -0.728845 -0.00400843 -0.684667
23.9883 20.4537 50.5693 -0.726129 -0.0050474 -0.68754
23.451 20.402 51.1305 -0.718406 -0.00191462 -0.695622
22.8329 20.3396 51.7487 -0.698999 0.00547028 -0.71509
22.269 20.4001 52.2816 -0.671763 0.00296475 -0.740653
21.6894 20.4273 52.7856 -0.64159 0.0123845 -0.766947
9.79362 19.9588 55.1763 -0.0317564 -9.6649e-05 -0.999496
9.26119 20.439 55.193 -0.0316443 -0.000453744 -0.999499
8.45597 20.4322 55.2189 -0.0324267 -8.17441e-05 -0.999474
7.69797 20.3957 55.2436 -0.0324283 0.000243536 -0.999474
6.85109 20.3864 55.271 -0.0322198 4.91069e-05 -0.999481
6.0746 20.3836 55.2962 -0.0325548 0.000186461 -0.99947
5.28036 20.4115 55.322 -0.0324924 0.000382438 -0.999472
4.41002 20.3456 55.3503 -0.0323579 0.000831908 -0.999476
3.58126 20.3651 55.3774 -0.0320956 0.00183166 -0.999483
2.7259 20.3754 55.4042 -0.0305959 0.00173037 -0.99953
1.90308 20.4432 55.4296 -0.0312204 0.000595727 -0.999512
1.03383 20.4602 55.457 -0.0321342 -0.000326494 -0.999484
0.225509 20.4427 55.4835 -0.033603 -0.00098285 -0.999435
-0.526927 20.3846 55.5091 -0.0342129 -0.000797125 -0.999414
-1.39621 20.4257 55.5393 -0.0346044 2.97282e-05 -0.999401
-2.15413 20.4434 55.5655 -0.0339597 0.000540471 -0.999423
-3.00197 20.4508 55.5941 -0.0336725 -6.46122e-05 -0.999433
-3.77109 20.4566 55.62 -0.033681 -0.000193555 -0.999433
-4.537 20.4188 55.6456 -0.0331663 -0.000126026 -0.99945
-5.29807 20.4333 55.6707 -0.0327661 -0.000365238 -0.999463
-6.05054 20.3848 55.6956 -0.0332563 -0.000652232 -0.999447
-6.82461 20.418 55.7215 -0.0333507 -0.00074661 -0.999443
-7.60282 20.4011 55.7475 -0.0332695 -0.000914644 -0.999446
-8.36465 20.3639 55.7725 -0.0319365 -0.00142974 -0.999489
-9.13779 20.4195 55.7972 -0.0314777 -0.000627927 -0.999504
-9.92395 20.3989 55.822 -0.0318279 0.000198632 -0.999493
-10.7095 20.406 55.8456 -0.0294419 0.00127458 -0.999566
-11.52 20.4037 55.8687 -0.0280176 0.001379 -0.999606
-12.2845 20.4096 55.8895 -0.0253004 0.00206451 -0.999678
-13.0626 20.3864 55.9082 -0.0223766 0.0010438 -0.999749
-13.8826 20.4373 55.9249 -0.0179278 0.00229613 -0.999836
-14.6763 20.4124 55.9378 -0.0129825 -0.000433818 -0.999915
-15.4748 20.4154 55.9452 -0.000740261 0.000308841 -0.999988
-16.3837 20.3473 55.9295 0.0256134 0.00784892 -0.999639
-17.2886 20.3038 55.8699 0.0927362 0.0224337 -0.994936
-18.0578 20.3544 55.7801 0.135762 0.026878 -0.99037
-18.8403 20.3709 55.6422 0.194654 0.0450217 -0.979838
-19.6042 20.4017 55.4562 0.274377 0.031285 -0.961113
-20.3821 20.3939 55.2005 0.347177 0.0367998 -0.936975
-21.1469 20.3901 54.8888 0.409581 0.0211545 -0.912028
-21.8347 20.4398 54.5221 0.512353 0.0160721 -0.858624
-22.635 20.3693 54.0301 0.546954 0.0020008 -0.837159
-23.1024 20.0971 53.717 0.567597 -0.0157606 -0.823156
-22.644 19.6137 54.0339 0.557639 -0.0094181 -0.830029
-22.1011 19.1877 54.3749 0.50701 -0.0105801 -0.861748
-21.5243 18.7145 54.6852 0.428111 0.0165476 -0.903194
-20.8706 18.4366 54.9609 0.385186 0.0340091 -0.922212
-20.1103 18.3067 55.2292 0.280941 0.0711288 -0.957086
-19.419 18.0578 55.3891 0.227148 0.0889026 -0.969788
-18.7552 18.3468 55.563 0.182548 0.0823796 -0.97974
-18.2489 18.9412 55.7059 0.180541 0.0470743 -0.982371
-17.6557 19.5474 55.8252 0.160702 0.0215701 -0.986765
-16.9403 19.8491 55.9004 0.0679243 0.00249073 -0.997687
-16.1681 19.8083 55.9343 0.0228707 -0.00197549 -0.999727
-15.3652 19.7868 55.9434 -0.00408413 0.000452451 -0.999987
-14.5076 19.785 55.935 -0.0134639 -0.000105948 -0.999909
-13.7317 19.7541 55.9217 -0.0188773 -0.00181941 -0.99982
-12.7413 19.8433 55.9003 -0.0236712 -0.00158915 -0.999718
-11.9951 19.7821 55.8811 -0.0271702 0.000738216 -0.999631
-11.1971 19.7417 55.8588 -0.0281862 0.00117973 -0.999602
-10.3946 19.7586 55.8357 -0.0292781 0.000154789 -0.999571
-9.59615 19.7481 55.8119 -0.0304033 -0.000246732 -0.999537
-8.76267 19.7185 55.7862 -0.0311345 -0.00218907 -0.999513
-7.97957 19.7542 55.7608 -0.0335943 -0.0018226 -0.999434
-7.05049 19.7451 55.7296 -0.0338522 -0.000733155 -0.999427
-6.27258 19.751 55.7035 -0.0334057 -0.000703458 -0.999442
-5.49927 19.805 55.6777 -0.0332512 -0.000186919 -0.999447
-4.63766 19.7839 55.649 -0.0330772 -2.62951e-05 -0.999453
-3.77797 19.7455 55.6204 -0.0337399 -0.000250945 -0.999431
-3.01102 19.8009 55.5943 -0.0340282 5.06901e-05 -0.999421
-2.26098 19.7909 55.5688 -0.0341464 3.54278e-05 -0.999417
-1.46915 19.7368 55.5416 -0.0343444 -4.91304e-05 -0.99941
-0.688104 19.72 55.515 -0.0340366 -0.000457025 -0.99942
0.06941 19.7542 55.4894 -0.0336905 -0.000666705 -0.999432
0.893383 19.8096 55.4617 -0.0329106 -0.000132434 -0.999458
1.66464 19.7717 55.4367 -0.0318523 0.000259176 -0.999493
2.43047 19.7139 55.4123 -0.0316574 0.00128616 -0.999498
3.23261 19.6919 55.3872 -0.0313494 0.00131773 -0.999508
4.03916 19.6987 55.3617 -0.0317199 0.000878195 -0.999496
4.83054 19.729 55.3363 -0.0323716 0.000584122 -0.999476
5.77875 19.7257 55.3056 -0.0323591 0.000399802 -0.999476
6.60904 19.6812 55.2788 -0.0323509 -0.000171683 -0.999477
7.37217 19.678 55.254 -0.0324345 0.000162378 -0.999474
8.26669 19.6807 55.2251 -0.0321218 -0.000303581 -0.999484
9.04165 19.6989 55.2002 -0.0319555 -2.59954e-05 -0.999489
9.61836 19.7253 55.1819 -0.03175 -9.34398e-05 -0.999496
17.6649 -19.2347 54.3412 -0.178584 0.00776806 -0.983604
18.4068 -19.2681 54.1805 -0.23811 0.0113932 -0.971016
19.1703 -19.2242 53.9664 -0.290669 0.0118619 -0.95675
19.932 -19.4067 53.691 -0.391922 0.0322593 -0.918491
20.5924 -19.5802 53.3624 -0.47712 0.0231491 -0.878504
21.2921 -19.6183 52.9318 -0.554718 0.025143 -0.831408
21.9979 -19.6636 52.4312 -0.606331 0.0103068 -0.794922
22.6134 -19.6352 51.9389 -0.638952 -0.00457556 -0.769233
23.2076 -19.602 51.4338 -0.651174 0.00692359 -0.758897
23.8601 -19.5631 50.8409 -0.688064 0.00898824 -0.725594
24.4652 -19.5539 50.2548 -0.702474 0.00145655 -0.711708
25.0513 -19.5669 49.6723 -0.704461 -0.00191803 -0.709736
25.2279 -20.1658 49.4993 -0.70084 -0.00165363 -0.713304
24.642 -20.202 50.0777 -0.701712 0.00326436 -0.712451
24.1036 -20.2954 50.6041 -0.693984 0.00339508 -0.719982
23.5593 -20.2683 51.1181 -0.674328 0.00486282 -0.738396
22.8751 -20.2181 51.7207 -0.657968 -0.00874146 -0.752921
22.2398 -20.2198 52.2422 -0.614298 -0.00074402 -0.789042
21.6147 -20.2913 52.7113 -0.574194 -0.00712286 -0.818688
20.9787 -20.2291 53.1259 -0.510777 -0.0321357 -0.858992
20.2648 -20.2384 53.5231 -0.449601 -0.0385696 -0.892396
19.5601 -20.2175 53.8399 -0.381699 -0.032622 -0.923711
18.7887 -20.3055 54.0957 -0.263839 -0.0449712 -0.963518
17.994 -20.2561 54.293 -0.2085 -0.038817 -0.977034
17.1164 -20.235 54.4312 -0.115419 -0.0307273 -0.992681
16.3188 -20.2823 54.5022 -0.0434717 -0.0214541 -0.998824
15.6543 -19.9391 54.5142 -0.00303365 -0.00379971 -0.999967
16.2942 -19.5617 54.4973 -0.0312726 0.0081114 -0.999478
17.1204 -19.4102 54.4244 -0.124046 0.00636152 -0.992256
17.4548 -19.2937 54.3736 -0.1577 0.00563259 -0.987444
-16.6169 -19.7517 53.8099 0.192841 0.00949493 -0.981184
-17.1205 -19.3963 53.7027 0.289941 0.000372767 -0.957044
-17.8453 -19.5334 53.4496 0.380003 0.00769506 -0.924953
-18.6006 -19.5354 53.1169 0.410044 -0.0100752 -0.91201
-19.3048 -19.5676 52.793 0.423283 -0.00943117 -0.905948
-20.0898 -19.5071 52.4232 0.433556 0.00415715 -0.901117
-20.8526 -19.6009 52.0427 0.451425 0.01987 -0.892088
-21.5629 -19.5759 51.6188 0.579761 0.044753 -0.813453
-22.2277 -19.6327 51.1168 0.635487 0.0155229 -0.771664
-22.8187 -19.5779 50.5819 0.679662 -0.00739024 -0.733488
-23.4429 -19.5857 49.9877 0.697194 -0.00426672 -0.71687
-24.099 -19.5758 49.3337 0.710342 -0.00924326 -0.703794
-24.6445 -19.626 48.7845 0.709586 -0.0128551 -0.704502
-25.1894 -19.656 48.2373 0.708564 -0.0101592 -0.705565
-25.7966 -19.6199 47.6267 0.707273 -0.00147584 -0.706939
-26.3283 -19.5837 47.0937 0.707842 0.00162878 -0.706368
-26.9976 -19.6495 46.4222 0.708802 -0.000609379 -0.705407
-27.5438 -19.5852 45.8703 0.712588 -0.00615031 -0.701556
-28.0909 -19.5311 45.3101 0.718407 -0.00691144 -0.695588
-28.3327 -20.0548 45.0652 0.721339 -0.00560147 -0.69256
-27.8509 -20.2797 45.5634 0.714498 -0.00631386 -0.699609
-27.2697 -20.2156 46.1518 0.708114 -0.00445978 -0.706075
-26.7302 -20.221 46.6895 0.70666 0.000272106 -0.707551
-26.1579 -20.2253 47.2623 0.708365 0.00258793 -0.705842
-25.5369 -20.2228 47.8906 0.71234 -0.000580027 -0.701835
-25.0125 -20.2002 48.4252 0.709946 -0.0137257 -0.704122
-24.4669 -20.1863 48.9734 0.706077 -0.0140703 -0.707995
-23.9163 -20.1995 49.5242 0.707498 -0.00630401 -0.706683
-23.3808 -20.2622 50.0527 0.693508 -0.00239868 -0.720444
-22.8357 -20.2096 50.5717 0.681661 -0.00347177 -0.731635
-22.2742 -20.2008 51.0746 0.646909 -0.00657715 -0.762539
-21.6449 -20.2395 51.5632 0.564709 -0.0206155 -0.824357
-20.9672 -20.2687 51.9797 0.482603 -0.0253212 -0.875047
-20.1751 -20.2474 52.3821 0.436814 -0.014143 -0.899373
-19.4155 -20.276 52.745 0.425034 -0.00106871 -0.905177
-18.5581 -20.2648 53.1456 0.423552 -0.0153998 -0.905741
-17.8423 -20.2278 53.4546 0.365877 0.00290339 -0.930659
-16.9644 -20.2473 53.7466 0.234952 -0.0118512 -0.971111
-16.62 -19.8317 53.8085 0.174169 0.0223769 -0.984195
-46.037 -19.7717 33.2253 0.908373 0.00666192 -0.418105
-46.3659 -19.4937 32.4916 0.916584 -0.00250991 -0.399834
-46.6376 -19.7894 31.8511 0.923352 -0.0142078 -0.383661
-46.4495 -20.229 32.3117 0.914821 -0.0175338 -0.403479
-46.0564 -20.1866 33.1806 0.908627 0.000248107 -0.417608
-46.0387 -19.9571 33.2192 0.908208 0.00290847 -0.4185
-46.8455 19.7223 33.6861 0.853139 0.00991747 -0.521507
-46.6064 20.3095 34.072 0.840688 0.00533357 -0.541494
-47.0258 20.4904 33.4093 0.85441 0.014886 -0.519384
-47.2277 19.9315 33.0521 0.864415 0.0224418 -0.502185
-46.9691 19.724 33.4798 0.857084 0.0101522 -0.515069
45.2273 19.858 32.5415 -0.90066 -8.62138e-05 -0.434525
45.4201 20.5058 32.1471 -0.90329 0.0129237 -0.428765
45.7868 20.3535 31.343 -0.912103 0.00296789 -0.409951
45.6868 19.6982 31.5558 -0.911159 9.66854e-05 -0.412054
45.3692 19.6949 32.2455 -0.90657 -0.0028448 -0.422012
45.246 19.7916 32.5027 -0.900658 -9.36426e-05 -0.434529
46.3481 -19.5477 32.9499 -0.912256 0.00198551 -0.409615
46.0108 -19.5931 33.6879 -0.908168 0.00265933 -0.418596
46.0224 -20.2744 33.6707 -0.907757 -0.00839344 -0.419411
46.3325 -20.293 32.9905 -0.912406 -0.00497632 -0.409255
