17.5305 -10.6774 53.9341 -0.136867 -0.00742892 -0.990561
17.5303 -9.9022 53.9313 -0.131646 0.00202206 -0.991295
17.5236 -9.08589 53.9307 -0.131363 -0.0041879 -0.991325
17.511 -8.17889 53.9293 -0.131527 -0.000363816 -0.991312
17.586 -7.22125 53.9167 -0.128745 -0.00359897 -0.991671
17.7078 -6.45823 53.8991 -0.128382 0.00207953 -0.991723
17.6757 -5.61195 53.9062 -0.126802 0.00526172 -0.991914
17.6421 -4.85764 53.9151 -0.124273 0.00719452 -0.992216
17.6935 -4.09048 53.9113 -0.118229 0.00220873 -0.992982
17.6834 -3.21511 53.9156 -0.115713 0.00153319 -0.99328
17.6509 -2.42291 53.9209 -0.112605 0.00148054 -0.993639
17.6495 -1.55454 53.9235 -0.111914 0.00363348 -0.993711
17.6702 -0.701271 53.925 -0.110158 0.00585744 -0.993897
17.6242 0.0546744 53.9354 -0.109042 0.00732264 -0.99401
17.5052 0.906409 53.9543 -0.10741 0.00754247 -0.994186
17.5263 1.83769 53.9574 -0.108066 0.00354252 -0.994131
17.6933 2.59659 53.943 -0.109797 0.00380395 -0.993947
17.7973 3.49959 53.9338 -0.113651 0.00559945 -0.993505
17.819 4.2805 53.9357 -0.116186 0.00750733 -0.993199
17.6873 5.04005 53.9594 -0.116831 0.0203766 -0.992943
17.5109 5.88 53.9987 -0.117641 0.0228114 -0.992794
17.3703 6.74007 54.0357 -0.116222 0.0262941 -0.992871
17.2932 7.57042 54.0685 -0.114059 0.0297378 -0.993029
17.1652 8.54612 54.1166 -0.118259 0.0347334 -0.992375
16.8898 9.25709 54.1723 -0.112469 0.0390318 -0.992877
16.2275 10.1621 54.2884 -0.114311 0.0446768 -0.99244
15.5748 10.5972 54.3802 -0.094968 0.0515157 -0.994139
14.3629 10.6822 54.5036 -0.090696 0.0548362 -0.994345
13.6621 10.3809 54.5459 -0.0707189 0.0531905 -0.99601
12.9671 9.89446 54.5705 -0.0669751 0.0539964 -0.996292
12.2977 9.34974 54.5777 -0.0394783 0.0404265 -0.998402
11.7391 8.8338 54.5808 -0.0338262 0.0275754 -0.999047
11.0499 8.22925 54.5852 -0.0262917 0.0231283 -0.99938
10.5051 7.70198 54.5874 -0.0161214 0.0169112 -0.999722
9.88321 7.10755 54.5861 -0.00910837 0.0154851 -0.999835
9.27887 6.50598 54.5814 -0.00766797 0.0158095 -0.999845
8.57586 5.85298 54.5722 0.00392772 0.0112304 -0.999929
8.04369 5.26489 54.5632 0.00658579 0.00868323 -0.999941
7.46199 4.62602 54.5521 0.0112004 0.00578595 -0.999917
6.84474 4.0541 54.5402 0.0193954 0.00283899 -0.999808
6.08861 3.59318 54.5259 0.0220885 -0.00559672 -0.99974
5.35904 2.87572 54.5142 0.0324753 -0.012289 -0.999397
4.85715 2.15163 54.5077 0.0309457 -0.0158714 -0.999395
4.37106 1.5737 54.5036 0.034694 -0.0244324 -0.999099
3.67088 0.975049 54.4957 0.0277041 -0.0206136 -0.999402
3.00764 0.377238 54.4858 0.0371219 -0.0194042 -0.999122
2.546 -0.338124 54.4822 0.0498867 -0.0205517 -0.99853
1.9829 -1.16009 54.4785 0.0470786 -0.0308947 -0.998413
1.39651 -1.65674 54.4633 0.052473 -0.027507 -0.998243
0.823532 -2.14061 54.4444 0.0652656 -0.0347887 -0.997261
0.208105 -2.67506 54.4222 0.0622713 -0.0411494 -0.997211
-0.357907 -3.26138 54.4066 0.0621512 -0.0300602 -0.99761
-0.875461 -3.8158 54.3866 0.0728767 -0.0322188 -0.99682
-1.40355 -4.35059 54.3657 0.0682796 -0.0283989 -0.997247
-2.1514 -5.00955 54.3283 0.0763289 -0.0295479 -0.996645
-2.87683 -5.49481 54.2869 0.0755084 -0.0257525 -0.996809
-3.56025 -6.04573 54.2519 0.0736023 -0.0365857 -0.996616
-4.10843 -6.71434 54.2275 0.0833175 -0.029566 -0.996084
-4.61017 -7.49697 54.2105 0.0808502 -0.0317439 -0.996221
-5.25698 -8.20667 54.1789 0.081315 -0.0254113 -0.996364
-5.94395 -8.90297 54.1404 0.080747 -0.0232597 -0.996463
-6.62374 -9.46525 54.0979 0.0818947 -0.0194734 -0.996451
-7.26499 -9.94033 54.0543 0.0828665 -0.018952 -0.99638
-7.98251 -10.5054 54.0055 0.0804561 -0.0158047 -0.996633
-8.59663 -11.0414 53.9661 0.0761858 -0.0137341 -0.996999
-9.26443 -11.6776 53.9212 0.0752537 -0.00728092 -0.997135
-9.80068 -12.3324 53.884 0.075223 -0.00715879 -0.997141
-10.2508 -13.1133 53.8573 0.0723245 -0.00915928 -0.997339
-10.6269 -13.9517 53.8397 0.0658314 -0.0119842 -0.997757
-10.8939 -14.724 53.8332 0.0588937 -0.0165878 -0.998126
-10.8621 -15.8269 53.8571 0.0459312 -0.0196738 -0.998729
-10.2163 -16.7048 53.8959 0.0384934 -0.0113879 -0.999194
-9.3419 -17.2573 53.9256 0.0281339 -0.00801167 -0.999572
-8.60578 -17.4567 53.9453 0.0304411 0.013885 -0.99944
-7.82694 -17.5125 53.9705 0.0399023 0.0293418 -0.998728
-6.64289 -17.5451 54.0071 0.0358612 0.035289 -0.998725
-5.89961 -17.7547 54.0244 0.0341752 0.0468934 -0.998314
-5.14124 -17.7749 54.0472 0.0310765 0.0487752 -0.998324
-4.21407 -17.5661 54.0897 0.0332743 0.0603539 -0.997622
-3.31999 -17.4537 54.1247 0.0276918 0.0680079 -0.997296
-2.45861 -17.4484 54.151 0.0300347 0.0702651 -0.997076
-1.66374 -17.4762 54.1713 0.0237409 0.0712454 -0.99717
-0.823221 -17.6994 54.1749 0.0260239 0.071595 -0.997094
0.212437 -17.7542 54.194 0.0114451 0.0718056 -0.997318
0.979641 -17.7558 54.2058 0.0431297 0.0620832 -0.997005
1.77788 -17.7947 54.2212 0.0189996 0.0548655 -0.998313
2.67633 -17.7206 54.2426 0.0148791 0.0736371 -0.997166
3.46375 -17.8211 54.2496 0.0276782 0.0636738 -0.997574
4.22859 -17.8306 54.267 0.013876 0.0743047 -0.997139
5.19417 -17.6823 54.2964 0.0236477 0.0675587 -0.997435
6.04771 -17.7627 54.3069 0.0205718 0.0723723 -0.997166
7.22507 -17.7162 54.3334 0.0207327 0.0577048 -0.998118
8.24159 -17.6068 54.3612 0.0215884 0.0561066 -0.998191
9.04515 -17.7019 54.3706 0.0225062 0.0559627 -0.998179
9.82256 -17.9107 54.3811 0.0221253 0.0448368 -0.998746
10.5651 -18.0781 54.3889 0.0244737 0.0415885 -0.998835
11.3967 -18.0906 54.4097 0.020584 0.0330125 -0.999243
12.2509 -17.9607 54.441 0.0330359 0.0203252 -0.999247
12.6133 -18.3934 54.4456 0.0257467 0.0125821 -0.999589
12.3928 -19.1493 54.4313 0.0386025 0.0075377 -0.999226
12.2075 -20.2193 54.4228 0.0367468 -0.000927301 -0.999324
12.2312 -21.0144 54.4275 0.0361961 -0.00497461 -0.999332
11.8313 -21.5616 54.4176 0.0352944 -0.0105537 -0.999321
11.0203 -21.5381 54.3871 0.0355088 -0.0114923 -0.9993
10.1757 -21.5085 54.3532 0.0402714 -0.015177 -0.999073
9.42435 -21.5092 54.3274 0.0314486 -0.0102767 -0.999453
8.55612 -21.5014 54.2998 0.0283557 -0.00973552 -0.999547
7.77695 -21.4769 54.2767 0.030559 -0.0126173 -0.999453
6.92895 -21.4618 54.2524 0.0252642 -0.0156479 -0.999552
6.0659 -21.4688 54.2294 0.0262164 -0.0152235 -0.99954
5.31278 -21.4171 54.2095 0.0250741 -0.0090108 -0.999645
4.46062 -21.3917 54.1873 0.0281449 -0.00596451 -0.999578
3.68118 -21.4364 54.167 0.0264958 -0.00524467 -0.999634
2.9081 -21.4551 54.1469 0.0268572 -0.00408929 -0.999631
2.05455 -21.4665 54.1272 0.0189826 -0.00093062 -0.999819
1.13973 -21.4736 54.1121 0.0170409 -0.00432382 -0.999845
0.164573 -21.4092 54.0918 0.0188262 -0.00575528 -0.999804
-0.665659 -21.3545 54.0787 0.012218 -0.00505697 -0.999913
-1.43938 -21.3761 54.0704 0.0108313 -0.0108547 -0.999882
-2.1947 -21.4313 54.0588 0.0236225 -0.00907591 -0.99968
-2.95044 -21.4242 54.0411 0.0236592 -0.00981408 -0.999672
-3.78324 -21.3554 54.0198 0.0312071 -0.00708897 -0.999488
-4.57609 -21.3983 53.9952 0.0274744 -0.003807 -0.999615
-5.53148 -21.4023 53.9694 0.0254784 -0.00987354 -0.999613
-6.41243 -21.3373 53.9519 0.0151188 -0.00385762 -0.999878
-7.17547 -21.4225 53.9514 -0.00422531 -0.0123126 -0.999915
-7.95752 -21.5019 53.9651 -0.0227177 -0.0255488 -0.999383
-8.75604 -21.4998 53.9799 -0.0119048 -0.0420941 -0.999028
-9.52311 -21.4787 53.9838 -0.000949449 -0.0411053 -0.999142
-10.3012 -21.4614 53.985 -0.00369001 -0.0327551 -0.999457
-11.1512 -21.4732 53.9945 -0.015573 -0.0310704 -0.999396
-12.0064 -21.4735 54.0078 -0.0158688 -0.0302957 -0.999415
-12.8276 -21.2714 54.0035 0.00403289 -0.0363067 -0.999315
-13.0734 -20.4512 53.9728 0.0141896 -0.0337975 -0.999327
-13.1999 -19.5764 53.9445 0.00963834 -0.0293536 -0.999523
-13.3117 -18.5731 53.906 0.0146733 -0.0536527 -0.998452
-13.4781 -17.7927 53.8563 0.0186061 -0.0626117 -0.997861
-13.7992 -17.1071 53.8007 0.0279957 -0.0663812 -0.997397
-14.3555 -16.4546 53.7295 0.0436502 -0.0845297 -0.995423
-15.2221 -15.9584 53.6304 0.0808254 -0.107146 -0.990898
-16.0331 -15.7536 53.5234 0.130853 -0.112704 -0.984975
-16.8422 -15.7345 53.3928 0.184845 -0.113407 -0.976202
-17.5982 -16.0114 53.2677 0.245551 -0.126557 -0.961087
-18.3387 -16.1407 53.0687 0.313833 -0.0818453 -0.945728
-19.082 -16.2465 52.7997 0.368247 -0.0447572 -0.92865
-19.9624 -16.4028 52.4277 0.42443 -0.0569656 -0.903493
-20.6836 -16.4315 52.0552 0.468664 -0.03155 -0.882813
-21.3693 -16.2161 51.6198 0.535077 -0.0669019 -0.84215
-22.4123 -16.0899 50.9292 0.576914 0.0280131 -0.816324
-23.0835 -16.0819 50.442 0.620813 0.0595848 -0.780858
-23.8309 -16.0639 49.8744 0.603763 0.0893044 -0.792146
-24.3342 -15.2589 49.5753 0.617768 0.139159 -0.773929
-24.7064 -14.5388 49.4125 0.617857 0.144662 -0.772868
-25.1406 -13.947 49.1929 0.59221 0.161945 -0.789342
-25.5608 -13.2054 49.0184 0.5786 0.158438 -0.799832
-26.3551 -12.5106 48.61 0.561845 0.173135 -0.808915
-26.7364 -11.6998 48.5203 0.558623 0.171315 -0.811536
-27.2056 -10.9716 48.3496 0.572255 0.170117 -0.802228
-27.7976 -10.394 48.0409 0.563719 0.153035 -0.81162
-28.4431 -9.89902 47.6941 0.553687 0.164935 -0.816177
-29.1476 -9.62531 47.2809 0.547459 0.158292 -0.82165
-29.7679 -9.18389 46.9423 0.563324 0.156949 -0.811192
-30.5645 -8.63195 46.5079 0.54772 0.165436 -0.820142
-31.3258 -7.84526 46.1379 0.561476 0.145517 -0.814583
-31.7513 -7.16639 45.9594 0.573351 0.120332 -0.810233
-32.1237 -6.50779 45.7784 0.575345 0.103335 -0.811356
-32.4786 -5.85288 45.6131 0.573528 0.107794 -0.812063
-32.9027 -4.73197 45.4419 0.570888 0.0800722 -0.817084
-32.3467 -4.00326 45.8965 0.565222 0.080999 -0.820953
-31.2567 -4.5026 46.5892 0.557491 0.0825482 -0.826069
-30.6937 -5.00568 46.9194 0.552696 0.0828958 -0.82925
-29.9821 -5.42857 47.347 0.547767 0.0837774 -0.832425
-29.4429 -5.90563 47.6516 0.545865 0.0852408 -0.833526
-28.9242 -6.53734 47.914 0.550121 0.102666 -0.82875
-28.4511 -7.27456 48.1289 0.542666 0.123022 -0.830891
-28.0752 -8.19906 48.2343 0.539662 0.127255 -0.832209
-27.554 -9.16031 48.4273 0.543278 0.126665 -0.829943
-26.8682 -9.84747 48.774 0.546432 0.123663 -0.828324
-26.17 -10.1434 49.1896 0.540291 0.12361 -0.832345
-25.53 -10.2961 49.5801 0.538442 0.125299 -0.833295
-24.8692 -10.4054 49.9873 0.518445 0.120154 -0.846618
-24.1547 -10.3515 50.4295 0.515648 0.122442 -0.848007
-23.4261 -10.0793 50.8923 0.483297 0.108997 -0.868634
-22.8063 -9.51464 51.3055 0.479083 0.109625 -0.870897
-22.3772 -8.96603 51.6106 0.476756 0.114463 -0.871535
-22.1034 -8.12179 51.859 0.447889 0.107686 -0.887555
-21.9097 -7.25031 52.0646 0.437654 0.133393 -0.889049
-22.0347 -6.36187 52.1406 0.463732 0.108706 -0.879281
-21.8408 -5.39298 52.3652 0.45584 0.119278 -0.882031
-21.8798 -4.33032 52.4654 0.430722 0.0937493 -0.897602
-21.951 -3.38584 52.5491 0.435066 0.130637 -0.890871
-21.9759 -2.5173 52.6506 0.42928 0.0967475 -0.897975
-21.9225 -1.74309 52.7595 0.435045 0.094389 -0.895423
-22.0584 -0.900459 52.791 0.411188 0.10013 -0.906035
-22.0465 -0.0192384 52.8932 0.42395 0.105288 -0.899545
-22.0221 0.824899 53.0013 0.4055 0.0824836 -0.910125
-21.9588 1.58549 53.1273 0.365903 0.155755 -0.917527
-21.9291 2.37475 53.2295 0.418469 0.0700227 -0.905528
-21.952 3.24301 53.3112 0.349613 0.0654586 -0.933114
-22.0703 4.09424 53.3046 0.404383 0.0492031 -0.913265
-22.2662 5.16149 53.3049 0.452915 0.0637338 -0.889273
-22.2857 6.15304 53.3905 0.431742 0.106361 -0.895704
-22.2699 7.25098 53.5108 0.489831 0.0847324 -0.86769
-22.3055 8.03218 53.5566 0.480404 0.054887 -0.875328
-22.4373 8.95339 53.6062 0.50703 0.103347 -0.855651
-22.5462 9.77962 53.6209 0.525141 -0.00417226 -0.850546
-22.5956 10.7535 53.6167 0.51607 0.0313261 -0.855973
-22.6118 11.5995 53.6497 0.510983 0.0901696 -0.854093
-22.4712 12.7611 53.8035 0.45382 0.0695242 -0.888206
-22.4199 13.6442 53.8959 0.524075 0.0420642 -0.849301
-22.4296 14.4502 53.9038 0.520903 -0.00613953 -0.853594
-22.4991 15.2364 53.8653 0.513266 0.0374525 -0.857396
-22.0543 15.4258 54.138 0.509673 0.0407429 -0.859403
-21.4737 14.9901 54.4136 0.398767 0.0171861 -0.915934
-21.0394 14.3313 54.5611 0.336667 0.00798506 -0.941125
-20.5781 13.7357 54.6508 0.255221 0.0739866 -0.964048
-19.953 13.1664 54.7542 0.180046 0.102897 -0.978262
-19.2473 12.844 54.8451 0.16596 0.0997325 -0.981076
-18.3561 12.7629 54.9664 0.124995 0.108642 -0.98619
-18.0509 12.0828 54.9296 0.124166 0.108034 -0.986363
-17.9889 11.1899 54.8427 0.114425 0.0994956 -0.988435
-18.0098 10.4214 54.7598 0.114622 0.106547 -0.987679
-18.0393 9.52274 54.6638 0.10803 0.104213 -0.98867
-17.9542 8.66515 54.5831 0.105212 0.106765 -0.988702
-17.8716 7.83261 54.504 0.102197 0.102048 -0.989516
-17.8219 7.07132 54.4294 0.103094 0.104181 -0.989199
-17.7318 6.13337 54.3432 0.101805 0.0993915 -0.989827
-17.6134 5.27861 54.2714 0.100112 0.0928938 -0.99063
-17.6986 4.37716 54.1783 0.099769 0.0927223 -0.990681
-17.9125 3.48784 54.0744 0.0990609 0.0922559 -0.990795
-18.0373 2.65701 53.9844 0.0996988 0.093806 -0.990586
-18.0639 1.84544 53.9061 0.099568 0.08512 -0.991383
-18.0463 1.09725 53.8416 0.101703 0.0917335 -0.990568
-18.1264 0.247323 53.754 0.108826 0.0933344 -0.989667
-18.0195 -0.513566 53.6935 0.111981 0.0877858 -0.989817
-17.8375 -1.26376 53.6503 0.110367 0.0823387 -0.990474
-17.8399 -2.06358 53.5842 0.114561 0.0789989 -0.99027
-17.8048 -2.97381 53.5143 0.111817 0.077582 -0.990696
-17.833 -3.86934 53.4416 0.11491 0.0750708 -0.990535
-17.9406 -4.61634 53.3733 0.116107 0.0725299 -0.990583
-17.9189 -5.40602 53.3189 0.117549 0.071707 -0.990475
-17.8272 -6.21463 53.2727 0.126202 0.0657155 -0.989819
-17.8438 -7.16511 53.2069 0.129736 0.066123 -0.989341
-17.8281 -8.05112 53.1455 0.14364 0.0689857 -0.987223
-17.7541 -8.89963 53.0967 0.143677 0.0693649 -0.987191
-17.4798 -9.74048 53.0984 0.172196 0.0444776 -0.983974
-17.0345 -10.3571 53.1456 0.18788 0.0324971 -0.98137
-16.3119 -10.7391 53.2643 0.145545 0.00253458 -0.989348
-15.4035 -10.8046 53.3949 0.13391 0.00791978 -0.990962
-14.2741 -10.599 53.5304 0.118332 0.0096149 -0.992879
-13.3206 -10.063 53.6318 0.0917295 0.0180462 -0.99562
-12.552 -9.5552 53.7067 0.0853711 0.0208457 -0.996118
-11.9371 -9.03779 53.7645 0.0661552 0.0226375 -0.997536
-11.3752 -8.30836 53.8184 0.0546613 0.0281707 -0.998104
-10.6207 -7.85356 53.8713 0.0498691 0.0263769 -0.998403
-9.80235 -7.19133 53.927 0.0380103 0.0297966 -0.998828
-9.37512 -6.55332 53.9635 0.0338561 0.0365095 -0.99876
-9.01623 -5.79844 54.0033 0.0276645 0.0429943 -0.998678
-8.54189 -5.10899 54.0469 0.0160715 0.0481982 -0.998708
-7.88732 -4.51477 54.091 0.0265173 0.056623 -0.998043
-7.22631 -3.93176 54.1367 0.00774566 0.0504908 -0.998684
-6.60491 -3.40278 54.169 0.0127833 0.0573453 -0.998273
-5.94145 -2.84683 54.2071 0.0120241 0.0580066 -0.998238
-5.26849 -2.27248 54.2476 0.00232805 0.0596451 -0.998193
-4.63147 -1.64666 54.2905 -0.00572396 0.0722707 -0.99735
-4.1568 -1.03944 54.3277 -0.0122033 0.0746433 -0.997125
-3.58545 -0.130434 54.392 -0.0178451 0.0799511 -0.996633
-3.13682 0.485755 54.431 -0.0183511 0.0783626 -0.996752
-2.5097 1.03042 54.4615 -0.0233281 0.0741062 -0.996967
-1.75218 1.55706 54.4793 -0.026586 0.0698999 -0.99719
-1.14494 2.03432 54.4937 -0.0438983 0.0866536 -0.995271
-0.478596 2.57145 54.5173 -0.0197622 0.0691196 -0.997379
0.153978 3.32683 54.5516 -0.0353999 0.0774093 -0.996371
0.677087 3.95782 54.5789 -0.0452239 0.0794365 -0.995814
1.45791 4.65166 54.5879 -0.0511727 0.0827757 -0.995219
2.07494 5.24209 54.6148 -0.0369447 0.0897002 -0.995283
2.60871 5.79219 54.6388 -0.0429354 0.0841332 -0.995528
3.21031 6.32573 54.6535 -0.055208 0.0714861 -0.995913
3.80169 6.89931 54.6688 -0.0558241 0.0880416 -0.994541
4.41683 7.70143 54.7072 -0.057403 0.0847152 -0.99475
4.93692 8.33335 54.7358 -0.0596369 0.0881155 -0.99429
5.49979 9.00396 54.764 -0.0432777 0.0814782 -0.995735
6.13791 9.54972 54.7725 -0.0617163 0.0841121 -0.994536
6.80187 9.99962 54.7684 -0.0581394 0.0826347 -0.994883
7.36282 10.5297 54.7808 -0.0531934 0.0838344 -0.995056
7.99919 11.2785 54.8019 -0.0547402 0.0716778 -0.995922
8.47298 12.0339 54.8292 -0.0618173 0.0738364 -0.995353
8.80514 12.7301 54.8618 -0.0671047 0.075961 -0.994848
9.00186 13.587 54.9122 -0.0647334 0.0708136 -0.995387
9.04327 14.379 54.9678 -0.0572393 0.0663886 -0.996129
8.92564 15.1306 55.0197 -0.0572372 0.060852 -0.996501
8.68743 15.9095 55.082 -0.0576538 0.0537547 -0.996857
9.57992 16.1904 55.051 -0.0471675 0.0590717 -0.997125
10.3919 16.1164 55.0064 -0.0488427 0.0639201 -0.996759
11.1926 16.4924 54.9968 -0.0403762 0.0648211 -0.99708
11.9364 16.7877 54.985 -0.0416871 0.062276 -0.997188
12.6412 17.3329 54.9876 -0.0400684 0.0577917 -0.997524
13.2369 16.8023 54.931 -0.0408852 0.0632247 -0.997158
13.8259 16.1152 54.8602 -0.0461597 0.0690454 -0.996539
14.4306 15.6528 54.7977 -0.0523678 0.0752027 -0.995777
15.1106 15.255 54.729 -0.0672371 0.0710408 -0.995169
15.8226 15.014 54.6495 -0.0961564 0.0678473 -0.993039
16.6794 14.9573 54.5442 -0.132194 0.0713079 -0.988561
17.4546 15.1509 54.4354 -0.176188 0.0753514 -0.981468
18.1608 15.4379 54.3025 -0.245333 0.0766065 -0.966027
19.062 15.5951 54.0527 -0.290289 0.0559483 -0.955302
19.8222 15.6617 53.799 -0.340135 0.0588758 -0.938529
20.6378 15.8698 53.4735 -0.43484 0.0287837 -0.90004
21.2299 16.213 53.1689 -0.505312 0.0173927 -0.862761
21.8701 16.3854 52.7247 -0.654326 0.00259419 -0.756208
22.4748 16.3468 52.1977 -0.655307 0.0153351 -0.755144
23.1906 16.2657 51.5415 -0.681985 -0.0446122 -0.730005
23.8083 16.3165 50.9594 -0.694467 -0.0563651 -0.717055
24.1853 15.3751 50.6608 -0.67949 -0.0637616 -0.730601
24.3162 14.3818 50.6458 -0.691484 -0.0771939 -0.718249
24.4207 13.3516 50.651 -0.662972 -0.080226 -0.743991
24.799 12.2697 50.4281 -0.686796 -0.0852497 -0.721833
24.8711 11.4294 50.4558 -0.68191 -0.0783623 -0.727223
25.0357 10.662 50.373 -0.684322 -0.0660896 -0.726177
25.5161 9.77115 50.0154 -0.675109 -0.0811545 -0.733241
26.1554 9.10587 49.4938 -0.681352 -0.0727969 -0.728302
26.6024 8.4842 49.133 -0.68702 -0.0714459 -0.723117
26.8802 7.79147 48.9345 -0.673833 -0.0650384 -0.735991
27.0189 6.77757 48.9031 -0.670307 -0.061892 -0.739465
26.7908 5.79765 49.1825 -0.668763 -0.053709 -0.741529
25.841 5.59178 50.0499 -0.667253 -0.0513651 -0.743057
25.2676 6.02962 50.5152 -0.637881 -0.0326402 -0.769443
24.717 6.41639 50.96 -0.665779 -0.0112718 -0.746064
23.8505 6.52413 51.6973 -0.625813 0.00741863 -0.779938
23.1323 6.1098 52.2116 -0.54156 0.023754 -0.840326
23.8621 5.11206 51.6759 -0.595229 -0.0477024 -0.802139
23.2893 4.41922 52.1272 -0.582791 -0.0289197 -0.812107
23.1795 3.66729 52.2327 -0.582419 -0.030188 -0.812327
22.9943 2.74392 52.3618 -0.553494 0.00350712 -0.832846
22.769 2.02593 52.5121 -0.531453 -0.0181442 -0.846749
22.8042 1.27086 52.5092 -0.544245 -0.0221335 -0.838634
23.036 0.0302512 52.394 -0.535429 -0.0257407 -0.843512
23.0874 -0.789112 52.3797 -0.556865 0.00745524 -0.830267
22.9357 -1.77622 52.45 -0.544137 0.0239032 -0.838656
22.7745 -2.65999 52.495 -0.516275 0.0368053 -0.855412
22.632 -3.83044 52.5467 -0.507825 0.0296188 -0.860951
22.8513 -4.93208 52.3943 -0.49628 0.0145492 -0.867812
22.9145 -5.77131 52.3365 -0.480838 0.0165641 -0.876653
22.9911 -6.57291 52.2793 -0.463229 0.0336487 -0.885218
22.9645 -7.34918 52.2614 -0.531947 0.0394926 -0.845856
22.9296 -8.1022 52.2593 -0.528333 0.00299155 -0.849025
22.8395 -9.12312 52.315 -0.530215 0.000635776 -0.847863
22.7947 -10.0179 52.2992 -0.550886 0.0367915 -0.833769
22.8026 -10.8157 52.2529 -0.551994 0.0462439 -0.832565
22.8441 -11.8171 52.1849 -0.544479 0.0204209 -0.838526
22.6559 -12.5384 52.2861 -0.539865 0.0306769 -0.841192
22.7578 -13.4492 52.1554 -0.552288 0.0681813 -0.83086
22.8109 -14.8254 52.0119 -0.550336 0.0626518 -0.83259
22.9157 -15.5979 51.8627 -0.610738 0.0724529 -0.78851
23.1592 -16.356 51.6058 -0.610468 0.071239 -0.78883
23.532 -16.9881 51.2602 -0.610463 0.0712378 -0.788835
23.893 -17.5681 50.8947 -0.658407 0.0624674 -0.750066
23.2253 -17.6205 51.4842 -0.649817 0.0438463 -0.758825
22.624 -17.6023 51.9707 -0.625209 0.0215009 -0.780116
21.8253 -17.6151 52.5817 -0.596154 -0.00022433 -0.80287
21.1122 -17.5851 53.0919 -0.511257 -0.0255047 -0.859049
20.4406 -17.4915 53.4675 -0.408492 -0.0389004 -0.911932
19.7002 -17.2876 53.7489 -0.292632 -0.0883401 -0.950463
18.9619 -17.1049 53.9189 -0.229072 -0.0755149 -0.970468
18.2216 -17.1073 54.0917 -0.201948 -0.100575 -0.974218
17.4106 -17.1358 54.2425 -0.184012 -0.123883 -0.974596
16.4741 -17.5444 54.4137 -0.090567 -0.13626 -0.986525
15.573 -17.5152 54.4577 -0.0412767 -0.0756265 -0.99594
14.6728 -17.6748 54.4745 -0.0156243 -0.058711 -0.998022
14.1678 -18.2733 54.4843 0.0224881 -0.0157641 -0.999623
13.8872 -19.1049 54.4809 0.0286239 -0.00201056 -0.999588
13.6905 -19.9132 54.476 0.0352636 -0.00211775 -0.999376
13.709 -20.9275 54.4801 0.0341596 -0.00403706 -0.999407
14.0641 -21.7382 54.4959 0.0304059 -0.00596693 -0.99952
14.7699 -22.0938 54.518 0.0193489 -0.00429889 -0.999804
14.761 -22.6407 54.5236 0.00862545 -0.00488951 -0.999882
14.0997 -22.98 54.5147 0.0335314 -0.0185318 -0.999266
13.4145 -22.9091 54.4832 0.0374381 -0.00700244 -0.999274
12.5438 -22.9382 54.4576 0.027354 -0.0112635 -0.999561
11.7161 -22.9176 54.434 0.0321736 -0.0190318 -0.999301
10.9368 -22.8592 54.407 0.0318439 -0.0236903 -0.999209
10.0988 -22.8458 54.3764 0.0409228 -0.0260586 -0.998822
9.30621 -22.8562 54.3439 0.0347523 -0.0191622 -0.999199
8.38689 -22.8288 54.3152 0.027744 -0.019528 -0.999423
7.52947 -22.8299 54.2937 0.0206439 -0.0197293 -0.999592
6.72939 -22.8415 54.2779 0.0276804 -0.0312026 -0.99911
5.80866 -22.8221 54.2444 0.0356806 -0.0162473 -0.999231
4.8558 -22.7265 54.2146 0.0266359 -0.0142748 -0.999543
3.97554 -22.8412 54.1877 0.0363185 -0.0082835 -0.999306
3.14185 -22.8796 54.1606 0.0175221 -0.00268064 -0.999776
2.3448 -22.8502 54.1415 0.0195499 -0.0105995 -0.999753
1.59805 -22.8657 54.1285 0.0157246 -0.0040903 -0.999851
0.6289 -22.8133 54.1163 0.012359 -0.0169639 -0.99978
-0.122866 -22.7693 54.1046 0.0176545 -0.0186193 -0.999671
-0.926522 -22.7722 54.0918 0.00883444 -0.0136216 -0.999868
-1.96396 -22.8137 54.0873 0.0225415 -0.0659548 -0.997568
-3.0318 -22.8251 54.0574 0.0150494 0.00353646 -0.999744
-3.87296 -22.8008 54.0403 0.0267879 -0.0201115 -0.999439
-4.86523 -22.837 54.0148 -0.0197641 -0.0733623 -0.994699
-5.65242 -22.8721 53.9795 0.0345559 -0.00171473 -0.999338
-6.47287 -22.7949 53.9657 0.00594963 -0.0138394 -0.999866
-7.2222 -22.8262 53.9715 -0.030546 -0.0053187 -0.999339
-8.0906 -22.8311 54.0294 -0.0699283 -0.0555933 -0.995799
-8.84386 -22.8803 54.0655 -0.00243738 -0.0722579 -0.997137
-9.59867 -22.8254 54.0397 0.0330672 -0.0405316 -0.998494
-10.4496 -22.7859 54.0292 -0.00143411 -0.031126 -0.999508
-11.2052 -22.8332 54.0367 -0.00928264 -0.0306211 -0.999488
-11.9784 -22.8444 54.0445 -0.0138527 -0.018107 -0.99974
-12.7778 -22.8119 54.0634 -0.0147834 -0.0393836 -0.999115
-13.5632 -22.8383 54.0396 0.0783035 -0.0082853 -0.996647
-14.6638 -22.6295 53.9942 0.00665482 -0.0498505 -0.998711
-15.1131 -22.1663 53.9643 0.0118777 -0.0555509 -0.998376
-14.4468 -21.7658 53.966 0.0591222 -0.0398962 -0.997322
-14.4161 -21.0328 53.9487 0.0458291 -0.0202405 -0.998741
-14.6735 -20.1346 53.9285 0.0350536 -0.00997597 -0.999336
-14.7627 -19.2106 53.9113 0.0107837 -0.0174082 -0.99979
-14.7506 -18.4529 53.889 0.00211258 -0.0617933 -0.998087
-15.1489 -17.7087 53.8334 0.00650645 -0.0964502 -0.995207
-15.8171 -17.299 53.7779 0.00121222 -0.150528 -0.988215
-16.5594 -17.2021 53.6995 0.136049 -0.242429 -0.960583
-17.2338 -17.6034 53.6121 0.288969 -0.153571 -0.94401
-17.9897 -17.7202 53.3358 0.391589 -0.0751089 -0.916867
-18.8889 -17.71 52.9542 0.400888 -0.0277667 -0.915664
-19.6745 -17.6813 52.6134 0.406136 -0.0328269 -0.913223
-20.5484 -17.7193 52.2338 0.422887 -0.0762698 -0.901752
-21.2165 -17.6654 51.8636 0.538254 -0.10511 -0.833752
-21.8922 -17.6314 51.3558 0.566657 -0.0665155 -0.820592
-22.5763 -17.6626 50.8032 0.638524 -0.00191526 -0.7696
-23.2659 -17.5949 50.2129 0.665666 0.0539192 -0.744138
-24.0103 -17.6403 49.5202 0.68634 0.0730742 -0.723584
-24.5756 -17.5681 48.9843 0.685929 0.12644 -0.716568
-25.0465 -17.4563 48.5582 0.67431 0.148802 -0.723301
-25.0802 -16.5971 48.7045 0.659096 0.156707 -0.735551
-25.3794 -15.7485 48.6172 0.65906 0.156726 -0.73558
-25.7056 -14.9389 48.5395 0.621661 0.178435 -0.762691
-26.1928 -14.2796 48.3056 0.59008 0.199466 -0.782316
-27.11 -13.9064 47.7088 0.590056 0.199448 -0.782339
-27.3588 -13.1904 47.7137 0.592037 0.213385 -0.777148
-27.6675 -12.2814 47.7225 0.595794 0.202075 -0.7773
-28.1591 -11.7052 47.5056 0.576757 0.203878 -0.791025
-28.7789 -11.1355 47.193 0.579355 0.196283 -0.791088
-29.7132 -10.9046 46.5965 0.561346 0.204344 -0.801957
-30.3985 -10.2201 46.2744 0.574758 0.19889 -0.793786
-31.3065 -9.76826 45.753 0.558764 0.210207 -0.802244
-31.8426 -9.02495 45.546 0.567176 0.172849 -0.805194
-32.3023 -8.44329 45.3484 0.55464 0.172215 -0.814074
-32.7098 -7.76902 45.1877 0.575722 0.123586 -0.808252
-33.1212 -7.07138 44.9943 0.577581 0.110655 -0.808795
-33.6535 -6.20501 44.7379 0.574094 0.115692 -0.810575
-34.0238 -5.30812 44.5801 0.593558 0.0833819 -0.80046
-34.1605 -4.39014 44.5754 0.589322 0.0771381 -0.804152
-33.8943 -3.21153 44.8692 0.585511 0.069511 -0.807678
-33.2612 -2.79271 45.3562 0.583592 0.0593479 -0.809876
-32.2242 -2.52535 46.1112 0.570703 0.0613118 -0.818817
-31.4926 -2.71306 46.5993 0.56125 0.0708284 -0.82461
-30.7892 -3.09903 47.0412 0.55513 0.0799258 -0.827913
-30.2537 -3.68863 47.3425 0.554069 0.0798063 -0.828636
-29.6512 -4.14315 47.6982 0.551328 0.0830081 -0.830149
-28.8313 -4.76062 48.1755 0.545178 0.0881664 -0.833671
-28.2162 -5.52118 48.4957 0.544636 0.0907393 -0.833749
-27.7032 -6.01695 48.7769 0.544612 0.0941658 -0.833378
-27.4214 -6.82713 48.853 0.538167 0.108842 -0.835781
-27.0895 -7.54843 48.9704 0.533836 0.116705 -0.837491
-26.7363 -8.21943 49.1 0.533997 0.119452 -0.837006
-26.022 -8.78153 49.4839 0.541589 0.113115 -0.832999
-25.3436 -8.81113 49.9152 0.524809 0.109008 -0.844194
-24.3644 -8.96605 50.4974 0.520913 0.112315 -0.846189
-23.7771 -8.66203 50.8787 0.500776 0.10469 -0.859223
-23.3712 -8.01301 51.1971 0.496327 0.114501 -0.860507
-23.1578 -7.10707 51.4346 0.489361 0.111519 -0.864921
-23.4641 -6.00286 51.4172 0.494913 0.119921 -0.860593
-23.2222 -5.24117 51.6541 0.483983 0.115878 -0.867371
-23.1553 -4.21969 51.8298 0.492231 0.107914 -0.863651
-23.2656 -3.1568 51.8958 0.468439 0.107024 -0.87697
-23.243 -2.22127 52.0255 0.494873 0.100279 -0.86316
-23.2104 -1.46701 52.1381 0.495596 0.116885 -0.860652
-23.4003 -0.7403 52.1246 0.520355 0.0877336 -0.849394
-23.3278 0.0641218 52.233 0.49001 0.0695573 -0.868937
-23.2717 1.02835 52.3711 0.50709 0.0950256 -0.856493
-23.1966 2.19422 52.5471 0.50509 0.0968299 -0.857402
-23.1702 2.93898 52.6333 0.491663 0.0923245 -0.865815
-23.3067 3.74469 52.6427 0.476479 0.0619643 -0.876728
-23.521 4.74639 52.5716 0.498411 0.0396465 -0.865821
-23.4921 5.53724 52.6446 0.499659 0.0638905 -0.863863
-23.5577 6.33234 52.6654 0.502876 0.0688255 -0.861591
-23.4892 7.55455 52.8206 0.531302 0.0762771 -0.843742
-23.5953 8.52434 52.828 0.5344 0.0577422 -0.843257
-23.7503 9.56071 52.8184 0.561234 0.071275 -0.824583
-23.7563 10.5834 52.8763 0.569896 0.0252759 -0.820806
-23.8369 11.3593 52.8465 0.564728 0.0741995 -0.819621
-23.6732 12.6508 53.0175 0.582694 0.00597332 -0.811998
-23.6093 13.4748 53.0705 0.606789 -0.000485508 -0.794863
-23.5959 14.4448 53.0924 0.606257 0.0189095 -0.795044
-23.6844 15.2181 53.0382 0.577977 0.0268679 -0.815199
-23.8178 16.2269 52.9792 0.605624 0.0298654 -0.79519
-24.0741 16.8956 52.8341 0.602752 0.0879699 -0.793064
-24.82 16.924 52.1715 0.676984 0.0714554 -0.732521
-25.3818 16.7871 51.6585 0.68532 -0.00765703 -0.727581
-26.2881 16.9764 50.7558 0.710613 -0.0195624 -0.703148
-26.8094 16.8899 50.2285 0.708229 -0.0513977 -0.70411
-27.5681 17.0418 49.4476 0.713861 -0.055779 -0.698063
-28.1676 17.2022 48.8345 0.708327 -0.0686704 -0.702537
-28.6909 17.298 48.2976 0.708318 -0.0686699 -0.702545
-29.2645 17.518 47.6987 0.707111 -0.0871983 -0.701705
-29.6832 18.0763 47.2126 0.70168 -0.0800703 -0.707979
-29.849 18.9135 46.9672 0.715019 -0.0381686 -0.697982
-30.0021 19.946 46.7739 0.714412 -0.0181481 -0.69949
-29.8655 20.7735 46.8988 0.716101 -0.00839907 -0.697946
-29.5187 21.5917 47.2442 0.714789 -0.00737792 -0.699302
-29.1363 22.1312 47.6275 0.714015 -0.00868296 -0.700077
-28.6312 22.511 48.1383 0.717748 -0.0120324 -0.696198
-28.1479 22.8098 48.6386 0.724325 -0.00701048 -0.689419
-27.6059 22.9751 49.2078 0.72327 -0.00361925 -0.690556
-27.1016 22.8094 49.7327 0.724406 -0.0240924 -0.688952
-26.5846 22.6601 50.2849 0.729255 -0.0185893 -0.68399
-26.0327 22.7678 50.8719 0.729539 -0.020215 -0.68364
-25.4865 22.8575 51.4513 0.728711 -0.0205866 -0.684512
-24.9499 22.8434 52.0111 0.710078 -0.023504 -0.70373
-24.4165 22.7744 52.5452 0.711031 -0.058781 -0.7007
-23.9544 22.4663 53.0268 0.658703 -0.0508903 -0.750624
-24.3596 22.1899 52.647 0.723453 -0.0510975 -0.688355
-24.6604 21.6491 52.3593 0.738462 -0.0237772 -0.673672
-24.6606 20.5604 52.3814 0.731646 -0.00756131 -0.681642
-24.6828 19.8117 52.3664 0.725274 -0.00917721 -0.688399
-24.89 18.987 52.1582 0.72244 -0.00906205 -0.691375
-24.8297 18.1427 52.219 0.712504 0.0125176 -0.701557
-24.3278 17.6793 52.6861 0.660166 0.0538353 -0.748794
-23.6389 17.7238 53.2575 0.614582 0.0765961 -0.784908
-22.9948 17.5637 53.7274 0.590636 0.0880915 -0.802016
-22.3714 17.1813 54.1325 0.565331 0.110866 -0.81691
-21.7927 16.7758 54.4342 0.516684 0.13191 -0.845946
-21.0401 16.4344 54.7363 0.38811 0.152341 -0.908757
-20.4114 16.0606 54.9022 0.306269 0.127968 -0.943305
-20.024 15.2794 54.933 0.259996 0.0815752 -0.961368
-19.5107 14.5564 54.9826 0.201606 0.0994723 -0.97415
-18.8641 14.0922 55.0424 0.149719 0.112173 -0.982345
-18.0835 14.4213 55.1849 0.117832 0.111938 -0.986673
-17.9719 15.2584 55.2956 0.107397 0.113052 -0.987768
-17.9489 16.0293 55.3903 0.100917 0.119422 -0.987678
-17.5863 16.7116 55.515 0.0901566 0.155161 -0.983767
-17.2072 17.3878 55.6686 0.0945137 0.177291 -0.97961
-16.5211 17.7688 55.79 0.0585655 0.152131 -0.986624
-15.5958 17.7349 55.8188 0.0171905 0.151475 -0.988311
-14.749 17.8364 55.8475 0.0216406 0.105417 -0.994193
-13.8369 17.9045 55.8666 0.0197239 0.0891112 -0.995826
-13.0815 17.7986 55.8666 -0.00807636 0.0571351 -0.998208
-12.3188 17.7878 55.8568 -0.0205254 0.0480036 -0.998634
-11.5482 17.8367 55.84 -0.0234492 0.0378545 -0.999008
-10.7823 17.8051 55.8236 -0.0201623 0.0322984 -0.999269
-10.0156 17.8338 55.8035 -0.0252871 0.0246707 -0.999347
-9.14602 17.8222 55.7874 -0.0143472 0.0141795 -0.999797
-8.27271 17.7839 55.7686 -0.0251338 0.0107178 -0.9996
-7.4386 17.8398 55.7426 -0.0340631 0.00379927 -0.999412
-6.65142 17.7834 55.7181 -0.0306425 0.0020963 -0.999528
-5.74291 17.7587 55.687 -0.0336942 9.38027e-05 -0.999432
-4.97916 17.7406 55.6657 -0.0299116 -0.00707242 -0.999528
-4.16332 17.774 55.641 -0.0285069 -0.00546686 -0.999578
-3.41381 17.7398 55.6185 -0.0299391 -0.0102735 -0.999495
-2.54359 17.77 55.592 -0.0326298 -0.0165673 -0.99933
-1.67706 17.7259 55.5638 -0.0325516 -0.0153987 -0.999351
-0.890615 17.7991 55.5374 -0.0329498 -0.0124938 -0.999378
-0.108954 17.8241 55.512 -0.0282034 -0.0175604 -0.999448
0.76394 17.7902 55.4841 -0.0333957 -0.0211249 -0.999219
1.51582 17.8098 55.4559 -0.038855 -0.0168477 -0.9991
2.28415 17.812 55.4278 -0.0369551 -0.0111628 -0.999254
3.12928 17.837 55.399 -0.0397551 -0.00420487 -0.999201
3.96699 17.8713 55.3643 -0.0398872 0.000954589 -0.999204
4.9405 17.8913 55.3292 -0.037821 0.00649718 -0.999263
5.6851 17.7944 55.2994 -0.0453636 0.01396 -0.998843
6.4687 17.821 55.2674 -0.0381251 0.0225613 -0.999014
7.5062 17.7656 55.2214 -0.0421541 0.0348387 -0.998495
8.2569 17.8034 55.1937 -0.0319486 0.0417577 -0.998616
9.09639 17.8205 55.1608 -0.0442668 0.052983 -0.997613
9.91309 17.7936 55.1263 -0.0387817 0.0600685 -0.997433
10.6715 17.9658 55.1103 -0.0340204 0.0613641 -0.997535
11.4178 18.3218 55.098 -0.050541 0.0434538 -0.997776
11.5958 19.1195 55.1121 -0.0400561 0.0197543 -0.999002
11.7156 20.075 55.1233 -0.0204463 0.0176646 -0.999633
11.7207 20.8314 55.1414 -0.0169038 0.0299648 -0.999408
11.6992 21.6385 55.1699 -0.00317472 0.0425335 -0.99909
11.2722 22.2921 55.21 -0.013202 0.0605306 -0.998079
10.7453 22.7597 55.2561 -0.0426547 0.0766218 -0.99588
11.4801 23.0666 55.2558 -0.00890053 0.0631795 -0.997958
12.3097 23.2025 55.257 -0.0166441 0.0686956 -0.997499
13.2025 23.1567 55.2299 -0.0256454 0.0703451 -0.997187
14.0262 23.0714 55.2006 -0.031334 0.0778058 -0.996474
14.8346 23.1283 55.1799 -0.0457302 0.0834396 -0.995463
15.5436 23.0158 55.1389 -0.0470316 0.0617924 -0.99698
15.5916 22.4134 55.1015 -0.0268748 0.0544933 -0.998152
14.837 22.4625 55.1279 -0.0390638 0.0727191 -0.996587
14.1218 22.2422 55.1315 -0.0327991 0.0797007 -0.996279
13.6982 21.5781 55.1074 -0.0475873 0.0524071 -0.997491
13.5885 20.8291 55.0916 -0.0357211 0.0187486 -0.999186
13.4524 19.9974 55.0775 -0.0268062 0.0225263 -0.999387
13.7123 19.2387 55.0462 -0.0123434 0.0372223 -0.999167
14.0263 18.3753 55.0035 -0.0165418 0.0580617 -0.99813
14.4819 17.4184 54.9262 -0.0201983 0.0803226 -0.996564
15.1265 16.9161 54.866 -0.0307103 0.0951185 -0.994992
15.7972 16.558 54.7995 -0.0550624 0.102095 -0.99325
16.492 16.2934 54.7073 -0.136352 0.11117 -0.984403
17.3948 16.5477 54.597 -0.181874 0.12727 -0.975051
18.001 16.9762 54.5055 -0.258767 0.1466 -0.95475
18.9107 17.08 54.2494 -0.31284 0.116989 -0.942134
19.6624 16.989 53.9699 -0.376097 0.0811069 -0.922688
20.4209 17.2381 53.6468 -0.472847 0.0883062 -0.876708
20.9922 17.6758 53.3435 -0.541553 0.00727396 -0.839575
21.6215 17.8543 52.8974 -0.613752 -0.00481198 -0.789087
22.3058 17.7258 52.3018 -0.667578 -0.0327299 -0.74382
22.8595 17.8282 51.7802 -0.69197 -0.0262062 -0.72145
23.4955 17.8277 51.1576 -0.702667 -0.0369488 -0.710536
24.0656 17.8367 50.5691 -0.715158 -0.0594421 -0.69643
24.588 17.7942 50.0237 -0.728587 -0.0670633 -0.681657
25.1887 17.7409 49.3869 -0.732154 -0.0786587 -0.676582
25.7573 17.7046 48.7907 -0.72586 -0.0955731 -0.681171
25.5185 17.0254 49.129 -0.715311 -0.095269 -0.692281
25.1781 15.9137 49.6238 -0.707361 -0.0863105 -0.701535
25.1695 15.0793 49.7338 -0.702343 -0.0827064 -0.70701
25.3524 13.8981 49.7018 -0.699785 -0.0898443 -0.708681
25.6062 13.1875 49.5422 -0.699642 -0.0908494 -0.708695
25.9148 12.0297 49.3925 -0.692746 -0.0906419 -0.715458
26.0475 11.0601 49.3761 -0.691998 -0.0740834 -0.718088
26.6289 10.4032 48.9024 -0.686039 -0.0852385 -0.722551
27.112 9.72287 48.5229 -0.683123 -0.0791031 -0.726007
27.5497 9.15412 48.1761 -0.681204 -0.0818871 -0.7275
27.9149 8.10092 47.947 -0.676174 -0.0757446 -0.732837
28.0749 7.15816 47.8964 -0.674946 -0.0712279 -0.734416
28.0655 6.21144 47.9939 -0.673878 -0.0690224 -0.735611
28.0641 5.43953 48.0628 -0.671876 -0.0625437 -0.738018
27.8966 4.65408 48.2795 -0.670142 -0.0578655 -0.739966
27.2286 4.41196 48.8985 -0.667744 -0.0489663 -0.742779
26.6717 4.13154 49.4124 -0.65978 -0.0583044 -0.749194
26.0084 4.0762 49.9879 -0.645278 -0.0378224 -0.762945
25.2877 4.35913 50.5942 -0.650341 -0.0300359 -0.759048
24.5263 4.97373 51.1806 -0.626479 -0.0383854 -0.778492
24.1738 5.10425 51.4451 -0.595229 -0.0477024 -0.802139
29.4659 3.63601 46.9366 -0.668131 -0.0561536 -0.741921
29.5719 2.8196 46.9029 -0.668128 -0.0561685 -0.741923
29.9675 1.97023 46.6092 -0.664466 -0.0483438 -0.745753
30.4224 1.48769 46.2354 -0.66364 -0.0486011 -0.746471
31.2198 1.1847 45.5484 -0.662297 -0.0476729 -0.747721
31.771 1.33677 45.0499 -0.659866 -0.0469919 -0.749901
32.3547 1.81753 44.5082 -0.657956 -0.0496178 -0.75142
32.7368 2.44725 44.1278 -0.655842 -0.0568072 -0.752757
32.7548 3.29416 44.0488 -0.655032 -0.0604524 -0.753167
32.6866 4.09635 44.0393 -0.655831 -0.0634906 -0.752231
32.1634 4.84152 44.432 -0.658058 -0.0673367 -0.749947
31.5457 5.27483 44.9376 -0.659017 -0.0692373 -0.748929
30.9316 5.32531 45.4788 -0.663157 -0.0706503 -0.745139
30.3576 5.16646 46.0068 -0.667788 -0.0660413 -0.741407
29.8219 4.65015 46.5326 -0.667733 -0.062491 -0.741773
29.5351 3.88289 46.8555 -0.668133 -0.0561542 -0.74192
30.6239 3.42739 45.9152 -0.664899 -0.0579919 -0.744678
31.115 3.93284 45.4374 -0.664669 -0.0616113 -0.744585
31.6538 3.55862 44.9917 -0.659458 -0.0589286 -0.749428
31.3997 2.62373 45.2879 -0.661613 -0.055232 -0.747807
30.6598 2.93744 45.9214 -0.663186 -0.0572668 -0.746257
30.6516 2.96732 45.9264 -0.664165 -0.0587482 -0.745273
35.576 -1.21585 41.9217 -0.64538 -0.0388748 -0.76287
35.2494 -1.99987 42.2356 -0.645055 -0.033647 -0.763395
35.3756 -3.06155 42.1705 -0.642822 -0.0250842 -0.765605
35.9843 -3.8398 41.6836 -0.641529 -0.0222502 -0.766775
36.5885 -3.96804 41.1811 -0.640004 -0.0211121 -0.768077
37.3574 -3.88044 40.5414 -0.639419 -0.0256691 -0.768414
37.9522 -3.30889 40.0248 -0.638637 -0.029096 -0.768957
38.2244 -2.53745 39.7651 -0.640831 -0.0337028 -0.766942
38.127 -1.62386 39.8015 -0.642291 -0.038964 -0.76547
37.717 -1.06505 40.1161 -0.641994 -0.0428024 -0.765511
37.2151 -0.645087 40.5134 -0.642298 -0.0455242 -0.765097
36.5907 -0.663749 41.0369 -0.641079 -0.0435308 -0.766239
35.9563 -0.77089 41.5783 -0.645528 -0.0432678 -0.76251
35.6049 -1.15962 41.8945 -0.643923 -0.0387251 -0.76411
36.3794 -2.21889 41.2928 -0.644061 -0.0347935 -0.76418
37.0749 -2.40253 40.718 -0.641701 -0.0330821 -0.766241
36.4858 -2.48216 41.2141 -0.642486 -0.0306176 -0.765682
36.3626 -2.35712 41.3129 -0.643763 -0.0317848 -0.764564
41.6454 -8.35197 37.0943 -0.638863 -0.0145103 -0.769153
41.2244 -9.1604 37.4502 -0.634138 -0.00952237 -0.773161
41.2509 -10.234 37.4429 -0.618392 -0.00485285 -0.785855
41.5552 -10.8808 37.2074 -0.618048 -0.00283151 -0.786133
42.1613 -11.3158 36.7317 -0.627119 -0.022154 -0.778589
42.8345 -11.5017 36.1923 -0.629257 -0.0419702 -0.776063
43.553 -11.3176 35.5874 -0.651553 -0.0264652 -0.758141
44.0301 -10.938 35.1561 -0.657273 -0.0386176 -0.752662
44.3446 -9.98335 34.8422 -0.659436 -0.0253076 -0.751329
44.2789 -9.0743 34.8682 -0.660321 -0.0215729 -0.750656
43.7418 -8.23119 35.3146 -0.65787 -0.0219544 -0.752812
43.1925 -7.80667 35.775 -0.648451 -0.0181603 -0.761037
42.3837 -7.77648 36.4593 -0.644385 -0.0187704 -0.764471
41.8612 -8.06947 36.9063 -0.643376 -0.0180727 -0.765337
41.728 -8.23653 37.0222 -0.643376 -0.0180702 -0.765337
42.5406 -9.28673 36.367 -0.641668 -0.0187284 -0.766747
43.1241 -9.34954 35.873 -0.650035 -0.0250819 -0.75948
42.807 -10.1783 36.1671 -0.642393 -0.0201362 -0.766111
42.3171 -9.72023 36.5624 -0.639675 -0.0186099 -0.768415
42.3818 -9.54772 36.5049 -0.640438 -0.0159575 -0.767844
45.8569 -13.8689 33.5775 -0.723592 -0.012401 -0.690117
46.4885 -13.2806 32.9307 -0.702594 0.0149603 -0.711434
47.0396 -13.1079 32.3959 -0.697897 0.0142554 -0.716056
47.9403 -13.1955 31.5642 -0.66627 0.0631115 -0.742632
48.4718 -13.5712 31.0486 -0.630488 0.0715 -0.772899
48.7934 -14.2566 30.7162 -0.636224 0.0841177 -0.766905
48.8852 -15.2642 30.5171 -0.616504 0.0910918 -0.782065
48.5771 -16.0837 30.6475 -0.604496 0.140581 -0.784106
48.1497 -16.668 30.8949 -0.641649 0.143529 -0.753183
47.5305 -17.0419 31.369 -0.714739 0.0414424 -0.694266
47.0641 -17.0736 32.002 -0.809737 0.117661 -0.573688
46.5252 -16.8013 32.8322 -0.814381 0.0848609 -0.574093
46.0598 -16.2655 33.4478 -0.753211 -0.0310633 -0.656838
45.637 -15.4933 33.8802 -0.74123 -0.0351153 -0.670321
45.6651 -14.5086 33.7927 -0.731576 -0.0280695 -0.680981
45.7773 -14.1285 33.6655 -0.723328 -0.0150055 -0.690336
46.6609 -14.7624 32.7112 -0.728378 0.0205918 -0.684866
47.0921 -15.5454 32.1999 -0.748573 0.0541222 -0.660811
47.5753 -15.6381 31.6514 -0.695008 0.117136 -0.708578
47.6331 -14.6145 31.7101 -0.695986 0.0798142 -0.713606
47.1182 -14.4534 32.2341 -0.720397 0.0410026 -0.691966
46.9343 -14.582 32.4259 -0.728376 0.020596 -0.684868
53.9781 -13.2635 27.6547 -0.428756 0.0294564 -0.90294
54.2191 -12.4824 27.5607 -0.426995 0.0180665 -0.904062
54.7103 -11.7794 27.3468 -0.423343 0.0201861 -0.905745
55.3642 -11.4556 27.0531 -0.398202 0.00339249 -0.917276
56.1511 -11.4315 26.7241 -0.353551 0.00207709 -0.935413
56.936 -11.6952 26.4268 -0.354801 0.0046103 -0.934926
57.4556 -12.4106 26.2359 -0.331437 -0.00351261 -0.943452
57.7405 -13.1471 26.1412 -0.323311 0.00762227 -0.946262
57.4429 -13.9803 26.2365 -0.322409 0.00841367 -0.946562
56.7029 -14.7209 26.4941 -0.344278 0.00451015 -0.938857
55.7916 -14.9595 26.8311 -0.355461 0.00976092 -0.93464
54.9342 -14.7756 27.181 -0.410035 0.0134301 -0.911863
54.4277 -14.2482 27.4267 -0.414254 0.024921 -0.909818
54.0074 -13.3613 27.6393 -0.417937 0.016543 -0.908325
53.979 -13.2689 27.6541 -0.423347 0.0229989 -0.905633
55.3258 -13.0692 27.0571 -0.388888 0.010455 -0.921226
55.9259 -12.808 26.8056 -0.374104 0.00645665 -0.927196
55.9256 -13.5505 26.8029 -0.356178 0.0100443 -0.93434
55.435 -13.3874 27.0074 -0.388887 0.0104543 -0.921226
55.4473 -6.97999 26.9797 -0.411892 -0.0173777 -0.911067
54.5423 -6.79725 27.3924 -0.427453 -0.000655975 -0.904037
53.8245 -6.23045 27.7345 -0.457219 -0.00896243 -0.889309
53.3631 -5.44675 27.9494 -0.472649 -0.0176172 -0.880701
53.3694 -4.58804 27.9354 -0.469048 -0.0093424 -0.883123
53.7297 -3.61444 27.7052 -0.452384 -0.0269712 -0.891036
54.4903 -3.05534 27.3317 -0.432556 -0.013812 -0.901501
55.244 -2.82413 26.9747 -0.41211 -0.0400885 -0.910252
56.3192 -2.94374 26.5168 -0.370396 -0.0255306 -0.928523
57.1619 -3.51985 26.2114 -0.347076 -0.0199428 -0.937501
57.4886 -4.25964 26.0948 -0.330651 -0.0140167 -0.943649
57.6081 -5.19113 26.0654 -0.35824 -0.0179561 -0.933455
57.2537 -6.01787 26.2181 -0.34825 -0.0252987 -0.93706
56.7046 -6.61524 26.4386 -0.364701 -0.0146874 -0.931009
56.0866 -6.95989 26.6965 -0.374576 -0.0276156 -0.926785
55.6589 -6.97845 26.884 -0.411891 -0.0173781 -0.911068
55.4509 -5.58162 26.9401 -0.4 -0.0187996 -0.916221
54.7261 -5.07491 27.2624 -0.42884 -0.0301485 -0.902877
54.914 -4.33208 27.1565 -0.422194 -0.0204722 -0.906274
55.6997 -4.24016 26.7991 -0.380703 -0.0223249 -0.924384
56.2226 -5.07618 26.6068 -0.388794 -0.0190639 -0.921066
55.7799 -5.52083 26.7995 -0.39159 -0.00884113 -0.920097
54.891 8.25082 26.7501 -0.403301 -0.0356521 -0.914373
54.1051 8.48193 27.0943 -0.430145 -0.0470042 -0.901535
53.3476 9.20927 27.4166 -0.438839 -0.0571586 -0.896746
52.9579 10.1347 27.5433 -0.430792 -0.0674113 -0.89993
53.0388 10.8941 27.4413 -0.424852 -0.0699599 -0.902501
53.5496 11.9555 27.1318 -0.417747 -0.0648951 -0.906237
54.137 12.3919 26.86 -0.383215 -0.0508767 -0.922257
55.1491 12.7155 26.4373 -0.357368 -0.0482501 -0.932716
55.8454 12.7014 26.1709 -0.346415 -0.0472465 -0.936811
56.5656 12.3805 25.9333 -0.333469 -0.0734964 -0.939892
57.1981 11.6882 25.7485 -0.297237 -0.0276415 -0.954404
57.4918 10.9281 25.6786 -0.299474 -0.0255049 -0.953763
57.4759 9.82007 25.7158 -0.316713 -0.029521 -0.948062
56.8842 8.93787 25.9403 -0.318904 -0.0266781 -0.947412
56.3498 8.47275 26.143 -0.367833 -0.0205139 -0.929666
55.3853 8.27755 26.534 -0.380347 -0.0372338 -0.924094
54.9362 8.25631 26.73 -0.403302 -0.0356533 -0.914372
55.0148 9.65536 26.6281 -0.386754 -0.041765 -0.921237
54.4276 10.0592 26.8569 -0.413205 -0.0465843 -0.909446
54.4494 10.8415 26.8184 -0.412844 -0.0262434 -0.910424
55.2941 11.2982 26.4509 -0.360969 -0.0341983 -0.931913
56.0672 11.0122 26.1599 -0.351568 -0.0317666 -0.935558
56.076 10.1406 26.1917 -0.342717 -0.0376403 -0.938684
55.474 9.77238 26.43 -0.373393 -0.0443165 -0.926499
55.1175 9.66566 26.5845 -0.386754 -0.041765 -0.921237
57.1188 15.551 25.6313 -0.285417 -0.029984 -0.957928
56.7129 16.4794 25.7305 -0.304847 -0.0278806 -0.951993
56.9735 17.2578 25.6296 -0.287246 -0.0224243 -0.957594
57.8794 17.7201 25.3495 -0.274301 -0.0159398 -0.961463
58.6861 17.2385 25.1358 -0.264881 -0.0158678 -0.96415
58.8388 16.2338 25.1188 -0.263683 -0.0308891 -0.964115
57.9681 15.5431 25.3802 -0.274209 -0.0329844 -0.961054
57.4575 15.4537 25.5344 -0.283672 -0.032979 -0.958354
40.4308 20.3618 36.5852 -0.511705 -0.0365675 -0.858358
39.9559 19.3179 36.8997 -0.505377 -0.0285505 -0.862426
38.9686 18.7869 37.5004 -0.509735 -0.0372205 -0.859526
38.0809 18.7814 38.0301 -0.523266 -0.0519033 -0.850382
37.4593 19.0576 38.3991 -0.53134 -0.0676344 -0.844454
36.8866 19.6811 38.731 -0.554947 -0.0641128 -0.829411
36.6114 20.5488 38.861 -0.575239 -0.0412393 -0.816945
36.7852 21.3084 38.7036 -0.559152 -0.0442809 -0.827808
37.4792 22.1773 38.2163 -0.511822 -0.0548465 -0.857339
38.4481 22.525 37.6368 -0.488948 -0.0475939 -0.871013
39.3169 22.3615 37.1599 -0.477153 -0.0385327 -0.877975
40.1685 21.4896 36.7145 -0.491742 -0.0193901 -0.870525
40.4352 20.6545 36.568 -0.519335 -0.0285452 -0.853954
39.056 20.6827 37.3757 -0.502057 -0.0314155 -0.864264
38.4881 21.1948 37.6792 -0.493448 -0.0368286 -0.868995
37.971 20.5938 38.0037 -0.500737 -0.0400127 -0.864674
38.5446 20.3105 37.6846 -0.497093 -0.0384208 -0.866834
38.7222 20.4177 37.5793 -0.497753 -0.0341225 -0.866629
32.1184 20.3118 42.2959 -0.665902 -0.0174697 -0.745834
32.0365 21.148 42.3532 -0.666348 -0.0109448 -0.74556
31.7917 21.831 42.5704 -0.67917 -0.00133733 -0.73398
31.372 22.3774 42.9663 -0.689659 0.00349386 -0.724125
30.8206 22.8743 43.4966 -0.693039 0.00577012 -0.720874
30.226 22.8423 44.0714 -0.703287 -0.00230941 -0.710902
29.6339 22.7639 44.6651 -0.714443 -0.00213361 -0.699687
29.1289 22.391 45.183 -0.714966 -0.00081523 -0.699159
28.7678 21.8229 45.559 -0.724114 -0.0113217 -0.689588
28.4941 20.9613 45.8543 -0.719356 -0.00821712 -0.694592
28.561 20.1301 45.8013 -0.717879 -0.0202578 -0.695873
28.8427 19.4094 45.5465 -0.713704 -0.0448106 -0.699012
29.2821 18.7566 45.142 -0.713134 -0.069853 -0.697469
29.8814 18.3791 44.5827 -0.698444 -0.103442 -0.70815
30.4797 18.3029 44.0049 -0.689248 -0.0728324 -0.720855
31.0384 18.3839 43.4741 -0.671674 -0.100648 -0.733978
31.5569 18.8195 42.9254 -0.693762 -0.0976261 -0.713489
31.9194 19.5337 42.505 -0.675568 -0.0373762 -0.73635
32.0419 19.9404 42.3729 -0.670515 -0.0203418 -0.741585
31.051 20.3508 43.2928 -0.699373 -0.0242863 -0.714344
30.7101 19.7294 43.6604 -0.705337 -0.0406722 -0.707705
30.1319 19.6845 44.2315 -0.700532 -0.0395387 -0.712509
29.6791 20.1158 44.6688 -0.710563 -0.0252629 -0.703175
29.5447 20.8756 44.7816 -0.712583 -0.0188191 -0.701335
29.8824 21.4169 44.4244 -0.704231 -0.0181797 -0.709725
30.4401 21.5275 43.8711 -0.706335 -0.011634 -0.707771
30.9871 20.8685 43.3402 -0.699134 -0.0122541 -0.714886
31.0429 20.7055 43.2887 -0.699375 -0.0242837 -0.714343
23.6158 22.4822 50.9559 -0.730817 -0.0134733 -0.68242
23.0486 22.7133 51.5338 -0.714277 -0.0171997 -0.699643
22.5204 22.43 52.0663 -0.703073 -0.0201209 -0.710755
23.2221 22.4684 51.3627 -0.716911 -0.0264681 -0.696662
23.5922 22.481 50.9813 -0.735611 -0.0201176 -0.677074
10.3369 22.7836 55.2682 -0.0243866 0.0907109 -0.995579
10.2555 23.0004 55.29 -0.0243927 0.090709 -0.995579
9.88021 22.8689 55.2869 -0.0106771 0.0900449 -0.99588
9.41901 22.4294 55.2545 -0.0149422 0.0754239 -0.997018
9.74561 22.5148 55.2563 -0.0106873 0.0900449 -0.99588
9.28161 22.647 55.2713 -0.010751 0.0704713 -0.997456
8.62688 22.707 55.2929 -0.0302208 0.0707509 -0.997036
9.17121 23.086 55.3035 -0.0200725 0.0704887 -0.997267
9.24952 23.07 55.3015 -0.0107414 0.0704714 -0.997456
8.22752 22.8667 55.3164 -0.0441662 0.08498 -0.995202
7.85261 22.4049 55.2956 -0.0260998 0.0651656 -0.997508
7.9409 22.7746 55.3239 -0.0203088 0.0967683 -0.994378
7.12222 22.7935 55.331 -0.0172454 0.0563776 -0.998261
6.97974 23.0667 55.3489 -0.0172488 0.0563739 -0.998261
5.60303 22.9833 55.3834 -0.0385955 0.0479405 -0.998104
4.73492 23.1193 55.4257 -0.0413938 0.0545528 -0.997649
4.31968 23.1409 55.4435 -0.0397785 0.0564403 -0.997613
3.79209 22.9003 55.447 -0.0164865 0.0566918 -0.998256
4.69106 22.4943 55.3921 -0.0378832 0.054991 -0.997765
5.50901 22.4395 55.3605 -0.0341283 0.0532828 -0.997996
5.6008 22.6094 55.3655 -0.00947888 0.0391205 -0.998726
3.21765 23.0993 55.452 -0.0131513 0.0338679 -0.99934
3.02714 22.9614 55.45 -0.0212604 0.0349466 -0.999163
3.08494 22.9339 55.4481 -0.0131609 0.0338692 -0.99934
1.76165 22.5335 55.4646 -0.0236505 0.0330583 -0.999172
1.19228 22.4871 55.4768 -0.0218913 0.0268421 -0.9994
1.44012 22.42 55.4687 -0.0277593 0.0301558 -0.999152
0.556745 22.9268 55.5039 -0.0288249 0.0238345 -0.9993
0.534905 22.9431 55.5049 -0.0329433 0.0230672 -0.999182
-0.137671 23.0798 55.5401 -0.0397371 0.0317406 -0.998706
-0.40896 23.0932 55.5511 -0.0400648 0.0320829 -0.998682
-0.213701 23.1067 55.544 -0.039187 0.0317164 -0.998728
-0.830135 22.8439 55.56 -0.0408016 0.0325875 -0.998635
-1.27436 22.8641 55.5792 -0.0408132 0.0336817 -0.998598
-1.60711 22.7684 55.5892 -0.0400879 0.0342712 -0.998608
