0.585329 11.818 12.0553 0.141881 -0.00726103 0.989348
0.639303 10.9832 12.0246 0.118736 -0.028775 0.992509
0.639303 10.9832 12.0246 0.118736 -0.028775 0.992509
0.896664 10.0732 11.9057 0.132261 -0.0691736 0.988388
1.22493 8.97777 11.7938 0.1935 -0.0272677 0.979692
1.83111 8.13642 11.7046 0.168526 0.0205212 0.985484
2.07659 8.03993 11.6608 0.203221 -0.00659989 0.979111
2.18463 8.91566 11.6323 0.219059 0.0326929 0.973352
2.28992 9.8365 11.5763 0.260218 -0.0153945 0.965398
2.33351 10.5805 11.5952 0.271325 -0.0996081 0.95732
2.36289 11.7161 11.617 0.353063 -0.00255952 0.935596
2.17911 12.5626 11.6799 0.335532 0.00629604 0.942008
1.32769 12.8053 11.9184 0.226362 0.0398436 0.973228
0.627272 12.5761 12.0481 0.16503 -0.00775118 0.986258
0.603646 12.0952 12.0482 0.165027 0.00325132 0.986222
-1.07693 12.0121 12.1821 -0.0778307 -0.0575522 0.993469
-1.00701 13.0165 12.2148 -0.0239338 -0.0308653 0.999237
-1.01085 13.832 12.239 -0.0233883 -0.029224 0.999299
-1.18348 14.8514 12.2814 -0.04787 -0.0664447 0.996031
-1.41583 15.6833 12.3063 -0.0873418 -0.0945159 0.990729
-1.76933 16.5489 12.3925 -0.130214 -0.11458 0.983958
-2.07413 17.2588 12.417 -0.162282 -0.11719 0.979761
-2.51526 17.9172 12.4232 -0.132223 -0.124851 0.981736
-3.05417 18.8123 12.4248 -0.188318 -0.112209 0.975674
-3.28206 19.7365 12.4763 -0.364891 -0.125085 0.922244
-2.85864 20.4745 12.7086 -0.2488 -0.0599329 0.96595
-1.86988 20.9377 12.8524 -0.0456148 -0.154578 0.986927
-1.26316 20.4579 12.7392 0.146876 -0.113682 0.9826
-0.799616 19.671 12.5782 0.173588 -0.130571 0.975601
-0.830677 18.6509 12.4936 0.128154 -0.0833337 0.988247
-0.827215 17.8395 12.4874 0.075553 -0.0184697 0.996026
-0.80995 16.97 12.4289 0.0663274 -0.0824552 0.994385
-0.53169 16.0536 12.3491 0.0747055 -0.0574757 0.995548
-0.0514759 15.4261 12.2645 0.0906811 -0.0528972 0.994301
0.654891 14.8019 12.1313 0.15224 -0.0752153 0.985477
1.39094 14.4786 11.9807 0.277059 -0.064049 0.955974
2.1227 14.2631 11.7087 0.401454 -0.0265687 0.915494
2.90467 14.2923 11.3909 0.377965 0.0293944 0.924484
3.61269 14.2282 11.0701 0.436458 0.044851 0.898335
4.17133 13.5747 10.8215 0.455467 0.0566093 0.888451
4.01359 12.6802 10.9068 0.41495 -0.00057388 0.909844
3.91319 11.9284 10.9842 0.428005 0.0375912 0.902994
3.88893 11.1453 11.0259 0.381933 0.0173713 0.924004
3.89836 10.2619 11.0336 0.386392 0.0158835 0.92219
3.93262 9.47066 11.0348 0.390402 0.016465 0.920497
3.91455 8.63437 11.0908 0.38995 0.0768528 0.917623
3.67426 7.6658 11.2375 0.337607 0.0368192 0.940567
3.26275 6.76604 11.3712 0.24561 0.027522 0.967125
2.92031 6.075 11.5198 0.217034 0.0578093 0.973627
2.42532 5.34228 11.6484 0.170103 0.0313411 0.984542
1.93168 4.54837 11.7025 0.0227334 -0.00509884 0.999705
1.22932 4.12496 11.7112 -0.019629 -0.0131841 0.99972
0.715655 4.71548 11.7089 -0.0218739 -0.0101085 0.999702
0.470387 5.5105 11.7085 -0.0212802 -0.00268582 0.999756
0.2813 6.44268 11.7491 0.0403999 -0.0607513 0.997335
-0.0396995 7.31558 11.7824 -0.136263 -0.0980295 0.985404
-0.360181 8.56641 11.871 0.0384203 -0.0853142 0.994424
-0.614376 9.43537 11.9281 -0.0740786 -0.06689 0.995007
-0.929562 10.3328 12.0263 -0.148279 -0.115689 0.982155
-1.14818 11.2817 12.1004 -0.13121 -0.0996432 0.986334
-1.08153 11.9308 12.1745 -0.13351 -0.0893735 0.986994
-2.77512 11.8714 11.8145 -0.290615 -0.119791 0.949252
-2.75544 11.0733 11.7247 -0.376245 -0.0995447 0.920083
-2.65989 10.3174 11.6663 -0.267778 -0.188401 0.942689
-2.34145 9.56941 11.6556 -0.290526 -0.141043 0.946415
-2.05211 8.57053 11.6151 -0.255016 -0.117811 0.958807
-1.85941 7.45231 11.4997 -0.218371 -0.1373 0.966159
-1.58197 6.65922 11.4976 -0.212513 -0.04687 0.976033
-1.24501 5.71668 11.5257 -0.236187 -0.0694082 0.968646
-1.12143 4.62931 11.4466 -0.303572 -0.0994145 0.947608
-0.587644 3.64572 11.4832 -0.198894 -0.109213 0.973917
-0.107597 2.72095 11.5053 -0.218165 -0.0477928 0.974741
0.367788 2.07247 11.5518 -0.136569 -0.0280154 0.989804
1.05699 1.70941 11.6081 0.00158201 -0.0613815 0.997262
1.90536 2.09253 11.5944 0.037515 -0.0535836 0.99783
2.50536 2.51043 11.5803 0.183885 -0.0461843 0.98177
3.12976 3.18023 11.5072 0.176699 -0.057521 0.982583
3.51537 3.81994 11.4074 0.289645 -0.0213053 0.956897
3.94962 4.48061 11.2753 0.337927 0.00966836 0.9403
4.34039 5.35201 11.097 0.38785 0.0485631 0.920442
4.69632 6.07048 10.9092 0.413466 0.051103 0.908643
5.35218 7.04921 10.546 0.440856 0.0360018 0.896856
5.51175 7.81657 10.4107 0.473916 0.0602167 0.878509
5.60333 8.96866 10.2808 0.475398 0.0581333 0.877835
5.47724 10.0138 10.2782 0.461836 0.0554122 0.885146
5.33883 10.9278 10.3015 0.456325 0.0495461 0.888433
5.40858 11.8717 10.23 0.48768 0.0488701 0.871647
5.73385 13.2737 9.95982 0.501771 0.0589743 0.862988
5.77938 14.0975 9.88041 0.503887 0.0570776 0.861878
5.60329 14.9651 9.93092 0.503021 0.0514988 0.862738
5.11952 15.5525 10.1779 0.507459 0.0413503 0.860609
4.56098 15.9412 10.483 0.474253 0.026119 0.880001
3.87216 16.0957 10.8513 0.481361 0.0206552 0.876279
3.12022 15.9939 11.2562 0.456934 0.0175263 0.889328
2.38187 15.8731 11.6155 0.407127 0.00419673 0.913362
1.67038 16.048 11.896 0.319299 -0.00631164 0.947633
0.981695 17.1325 12.132 0.229889 -0.0275798 0.972814
0.85762 18.0061 12.183 0.334497 0.0351979 0.941739
0.906472 18.9826 12.164 0.318018 -0.073767 0.945211
0.958401 20.1212 12.2196 0.322209 -0.0376541 0.942341
0.57311 20.8948 12.38 0.39013 0.00332272 0.920754
-0.0393242 21.639 12.5838 0.240379 -0.0478671 0.969415
-0.576013 22.1727 12.753 0.245383 -0.0830325 0.965864
-1.25192 22.6111 12.9994 0.16525 -0.265439 0.9446
-2.21002 22.7044 13.1079 0.0768364 -0.311738 0.947056
-3.03501 22.5514 12.8692 -0.239162 -0.163281 0.957152
-3.69326 22.0859 12.6017 -0.321799 -0.227103 0.919168
-4.22829 21.5915 12.3209 -0.391841 -0.0877297 0.913541
-4.79279 20.5623 11.8978 -0.441553 -0.104409 0.89091
-4.96406 19.8461 11.7372 -0.453331 -0.0930459 0.886472
-4.92303 19.0762 11.6966 -0.452089 -0.0657932 0.889543
-4.53491 18.0719 11.7974 -0.429301 -0.0839557 0.899251
-4.01599 17.1944 11.9512 -0.375344 -0.11974 0.917526
-3.58247 16.567 12.0232 -0.340929 -0.0702036 0.937464
-3.20582 15.7699 12.1005 -0.242888 -0.0699992 0.962227
-2.91851 14.9079 12.0856 -0.240891 -0.122467 0.962795
-2.70103 14.0364 12.0557 -0.260046 -0.0532503 0.964127
-2.72081 13.1467 11.9904 -0.246904 -0.0931956 0.963546
-2.78 12.3437 11.8723 -0.280397 -0.119413 0.952427
-6.47337 12.4048 10.107 -0.519702 -0.0941322 0.849146
-6.4965 11.5592 9.99696 -0.520505 -0.0982149 0.848191
-6.73881 10.8499 9.76456 -0.520819 -0.102318 0.847513
-7.32024 10.3401 9.34703 -0.51883 -0.10125 0.84886
-8.29033 10.1526 8.7274 -0.526235 -0.0868451 0.845893
-9.16583 10.5057 8.21604 -0.529697 -0.0857896 0.843837
-9.63771 11.0027 7.96741 -0.535768 -0.0759483 0.840941
-9.805 12.1311 7.96213 -0.541179 -0.0701971 0.837943
-9.52833 12.9469 8.2097 -0.552456 -0.0696073 0.830631
-8.79975 13.5408 8.74405 -0.552575 -0.0674775 0.830724
-8.06533 13.7085 9.24237 -0.546919 -0.0787419 0.833465
-7.40943 13.5068 9.64105 -0.534273 -0.087704 0.84075
-6.86697 13.0691 9.94094 -0.544226 -0.0868622 0.83443
-6.57726 12.7014 10.0763 -0.519703 -0.0941317 0.849146
-8.91294 5.46757 7.85097 -0.49945 -0.0861334 0.86205
-8.13002 4.73945 8.22539 -0.491525 -0.088168 0.866368
-7.75891 3.6668 8.32598 -0.486487 -0.0910255 0.868933
-7.86835 2.80889 8.18435 -0.480575 -0.0842543 0.872892
-8.16674 2.14802 7.96059 -0.479146 -0.0745412 0.874553
-9.02379 1.56636 7.43576 -0.482736 -0.0734328 0.872679
-9.66558 1.34125 7.05572 -0.491594 -0.0661823 0.868306
-10.5329 1.37458 6.56442 -0.49605 -0.0682072 0.865611
-11.2508 1.67381 6.17656 -0.497651 -0.0659652 0.864861
-11.802 2.14789 5.89291 -0.49969 -0.0641254 0.863827
-12.181 2.89273 5.72784 -0.501232 -0.063766 0.86296
-12.2793 3.65043 5.72672 -0.501963 -0.0641666 0.862505
-12.0006 4.34731 5.94456 -0.507356 -0.0655892 0.859237
-11.6556 5.00491 6.20033 -0.508267 -0.06916 0.858418
-11.0121 5.39607 6.61311 -0.508923 -0.0717641 0.857812
-10.3438 5.73183 7.04059 -0.505161 -0.0823207 0.85909
-9.37913 5.68092 7.60219 -0.501761 -0.084062 0.860906
-9.28948 5.6451 7.65055 -0.499451 -0.0861332 0.86205
-9.81059 3.94016 7.19134 -0.499788 -0.0767945 0.862736
-10.439 3.68941 6.80508 -0.501977 -0.0710945 0.861952
-10.393 3.03006 6.77671 -0.498445 -0.0697708 0.864105
-9.73194 3.06168 7.1587 -0.49823 -0.0753421 0.863762
-9.67204 3.81489 7.26045 -0.499788 -0.0767945 0.862736
-14.5112 -3.28237 4.01812 -0.497035 -0.0400687 0.866804
-14.0291 -4.07767 4.25711 -0.49688 -0.0381557 0.866977
-14.0337 -5.08934 4.21244 -0.494141 -0.0350558 0.868672
-14.553 -5.87145 3.88369 -0.497935 -0.0336286 0.866562
-15.2737 -6.26788 3.45249 -0.499702 -0.0347165 0.865502
-16.3097 -6.23724 2.85225 -0.503868 -0.0333669 0.863136
-16.9237 -5.93398 2.50608 -0.50338 -0.0358677 0.863319
-17.4974 -4.88474 2.21329 -0.504493 -0.0367113 0.862634
-17.4433 -3.99015 2.28496 -0.504418 -0.0410158 0.862485
-16.741 -3.12768 2.73666 -0.503144 -0.0418167 0.86319
-15.9317 -2.86512 3.21938 -0.499917 -0.0416108 0.865073
-15.1628 -2.94406 3.65936 -0.498023 -0.0411544 0.866185
-14.7812 -3.07661 3.87246 -0.498023 -0.0411546 0.866185
-15.7034 -4.54065 3.2749 -0.498901 -0.0361704 0.865904
-15.6819 -4.60062 3.28479 -0.498901 -0.0361707 0.865904
-12.9873 -9.81079 4.6597 -0.49647 -0.0191269 0.867842
-12.1982 -9.47141 5.1176 -0.495847 -0.0204177 0.86817
-11.5495 -9.34467 5.48875 -0.490182 -0.0176604 0.871441
-10.7923 -9.83978 5.90854 -0.492926 -0.0163449 0.869917
-10.369 -10.4039 6.1407 -0.494346 -0.0082334 0.869218
-10.4502 -11.2135 6.08965 -0.4981 -0.00774132 0.867077
-10.8609 -11.8236 5.84502 -0.500171 -0.00978167 0.865871
-11.5183 -12.2154 5.46098 -0.498379 -0.0103377 0.866898
-12.4334 -12.1077 4.93395 -0.500968 -0.0116842 0.865387
-13.0004 -11.693 4.61453 -0.498048 -0.014094 0.867035
-13.328 -10.8362 4.44181 -0.497294 -0.0177327 0.867401
-13.0703 -9.95112 4.60884 -0.497539 -0.0197912 0.867216
-5.85679 -7.26068 8.71585 -0.477566 -0.00460552 0.878584
-5.75912 -6.32406 8.77321 -0.470225 -0.0136939 0.88244
-5.27687 -5.65148 9.03992 -0.468933 -0.0103625 0.883173
-4.57109 -5.32567 9.41335 -0.45116 -0.0100433 0.892386
-3.89279 -5.33927 9.75643 -0.450889 0.00173244 0.892512
-3.06908 -5.58473 10.1486 -0.427007 0.0103867 0.904189
-2.35815 -5.90594 10.4689 -0.374479 0.0149772 0.927114
-1.71315 -6.20887 10.7343 -0.378065 0.0173838 0.925604
-0.800374 -5.79787 11.0412 -0.291002 0.0246849 0.955743
-0.611627 -4.91264 11.1095 -0.312148 0.00399187 0.949857
-0.434917 -4.12379 11.1676 -0.263591 -0.00152021 0.964633
-0.030432 -3.20948 11.278 -0.261813 0.00115683 0.965118
0.442121 -2.28797 11.4197 -0.232805 -0.0240923 0.972225
0.952456 -1.68484 11.5578 -0.200563 -0.0186862 0.979503
1.46705 -1.06682 11.6319 -0.0753952 0.0210099 0.995559
1.86615 0.0147134 11.586 -0.0207814 0.0274444 0.998881
2.56928 -0.12899 11.5072 0.130606 0.0282371 0.990071
3.18404 -0.568293 11.45 0.138225 0.0721175 0.987762
3.96482 -0.847261 11.3262 0.207507 0.0979278 0.97332
5.03327 -0.87442 11.0207 0.328667 0.0876345 0.940371
5.82852 -0.877283 10.7277 0.408735 0.0474921 0.911076
6.63151 -0.696341 10.337 0.486408 0.0329575 0.87311
7.36085 -0.703302 9.91442 0.515743 0.0141464 0.856626
7.98758 -0.929548 9.5268 0.531186 0.00995972 0.847197
8.37266 -1.67751 9.30559 0.536633 0.0237475 0.843482
8.15082 -2.69675 9.47336 0.534655 0.0168295 0.844895
7.69938 -3.25177 9.76663 0.524859 0.0160474 0.850991
7.04147 -3.70802 10.1662 0.503425 0.0410021 0.863066
6.40183 -4.38258 10.5142 0.447645 0.00684726 0.894185
5.83305 -5.09682 10.7887 0.395607 0.0369212 0.917301
5.34182 -5.69015 11.0417 0.358203 0.0341568 0.931684
4.51301 -6.55282 11.335 0.309823 0.0244138 0.950433
4.18373 -7.4617 11.4713 0.230451 0.084695 0.969391
4.05001 -8.47126 11.5487 0.161932 0.0444442 0.985431
4.48601 -9.43791 11.5494 0.192144 0.054141 0.978398
4.96687 -10.207 11.3379 0.40494 0.00800943 0.914176
5.14396 -11.1412 11.2596 0.418229 0.00747532 0.908301
5.25863 -11.9879 11.2178 0.399248 -0.00398792 0.916473
5.25974 -13.1271 11.1863 0.403655 0.0264022 0.912762
5.15352 -14.1358 11.2961 0.439177 0.0469409 0.897173
5.04794 -14.9042 11.3835 0.444512 0.037615 0.894983
4.83145 -15.7453 11.5209 0.462499 0.0123192 0.886534
4.67768 -16.717 11.6337 0.471674 0.0485573 0.880435
4.48522 -17.8532 11.7246 0.337656 0.0434924 0.940264
4.18237 -18.7256 11.8737 0.335935 0.0429283 0.940904
3.69944 -19.6025 12.1087 0.332728 0.0880189 0.938906
3.07485 -20.3109 12.4236 0.258041 0.121306 0.953059
2.52018 -20.7869 12.5843 0.156372 0.162729 0.974201
1.86797 -21.1766 12.7561 0.162576 0.166996 0.972461
1.01483 -21.2842 12.7863 -0.171634 0.126798 0.976967
0.3074 -21.0858 12.6187 -0.303222 0.0583414 0.950789
-0.260126 -20.5794 12.3681 -0.350355 0.104811 0.930734
-0.512247 -19.8934 12.191 -0.388269 0.116608 0.914139
-0.860891 -18.8201 11.9284 -0.387449 0.0811856 0.91831
-0.959556 -17.8351 11.8115 -0.402207 0.0629692 0.913381
-0.94234 -16.8303 11.76 -0.402386 0.0441927 0.914403
-1.01959 -16.069 11.6876 -0.429265 0.055494 0.901406
-1.161 -15.2607 11.5805 -0.401701 0.0526565 0.913778
-1.10349 -14.231 11.5243 -0.304965 0.0626249 0.950302
-1.21764 -12.979 11.3788 -0.40648 0.0595024 0.91172
-1.36223 -12.1873 11.2617 -0.416219 0.0657853 0.906882
-1.86722 -11.3033 10.9786 -0.408778 0.0691941 0.909973
-2.08847 -10.44 10.8062 -0.418731 0.065227 0.905689
-2.50255 -9.56501 10.5492 -0.440036 0.0611839 0.895893
-3.14985 -9.08046 10.1994 -0.471535 0.0336903 0.881203
-3.80888 -8.76054 9.83941 -0.462295 0.0265669 0.886328
-5.00733 -8.40725 9.18719 -0.47904 0.0102611 0.877682
-5.54958 -7.83569 8.87983 -0.482309 0.00148076 0.875962
-5.7411 -7.45203 8.77774 -0.477566 -0.00460603 0.878584
-1.4465 -8.34209 10.9383 -0.380656 0.0603375 0.922694
-1.01398 -8.95935 11.1528 -0.321948 0.0764748 0.943664
-0.595452 -9.90438 11.3996 -0.383875 0.0872111 0.919257
-0.347324 -10.6364 11.5675 -0.377112 0.0716859 0.923389
0.018344 -11.4503 11.7326 -0.283926 0.0736121 0.956016
0.292007 -12.3663 11.863 -0.317278 0.0470192 0.947166
0.443812 -13.1094 11.9507 -0.313091 0.0542659 0.948134
0.468374 -13.8908 12.0082 -0.305071 0.0571542 0.950613
0.434754 -14.6978 12.0459 -0.275849 0.0938195 0.955449
0.455194 -15.4522 12.1537 -0.241259 0.122614 0.962634
0.540837 -16.4227 12.2954 -0.232843 0.125598 0.96437
0.670387 -17.4668 12.3191 -0.141808 -0.0371682 0.989196
0.820649 -18.3853 12.3577 -0.144503 0.0919267 0.985225
1.16043 -19.2169 12.4852 -0.0466505 0.0621535 0.991694
1.87511 -18.9622 12.4402 0.0736158 0.0489454 0.995692
2.47186 -18.2859 12.3379 0.140146 0.0524757 0.987653
2.97871 -17.3671 12.2094 0.286476 -0.0404009 0.957235
3.1049 -16.5982 12.1788 0.141527 0.0412338 0.989066
3.2279 -15.8575 12.1053 0.230046 0.0833594 0.969603
3.45235 -14.7086 11.9391 0.271085 0.0720195 0.959411
3.63034 -13.6527 11.8395 0.265709 0.0471884 0.962898
3.61997 -12.4794 11.8014 0.257982 0.0241053 0.963974
3.49442 -11.3695 11.8062 0.213142 -0.00860283 0.976983
3.25705 -10.6499 11.8559 0.0873847 0.0579689 0.994377
2.67281 -9.53341 11.8107 0.12747 0.0865418 0.987854
2.44272 -8.30151 11.7394 -0.0222076 0.105277 0.993862
2.49572 -7.18473 11.7054 0.07791 0.0442907 0.995898
2.73733 -6.33917 11.6383 0.110717 0.0827654 0.989488
3.11365 -5.68553 11.5827 0.129469 -0.0284758 0.991175
3.61788 -5.0621 11.5217 0.248028 -0.0268066 0.968363
4.17955 -4.47762 11.3931 0.252794 -0.0301918 0.967049
4.7282 -3.82445 11.2347 0.379775 -0.000318259 0.924859
5.16582 -3.19698 11.0705 0.376423 -0.0201503 0.926229
5.22008 -2.50822 11.0485 0.362264 0.0210078 0.931839
4.32662 -2.45347 11.366 0.254163 0.0811686 0.963504
3.295 -2.29202 11.5704 0.115816 0.0701987 0.990508
2.56221 -2.44709 11.6502 0.0883678 0.0338813 0.995186
1.96885 -3.14825 11.6442 -0.0689513 -0.00543405 0.997605
1.49332 -4.04698 11.5745 -0.0893143 -0.0272039 0.995616
1.13256 -5.0536 11.5399 -0.0802233 -0.0069984 0.996731
0.674194 -6.22091 11.4265 -0.207295 -0.0199056 0.978076
0.0565321 -7.05964 11.3557 -0.227461 0.0513211 0.971409
-0.993484 -7.70533 11.0812 -0.276347 0.0351439 0.960415
-1.11029 -7.94721 11.0565 -0.33028 0.0431894 0.941119
10.3595 2.85255 7.84082 0.558112 0.0458525 0.828498
9.92325 3.70169 8.08773 0.558399 0.0464245 0.828272
9.95301 4.62663 8.00497 0.55387 0.0579326 0.830585
10.1912 5.30835 7.8 0.551462 0.0541369 0.83244
10.7967 5.82359 7.36627 0.550455 0.0516315 0.833265
11.4602 6.10731 6.91194 0.550359 0.0501864 0.833418
12.4273 5.91038 6.28495 0.54706 0.0454193 0.835856
13.2081 5.43504 5.79423 0.550235 0.0391143 0.834094
13.6203 4.79801 5.55236 0.548323 0.0363121 0.835472
13.7088 4.01807 5.5238 0.550506 0.031777 0.834226
13.4526 3.19911 5.72827 0.559016 0.0316523 0.828545
12.7579 2.31194 6.22923 0.561071 0.0292999 0.827249
11.7333 2.13956 6.93426 0.56433 0.0336097 0.824865
10.9231 2.26896 7.48133 0.563013 0.0353643 0.82569
10.3683 2.84465 7.83535 0.560822 0.0406943 0.826914
11.4181 3.83035 7.0723 0.561037 0.0432457 0.826646
11.9469 4.11605 6.70097 0.556532 0.0476514 0.829459
11.468 3.80353 7.03946 0.560826 0.0385686 0.827027
16.3909 8.16994 3.62328 0.535287 0.0322074 0.844056
16.9076 7.56163 3.3179 0.536614 0.0313291 0.843246
17.7744 7.30965 2.77633 0.534355 0.0287493 0.84477
18.5996 7.3527 2.25208 0.534962 0.0298022 0.84435
19.3056 7.89807 1.78368 0.537495 0.0310458 0.842695
19.6189 8.77932 1.5481 0.541377 0.0353109 0.840038
19.3969 9.71409 1.65302 0.54347 0.0347483 0.838705
18.624 10.3197 2.12356 0.536871 0.0367758 0.842863
17.9392 10.504 2.55171 0.536888 0.0367738 0.842852
17.1353 10.2313 3.06975 0.531566 0.0354393 0.846275
16.4896 9.63467 3.50022 0.532018 0.0359995 0.845967
16.2142 8.7703 3.71101 0.534118 0.0355672 0.844661
16.3871 8.17797 3.62543 0.535244 0.0321119 0.844087
-16.4655 12.8779 3.72379 -0.533447 -0.0312788 0.845255
-16.7877 11.7872 3.47651 -0.532164 -0.0351545 0.845911
-17.4114 11.2552 3.06363 -0.529824 -0.0333194 0.847453
-18.4205 10.9953 2.42055 -0.532392 -0.0354624 0.845755
-19.2329 11.2437 1.9189 -0.532412 -0.0330377 0.84584
-20.0028 11.983 1.45605 -0.536934 -0.0253218 0.843244
-20.2378 12.7454 1.33038 -0.54035 -0.0286088 0.840954
-20.2403 13.499 1.3541 -0.540781 -0.0292535 0.840654
-19.9349 14.1618 1.57489 -0.540022 -0.0315809 0.841058
-19.034 14.8835 2.17599 -0.536035 -0.0280184 0.84373
-18.1944 15.0487 2.71315 -0.532529 -0.0287927 0.845922
-17.2465 14.7225 3.299 -0.532746 -0.0291801 0.845772
-16.6996 13.9287 3.61476 -0.533586 -0.030473 0.845195
-16.4947 13.2333 3.71853 -0.533447 -0.0312788 0.845255
-18.0883 13.1288 2.71285 -0.532365 -0.0316539 0.845923
