16.0851 12.5963 55.2591 -0.118402 0.0891593 -0.988955
16.9021 12.4627 55.1344 -0.136899 0.0690398 -0.988155
17.6272 12.6478 55.0393 -0.151469 0.0563991 -0.986852
18.1948 13.3639 54.9809 -0.180139 0.0545297 -0.982129
18.5541 14.1183 54.9583 -0.210969 0.0555755 -0.975912
18.8873 14.877 54.9272 -0.251605 0.0643893 -0.965686
19.1946 15.6808 54.8944 -0.281851 0.0702379 -0.956884
19.8859 16.058 54.7002 -0.346026 0.061301 -0.93589
20.5242 16.3463 54.4525 -0.414952 0.0172304 -0.909667
21.0591 16.8255 54.1906 -0.490834 0.0223816 -0.870966
21.544 17.3207 53.8895 -0.562171 -0.00229272 -0.827018
22.1546 17.5976 53.4373 -0.61993 -0.0211817 -0.784371
22.8212 17.7038 52.8816 -0.661449 -0.0205575 -0.749708
23.6961 17.6152 52.0744 -0.693917 -0.0362364 -0.719002
24.2559 17.6321 51.5102 -0.715112 -0.0490699 -0.697286
24.8381 17.6653 50.9119 -0.718581 -0.0641631 -0.692477
25.2753 18.0539 50.4207 -0.720158 -0.0566063 -0.691409
25.4886 18.9112 50.1499 -0.721676 -0.0284981 -0.691645
25.476 19.7017 50.1355 -0.723973 -0.0217797 -0.689485
25.4975 20.4655 50.095 -0.721813 -0.0123135 -0.691969
25.5385 21.2312 50.0427 -0.720751 -0.00591016 -0.693168
26.0925 21.1346 49.4662 -0.721734 -0.0060445 -0.692144
26.4372 20.5318 49.1123 -0.719688 -0.00947128 -0.694226
26.7088 19.8218 48.8453 -0.717297 -0.0182643 -0.696528
26.7949 19.0483 48.7772 -0.717219 -0.0185036 -0.696602
26.6527 17.9925 48.9958 -0.719036 -0.0696693 -0.691455
26.2398 17.2821 49.4993 -0.714066 -0.0783727 -0.695678
25.8465 16.336 50.0054 -0.711482 -0.0750025 -0.69869
25.7755 15.605 50.1592 -0.708594 -0.0767718 -0.701417
25.8812 14.6116 50.1631 -0.704239 -0.0809154 -0.705337
26.0442 13.8099 50.0947 -0.695576 -0.0809937 -0.713852
26.217 12.8793 50.0299 -0.691649 -0.080797 -0.717696
26.5015 11.8676 49.8731 -0.692757 -0.0831223 -0.716361
26.7398 11.1392 49.727 -0.689943 -0.0811374 -0.719302
27.1395 10.24 49.4471 -0.68656 -0.0787387 -0.722797
27.602 9.38228 49.1022 -0.685674 -0.0800616 -0.723492
28.0767 8.56475 48.7405 -0.683473 -0.0770814 -0.725895
28.3751 7.90186 48.5306 -0.677143 -0.0766546 -0.731845
28.5521 6.96581 48.4605 -0.678315 -0.0733534 -0.731101
28.9283 6.03859 48.1994 -0.674179 -0.0650861 -0.735685
29.3696 5.35953 47.8581 -0.671418 -0.0652361 -0.738202
29.905 4.96918 47.4035 -0.667855 -0.0597677 -0.74188
30.6829 5.27485 46.6798 -0.664005 -0.0653599 -0.744852
31.3013 5.44719 46.1186 -0.661155 -0.0639211 -0.74752
32.0021 5.29459 45.5197 -0.654267 -0.0617052 -0.753742
32.7499 4.71631 44.9227 -0.648471 -0.061606 -0.758742
33.1371 3.82636 44.6619 -0.647281 -0.0584829 -0.759997
33.298 2.64361 44.6146 -0.64581 -0.0539257 -0.761592
33.1255 1.93262 44.8122 -0.648194 -0.0489535 -0.7599
32.4935 1.24793 45.3954 -0.651934 -0.0483131 -0.756719
31.8026 1.08784 46.0066 -0.65502 -0.0467848 -0.754161
31.2098 1.1195 46.5238 -0.660015 -0.0464437 -0.749814
30.5997 1.42641 47.0418 -0.665567 -0.0485712 -0.744755
30.134 2.12523 47.4132 -0.666489 -0.0476797 -0.743989
29.7664 3.11896 47.6737 -0.666738 -0.0534412 -0.74337
29.3226 4.27072 47.9885 -0.670552 -0.0561063 -0.739737
28.7449 4.41752 48.5058 -0.674083 -0.0573275 -0.73642
28.2281 4.10742 49.0006 -0.674075 -0.0528317 -0.736771
27.6964 3.71212 49.5131 -0.670462 -0.0479205 -0.740395
26.984 3.73289 50.1591 -0.672768 -0.0472289 -0.738345
26.3129 4.03519 50.7391 -0.661675 -0.0443405 -0.748479
25.7447 4.35451 51.2231 -0.654647 -0.0437102 -0.754607
25.0424 4.8624 51.786 -0.629347 -0.0566135 -0.774853
24.0444 5.15458 52.5459 -0.612599 -0.050701 -0.788721
23.8979 5.04809 52.6556 -0.573371 -0.0378981 -0.818411
30.8062 3.6983 46.6978 -0.665219 -0.0577177 -0.744413
31.1948 2.89043 46.4167 -0.659621 -0.0569852 -0.749435
31.7699 2.84714 45.9143 -0.654057 -0.0535997 -0.754543
31.7362 3.8024 45.8702 -0.653372 -0.058449 -0.754777
30.9212 3.74543 46.5922 -0.660524 -0.0584474 -0.748527
30.8453 3.72193 46.661 -0.663083 -0.0584884 -0.74625
35.8574 -1.33842 42.7279 -0.633329 -0.0406193 -0.772816
36.6257 -0.790803 42.0731 -0.629649 -0.0456108 -0.775539
37.262 -0.845137 41.561 -0.625016 -0.0453966 -0.779291
37.8668 -1.13991 41.0931 -0.625038 -0.0453688 -0.779275
38.2734 -1.68947 40.799 -0.624868 -0.0421231 -0.779586
38.235 -2.94845 40.8934 -0.623964 -0.0396737 -0.780445
37.8433 -3.60272 41.2331 -0.623968 -0.0333797 -0.780734
37.2249 -3.93026 41.7414 -0.623946 -0.0304603 -0.780874
36.4324 -3.74726 42.3714 -0.627577 -0.0274384 -0.778068
35.8168 -3.21791 42.8482 -0.630264 -0.0320264 -0.775711
35.5734 -2.53702 43.0207 -0.632187 -0.0338461 -0.774067
35.7031 -1.70997 42.8739 -0.633331 -0.0406193 -0.772814
41.6888 -8.41446 38.3392 -0.614679 -0.0222766 -0.788463
42.223 -7.87776 37.9053 -0.621775 -0.0273937 -0.782717
42.796 -7.59855 37.4406 -0.62173 -0.027131 -0.782762
43.4304 -7.65214 36.9377 -0.625121 -0.0291115 -0.779985
44.0162 -8.0979 36.4822 -0.628708 -0.0259673 -0.777207
44.5955 -8.81731 36.0374 -0.632832 -0.0263188 -0.773842
44.7693 -9.7246 35.9299 -0.632044 -0.0343301 -0.774172
44.553 -10.6774 36.149 -0.633153 -0.034241 -0.773269
44.1063 -11.2007 36.5413 -0.634545 -0.0473635 -0.771434
43.3365 -11.5891 37.173 -0.615632 -0.0467301 -0.786647
42.7452 -11.6718 37.6287 -0.607048 -0.0354395 -0.793849
42.1135 -11.2377 38.091 -0.596992 -0.02983 -0.801692
41.6499 -10.5255 38.4217 -0.602917 -0.017414 -0.797614
41.3639 -9.57941 38.6218 -0.608078 -0.0113695 -0.793775
41.5097 -8.84257 38.4909 -0.614677 -0.0222753 -0.788464
42.7097 -9.50886 37.5742 -0.613447 -0.0284004 -0.789225
43.2481 -9.40371 37.1451 -0.623703 -0.0319582 -0.781008
43.0592 -9.97762 37.3195 -0.618576 -0.0301758 -0.785116
42.8691 -9.94949 37.4662 -0.613449 -0.0283992 -0.789224
46.3413 -14.0803 34.7495 -0.698416 -0.0111357 -0.715606
46.8313 -13.5162 34.2686 -0.684368 -0.0141232 -0.729
47.4403 -13.237 33.7053 -0.660113 0.00858207 -0.751087
48.0595 -13.289 33.159 -0.670697 0.0500113 -0.740044
48.7744 -13.6713 32.5002 -0.656077 0.0458504 -0.7533
49.1811 -14.6777 32.0688 -0.632651 0.0698157 -0.771284
49.0129 -15.9053 32.0467 -0.638185 0.137113 -0.757575
48.4329 -16.6551 32.4324 -0.687972 0.120018 -0.714179
47.7919 -16.8386 33.0748 -0.750406 0.126598 -0.646916
47.2573 -16.9217 33.7057 -0.759294 0.100997 -0.642863
46.8473 -16.76 34.2736 -0.786391 -0.0162641 -0.617515
46.4753 -16.1886 34.7398 -0.750451 -0.0295844 -0.657545
46.1991 -15.2648 34.9488 -0.714413 -0.0557831 -0.697497
46.2991 -14.2068 34.7927 -0.698417 -0.0111361 -0.715604
47.5613 -15.1871 33.5117 -0.7253 0.0216831 -0.688091
47.6191 -15.139 33.4524 -0.700199 0.0312054 -0.712369
54.1298 -13.364 29.0018 -0.463155 0.0314593 -0.885698
54.2381 -12.6259 28.9569 -0.470366 0.0104285 -0.88241
54.6283 -11.9558 28.7674 -0.441008 0.00888337 -0.897459
55.6542 -11.4951 28.2668 -0.431743 0.00263873 -0.90191
56.816 -11.7996 27.7533 -0.394871 -0.00208536 -0.918686
57.3818 -12.3602 27.5332 -0.362337 -0.00157237 -0.932046
57.4697 -13.2993 27.5026 -0.347088 0.0107136 -0.937772
57.2997 -14.0524 27.557 -0.36482 0.00714169 -0.930849
56.4443 -14.7287 27.8934 -0.388901 0.0171341 -0.921037
55.6145 -14.8372 28.2509 -0.408892 0.0231889 -0.912196
54.9102 -14.6254 28.5848 -0.423702 0.0255396 -0.905441
54.452 -14.0478 28.8204 -0.435684 0.0235279 -0.899792
54.2213 -13.5935 28.944 -0.450093 0.0302949 -0.892285
55.7199 -13.0617 28.2356 -0.42061 0.00765009 -0.907209
55.7395 -13.0438 28.2266 -0.420612 0.00765152 -0.907209
55.7607 -6.86026 28.156 -0.421836 -0.0180482 -0.906492
54.8849 -6.74654 28.5813 -0.457461 -0.0181612 -0.889044
54.225 -6.41486 28.9198 -0.470969 -0.0130435 -0.882053
53.5709 -5.56295 29.2668 -0.506528 -0.0111757 -0.862151
53.4495 -4.62347 29.319 -0.509714 -0.0240432 -0.86
53.7295 -3.92986 29.1346 -0.511586 -0.0200294 -0.858997
54.1843 -3.29715 28.858 -0.497568 -0.0167285 -0.867264
54.8677 -3.01534 28.4891 -0.437416 -0.0171626 -0.899095
55.5722 -2.93404 28.1433 -0.41213 -0.0562706 -0.909224
56.5534 -3.24489 27.7149 -0.395977 -0.0210375 -0.917915
57.3386 -4.06116 27.4115 -0.3846 -0.0237541 -0.922773
57.4264 -5.38192 27.4179 -0.366871 -0.0321302 -0.929717
57.0409 -6.14117 27.5853 -0.379386 -0.0222636 -0.92497
56.3968 -6.60846 27.8608 -0.379468 -0.0198778 -0.924988
55.8771 -6.83919 28.1014 -0.421836 -0.0180482 -0.906492
55.4936 -5.28377 28.2373 -0.437736 -0.0238332 -0.898629
55.8616 -4.78662 28.0566 -0.42549 -0.0139678 -0.904855
55.1046 -4.69127 28.4111 -0.437734 -0.023835 -0.898629
55.2528 -5.27321 28.3583 -0.44998 -0.0336978 -0.892403
55.3164 8.36669 27.8901 -0.419775 -0.0288204 -0.907163
56.0744 8.48099 27.5543 -0.395194 -0.0375163 -0.917831
57.007 9.09302 27.1491 -0.364869 -0.0290149 -0.930607
57.3145 9.85795 27.0017 -0.348561 -0.0268475 -0.936702
57.4183 10.6907 26.9408 -0.333584 -0.034483 -0.94209
57.2132 11.4904 26.9831 -0.334605 -0.0460261 -0.941234
56.6149 12.1359 27.1702 -0.344669 -0.0389834 -0.937915
55.8374 12.6158 27.455 -0.374124 -0.0484408 -0.926113
54.8393 12.4847 27.878 -0.39504 -0.0514309 -0.917223
54.1175 12.1624 28.212 -0.424316 -0.0625999 -0.903346
53.3624 11.2974 28.6293 -0.425973 -0.0632092 -0.902524
53.1039 10.5322 28.8301 -0.460461 -0.0778893 -0.884256
53.2572 9.78006 28.807 -0.464573 -0.0692643 -0.882805
53.678 9.12991 28.639 -0.440111 -0.0594606 -0.895972
54.5154 8.4925 28.2541 -0.436328 -0.0341482 -0.898893
55.0363 8.38818 28.0182 -0.417558 -0.0316044 -0.908101
55.3046 9.99223 27.8047 -0.405281 -0.0549416 -0.912393
55.8949 10.5191 27.5228 -0.38983 -0.0465394 -0.919676
55.3924 11.0066 27.7149 -0.389336 -0.03869 -0.920283
54.6372 10.5492 28.0802 -0.420937 -0.0430057 -0.905983
54.9643 10.1612 27.9522 -0.42023 -0.0554995 -0.905719
57.2608 15.6175 26.8019 -0.312222 -0.025231 -0.949647
58.2211 15.7159 26.491 -0.302197 -0.0224195 -0.952968
58.6543 16.3069 26.3487 -0.284582 -0.020884 -0.958424
58.4454 17.2077 26.3987 -0.282416 -0.00587207 -0.959274
57.6359 17.5511 26.6398 -0.301236 -0.016863 -0.953398
57.0036 16.996 26.8506 -0.303316 -0.0162794 -0.952751
56.8287 16.2782 26.9305 -0.317327 -0.0284594 -0.947878
57.0581 15.8127 26.8651 -0.318982 -0.0242098 -0.947452
40.2998 19.9499 38.0555 -0.482498 -0.0200238 -0.875668
40.4035 20.6918 37.9815 -0.4825 -0.0200243 -0.875667
40.1391 21.5025 38.1115 -0.461353 -0.0241059 -0.886745
39.2408 22.2938 38.5622 -0.481614 -0.0394291 -0.875496
38.449 22.419 38.9894 -0.503163 -0.0582179 -0.862228
37.7692 22.2638 39.3965 -0.51241 -0.0522449 -0.857064
37.1492 21.8271 39.7982 -0.519123 -0.0463233 -0.853442
36.6906 20.9854 40.1299 -0.534184 -0.053808 -0.843654
36.7344 20.1138 40.1569 -0.550654 -0.0430062 -0.833625
37.0452 19.3862 39.991 -0.547087 -0.0395622 -0.836141
37.7145 18.9497 39.5788 -0.524615 -0.0457544 -0.849899
38.5744 18.7572 39.0804 -0.508427 -0.0456322 -0.859895
39.2063 18.9045 38.7049 -0.503069 -0.0259825 -0.863855
39.9286 19.4188 38.2703 -0.491579 -0.0193662 -0.87056
40.1984 19.7749 38.1154 -0.484322 -0.0158316 -0.874734
38.8099 20.321 38.8732 -0.491349 -0.0289141 -0.870406
38.227 20.6898 39.1961 -0.501516 -0.0357642 -0.864398
38.7999 20.3198 38.8791 -0.503756 -0.0384725 -0.862988
38.8057 20.3191 38.8757 -0.500614 -0.0379185 -0.86483
32.8392 20.196 43.0776 -0.634132 -0.0531638 -0.771395
32.6222 19.4047 43.3158 -0.641205 -0.0632336 -0.76476
32.0891 18.5191 43.8391 -0.639405 -0.0883168 -0.763781
31.2689 18.2666 44.5534 -0.643703 -0.10274 -0.758148
30.5197 18.3249 45.1958 -0.654569 -0.117376 -0.746835
29.9913 18.582 45.6449 -0.678505 -0.0981265 -0.728012
29.4748 19.1323 46.0962 -0.704259 -0.0571794 -0.707597
29.1246 19.7178 46.4036 -0.706754 -0.0351573 -0.706399
28.9493 20.4601 46.559 -0.713528 -0.0167233 -0.700396
28.9762 21.3195 46.5169 -0.709442 -0.0119677 -0.704661
29.3231 21.9243 46.1619 -0.711738 -0.007158 -0.702406
29.6724 22.5634 45.814 -0.697257 0.00972034 -0.716744
30.4343 22.7198 45.0734 -0.697383 -0.00781453 -0.716656
30.9979 22.8009 44.5611 -0.675812 0.0141038 -0.736939
31.6634 22.6471 43.9626 -0.652746 -0.022574 -0.757159
32.311 22.0872 43.4198 -0.643486 -0.0211614 -0.765166
32.6779 21.4034 43.1304 -0.640523 -0.0198871 -0.767681
32.8226 20.7556 43.0527 -0.634132 -0.0531619 -0.771395
31.4897 20.7581 44.141 -0.642838 -0.0395071 -0.764919
31.0714 21.2826 44.4816 -0.665195 -0.0176462 -0.746461
30.51 21.2595 44.9849 -0.699802 -0.00414192 -0.714324
30.1485 20.5612 45.3571 -0.699333 -0.0202757 -0.714508
30.4971 19.9842 45.0427 -0.678506 -0.0271638 -0.734093
31.0907 19.8659 44.5351 -0.631785 -0.0520662 -0.773393
31.496 20.5128 44.1515 -0.642169 -0.0534337 -0.764681
14.91 22.931 55.9022 -0.048908 0.062134 -0.996869
14.8466 23.0439 55.9124 -0.0489061 0.062132 -0.996869
13.8431 22.7986 55.9225 -0.0242474 0.065926 -0.997529
13.28 22.5666 55.9217 -0.0263468 0.0652622 -0.99752
13.6084 22.7559 55.9252 -0.0248346 0.0644448 -0.997611
11.9332 22.8732 55.9745 -0.0215944 0.0592683 -0.998004
11.2078 22.7816 55.9809 -0.0197643 0.0511592 -0.998477
11.5443 22.9649 55.9862 -0.0154651 0.0601643 -0.998069
11.9047 22.9002 55.9767 -0.0195601 0.0616585 -0.997906
8.75935 22.5195 56.0393 -0.0417013 0.0405078 -0.998302
8.00842 22.663 56.0726 -0.0311061 0.0686063 -0.997159
8.02325 22.5277 56.0647 -0.0302755 0.0424035 -0.998642
8.51559 22.561 56.051 -0.0380887 0.0442372 -0.998292
6.02558 22.4942 56.1159 -0.0342104 0.0289841 -0.998994
5.95919 22.6587 56.1229 -0.0347928 0.0284128 -0.998991
5.54165 22.4723 56.1316 -0.0325869 0.029393 -0.999037
4.88287 22.8507 56.1647 -0.0325277 0.030203 -0.999014
4.12486 22.5878 56.1809 -0.0309624 0.0294347 -0.999087
5.09319 22.4583 56.1458 -0.032947 0.0298422 -0.999011
5.21374 22.4508 56.1416 -0.0325921 0.0293938 -0.999036
1.89263 22.506 56.2406 -0.0250699 0.0212653 -0.999459
1.20821 22.709 56.2608 -0.0204723 0.01434 -0.999668
1.81917 22.4935 56.2422 -0.025197 0.0202438 -0.999478
1.8417 22.4954 56.2417 -0.0251971 0.0202438 -0.999478
-0.300051 22.7661 56.3063 -0.034089 0.0125026 -0.999341
-1.29588 22.5173 56.3375 -0.0344653 0.0115356 -0.999339
-0.794978 22.8538 56.3243 -0.0336388 0.0121869 -0.99936
-0.308831 22.8166 56.3072 -0.0340968 0.012499 -0.99934
-2.45186 22.9314 56.3814 -0.0336248 0.0102173 -0.999382
-2.87849 22.9863 56.3963 -0.0333337 0.0103161 -0.999391
-2.46331 22.9428 56.3819 -0.0336261 0.0104048 -0.99938
-2.92024 22.6124 56.3938 -0.0333094 0.0103651 -0.999391
-3.68764 22.5708 56.4189 -0.0332222 0.0104398 -0.999393
-3.9936 22.8436 56.4319 -0.0332048 0.0105217 -0.999393
-3.28191 22.9278 56.4091 -0.0332804 0.010376 -0.999392
-3.04471 22.9419 56.4013 -0.0333081 0.0103701 -0.999391
-5.60275 22.3952 56.4805 -0.0326735 0.0094989 -0.999421
-5.96257 22.4275 56.4926 -0.0324867 0.00858224 -0.999435
-5.92442 22.424 56.4913 -0.0329359 0.00899703 -0.999417
-6.03283 17.7197 56.4818 -0.0318814 0.00903985 -0.999451
-6.16677 17.7179 56.486 -0.0312144 0.00927471 -0.99947
-4.38199 17.6809 56.4284 -0.0320454 0.00749327 -0.999448
-4.3346 17.6587 56.4267 -0.0297008 0.0108883 -0.999498
-2.52954 17.3685 56.3668 -0.0293963 0.00442295 -0.999558
-2.03183 17.713 56.3526 -0.0325431 0.0017516 -0.999468
-1.25364 17.6806 56.3272 -0.0340276 0.00293699 -0.999413
-0.419419 17.6419 56.2964 -0.0371572 0.00370435 -0.999303
0.408438 17.6903 56.2712 -0.0300467 -0.000989402 -0.999539
0.988249 17.4242 56.2503 -0.048449 0.012492 -0.998748
0.0852291 17.2518 56.2794 -0.0261208 0.00059323 -0.999659
-0.805343 17.2737 56.3091 -0.0360562 0.00464846 -0.999339
-1.61194 17.2577 56.3381 -0.0340199 0.00293049 -0.999413
-2.30625 17.2921 56.3599 -0.0293963 0.00442295 -0.999558
1.51551 17.3382 56.2283 -0.0323883 0.0111245 -0.999413
2.2138 17.5918 56.2083 -0.0311939 0.0101608 -0.99946
2.87234 17.6882 56.1911 -0.026619 0.0111997 -0.999583
3.47075 17.6305 56.1722 -0.0411625 0.0120176 -0.999044
4.25756 17.5715 56.133 -0.0566942 0.0289746 -0.997971
3.82528 17.218 56.1462 -0.0460357 0.021921 -0.998682
3.06238 17.2292 56.1858 -0.0261192 0.0258585 -0.99818
2.22361 17.2745 56.205 -0.0297101 0.0094329 -0.999514
1.60346 17.337 56.2255 -0.0323858 0.0111218 -0.999414
-10.0713 17.8145 56.5991 -0.0232798 0.0347623 -0.999124
-10.7015 17.5791 56.6055 -0.0242994 0.0355418 -0.999072
-11.4472 17.7148 56.6259 -0.00751975 0.0450863 -0.998955
-10.709 17.776 56.6129 -0.0254205 0.0363181 -0.999017
-10.3241 17.7156 56.6015 -0.0232262 0.0347725 -0.999125
-18.0581 4.60144 54.9913 0.0805618 0.0914784 -0.992543
-18.0517 3.6512 54.9048 0.0792027 0.0910536 -0.992691
-18.242 2.92988 54.8234 0.0824303 0.0958394 -0.991961
-18.4848 2.05951 54.7216 0.0825903 0.0916408 -0.992359
-18.607 1.1986 54.6337 0.0919664 0.0920683 -0.991495
-18.5575 0.368485 54.5604 0.0946367 0.095532 -0.990909
-18.4091 -0.479273 54.493 0.0943697 0.0936645 -0.991119
-18.2773 -1.23197 54.4416 0.092614 0.0839877 -0.992154
-18.2675 -1.98639 54.3776 0.0961282 0.0838871 -0.991823
-18.2554 -2.86726 54.3038 0.0988013 0.083954 -0.991559
-18.1434 -3.63351 54.2526 0.099411 0.0793978 -0.991874
-18.1606 -4.60983 54.1734 0.102301 0.0829327 -0.991268
-18.1571 -5.54247 54.0956 0.112397 0.0797378 -0.990455
-18.2032 -6.43128 54.0244 0.126163 0.074522 -0.989205
-18.1012 -7.203 53.9816 0.126086 0.0676547 -0.98971
-17.8782 -7.96864 53.958 0.120047 0.0652723 -0.99062
-17.6363 -8.70422 53.9421 0.122299 0.0561352 -0.990897
-17.2978 -9.41151 53.9453 0.128653 0.0575779 -0.990016
-16.6978 -9.98326 53.9998 0.134158 0.0408729 -0.990117
-15.8487 -10.2933 54.0962 0.118366 0.0243681 -0.992669
-15.0853 -10.4606 54.1845 0.113314 0.0216641 -0.993301
-14.0755 -10.3984 54.2868 0.0875213 0.019897 -0.995936
-13.3026 -10.1923 54.3557 0.0751377 0.0228336 -0.996912
-12.4913 -9.83564 54.4225 0.0685995 0.0239973 -0.997356
-11.7384 -9.26197 54.4815 0.0537571 0.0247385 -0.998248
-11.2317 -8.6735 54.5253 0.0475851 0.0308568 -0.998388
-10.5791 -8.26076 54.568 0.043106 0.0315925 -0.998566
-9.94946 -7.85335 54.6061 0.036155 0.0335697 -0.998766
-9.37658 -7.27028 54.642 0.0293364 0.0288389 -0.999131
-8.90099 -6.5744 54.6796 0.0270307 0.0336908 -0.999067
-8.50796 -5.88162 54.715 0.0138399 0.041322 -0.99905
-7.9522 -5.20029 54.7537 0.0149439 0.0507506 -0.9986
-7.34733 -4.69647 54.7927 0.0125641 0.0581075 -0.998198
-6.77338 -4.1918 54.8241 0.00176951 0.0523385 -0.998613
-6.17855 -3.71576 54.8502 0.00954624 0.0515734 -0.998601
-5.59899 -3.24004 54.8808 0.0148745 0.0500946 -0.998634
-4.98149 -2.74209 54.9122 0.000908775 0.0570429 -0.998356
-4.42222 -2.13327 54.9481 -0.00341626 0.0493394 -0.998776
-3.96537 -1.45513 54.9835 -0.00136656 0.055064 -0.998482
-3.4061 -0.772358 55.0227 0.00494743 0.0584915 -0.998276
-2.77656 -0.16476 55.0602 -0.00671076 0.0609225 -0.998106
-2.2567 0.483112 55.0947 -0.0321598 0.0716748 -0.996909
-1.69286 1.20661 55.1294 -0.0352271 0.0734421 -0.996677
-1.03894 1.72687 55.1408 -0.0428482 0.0850112 -0.995458
-0.312176 1.95951 55.1409 -0.015937 0.0661926 -0.99768
0.556498 1.39816 55.1041 -0.00556926 0.0366347 -0.999306
1.20325 0.972411 55.0969 0.0164687 0.012999 -0.999771
1.9883 0.529525 55.1183 0.0381399 -0.00143333 -0.999271
2.42828 0.0468526 55.1493 0.0544392 -0.0255732 -0.998169
1.90559 -0.539194 55.1335 0.0614673 -0.0332438 -0.997555
1.2673 -1.19505 55.119 0.0545907 -0.0316659 -0.998007
0.635213 -1.75877 55.099 0.0571227 -0.0306794 -0.99789
-0.0450007 -2.24398 55.0719 0.0617853 -0.0209776 -0.997869
-0.68222 -2.68621 55.0458 0.0613707 -0.0291522 -0.997689
-1.3874 -3.23645 55.0139 0.0559976 -0.00679423 -0.998408
-1.99625 -3.91384 54.9916 0.0542052 -0.0235763 -0.998251
-2.47226 -4.50387 54.9675 0.073363 -0.0193748 -0.997115
-3.07384 -5.11633 54.936 0.0716761 -0.0184532 -0.997257
-3.72563 -5.60127 54.9079 0.0604644 -0.0228988 -0.997886
-4.23819 -6.29101 54.8804 0.0728296 -0.0103669 -0.997291
-4.73481 -6.91359 54.8521 0.065314 -0.0214062 -0.997635
-5.27158 -7.5178 54.8311 0.0642251 -0.0167346 -0.997786
-5.90337 -8.21376 54.7983 0.0731149 -0.0219237 -0.997083
-6.47348 -8.73613 54.7677 0.0656541 -0.0134618 -0.997752
-7.07556 -9.2473 54.7323 0.0699756 -0.00391146 -0.997541
-7.70542 -9.78022 54.692 0.0660172 -0.00396908 -0.99781
-8.35748 -10.3648 54.6511 0.07031 -0.00855472 -0.997489
-8.99507 -10.9468 54.613 0.0666066 -0.00608296 -0.997761
-9.53062 -11.4815 54.5792 0.0648853 0.0002489 -0.997891
-10.0533 -12.2172 54.5429 0.0645921 0.00207947 -0.99791
-10.3159 -13.0745 54.5228 0.0637655 0.00578524 -0.997947
-10.6997 -14.0107 54.4913 0.0629561 0.00855516 -0.99798
-10.9136 -14.8086 54.4712 0.0587603 0.007299 -0.998245
-10.9116 -15.6424 54.4661 0.0588286 0.00573075 -0.998252
-10.4763 -16.7652 54.4822 0.0491987 0.00316011 -0.998784
-9.85292 -17.3707 54.51 0.0422229 -0.000813147 -0.999108
-9.13847 -17.6783 54.5352 0.0334216 0.00883377 -0.999396
-8.33403 -17.9017 54.5591 0.0335591 0.0201511 -0.999234
-7.39797 -18.0317 54.5903 0.0376207 0.0258595 -0.998957
-6.62653 -18.0684 54.6193 0.037693 0.036097 -0.998635
-5.74328 -18.18 54.6477 0.0366655 0.0365526 -0.998655
-4.80371 -18.207 54.6755 0.0274212 0.0471307 -0.998512
-3.99404 -18.1074 54.7055 0.0303565 0.0460795 -0.998476
-3.1787 -18.0837 54.7267 0.0195866 0.0450264 -0.998793
-2.4189 -18.0826 54.7465 0.0279285 0.0429402 -0.998687
-1.55659 -18.0982 54.7684 0.019876 0.0416374 -0.998935
-0.748907 -18.151 54.7889 0.030249 0.0471215 -0.998415
0.0343986 -18.0927 54.8099 0.0220969 0.0497317 -0.998518
0.78997 -18.1555 54.8211 0.0314431 0.0398309 -0.998712
1.5384 -18.2731 54.8444 0.0254288 0.0519701 -0.998325
2.35822 -18.3115 54.8598 0.0138655 0.0457717 -0.998851
3.10977 -18.3154 54.8716 0.0212806 0.0652337 -0.997616
4.00019 -18.2702 54.903 0.0246056 0.0573955 -0.998034
4.76849 -18.2138 54.9219 0.022858 0.0620119 -0.997811
5.65503 -18.314 54.9297 0.0230681 0.0648126 -0.997629
6.47987 -18.3202 54.9522 0.0301469 0.0449821 -0.998533
7.39666 -18.2108 54.9827 0.0264036 0.04389 -0.998687
8.18443 -18.1499 55.0036 0.0168694 0.0494274 -0.998624
9.03586 -18.1205 55.0134 -0.00465859 0.0548422 -0.99841
9.85756 -18.1945 55.0371 0.0301244 0.0472554 -0.998428
10.6438 -18.325 55.052 0.0265236 0.04856 -0.998465
11.4081 -18.4121 55.0676 0.0203545 0.0328996 -0.999251
11.7367 -18.9345 55.0624 0.0224053 0.0175055 -0.999591
11.5423 -19.6808 55.0484 0.0284268 0.00168402 -0.999594
11.4442 -20.685 55.049 0.0280806 -0.0118759 -0.999535
10.9015 -21.1213 55.0395 0.0295585 -0.013184 -0.999473
10.0851 -21.109 55.013 0.0289004 -0.012189 -0.999501
9.28057 -21.0943 54.9927 0.0247598 -0.0150325 -0.99958
8.37768 -21.0793 54.9676 0.0265208 -0.0137477 -0.999553
7.49813 -21.0189 54.9416 0.0311328 -0.00462624 -0.999504
6.57146 -21.0826 54.9139 0.0320373 -0.00239145 -0.999484
5.739 -21.0856 54.8894 0.0263364 -0.00718059 -0.999627
4.93611 -21.1205 54.8694 0.0229285 -0.0110499 -0.999676
3.99634 -21.1817 54.8484 0.0218452 -0.00793563 -0.99973
3.21096 -21.1698 54.8293 0.0222033 -0.0171938 -0.999605
2.33703 -21.0932 54.8058 0.0262736 -0.00789261 -0.999623
1.41433 -21.108 54.7807 0.027054 -0.0092395 -0.99959
0.507738 -20.9465 54.7554 0.0299122 0.00208521 -0.99955
-0.367728 -20.8335 54.7349 0.0188307 0.00491134 -0.999809
-1.29723 -20.893 54.7189 0.0180852 0.0022229 -0.999832
-2.04528 -21.0234 54.7053 0.0280584 -0.00116992 -0.999595
-2.79683 -21.041 54.681 0.0282651 -0.00679677 -0.999564
-3.60264 -20.8281 54.6616 0.0295899 0.00283381 -0.999557
-4.46269 -21.1035 54.6365 0.0225023 -0.00056091 -0.999747
-5.20563 -20.8921 54.6173 0.0228647 0.000407661 -0.999729
-5.95926 -20.8909 54.6029 0.0210078 -0.00841138 -0.99974
-6.74171 -20.8914 54.5891 0.012879 -0.00923984 -0.999872
-7.50079 -20.9414 54.5808 0.017084 -0.0165274 -0.99971
-8.32142 -21.0252 54.5774 0.00498166 -0.0317742 -0.999476
-9.17849 -21.0837 54.5706 0.0140486 -0.0339621 -0.999324
-10.1269 -21.0285 54.5572 0.0101137 -0.0293422 -0.999515
-10.9702 -21.0075 54.5496 2.61811e-05 -0.0252189 -0.999669
-11.7736 -21.0816 54.5547 -0.00358216 -0.0301392 -0.999539
-12.3665 -20.4689 54.5346 0.004025 -0.0310024 -0.999509
-12.4611 -19.7232 54.5115 0.00896135 -0.0270597 -0.999594
-12.544 -18.9438 54.4888 0.0100958 -0.0288439 -0.999533
-12.6495 -18.0977 54.4611 0.0160128 -0.0376086 -0.999164
-12.9724 -17.219 54.4217 0.0224974 -0.0364773 -0.99908
-13.5858 -16.3354 54.3687 0.0334555 -0.0460425 -0.998379
-14.1361 -15.8084 54.3245 0.0563047 -0.0372091 -0.99772
-15.0032 -15.2575 54.2439 0.0784776 -0.0430932 -0.995984
-15.9693 -15.0081 54.1362 0.108211 -0.0499907 -0.992866
-16.7589 -15.0031 54.0267 0.145684 -0.0606604 -0.987435
-17.4936 -15.1464 53.9083 0.213808 -0.0714044 -0.974263
-18.2405 -15.4396 53.7595 0.235784 -0.0700268 -0.969279
-19.0617 -15.6987 53.5412 0.292393 -0.0379478 -0.955544
-19.7909 -15.7264 53.2932 0.349007 -0.0227776 -0.936798
-20.6619 -15.7742 52.9379 0.385832 0.00455041 -0.922558
-21.5475 -15.7307 52.5204 0.440915 0.0174424 -0.897379
-22.4957 -16.2313 51.89 0.541596 0.0154408 -0.840292
-23.0944 -15.761 51.5036 0.581862 0.0635404 -0.810723
-23.9648 -15.7995 50.834 0.6148 0.0948939 -0.782645
-24.5788 -15.2747 50.4405 0.597564 0.119079 -0.792819
-25.0994 -14.228 50.2331 0.584596 0.13587 -0.799867
-25.6438 -13.4907 49.9841 0.57429 0.159274 -0.803008
-26.087 -12.8892 49.7818 0.565393 0.154802 -0.810057
-26.6827 -12.256 49.5048 0.552302 0.164096 -0.817334
-27.2393 -11.6512 49.2473 0.552373 0.159548 -0.818186
-27.8425 -10.9162 48.989 0.546779 0.167141 -0.820425
-28.4634 -10.3377 48.6856 0.545408 0.133407 -0.827485
-29.108 -9.84468 48.3391 0.549437 0.134064 -0.824701
-29.8499 -9.25975 47.9468 0.540744 0.132831 -0.830633
-30.5397 -8.66538 47.5938 0.538922 0.1338 -0.831661
-31.1118 -7.97699 47.3415 0.535136 0.125769 -0.835196
-31.4681 -7.18202 47.2141 0.542366 0.10052 -0.83409
-31.9374 -6.44589 46.9916 0.544986 0.0954738 -0.832992
-32.4864 -5.75786 46.7127 0.541471 0.0963583 -0.835179
-32.9461 -5.21836 46.4609 0.563454 0.0714 -0.823056
-33.0515 -4.16935 46.4778 0.558637 0.0663525 -0.826752
-32.3732 -4.15036 46.936 0.554512 0.06999 -0.829211
-31.4763 -4.81365 47.4673 0.546178 0.0733635 -0.83445
-30.7331 -5.52674 47.8799 0.535133 0.0850982 -0.840451
-30.2637 -6.1508 48.1132 0.541658 0.0887668 -0.835899
-29.7615 -6.78787 48.3627 0.535711 0.0983521 -0.838654
-29.1624 -7.40586 48.6675 0.538908 0.11552 -0.834405
-28.6416 -7.87332 48.9394 0.539467 0.115738 -0.834015
-28.107 -8.45505 49.2019 0.537426 0.118841 -0.834894
-27.5878 -9.11856 49.4389 0.539061 0.122811 -0.833252
-27.1236 -9.67862 49.6595 0.544307 0.121124 -0.830096
-26.6076 -10.2526 49.9141 0.546018 0.127331 -0.828013
-26.0277 -10.6975 50.2209 0.542976 0.136975 -0.828502
-25.0594 -10.9067 50.8193 0.540103 0.131897 -0.831199
-24.4067 -10.8747 51.2473 0.532911 0.124351 -0.836961
-23.7753 -10.6152 51.6848 0.528721 0.128358 -0.839034
-23.1486 -10.2331 52.1234 0.495547 0.12331 -0.859696
-22.5838 -9.79265 52.5001 0.48858 0.115651 -0.864819
-22.2513 -9.14717 52.7753 0.486478 0.111471 -0.866542
-22.0428 -8.42156 52.9672 0.441213 0.0435086 -0.895967
-22.0093 -7.6538 53.0393 0.416008 0.0966044 -0.904214
-22.0255 -6.83427 53.1313 0.41368 0.130235 -0.901059
-22.1165 -6.04662 53.2014 0.456336 0.143241 -0.87807
-22.1057 -5.22225 53.3359 0.437556 0.0900347 -0.894672
-22.0525 -4.39627 53.4303 0.41611 0.0967009 -0.903633
-22.022 -3.61948 53.5085 0.344241 0.0691773 -0.936293
-22.0113 -2.73563 53.5883 0.332541 0.0860967 -0.939151
-21.963 -1.9021 53.6851 0.398861 0.0794085 -0.913567
-21.9847 -0.975613 53.7573 0.334246 0.115521 -0.935379
-22.0232 -0.198162 53.8366 0.36737 0.103039 -0.92435
-21.9836 0.672986 53.9557 0.399365 0.078945 -0.913101
-21.9345 1.46576 54.0561 0.373764 0.115204 -0.920342
-21.988 2.22455 54.122 0.32464 0.139146 -0.935547
-22.0483 3.11672 54.1875 0.298944 0.0662694 -0.951856
-22.0987 3.92242 54.2148 0.392022 0.0494877 -0.918608
-22.1875 4.68323 54.2608 0.427802 0.0772301 -0.900557
-22.1706 5.55235 54.3484 0.410451 0.11512 -0.903898
-21.6857 5.91914 54.565 0.310679 0.130572 -0.941458
-20.8795 5.40674 54.7283 0.270745 0.0412082 -0.961769
-20.1675 5.0093 54.8163 0.145324 0.0932904 -0.984854
-19.3169 4.73331 54.8958 0.0909957 0.0912346 -0.991663
-18.5672 4.68024 54.9568 0.0815179 0.091222 -0.992488
-18.2606 4.67118 54.9812 0.0812269 0.0911093 -0.992523
-19.8151 3.24549 54.6923 0.119615 0.102456 -0.987519
-19.9833 2.41215 54.6028 0.111825 0.0868206 -0.989907
-20.0681 1.36238 54.4944 0.122479 0.0914577 -0.988248
-20.1243 0.560552 54.4078 0.130481 0.106854 -0.985676
-20.0173 -0.411819 54.3211 0.130803 0.0984051 -0.986513
-19.8322 -1.33499 54.2497 0.16072 0.109116 -0.980881
-19.8279 -2.27756 54.1583 0.159578 0.0932217 -0.982774
-19.8207 -3.04776 54.0905 0.179425 0.078573 -0.980629
-19.7721 -3.79751 54.0428 0.163327 0.0710385 -0.983649
-19.752 -4.65058 53.9704 0.155773 0.102399 -0.982471
-19.7659 -5.46248 53.8951 0.150446 0.0930872 -0.984137
-19.7607 -6.44158 53.8043 0.162451 0.092429 -0.982378
-19.6736 -7.37488 53.7437 0.154943 0.0742323 -0.985129
-19.4441 -8.32485 53.7048 0.165763 0.0748548 -0.98324
-19.1906 -9.05686 53.7019 0.168047 0.0613265 -0.983743
-18.793 -9.87329 53.7094 0.152178 0.0665148 -0.986112
-18.3534 -10.503 53.7409 0.156944 0.0530653 -0.98618
-17.8222 -11.122 53.7944 0.152787 0.034014 -0.987674
-17.1963 -11.5579 53.8736 0.149419 0.0246581 -0.988397
-16.3697 -11.8377 53.9978 0.152954 0.0134836 -0.988141
-15.477 -11.9702 54.1182 0.130529 0.0103462 -0.991391
-14.6862 -12.039 54.2121 0.114426 0.00792982 -0.9934
-13.9103 -11.9595 54.2848 0.0825983 0.00395027 -0.996553
-12.9057 -11.728 54.3644 0.0706351 0.00834564 -0.997467
-12.1466 -11.429 54.4179 0.0638161 0.00961883 -0.997915
-11.4638 -11.0203 54.4645 0.0598943 0.0125287 -0.998126
-11.4585 -11.6102 54.4592 0.0608632 0.0102346 -0.998092
-11.7358 -12.3612 54.4374 0.0626119 0.00571186 -0.99802
-12.034 -13.2502 54.4132 0.0649072 0.00584083 -0.997874
-12.3027 -14.1127 54.3944 0.0581452 0.000425333 -0.998307
-12.4872 -14.9494 54.3861 0.0536243 -0.00555777 -0.998542
-13.1394 -14.591 54.3485 0.0588096 -0.0107308 -0.998212
-13.8145 -14.1488 54.2995 0.0680827 -0.018338 -0.997511
-14.4778 -13.7912 54.2415 0.0850675 -0.0210541 -0.996153
-15.2382 -13.5235 54.1603 0.11279 -0.0222451 -0.993365
-15.9785 -13.4028 54.0636 0.138276 -0.0245931 -0.990088
-16.7543 -13.3736 53.9499 0.149258 -0.0302826 -0.988334
-17.4954 -13.5244 53.8241 0.179014 -0.0181926 -0.983666
-18.2366 -13.7472 53.6836 0.211217 -0.0245488 -0.977119
-18.9395 -13.999 53.5291 0.232571 -0.0204436 -0.972365
-19.7852 -14.1047 53.2959 0.281576 0.0323474 -0.958889
-20.5636 -14.1031 53.0397 0.34866 0.0474566 -0.936047
-21.2998 -14.083 52.7472 0.39413 0.0600697 -0.917089
-22.1603 -14.0272 52.248 0.527404 0.0802129 -0.845736
-23.0146 -13.9982 51.7147 0.544138 0.0891028 -0.834251
-23.709 -13.7283 51.2867 0.562096 0.112777 -0.81925
-24.1867 -13.1101 51.0549 0.55501 0.118978 -0.823248
-24.4171 -12.4771 50.9974 0.547514 0.125872 -0.827261
-23.6912 -12.2676 51.5007 0.532236 0.112227 -0.83907
-22.8376 -11.9897 52.0685 0.514776 0.105021 -0.850725
-22.2039 -11.5441 52.4815 0.495355 0.0902959 -0.863985
-21.6101 -10.937 52.8662 0.410287 0.118267 -0.904214
-21.2156 -10.3161 53.121 0.326315 0.131966 -0.936004
-20.8751 -9.64384 53.3037 0.295479 0.0878208 -0.951304
-20.6295 -8.92404 53.4321 0.213618 0.0804798 -0.973534
-20.5053 -8.15283 53.5216 0.214162 0.0796554 -0.973494
-20.4601 -7.38379 53.5955 0.235256 0.072704 -0.969169
-20.5099 -6.63717 53.6466 0.208459 0.0876456 -0.973967
-20.5689 -5.67026 53.7301 0.187734 0.110996 -0.975928
-20.5928 -4.90342 53.802 0.203502 0.083133 -0.975539
-20.543 -4.14768 53.8693 0.230519 0.0646417 -0.970918
-20.4414 -3.09998 53.9728 0.180575 0.0807701 -0.980236
-20.4192 -2.30386 54.0598 0.163008 0.0993144 -0.981588
-20.3794 -1.49654 54.1421 0.162038 0.0950915 -0.982185
-20.4575 -0.584436 54.2309 0.194007 0.109179 -0.974898
-20.4405 0.174208 54.3166 0.188142 0.101445 -0.976864
-20.2637 0.992843 54.4294 0.184992 0.0878747 -0.978797
-20.4183 1.80152 54.4742 0.177842 0.107169 -0.978206
-20.5565 2.64783 54.5227 0.168416 0.0729703 -0.983011
-20.5004 3.42422 54.6104 0.149082 0.107125 -0.983005
-19.9096 3.28968 54.6853 0.134725 0.104088 -0.985293
-19.7602 -11.1263 53.4541 0.194545 0.064559 -0.978767
-20.3979 -11.7176 53.2558 0.273887 0.081046 -0.958341
-20.8431 -12.3576 53.0752 0.405349 0.0711718 -0.911387
-20.2694 -12.5482 53.2321 0.249909 0.0796112 -0.964991
-19.5352 -12.5152 53.417 0.220142 0.0436295 -0.974379
-19.0002 -12.0398 53.5515 0.190924 0.0394775 -0.980684
-19.4828 -11.4436 53.4884 0.198472 0.0739355 -0.97726
-19.6521 -11.2534 53.4673 0.194545 0.0645586 -0.978767
-10.9611 -18.6142 54.4939 0.0104929 -0.0224173 -0.999694
-10.677 -19.4325 54.5137 0.00741015 -0.0184002 -0.999798
-9.93932 -19.5079 54.5209 0.0135365 -0.0224788 -0.999656
-9.17142 -19.4772 54.5341 0.019528 -0.0117055 -0.999741
-9.06249 -19.3577 54.5348 0.0190092 -0.0117926 -0.99975
-9.7584 -19.0267 54.519 0.0178224 -0.00869789 -0.999803
-10.4318 -18.6849 54.503 0.0209244 -0.0147621 -0.999668
-10.6953 -18.6444 54.4974 0.0104873 -0.0224203 -0.999694
-7.64558 -7.65593 54.6968 0.0420562 0.00330374 -0.99911
-7.19891 -7.0162 54.7201 0.0436493 0.00794428 -0.999015
-6.95209 -6.41841 54.7392 0.0381084 0.0203468 -0.999066
-6.27923 -5.88316 54.7756 0.0432366 0.0125636 -0.99898
-5.6921 -5.42861 54.8058 0.029769 0.0189014 -0.999378
-5.75156 -5.73681 54.7988 0.0454201 0.00780573 -0.998934
-6.25451 -6.31124 54.7706 0.0461924 0.0131109 -0.998847
-6.77306 -6.86713 54.7404 0.0451185 0.0112999 -0.998918
-7.40335 -7.47232 54.7076 0.0427334 0.00560083 -0.999068
-7.43478 -7.49785 54.7062 0.0420503 0.00330227 -0.99911
-2.17004 -1.78385 54.9889 0.0102313 0.0288466 -0.999531
-1.47361 -1.14854 55.0171 0.0142018 0.0220747 -0.999597
-1.07998 -0.544178 55.0345 0.00817079 0.0390737 -0.999203
-0.480765 0.0787336 55.0546 0.000589952 0.0278202 -0.999608
-0.222073 -0.522194 55.0506 0.0211938 0.00599814 -0.999756
-0.917884 -1.02191 55.0273 0.0237087 0.0145999 -0.999612
-1.60731 -1.4028 55.0065 0.0195811 0.0314695 -0.999313
-1.92605 -1.60381 54.9966 0.0102285 0.0288407 -0.999532
-23.3213 -22.3604 51.1778 0.675414 0.0220251 -0.737051
-23.5313 -22.3389 50.9838 0.694445 0.0107301 -0.71945
-23.4812 -22.3465 51.0325 0.685734 0.0218271 -0.727285
-24.5498 -22.231 50.0025 0.699602 -0.0120057 -0.714428
-25.1975 -22.3689 49.3691 0.700814 -0.0172969 -0.713124
-24.7216 -22.2524 49.8344 0.700217 -0.0142592 -0.713788
-28.1781 -20.7955 46.4279 0.653152 0.00377543 -0.757217
-28.8148 -21.2143 45.8698 0.66441 -0.0118759 -0.747257
-29.3944 -21.354 45.3435 0.675391 -0.00834113 -0.737407
-30.0873 -21.4101 44.7155 0.664934 0.00499552 -0.746885
-30.6808 -21.4162 44.192 0.659425 0.000854846 -0.75177
-31.297 -21.2028 43.6425 0.664496 -0.00863309 -0.747227
-31.9321 -20.8002 43.1396 0.605441 0.0174074 -0.79561
-32.3631 -20.221 42.8584 0.565048 0.0353288 -0.824301
-32.7435 -19.5769 42.6497 0.533601 0.13044 -0.833072
-32.9061 -18.5873 42.8364 0.466194 0.237835 -0.852114
-32.9086 -17.8703 43.0847 0.503596 0.296862 -0.810681
-32.6388 -17.1458 43.5431 0.529276 0.30403 -0.792107
-32.2096 -16.6772 44.0296 0.548863 0.318395 -0.7729
-31.4862 -16.2512 44.7185 0.56051 0.297517 -0.772852
-30.8855 -16.1193 45.2058 0.571616 0.293311 -0.766219
-30.1628 -16.2212 45.7195 0.581065 0.292208 -0.759591
-29.3917 -16.4423 46.2352 0.593128 0.287775 -0.751921
-28.5212 -16.9737 46.7388 0.604476 0.266499 -0.750601
-27.8875 -17.4402 47.0719 0.587379 0.27651 -0.760492
-28.0835 -18.1265 46.7031 0.48901 0.133127 -0.862059
-28.1984 -18.8649 46.4823 0.597979 0.103262 -0.79469
-28.1509 -19.6797 46.4704 0.64212 0.0490326 -0.765034
-28.1488 -20.4535 46.4549 0.653014 0.0136016 -0.757162
-28.1756 -20.7823 46.4301 0.653152 0.00377542 -0.757217
-29.4096 -19.5762 45.393 0.663297 0.068079 -0.744902
-29.3354 -18.711 45.5703 0.635338 0.118213 -0.762985
-29.5652 -17.9141 45.5532 0.584466 0.220847 -0.780059
-30.1763 -17.6813 45.1665 0.601065 0.243687 -0.761143
-30.7509 -17.7425 44.6869 0.622981 0.267045 -0.735051
-31.2563 -18.0072 44.1912 0.571926 0.311825 -0.758726
-31.5748 -18.5173 43.7527 0.61936 0.17303 -0.765803
-31.4439 -19.2237 43.7008 0.636849 0.167727 -0.752523
-30.8739 -19.6805 44.1244 0.644425 0.0997325 -0.758136
-30.2503 -19.7981 44.6444 0.650237 0.0511967 -0.758005
-29.5699 -19.7202 45.2432 0.661874 0.0474267 -0.748113
-29.5203 -19.6902 45.289 0.659788 0.0472138 -0.749962
-37.3234 -19.6535 40.177 0.423594 0.115095 -0.898511
-37.9212 -18.6834 40.0303 0.42728 0.144796 -0.89245
-38.7337 -18.3074 39.6886 0.456604 0.133934 -0.879531
-39.4034 -18.3282 39.3378 0.466095 0.127579 -0.875433
-40.0665 -18.5947 38.9579 0.458966 0.113569 -0.881165
-40.7392 -19.0921 38.5644 0.4362 0.102782 -0.893961
-41.4598 -19.8462 38.1559 0.436568 0.0581409 -0.89765
-41.1869 -20.5133 38.2381 0.424575 0.0551775 -0.90371
-40.5895 -21.2465 38.4695 0.406396 0.0584372 -0.911824
-39.8596 -21.6023 38.7703 0.404519 0.0541314 -0.912907
-38.9528 -21.792 39.1749 0.422302 0.058522 -0.904564
-38.2565 -21.6847 39.5085 0.431878 0.078772 -0.898404
-37.6924 -21.0117 39.847 0.428602 0.0905141 -0.898948
-37.3758 -20.2733 40.0729 0.426542 0.103331 -0.898463
-37.3049 -19.9995 40.1414 0.423596 0.115091 -0.89851
-39.1873 -19.9867 39.2259 0.446699 0.10966 -0.887938
-39.4486 -19.9848 39.0947 0.446698 0.10966 -0.887939
-43.5243 -19.7651 37.0645 0.525011 0.0104224 -0.851021
-44.1191 -20.7384 36.683 0.523325 0.0141435 -0.852016
-44.6405 -21.2258 36.3709 0.534647 -0.00354736 -0.845068
-45.3816 -21.132 35.8918 0.550289 -0.00646841 -0.834934
-45.4591 -20.2081 35.8436 0.542989 0.0137198 -0.839627
-45.503 -19.4222 35.8241 0.544448 0.00366635 -0.838787
-45.328 -18.7406 35.9265 0.556762 -0.00916029 -0.830139
-44.6211 -18.8504 36.3991 0.535861 0.0205973 -0.844035
-44.1044 -19.3331 36.7105 0.533291 0.0255145 -0.845547
-43.6631 -19.6444 36.9794 0.529993 0.0161054 -0.847788
-56.8542 -15.8874 28.5454 0.301197 0.0688756 -0.951071
-57.2787 -16.5651 28.3753 0.296898 0.0458169 -0.953809
-57.9199 -16.8605 28.1633 0.289604 0.0342933 -0.956532
-58.7374 -16.8234 27.9345 0.269543 0.039459 -0.962179
-59.4782 -16.2808 27.7501 0.268757 0.0397398 -0.962388
-59.6801 -15.2702 27.7419 0.247879 0.0455817 -0.967718
-59.1743 -14.2222 27.9381 0.285294 0.0465985 -0.95728
-58.0892 -13.9943 28.2739 0.302894 0.0452683 -0.951904
-57.0152 -14.4452 28.5942 0.302084 0.0556016 -0.951659
-56.789 -15.3145 28.6074 0.303093 0.0674909 -0.950568
-56.7864 -15.4669 28.5974 0.302134 0.0682048 -0.950822
-56.8647 -9.98385 28.9468 0.365214 0.0612935 -0.928903
-57.8412 -9.69331 28.5904 0.333784 0.0472259 -0.941346
-58.3716 -9.01381 28.4373 0.343567 0.0587163 -0.93729
-58.5454 -8.13085 28.4335 0.332961 0.0622333 -0.940885
-58.1798 -7.36589 28.6081 0.34691 0.0486238 -0.936597
-57.6644 -6.83253 28.8314 0.364718 0.0587655 -0.929135
-56.7289 -6.59574 29.2319 0.38492 0.0670698 -0.92051
-55.9447 -6.82193 29.5554 0.430973 0.0727521 -0.899402
-55.267 -7.51469 29.8173 0.436566 0.0764989 -0.896367
-54.9665 -8.21316 29.9083 0.442961 0.0739984 -0.893482
-55.3177 -9.29811 29.6361 0.428334 0.0851511 -0.899507
-55.9801 -9.87469 29.3013 0.363818 0.0609294 -0.929475
-56.4435 -9.94336 29.1151 0.365214 0.0612935 -0.928903
-56.7679 -8.43972 29.0833 0.37463 0.0619914 -0.9251
-56.8228 -8.44988 29.0604 0.374631 0.0619913 -0.925099
-56.5003 0.262388 29.7048 0.442061 0.0439766 -0.895839
-57.2591 0.502015 29.3672 0.400634 0.0310601 -0.915712
-58.0003 1.04145 29.0649 0.397147 0.0311625 -0.917223
-58.368 1.76319 28.9338 0.388095 0.0339706 -0.920993
-58.3701 2.56536 28.948 0.38064 0.0170939 -0.924474
-58.0872 3.3372 29.0839 0.398437 0.022251 -0.916926
-57.477 3.81541 29.3805 0.430389 0.0316461 -0.902089
-56.3449 4.02967 29.9409 0.44321 0.0152013 -0.896289
-55.6339 3.88134 30.2899 0.451624 0.0203595 -0.891911
-54.8991 3.29065 30.6787 0.484128 0.025672 -0.87462
-54.5584 2.61124 30.8405 0.478153 0.0349176 -0.877582
-54.6136 1.67496 30.7648 0.488492 0.0428699 -0.871437
-54.9885 0.998892 30.5227 0.475898 0.0402115 -0.878476
-55.664 0.505377 30.1407 0.465456 0.0470303 -0.883821
-56.2557 0.280277 29.8292 0.450619 0.0383805 -0.891891
-56.5983 1.93212 29.7277 0.446439 0.0357337 -0.893954
-56.6247 2.40955 29.7331 0.445852 0.0347397 -0.894254
-56.0675 2.13698 30.012 0.458295 0.0447467 -0.887673
-56.1969 2.06343 29.9415 0.458294 0.0447459 -0.887674
-53.7269 11.0989 31.2391 0.468536 -0.0748446 -0.880268
-53.0489 10.9469 31.615 0.493136 -0.0781493 -0.866303
-51.9591 11.0065 32.2478 0.504119 -0.0861974 -0.859322
-51.019 10.992 32.8289 0.534328 -0.076997 -0.841652
-50.2796 10.5011 33.3609 0.556434 -0.0820591 -0.826762
-49.7074 9.97974 33.7987 0.563407 -0.0634932 -0.823736
-49.1004 9.33458 34.277 0.580964 -0.0558226 -0.811975
-48.5001 9.04621 34.7338 0.588184 -0.0556417 -0.806811
-47.8496 9.06182 35.2118 0.593951 -0.0534994 -0.802721
-47.2755 9.39175 35.6231 0.603243 -0.0520937 -0.795854
-46.9026 10.0898 35.8597 0.603707 -0.0573168 -0.795127
-47.0487 11.1075 35.6696 0.609709 -0.0593959 -0.790396
-47.7566 11.6305 35.0791 0.605538 -0.0746224 -0.79231
-48.4173 11.9876 34.5389 0.600343 -0.0796706 -0.795715
-49.1183 12.171 33.995 0.597567 -0.0871497 -0.797069
-49.8327 12.5372 33.4446 0.566571 -0.111991 -0.816143
-50.4261 12.8825 32.974 0.547482 -0.12509 -0.827007
-50.9006 13.4431 32.5974 0.529677 -0.132123 -0.837737
-51.3563 14.268 32.1869 0.490671 -0.136361 -0.860608
-52.1609 14.7762 31.6713 0.453371 -0.136135 -0.880864
-53.0678 14.8793 31.2071 0.435331 -0.120565 -0.892161
-53.8671 14.7339 30.8317 0.417704 -0.0965961 -0.903434
-54.4665 14.2818 30.5978 0.430268 -0.0851591 -0.898675
-54.9128 13.2731 30.4678 0.431033 -0.0664391 -0.899886
-54.8963 12.4529 30.5331 0.438201 -0.0594488 -0.896874
-54.4981 11.6347 30.7902 0.450149 -0.0632117 -0.890672
-53.7921 11.1303 31.2018 0.468536 -0.0748459 -0.880268
-53.2053 12.4674 31.4 0.473404 -0.0839211 -0.87682
-52.4635 12.3693 31.8138 0.490639 -0.0884645 -0.866704
-52.4328 12.9987 31.7669 0.490642 -0.0884647 -0.866702
-53.048 13.1848 31.4194 0.470525 -0.0794763 -0.8788
-53.3764 12.8819 31.2709 0.470526 -0.079476 -0.8788
-59.1879 17.2203 28.5364 0.304121 -0.00792978 -0.952454
-59.9743 16.5334 28.2779 0.301427 0.00556843 -0.953459
-60.726 16.63 28.0439 0.297516 0.00238868 -0.954714
-61.3294 17.1137 27.8717 0.282928 -0.00582358 -0.959124
-61.3565 18.0137 27.8572 0.281949 -0.00849685 -0.959392
-60.9811 18.6458 27.9619 0.283776 -0.00786308 -0.958856
-60.0101 18.7688 28.2476 0.284066 -0.0190925 -0.958615
-59.1976 18.0307 28.5155 0.317193 -0.0201107 -0.948148
-59.176 17.2799 28.5386 0.310049 -0.022358 -0.950426
-45.839 18.758 36.4569 0.567802 0.0162444 -0.822995
-45.3998 18.0578 36.7347 0.567835 0.0365106 -0.822332
-44.7916 17.9124 37.1477 0.554673 0.0186886 -0.831515
-44.0867 18.0028 37.5982 0.546059 -0.0243488 -0.837393
-43.3708 18.3375 38.0497 0.525819 -0.0331187 -0.849922
-42.8417 18.8564 38.3509 0.523327 -0.0395266 -0.851215
-42.5604 19.6595 38.4926 0.505697 -0.0297661 -0.862165
-42.7167 20.6255 38.365 0.498722 -0.0271635 -0.866313
-43.2696 21.3545 38.0276 0.501578 -0.0217512 -0.864839
-43.9574 21.6037 37.6352 0.492764 0.00710175 -0.870134
-44.7562 21.7199 37.1525 0.522727 0.0178935 -0.852312
-45.5408 21.4369 36.6554 0.544757 -0.0028839 -0.838511
-45.8278 20.4591 36.4747 0.544659 -0.00305416 -0.838651
-45.8576 19.6828 36.4567 0.550418 -0.0180859 -0.834503
-45.837 18.7853 36.4587 0.570091 0.0133406 -0.821473
-45.8369 18.7744 36.4586 0.570091 0.0133365 -0.821473
-44.5205 19.7993 37.3088 0.522652 -0.00657573 -0.852521
-44.2974 20.0129 37.4429 0.521403 -0.0133044 -0.853207
-44.5177 19.9411 37.3094 0.522027 -0.00994155 -0.852864
-37.9384 19.5379 41.4026 0.584423 -0.0617871 -0.809092
-37.8585 18.6759 41.525 0.586419 -0.0674757 -0.807161
-37.4353 17.8622 41.9108 0.571903 -0.0948863 -0.814815
-36.6921 17.3156 42.515 0.596451 -0.0897412 -0.797617
-35.9736 17.1978 43.0699 0.605493 -0.0956771 -0.790078
-35.1436 17.5869 43.6772 0.623634 -0.0905118 -0.776459
-34.5893 18.1712 44.0553 0.621585 -0.089938 -0.77816
-34.2886 19.0574 44.2024 0.622675 -0.0750251 -0.778875
-34.3004 19.9046 44.1143 0.635615 -0.0623493 -0.769442
-34.5785 20.7292 43.8166 0.62143 -0.0694378 -0.780386
-35.0958 21.3447 43.3523 0.620329 -0.0669726 -0.781477
-35.7255 21.4619 42.856 0.606136 -0.0683477 -0.792419
-36.3282 21.4223 42.4068 0.578306 -0.063037 -0.813381
-37.0024 21.1407 41.9497 0.578055 -0.0634078 -0.81353
-37.6187 20.3259 41.5719 0.577078 -0.0532834 -0.814847
-37.7384 20.0823 41.5045 0.583841 -0.0628713 -0.80943
-36.4355 19.4288 42.4926 0.585866 -0.0722313 -0.807115
-35.9968 18.8938 42.8685 0.589644 -0.081263 -0.803565
-35.5116 19.3712 43.1863 0.612376 -0.0466559 -0.789066
-36.0757 19.884 42.7144 0.594482 -0.0650298 -0.801259
-36.2226 19.8105 42.6157 0.580848 -0.0655192 -0.811366
-29.5617 20.094 48.3477 0.689166 -0.0313466 -0.723925
-29.3093 19.3204 48.6221 0.689466 -0.0285844 -0.723744
-28.8165 18.8658 49.1035 0.692104 -0.0197615 -0.721527
-28.242 18.7511 49.6661 0.701381 -0.0228297 -0.712421
-27.6959 18.7671 50.2075 0.70741 -0.0237922 -0.706399
-27.0272 18.861 50.877 0.70423 -0.0283447 -0.709406
-26.497 18.9914 51.4047 0.708416 -0.0191313 -0.705536
-26.2927 19.8962 51.5936 0.710637 -0.0105489 -0.70348
-26.278 20.6819 51.5995 0.712556 -0.00703083 -0.70158
-26.6027 21.2447 51.2593 0.715963 -0.00992641 -0.698068
-27.134 21.1632 50.7157 0.714138 -0.0164223 -0.699813
-27.7223 21.238 50.1149 0.712816 -0.0181763 -0.701116
-28.2492 21.2322 49.5832 0.708895 -0.0193766 -0.705048
-28.7805 21.0949 49.0605 0.697672 -0.0248227 -0.715978
-29.3573 20.6374 48.5188 0.696312 -0.0275128 -0.717211
-29.3636 20.6288 48.5132 0.689103 -0.0311948 -0.723992
-41.1121 7.37851 40.5034 0.60854 -0.0667843 -0.790699
-41.7813 8.03012 39.9342 0.604821 -0.0690001 -0.793367
-42.5163 8.10311 39.3627 0.609516 -0.0558 -0.790801
-43.3906 7.60617 38.7244 0.607434 -0.0528857 -0.792607
-43.883 6.77319 38.3938 0.616282 -0.052189 -0.785795
-43.8083 5.93612 38.502 0.620679 -0.0428894 -0.782891
-43.4127 5.13874 38.8506 0.618418 -0.0289662 -0.785315
-42.702 4.79842 39.424 0.619633 -0.0305715 -0.784296
-41.849 4.79048 40.0977 0.61566 -0.0379348 -0.787051
-41.2173 5.29796 40.567 0.6219 -0.0460375 -0.781742
-40.8553 5.94974 40.8075 0.615537 -0.0566204 -0.786072
-40.8842 6.89612 40.7169 0.607823 -0.0632368 -0.791551
-40.9638 7.08998 40.6403 0.607823 -0.0632394 -0.79155
-38.3718 2.12399 42.8832 0.609869 -0.012748 -0.792399
-38.9876 1.26957 42.4177 0.60645 0.00563375 -0.795092
-39.0407 -0.0523585 42.3621 0.605045 0.0134696 -0.796056
-38.4603 -0.96008 42.7802 0.601212 0.0175858 -0.798896
-37.6862 -1.29929 43.3476 0.599623 0.0461054 -0.798952
-37.0217 -1.35477 43.8312 0.587358 0.0429105 -0.808189
-36.307 -1.2277 44.3584 0.58851 0.0454515 -0.80715
-35.8377 -0.681649 44.727 0.580122 0.0408101 -0.813463
-35.5837 0.292627 44.9446 0.58119 0.0183716 -0.813455
-35.8053 1.11202 44.7909 0.585248 0.00613807 -0.810831
-36.3331 2.06337 44.4139 0.588301 -0.00456456 -0.808572
-37.0328 2.4816 43.8845 0.600459 -0.0140961 -0.799531
-37.6709 2.59069 43.4017 0.601079 -0.0184494 -0.798977
-38.3488 2.1397 42.9007 0.60728 -0.016328 -0.794305
-37.6039 0.859134 43.4608 0.598963 0.00942157 -0.800721
-37.0646 0.479314 43.8625 0.602474 0.00911963 -0.798086
-37.5513 0.221008 43.4927 0.600922 0.0137428 -0.799174
-37.7148 0.564051 43.3744 0.598962 0.00942362 -0.800722
22.5823 -22.5415 52.9621 -0.60154 0.0070858 -0.798768
22.6304 -22.5133 52.9263 -0.602664 0.0152744 -0.797849
22.6191 -22.5104 52.9348 -0.602665 0.0152742 -0.797848
23.6018 -22.8169 52.1907 -0.61536 -0.0313766 -0.787621
23.6033 -22.8449 52.1907 -0.615361 -0.0313773 -0.787621
24.2053 -22.395 51.6078 -0.687672 -0.0122038 -0.725903
24.3326 -22.5776 51.4896 -0.686169 -0.00788223 -0.7274
24.6784 -22.5277 51.1609 -0.686147 -0.0181446 -0.72723
24.7041 -22.4395 51.1346 -0.688043 -0.0163063 -0.725487
24.9187 -22.1835 50.9267 -0.680362 -0.0220687 -0.732532
25.3917 -22.1947 50.4915 -0.675905 -0.0148274 -0.736839
25.953 -22.217 49.9724 -0.681569 -0.0103309 -0.731681
26.5094 -22.3757 49.457 -0.681104 -0.00955207 -0.732124
27.1615 -22.4239 48.8507 -0.681179 -0.00983292 -0.732049
27.747 -22.3979 48.3003 -0.688359 -0.010714 -0.725285
28.3687 -22.5979 47.7133 -0.684125 -0.00763614 -0.729325
28.9585 -22.5408 47.1558 -0.688591 -0.00786154 -0.725107
29.5707 -22.3749 46.583 -0.677935 -0.0108007 -0.735029
30.2072 -22.3732 46.0178 -0.64318 -0.02488 -0.76531
30.7138 -21.9701 45.5841 -0.633355 -0.0202175 -0.773578
31.1415 -21.349 45.2421 -0.638889 0.00707146 -0.768938
31.6385 -20.4717 44.8863 -0.63325 0.0640786 -0.771231
31.558 -19.6474 45.0328 -0.623412 0.0788823 -0.777904
31.3079 -18.9324 45.3174 -0.624285 0.105313 -0.774025
30.8656 -18.4411 45.7345 -0.621367 0.113476 -0.775195
30.3455 -18.1027 46.2057 -0.617465 0.120452 -0.777321
