-32.1312 -7.84021 48.2953 0.531049 0.102636 -0.841097
-31.392 -8.82113 48.6469 0.531032 0.0984969 -0.841578
-30.9977 -9.48563 48.809 0.543262 0.120473 -0.830874
-30.5566 -10.1666 48.9982 0.534603 0.120614 -0.836286
-29.9731 -10.7398 49.2781 0.51784 0.135355 -0.844508
-29.3893 -11.1664 49.5674 0.522065 0.141178 -0.84114
-28.7756 -11.7191 49.858 0.525291 0.152026 -0.837124
-27.9769 -12.3109 50.248 0.526694 0.149841 -0.836717
-27.4598 -12.8084 50.4871 0.531198 0.153466 -0.833233
-26.9546 -13.3739 50.7095 0.539704 0.174488 -0.823574
-26.517 -13.9939 50.8742 0.554867 0.156209 -0.817142
-26.1062 -14.8327 50.9965 0.567476 0.149573 -0.809536
-25.7947 -15.672 51.054 0.576755 0.159739 -0.801147
-25.2901 -16.0461 51.3658 0.595575 0.127001 -0.792724
-24.5574 -16.0896 51.8836 0.577892 0.113049 -0.808246
-23.9191 -16.1819 52.3731 0.585652 0.0764641 -0.805864
-23.2338 -16.3704 52.8291 0.583362 0.0321717 -0.811575
-22.5326 -16.2663 53.2911 0.504404 0.0296487 -0.862958
-21.885 -15.9533 53.6502 0.446706 0.0166377 -0.894365
-21.2477 -15.6354 53.939 0.391196 0.00440848 -0.920297
-20.4509 -15.3401 54.2403 0.317548 0.0249894 -0.947703
-19.6265 -15.2066 54.4978 0.274288 0.000216349 -0.961647
-18.8671 -15.0731 54.7042 0.239443 0.00213663 -0.970859
-18.7715 -14.3252 54.7317 0.218821 0.0226707 -0.975502
-18.7796 -13.563 54.7473 0.219275 0.0404956 -0.974621
-18.4333 -12.8339 54.8423 0.174447 0.0243189 -0.984289
-17.9817 -12.1065 54.9355 0.155577 0.0232558 -0.987524
-17.3554 -11.5905 55.0407 0.147349 0.0239281 -0.988769
-16.7339 -11.1562 55.1368 0.137629 0.033777 -0.989809
-16.253 -10.5764 55.213 0.100964 0.0312039 -0.994401
-16.8534 -9.47112 55.1885 0.0992351 0.0455461 -0.993989
-17.2182 -8.79924 55.189 0.0996553 0.0530044 -0.993597
-17.9638 -8.88091 55.106 0.108559 0.0588015 -0.992329
-18.9041 -9.02851 54.9954 0.109757 0.0726197 -0.991302
-19.7446 -8.8795 54.9035 0.134993 0.0976315 -0.986025
-20.4547 -8.54717 54.8279 0.164715 0.103165 -0.980884
-21.2425 -8.13653 54.7017 0.239565 0.112821 -0.964181
-21.908 -7.80312 54.5314 0.349141 0.109449 -0.929989
-22.5488 -7.492 54.2745 0.448601 0.0577602 -0.891864
-22.9886 -8.40713 53.9232 0.502205 0.121549 -0.856101
-23.5625 -9.44182 53.4336 0.496817 0.127197 -0.858484
-24.0218 -9.91921 53.0939 0.527772 0.118741 -0.841045
-24.506 -10.071 52.7687 0.527773 0.118685 -0.841053
-24.6975 -8.85572 52.8201 0.526144 0.117314 -0.842261
-24.1565 -8.04409 53.2738 0.523225 0.124717 -0.843019
-23.9105 -7.29896 53.5244 0.502515 0.135083 -0.85395
-23.9657 -6.39165 53.6167 0.523827 0.101258 -0.845785
-24.0813 -5.51339 53.6605 0.521969 0.112411 -0.845525
-24.0338 -4.64214 53.7869 0.533502 0.09239 -0.840737
-23.8706 -3.83522 53.9825 0.529183 0.0970356 -0.842941
-24.0849 -2.75917 53.9745 0.525423 0.0949188 -0.845507
-24.025 -1.95529 54.1001 0.535931 0.0888306 -0.839575
-23.9423 -1.02265 54.2295 0.528778 0.0597711 -0.846653
-23.7355 -0.270811 54.4357 0.515921 0.0884055 -0.852062
-23.7227 0.484956 54.5219 0.515893 0.0884612 -0.852073
-23.8227 1.35967 54.5497 0.535685 0.101044 -0.83835
-23.7636 2.25706 54.6646 0.512352 0.0454543 -0.857572
-23.7479 3.12863 54.737 0.509693 0.0851268 -0.856135
-23.8819 3.97312 54.7336 0.496861 0.0746327 -0.8646
-23.7932 4.96317 54.8653 0.520316 0.0548903 -0.852208
-23.8061 5.94328 54.9266 0.521037 0.062581 -0.851237
-23.8284 7.03949 54.9836 0.534142 0.0533281 -0.84333
-23.6486 7.86671 55.1314 0.515886 0.0407654 -0.855687
-23.7441 8.65188 55.1264 0.519788 0.0561753 -0.852446
-23.9357 9.55397 55.0563 0.534119 0.00806705 -0.845206
-23.8133 10.5373 55.1579 0.552866 0.0363556 -0.832476
-23.7602 11.6778 55.2402 0.576062 0.0544964 -0.815587
-23.7374 12.5053 55.29 0.575253 0.0117108 -0.817892
-23.7497 13.3836 55.2971 0.568771 0.0102111 -0.822358
-23.9268 14.1727 55.1688 0.574341 -0.0389018 -0.817691
-23.9007 15.3176 55.1603 0.605256 -0.00257556 -0.795995
-24.3655 16.079 54.7762 0.636131 -0.0256763 -0.771154
-25.0058 16.6012 54.2343 0.648022 -0.041381 -0.760008
-25.776 16.5854 53.5458 0.666132 -0.0538284 -0.743889
-26.4596 16.702 52.9165 0.673121 -0.0570067 -0.737332
-27.0476 16.9827 52.3568 0.676549 -0.0582257 -0.734092
-27.6348 16.8401 51.8269 0.674074 -0.0622631 -0.736017
-28.3669 16.733 51.1686 0.673228 -0.0667591 -0.736415
-29.0872 16.8286 50.5012 0.663195 -0.0702854 -0.745104
-29.9019 17.0195 49.768 0.655038 -0.0672697 -0.752571
-30.495 17.0821 49.2458 0.657787 -0.0615991 -0.750681
-31.0703 17.3426 48.722 0.650216 -0.0663229 -0.75678
-31.4993 17.9928 48.3018 0.65403 -0.0584351 -0.754206
-31.8911 18.7835 47.9086 0.631891 -0.0561397 -0.773022
-32.1807 19.516 47.6075 0.63568 -0.0679185 -0.768959
-32.3951 20.7028 47.3398 0.63477 -0.0508518 -0.771026
-32.1305 21.4436 47.5088 0.63477 -0.0508406 -0.771027
-31.5995 22.1645 47.9194 0.657599 -0.0510961 -0.751633
-31.0281 22.6961 48.3844 0.658607 -0.0504895 -0.750791
-30.4212 23.0508 48.9155 0.671509 -0.0399643 -0.739915
-29.7246 23.0519 49.5522 0.681321 -0.0514224 -0.730176
-28.847 23.0417 50.3833 0.694022 -0.0379121 -0.718953
-28.1411 23.0371 51.0636 0.703835 -0.0347755 -0.709357
-27.5918 23.053 51.6223 0.712938 -0.0321158 -0.700492
-27.0252 23.1006 52.2105 0.714012 0.00708825 -0.700047
-26.4912 23.0181 52.7463 0.707701 0.0156086 -0.706217
-25.9051 23.0067 53.3106 0.681196 0.0170283 -0.731822
-25.3473 23.0332 53.8251 0.674322 0.00744846 -0.73836
-24.7857 22.6667 54.3246 0.66275 0.00689287 -0.748809
-25.0317 22.3011 54.1068 0.669611 -0.0047346 -0.742697
-25.4401 21.8176 53.7288 0.683565 0.00575244 -0.729867
-25.5141 21.0196 53.653 0.687283 0.00743076 -0.726346
-25.3959 20.1564 53.7585 0.687244 0.0018351 -0.726424
-25.5711 19.3329 53.5947 0.686553 -0.00911083 -0.727023
-25.677 18.5994 53.5013 0.669914 -0.0252751 -0.741763
-25.382 17.9832 53.8171 0.674324 -0.035062 -0.737603
-24.8318 17.7208 54.3281 0.669592 -0.0346091 -0.741922
-24.2052 17.7792 54.8614 0.641745 -0.0140203 -0.766758
-23.4791 17.7329 55.4782 0.632633 -0.00203079 -0.774163
-22.8376 17.4867 55.9781 0.631873 0.0442514 -0.77376
-22.391 16.8692 56.285 0.57528 0.0135565 -0.817844
-22.2636 16.0958 56.3572 0.565657 0.0289501 -0.824132
-22.3677 15.1527 56.2566 0.557242 0.0334524 -0.829594
-22.4332 14.3369 56.1761 0.54975 0.0136601 -0.835204
-22.3371 13.453 56.221 0.523111 0.0320896 -0.851508
-22.4124 12.6232 56.1482 0.510145 0.0400626 -0.858993
-22.4241 11.8617 56.1217 0.475836 0.0378339 -0.878495
-22.4351 11.0552 56.0533 0.516599 0.0688724 -0.853453
-22.4004 10.2725 56.0319 0.505604 0.0607143 -0.860342
-22.3805 9.42809 55.9787 0.497186 0.056945 -0.865773
-22.404 8.64935 55.9268 0.508123 0.0518529 -0.859722
-22.4189 7.82377 55.8536 0.475703 0.0748252 -0.876413
-22.4471 6.97143 55.796 0.496789 0.0309638 -0.867124
-22.4346 6.01508 55.7418 0.451376 0.0896834 -0.887816
-22.4142 5.22727 55.6791 0.413115 0.0863157 -0.906579
-22.3696 4.45037 55.6273 0.461767 0.0884709 -0.882578
-22.3147 3.69155 55.5887 0.465986 0.0665036 -0.882289
-22.3972 2.86836 55.4687 0.470392 0.0838269 -0.878447
-22.3919 1.90161 55.3946 0.462113 0.0626038 -0.884605
-22.3816 1.1318 55.3525 0.528601 0.117935 -0.840638
-22.4015 0.294993 55.2791 0.480549 0.0640547 -0.874626
-22.4669 -0.454348 55.1627 0.495378 0.0941137 -0.863524
-22.4183 -1.21832 55.1267 0.479553 0.069519 -0.87475
-22.4061 -2.01582 55.059 0.494296 0.0766618 -0.865881
-22.3721 -2.85168 55.0018 0.499044 0.0801002 -0.862855
-22.4016 -3.70685 54.8968 0.512877 0.0924383 -0.853471
-22.3998 -4.54444 54.8096 0.516593 0.0876798 -0.85173
-22.3801 -5.42859 54.7208 0.530378 0.135542 -0.836856
-21.9349 -6.21416 54.8114 0.374567 0.219358 -0.899597
-21.2027 -6.68968 54.9378 0.212957 0.16091 -0.963721
-20.3966 -7.04968 55.0185 0.157553 0.109619 -0.981408
-19.6232 -7.47999 55.0553 0.0882595 0.1004 -0.991007
-18.867 -7.75043 55.0979 0.0862389 0.0722927 -0.993648
-18.121 -7.36584 55.1875 0.085551 0.0491763 -0.994981
-17.9363 -6.56774 55.2588 0.0928508 0.0715321 -0.993107
-17.9275 -5.77132 55.3231 0.0866311 0.0843351 -0.992664
-17.869 -4.96596 55.393 0.0760123 0.083716 -0.993586
-17.9061 -4.09708 55.4592 0.0734482 0.076983 -0.994323
-17.9048 -3.21262 55.5276 0.0735794 0.0767282 -0.994333
-17.8795 -2.41102 55.5933 0.0720581 0.080855 -0.994118
-17.9552 -1.48575 55.663 0.0696846 0.0792287 -0.994418
-17.9164 -0.715812 55.7263 0.0719799 0.0817157 -0.994053
-17.9871 0.0427935 55.7827 0.0700372 0.0859079 -0.993838
-17.9418 0.982751 55.8684 0.0692562 0.0890297 -0.993618
-17.9717 1.90192 55.949 0.0682745 0.0890919 -0.99368
-17.8496 2.64366 56.0243 0.0688706 0.0918445 -0.993386
-17.9989 3.54599 56.0956 0.072904 0.0899972 -0.993269
-17.9694 4.27651 56.1657 0.0725809 0.0917093 -0.993137
-17.9165 5.04578 56.2379 0.0769613 0.0879467 -0.993147
-17.9377 5.89372 56.3104 0.0829354 0.0895401 -0.992524
-17.9937 6.76052 56.3854 0.082805 0.0937118 -0.99215
-17.2563 6.47524 56.42 0.0829679 0.0916717 -0.992325
-17.0263 5.67488 56.3645 0.0804008 0.0929587 -0.992418
-16.9167 4.55177 56.2694 0.0744762 0.0922316 -0.992948
-17.0286 3.75652 56.1874 0.0737234 0.091816 -0.993043
-17.0727 2.62338 56.079 0.0740567 0.0920119 -0.993
-17.1076 1.89547 56.0103 0.0720641 0.089668 -0.993361
-17.0563 1.06772 55.941 0.0749841 0.0877405 -0.993317
-16.9445 0.230162 55.8772 0.0730284 0.0855584 -0.993653
-16.7781 -0.584982 55.8201 0.0736666 0.0822466 -0.993885
-16.8658 -1.52093 55.7371 0.0722004 0.0809548 -0.994099
-16.9264 -2.36388 55.6661 0.0726668 0.0785123 -0.994261
-16.8287 -3.27772 55.602 0.0726599 0.0772576 -0.99436
-16.7634 -4.0687 55.5465 0.0746414 0.0766625 -0.994259
-16.8507 -5.19557 55.4556 0.0783828 0.0736161 -0.994197
-16.8412 -6.04963 55.3926 0.0820323 0.0663731 -0.994417
-16.3835 -7.10289 55.3588 0.0810035 0.0594977 -0.994898
-16.0556 -8.10218 55.3365 0.0822204 0.0485937 -0.995429
-15.1427 -8.9811 55.373 0.0844173 0.035964 -0.995754
-14.1837 -9.14188 55.4492 0.0863253 0.0430658 -0.995336
-13.1793 -8.78743 55.5308 0.0617208 0.0318732 -0.99757
-12.4405 -8.30546 55.5888 0.0516559 0.0323195 -0.998142
-11.9191 -7.47111 55.652 0.0554639 0.0496526 -0.997225
-11.3998 -7.16996 55.6864 0.0324079 0.0452327 -0.998451
-10.8357 -6.49216 55.7421 0.0299944 0.0556526 -0.99798
-10.3313 -5.93411 55.7876 0.0251533 0.0602405 -0.997867
-9.74021 -5.06717 55.8521 0.012974 0.0663492 -0.997712
-8.98354 -4.20397 55.9183 0.00725321 0.0709836 -0.997451
-8.23268 -3.65086 55.9633 0.00343834 0.0765268 -0.997062
-7.54584 -3.31983 55.9872 -0.0071073 0.0747264 -0.997178
-6.9833 -3.00252 56.0075 -0.0056445 0.0813965 -0.996646
-6.28107 -2.58753 56.0355 -0.0146287 0.0848002 -0.996291
-5.85142 -1.76696 56.1017 -0.0168718 0.0903887 -0.995757
-5.91073 -2.48996 56.0382 -0.0150842 0.0845988 -0.996301
-6.52563 -3.07281 55.9977 -0.0152885 0.0813968 -0.996558
-7.49644 -3.37168 55.983 -0.00710287 0.0747226 -0.997179
-7.7947 -4.2222 55.9209 0.0020394 0.0728249 -0.997335
-8.30199 -4.80239 55.8804 -0.00145873 0.0651499 -0.997861
-9.00588 -5.48611 55.8338 0.00894697 0.0648689 -0.997844
-9.61869 -5.93667 55.8006 0.0151511 0.0586768 -0.998162
-10.0833 -6.5021 55.7595 0.0244781 0.0577473 -0.998028
-10.6087 -7.18339 55.7096 0.023561 0.0501066 -0.998458
-11.3787 -7.84651 55.6554 0.0338603 0.048335 -0.998257
-11.8755 -8.44584 55.612 0.0462468 0.0377822 -0.998215
-12.5386 -8.96209 55.5626 0.0550374 0.0299153 -0.998033
-13.0831 -9.50298 55.5147 0.0648507 0.0165152 -0.997758
-13.6505 -10.1749 55.4659 0.0718722 0.0201984 -0.997209
-14.3294 -10.764 55.4036 0.087249 0.00404239 -0.996177
-14.8928 -11.4309 55.3474 0.0969576 -0.00644223 -0.995237
-15.6723 -12.1617 55.2646 0.111641 -0.00201898 -0.993747
-16.2675 -12.6135 55.1922 0.139227 -0.0158149 -0.990134
-16.9759 -12.9522 55.0847 0.156098 0.00777619 -0.987711
-17.3913 -13.7041 55.0152 0.189899 -0.00310193 -0.981799
-17.4597 -14.5055 55.0033 0.196296 0.00451447 -0.980523
-17.3121 -15.4072 55.028 0.186124 0.0037878 -0.982519
-17.6917 -16.2396 54.9775 0.182484 -0.0414907 -0.982333
-18.3966 -16.4943 54.8514 0.205939 -0.0718646 -0.975676
-19.2283 -16.5122 54.648 0.27094 -0.0705678 -0.95958
-20.0478 -16.6168 54.4055 0.306004 -0.0576903 -0.950281
-20.7354 -16.8856 54.157 0.383516 -0.0551232 -0.921587
-21.5762 -17.3623 53.8035 0.430546 -0.0216716 -0.902308
-22.3173 -17.5323 53.429 0.516792 -0.0262771 -0.854644
-23.0833 -17.6782 52.9112 0.589439 0.0142932 -0.807687
-23.771 -17.6235 52.3859 0.658691 0.0238591 -0.752035
-24.352 -17.6348 51.8782 0.667092 0.0564918 -0.742831
-25.0179 -17.5682 51.3001 0.662916 0.108228 -0.74083
-25.6476 -17.7552 50.7608 0.611462 0.15636 -0.775671
-25.9019 -18.4151 50.4572 0.607426 0.100474 -0.787824
-25.9118 -19.1583 50.3766 0.629642 0.038825 -0.775915
-25.794 -20.0552 50.4487 0.639913 -0.00083851 -0.768447
-25.8733 -20.8305 50.3867 0.643551 -0.00684576 -0.765372
-25.8001 -21.6737 50.4782 0.652973 -0.0399497 -0.756249
-25.3947 -22.1642 50.8678 0.670903 -0.0753863 -0.737639
-25.4756 -22.9489 50.8659 0.667694 -0.0669406 -0.74142
-25.314 -22.5654 50.9768 0.679306 -0.0687282 -0.730453
-24.9617 -22.2157 51.2767 0.675 -0.0573793 -0.735561
-24.3588 -22.0791 51.8213 0.673249 -0.0307539 -0.738776
-23.8129 -22.2259 52.3235 0.665815 -0.012738 -0.746008
-24.4366 -22.9853 51.7858 0.669168 -0.0233901 -0.742743
-24.9566 -22.9898 51.3251 0.614622 -0.0145694 -0.788687
-25.2126 -22.9404 51.109 0.673244 -0.0626284 -0.736764
-25.7656 -22.883 50.5977 0.678729 -0.0592971 -0.731843
-26.3923 -22.9552 50.0248 0.669531 -0.039064 -0.741756
-26.9983 -22.9399 49.4764 0.666842 -0.0291038 -0.744631
-27.4992 -22.6591 49.016 0.670921 -0.0237018 -0.741134
-27.948 -22.1557 48.6029 0.662658 -0.0164156 -0.748742
-28.4638 -21.7552 48.1429 0.654104 -0.0153073 -0.756236
-29.1338 -21.5762 47.5641 0.648317 -0.00937794 -0.761313
-29.8351 -21.6583 46.9474 0.654734 -0.00756942 -0.755821
-30.4686 -21.5854 46.4189 0.615061 -0.0166069 -0.788305
-31.1045 -21.6311 45.9908 0.47176 -0.0636932 -0.879424
-32.0013 -21.6173 45.4511 0.494465 0.0706405 -0.866322
-32.9153 -21.4886 44.8862 0.533633 0.0708446 -0.842744
-33.4578 -21.0399 44.6027 0.522931 0.107295 -0.845595
-34.1053 -20.5226 44.2748 0.506709 0.125649 -0.85269
-34.4666 -19.7689 44.1817 0.514316 0.142147 -0.845739
-34.6818 -18.8938 44.2062 0.511424 0.157249 -0.844781
-34.4298 -17.9864 44.5371 0.512884 0.165631 -0.842326
-34.0937 -17.3831 44.8927 0.527707 0.201634 -0.825148
-33.416 -16.7394 45.4871 0.52352 0.223467 -0.822185
-32.6572 -16.5313 46.0322 0.523333 0.234283 -0.819226
-31.8694 -16.3985 46.5628 0.514785 0.237316 -0.823819
-31.0728 -16.3734 47.0876 0.52296 0.258267 -0.812288
-30.4329 -16.4536 47.4917 0.552683 0.269614 -0.788561
-29.5415 -16.6599 48.0559 0.572597 0.263477 -0.77627
-28.652 -16.7904 48.6818 0.574306 0.247607 -0.779976
-27.8314 -16.8695 49.2686 0.595193 0.205586 -0.776839
-27.2113 -16.7644 49.7715 0.585337 0.199037 -0.78584
-26.887 -15.8925 50.2175 0.575476 0.192482 -0.794845
-27.1444 -15.1055 50.2154 0.576254 0.185176 -0.796016
-27.7982 -14.1685 49.9851 0.550195 0.195601 -0.811804
-28.3151 -13.5848 49.7755 0.550192 0.195607 -0.811804
-28.901 -13.1105 49.4931 0.541215 0.176112 -0.822236
-29.7633 -12.5057 49.0737 0.529007 0.176475 -0.830016
-30.4781 -11.9085 48.7332 0.538918 0.173809 -0.824231
-31.1751 -11.3535 48.3952 0.531167 0.170578 -0.829919
-31.853 -10.576 48.0822 0.542438 0.133774 -0.829353
-32.177 -9.76046 48.0044 0.538153 0.130877 -0.832624
-32.8678 -8.95909 47.6834 0.53975 0.122216 -0.832864
-33.3524 -8.2128 47.4712 0.540489 0.113939 -0.8336
-33.7871 -7.35113 47.2946 0.544156 0.0982081 -0.833216
-34.3811 -6.9033 46.9636 0.539983 0.0993507 -0.835788
-34.8442 -6.24205 46.7321 0.553673 0.0916584 -0.827674
-35.1085 -5.5289 46.6189 0.557619 0.0749826 -0.826703
-35.38 -4.74898 46.4924 0.562048 0.0593764 -0.824971
-35.366 -3.90603 46.563 0.557192 0.0530806 -0.828685
-35.4998 -3.08907 46.525 0.559423 0.0490758 -0.827427
-35.2206 -2.0744 46.766 0.553233 0.0447936 -0.831821
-34.4921 -1.86817 47.2582 0.551065 0.0359748 -0.833666
-33.4625 -1.68589 47.9393 0.546607 0.0384412 -0.836506
-32.807 -1.7864 48.3583 0.541116 0.0444885 -0.839771
-32.0174 -2.2456 48.8419 0.539794 0.0450365 -0.840592
-31.5531 -2.83069 49.1051 0.53662 0.0509692 -0.842283
-31.0503 -3.48939 49.3795 0.529147 0.0601113 -0.846399
-30.487 -3.9175 49.7005 0.526771 0.0642408 -0.847569
-29.9276 -4.3925 50.009 0.528308 0.0690715 -0.84622
-29.3829 -5.00241 50.2958 0.528698 0.0804234 -0.844992
-28.8108 -5.82757 50.5757 0.529734 0.0845645 -0.843924
-28.4181 -6.44642 50.757 0.530041 0.089282 -0.843259
-27.8577 -6.86314 51.0649 0.529238 0.0941171 -0.843224
-27.5338 -7.63962 51.1786 0.533393 0.0981247 -0.840157
-26.7932 -8.21113 51.5754 0.530717 0.103759 -0.841174
-26.1158 -8.38095 51.9834 0.532134 0.111045 -0.839346
-25.4835 -8.74593 52.3371 0.533522 0.113202 -0.838173
-24.9237 -8.90421 52.6713 0.530466 0.117193 -0.839559
-27.1598 -18.1345 49.5036 0.617271 0.136502 -0.774777
-27.7471 -18.1116 49.0357 0.635767 0.170062 -0.752284
-28.3474 -18.0553 48.5336 0.631741 0.198972 -0.749208
-29.0405 -18.0095 47.9936 0.576913 0.231426 -0.78333
-29.854 -17.9215 47.4299 0.55453 0.239123 -0.796984
-30.494 -17.8026 47.0309 0.539876 0.225792 -0.810759
-31.2372 -17.7233 46.5814 0.511954 0.232266 -0.827016
-31.9817 -17.7526 46.1105 0.507329 0.220747 -0.832845
-32.6277 -17.9409 45.6808 0.498085 0.210614 -0.841162
-33.3135 -18.9859 45.041 0.530025 0.157771 -0.833176
-33.0085 -19.7634 45.0878 0.508245 0.158759 -0.846074
-32.0082 -20.2168 45.6001 0.502557 0.118416 -0.856396
-31.3425 -20.3589 45.9644 0.50193 0.130838 -0.85494
-30.5675 -20.2418 46.457 0.539234 0.136961 -0.830944
-29.9066 -20.2387 46.9388 0.597127 0.0432811 -0.800323
-29.123 -20.1787 47.591 0.656157 0.0282258 -0.754097
-28.4829 -20.2916 48.1371 0.656214 0.0339017 -0.753748
-27.7836 -20.623 48.7374 0.661035 0.00653656 -0.750318
-27.278 -21.0347 49.1794 0.656592 0.0023412 -0.754242
-26.908 -21.0168 49.5008 0.653799 0.000371256 -0.756668
-26.8771 -20.1982 49.5277 0.653414 -0.000107692 -0.757001
-26.9445 -19.3203 49.5255 0.638037 0.0684001 -0.766961
-27.0022 -18.3401 49.5966 0.620927 0.118351 -0.774882
-27.0492 -18.2731 49.5691 0.621832 0.125084 -0.773065
-36.8239 -19.8066 42.7788 0.490869 0.120512 -0.862776
-37.2293 -19.1222 42.6552 0.489955 0.135468 -0.861158
-37.7327 -18.5849 42.4536 0.504753 0.143321 -0.851271
-38.3852 -18.2252 42.131 0.490206 0.118163 -0.86356
-39.218 -18.0576 41.6838 0.485376 0.114154 -0.866811
-40.0018 -18.2418 41.2177 0.485848 0.109181 -0.867188
-40.6011 -18.8206 40.8122 0.478437 0.0947032 -0.87287
-41.2011 -19.4127 40.4352 0.463045 0.0776791 -0.882872
-41.474 -20.0967 40.239 0.456075 0.0724579 -0.886987
-41.0219 -20.7485 40.4302 0.448743 0.058275 -0.891705
-40.3846 -21.5901 40.6843 0.441255 0.0593083 -0.895407
-39.5846 -21.9166 41.0638 0.450848 0.066789 -0.890099
-38.8916 -21.9647 41.4136 0.470367 0.0786999 -0.878954
-38.2017 -21.7798 41.7992 0.470315 0.0786338 -0.878988
-37.6145 -21.3554 42.1546 0.485547 0.0477587 -0.87241
-37.1563 -20.8048 42.4608 0.510071 0.128701 -0.850028
-36.9225 -20.3178 42.6571 0.495423 0.109575 -0.861713
-38.3562 -19.7813 41.927 0.467379 0.109057 -0.877305
-39.1462 -19.4651 41.5376 0.480468 0.109325 -0.87017
-39.8769 -20.1393 41.066 0.461806 0.0888076 -0.882524
-39.2481 -20.6444 41.348 0.468228 0.0859853 -0.879411
-38.4434 -20.1938 41.8293 0.467379 0.109057 -0.877305
-43.1208 -20.0056 39.3586 0.480718 0.0378353 -0.876058
-43.8959 -19.2799 38.9377 0.510463 0.0372678 -0.859092
-44.5343 -18.7539 38.5751 0.536931 0.023322 -0.843304
-45.1511 -18.4721 38.1918 0.534066 0.0210991 -0.845179
-45.9651 -18.5041 37.6369 0.568504 0.000917896 -0.82268
-46.3699 -19.0235 37.3516 0.578848 0.00813954 -0.815336
-46.4824 -19.9891 37.2288 0.587702 0.0232416 -0.808398
-46.401 -20.7492 37.2675 0.579389 0.0174845 -0.814863
-46.0531 -21.3988 37.5039 0.566796 -0.0333821 -0.82282
-45.3973 -21.4755 37.9462 0.533011 -0.0187857 -0.845889
-44.2244 -21.0053 38.6888 0.518588 0.0144706 -0.854684
-43.3141 -20.2063 39.2438 0.495787 0.0372097 -0.867473
-43.2099 -20.1581 39.3031 0.480716 0.0378369 -0.87606
-56.635 -15.8009 30.7281 0.340561 0.076875 -0.937074
-56.7018 -14.8575 30.7827 0.357014 0.0838165 -0.930331
-57.2337 -14.1478 30.6347 0.355557 0.0595485 -0.932731
-57.9363 -13.684 30.4027 0.348778 0.0614723 -0.935186
-58.6349 -13.7365 30.1462 0.331831 0.0666342 -0.940983
-59.4575 -14.3188 29.8223 0.321651 0.0544037 -0.945294
-59.8668 -14.9923 29.6579 0.284423 0.0559535 -0.957065
-59.7744 -16.0003 29.6479 0.273267 0.00973296 -0.961889
-59.1053 -16.7692 29.8311 0.293075 0.0461989 -0.954973
-58.2314 -17.0885 30.0926 0.307305 0.0353159 -0.950956
-57.362 -16.762 30.4056 0.320354 0.0549164 -0.945688
-56.8577 -16.2499 30.6104 0.332981 0.0657042 -0.940541
-56.6605 -15.8735 30.7129 0.340561 0.0768749 -0.937074
-58.1311 -15.6469 30.2027 0.330986 0.0531886 -0.942135
-58.1405 -15.1259 30.229 0.330984 0.0535034 -0.942118
-57.1509 -10.2139 30.9365 0.396512 0.0702615 -0.915286
-58.0541 -9.74797 30.592 0.382588 0.0666661 -0.921476
-58.522 -9.06546 30.4397 0.385633 0.0577076 -0.920846
-58.5854 -8.07086 30.483 0.378797 0.0684529 -0.922945
-58.245 -7.10275 30.6892 0.38867 0.0669386 -0.918853
-57.581 -6.66451 31.0058 0.397505 0.0479139 -0.916348
-56.8065 -6.42057 31.3721 0.420694 0.0546976 -0.90555
-56.011 -6.57291 31.7513 0.453017 0.0680722 -0.888899
-55.3889 -7.03116 32.0357 0.465026 0.0718177 -0.882379
-54.9536 -7.6232 32.212 0.467044 0.0754521 -0.880996
-54.8371 -8.51899 32.2018 0.468583 0.0703312 -0.880615
-55.2117 -9.39482 31.9261 0.460901 0.083949 -0.883472
-55.8335 -9.866 31.5662 0.422381 0.0771143 -0.903132
-56.4769 -10.2179 31.2358 0.412385 0.0737344 -0.907969
-56.9944 -10.2124 31.0062 0.405251 0.0682741 -0.911653
-56.8333 -8.83234 31.1848 0.414591 0.0702221 -0.907266
-56.1093 -8.06181 31.5884 0.433282 0.07185 -0.898368
-56.8109 -7.79855 31.2737 0.415955 0.0676674 -0.906823
-57.2963 -8.26573 31.0224 0.408357 0.0728308 -0.909912
-56.9154 -8.7859 31.1517 0.408358 0.0728331 -0.909912
-56.563 0.146009 31.9042 0.469075 0.0402156 -0.882242
-55.924 0.275217 32.2559 0.490591 0.0375995 -0.870488
-55.2948 0.534039 32.6328 0.500143 0.0434993 -0.864849
-54.7843 0.983739 32.9525 0.517955 0.0359774 -0.854651
-54.4139 1.96293 33.2207 0.513557 0.0407051 -0.85709
-54.4111 3.08496 33.258 0.509901 0.0251076 -0.859853
-55.0072 3.82507 32.9285 0.506789 0.0202493 -0.861825
-55.9012 4.24891 32.4371 0.484194 0.0190056 -0.874754
-56.9971 4.32507 31.855 0.463586 0.02093 -0.885805
-57.876 3.79924 31.3834 0.43871 0.0360275 -0.897871
-58.3317 3.22745 31.1392 0.423967 0.0335439 -0.904983
-58.6085 2.42203 30.9807 0.426991 0.0300353 -0.903757
-58.4999 1.66938 31.0073 0.416384 0.03037 -0.908681
-57.9616 0.785617 31.2252 0.43522 0.0499653 -0.898937
-57.3205 0.330091 31.5133 0.450208 0.0361372 -0.892115
-56.9136 0.173845 31.7191 0.469076 0.0402184 -0.882242
-56.5477 1.49465 31.977 0.472705 0.0419797 -0.880198
-57.2551 2.11186 31.6333 0.470353 0.0353082 -0.881722
-56.918 2.76507 31.8342 0.473283 0.0264833 -0.880512
-56.2479 2.91912 32.2017 0.48123 0.0326029 -0.875972
-55.6075 2.47868 32.5465 0.490747 0.0252464 -0.870936
-55.8316 1.73623 32.3781 0.485606 0.0448353 -0.872968
-56.3447 1.50993 32.0883 0.477455 0.0442777 -0.877528
-53.992 10.8913 33.428 0.486679 -0.0558716 -0.871716
-54.4977 11.4776 33.1163 0.476598 -0.0553842 -0.877375
-55.0738 12.288 32.7647 0.462404 -0.0464823 -0.885403
-55.0448 13.2518 32.7178 0.448098 -0.0585301 -0.892066
-54.6788 14.2984 32.8083 0.445639 -0.0811524 -0.891526
-54.1302 14.7614 33.0289 0.438557 -0.102509 -0.892838
-53.3974 15.0508 33.3643 0.454991 -0.108252 -0.883892
-52.6348 15.0516 33.7724 0.481337 -0.113601 -0.869143
-51.868 14.7981 34.2419 0.498255 -0.119544 -0.85875
-51.1917 14.2581 34.7255 0.520154 -0.130877 -0.843985
-50.6537 13.6384 35.147 0.539508 -0.114963 -0.834095
-50.1849 13.0983 35.5247 0.539595 -0.101747 -0.835648
-49.6011 12.6883 35.9605 0.56303 -0.0841137 -0.822145
-48.8301 12.2556 36.5297 0.564721 -0.0759928 -0.821739
-47.9272 11.957 37.1875 0.568991 -0.0704261 -0.819308
-47.3781 11.5988 37.6024 0.570857 -0.0657627 -0.818389
-46.9742 10.8431 37.9403 0.571095 -0.0615577 -0.818572
-47.0248 10.0214 37.9634 0.572585 -0.0563896 -0.817903
-47.4526 9.37507 37.7084 0.572285 -0.0559367 -0.818145
-48.1856 9.00827 37.2222 0.564702 -0.043085 -0.824169
-48.8814 8.99206 36.7451 0.561994 -0.0518974 -0.825488
-49.7277 9.50502 36.145 0.558658 -0.0554116 -0.82753
-50.5254 10.0675 35.5817 0.544965 -0.0607473 -0.836255
-51.2969 10.4865 35.0592 0.537458 -0.0562009 -0.841416
-52.0276 10.6776 34.5924 0.524607 -0.0658198 -0.848797
-52.7201 10.7189 34.1752 0.507534 -0.0560462 -0.859793
-53.4247 10.8434 33.7544 0.49453 -0.0475194 -0.867861
-53.9187 10.874 33.4712 0.495645 -0.0519398 -0.866958
-53.2426 12.2393 33.7591 0.488561 -0.0856714 -0.868314
-52.4954 12.0934 34.1999 0.498833 -0.0856133 -0.862459
-51.8423 12.0857 34.5864 0.51735 -0.0816262 -0.851872
-50.977 11.8991 35.1426 0.524176 -0.092436 -0.846569
-51.4442 12.5952 34.7758 0.517486 -0.0926112 -0.850639
-52.0397 13.2367 34.3429 0.504722 -0.102497 -0.857082
-52.6951 13.5903 33.9272 0.495058 -0.09779 -0.863339
-53.4481 13.5899 33.511 0.477157 -0.093014 -0.873882
-53.7138 12.8598 33.437 0.474096 -0.0762313 -0.877075
-53.4779 12.4003 33.6109 0.48856 -0.0856694 -0.868314
-49.7317 11.1711 36.0185 0.551039 -0.072058 -0.831362
-49.0812 10.8349 36.4852 0.558437 -0.0635205 -0.827111
-48.2428 10.543 37.0815 0.567972 -0.0630593 -0.820629
-49.0103 11.0589 36.5159 0.559777 -0.065695 -0.826031
-49.5972 11.2067 36.1045 0.556079 -0.0699718 -0.828155
-44.5143 7.12806 39.9375 0.585436 -0.0534812 -0.808952
-44.531 6.1529 39.9879 0.592047 -0.0447617 -0.80463
-44.3508 5.39875 40.1551 0.591239 -0.0372211 -0.805637
-43.9506 4.8569 40.4718 0.59131 -0.0346827 -0.805698
-43.3896 4.51526 40.8974 0.591476 -0.0295313 -0.805782
-42.5901 4.30882 41.4871 0.588873 -0.0389541 -0.807278
-41.8612 4.41146 42.0177 0.591007 -0.0406134 -0.805643
-41.3112 5.00942 42.3903 0.59156 -0.0418682 -0.805173
-40.7817 5.8844 42.724 0.588095 -0.0527486 -0.807062
-40.7392 6.66361 42.6991 0.587272 -0.0580784 -0.807304
-40.846 7.40678 42.5625 0.587984 -0.0649019 -0.806264
-41.4356 8.20888 42.0746 0.580607 -0.0643648 -0.811636
-42.1695 8.54211 41.5239 0.579961 -0.0672145 -0.811861
-42.8671 8.529 41.0268 0.57931 -0.0670992 -0.812341
-43.6556 8.30793 40.4776 0.582484 -0.0600544 -0.81062
-44.1005 7.77049 40.1953 0.586444 -0.0534158 -0.808226
-44.2966 7.52236 40.0694 0.586445 -0.0534184 -0.808225
-43.3312 6.78066 40.8164 0.585187 -0.0500132 -0.809355
-42.6133 7.19075 41.3077 0.582821 -0.0563972 -0.810638
-41.9816 6.93646 41.7788 0.585816 -0.0549482 -0.808579
-42.0186 6.04709 41.8124 0.588835 -0.051198 -0.806612
-42.7345 5.70998 41.3121 0.583794 -0.045159 -0.810645
-43.3891 6.23815 40.8081 0.585189 -0.050013 -0.809353
-39.2499 2.57821 44.003 0.585745 -0.0102097 -0.81043
-38.2121 3.01706 44.7409 0.585204 -0.0214815 -0.810601
-37.506 2.97862 45.2432 0.57862 -0.021768 -0.815307
-36.8614 2.68296 45.7018 0.571067 -0.0194714 -0.820673
-36.3195 2.22174 46.0896 0.566049 -0.0103572 -0.824235
-35.9519 1.53037 46.34 0.562045 -0.000899019 -0.827106
-35.6772 0.753425 46.5228 0.563803 0.00578283 -0.825889
-35.6975 -0.102002 46.4997 0.56365 0.0171889 -0.825835
-35.9836 -1.00205 46.286 0.563402 0.0170036 -0.826008
-36.414 -1.63876 45.9763 0.563173 0.0210775 -0.82607
-36.9815 -1.91202 45.5749 0.578263 0.0388236 -0.814898
-37.6213 -1.97743 45.1135 0.582317 0.0341123 -0.812246
-38.6778 -1.75334 44.3783 0.581892 0.0308417 -0.812643
-39.1982 -1.28389 44.0185 0.587683 0.0328678 -0.808424
-39.7314 -0.838955 43.6482 0.587398 0.0117038 -0.80921
-39.9311 0.163844 43.5145 0.592096 0.0103289 -0.805802
-39.912 0.942972 43.5342 0.589426 0.00361147 -0.807814
-39.5714 2.0479 43.7766 0.586934 -0.0102961 -0.809569
-38.6523 1.14417 44.4493 0.584832 -0.00686787 -0.811123
-38.8326 0.264243 44.3204 0.589799 0.0143948 -0.807419
-38.3791 -0.306251 44.6363 0.583878 0.0164742 -0.811674
-37.6419 -0.593076 45.148 0.569289 0.029706 -0.821601
-37.0376 -0.479969 45.5708 0.574281 0.0238239 -0.818268
-36.8063 0.232236 45.7439 0.566978 0.0157578 -0.823582
-37.1427 1.20424 45.522 0.572085 0.00309336 -0.820188
-37.7143 1.57036 45.1231 0.577427 -0.0126033 -0.816344
-38.2187 1.53833 44.7597 0.58617 -0.00693801 -0.810158
-36.6857 16.9759 44.3542 0.574717 -0.0993666 -0.812297
-37.318 17.0424 43.9002 0.571135 -0.0977627 -0.81501
-37.9396 17.3237 43.4329 0.562854 -0.0968992 -0.82081
-38.4344 17.7769 43.0526 0.548497 -0.0853923 -0.831781
-38.8916 18.3555 42.6933 0.552772 -0.0724427 -0.830177
-39.0537 19.5063 42.4876 0.543934 -0.0718738 -0.836044
-38.904 20.2725 42.5336 0.559427 -0.0539737 -0.827121
-38.4654 21.1615 42.7686 0.557025 -0.0610192 -0.828251
-37.5019 21.5452 43.4 0.569428 -0.0592362 -0.819904
-36.9194 21.8278 43.7811 0.574083 -0.0641652 -0.816228
-36.0316 21.7987 44.42 0.581053 -0.0630022 -0.811422
-35.384 21.4457 44.9304 0.603393 -0.0614292 -0.795074
-34.8773 20.7445 45.3687 0.605761 -0.0554752 -0.793711
-34.4781 19.8215 45.7331 0.602511 -0.0505706 -0.796507
-34.5109 19.0167 45.774 0.604577 -0.0848801 -0.792011
-34.9705 17.9962 45.5277 0.606873 -0.0781352 -0.790949
-35.4774 17.4605 45.2006 0.596962 -0.0739419 -0.79884
-36.1192 17.08 44.7517 0.593026 -0.0694842 -0.802142
-36.5532 16.971 44.4485 0.574715 -0.0993622 -0.812299
-36.5162 18.3687 44.3437 0.589036 -0.0806458 -0.804072
-37.4775 18.6175 43.6305 0.573489 -0.0719982 -0.816043
-37.8482 19.7014 43.2874 0.568794 -0.0540161 -0.820704
-36.9634 20.4031 43.853 0.57591 -0.0558664 -0.815542
-36.181 20.3845 44.4185 0.585096 -0.0580922 -0.808876
-35.7042 19.6412 44.8264 0.596752 -0.0600821 -0.800173
-36.0336 18.6182 44.6722 0.592332 -0.0805505 -0.801647
-36.0708 18.5829 44.6485 0.589033 -0.0806477 -0.804074
-31.1621 20.3013 48.4227 0.65811 -0.0499265 -0.751253
-30.86 19.4322 48.7473 0.65639 -0.0551893 -0.752398
-30.4173 18.7173 49.186 0.654671 -0.0557102 -0.753858
-29.7433 18.409 49.7977 0.656001 -0.0477893 -0.753246
-28.9099 18.1806 50.5419 0.661009 -0.0465291 -0.748934
-28.2162 18.0915 51.1876 0.685862 -0.0518187 -0.725881
-27.5718 18.2454 51.7789 0.677924 -0.0473872 -0.733592
-26.9818 18.4411 52.3078 0.676634 -0.0487812 -0.734702
-26.6456 19.0521 52.5893 0.680372 -0.0166788 -0.732677
-26.532 19.9546 52.6839 0.685364 -0.00293966 -0.728194
-26.5035 20.7205 52.7077 0.693349 0.001249 -0.720601
-26.5512 21.525 52.6664 0.697067 0.0059664 -0.716978
-27.2514 21.7675 51.9792 0.705129 -0.000206246 -0.709079
-27.8048 21.739 51.4405 0.70083 -0.021881 -0.712992
-28.497 21.7268 50.7735 0.687625 -0.0219402 -0.725735
-29.1012 21.8004 50.2003 0.68293 -0.035423 -0.729625
-29.7429 21.807 49.6038 0.674429 -0.039797 -0.737264
-30.3149 21.5773 49.0924 0.673805 -0.0411384 -0.737761
-30.8479 21.1343 48.6473 0.660704 -0.0477972 -0.749124
-31.0947 20.7644 48.4532 0.660468 -0.0472303 -0.749367
-29.7836 20.2781 49.6505 0.665464 -0.0428871 -0.745175
-29.2266 20.6106 50.137 0.67172 -0.040014 -0.739724
-28.8231 20.3754 50.5146 0.676354 -0.0260564 -0.736015
-28.0459 20.4779 51.2404 0.687222 -0.0234989 -0.726052
-27.5131 20.3171 51.7496 0.686325 -0.0169962 -0.727096
-27.8229 19.5907 51.4786 0.685504 -0.0227131 -0.727714
-28.4254 19.4166 50.9158 0.684064 -0.0278697 -0.728866
-29.0313 19.6079 50.3599 0.668223 -0.0314153 -0.743298
-29.6386 20.1057 49.788 0.667198 -0.0359041 -0.743991
-42.3783 19.4289 40.4087 0.515779 -0.0542225 -0.855004
-42.4151 20.3841 40.3312 0.517165 -0.0461588 -0.85464
-43.0082 21.4104 39.9315 0.502421 -0.0380879 -0.863784
-43.4767 21.973 39.633 0.490692 -0.0447213 -0.870113
-44.1187 22.1878 39.2671 0.495245 -0.0138178 -0.868643
-45.1441 22.1564 38.6704 0.513994 -0.0119511 -0.857711
-45.8584 21.9035 38.2418 0.536855 0.0108846 -0.843604
-46.3956 21.3694 37.8996 0.561113 -0.00450553 -0.827715
-46.7185 20.5369 37.687 0.563652 -0.0135252 -0.825894
-46.7532 19.64 37.6751 0.560466 -0.00517554 -0.828149
-46.6495 18.8858 37.7594 0.551375 -0.00601715 -0.834236
-46.3357 18.1741 37.9695 0.558879 -0.00891509 -0.829123
-45.6491 17.6543 38.4514 0.555916 -0.0202802 -0.83088
-45.0399 17.4358 38.857 0.550823 -0.0354017 -0.833871
-44.3065 17.4855 39.3347 0.539227 -0.0367375 -0.841359
-43.6555 17.7029 39.7316 0.530437 -0.0436171 -0.846596
-43.1114 18.1082 40.0443 0.526773 -0.0534424 -0.848324
-42.6813 18.6734 40.2735 0.513231 -0.055724 -0.856429
-42.4798 19.0766 40.3698 0.515778 -0.0542234 -0.855005
-43.6497 19.4313 39.6466 0.52101 -0.0448343 -0.852372
-43.8804 20.41 39.4644 0.511791 -0.0327892 -0.858462
-44.646 20.7966 38.9919 0.521469 -0.0279877 -0.852776
-45.5804 20.146 38.4322 0.531832 -0.021523 -0.846538
-45.4608 19.2119 38.5244 0.535583 -0.0147603 -0.844353
-44.6465 18.808 39.0628 0.534684 -0.0335188 -0.844337
-43.65 19.431 39.6465 0.521009 -0.0448356 -0.852373
-58.9545 17.837 30.7343 0.36836 -0.0289044 -0.929232
-59.1371 16.9418 30.6882 0.3678 -0.0275232 -0.929497
-59.7681 16.4544 30.4499 0.369865 -0.0219101 -0.928827
-60.6492 16.4292 30.1177 0.343484 -0.01815 -0.938969
-61.2828 16.7808 29.8784 0.333663 -0.0122368 -0.942515
-61.6074 17.4368 29.7615 0.320025 -0.0105896 -0.94735
-61.3777 18.4331 29.8247 0.32277 -0.0207311 -0.94625
-60.7879 18.9438 30.0217 0.33655 -0.0164501 -0.941487
-59.7467 18.8854 30.4085 0.350797 -0.0147335 -0.936336
-59.1819 18.3745 30.6326 0.357972 -0.018606 -0.93354
-59.0015 18.0439 30.709 0.364494 -0.024278 -0.930864
-18.0161 10.8297 56.7808 0.100772 0.10193 -0.989674
-17.9958 10.058 56.7052 0.0917671 0.0975449 -0.990991
-18.0533 10.069 56.7009 0.0963238 0.0973567 -0.990577
-18.0293 10.5147 56.7471 0.0989519 0.100296 -0.990022
-18.0396 9.5682 56.653 0.0899162 0.0970348 -0.991211
-17.6897 8.8147 56.6108 0.0882651 0.0993034 -0.991135
-17.9729 7.97608 56.5039 0.0859033 0.0959713 -0.99167
-17.4084 6.82732 56.4406 0.0839451 0.0954694 -0.991884
-18.0637 7.09849 56.4106 0.0877234 0.0953909 -0.991559
-18.0883 7.95286 56.4916 0.0857425 0.0959877 -0.991683
-17.9658 8.71108 56.5762 0.0877243 0.0957064 -0.991536
-18.0131 9.21818 56.6212 0.0891244 0.0968248 -0.991303
-5.71435 -1.39928 56.1319 -0.0203279 0.0892162 -0.995805
-5.42169 -1.61674 56.1064 -0.0203338 0.0892194 -0.995804
-4.64665 -1.2591 56.1192 -0.0291645 0.0896079 -0.99555
-3.97634 -0.562155 56.1612 -0.0306102 0.0918301 -0.995297
-4.66054 -0.435782 56.1948 -0.0312943 0.0953731 -0.99495
-5.30026 -1.12487 56.148 -0.0203902 0.0891442 -0.99581
-5.56784 -1.28082 56.1395 -0.0203888 0.0891405 -0.99581
-4.00524 -0.12804 56.2033 -0.0338094 0.0933703 -0.995057
-3.6222 0.0109138 56.2028 -0.0364754 0.0954799 -0.994761
-3.03601 0.495361 56.2294 -0.035056 0.0978153 -0.994587
-2.83777 1.52617 56.323 -0.0397249 0.0978948 -0.994403
-3.52531 0.930717 56.29 -0.0365609 0.0992555 -0.99439
-3.89805 0.155428 56.2262 -0.0331612 0.0945034 -0.994971
-3.90677 -0.105076 56.2021 -0.0338094 0.0933703 -0.995057
-2.50791 1.14313 56.2714 -0.0411168 0.098409 -0.994296
-2.40413 1.71373 56.3236 -0.0445613 0.0974596 -0.994235
-1.7291 2.00347 56.3193 -0.047601 0.0969847 -0.994147
-1.11556 2.41472 56.3297 -0.0511106 0.0992519 -0.993749
-1.26143 2.07885 56.3043 -0.0473283 0.0968173 -0.994174
-1.89665 1.71029 56.2988 -0.0478085 0.0967518 -0.99416
-2.31012 1.37019 56.2857 -0.0445613 0.0974597 -0.994235
-0.634852 2.73256 56.3364 -0.0523756 0.0978225 -0.993825
-0.381567 3.25417 56.3748 -0.0519931 0.100649 -0.993554
-0.60477 2.88601 56.3499 -0.0522217 0.0976953 -0.993845
-0.204462 3.65845 56.4051 -0.0558611 0.0990159 -0.993517
0.56023 3.97136 56.3938 -0.055471 0.100574 -0.993382
1.10486 4.55195 56.4209 -0.0589731 0.0990865 -0.99333
1.43649 5.18989 56.4648 -0.0630828 0.0968335 -0.993292
0.949859 5.04583 56.4794 -0.0589414 0.0992128 -0.993319
0.110791 4.41236 56.464 -0.0554785 0.101471 -0.99329
-0.216466 3.68103 56.408 -0.0556622 0.0993466 -0.993495
-0.219461 3.67598 56.4077 -0.0558611 0.0990159 -0.993517
2.80588 6.10936 56.4673 -0.0664515 0.100546 -0.992711
3.46391 6.80136 56.4945 -0.0635758 0.102303 -0.992719
3.04931 6.46781 56.4873 -0.065095 0.100832 -0.992771
2.79355 6.24748 56.482 -0.0659555 0.100127 -0.992786
5.69311 2.94751 56.3827 0.0360511 -0.00767673 -0.999308
6.42991 3.63029 56.3999 0.0320698 -0.00255417 -0.999465
7.13204 4.28132 56.4205 0.0257398 0.00526003 -0.999652
7.77818 4.90268 56.4377 0.0177092 0.0076305 -0.999814
8.3717 5.39981 56.4522 0.0122483 0.0113539 -0.999861
8.8421 6.01438 56.4629 0.0070066 0.0087431 -0.999937
9.48469 6.65167 56.4756 -0.00248808 0.0206266 -0.999784
10.3247 7.37929 56.4881 -0.0105163 0.0292801 -0.999513
10.0276 6.97163 56.4802 -0.013004 0.0217683 -0.999653
9.34519 6.17315 56.4654 -0.00625683 0.0238759 -0.999695
8.73923 5.61164 56.4588 0.00847001 0.00935839 -0.999919
8.27273 5.02573 56.4467 0.0106599 0.00960296 -0.999897
7.894 4.44013 56.4362 0.0176743 0.0076669 -0.999814
7.09253 3.89291 56.4179 0.0229293 0.00516378 -0.999724
6.22909 3.22102 56.3969 0.0297692 -0.00667479 -0.999535
5.68146 2.55975 56.3877 0.0318109 -0.0146359 -0.999371
5.6773 2.92552 56.3822 0.0387312 -0.00891604 -0.999206
5.37776 2.39104 56.3788 0.0373946 -0.0149375 -0.999189
4.82027 1.84136 56.3655 0.0385679 -0.0138915 -0.999159
4.30482 1.17643 56.3555 0.0480843 -0.0186375 -0.998669
3.89345 0.588726 56.3473 0.0469193 -0.0199029 -0.9987
3.62396 -0.0614461 56.3507 0.0534105 -0.0245828 -0.99827
2.98206 -0.168729 56.3186 0.0551426 -0.0226244 -0.998222
2.21711 -0.828173 56.2919 0.0621039 -0.0289353 -0.99765
1.4943 -1.35822 56.2616 0.0644523 -0.0285316 -0.997513
0.91009 -1.98821 56.2418 0.0687428 -0.0312843 -0.997144
0.303022 -2.67006 56.2201 0.069845 -0.0309599 -0.997077
-0.245182 -3.33917 56.2 0.0763976 -0.0302713 -0.996618
-0.882303 -3.81978 56.1651 0.0770418 -0.0294749 -0.996592
0.00307965 -3.8494 56.2344 0.0769563 -0.0296579 -0.996593
0.663153 -3.36802 56.2675 0.0697725 -0.0316739 -0.99706
1.22314 -2.75478 56.2872 0.0698448 -0.0309621 -0.997077
2.0975 -2.00782 56.3198 0.0610003 -0.031408 -0.997643
2.87485 -1.15071 56.3394 0.0544664 -0.0297137 -0.998073
3.3909 -0.291087 56.3439 0.0542785 -0.0236014 -0.998246
4.02693 0.252252 56.3613 0.0464115 -0.0261182 -0.998581
4.55854 0.784133 56.3751 0.0434355 -0.0194231 -0.998856
5.28221 1.59422 56.3868 0.0386772 -0.0170496 -0.999101
5.60757 2.21307 56.3901 0.0373946 -0.0149375 -0.999189
10.356 7.40415 56.4885 -0.0105225 0.0292878 -0.999513
11.0289 7.75963 56.4878 -0.0250143 0.0382732 -0.998954
11.6598 8.4751 56.4962 -0.0339618 0.0462924 -0.99835
12.3674 8.92866 56.489 -0.0442703 0.0528607 -0.997574
12.8639 9.44485 56.4996 -0.043547 0.0629661 -0.997065
13.2876 10.0739 56.5166 -0.0587302 0.0573419 -0.996626
14.1081 10.7814 56.5036 -0.075239 0.0676191 -0.99487
15.2438 10.8727 56.4068 -0.100513 0.0616961 -0.993021
16.1352 10.2306 56.282 -0.0940053 0.0506487 -0.994283
16.798 9.44691 56.1679 -0.114045 0.0491285 -0.99226
16.822 9.28091 56.1582 -0.107199 0.0362151 -0.993578
16.6731 8.59093 56.1501 -0.104148 0.036791 -0.99387
16.4758 7.80102 56.1384 -0.100537 0.0399218 -0.994132
16.4734 6.8651 56.1121 -0.0921574 0.0258343 -0.995409
16.8202 5.84967 56.0568 -0.0883929 0.018654 -0.995911
17.3805 6.57755 56.0207 -0.0902758 0.0222454 -0.99566
17.4373 7.36464 56.0325 -0.096608 0.0254475 -0.994996
17.4778 8.26358 56.0534 -0.108204 0.0306259 -0.993653
17.4524 9.16896 56.0861 -0.113287 0.034888 -0.99293
17.4987 10.0002 56.1098 -0.120183 0.0373925 -0.992047
17.4992 10.7585 56.1422 -0.133916 0.0432945 -0.990046
17.438 11.5378 56.1895 -0.143556 0.057605 -0.987964
16.8804 12.3457 56.3211 -0.130058 0.0879545 -0.987598
16.0151 12.544 56.4527 -0.132079 0.0931262 -0.986839
15.315 12.2347 56.5066 -0.110677 0.0848516 -0.990228
14.6091 11.7247 56.5335 -0.0876585 0.0757769 -0.993264
14.086 10.9888 56.5205 -0.081208 0.0768439 -0.99373
13.3118 10.4205 56.5354 -0.0617317 0.0615573 -0.996193
12.7784 9.88856 56.5314 -0.0420385 0.0618065 -0.9972
12.1055 9.38979 56.5274 -0.0344301 0.0550427 -0.99789
11.5984 8.83369 56.5154 -0.0360364 0.0491383 -0.998142
10.9234 8.16196 56.5053 -0.0207948 0.0351597 -0.999165
10.594 7.72477 56.4957 -0.0101693 0.0353965 -0.999311
8.12175 11.4954 56.645 -0.0571579 0.0910672 -0.994203
8.42879 11.8707 56.6619 -0.0569926 0.0903558 -0.994277
8.47821 11.8534 56.6575 -0.0569925 0.0903558 -0.994277
8.16904 11.5274 56.6453 -0.0567202 0.0911197 -0.994223
16.8294 5.728 56.0537 -0.0883844 0.0186601 -0.995912
17.5134 5.67153 55.9915 -0.0915111 0.017337 -0.995652
17.4808 4.80708 55.9797 -0.0868138 0.0156174 -0.9961
17.5185 3.98016 55.9649 -0.0854882 0.0135551 -0.996246
17.5408 3.07399 55.9516 -0.0849869 0.0111019 -0.99632
17.4384 2.20116 55.9505 -0.0851234 0.0110814 -0.996309
17.4168 1.37975 55.9442 -0.0854898 0.0092297 -0.996296
17.4947 0.625271 55.9306 -0.0861735 0.00844787 -0.996244
17.4538 -0.240955 55.9269 -0.0865637 0.00795339 -0.996214
17.59 -1.13666 55.908 -0.0881382 0.00853552 -0.996071
17.5182 -1.9482 55.9079 -0.0888106 0.00737525 -0.996021
17.4523 -2.71038 55.9077 -0.0922587 0.00784447 -0.995704
17.4451 -3.6763 55.9012 -0.0934541 0.00915539 -0.99558
17.3453 -4.59791 55.904 -0.0951077 0.00787756 -0.995436
17.2438 -5.43892 55.9077 -0.0987317 0.00778718 -0.995084
17.4896 -6.17313 55.8778 -0.0996295 0.00742281 -0.994997
17.5201 -6.92261 55.8696 -0.102187 0.00690293 -0.994741
17.4007 -7.71445 55.8775 -0.103508 0.00511209 -0.994615
17.4818 -8.46221 55.8641 -0.105682 0.00548487 -0.994384
17.5075 -9.33822 55.8566 -0.107177 0.00615979 -0.994221
17.4931 -10.2077 55.8547 -0.109172 0.0024477 -0.99402
17.5037 -11.0117 55.8527 -0.111376 0.000139562 -0.993776
17.5511 -11.7911 55.8483 -0.114803 -0.000663602 -0.993387
17.4628 -12.7597 55.8607 -0.114314 -0.00482901 -0.993433
17.4416 -13.5348 55.8685 -0.111844 -0.0121812 -0.993651
17.3595 -14.3992 55.8904 -0.115666 -0.0168816 -0.993145
17.6101 -15.0413 55.8782 -0.127055 -0.0316515 -0.991391
17.3654 -15.5653 55.9265 -0.114448 -0.0574352 -0.991764
17.0153 -16.4497 56.0196 -0.126455 -0.0530642 -0.990441
16.8486 -15.6485 55.9914 -0.11566 -0.0552423 -0.991752
16.6157 -14.7596 55.9832 -0.115337 -0.0172437 -0.993177
16.5321 -13.4833 55.9702 -0.113429 -0.0148924 -0.993429
16.4255 -12.7595 55.976 -0.0977192 -0.00841943 -0.995178
16.3062 -11.9482 55.9819 -0.100349 -0.000362666 -0.99495
16.2709 -10.7541 55.9874 -0.0996634 0.00163699 -0.99502
16.2892 -9.89746 55.9868 -0.100509 0.00136224 -0.994935
16.4659 -9.14209 55.97 -0.105306 0.00382782 -0.994431
16.6129 -8.3842 55.957 -0.103919 0.00307994 -0.994581
16.6436 -7.493 55.9571 -0.103802 0.00426653 -0.994589
16.5054 -6.40332 55.9753 -0.100792 0.00417501 -0.994899
16.6285 -5.526 55.9681 -0.0979682 0.00637352 -0.995168
16.6539 -4.52035 55.9706 -0.0961542 0.00642356 -0.995344
16.5969 -3.49274 55.9821 -0.0938634 0.00484509 -0.995573
16.5581 -2.32281 55.9922 -0.0906393 0.00540911 -0.995869
16.5665 -1.56426 55.9956 -0.0897281 0.0063936 -0.995945
16.548 -0.403401 56.0045 -0.0857055 0.00621495 -0.996301
16.5977 0.695977 56.0081 -0.0845701 0.00757979 -0.996389
16.5701 1.47671 56.0174 -0.08476 0.00953569 -0.996356
16.3001 2.30261 56.0479 -0.0829113 0.011225 -0.996494
16.3936 3.13964 56.0495 -0.0829539 0.0112973 -0.996489
16.6186 3.98053 56.0428 -0.0840253 0.0147577 -0.996352
16.6313 4.78275 56.0535 -0.0877278 0.0180396 -0.995981
16.6084 5.2433 56.0642 -0.0883833 0.0186633 -0.995912
21.7693 5.7011 55.565 -0.454257 -0.00281085 -0.890771
21.753 6.44325 55.5447 -0.501028 -0.00755898 -0.865398
21.8715 7.21629 55.4901 -0.515925 0.0199573 -0.85629
21.9781 7.9579 55.3972 -0.546084 -0.0173885 -0.837493
21.9174 8.85139 55.4389 -0.553199 -0.00603937 -0.833012
21.9184 9.74937 55.4379 -0.514531 -0.00593991 -0.857451
21.8961 10.57 55.4341 -0.533239 -0.0328877 -0.845176
21.9319 11.3975 55.3668 -0.558733 -0.0144392 -0.82922
22.0824 12.1676 55.2274 -0.590488 -0.033521 -0.80635
22.589 12.8094 54.8279 -0.623981 -0.0352394 -0.780645
22.7187 13.5787 54.6845 -0.625566 -0.0476486 -0.778714
22.6523 14.3722 54.6873 -0.619067 -0.0513729 -0.783656
22.5627 15.1313 54.7082 -0.608453 -0.0540517 -0.791724
22.5033 16.1505 54.6966 -0.602837 -0.033283 -0.79717
22.9605 16.9168 54.3223 -0.620403 -0.024662 -0.783896
23.479 17.3277 53.8892 -0.649937 -0.0158292 -0.759823
24.0332 17.4567 53.4037 -0.675186 -0.0341942 -0.736516
24.5302 17.6805 52.8895 -0.72535 -0.0937942 -0.68196
24.7487 18.3289 52.5713 -0.672183 -0.0574041 -0.737768
24.761 19.0935 52.5091 -0.698692 -0.034791 -0.714496
24.6268 19.9545 52.6234 -0.709694 -0.0102407 -0.704421
24.5252 20.9714 52.7161 -0.714922 -0.00667578 -0.699172
24.4792 21.7687 52.7554 -0.715475 -0.00638625 -0.698608
24.1411 22.3296 53.0951 -0.712912 -0.00916062 -0.701194
23.8705 22.6193 53.365 -0.707661 -0.00707752 -0.706517
23.5441 22.4258 53.685 -0.679083 -0.0176492 -0.733511
23.3103 23.0569 53.8688 -0.65832 -0.033779 -0.751978
23.8561 23.1532 53.3741 -0.701048 -0.00836179 -0.713004
24.3228 23.0933 52.9003 -0.715692 -0.00975496 -0.698347
24.9336 23.1463 52.274 -0.71613 -0.0129302 -0.697848
25.4862 23.1223 51.7109 -0.713838 -0.0103436 -0.700225
26.0767 22.9256 51.1072 -0.718792 -0.000632228 -0.695222
26.5302 22.5878 50.6389 -0.718687 -0.00341021 -0.695324
26.8744 21.8546 50.2946 -0.713433 -0.0107042 -0.700639
27.4566 21.2223 49.7182 -0.70495 -0.0107101 -0.709176
27.8975 20.7843 49.2888 -0.701966 -0.0161257 -0.712019
28.6323 20.5895 48.5772 -0.696434 -0.0217886 -0.71729
29.067 21.1398 48.1487 -0.683067 -0.0190567 -0.730107
29.4269 21.8777 47.796 -0.686611 -0.0152234 -0.726852
29.7623 22.4837 47.4942 -0.678492 0.0113802 -0.734519
30.3268 22.7987 46.9908 -0.660765 -0.00233031 -0.750589
30.9285 22.973 46.4605 -0.660766 -0.00232876 -0.750588
31.6369 23.1573 45.8385 -0.650732 -0.0412075 -0.758189
32.2653 22.9442 45.3176 -0.637607 -0.0366487 -0.769476
33.3088 22.9146 44.4644 -0.626426 -0.0347054 -0.778701
33.7304 22.4034 44.151 -0.623883 -0.0277228 -0.780966
33.947 21.7022 44.0072 -0.599291 -0.036854 -0.799683
34.0815 20.9092 43.9328 -0.601344 -0.0190347 -0.798764
34.0913 19.9159 43.9748 -0.626135 -0.0487669 -0.778188
33.8395 19.2034 44.2183 -0.616851 -0.0523453 -0.785252
33.2983 18.6123 44.6877 -0.613586 -0.0633041 -0.787086
32.6829 18.1247 45.2105 -0.619392 -0.063313 -0.782525
31.9867 17.8575 45.7984 -0.639019 -0.0608883 -0.766777
31.3596 17.9635 46.3038 -0.618084 -0.0588485 -0.783906
30.8028 18.2718 46.7345 -0.638104 -0.05332 -0.768091
30.2082 18.7771 47.2012 -0.649434 -0.0433982 -0.759154
29.7891 19.3504 47.5323 -0.660756 -0.0325157 -0.749827
29.2882 19.8813 47.9715 -0.688796 -0.0292322 -0.724357
28.8292 20.2947 48.3941 -0.698161 -0.0207224 -0.715641
28.4146 20.0675 48.8049 -0.697506 -0.0244357 -0.716161
28.1302 19.4393 49.1048 -0.70094 -0.0284341 -0.712632
28.0291 18.7069 49.2444 -0.697402 -0.0607322 -0.714088
27.9509 17.9479 49.3918 -0.700761 -0.073122 -0.709632
27.7387 17.1675 49.6837 -0.698669 -0.0755219 -0.711447
26.9923 16.7219 50.4676 -0.702563 -0.0727848 -0.70789
26.681 16.0571 50.8514 -0.706908 -0.0763591 -0.703172
26.8567 15.1079 50.7606 -0.706618 -0.0629718 -0.704787
27.3033 13.9957 50.426 -0.700133 -0.063318 -0.711191
27.3469 12.9541 50.4806 -0.693697 -0.0671668 -0.717129
27.5734 11.941 50.3534 -0.689706 -0.0672173 -0.720937
27.8457 10.9845 50.1732 -0.691579 -0.0710496 -0.718737
28.271 10.2995 49.843 -0.687455 -0.0756474 -0.722267
28.6721 9.36144 49.5474 -0.689458 -0.0665095 -0.721265
28.879 8.51668 49.4308 -0.680557 -0.0719397 -0.729069
29.1911 7.56323 49.2395 -0.672562 -0.071843 -0.736545
29.5754 6.76163 48.9668 -0.672356 -0.066341 -0.737228
29.9862 6.13624 48.6473 -0.667818 -0.0640969 -0.74156
30.4685 5.69496 48.2512 -0.667109 -0.063476 -0.74225
31.2543 5.69398 47.5572 -0.659923 -0.0665274 -0.748382
31.9339 5.75004 46.9703 -0.648569 -0.0631088 -0.758527
32.6573 5.61779 46.3728 -0.640433 -0.059229 -0.765724
33.3009 5.1952 45.8717 -0.635566 -0.0581063 -0.769857
33.7574 4.65734 45.5399 -0.631237 -0.0574065 -0.773456
34.0938 3.98117 45.3126 -0.630619 -0.0547077 -0.774161
34.3168 2.99594 45.2013 -0.629212 -0.0536308 -0.77538
34.3402 2.16494 45.2385 -0.628561 -0.0525847 -0.77598
34.1248 1.25385 45.4749 -0.628471 -0.0527328 -0.776043
33.7764 0.578883 45.8057 -0.635199 -0.0495592 -0.770757
33.2705 0.16555 46.2492 -0.635575 -0.048816 -0.770494
32.6931 0.141859 46.7369 -0.642905 -0.0564938 -0.76386
32.0248 0.38483 47.2918 -0.651779 -0.0501033 -0.756752
31.443 0.66094 47.774 -0.654596 -0.046915 -0.754497
30.8548 1.27303 48.2474 -0.662416 -0.0629928 -0.746483
30.3787 2.14808 48.6106 -0.668345 -0.0542605 -0.741869
29.9749 2.86213 48.9211 -0.667118 -0.0562822 -0.74282
