2.06 -12.0763 13.4243 0.119902 0.116835 0.985857
1.8518 -11.4301 13.282 -0.202038 0.165406 0.965309
1.8518 -11.4301 13.282 -0.202038 0.165406 0.965309
2.05391 -12.0322 13.4195 0.0612173 0.172765 0.979982
3.20354 -11.8575 13.2093 0.281389 0.144597 0.94851
3.17035 -12.9004 13.2969 0.263107 0.00557266 0.96475
2.9804 -13.8213 13.3606 0.259837 0.0462062 0.964546
2.84295 -14.8168 13.3891 0.204618 -0.0163898 0.97762
2.6588 -15.6995 13.4433 0.195738 0.0517164 0.978734
2.49141 -16.53 13.5484 0.203025 0.0621198 0.976985
2.19084 -17.4499 13.6328 0.159921 0.0320723 0.986609
1.61112 -18.3979 13.6481 -0.0676806 -0.0546499 0.996209
1.13524 -17.8612 13.5765 -0.147734 0.0287752 0.988608
1.10015 -16.9103 13.5424 -0.182313 0.0508335 0.98103
1.09598 -15.9979 13.4764 -0.220072 0.0653114 0.973295
1.00361 -14.8737 13.397 -0.216657 0.0123642 0.975568
0.895035 -13.8822 13.3619 -0.247954 0.0452456 0.967715
0.757799 -13.0523 13.2496 -0.26419 0.120819 0.956873
0.599883 -12.1539 13.0964 -0.248556 0.116117 0.961632
0.41656 -11.3398 12.9535 -0.313192 0.123965 0.939058
0.191427 -10.6061 12.7475 -0.370683 0.105988 0.921956
0.243012 -9.64318 12.6953 -0.405465 0.0937632 0.907903
0.853519 -9.05256 12.7709 -0.191608 0.106642 0.975419
1.41402 -8.43485 12.7936 -0.201901 0.116261 0.97193
1.96568 -8.13465 12.8441 -0.112006 0.0714917 0.991132
2.2118 -8.97568 12.9735 -0.0839984 0.113344 0.988741
2.51498 -9.78367 13.0618 -0.0265433 0.0959325 0.995034
2.82576 -10.5201 13.1512 -0.0391597 0.112529 0.992877
3.07016 -11.2439 13.1613 0.212487 0.0668742 0.974873
3.11533 -11.4084 13.1627 0.240098 0.109053 0.963215
4.25978 -11.1259 12.7897 0.502532 0.0411892 0.863245
3.96322 -10.0833 12.8584 0.286058 0.0498589 0.956675
3.62913 -9.15899 12.8844 0.216335 0.0934781 0.971409
3.25974 -8.21078 12.8683 0.116756 0.123191 0.981797
3.31647 -7.06915 12.6872 0.128933 0.149493 0.98032
3.5992 -6.37795 12.5832 0.178734 0.0945619 0.977988
4.00126 -5.72903 12.4113 0.215803 0.0712646 0.97267
4.4826 -5.06573 12.2509 0.273388 0.0670089 0.959567
5.13587 -4.35611 11.9936 0.336366 0.0728929 0.938906
5.67341 -3.74722 11.7497 0.454535 0.0500734 0.887424
6.38725 -3.07322 11.2957 0.524448 0.0339106 0.850733
7.0348 -2.38162 10.8712 0.535395 0.0296173 0.844078
7.06686 -1.79811 10.8309 0.529468 0.0357641 0.847576
6.33325 -1.90576 11.2769 0.499753 0.0301325 0.865643
5.66452 -1.99813 11.6529 0.444268 0.0481529 0.894599
4.93769 -2.08542 11.9636 0.356004 0.0535088 0.932951
4.19196 -2.07791 12.178 0.293153 0.0112878 0.955999
3.20076 -1.73114 12.4084 0.0830611 -0.00984855 0.996496
2.43725 -1.2798 12.4763 0.0565211 -0.00989789 0.998004
1.86342 -1.94569 12.4728 -0.0508528 -0.0663355 0.996501
1.45958 -2.67803 12.4243 -0.112505 0.0201396 0.993447
1.03245 -3.64029 12.3678 -0.237628 0.0493486 0.970102
0.735851 -4.57264 12.3509 -0.233148 0.068318 0.970038
0.654126 -5.52084 12.3872 -0.276127 0.0306583 0.959111
0.641709 -6.37625 12.4093 -0.324673 0.0783156 0.942389
0.539435 -7.19917 12.4538 -0.336143 0.0924502 0.937262
0.244139 -7.88783 12.4207 -0.329259 0.1059 0.938282
-0.279518 -8.46658 12.2849 -0.420231 0.0851728 0.903411
-1.02421 -8.91468 11.9801 -0.420412 0.0842619 0.903412
-1.63 -9.34647 11.7117 -0.468509 0.0650131 0.881062
-1.29109 -10.15 11.9745 -0.469327 0.0955242 0.877842
-0.993339 -11.0533 12.2376 -0.469994 0.113239 0.875376
-0.683651 -11.936 12.5181 -0.4775 0.105218 0.872234
-0.493734 -12.9628 12.7162 -0.47621 0.0740531 0.876208
-0.350862 -13.7686 12.8742 -0.437828 0.0869092 0.894119
-0.245509 -15.009 12.9936 -0.399765 0.0232112 0.916324
-0.155297 -15.7897 13.0526 -0.394479 0.0429784 0.917665
-0.174301 -16.5406 13.096 -0.388989 0.0629282 0.919091
-0.142671 -17.6939 13.1828 -0.335548 0.0759002 0.93896
-0.0741484 -18.5768 13.2579 -0.279693 0.0509012 0.958229
0.0764761 -19.928 13.4157 -0.255234 0.0657882 0.964327
0.540399 -20.6142 13.6209 -0.209752 0.154175 0.965523
1.2811 -20.6492 13.7195 0.00806573 0.131463 0.991288
2.20022 -19.9192 13.6932 0.0720744 0.00961815 0.991061
2.90626 -18.924 13.4953 0.343182 0.0153739 0.937996
3.30352 -18.1689 13.3714 0.34698 -0.0465045 0.936719
3.62982 -17.204 13.2786 0.330439 0.0205072 0.943351
3.80257 -16.4297 13.1846 0.32374 0.06939 0.942833
4.01906 -15.6293 13.0548 0.291542 0.0652116 0.954333
4.14831 -14.7821 12.9752 0.451604 0.00421798 0.887857
4.24652 -13.7269 12.9037 0.529387 0.00689401 0.848351
4.42806 -12.7416 12.7807 0.526603 0.00994807 0.850053
4.39866 -11.6951 12.746 0.523779 0.0681151 0.849126
4.27326 -11.1901 12.7835 0.518102 0.0436001 0.85403
5.37895 -10.8398 12.0984 0.531652 0.0272081 0.846495
5.57172 -11.6465 12.0038 0.537267 0.0330358 0.842765
5.56961 -12.5135 12.0421 0.550219 0.0222145 0.834725
5.48732 -13.3112 12.1087 0.55554 0.0101013 0.831428
5.32069 -14.1311 12.2308 0.563408 0.00547145 0.826094
5.26494 -14.9368 12.2826 0.575409 0.0188924 0.817648
5.21577 -15.7622 12.3352 0.581845 0.0111422 0.813224
4.8465 -16.8795 12.5892 0.564193 0.0111426 0.825486
4.62467 -17.9086 12.7051 0.52845 -0.0046562 0.848763
4.38946 -18.7422 12.8439 0.465825 0.00506878 0.884862
4.1139 -19.5405 13.0334 0.489738 0.0574155 0.869977
3.67515 -20.2803 13.2726 0.404064 0.0327526 0.914144
3.20272 -20.8177 13.5063 0.270636 0.0379908 0.961932
2.69515 -21.4827 13.6754 0.270638 0.0379911 0.961931
2.17243 -22.0173 13.838 0.101893 0.103199 0.987517
1.40903 -22.1417 13.9425 0.107205 0.213888 0.970958
0.521107 -22.1869 13.8243 -0.236356 0.182337 0.954405
-0.342728 -21.9792 13.4493 -0.452679 0.061984 0.889516
-0.856589 -21.2681 13.1197 -0.520927 0.0737972 0.850403
-1.18751 -20.2335 12.8293 -0.483833 0.106106 0.867085
-1.22144 -19.3741 12.7491 -0.47704 0.0459436 0.87768
-1.28474 -18.391 12.6586 -0.506182 0.0572029 0.859953
-1.2931 -17.4909 12.605 -0.473543 0.037848 0.87948
-1.35296 -16.6505 12.5364 -0.449714 0.0375997 0.892373
-1.34515 -15.679 12.4707 -0.507685 0.0525335 0.859876
-1.45382 -14.7492 12.3557 -0.494609 0.0663154 0.866549
-1.59238 -13.4639 12.1568 -0.523799 0.0811444 0.847969
-1.71186 -12.5338 11.9942 -0.52164 0.0791481 0.849481
-2.18627 -11.3927 11.6013 -0.498222 0.0874865 0.862572
-2.53603 -10.3192 11.3028 -0.488687 0.0902309 0.86771
-2.86612 -9.68947 11.062 -0.49789 0.0694613 0.864454
-3.5089 -9.23129 10.6601 -0.509708 0.0343267 0.859662
-4.24136 -8.971 10.225 -0.50304 0.0208576 0.863956
-4.85371 -8.72121 9.85632 -0.510718 0.0166614 0.859587
-5.461 -8.3298 9.49748 -0.503368 0.00860068 0.864018
-5.9646 -7.68006 9.20315 -0.499972 -0.00426694 0.866031
-6.06124 -6.79633 9.15317 -0.494189 -0.0128315 0.86926
-5.6022 -5.70033 9.42611 -0.4915 -0.0088302 0.870833
-5.12539 -5.20226 9.70218 -0.479095 -0.019557 0.877545
-4.45079 -4.95024 10.0777 -0.482641 -0.0155696 0.87568
-3.79585 -5.01291 10.4268 -0.46876 -0.0116798 0.883247
-3.08513 -5.33586 10.8012 -0.45866 -0.00878374 0.888479
-2.33961 -5.94374 11.1872 -0.461562 0.0119978 0.886978
-2.17268 -6.77378 11.2837 -0.437585 0.0111408 0.899108
-1.62471 -7.61068 11.5949 -0.445674 0.0551192 0.893497
-0.869458 -7.33386 11.9169 -0.396678 0.0507641 0.916553
-0.623518 -6.42634 11.9704 -0.395561 0.05426 0.916836
-0.661469 -5.67232 11.92 -0.38566 0.0116651 0.922567
-0.60804 -4.74861 11.9306 -0.357447 0.0170113 0.933276
-0.493581 -3.99833 11.9564 -0.325467 0.00992206 0.945501
-0.237512 -3.15346 12.0173 -0.301219 0.0405249 0.952694
0.0949056 -2.2932 12.1252 -0.260821 -0.0245433 0.964882
0.539967 -1.60887 12.2733 -0.246643 -0.0318071 0.968584
1.07973 -0.661232 12.4419 -0.194854 -0.0373274 0.978685
1.57485 -0.0446514 12.5035 -0.117448 -0.0553931 0.991533
1.51867 0.692564 12.5365 -0.11868 -0.0510839 0.991618
0.97557 1.20615 12.476 -0.152268 -0.0311006 0.987843
0.421831 1.76057 12.4061 -0.187079 -0.0456702 0.981283
-0.327825 2.31713 12.2683 -0.233982 -0.0529631 0.970016
-0.89433 3.13437 12.1747 -0.310064 -0.100145 0.945427
-1.25335 3.95367 12.1437 -0.262749 -0.0745705 0.960357
-1.41482 4.85053 12.1852 -0.25413 -0.0907703 0.962901
-1.60183 5.64816 12.2423 -0.259824 -0.15601 0.95297
-1.72067 6.65141 12.351 -0.22696 -0.114389 0.967163
-1.9747 7.6685 12.4252 -0.31009 -0.171424 0.935125
-2.37883 8.51097 12.4281 -0.332073 -0.141732 0.932545
-2.70735 9.44946 12.439 -0.399476 -0.131528 0.907259
-3.01938 10.5224 12.4502 -0.406317 -0.120892 0.9057
-3.17331 11.3966 12.5053 -0.409016 -0.175743 0.895444
-3.37112 12.4154 12.5985 -0.362499 -0.158364 0.918349
-3.30308 13.6533 12.8783 -0.385734 -0.194266 0.90178
-3.3769 14.7127 13.0571 -0.361082 -0.151813 0.91898
-3.60137 15.7544 13.0479 -0.388329 -0.0967306 0.91643
-4.13218 16.7103 12.8674 -0.513407 -0.0963444 0.85272
-4.48678 17.3992 12.7322 -0.512184 -0.106727 0.852178
-4.79907 18.3403 12.6711 -0.524222 -0.105172 0.844906
-5.07633 19.0756 12.5832 -0.536068 -0.103953 0.83775
-5.23939 20.0703 12.6039 -0.570445 -0.116835 0.812983
-5.00426 20.8093 12.8578 -0.490736 -0.135256 0.860627
-4.66781 21.4723 13.1523 -0.509816 -0.112647 0.852877
-4.2964 22.0934 13.4568 -0.510291 -0.1132 0.852519
-3.79828 22.5405 13.8315 -0.449639 -0.246135 0.852928
-3.00094 22.7925 14.274 -0.413265 -0.252476 0.872002
-2.23604 22.9222 14.3547 0.035346 -0.288016 0.956973
-1.29866 22.9067 14.1216 0.270442 -0.0832119 0.959133
-0.413913 22.3805 13.8082 0.340737 -0.0519083 0.938716
0.266799 21.7537 13.5259 0.389838 -0.0576096 0.917655
1.02522 21.0838 13.1373 0.464426 -0.0320952 0.88393
1.47713 20.4077 12.9017 0.469618 0.0185939 0.882674
1.52687 19.1403 12.8968 0.422155 0.0151333 0.906397
1.46392 17.9549 12.9514 0.42983 0.0225136 0.902629
1.60015 17.1768 12.8997 0.49546 0.0287736 0.868154
2.0799 16.252 12.6389 0.452055 -0.0010331 0.891855
2.78145 16.0995 12.2533 0.502419 0.0228331 0.864323
3.48409 16.2457 11.825 0.518676 0.0272633 0.854532
4.12941 16.2436 11.4242 0.531786 0.0328855 0.84624
4.76401 15.9844 11.0411 0.525234 0.0371525 0.850147
5.51808 15.3035 10.6017 0.535928 0.0536979 0.842554
5.83165 14.5911 10.4476 0.53686 0.0533538 0.841982
5.83349 13.7181 10.5056 0.531983 0.0576259 0.844792
5.65405 12.8709 10.6764 0.530643 0.0607831 0.845406
5.53685 12.0126 10.8067 0.525369 0.054727 0.849113
5.63223 11.2623 10.8033 0.521362 0.0655773 0.850812
5.74236 10.3554 10.8006 0.506648 0.071553 0.859176
5.96147 9.391 10.7468 0.522993 0.0711544 0.849347
6.09649 8.47634 10.7418 0.515195 0.0664691 0.854479
5.92145 7.42898 10.9251 0.517838 0.0628127 0.853169
5.47385 6.5972 11.2337 0.496706 0.0438279 0.866812
5.0597 6.03119 11.5051 0.489459 0.0628951 0.869755
4.62801 5.39095 11.7668 0.445433 0.0600057 0.893302
4.41245 4.66918 11.8984 0.434704 0.026599 0.900181
3.98736 3.82063 12.0897 0.354716 -0.00503014 0.934961
3.67244 2.98069 12.2365 0.376275 0.044672 0.92543
3.15679 2.28829 12.3862 0.213661 0.0620217 0.974937
2.54095 1.5704 12.5231 0.153025 -0.0217941 0.987982
2.40501 0.790213 12.5183 0.131967 -0.0335385 0.990591
3.02791 0.262637 12.4459 0.0864785 -0.0162755 0.996121
3.69284 -0.575552 12.3476 0.186193 0.000458916 0.982513
4.46271 -0.780742 12.1271 0.383943 -0.0047301 0.923345
5.39136 -0.662742 11.7147 0.418421 -0.00511653 0.908239
6.13238 -0.567815 11.3585 0.515816 0.0249688 0.856279
6.76975 -0.467855 10.9625 0.540717 0.024096 0.840859
7.78006 -0.552146 10.3152 0.543642 0.0324125 0.838642
8.36878 -1.14297 9.94375 0.559916 0.0344127 0.827835
8.57491 -1.93815 9.82955 0.57938 0.0230234 0.814711
8.36458 -2.68503 10.005 0.572028 0.0279371 0.819641
7.95857 -3.28835 10.3016 0.558247 0.0271465 0.829222
7.44404 -3.8477 10.6628 0.54445 0.0388658 0.837892
6.9046 -4.34206 11.0288 0.536529 0.0325489 0.843254
6.42034 -4.82131 11.3501 0.537471 0.0178792 0.843026
5.82471 -5.50657 11.7108 0.481049 -0.0223163 0.87641
5.31632 -6.13374 11.9707 0.457277 -0.0185657 0.88913
4.88061 -6.74438 12.1732 0.359703 0.0816663 0.92851
4.45786 -7.69188 12.4618 0.323291 0.0991125 0.940142
4.69042 -8.5967 12.4114 0.416565 0.024931 0.908764
4.90738 -9.35874 12.3199 0.499577 0.0162269 0.866118
5.18478 -10.0934 12.1902 0.524067 0.0505757 0.850174
5.3434 -10.6504 12.1137 0.52608 0.0300826 0.849903
1.96095 -6.51806 12.7096 -0.0540312 0.0867405 0.994422
2.04223 -5.63365 12.6299 -0.0887093 0.0668448 0.993307
2.02577 -4.76839 12.596 -0.0223961 0.0587103 0.994816
2.33835 -4.00118 12.5425 -0.037611 0.0958822 0.994682
2.67094 -3.25202 12.5108 -0.0632226 0.0467572 0.996904
3.42858 -3.21115 12.4173 0.167961 0.0749689 0.981211
3.83516 -3.87839 12.356 0.214164 0.0558054 0.975098
3.32542 -4.5119 12.5012 0.132979 -0.00868184 0.991081
2.82391 -5.27962 12.5889 0.0742563 0.067312 0.994965
2.35457 -5.96601 12.6789 0.019255 0.0888024 0.99457
2.06005 -6.43341 12.7061 -0.029998 0.0768043 0.996595
-3.12661 -7.70065 10.8129 -0.469719 0.0242999 0.882482
-3.36115 -6.9768 10.6715 -0.475006 0.0131978 0.879853
-3.94706 -6.38964 10.3428 -0.480901 0.0043507 0.876739
-4.67995 -6.64051 9.93775 -0.494035 -0.0034135 0.869435
-4.31318 -7.50205 10.1473 -0.492336 0.00669233 0.87038
-3.64335 -7.77639 10.536 -0.488916 0.020485 0.872018
-3.39639 -7.83288 10.6729 -0.474968 0.0250399 0.879626
-10.2962 -10.2774 6.64632 -0.505066 -0.00911806 0.863033
-10.2119 -11.1453 6.68591 -0.507676 -0.00754621 0.861515
-10.6425 -11.8543 6.42417 -0.509974 -0.0111329 0.860118
-11.5398 -12.4347 5.8846 -0.508142 -0.0120416 0.861186
-12.1891 -12.363 5.50329 -0.507556 -0.013934 0.861506
-13.1708 -11.7282 4.9378 -0.506275 -0.0163665 0.862216
-13.6016 -10.9174 4.70016 -0.505154 -0.0198137 0.862797
-13.4244 -10.1108 4.8235 -0.503703 -0.0207381 0.863628
-12.8208 -9.38331 5.19231 -0.503017 -0.0207515 0.864027
-12.1479 -9.22257 5.5879 -0.500733 -0.0198254 0.86537
-11.2022 -9.27919 6.13321 -0.501598 -0.0167988 0.864938
-10.6229 -9.72493 6.46096 -0.504216 -0.0128322 0.863474
-10.3294 -10.2142 6.62757 -0.505066 -0.0091174 0.863033
-11.4396 -10.5765 5.97272 -0.503419 -0.0122883 0.863955
-12.1354 -10.6761 5.56321 -0.504868 -0.0153264 0.86306
-11.4774 -10.6562 5.9493 -0.505844 -0.0150321 0.862494
-11.4415 -10.6064 5.97121 -0.504632 -0.0136599 0.863224
-14.4086 -6.02704 4.38076 -0.502829 -0.0349081 0.863681
-14.9802 -6.36434 4.03474 -0.505478 -0.0301601 0.862312
-15.7321 -6.47806 3.58997 -0.504809 -0.0327784 0.862604
-16.5306 -6.38993 3.1238 -0.507219 -0.0316375 0.861232
-17.3755 -5.66713 2.65453 -0.509772 -0.0359412 0.859557
-17.6905 -4.91737 2.49908 -0.510668 -0.0367985 0.85899
-17.7003 -4.14247 2.52712 -0.509335 -0.0387736 0.859694
-17.4246 -3.45709 2.72334 -0.510475 -0.0414633 0.858893
-16.8768 -2.95164 3.07158 -0.508066 -0.0420406 0.860292
-16.1507 -2.65881 3.51363 -0.505115 -0.0430413 0.861978
-15.2446 -2.65907 4.0438 -0.503505 -0.0432686 0.862908
-14.5234 -3.08631 4.44307 -0.501641 -0.042245 0.864044
-13.9854 -3.61012 4.7304 -0.501696 -0.0409473 0.864074
-13.7424 -4.4064 4.83402 -0.499215 -0.0377087 0.865657
-14.0552 -5.54741 4.60589 -0.501752 -0.0345494 0.86432
-14.1565 -5.72775 4.53962 -0.50283 -0.0349083 0.86368
-15.1709 -4.93704 3.98164 -0.504632 -0.0359637 0.862585
-15.3289 -4.11641 3.92454 -0.504463 -0.0398471 0.862514
-16.039 -4.06516 3.51161 -0.504006 -0.0408343 0.862733
-16.4192 -4.67098 3.26118 -0.507368 -0.0376074 0.860908
-15.6841 -5.22478 3.6694 -0.507154 -0.0354363 0.861125
-15.2914 -5.01407 3.90796 -0.504633 -0.0359637 0.862585
-11.5889 1.72832 6.45352 -0.510171 -0.0643895 0.857652
-12.1233 2.38971 6.18782 -0.508778 -0.0680696 0.858201
-12.4024 3.16377 6.08203 -0.508994 -0.0657767 0.858253
-12.2602 4.19098 6.25092 -0.515359 -0.0703432 0.854077
-11.9218 4.86837 6.51052 -0.519454 -0.0710431 0.851535
-11.1558 5.55364 7.03882 -0.521811 -0.0740158 0.849842
-10.3659 5.85024 7.55065 -0.519608 -0.0834149 0.850323
-9.40036 5.89526 8.14703 -0.518885 -0.0877532 0.850319
-8.59466 5.46203 8.58869 -0.51546 -0.0908075 0.852089
-8.0321 4.8642 8.8578 -0.510362 -0.100299 0.85409
-7.70492 4.19785 8.97176 -0.49699 -0.100204 0.861926
-7.64259 3.11383 8.88796 -0.499989 -0.0912576 0.861192
-7.95759 2.19681 8.61125 -0.495766 -0.0912953 0.863644
-8.47906 1.58903 8.2575 -0.494516 -0.0799301 0.865486
-9.17549 1.23559 7.82693 -0.498062 -0.0772685 0.863679
-10.0267 1.08669 7.3213 -0.499516 -0.0697823 0.86349
-10.9225 1.28388 6.81188 -0.506704 -0.0668706 0.859523
-11.551 1.69986 6.47372 -0.505738 -0.0657296 0.860178
-11.5798 1.72162 6.45846 -0.51012 -0.0608973 0.857945
-10.9118 2.82099 6.9432 -0.509907 -0.071935 0.857216
-10.159 2.45112 7.35933 -0.509326 -0.0735733 0.857423
-9.31964 2.66088 7.86655 -0.501538 -0.074802 0.861896
-8.8508 3.52068 8.2304 -0.502445 -0.0870998 0.860198
-9.07608 4.20703 8.16658 -0.510958 -0.0879026 0.8551
-10.0723 4.6217 7.61196 -0.514849 -0.0816477 0.853382
-10.7613 4.34685 7.16851 -0.517787 -0.0798868 0.851768
-11.1717 3.58564 6.85336 -0.51228 -0.0784494 0.855228
-11.0603 2.9792 6.86821 -0.509555 -0.0717287 0.857443
-8.75016 10.0351 9.01074 -0.545895 -0.0879474 0.833225
-9.48929 10.4183 8.56562 -0.547463 -0.0875226 0.83224
-9.92483 11.1103 8.34601 -0.552614 -0.0760522 0.82996
-10.0855 12.0002 8.32074 -0.555381 -0.0714755 0.828497
-9.93371 12.7271 8.48412 -0.566759 -0.071125 0.820808
-9.5131 13.3478 8.82833 -0.567861 -0.0653012 0.820508
-8.92187 13.6878 9.26845 -0.570891 -0.069926 0.818042
-8.2606 13.8939 9.74882 -0.573603 -0.0767754 0.815527
-7.47273 13.6802 10.265 -0.563251 -0.0987215 0.820367
-6.89033 13.3367 10.6241 -0.557953 -0.0954383 0.824344
-6.4948 12.579 10.7954 -0.542469 -0.0953106 0.834652
-6.33439 11.5541 10.7723 -0.533328 -0.110325 0.838683
-6.6952 10.7266 10.4347 -0.532786 -0.109317 0.839159
-7.26636 10.217 9.99555 -0.530988 -0.122575 0.838388
-7.91651 9.99272 9.54784 -0.541784 -0.101813 0.834329
-8.55227 9.9733 9.13386 -0.543851 -0.0923543 0.83407
-8.66692 9.9955 9.06109 -0.545895 -0.0879471 0.833225
-8.34596 11.326 9.41866 -0.553773 -0.0930905 0.827448
-7.53996 11.6549 9.99306 -0.548295 -0.0949921 0.830872
-7.85888 12.4333 9.86343 -0.557693 -0.0883592 0.825331
-8.85985 12.1649 9.16067 -0.557602 -0.084082 0.825839
-8.36361 11.336 9.40798 -0.553749 -0.0897587 0.827825
-1.96879 11.8061 13.0136 -0.298732 -0.147892 0.942808
-1.80516 11.0632 12.9436 -0.315106 -0.109924 0.941207
-1.60367 10.0968 12.8943 -0.26435 -0.116707 0.957339
-1.2877 9.23458 12.8828 -0.189464 -0.1199 0.973244
-0.863459 8.46513 12.8432 -0.147328 -0.125137 0.98114
-0.581474 7.59902 12.7449 -0.231084 -0.134043 0.963656
-0.439569 6.69801 12.6274 -0.0952888 -0.119819 0.988183
-0.250496 5.60889 12.5184 -0.089815 -0.114672 0.989335
-0.0456041 4.76421 12.4845 -0.141856 -0.058747 0.988143
0.217629 4.04876 12.4735 -0.211703 -0.050715 0.976008
1.02243 3.00422 12.5162 -0.0347421 -0.0148494 0.999286
1.79422 2.83427 12.5375 0.0783488 0.0358512 0.996281
2.43549 3.78342 12.4775 0.124225 -0.0151003 0.991023
2.84344 4.58718 12.4055 0.180234 0.00726531 0.983597
3.27008 5.4445 12.2969 0.230543 0.0535684 0.971587
3.72063 6.23627 12.0893 0.372978 0.0374612 0.927084
4.08596 6.86787 11.9124 0.422843 0.0569139 0.904319
4.77549 8.0154 11.5209 0.447023 0.0329736 0.893915
4.83026 9.01565 11.4242 0.462361 0.0581425 0.884783
4.66808 9.92073 11.448 0.488736 0.0444899 0.871297
4.48924 10.9709 11.4845 0.485339 0.062452 0.872093
4.42896 12.0232 11.4621 0.491162 0.0325929 0.870458
4.58973 13.2713 11.3067 0.519226 0.0480789 0.853283
4.52704 14.2212 11.2897 0.51222 0.0477398 0.857422
3.75056 14.7665 11.7171 0.499479 0.0413321 0.865328
2.97579 14.8659 12.1655 0.501505 0.0135515 0.86496
2.28587 14.868 12.5493 0.458922 -0.000736847 0.888141
1.56858 15.1825 12.897 0.393598 0.0114434 0.918009
0.95936 15.8239 13.1376 0.377514 -0.0444724 0.924935
0.560844 16.5149 13.3205 0.308708 -0.0840513 0.946597
0.383006 17.2445 13.4339 0.338719 -0.0489003 0.939602
0.275073 18.0105 13.4801 0.37353 0.00727329 0.92759
0.331888 18.9087 13.4448 0.372866 0.0135087 0.927787
0.0785477 20.1154 13.5523 0.373262 -0.0414401 0.9268
-0.650172 20.826 13.8283 0.23983 -0.0715586 0.968174
-1.48683 21.5217 14.0302 0.135196 -0.110155 0.98413
-2.25236 21.4642 14.1302 -0.0206052 -0.100149 0.982265
-3.05512 21.3238 13.935 -0.312795 -0.12616 0.935671
-3.68654 20.428 13.5251 -0.388063 -0.117678 0.914089
-3.82923 19.6403 13.3531 -0.470697 -0.102184 0.875907
-3.57375 18.4626 13.2987 -0.384882 -0.0823114 0.917729
-3.23345 17.5155 13.4152 -0.356752 -0.0550299 0.930764
-2.80541 16.8291 13.488 -0.297865 -0.0893011 0.950422
-2.26336 15.7749 13.5247 -0.266532 -0.138644 0.953802
-2.08903 14.8763 13.4534 -0.285809 -0.0998606 0.947636
-2.03582 13.8665 13.3532 -0.29489 -0.132562 0.944742
-2.03876 13.0268 13.2041 -0.309587 -0.181532 0.933382
-2.02024 12.2844 13.0723 -0.298731 -0.147892 0.942808
-0.689854 12.3407 13.2966 -0.0189726 -0.0604826 0.997688
-0.707338 13.2612 13.3798 0.00469753 -0.122881 0.99203
-0.743195 14.1451 13.5002 0.0941503 -0.0895252 0.988858
-0.799765 15.0379 13.5555 0.155964 -0.0513741 0.986426
-0.858846 15.8116 13.6053 0.141325 -0.074735 0.986755
-1.32155 16.8099 13.7569 0.000711961 -0.102387 0.987249
-1.68747 17.5031 13.793 -0.13738 -0.104461 0.984793
-2.1247 18.2491 13.7871 -0.156498 -0.0732902 0.984955
-2.42828 19.2915 13.8038 -0.216234 -0.127876 0.967649
-2.02845 19.96 13.9815 -0.0206052 -0.100149 0.982265
-1.15867 19.4724 13.8707 0.108404 -0.00671817 0.994084
-0.91031 18.604 13.8252 0.145781 -0.00888678 0.988838
-1.01969 17.5054 13.7828 0.125788 -0.0857208 0.988331
-0.723593 16.552 13.6597 0.121933 -0.0897299 0.988474
-0.643842 15.8009 13.5766 0.126586 -0.0979473 0.987108
-0.279644 15.1872 13.4811 0.197135 -0.0554518 0.97789
0.343858 14.5281 13.2871 0.25953 -0.0444957 0.964346
1.18886 13.9494 13.0003 0.306071 -0.0344951 0.951384
2.23026 13.5528 12.5702 0.35979 -0.00494167 0.931799
2.9548 13.3965 12.2161 0.4506 0.0296416 0.892227
3.2383 12.7943 12.0979 0.486971 0.0292024 0.87293
3.22523 11.8235 12.1421 0.465911 0.0168888 0.884157
3.31825 10.9882 12.0994 0.437641 0.0302068 0.898642
3.42707 10.214 12.0724 0.409939 -0.00171699 0.911047
3.52746 9.44095 12.0426 0.437375 0.0203313 0.89905
3.48473 8.45227 12.1006 0.40235 0.0433644 0.914458
3.07421 7.72288 12.2868 0.317721 -0.0408519 0.947289
2.62431 6.9697 12.4063 0.315327 0.0232724 0.946769
2.22007 6.30819 12.5241 0.185249 0.010083 0.981052
1.7835 5.56373 12.5535 0.0465292 -0.0388305 0.998083
1.0619 5.78109 12.5941 0.0044092 -0.0500011 0.998739
0.958014 6.56469 12.6338 0.0419846 -0.0865308 0.993972
0.723772 7.65928 12.7826 0.0836936 -0.113305 0.990029
0.362029 8.74148 12.9291 0.0502482 -0.135776 0.989465
0.00633039 9.48943 13.0485 0.0555013 -0.139206 0.988665
-0.313958 10.4545 13.1563 -0.153048 -0.109509 0.981915
-0.527026 11.2902 13.224 -0.0691467 -0.0974597 0.992835
-0.652549 11.9773 13.2827 -0.0518949 -0.0695626 0.995683
0.632691 11.9404 13.1294 0.229809 -0.0854899 0.969474
0.860043 12.5851 13.0828 0.317432 -0.00126226 0.94828
1.7495 12.2127 12.7801 0.326371 0.000624127 0.945242
2.12034 11.1905 12.627 0.358024 -0.0152605 0.933588
2.20258 10.4075 12.5863 0.370704 -0.0220402 0.928332
2.25735 9.62983 12.5619 0.380014 0.0307953 0.924468
1.92643 8.69754 12.7054 0.364929 0.010069 0.930981
1.45837 9.34222 12.8436 0.240033 0.0421547 0.969849
1.15694 10.2163 12.9158 0.266555 -0.0257683 0.963364
0.843517 11.0839 13.0301 0.245405 -0.0145587 0.969311
0.723517 11.5316 13.0719 0.229809 -0.0854899 0.969474
9.86389 5.01868 8.59583 0.566835 0.0577109 0.821808
10.2047 5.63491 8.31751 0.567889 0.057593 0.821087
10.8316 6.02048 7.86133 0.561601 0.0629539 0.82501
11.4929 6.22816 7.39818 0.556915 0.0567378 0.82863
12.1391 6.22092 6.9625 0.560943 0.0442454 0.826671
12.8222 5.97481 6.51254 0.559964 0.0444819 0.827322
13.4076 5.57071 6.13822 0.556475 0.0411662 0.829844
13.8909 4.52238 5.85864 0.563173 0.0347872 0.825596
13.7978 3.41737 5.96437 0.565981 0.0331631 0.823748
13.318 2.6463 6.32554 0.569368 0.0286426 0.821583
12.5869 2.14211 6.85354 0.573044 0.0291103 0.819007
11.9528 1.91264 7.31051 0.577844 0.03351 0.815459
10.887 2.09247 8.05717 0.579206 0.0386313 0.814266
10.3542 2.49001 8.41729 0.576435 0.0434639 0.815966
9.83982 3.65505 8.7078 0.568429 0.0530021 0.82101
9.69478 4.27096 8.76498 0.566835 0.0577105 0.821807
10.9198 4.47407 7.90289 0.571372 0.053016 0.81896
11.61 4.92305 7.40038 0.564896 0.0526082 0.823483
12.3372 4.78956 6.90647 0.568271 0.0431733 0.821708
12.6905 3.91227 6.70781 0.568804 0.0405245 0.821471
12.1538 3.38704 7.10385 0.568971 0.0381095 0.821474
11.5458 3.25386 7.53671 0.575269 0.0391052 0.817029
11.0171 3.75799 7.87713 0.571814 0.0483505 0.818953
10.9891 3.81554 7.89333 0.573801 0.0485578 0.817554
16.2565 8.15298 4.14266 0.544386 0.0346729 0.838118
16.6849 7.55486 3.88963 0.541386 0.0331864 0.840119
17.3778 7.13853 3.45736 0.543065 0.0295145 0.839171
18.0477 7.09253 3.02761 0.538782 0.0278557 0.841985
18.831 7.20751 2.5214 0.539621 0.0300694 0.841371
19.3602 7.62441 2.16687 0.541436 0.0310992 0.840167
19.7899 8.24102 1.86699 0.542748 0.0329566 0.839246
19.8429 8.98918 1.80206 0.544014 0.0342241 0.838378
19.6364 9.69671 1.90755 0.544321 0.0334056 0.838212
19.0555 10.3229 2.25607 0.540699 0.0383069 0.840343
18.3882 10.6473 2.67017 0.540188 0.0375265 0.840707
17.6314 10.6597 3.15357 0.535993 0.0370496 0.843409
16.8726 10.3598 3.64994 0.537078 0.0370252 0.842719
16.3572 9.75426 4.00506 0.537595 0.0370974 0.842386
16.0885 8.94949 4.21517 0.54148 0.0403427 0.839745
16.2215 8.25935 4.16089 0.543513 0.0374527 0.838562
17.24 8.7207 3.48595 0.539585 0.0334871 0.841263
17.8276 9.24792 3.08685 0.539586 0.0353603 0.841187
18.6585 8.83935 2.57183 0.539172 0.0327023 0.841561
18.0924 8.35139 2.95316 0.539376 0.0317898 0.841465
17.5389 8.4068 3.30607 0.539583 0.0316128 0.841339
-16.2401 12.9218 4.30132 -0.538426 -0.0325732 0.842039
-16.466 13.7421 4.18626 -0.539801 -0.0309935 0.841222
-16.7935 14.4276 4.00072 -0.54027 -0.03006 0.840955
-17.3679 14.9989 3.65419 -0.536567 -0.028013 0.843393
-18.1507 15.2669 3.16541 -0.536088 -0.0281555 0.843693
-19.0347 15.2327 2.60098 -0.538644 -0.0259731 0.842133
-19.6616 14.8004 2.18669 -0.538459 -0.0260035 0.84225
-20.1871 14.2238 1.82644 -0.543072 -0.0294189 0.839171
-20.5112 13.4363 1.58959 -0.545121 -0.0262968 0.837945
-20.523 12.6805 1.55837 -0.542655 -0.0257974 0.839549
-20.2008 11.9932 1.74237 -0.539404 -0.0275441 0.841596
-19.729 11.3026 2.01925 -0.535477 -0.0344302 0.843848
-19.1306 10.8756 2.3812 -0.534764 -0.036057 0.844232
-18.3565 10.7786 2.86757 -0.535128 -0.0368728 0.843966
-17.6069 10.9281 3.34896 -0.534546 -0.036809 0.844337
-17.0223 11.2493 3.73307 -0.534669 -0.0354336 0.844317
-16.5814 11.7883 4.03594 -0.537809 -0.0352604 0.842329
-16.3185 12.5063 4.23389 -0.537797 -0.0352355 0.842338
-16.2762 12.6729 4.26786 -0.537796 -0.0352369 0.842338
-17.4817 12.9859 3.51181 -0.535387 -0.0315593 0.844017
-17.8675 12.3047 3.24024 -0.535035 -0.0344128 0.844129
-18.5292 12.1254 2.81509 -0.532804 -0.0338834 0.84556
-19.1009 12.4302 2.46403 -0.537978 -0.0317153 0.842362
-19.1346 13.5514 2.48194 -0.5378 -0.0281207 0.842603
-18.4958 13.992 2.90432 -0.536655 -0.0277318 0.843345
