2.22403 -18.322 18.2653 -0.0828181 -0.0470544 0.995419
2.47808 -17.4752 18.2917 0.153606 0.0697176 0.985517
2.47808 -17.4752 18.2917 0.153606 0.0697176 0.985517
2.45347 -16.5263 18.2017 0.192458 0.0720397 0.976625
2.50663 -15.6482 18.1244 0.289509 0.209279 0.934017
2.42858 -14.8002 17.9786 0.626228 0.173598 0.759885
2.38685 -13.9389 17.8188 0.598592 0.15755 0.785408
2.37374 -13.1104 17.6667 0.38233 0.138683 0.91356
2.31632 -12.3154 17.5619 0.103876 0.213869 0.971324
1.91845 -11.4462 17.2453 -0.277621 0.16437 0.875681
1.61467 -10.7482 16.8863 -0.677023 0.100777 0.72645
1.70218 -9.98911 17.0594 -0.774163 -0.127903 0.619929
1.74032 -9.1772 17.3174 -0.878793 -0.160391 0.447915
1.54499 -8.76571 16.7047 -0.886425 0.220328 0.407069
1.3325 -8.27712 15.9448 -0.672713 0.420655 0.608692
0.969383 -7.7926 15.4282 -0.639195 0.230017 0.733841
0.387284 -8.37565 15.0723 -0.685822 0.169908 0.707658
0.579328 -9.22533 15.4641 -0.686543 0.171744 0.706514
0.789838 -9.90351 15.9389 -0.773844 0.15187 0.6135
1.00007 -10.5632 16.322 -0.723539 0.0765165 0.680155
1.19614 -11.2854 16.6033 -0.685203 0.159423 0.710691
1.29606 -12.0173 16.8328 -0.61092 0.115465 0.783227
1.40616 -12.8435 17.1079 -0.627654 0.214946 0.74823
1.36492 -14.0131 17.4306 -0.66752 0.252059 0.70063
1.3041 -15.1533 17.7388 -0.71372 0.204889 0.669657
1.2964 -15.905 17.9394 -0.665641 0.0830385 0.74157
1.24666 -16.9273 18.0111 -0.634138 0.0661766 0.769615
1.22138 -17.7219 18.0372 -0.615861 0.0991889 0.779687
1.33593 -18.4604 18.1068 -0.373831 -0.00249766 0.914956
2.05029 -18.4417 18.2466 -0.0798232 -0.0393964 0.99603
2.24226 -19.9621 18.055 -0.0721772 -0.141318 0.98733
3.05267 -19.7162 17.9567 0.330432 -0.195526 0.923347
3.40109 -19.1196 17.6058 0.829467 -0.118326 0.545547
3.54141 -18.3688 17.4876 0.864799 -0.0154558 0.501037
3.56455 -17.4868 17.4264 0.863389 0.0145451 0.50431
3.54958 -16.4198 17.2205 0.80245 0.149582 0.577666
3.52535 -15.6647 17.0443 0.766621 0.132871 0.628202
3.50865 -14.9114 16.9132 0.763468 0.11987 0.634624
3.46851 -14.0956 16.8074 0.764456 0.11849 0.63369
3.46507 -13.3007 16.6834 0.756673 0.103129 0.645609
3.49443 -12.4077 16.5325 0.754966 0.0757598 0.651373
3.29748 -11.389 16.5755 0.738533 0.116206 0.663961
2.97667 -10.4669 16.7235 0.688096 0.0779983 0.71998
2.84076 -9.47829 16.8276 0.752568 0.0425775 0.656106
2.76333 -8.63287 16.7605 0.721568 0.291816 0.60243
2.52217 -7.85106 16.3254 0.225657 0.678815 0.537772
2.33479 -7.27371 15.8359 -0.0411913 0.504892 0.862199
2.44514 -6.4777 15.4057 0.0825043 0.352124 0.93231
2.70615 -5.78505 15.1798 0.0877308 0.120983 0.98877
3.33343 -5.00452 14.9476 0.299791 0.198316 0.933165
3.98762 -4.20821 14.6137 0.400158 0.133461 0.906676
4.1094 -3.51403 14.4924 0.389428 0.07812 0.917738
3.25973 -3.17939 14.6979 0.15411 0.137986 0.978371
2.66844 -3.6271 14.839 -0.0546425 0.232333 0.968955
2.06001 -4.53503 14.9913 -0.160081 0.168622 0.972595
1.63575 -5.16251 14.9441 -0.345667 0.184777 0.919985
0.787871 -6.08369 14.7193 -0.460408 0.145199 0.875752
0.223054 -6.56931 14.5095 -0.600303 0.156794 0.783647
-0.531234 -7.23132 14.0749 -0.602626 0.119085 0.789033
-1.0822 -7.64204 13.7073 -0.610049 0.117066 0.783668
-1.12696 -8.25815 13.7493 -0.616754 0.094913 0.781405
-0.840778 -8.95081 14.0785 -0.657876 0.133498 0.7412
-0.422455 -9.96284 14.6321 -0.667888 0.131637 0.732404
-0.0728019 -10.9926 15.1685 -0.722376 0.136858 0.677196
0.0660371 -11.7279 15.4982 -0.715822 0.171811 0.676816
0.233622 -12.4819 15.857 -0.721473 0.159529 0.673815
0.284699 -13.23 16.0899 -0.722674 0.167337 0.670522
0.290512 -14.2322 16.3445 -0.719011 0.18546 0.669494
0.280629 -15.1641 16.5774 -0.750009 0.153395 0.64333
0.216476 -16.2988 16.757 -0.757157 0.150044 0.635615
0.169731 -17.2894 16.8918 -0.780454 0.0927352 0.618297
0.0495793 -18.4664 16.8863 -0.77994 0.0584235 0.623121
-0.0948752 -19.2052 16.7522 -0.749354 -0.0505294 0.659316
0.478883 -19.7072 17.3158 -0.748242 -0.101069 0.654208
1.24171 -19.9822 17.8754 -0.39882 -0.213919 0.866832
2.10236 -19.9772 18.0427 -0.0721738 -0.141316 0.98733
2.1902 -21.4128 17.6847 0.191685 -0.356557 0.871983
1.36327 -21.4244 17.4809 -0.401702 -0.289862 0.868686
0.574706 -21.3698 17.0114 -0.608036 -0.054609 0.792029
-0.0556458 -21.1666 16.5321 -0.711562 -0.0966485 0.695621
-0.630638 -21.1222 15.9715 -0.698914 -0.0872839 0.70986
-1.10836 -20.8346 15.4747 -0.752605 -0.0458395 0.656875
-1.26385 -20.0767 15.3279 -0.756774 -0.023006 0.653244
-1.12754 -19.2089 15.5179 -0.75936 0.000323389 0.650085
-0.965068 -18.461 15.654 -0.760299 0.0523078 0.647464
-0.845672 -17.6326 15.7177 -0.75368 0.0833119 0.65194
-0.768395 -16.673 15.6693 -0.746593 0.105944 0.656791
-0.731253 -15.8137 15.5606 -0.751397 0.134402 0.646017
-0.754391 -15.0589 15.3843 -0.731524 0.125948 0.670025
-0.760292 -14.2626 15.1988 -0.723777 0.157263 0.671874
-0.764072 -13.2783 14.9678 -0.717148 0.149961 0.680512
-0.890185 -12.5675 14.6863 -0.710612 0.146466 0.688171
-1.17595 -11.7007 14.2497 -0.680263 0.120407 0.722977
-1.48542 -10.7258 13.7866 -0.661225 0.114147 0.740868
-1.94117 -9.78777 13.2927 -0.631372 0.0793324 0.771245
-2.312 -9.15794 12.9238 -0.61674 0.095882 0.781306
-2.7124 -8.55582 12.5701 -0.590401 0.0815571 0.802979
-3.30299 -7.99732 12.1007 -0.556486 0.0402407 0.829882
-4.13958 -7.4748 11.5189 -0.558997 0.0215381 0.82889
-4.69059 -6.73999 11.1498 -0.539242 -0.00259298 0.842147
-4.15975 -6.44132 11.4911 -0.536763 -0.00154642 0.843721
-3.47923 -6.63779 11.9369 -0.55245 0.0103852 0.833481
-2.58822 -6.7178 12.5284 -0.550059 0.0273612 0.834677
-1.83918 -6.50829 13.0302 -0.573139 0.0271513 0.819008
-1.22325 -6.10583 13.4284 -0.546912 0.0404304 0.836213
-0.693549 -5.60653 13.7496 -0.524803 0.0517747 0.849363
0.0686102 -4.84341 14.1505 -0.501824 0.0660347 0.862339
0.567112 -4.3184 14.355 -0.42186 0.0737365 0.903658
1.12306 -3.49101 14.5291 -0.292519 0.0505087 0.954925
1.4643 -2.76577 14.5924 -0.287249 0.0657771 0.955595
1.82287 -1.96833 14.582 -0.0186742 0.0174767 0.993956
2.11674 -0.938183 14.6814 0.0165071 -0.062059 0.996724
2.53302 -0.685938 14.6663 0.0575438 -0.0348208 0.997736
3.18585 -1.25309 14.5641 0.18198 -0.0348565 0.982684
4.09417 -1.79361 14.3629 0.339083 0.00269123 0.92684
5.04306 -2.1409 13.8493 0.533259 0.0947588 0.839281
5.83522 -2.23784 13.3168 0.558442 0.0499577 0.828038
6.53591 -2.2659 12.8185 0.58976 0.0445152 0.806351
6.6172 -2.71236 12.7903 0.58334 0.0696177 0.809239
5.90208 -3.77065 13.3917 0.579765 0.0665391 0.812062
5.52568 -4.41832 13.7305 0.570203 0.0841244 0.817185
4.99093 -5.29367 14.1909 0.576105 0.0767119 0.813768
4.50131 -5.96695 14.6112 0.566982 0.125117 0.814159
3.9709 -6.55873 14.9865 0.429385 0.208112 0.876242
3.7349 -7.3833 15.3692 0.460788 0.265731 0.846795
3.82666 -8.25835 15.5121 0.623907 0.185082 0.757764
3.84553 -9.02544 15.685 0.689015 0.0927662 0.718655
3.97476 -9.85075 15.68 0.693549 0.104258 0.712825
4.33263 -11.074 15.4374 0.729942 0.0696993 0.679766
4.48463 -12.2292 15.3636 0.756229 0.0468049 0.652631
4.43904 -13.3909 15.5232 0.779424 0.0682704 0.622765
4.42008 -14.3113 15.6426 0.780602 0.0606508 0.622078
4.43746 -15.0919 15.7134 0.795992 0.0740243 0.600764
4.40744 -15.9449 15.8577 0.810415 0.0728767 0.581305
4.37853 -16.7983 15.977 0.838184 0.0403997 0.543118
4.35636 -17.6547 16.0933 0.85302 0.0485 0.519619
4.28618 -18.7287 16.1939 0.847214 -0.0352583 0.529645
4.20478 -19.6285 16.2372 0.838549 -0.0500433 0.542523
3.84114 -20.4915 16.5754 0.806514 -0.159779 0.569215
3.20225 -21.0909 17.1081 0.64726 -0.280587 0.708749
2.5536 -21.348 17.5207 0.496299 -0.380509 0.780321
2.26704 -21.3978 17.6477 0.442419 -0.348819 0.82558
2.25314 -22.8049 17.3058 -0.14503 -0.0892719 0.985392
1.3771 -22.9033 17.1679 -0.113383 -0.0580783 0.990841
0.570703 -23.0503 16.8482 -0.47739 -0.0506014 0.877233
-0.218151 -22.743 16.2791 -0.668812 -0.0467094 0.740096
-0.71726 -22.8985 15.7483 -0.732858 -0.0697038 0.676763
-1.25898 -22.7997 15.1654 -0.736888 -0.0641869 0.672895
-1.75513 -22.2581 14.6733 -0.720672 -0.0416169 0.692026
-2.12367 -21.5027 14.3246 -0.722668 -0.0146192 0.691041
-2.41206 -20.7183 14.0386 -0.725849 -0.00118821 0.68774
-2.36862 -19.9605 14.0815 -0.748484 -0.00205858 0.663038
-2.20775 -18.9195 14.2415 -0.744932 0.0208902 0.666814
-1.92537 -18.1394 14.5288 -0.746337 0.0530842 0.663129
-1.80999 -17.3191 14.5758 -0.749467 0.0795651 0.657067
-1.74925 -16.1712 14.4985 -0.738999 0.0796623 0.66898
-1.7857 -15.4113 14.3374 -0.724895 0.127964 0.67687
-1.80432 -14.3084 14.1046 -0.684162 0.147896 0.714178
-1.84909 -13.4241 13.8894 -0.682357 0.119637 0.721163
-2.14562 -12.6716 13.4861 -0.664468 0.106182 0.739296
-2.4155 -11.9507 13.1589 -0.645539 0.0982007 0.75738
-2.7676 -11.0156 12.7391 -0.636011 0.083358 0.766892
-3.28256 -10.2439 12.2823 -0.596241 0.0541646 0.800976
-3.81033 -9.65261 11.8511 -0.588068 0.0553161 0.806918
-4.56777 -8.99201 11.2784 -0.571203 0.0217822 0.82052
-5.3126 -8.46521 10.7582 -0.560174 0.00962014 0.828319
-5.81913 -8.03317 10.4095 -0.550167 0.00847913 0.834824
-6.13574 -7.34813 10.2177 -0.537042 -0.0129575 0.843456
-6.17435 -6.26337 10.2082 -0.532797 -0.0134047 0.846115
-5.85699 -5.52764 10.4203 -0.528073 -0.0268162 0.848715
-5.35048 -5.0306 10.7518 -0.52356 -0.033265 0.851339
-4.58766 -4.77418 11.236 -0.526825 -0.0171348 0.849801
-3.85006 -4.95876 11.694 -0.533527 -0.0105943 0.845716
-3.12034 -5.22525 12.1493 -0.538546 0.00217489 0.842461
-2.42278 -5.32959 12.6052 -0.545183 0.0147563 0.838187
-1.88858 -4.82497 12.9407 -0.542325 0.0218778 0.839884
-1.41065 -4.30759 13.2307 -0.52854 0.0248472 0.848527
-0.853472 -3.85228 13.5605 -0.527292 0.0301006 0.849151
-0.279738 -3.16543 13.8524 -0.471915 0.0308097 0.881106
0.118939 -2.15634 14.0501 -0.448656 -0.0120402 0.893624
0.409089 -1.31849 14.1961 -0.38822 -0.0228377 0.921284
0.637599 -0.281693 14.3252 -0.393199 -0.0328419 0.918867
0.366575 0.3755 14.2493 -0.37489 -0.0699389 0.924427
-0.104416 0.991242 14.0978 -0.429854 -0.0875134 0.897789
-0.605822 1.80818 13.9789 -0.411347 -0.120865 0.90343
-0.977069 2.51672 13.9346 -0.420969 -0.15661 0.892582
-1.2399 3.20932 13.9251 -0.448402 -0.175917 0.876331
-1.40822 4.09037 14.0199 -0.448831 -0.206701 0.868962
-1.72371 4.967 14.0695 -0.448675 -0.166784 0.877994
-1.97014 5.84649 14.1729 -0.440837 -0.255909 0.860333
-2.12979 6.59204 14.273 -0.527217 -0.233322 0.81707
-2.27387 7.371 14.3942 -0.519893 -0.2172 0.826142
-2.74766 8.3307 14.3262 -0.561581 -0.200121 0.802856
-2.88464 9.3308 14.504 -0.53772 -0.162264 0.825943
-3.19871 10.4508 14.5146 -0.54799 -0.175834 0.817755
-3.3754 11.4409 14.6188 -0.562985 -0.175499 0.807298
-3.64131 12.181 14.5946 -0.559591 -0.174499 0.809235
-3.61601 13.0353 14.8064 -0.552799 -0.19493 0.810195
-3.54429 14.0064 15.0646 -0.504792 -0.161615 0.847977
-3.54954 14.8267 15.2311 -0.489745 -0.18911 0.85111
-3.85236 16.0402 15.3615 -0.58245 -0.239813 0.776686
-4.30368 16.7722 15.2467 -0.639402 -0.221524 0.734441
-4.78945 17.5531 15.0213 -0.690142 -0.195735 0.696092
-5.28875 18.2217 14.6622 -0.719354 -0.139416 0.680332
-5.73782 19.3023 14.3847 -0.727228 -0.116933 0.676215
-5.87321 20.185 14.3498 -0.744161 -0.0849294 0.662579
-5.79433 21.2669 14.5441 -0.738942 -0.0577627 0.671263
-5.23805 21.9994 15.2006 -0.744576 -0.0438606 0.666019
-4.84778 22.5082 15.6823 -0.735646 -0.0599993 0.674394
-4.29672 22.807 16.2683 -0.694305 -0.049291 0.717991
-3.62255 23.0131 16.8534 -0.582915 -0.0831803 0.808264
-2.91309 22.989 17.2566 -0.275444 -0.0692394 0.95882
-1.98258 23.035 17.205 0.242083 0.214653 0.946213
-1.2232 22.9932 17.0587 0.358869 0.0893746 0.908134
-0.532503 22.8168 16.6294 0.606876 0.056244 0.785831
0.263858 22.6568 16.0182 0.648814 0.125117 0.749137
1.10229 21.9218 15.3536 0.666357 0.0691964 0.74231
1.70133 21.5962 14.8235 0.678535 0.0496314 0.73289
2.20237 20.8862 14.4076 0.671875 0.0464835 0.73914
2.61853 19.8768 14.0894 0.664215 0.0364773 0.746648
2.82839 19.0057 13.9459 0.664273 0.0319112 0.746787
2.63225 18.2612 14.1461 0.661336 0.0286584 0.749535
2.53669 17.5239 14.265 0.638853 0.0345199 0.768393
2.76256 16.7399 14.1089 0.646212 0.041368 0.761997
3.40395 16.4005 13.5916 0.636608 0.0521764 0.769362
4.04495 16.2187 13.0884 0.625561 0.0609986 0.777787
4.94734 15.943 12.3976 0.612871 0.0687258 0.787189
5.53633 15.4617 11.9804 0.608795 0.0666643 0.79049
5.87157 14.8053 11.7825 0.603321 0.0685556 0.794547
5.99733 13.702 11.7824 0.603238 0.0687902 0.794589
5.86022 12.875 11.9614 0.606551 0.0757376 0.791426
5.70788 12.1541 12.1484 0.605008 0.0745333 0.792724
5.7774 11.3671 12.1698 0.602348 0.0810293 0.794111
5.97256 10.5498 12.1049 0.603297 0.0814984 0.79334
6.15013 9.7708 12.0529 0.600062 0.0854484 0.795377
6.42685 9.02965 11.9233 0.600603 0.0843811 0.795082
6.37907 7.80817 12.0931 0.598098 0.0872576 0.796658
6.11318 7.13694 12.3616 0.597519 0.082346 0.797608
5.70464 6.57632 12.7243 0.595196 0.0830726 0.799275
5.10062 5.92362 13.2253 0.579694 0.0706511 0.811765
4.70513 5.12234 13.5728 0.571937 0.0640518 0.817793
4.33571 3.81449 13.8924 0.486331 0.0643647 0.871401
4.12087 3.02333 14.0708 0.476376 0.0574933 0.877257
3.79709 2.10193 14.2418 0.33842 0.00376917 0.939331
3.40151 0.957138 14.4634 0.352454 0.0616753 0.933794
3.68168 0.180953 14.4599 0.437628 0.0808107 0.895517
4.34861 -0.208224 14.1279 0.488942 0.0626107 0.870067
4.95508 -0.572786 13.7969 0.536953 0.0636662 0.841207
5.62566 -0.703852 13.3754 0.550735 0.048306 0.833173
6.29073 -0.675144 12.9185 0.566544 0.0444428 0.822832
7.05137 -0.562747 12.3533 0.613819 0.0479097 0.787991
7.97427 -0.655392 11.6273 0.625794 0.0426593 0.778821
8.56094 -1.25302 11.1839 0.631797 0.037627 0.77422
8.71795 -2.07396 11.0939 0.631501 0.0287875 0.774841
8.45031 -2.84289 11.342 0.635506 0.0328428 0.771397
7.97689 -3.3456 11.7518 0.635931 0.0239781 0.771372
7.25045 -4.19006 12.3773 0.635015 0.034041 0.77172
6.79173 -4.85266 12.7892 0.647052 0.0231163 0.762092
6.18315 -5.82034 13.3396 0.629387 0.0403867 0.77604
5.80573 -6.64522 13.691 0.640517 0.0619995 0.76522
5.2829 -7.16153 14.1849 0.641605 0.0800749 0.762844
4.89605 -7.7059 14.5658 0.663722 0.0527468 0.74603
4.88863 -8.71903 14.6657 0.683506 0.0743082 0.726119
5.02663 -9.63129 14.5958 0.715526 0.0402259 0.697418
5.24396 -10.4159 14.4155 0.70609 0.035716 0.707221
5.45913 -11.1811 14.2333 0.710795 0.0118211 0.7033
5.57231 -12.1963 14.1539 0.717575 0.0269554 0.69596
5.50124 -13.3152 14.2651 0.728992 0.0361461 0.683567
5.42739 -14.22 14.3709 0.735739 0.0163205 0.677068
5.42926 -15.0709 14.4167 0.788616 0.046709 0.613107
5.2967 -15.8789 14.6381 0.794375 0.0323405 0.606567
5.29051 -16.6192 14.6679 0.791344 0.0138639 0.611214
5.19242 -17.7657 14.8382 0.828156 0.00129921 0.560495
5.12766 -18.9358 14.9231 0.804091 -0.0130487 0.594363
5.07602 -19.9922 14.9553 0.786917 -0.0372419 0.615935
4.91296 -20.7549 15.1119 0.769591 -0.0690215 0.634796
4.52345 -21.5723 15.505 0.773603 -0.0915341 0.626335
3.93449 -22.1314 16.0871 0.746111 -0.141055 0.650709
3.33642 -22.566 16.5511 0.617261 -0.168549 0.768492
2.62254 -22.772 17.0698 0.563004 -0.0310624 0.82587
2.27082 -22.8074 17.3082 0.208999 -0.0601668 0.905633
-10.6131 -11.6137 7.36284 -0.523743 -0.0115665 0.851798
-10.3437 -10.7114 7.54081 -0.52372 -0.0120355 0.851805
-10.6049 -10.0051 7.39011 -0.52214 -0.0107507 0.852792
-11.3903 -9.37199 6.92273 -0.516219 -0.0170451 0.856287
-12.0212 -9.25585 6.5452 -0.51198 -0.018931 0.858789
-12.8024 -9.57958 6.06895 -0.515481 -0.0203361 0.85666
-13.4315 -10.41 5.67223 -0.516925 -0.018455 0.855831
-13.3721 -11.1893 5.69131 -0.516578 -0.016649 0.856076
-12.9083 -11.8021 5.96028 -0.516995 -0.013933 0.855874
-12.03 -12.2965 6.48522 -0.520391 -0.0124148 0.853836
-11.2509 -12.104 6.96411 -0.522629 -0.0114589 0.852482
-10.8212 -11.8523 7.23164 -0.523677 -0.0114701 0.85184
-14.6327 -6.12788 5.08904 -0.513256 -0.0371943 0.857429
-15.2803 -6.44634 4.68812 -0.513366 -0.031881 0.857577
-15.9971 -6.39397 4.26173 -0.512364 -0.0367658 0.857981
-16.8313 -6.19277 3.77007 -0.514422 -0.0363431 0.856767
-17.4389 -5.38356 3.44062 -0.514752 -0.039563 0.856422
-17.6486 -4.58736 3.35356 -0.514922 -0.042038 0.856206
-17.3972 -3.74054 3.54469 -0.513042 -0.0428003 0.857296
-16.9738 -3.17283 3.82648 -0.513021 -0.0445186 0.857221
-16.2445 -2.84481 4.27948 -0.512318 -0.0452633 0.857602
-15.5265 -2.76307 4.7122 -0.512273 -0.0444636 0.857671
-14.6768 -3.10808 5.20265 -0.512225 -0.0435825 0.857745
-14.0421 -3.71466 5.55084 -0.512459 -0.042867 0.857641
-13.8147 -4.43323 5.6512 -0.512526 -0.0405695 0.85771
-13.9903 -5.35227 5.50502 -0.511592 -0.0370495 0.858427
-14.4384 -5.95116 5.21301 -0.512544 -0.03646 0.857886
-15.2624 -4.59434 4.78016 -0.512154 -0.039123 0.858002
-15.8168 -4.9681 4.43213 -0.51246 -0.0389363 0.857828
-15.6427 -4.56855 4.5543 -0.51246 -0.0389364 0.857828
-11.5753 1.70735 7.41377 -0.524895 -0.0783566 0.847553
-12.0641 2.23892 7.15545 -0.528231 -0.0730729 0.845951
-12.4133 3.10587 7.01358 -0.532021 -0.0732313 0.843558
-12.3445 3.91501 7.12813 -0.532401 -0.0761693 0.843058
-12.1447 4.67319 7.32284 -0.534941 -0.073242 0.841699
-11.7177 5.2268 7.65053 -0.54495 -0.0753659 0.835075
-11.0677 5.66058 8.11377 -0.546486 -0.087617 0.832868
-10.4373 5.85006 8.54857 -0.546868 -0.0903707 0.832327
-9.57998 5.91117 9.12215 -0.550821 -0.0933723 0.82938
-8.94177 5.60252 9.51006 -0.550463 -0.0979235 0.829096
-8.31661 5.05225 9.84902 -0.545996 -0.11014 0.830516
-7.8541 4.33527 10.0512 -0.539978 -0.117753 0.833401
-7.72949 3.53596 10.0261 -0.53123 -0.111519 0.839856
-7.82955 2.59376 9.84271 -0.526878 -0.102363 0.843754
-8.42496 1.77496 9.37472 -0.525469 -0.0944907 0.845549
-8.94457 1.31723 9.0032 -0.52227 -0.085573 0.848474
-9.58975 1.15029 8.58802 -0.520453 -0.080415 0.850094
-10.2785 1.1176 8.16068 -0.523374 -0.0779787 0.848528
-10.9944 1.29411 7.73533 -0.524134 -0.078168 0.84804
-11.194 1.38632 7.62026 -0.524895 -0.078357 0.847553
-10.507 2.76332 8.17981 -0.528501 -0.0819061 0.844962
-9.78118 2.73362 8.63075 -0.531123 -0.0917566 0.842296
-9.21725 3.08873 9.02863 -0.533254 -0.0967207 0.840407
-9.31638 4.09569 9.08298 -0.53661 -0.0983652 0.838071
-10.1089 4.38265 8.60571 -0.541358 -0.0940567 0.8355
-10.8455 4.07409 8.09587 -0.540797 -0.0872316 0.836618
-11.0366 3.39343 7.9063 -0.5321 -0.0842194 0.842482
-10.8473 2.97725 7.9857 -0.530658 -0.078465 0.843946
-9.33956 10.2389 9.80735 -0.585442 -0.103264 0.804111
-8.70874 10.0623 10.2444 -0.586807 -0.102738 0.803183
-8.08291 10.0005 10.6949 -0.593773 -0.111863 0.796813
-7.41656 10.3375 11.2404 -0.592175 -0.117931 0.797133
-6.96905 10.7845 11.6582 -0.61086 -0.127575 0.781384
-6.67447 11.5982 12.0324 -0.616574 -0.139507 0.774814
-7.01791 12.8526 11.973 -0.632449 -0.125535 0.764362
-7.53592 13.4656 11.6454 -0.639666 -0.124623 0.758457
-8.26122 13.7963 11.09 -0.639962 -0.105563 0.761077
-9.0591 13.7408 10.4295 -0.622332 -0.0907137 0.777431
-9.72451 13.0694 9.8345 -0.611406 -0.0828639 0.786967
-10.1353 12.2826 9.44235 -0.594153 -0.0850617 0.799842
-10.0441 11.2309 9.40092 -0.588147 -0.0837889 0.804384
-9.37967 10.2714 9.78232 -0.587701 -0.0957033 0.803359
-8.58161 11.6892 10.5475 -0.607144 -0.113159 0.786493
-8.54812 12.3171 10.6612 -0.613633 -0.0975951 0.783537
-7.90828 11.8849 11.0973 -0.615022 -0.112144 0.780495
-8.41753 11.5855 10.6593 -0.607144 -0.113159 0.786493
-2.25595 12.5037 15.5598 -0.520826 -0.217656 0.825449
-2.2266 13.4573 15.7517 -0.37547 -0.0803096 0.913274
-2.12293 14.5759 15.8341 -0.229792 -0.0534515 0.971771
-2.23252 15.3751 16.0517 -0.278638 -0.355445 0.892199
-2.49541 16.0736 16.1867 -0.403091 -0.360934 0.835548
-2.96663 16.8412 16.3076 -0.538785 -0.309697 0.783453
-3.51483 17.6421 16.2472 -0.54393 -0.417307 0.716911
-3.93409 18.2847 16.1041 -0.684386 -0.218481 0.695616
-4.45822 19.0669 15.7597 -0.745217 -0.141337 0.651671
-4.73768 19.9177 15.6102 -0.753137 -0.0888526 0.650882
-4.33474 20.974 16.1543 -0.748951 -0.0509567 0.660641
-3.82647 21.298 16.6107 -0.619536 -0.0254361 0.784556
-3.13744 21.3955 17.0975 -0.466387 0.0768421 0.881237
-2.32159 21.6262 17.4551 -0.340637 0.15691 0.927009
-1.40027 21.5865 17.4481 0.370536 0.343712 0.862882
-0.650519 21.3211 17.0693 0.693161 0.22154 0.684875
0.0362738 21.0193 16.5209 0.712218 0.146702 0.679714
0.509147 20.6506 16.0568 0.717318 0.0798523 0.692154
1.05853 20.2331 15.5281 0.691575 0.0434356 0.720998
1.48206 19.4618 15.155 0.699737 0.0281214 0.713847
1.54192 18.7144 15.1284 0.680357 0.0318457 0.732187
1.41397 17.7766 15.2283 0.664091 -0.0149897 0.747501
1.48672 16.7474 15.1431 0.644952 0.00880853 0.763442
1.77133 16.0926 14.9147 0.624422 -0.00339575 0.78108
2.22028 15.5484 14.5781 0.596273 0.0352671 0.802007
2.83447 15.1747 14.1381 0.617235 0.0534537 0.78492
3.63932 14.8158 13.5266 0.617159 0.0596552 0.784574
4.34415 14.5157 12.9912 0.618173 0.0640944 0.783415
4.60053 13.2694 12.9004 0.614065 0.0707521 0.786077
4.49788 12.5146 13.0482 0.613522 0.0733894 0.78626
4.43711 11.7334 13.1685 0.6095 0.0711445 0.789567
4.60708 10.9831 13.1098 0.607851 0.0759997 0.790406
4.86402 9.82248 13.0271 0.607255 0.0819088 0.790274
5.06007 8.87043 12.978 0.604514 0.083418 0.792215
4.79676 7.85712 13.2654 0.586775 0.0652462 0.806994
4.21324 7.08584 13.7478 0.572026 0.0602064 0.818023
3.9055 6.45953 14.0117 0.560764 0.0656643 0.825186
3.4222 5.50764 14.2933 0.40552 0.0435496 0.913048
3.16722 4.68616 14.4447 0.405314 0.0421873 0.913204
2.89309 3.7567 14.6071 0.316973 0.025766 0.94365
2.52674 2.94178 14.6464 0.157759 -0.106081 0.981763
2.08161 1.92383 14.6532 0.0758296 -0.00260788 0.992685
1.79665 1.17805 14.6481 -0.0213855 -0.00403792 0.999749
1.31298 1.66302 14.6357 -0.176261 -0.0350769 0.972935
0.823631 2.32022 14.5469 -0.278957 -0.10363 0.95432
0.42748 2.97526 14.5281 -0.249544 -0.133095 0.959173
0.120448 3.80192 14.5657 -0.226151 -0.147614 0.962843
-0.105495 4.59315 14.6562 -0.264523 -0.225385 0.930847
-0.438897 5.73484 14.8058 -0.369494 -0.233848 0.899292
-0.847737 6.91511 14.9536 -0.356651 -0.247633 0.900729
-1.12209 7.71593 15.058 -0.27328 -0.11497 0.955033
-1.39247 8.58532 15.1282 -0.345885 -0.153592 0.920904
-1.60072 9.62283 15.2097 -0.411865 -0.206596 0.887516
-1.78598 10.5244 15.3334 -0.381655 -0.216147 0.898677
-1.9555 11.409 15.4481 -0.386234 -0.171379 0.90634
-2.14951 12.1813 15.5029 -0.39814 -0.296217 0.856633
-2.22893 12.4095 15.5521 -0.503494 -0.234202 0.831285
-0.723761 12.7019 15.9166 0.000980593 -0.142768 0.983721
-0.667246 13.8618 15.9658 0.140288 -0.0177468 0.985042
-0.571701 14.9169 15.9525 0.0335169 -0.138189 0.977185
-0.431001 15.8141 16.1574 0.477711 -0.174921 0.860927
-0.991597 16.5156 16.4574 0.0627654 -0.350334 0.928924
-1.63827 17.1789 16.9471 -0.00625047 -0.662123 0.749369
-2.18204 17.6236 17.3364 -0.524531 -0.519997 0.674144
-2.75056 18.4758 17.2498 -0.677117 -0.153587 0.716015
-3.12074 19.191 17.0886 -0.637359 -0.13663 0.758081
-3.08963 19.8961 17.2102 -0.576232 -0.0177704 0.813006
-2.46666 20.111 17.5926 -0.482001 0.0864541 0.871693
-1.76459 20.2452 17.8635 -0.2122 0.226992 0.950498
-0.995397 20.1154 17.8191 0.567673 0.0521679 0.8216
-0.322223 19.6215 17.0447 0.752932 -0.00444625 0.65747
0.261945 19.0002 16.3707 0.72292 -0.0328374 0.69002
0.375303 18.2604 16.2021 0.666609 -0.134599 0.724087
0.248431 17.3225 16.1188 0.605865 -0.123591 0.785909
0.320174 16.2996 15.8392 0.427973 -0.146691 0.889513
0.66098 15.3296 15.5737 0.356815 -0.0456408 0.929892
1.12732 14.7578 15.347 0.553215 0.0430126 0.831927
1.66145 14.24 15.0205 0.548703 0.055882 0.834148
2.25139 13.8475 14.6478 0.569095 0.0505752 0.820715
2.87273 13.4889 14.2247 0.603025 0.0628202 0.795245
3.23238 12.8653 13.9988 0.609572 0.0572699 0.79066
3.23186 11.9449 14.0719 0.599543 0.0560227 0.798244
3.33991 10.8171 14.0737 0.599329 0.0700849 0.797318
3.5779 9.79943 13.9804 0.58172 0.0683781 0.810456
3.54506 8.70999 14.1169 0.554465 0.0689481 0.829181
3.1625 7.94273 14.4219 0.533235 0.0405608 0.84447
2.71469 7.11952 14.6848 0.509643 -0.0217032 0.860112
2.20581 6.2886 14.8808 0.326011 -0.102931 0.930499
1.62683 5.38234 14.9308 0.278166 -0.0233046 0.96025
1.43561 4.68359 14.8981 -0.0360228 -0.139335 0.989542
1.20435 5.563 15.0038 -0.0135644 -0.113182 0.993482
0.925698 6.31291 15.125 0.0713147 -0.163113 0.984027
0.560034 7.30645 15.2785 0.0319125 -0.117207 0.992595
0.223184 8.42717 15.4061 0.0357198 -0.0925545 0.995067
0.0117866 9.29485 15.4881 -0.0207815 -0.11488 0.987101
-0.187689 10.0597 15.5342 0.0620651 -0.0438955 0.997106
-0.377049 10.8475 15.6347 0.114947 -0.137004 0.983879
-0.563048 11.8708 15.7841 -0.0818974 -0.126058 0.988637
-0.673629 12.3883 15.841 -0.0631808 -0.183509 0.979076
0.817778 12.5073 15.558 0.362734 -0.00691948 0.926786
0.979413 11.2636 15.4435 0.278969 -0.0219299 0.96005
1.25783 10.413 15.3053 0.211128 -0.10202 0.97212
1.50383 9.62239 15.174 0.216192 0.00967874 0.973332
1.79312 8.51471 15.1779 0.286647 0.0699143 0.955482
2.2454 9.1449 14.9252 0.542346 0.0904824 0.835269
2.22111 9.96738 14.8735 0.523614 0.0262802 0.85155
2.15088 10.7405 14.8792 0.487131 0.0616035 0.871133
1.91332 11.9223 14.9792 0.530472 0.0185027 0.847147
1.53888 12.7214 15.1798 0.539742 0.0328163 0.841191
1.04889 12.8983 15.422 0.434865 0.0441686 0.899219
-1.04751 18.4187 17.5671 0.739979 -0.42205 0.523742
-1.05019 18.4267 17.5774 0.739978 -0.422049 0.523744
-1.24543 18.6074 17.8884 0.727026 -0.265556 0.633138
-1.23495 18.7207 17.9238 0.731885 -0.263818 0.628287
-1.21992 18.6995 17.8974 0.731885 -0.263819 0.628286
10.303 5.38734 9.40919 0.598198 0.072939 0.798022
10.0448 4.64876 9.67209 0.604483 0.076383 0.792923
9.93093 3.86144 9.82067 0.609146 0.0522614 0.791334
10.2423 3.03501 9.63228 0.610879 0.0477333 0.790284
10.6966 2.44735 9.31661 0.610877 0.0477388 0.790285
11.482 1.93144 8.73289 0.608017 0.0388297 0.792955
12.5413 2.01242 7.92138 0.607017 0.0312324 0.794075
13.0824 2.32338 7.5024 0.596796 0.0277592 0.801913
13.7289 3.09017 6.99497 0.587677 0.0331973 0.808414
13.8989 3.86744 6.84225 0.58315 0.0291833 0.811823
13.8223 4.86611 6.85059 0.580215 0.0396503 0.813498
13.386 5.61701 7.12484 0.580982 0.0477515 0.812514
12.4397 6.13875 7.77562 0.58519 0.0467625 0.809547
11.685 6.19897 8.31504 0.586872 0.0681757 0.806784
10.7797 5.8855 9.00666 0.589468 0.0726388 0.804519
10.5612 5.69825 9.18724 0.597463 0.0758989 0.79829
11.4031 4.65299 8.6366 0.596021 0.0476837 0.801543
11.325 3.838 8.74916 0.609147 0.0521686 0.79134
11.8731 3.47292 8.36068 0.600614 0.0449943 0.798242
12.4503 3.6761 7.91303 0.598501 0.0376136 0.80021
12.4712 4.48479 7.85498 0.594554 0.0445397 0.802821
12.0675 4.77859 8.13759 0.594554 0.044539 0.802821
16.4857 8.11987 4.86378 0.556594 0.0383193 0.82989
16.9623 7.44227 4.57257 0.552393 0.031966 0.83297
17.6123 7.16828 4.1525 0.551207 0.032319 0.833742
18.3331 7.14642 3.67725 0.54879 0.0308835 0.835387
19.2797 7.65359 3.03896 0.547323 0.031785 0.836318
19.7531 8.36448 2.70293 0.54847 0.0298103 0.835639
19.6827 9.27206 2.7143 0.547088 0.0330326 0.83642
19.3954 9.98522 2.86988 0.544859 0.0367319 0.837723
18.6205 10.4538 3.35221 0.545261 0.0403681 0.837294
17.6981 10.5495 3.94787 0.545883 0.0418841 0.836812
16.9251 10.1769 4.47258 0.5483 0.0406359 0.835294
16.325 9.35209 4.90892 0.553014 0.0434449 0.832039
16.3601 8.42937 4.93213 0.5551 0.0410099 0.83077
16.4771 8.14224 4.86842 0.556209 0.042455 0.829957
17.5974 8.72464 4.1003 0.551086 0.0374818 0.833593
18.3021 8.85465 3.63265 0.54736 0.0388965 0.835993
17.7019 8.6756 4.03323 0.548842 0.0329801 0.835274
17.6325 8.69555 4.07815 0.551359 0.0336371 0.833588
-16.4509 12.5531 5.01768 -0.551185 -0.0322154 0.833759
-16.9062 11.6741 4.6798 -0.547253 -0.0386506 0.836074
-17.4127 11.1018 4.32159 -0.543882 -0.0389095 0.838259
-17.9937 10.7107 3.92646 -0.541502 -0.0370792 0.839875
-18.8154 10.7025 3.39959 -0.539157 -0.0352313 0.841468
-19.6839 11.0184 2.85619 -0.538709 -0.0347382 0.841775
-20.3583 11.761 2.4558 -0.538599 -0.0321035 0.841947
-20.7083 12.4783 2.25703 -0.540069 -0.0292816 0.84111
-20.622 13.7407 2.35461 -0.54175 -0.0279665 0.840074
-20.2266 14.6321 2.64051 -0.542587 -0.0273541 0.839553
-19.5681 15.1708 3.08283 -0.542569 -0.0260839 0.839606
-18.8351 15.3637 3.56409 -0.545488 -0.0273023 0.837674
-18.1305 15.2938 4.02009 -0.544753 -0.0287685 0.838102
-17.3875 14.8343 4.48865 -0.551329 -0.032001 0.833674
-16.8614 14.1877 4.81196 -0.551877 -0.0315955 0.833327
-16.4671 13.2881 5.03696 -0.551744 -0.0340113 0.83332
-16.4606 13.161 5.03608 -0.551744 -0.0340113 0.83332
-17.7729 12.9769 4.16605 -0.544986 -0.0313014 0.837861
-18.3187 13.7136 3.84038 -0.543353 -0.0324132 0.838879
-19.0529 13.5874 3.36065 -0.542151 -0.0296122 0.839759
-19.2721 12.7235 3.18698 -0.540525 -0.031326 0.840744
-18.7051 12.2289 3.53336 -0.542456 -0.0321034 0.83947
