-52.8852 19.592 43.4782 0.0391481 0.00874974 -0.999195
-52.0348 19.8178 43.5208 0.0631075 -0.00472577 -0.997996
-52.0348 19.8178 43.5208 0.0631075 -0.00472577 -0.997996
-52.2768 20.53 43.5041 0.0507328 -0.00767058 -0.998669
-53.2447 20.2938 43.4731 0.0222732 -0.000315345 -0.999752
-53.0336 19.6171 43.4726 0.0317914 0.0131063 -0.999372
-52.9231 19.5971 43.4768 0.0391598 0.00875372 -0.999195
-29.624 20.1188 55.9253 0.747103 -0.00164092 -0.664707
-29.3111 20.5121 56.276 0.756372 -0.00981841 -0.654068
-28.7407 20.5639 56.943 0.764597 -0.00423913 -0.644495
-28.4077 20.1185 57.341 0.769894 0.00167189 -0.638169
-28.769 19.6383 56.9084 0.762753 0.00395026 -0.646677
-29.291 19.6752 56.3036 0.755604 0.000758743 -0.655026
-29.6182 20.01 55.9321 0.746171 0.000147935 -0.66575
-31.8949 -7.70828 55.3775 0.173334 -0.132395 -0.975924
-32.3463 -8.29554 55.3757 0.173316 -0.127427 -0.976588
-31.8567 -8.86634 55.5377 0.180517 -0.127485 -0.975275
-31.2221 -9.45148 55.7334 0.182459 -0.130254 -0.974547
-30.6952 -9.97177 55.9024 0.182063 -0.132754 -0.974284
-30.2071 -10.551 56.072 0.183132 -0.129568 -0.974511
-29.5813 -11.1515 56.2705 0.189577 -0.126428 -0.973692
-28.9199 -11.7512 56.4829 0.214498 -0.128194 -0.968244
-28.3016 -12.3287 56.7049 0.223099 -0.136273 -0.965223
-27.7371 -12.9312 56.9214 0.230068 -0.129868 -0.96447
-27.1311 -13.5415 57.1499 0.243749 -0.117676 -0.962673
-26.599 -14.1885 57.3542 0.254225 -0.0859867 -0.963072
-26.2719 -14.9001 57.4939 0.285958 -0.0560515 -0.95629
-26.3101 -15.7982 57.5083 0.348882 -0.0314591 -0.936639
-26.5343 -16.5535 57.4006 0.423543 0.0495658 -0.904519
-26.7568 -17.2707 57.2499 0.428575 0.0615446 -0.901408
-26.918 -18.1298 57.115 0.41558 0.0619828 -0.907442
-27.3276 -19.0173 56.875 0.434329 0.0253873 -0.900397
-27.9218 -19.3582 56.5894 0.410515 0.0151352 -0.911728
-28.6321 -19.5075 56.2742 0.3998 0.00232366 -0.9166
-29.3674 -19.512 55.9682 0.37322 -0.00895591 -0.927678
-30.1233 -19.4838 55.6735 0.355899 -0.0129263 -0.934435
-30.617 -19.8778 55.4924 0.338271 -0.00786387 -0.941016
-30.0971 -20.3183 55.6895 0.35504 -0.00672172 -0.934818
-29.3162 -20.3643 55.9947 0.368961 -0.00714653 -0.929418
-28.5007 -20.2709 56.3261 0.382657 0.00279162 -0.923886
-27.6723 -20.2883 56.678 0.394219 0.0185956 -0.918828
-26.8874 -20.3385 57.0154 0.400353 0.0284536 -0.915912
-26.2 -20.3626 57.3194 0.409085 0.024793 -0.912153
-25.477 -20.1427 57.6546 0.414517 0.0310612 -0.909511
-25.4391 -19.3701 57.7023 0.413078 0.0476372 -0.909449
-25.5592 -18.5109 57.7053 0.415464 0.0712823 -0.906812
-25.8643 -17.8299 57.6209 0.420149 0.0701209 -0.904735
-26.018 -17.0142 57.6043 0.393809 0.0509328 -0.91778
-25.8457 -16.0668 57.7016 0.347491 -0.00914412 -0.937211
-25.6067 -15.3436 57.7479 0.342312 -0.0676329 -0.937149
-25.3617 -14.5451 57.7669 0.317057 -0.092262 -0.943885
-25.4419 -13.8937 57.6686 0.317474 -0.115259 -0.941236
-26.1586 -13.3978 57.3894 0.26637 -0.122774 -0.95602
-26.7435 -12.8597 57.1586 0.250039 -0.137683 -0.958395
-27.2717 -12.2588 56.9391 0.235671 -0.137577 -0.962038
-27.909 -11.7886 56.7191 0.224934 -0.13931 -0.964364
-28.45 -11.2281 56.5141 0.212278 -0.144144 -0.96652
-28.9361 -10.619 56.327 0.193434 -0.133647 -0.971964
-29.5584 -9.93815 56.1109 0.184302 -0.136275 -0.973375
-30.1095 -9.36898 55.9291 0.180436 -0.13343 -0.974493
-30.6597 -8.85536 55.7583 0.180843 -0.130866 -0.974767
-31.2227 -8.32281 55.5835 0.181184 -0.130856 -0.974705
-31.7592 -7.76547 55.4097 0.178126 -0.134232 -0.974809
-31.8152 -7.71757 55.3929 0.17573 -0.133313 -0.975366
-51.7254 -19.5192 42.8517 0.146325 -0.00789283 -0.989199
-51.7693 -20.3229 42.8494 0.151992 -0.00251594 -0.988376
-52.5135 -20.3871 42.7479 0.130898 -0.00431269 -0.991373
-52.8376 -19.671 42.7084 0.116081 -0.0117524 -0.99317
-52.1656 -19.394 42.7871 0.13416 -0.00866808 -0.990869
-51.8552 -19.4647 42.8326 0.143758 -0.0055082 -0.989598
26.4913 -19.7449 57.6163 -0.465133 0.00906256 -0.885186
27.1035 -19.4831 57.3037 -0.447426 0.00495347 -0.894298
27.9343 -19.4766 56.9078 -0.421175 0.00709712 -0.906952
28.7064 -19.528 56.5531 -0.411266 0.0101001 -0.911459
29.4794 -19.4416 56.2111 -0.397435 0.00362287 -0.917623
30.2605 -19.4869 55.8769 -0.388866 -0.00157372 -0.921292
30.9699 -19.5803 55.5802 -0.385821 -0.00012476 -0.922571
30.9124 -20.3256 55.6034 -0.382636 0.00231802 -0.923896
30.1985 -20.3307 55.9032 -0.391058 -0.000511179 -0.920364
29.5056 -20.3368 56.1983 -0.394432 -0.000457917 -0.918923
28.7871 -20.2923 56.5101 -0.408286 0.00794177 -0.912817
28.0445 -20.3444 56.8428 -0.418451 0.0154343 -0.908095
27.3501 -20.3566 57.1701 -0.435226 0.0146154 -0.900202
26.5887 -20.2326 57.5584 -0.465252 0.0140817 -0.885064
26.5125 -20.0211 57.6013 -0.463859 0.0126468 -0.885819
51.2727 -20.063 42.9209 -0.27604 0.0179901 -0.960956
51.8299 -20.4285 42.7634 -0.251153 0.032848 -0.96739
52.2704 -19.9443 42.6676 -0.228083 0.019153 -0.973402
51.6065 -19.4123 42.8369 -0.250843 -0.0071388 -0.967929
51.274 -20.0463 42.9206 -0.273959 0.000537478 -0.961741
51.2745 -20.0531 42.9205 -0.273383 0.00666022 -0.961865
51.0426 19.5691 41.5918 -0.451933 0.00539134 -0.892035
51.4817 20.0632 41.373 -0.445824 0.00189834 -0.895114
50.9688 20.5527 41.6322 -0.452798 -0.00181586 -0.891606
50.6011 20.0288 41.8199 -0.457142 0.00393573 -0.889384
50.9212 19.5863 41.6533 -0.451933 0.00539134 -0.892035
28.1242 20.152 55.8689 -0.710523 -0.00237348 -0.703656
27.7609 19.5445 56.2434 -0.718555 -0.0208113 -0.694978
27.3739 18.9932 56.6914 -0.742645 -0.0643087 -0.666591
26.9719 18.3993 57.202 -0.694308 -0.133173 -0.706989
26.698 18.6809 57.413 -0.685333 -0.123797 -0.71763
26.6164 19.4569 57.4019 -0.686325 -0.0246806 -0.726872
26.6533 20.346 57.3598 -0.715625 -0.00463095 -0.698456
27.1951 20.5178 56.805 -0.712814 -0.0060783 -0.701293
27.8003 20.5525 56.1934 -0.708468 -0.00797562 -0.705687
28.1202 20.1863 55.873 -0.709088 0.00157427 -0.705119
27.9277 12.7063 57.2692 -0.738286 0.0119353 -0.674382
28.3992 12.343 56.7269 -0.763265 0.00891297 -0.645933
28.9174 11.7592 56.0806 -0.781054 0.0139354 -0.624308
28.9861 10.8803 55.9738 -0.792749 0.0115409 -0.609433
28.9205 10.1387 56.0502 -0.796685 0.00348069 -0.604382
28.4987 10.425 56.6028 -0.791107 -0.00809376 -0.611624
28.0739 10.9066 57.1274 -0.775647 -0.0257337 -0.630642
27.8909 11.7032 57.3216 -0.760438 -0.0142648 -0.649254
