1.5752 -11.3101 18.6291 -0.368105 -0.17854 0.906654
1.19491 -11.0394 18.388 -0.661013 -0.00359102 0.750366
1.19491 -11.0394 18.388 -0.661013 -0.00359102 0.750366
1.111 -10.299 18.2985 -0.818903 0.0913978 0.566608
1.47387 -10.1522 18.5802 -0.657367 0.104749 0.746255
1.58638 -10.9431 18.6556 -0.485994 -0.0343346 0.872114
1.61359 -11.199 18.6566 -0.408192 -0.0837311 0.909048
2.95961 -11.1345 18.6749 0.214997 -0.0246865 0.976269
2.94314 -11.9692 18.4429 0.365836 -0.309162 0.877828
2.79937 -12.7513 18.2973 0.458161 -0.185663 0.867175
2.54426 -13.7864 18.3763 0.43219 0.0616556 0.899177
2.36023 -14.7344 18.5875 0.490181 0.117686 0.862331
2.41367 -15.5915 18.7002 0.284326 0.155436 0.945569
2.5493 -16.4909 18.7356 0.250768 0.110422 0.959917
2.80286 -17.3054 18.7935 0.219507 0.110843 0.969294
2.92643 -18.0536 18.7727 0.33796 -0.0452147 0.940029
2.5867 -18.8275 18.8017 0.0610701 -0.127718 0.989929
1.82808 -19.0077 18.8072 -0.000966734 -0.124613 0.991565
1.05055 -19.0576 18.6949 -0.333958 -0.0889465 0.933167
0.313686 -18.9386 18.3441 -0.454227 -0.0406105 0.88996
0.283552 -18.1428 18.3851 -0.467215 -0.0957976 0.878888
0.227925 -17.3241 18.436 -0.564837 -0.0826511 0.821053
0.107438 -16.4259 18.4306 -0.643664 -0.00917239 0.763918
0.257179 -15.5303 18.3209 -0.588897 0.279552 0.75725
0.52971 -14.6173 18.1337 -0.498121 0.215976 0.83978
0.628222 -13.7627 17.9302 -0.637785 0.131852 0.758845
0.565755 -12.9655 17.7694 -0.566644 0.101045 0.817744
0.442287 -12.0595 17.5702 -0.788437 0.0782306 0.610121
0.303962 -11.2304 17.3211 -0.810938 0.0635826 0.576393
0.117512 -10.2684 16.7986 -0.830838 0.134521 0.540011
0.380938 -9.5996 17.0486 -0.830035 0.122184 0.544162
0.772296 -8.96782 17.4897 -0.821387 0.11913 0.557791
1.07648 -8.3581 17.8276 -0.830566 0.099989 0.547871
1.40543 -7.54008 18.1131 -0.751326 0.0994672 0.652392
1.59585 -6.65369 18.2175 -0.782368 0.0462615 0.621096
1.73162 -5.84895 18.2568 -0.68337 0.23077 0.691928
1.93025 -5.07993 18.221 -0.681175 0.162871 0.713638
2.15912 -4.20781 18.1913 -0.413058 0.201592 0.887894
2.34836 -3.3268 18.3187 -0.629566 4.54697e-05 0.776732
2.77688 -2.74337 18.1417 0.617754 0.133569 0.774944
3.30118 -3.29494 17.8097 0.71034 0.145573 0.68759
3.83213 -3.85701 17.3367 0.761634 0.119142 0.635217
3.86488 -4.55327 17.399 0.788514 0.0914932 0.608173
3.57965 -5.41498 17.9496 0.804046 0.139285 0.578022
3.42898 -6.19165 18.3463 0.812226 0.105913 0.572592
3.34563 -6.91827 18.5693 0.552018 -0.212758 0.806232
2.90298 -7.83559 18.565 0.461413 -0.204843 0.863213
2.67197 -8.66875 18.5386 0.465509 0.0664974 0.880488
2.73884 -9.87398 18.6463 0.485395 0.193475 0.847696
2.91244 -10.6856 18.6918 0.231555 0.107453 0.963497
2.94754 -11.0043 18.6805 0.222117 -0.0210884 0.974792
3.87421 -10.7948 17.6908 0.848336 -0.00917435 0.529379
3.83188 -9.72501 17.7755 0.771908 -0.0151848 0.635553
3.88992 -8.8125 17.7368 0.789298 -0.0220529 0.613398
4.01535 -7.76912 17.6162 0.797291 -0.0432594 0.602042
4.16204 -6.88737 17.3625 0.832756 0.0674104 0.54952
4.40986 -5.96211 16.8952 0.821339 0.047873 0.568428
4.74794 -5.09624 16.3032 0.817942 0.0802186 0.569681
5.14418 -4.38195 15.6831 0.77953 0.064344 0.622686
5.53878 -3.54802 15.115 0.75111 0.0536708 0.657797
5.05812 -3.15678 15.6225 0.782099 0.0869659 0.617057
4.55092 -2.87709 16.2097 0.765839 0.10196 0.634897
3.98283 -2.43862 16.8069 0.775799 0.150597 0.612745
3.42353 -1.78677 17.3191 0.743263 0.178692 0.644693
2.88667 -1.16998 17.599 0.600648 0.323609 0.731094
2.36748 -0.63531 17.6933 -0.0637415 0.271478 0.960332
1.74667 -0.319844 17.5423 -0.323749 0.227181 0.896026
1.68596 -1.09425 17.6298 -0.665901 0.0604022 0.74359
1.60462 -1.88868 17.5477 -0.736221 -0.0175392 0.676514
1.44219 -2.60035 17.3812 -0.747412 0.0159067 0.66417
1.26228 -3.43965 17.2145 -0.747555 0.0481564 0.662452
1.1508 -4.33006 17.1568 -0.774436 0.0987032 0.624905
1.04736 -5.10913 17.1383 -0.80903 0.111409 0.576943
0.912412 -5.96027 17.1173 -0.817078 0.111356 0.565671
0.711114 -6.87899 16.9929 -0.828413 0.0999623 0.551126
0.350922 -7.89036 16.6562 -0.816004 0.109589 0.567562
-0.0112439 -8.52552 16.2819 -0.792475 0.112905 0.598523
-0.489142 -9.08894 15.7179 -0.772476 0.10424 0.624766
-0.980506 -9.57634 15.2521 -0.745642 0.125713 0.654381
-0.919838 -10.6577 15.5381 -0.73307 0.149698 0.663386
-0.676443 -11.4913 16.0449 -0.784587 0.154683 0.600413
-0.502576 -12.2282 16.4371 -0.779196 0.121565 0.614878
-0.413041 -13.1502 16.7637 -0.760117 0.150161 0.632135
-0.449145 -14.1364 16.972 -0.750922 0.182991 0.634532
-0.642958 -15.1718 17.1315 -0.746347 0.262345 0.611672
-0.763266 -16.0761 17.2192 -0.842464 0.132917 0.522092
-0.732325 -17.1441 17.4156 -0.832168 0.0413977 0.55239
-0.735369 -17.9309 17.4296 -0.754627 -0.0371405 0.655102
-0.79493 -18.7299 17.3157 -0.761987 -0.00630585 0.646731
-0.854264 -19.9999 17.2649 -0.80212 -0.00723572 0.597087
-0.285771 -20.3901 17.844 -0.581838 -0.0168007 0.813131
0.372499 -20.3637 18.304 -0.56675 -0.0545169 0.822084
1.09458 -20.3449 18.5791 -0.184687 -0.14563 0.967695
1.94037 -20.3507 18.6399 0.00755664 -0.139363 0.990212
2.7702 -20.2602 18.5486 0.324033 -0.287421 0.89192
3.52658 -19.8399 18.1515 0.764675 -0.0805601 0.634262
3.86546 -19.1029 17.8175 0.777631 -0.0940072 0.621147
3.98322 -18.31 17.7265 0.818982 -0.0102828 0.573257
3.8866 -17.3664 17.8427 0.802645 0.0139024 0.595815
3.7159 -16.6176 17.9244 0.763567 0.122509 0.634001
3.52962 -15.3477 17.8898 0.707028 0.145847 0.691982
3.60199 -14.5216 17.6781 0.699804 0.0284129 0.71377
3.79336 -13.6807 17.4522 0.735306 0.032463 0.676957
4.01374 -12.6873 17.3157 0.751703 -0.0796292 0.650827
3.95606 -11.7031 17.4672 0.789232 -0.0655766 0.610584
3.90802 -11.0728 17.6318 0.835417 -0.057838 0.544043
4.68869 -10.5746 16.531 0.813822 -0.0230721 0.580656
4.8617 -11.6376 16.2524 0.799373 -0.0181874 0.60056
4.92667 -12.3813 16.1323 0.789781 -0.0297468 0.612308
4.88649 -13.1349 16.1657 0.774978 0.0108119 0.631293
4.72237 -14.1335 16.4213 0.770743 0.0394144 0.635916
4.49232 -15.0896 16.7445 0.789389 0.0399605 0.612199
4.53028 -16.1415 16.7987 0.785851 0.0549602 0.615786
4.71793 -17.009 16.5934 0.816169 0.0285 0.577111
4.80992 -18.1018 16.4891 0.821199 0.00900999 0.570571
4.79621 -19.0704 16.4793 0.825868 -0.0248305 0.563317
4.69032 -19.9394 16.5666 0.810492 -0.0577638 0.582646
4.41351 -20.5954 16.8806 0.771878 -0.106137 0.626843
3.96243 -21.1144 17.3506 0.707954 -0.155651 0.681697
3.40195 -21.4717 17.7395 0.59351 -0.190195 0.779075
2.69125 -21.6564 18.1289 0.422525 -0.251537 0.86833
1.84728 -21.7206 18.3134 -0.00435595 -0.25823 0.966036
0.955218 -21.6673 18.1932 -0.243392 -0.244108 0.938707
0.279549 -21.9587 17.9422 -0.243367 -0.244821 0.938528
-0.275555 -21.9693 17.5922 -0.664713 -0.158395 0.730115
-0.788799 -21.7001 17.1293 -0.769596 -0.138245 0.623383
-1.42793 -21.55 16.3604 -0.783561 -0.119372 0.609739
-1.86195 -20.9369 15.8535 -0.796298 -0.0229299 0.60447
-1.9424 -19.934 15.7788 -0.81039 -0.00492232 0.58587
-1.82906 -19.1913 15.9407 -0.809093 0.0219988 0.586917
-1.63794 -18.3379 16.1458 -0.811622 0.0417163 0.582691
-1.57291 -17.5546 16.1803 -0.80485 0.0387629 0.59209
-1.56945 -16.7842 16.0967 -0.822785 0.0784537 0.562752
-1.51542 -15.8548 15.9921 -0.813686 0.136062 0.564822
-1.45542 -15.0862 15.9014 -0.798023 0.151435 0.583289
-1.3343 -14.1903 15.8326 -0.795556 0.15495 0.58553
-1.3104 -13.2263 15.6334 -0.791993 0.142646 0.593633
-1.43227 -12.5372 15.3267 -0.772232 0.108719 0.62597
-1.69871 -11.8692 14.8802 -0.755117 0.102754 0.646805
-1.89191 -11.1847 14.5748 -0.738897 0.089455 0.667854
-2.04804 -10.5072 14.2836 -0.73878 0.115196 0.664028
-2.24854 -9.75602 13.9606 -0.674185 0.0747612 0.734254
-2.75093 -8.96499 13.3991 -0.66659 0.100849 0.738571
-3.00009 -8.29324 13.1148 -0.639426 0.0731012 0.765369
-3.55165 -8.24741 12.6634 -0.604012 0.058766 0.794386
-4.24903 -7.92233 12.1354 -0.592097 0.0389614 0.804924
-4.80431 -7.62097 11.7202 -0.58733 0.0218969 0.809051
-5.23289 -7.00594 11.41 -0.565388 -0.00907901 0.824775
-4.79576 -6.12396 11.7148 -0.565187 -0.00146582 0.824962
-3.971 -6.48603 12.2949 -0.591356 0.0157387 0.806257
-3.36236 -7.33438 12.7672 -0.593659 0.0275821 0.804244
-2.87489 -7.90817 13.1799 -0.637297 0.087046 0.765686
-2.69291 -8.57815 13.3987 -0.653008 0.0869758 0.751971
-1.96039 -8.48434 14.0627 -0.682649 0.0937197 0.724712
-1.19676 -8.18641 14.7555 -0.714407 0.0896616 0.692893
-0.742428 -7.7492 15.1969 -0.75146 0.0923639 0.653282
-0.197001 -7.03279 15.6992 -0.751993 0.127989 0.645401
0.0802524 -6.19062 15.9444 -0.806523 0.041441 0.589731
0.21173 -5.25699 16.0229 -0.795705 0.0894766 0.599039
0.246923 -4.47263 16.0192 -0.767502 0.0435554 0.639466
0.330275 -3.36832 16.0806 -0.746162 -0.0176189 0.665531
0.52366 -2.38673 16.3421 -0.752222 -0.0287554 0.658282
0.6295 -1.62173 16.5007 -0.728002 -0.0348786 0.684684
0.625708 -0.671675 16.5622 -0.713378 -0.0946235 0.694108
0.485631 0.317976 16.5698 -0.701661 -0.104698 0.704776
0.284824 1.15335 16.5964 -0.70939 -0.206246 0.673962
-0.0020479 1.90307 16.5231 -0.710452 -0.206409 0.672795
-0.318301 2.62869 16.4088 -0.71322 -0.201086 0.671477
-0.584385 3.35968 16.354 -0.702942 -0.210008 0.679536
-0.730621 4.27009 16.4671 -0.703967 -0.192031 0.683779
-0.872426 5.10569 16.5558 -0.694041 -0.193844 0.69321
-1.11755 5.98262 16.5701 -0.64908 -0.189348 0.736779
-1.45864 7.04964 16.5745 -0.627272 -0.233497 0.742973
-1.87523 7.90339 16.4588 -0.657773 -0.228655 0.717671
-2.28158 8.5998 16.3134 -0.662681 -0.251853 0.704206
-2.49815 9.40577 16.3541 -0.665759 -0.174667 0.725252
-2.65718 10.2127 16.4203 -0.656015 -0.180245 0.73282
-2.8259 11.1521 16.485 -0.66449 -0.163004 0.729298
-2.9139 12.0515 16.6069 -0.67278 -0.159706 0.722371
-2.98177 12.8875 16.7385 -0.659712 -0.174423 0.730997
-2.93447 13.7124 16.9461 -0.63796 -0.159137 0.753447
-2.61683 14.7402 17.4528 -0.593778 -0.166873 0.784538
-2.46851 15.6624 17.6896 -0.510179 -0.184914 0.835494
-2.80834 16.3878 17.724 -0.486647 -0.283348 0.826371
-3.58749 17.253 17.5618 -0.561401 -0.306745 0.761866
-4.11541 17.7993 17.3467 -0.655638 -0.238854 0.711609
-4.72152 18.4468 16.7721 -0.777848 -0.130855 0.614678
-5.23331 19.2091 16.2633 -0.804105 -0.121859 0.581676
-5.57296 20.3619 15.9805 -0.813498 -0.0593474 0.578027
-5.33394 21.1238 16.3724 -0.819681 -0.0368723 0.571632
-4.95337 21.6014 16.9143 -0.794494 -0.00680036 0.606576
-4.32068 21.7508 17.6974 -0.77473 0.00896752 0.632085
-3.65452 21.7493 18.2434 -0.3964 0.209851 0.891868
-2.87041 21.7174 18.428 -0.0552734 0.177378 0.980296
-2.05627 21.7042 18.4263 0.112709 0.173079 0.970514
-1.14836 21.6783 18.1486 0.409135 0.225576 0.884151
-0.469394 21.7143 17.7566 0.553183 0.154037 0.818695
0.14897 21.5532 17.3011 0.657569 0.112128 0.744277
0.740961 21.1778 16.8355 0.679557 0.117269 0.723598
1.51729 20.728 16.0989 0.709198 0.0667221 0.701838
2.0029 20.0607 15.667 0.717868 0.0736797 0.692269
2.33486 19.2984 15.4029 0.718459 0.0766732 0.691321
2.25841 18.2509 15.603 0.719692 0.0777216 0.689929
2.37326 17.2784 15.5914 0.717374 0.0808622 0.691962
2.64698 16.5713 15.3964 0.7153 0.0860358 0.693501
3.14071 15.8566 14.9693 0.71502 0.0811457 0.694365
3.62514 15.3639 14.5317 0.712209 0.080691 0.697314
4.26374 14.9344 13.9455 0.696766 0.0844237 0.712313
4.79388 14.6332 13.4623 0.688887 0.086778 0.719507
4.91584 13.8615 13.4523 0.682443 0.0857205 0.725785
4.92831 13.008 13.5265 0.674704 0.0824168 0.733334
4.90671 12.0698 13.6935 0.686199 0.111424 0.718806
4.99721 11.1169 13.7472 0.690761 0.111841 0.714328
5.10789 10.3544 13.7488 0.695402 0.102266 0.711307
5.37793 9.3647 13.6281 0.672086 0.104986 0.732993
5.50747 8.38834 13.6347 0.674346 0.0837081 0.733655
5.27924 7.63382 13.9501 0.694641 0.100216 0.712342
4.83679 7.18532 14.4421 0.692736 0.0956633 0.714818
4.33886 6.67712 14.994 0.705946 0.0880018 0.702764
3.97201 5.87396 15.4646 0.708952 0.0859791 0.699996
3.69411 5.07828 15.8412 0.70878 0.0825123 0.700587
3.50955 4.07626 16.1361 0.698272 0.0760862 0.711778
3.30839 3.26265 16.4186 0.69769 0.0724646 0.712725
3.04424 2.44399 16.753 0.6605 0.0690976 0.74764
2.91691 1.39167 16.9604 0.660037 0.0656744 0.748357
3.06197 0.58926 16.9395 0.564617 0.159865 0.800645
3.58586 -0.355816 16.6805 0.662556 0.167159 0.730122
4.13267 -1.02051 16.3133 0.741706 0.159558 0.65147
4.59556 -1.44565 15.8898 0.754248 0.124953 0.644513
5.10955 -1.79447 15.3875 0.732104 0.104973 0.673051
5.63413 -1.93537 14.8359 0.733478 0.101765 0.672049
6.20847 -2.0439 14.2522 0.714369 0.0491379 0.698042
6.83508 -2.00925 13.6158 0.700285 0.0498077 0.712123
7.54628 -2.27463 12.935 0.702758 0.0298797 0.710516
7.10868 -2.93396 13.3796 0.70523 0.00995222 0.708909
6.78053 -3.61171 13.7395 0.722202 0.027685 0.691128
6.4653 -4.26803 14.1079 0.747006 0.0346989 0.663872
6.11287 -5.02575 14.5251 0.739758 0.002615 0.672868
5.83391 -5.66095 14.8782 0.790731 0.0199302 0.611819
5.38684 -6.19911 15.4858 0.809098 0.0354964 0.586601
5.10572 -6.81672 15.917 0.829822 0.0373467 0.556668
4.90587 -7.48438 16.2428 0.82944 0.0211872 0.55816
4.74613 -8.22799 16.4868 0.824408 -0.000491247 0.565996
4.66745 -9.29972 16.5898 0.828924 -0.0120434 0.559232
4.6844 -10.509 16.5396 0.815188 -0.0220035 0.578772
4.68636 -10.557 16.535 0.813822 -0.0230724 0.580656
5.49354 -10.2907 15.4119 0.805519 0.00994191 0.592436
5.45997 -9.54166 15.4547 0.805203 0.000250274 0.592993
5.56293 -8.40202 15.3156 0.803639 0.0016257 0.595115
5.79773 -7.69633 15.0015 0.793844 0.0356541 0.607076
6.20204 -6.98599 14.4683 0.764163 -0.00870432 0.644965
6.62942 -6.59912 13.9669 0.729483 0.00811627 0.683796
6.92318 -5.91769 13.6509 0.719798 0.0115759 0.694087
7.21651 -5.19386 13.3365 0.71586 0.0307988 0.697564
7.61166 -4.43862 12.92 0.696464 0.00919865 0.717533
8.09246 -3.63016 12.4469 0.685947 0.0153653 0.727489
8.60366 -2.87889 11.9565 0.672688 0.0187799 0.739688
8.88549 -1.97806 11.6839 0.667374 0.0213725 0.744355
8.77602 -1.1136 11.7452 0.666197 0.0333806 0.745028
8.2763 -0.515022 12.1591 0.667635 0.0481559 0.742867
7.71198 -0.198174 12.6544 0.672658 0.0543667 0.737932
7.10128 -0.2813 13.2248 0.679169 0.0535966 0.732012
6.46638 -0.582321 13.8577 0.68836 0.0689532 0.722085
5.798 -0.615235 14.5205 0.701607 0.0788908 0.708184
5.02613 -0.31085 15.2381 0.698847 0.097784 0.708556
4.29285 0.498005 15.8367 0.690693 0.109233 0.714851
3.97991 1.48919 15.9953 0.694796 0.0984275 0.71244
4.2738 2.48547 15.5778 0.690951 0.0922418 0.716992
4.48922 3.51639 15.2399 0.694035 0.0893187 0.714379
4.62955 4.27664 15.0082 0.69132 0.0949278 0.716282
4.84796 5.10347 14.6891 0.69232 0.0932715 0.715537
5.21332 5.7592 14.2567 0.679456 0.0904256 0.728123
6.00152 6.38442 13.4453 0.673267 0.0995276 0.732665
6.37254 6.89884 13.0487 0.650686 0.104471 0.752126
6.66805 7.62071 12.6898 0.656734 0.0982021 0.747602
6.72576 8.83695 12.4936 0.647658 0.0892781 0.756682
6.46029 9.73774 12.6066 0.645583 0.0975778 0.757431
6.25004 10.4583 12.7026 0.668208 0.10296 0.736678
6.05873 11.275 12.7485 0.657518 0.107269 0.745465
5.98125 12.2385 12.6942 0.643917 0.092821 0.759444
6.05072 13.3038 12.5063 0.645764 0.0889743 0.758335
6.2424 14.1403 12.2567 0.640496 0.0849874 0.763217
5.99764 15.0215 12.3678 0.632607 0.0753736 0.770796
5.57537 15.6166 12.6638 0.638718 0.067492 0.766475
4.68987 16.2124 13.3967 0.68601 0.0775771 0.723445
4.13007 16.491 13.8977 0.686008 0.0775805 0.723446
3.52422 17.164 14.4319 0.710596 0.0738765 0.699711
3.27611 17.9357 14.5881 0.702546 0.0855898 0.706472
3.5325 18.912 14.2409 0.702756 0.0667396 0.708294
3.43799 19.7926 14.2479 0.705607 0.0701882 0.705118
2.93001 20.6884 14.6671 0.705439 0.0638123 0.705863
2.54092 21.578 14.9829 0.707226 0.0590438 0.704518
2.06929 22.0045 15.4213 0.70876 0.0579056 0.703067
1.54067 22.3003 15.9339 0.703372 0.0554256 0.708658
0.955185 22.7216 16.4821 0.703886 0.0470969 0.708701
0.394088 23.0153 16.9429 0.665399 0.0308689 0.744985
-0.255614 23.0942 17.5118 0.595425 -0.110624 0.795758
-0.961372 22.9844 17.9391 0.251218 -0.0336226 0.965093
-1.74017 23.0006 18.196 0.267519 0.0129531 0.961875
-2.89782 22.9838 18.3471 0.0252292 -0.060747 0.997834
-3.58079 23.0443 18.0417 -0.413683 0.0621508 0.906845
-4.31073 23.1426 17.5964 -0.690274 0.0366878 0.722618
-4.8929 23.1379 16.9637 -0.767753 -0.0589022 0.633682
-5.44902 22.969 16.2689 -0.813533 -0.0266378 0.580909
-5.95968 22.5536 15.5515 -0.80253 -0.0160256 0.596397
-6.27629 21.6903 15.1046 -0.801527 -0.0138342 0.597798
-6.47958 20.9654 14.8067 -0.792752 -0.0426821 0.607996
-6.46755 19.8482 14.7123 -0.791872 -0.0792944 0.605517
-6.05074 18.6115 15.0512 -0.785153 -0.125905 0.606368
-5.58309 17.7992 15.4816 -0.779858 -0.131982 0.611884
-4.95015 17.2506 16.1051 -0.758131 -0.206015 0.618705
-4.37294 16.6809 16.5924 -0.673071 -0.28467 0.67892
-3.64797 15.71 16.8132 -0.620959 -0.298847 0.724638
-3.69945 14.8596 16.5512 -0.641546 -0.184967 0.74445
-4.03898 14.0492 16.0119 -0.679878 -0.16028 0.715595
-4.03155 13.1224 15.7968 -0.683191 -0.181785 0.707251
-3.92352 12.0984 15.6452 -0.686827 -0.172081 0.706157
-3.83819 11.235 15.5196 -0.702571 -0.17355 0.690125
-3.69696 10.3664 15.4436 -0.697341 -0.194822 0.689612
-3.49897 9.42464 15.3584 -0.692304 -0.203122 0.692395
-3.24936 8.17503 15.2222 -0.679184 -0.210961 0.702997
-2.79674 7.49988 15.4558 -0.684564 -0.217675 0.695694
-2.38841 6.70761 15.5995 -0.677747 -0.231514 0.697891
-2.14699 5.77422 15.5309 -0.680436 -0.218858 0.699363
-1.99857 5.01133 15.4365 -0.677379 -0.220885 0.701676
-1.79633 4.26583 15.4122 -0.690933 -0.209735 0.691825
-1.62855 3.13132 15.2323 -0.682334 -0.213312 0.699227
-1.29462 2.37791 15.3308 -0.685811 -0.204607 0.698426
-0.969175 1.61877 15.428 -0.685818 -0.204634 0.698412
-0.617723 0.799255 15.5441 -0.704989 -0.196831 0.681357
-0.481048 -0.420978 15.4745 -0.713883 -0.109496 0.691637
-0.371654 -1.2078 15.504 -0.68714 -0.0673275 0.723398
-0.452557 -2.09269 15.3508 -0.685674 -0.058981 0.725515
-0.6879 -2.8466 15.0687 -0.701653 -0.0375823 0.711515
-0.667442 -3.80792 14.9968 -0.728839 -0.052156 0.68249
-0.690689 -4.91087 14.9147 -0.679191 -0.0365321 0.733052
-0.783557 -5.92694 14.9246 -0.715056 0.072423 0.695306
-1.18299 -6.56776 14.5722 -0.714854 0.081325 0.693535
-1.82121 -7.07489 14.0287 -0.685896 0.0911214 0.721972
-2.44444 -6.52452 13.4305 -0.644714 0.0281459 0.763906
-2.82171 -5.7868 13.1201 -0.586358 0.0150572 0.809912
-3.32073 -5.15173 12.7443 -0.586314 0.00756152 0.809982
-3.93876 -4.6943 12.3076 -0.563435 -0.0079205 0.826122
-4.84678 -4.53197 11.6957 -0.554563 -0.0158263 0.831991
-5.55753 -4.75198 11.2241 -0.545267 -0.0288224 0.837726
-6.11951 -5.23542 10.8334 -0.546268 -0.0354249 0.836842
-6.43018 -6.02422 10.6133 -0.555694 -0.00994245 0.831327
-6.51271 -6.84507 10.5448 -0.556752 -0.0158651 0.830527
-6.30789 -7.75356 10.6647 -0.561094 -0.0124913 0.827635
-5.83695 -8.48825 10.9936 -0.579655 -0.00873302 0.814815
-5.31358 -8.88686 11.3753 -0.601774 0.00752269 0.798631
-4.71043 -9.26796 11.8361 -0.611939 0.0244579 0.790273
-4.1795 -9.57192 12.2719 -0.619448 0.0419369 0.783917
-3.64454 -9.96047 12.7233 -0.627043 0.0407379 0.777919
-3.25689 -10.6526 13.0943 -0.638221 0.0545278 0.767919
-3.02823 -11.3396 13.3967 -0.708759 0.100964 0.698188
-2.80704 -12.0573 13.7067 -0.704963 0.0803757 0.704675
-2.3925 -13.0513 14.2895 -0.744602 0.10894 0.658299
-2.16433 -13.6957 14.6565 -0.734159 0.120612 0.668179
-2.28674 -14.5479 14.7199 -0.732774 0.155212 0.662534
-2.33713 -15.3265 14.8164 -0.752625 0.129858 0.645517
-2.36463 -16.2868 14.9404 -0.770741 0.0870259 0.631178
-2.40278 -17.0753 14.9962 -0.776435 0.0588262 0.627391
-2.66785 -18.4102 14.7787 -0.774798 0.0512191 0.630131
-2.88698 -19.1635 14.5618 -0.762302 0.0348085 0.646285
-2.93369 -20.3023 14.5349 -0.763423 -0.00942808 0.64583
-3.01783 -21.0516 14.4274 -0.77163 -0.0166662 0.635559
-2.75597 -21.7957 14.7086 -0.763813 -0.023511 0.645009
-2.42668 -22.5178 15.026 -0.753651 -0.065947 0.653945
-1.90849 -22.9519 15.5398 -0.735602 -0.129221 0.664975
-1.39314 -23.0149 16.1043 -0.759012 -0.146579 0.634362
-0.503575 -23.1196 17.2955 -0.786405 -0.00984931 0.608563
0.0275717 -23.2449 17.9041 -0.496678 0.090165 0.81309
1.18079 -23.1355 18.0903 -0.068951 0.0648204 0.994993
2.45817 -23.1227 18.1615 -0.0563172 0.0943414 0.993946
3.10223 -23.0181 17.7581 0.560262 0.242894 0.791902
3.76533 -22.9195 17.2588 0.524587 0.039459 0.824342
4.43797 -22.4589 16.6392 0.775916 -0.0351137 0.629858
4.97523 -21.9946 16.0033 0.768522 -0.0654212 0.635678
5.29994 -21.2977 15.6409 0.791362 -0.0513581 0.609187
5.62543 -20.6413 15.2526 0.799196 -0.0305514 0.600241
5.71423 -19.5123 15.1661 0.806266 -0.011749 0.591403
5.67852 -18.625 15.2345 0.809632 -0.00654612 0.586901
5.62304 -17.7747 15.3131 0.821733 -0.00169321 0.56987
5.59548 -16.8708 15.3445 0.814001 0.00362733 0.580853
5.39056 -15.8182 15.6066 0.805937 0.0215421 0.59161
5.42428 -15.0223 15.5422 0.805492 0.0106297 0.592511
5.69285 -14.2966 15.1641 0.805492 0.0106303 0.592511
5.73881 -13.3952 15.1006 0.783934 0.00439955 0.620829
5.79573 -12.6489 15.0235 0.783934 0.00439823 0.620829
5.87065 -11.8981 14.9283 0.775172 0.00337383 0.631741
5.74045 -11.0153 15.0983 0.801946 0.0118485 0.597232
5.59236 -10.5967 15.2869 0.804841 0.0175307 0.593232
1.61391 0.769309 17.547 -0.174527 -0.271178 0.946574
1.14527 1.67461 17.5937 -0.593978 -0.292225 0.749529
0.796575 2.5381 17.5556 -0.699153 -0.198711 0.68669
0.50928 3.24373 17.4705 -0.706396 -0.207641 0.676676
0.324918 4.11684 17.5232 -0.726542 -0.17257 0.665099
0.147193 5.16121 17.5599 -0.627792 -0.123282 0.768557
0.00319304 5.9225 17.564 -0.622491 -0.122345 0.772754
-0.267256 6.97159 17.4958 -0.607831 -0.162552 0.775387
-0.661055 7.94749 17.4076 -0.51702 -0.146131 0.842846
-1.21631 8.92778 17.3125 -0.514603 -0.257659 0.817745
-1.60674 10.0882 17.3485 -0.679963 -0.16859 0.713602
-1.75237 11.1701 17.4724 -0.66532 -0.175112 0.72572
-1.86453 11.9613 17.5224 -0.6394 -0.124641 0.758704
-1.86314 12.7116 17.6445 -0.607565 -0.116964 0.78561
-1.58808 13.7834 18.0068 -0.47019 -0.086898 0.871299
-1.37459 14.5998 18.1592 -0.374054 -0.0747367 0.924391
-1.24576 15.421 18.2598 -0.246466 -0.0387918 0.968348
-1.50932 16.4118 18.3834 -0.204532 -0.227316 0.9521
-1.85416 17.1218 18.4081 -0.337663 -0.122779 0.932966
-2.49708 17.8458 18.3899 -0.210001 -0.231196 0.949973
-3.14453 18.4235 18.2201 -0.447423 -0.130293 0.884781
-3.67338 18.983 17.9228 -0.694363 -0.011418 0.719535
-4.2947 19.74 17.5246 -0.687907 -0.111745 0.709847
-4.21135 20.323 17.7002 -0.666061 -0.130369 0.734416
-3.59855 20.4335 18.2225 -0.540707 -0.152658 0.827243
-2.73872 20.3859 18.5276 -0.194793 -0.0524898 0.979439
-1.97028 20.4014 18.5956 0.0103282 0.109122 0.991339
-1.2208 20.3938 18.504 0.196342 0.148452 0.969233
-0.377904 20.291 18.0256 0.651828 0.202421 0.730851
0.188947 20.0032 17.5199 0.689323 0.0787067 0.720166
0.746063 19.6116 17.0304 0.70528 0.0786505 0.704126
1.15955 18.9874 16.6639 0.722618 0.0752382 0.687141
1.2409 18.1573 16.674 0.719701 0.0753159 0.690187
1.35693 17.4132 16.6277 0.712143 0.0704982 0.698439
1.50645 16.5347 16.5722 0.71541 0.0804812 0.69402
1.79638 15.8002 16.3613 0.707929 0.0757094 0.702214
2.28242 15.0439 15.9486 0.709734 0.0719577 0.700785
2.91219 14.3153 15.3866 0.713544 0.0865135 0.695238
3.3923 13.9202 14.9431 0.715943 0.086544 0.692765
3.77951 13.1037 14.6407 0.706978 0.0897301 0.701396
3.82893 12.2543 14.7181 0.706396 0.10731 0.699635
3.89228 11.3383 14.7925 0.70064 0.111622 0.704661
3.97191 10.5521 14.8359 0.710445 0.115442 0.69422
4.1935 9.44769 14.767 0.707934 0.0858115 0.701042
4.19016 8.53905 14.8915 0.704021 0.106261 0.702182
3.70159 7.84139 15.4912 0.721557 0.0921175 0.686185
3.29883 7.15659 15.9978 0.719528 0.0859512 0.689123
2.97963 6.39675 16.4076 0.711285 0.080837 0.698222
2.72857 5.65308 16.7483 0.696005 0.0877567 0.712654
2.55001 4.93935 16.9999 0.694302 0.0651283 0.716731
2.38393 4.2347 17.2052 0.660009 0.0294442 0.75068
2.12185 3.2423 17.4861 0.600573 0.0584675 0.797429
1.8253 2.22735 17.6984 0.520399 -0.022255 0.853633
1.68216 1.47197 17.6977 0.0587154 -0.141053 0.988259
1.57822 0.959827 17.595 -0.17453 -0.27118 0.946573
1.36114 5.29035 17.9308 0.458124 0.0538161 0.887258
1.24884 6.02641 17.9919 0.458106 -0.145132 0.876969
1.09734 6.75801 18.0403 0.350535 0.178477 0.905666
0.873554 7.52576 17.9568 0.266975 0.0751089 0.959887
0.495544 8.38604 17.9474 -0.0179846 -0.0698797 0.997393
0.125223 9.1221 17.8962 -0.278604 -0.0959503 0.954955
-0.40372 10.1655 17.9781 -0.189386 -0.188753 0.963486
-0.598862 11.0042 18.1106 -0.0748198 -0.0852996 0.993542
-0.675836 11.8307 18.1755 -0.0440627 -0.0753661 0.996182
-0.546623 12.7713 18.1969 0.0910166 -0.0781616 0.992776
-0.299163 13.4931 18.1732 0.17406 0.105279 0.979091
-0.0785193 14.3708 18.0411 0.516498 0.028459 0.855815
0.061356 15.2328 17.9608 0.516642 -0.0962728 0.850772
0.014354 15.9923 17.995 0.589465 0.0274568 0.806607
-0.211556 16.7145 18.1426 0.489289 0.0430141 0.870627
-0.660295 17.5707 18.3394 0.434952 -0.0218663 0.900188
-1.18143 18.3859 18.6113 0.405957 -0.0669434 0.911382
-1.22216 19.0445 18.6614 0.379743 0.172156 0.908932
-0.552948 18.8564 18.2807 0.611006 0.00747283 0.79073
-0.0356924 18.3572 17.8811 0.650114 0.0386927 0.758424
0.26078 17.5534 17.7161 0.67832 0.0819495 0.729431
0.373377 16.7656 17.6763 0.699093 0.0654744 0.712027
0.605816 15.6738 17.5363 0.67451 0.0342 0.737473
0.928879 15.0491 17.2698 0.672692 0.0583987 0.737215
1.34396 14.4245 16.9579 0.682977 0.0747662 0.726603
1.77426 13.8962 16.608 0.693316 0.0656411 0.717434
2.26248 13.2878 16.1707 0.70013 0.0778548 0.709393
2.73976 12.2931 15.822 0.712014 0.087168 0.696734
2.80272 11.4248 15.9006 0.713418 0.116304 0.691013
2.90122 10.622 15.9282 0.715125 0.108719 0.69049
3.02297 9.82119 15.925 0.716465 0.101604 0.690184
2.95654 9.11162 16.0984 0.717136 0.102268 0.689388
2.65246 8.48137 16.5062 0.721732 0.0880498 0.68655
2.30817 7.78821 16.9387 0.71044 0.0704862 0.700219
2.02463 7.11796 17.2802 0.68157 0.0774151 0.727623
1.79459 6.3659 17.5716 0.664892 0.0471564 0.74456
1.5321 5.56631 17.8258 0.538986 0.0515931 0.835213
1.38131 5.36993 17.9156 0.458124 0.0538161 0.887258
1.5663 9.16348 17.4703 0.644852 0.0874653 0.758414
1.06337 10.0079 17.6975 0.590676 0.141147 0.794468
0.759638 10.6957 17.7476 0.474729 0.0973679 0.87473
0.572243 11.6888 17.7447 0.55315 0.0635247 0.830656
0.693798 12.5413 17.5876 0.579995 0.05448 0.812041
1.03285 12.8212 17.3266 0.579993 0.0544804 0.812043
1.55035 12.1543 16.982 0.675179 0.059901 0.735218
1.79661 11.3593 16.8752 0.649556 0.125286 0.74992
1.91252 10.1581 16.9746 0.683839 0.122349 0.719302
1.6149 9.25755 17.4107 0.685668 0.118773 0.718147
1.5831 9.19525 17.4512 0.680056 0.100787 0.725963
-6.81485 11.8881 12.7741 -0.669017 -0.14111 0.729708
-7.04222 12.7973 12.7344 -0.677359 -0.148132 0.720388
-7.8395 13.6747 12.1823 -0.660437 -0.136763 0.738322
-8.6405 13.7897 11.4729 -0.661792 -0.112182 0.741247
-9.24828 13.7103 10.9261 -0.645696 -0.0930458 0.757784
-9.69301 13.2366 10.5007 -0.635543 -0.0918079 0.766587
-10.1197 12.6932 10.0928 -0.630775 -0.0837151 0.771437
-10.2613 11.8727 9.89393 -0.609895 -0.0873028 0.787659
-10.1011 11.0794 9.92948 -0.605178 -0.0892905 0.791057
-9.60983 10.3569 10.2266 -0.608334 -0.0892845 0.788643
-9.00308 9.95218 10.6391 -0.60292 -0.104398 0.790941
-8.35814 9.89576 11.1344 -0.612349 -0.110902 0.78277
-7.50692 10.2357 11.8721 -0.63641 -0.123089 0.761467
-7.02474 10.9377 12.4031 -0.658325 -0.131672 0.741128
-6.89204 11.2895 12.5834 -0.662968 -0.139058 0.735547
-8.06543 11.8252 11.6585 -0.638349 -0.127621 0.758999
-8.52944 12.2452 11.337 -0.635638 -0.11373 0.763457
-9.05849 12.0398 10.8747 -0.631632 -0.102647 0.768443
-8.81769 11.3881 10.974 -0.627272 -0.123503 0.768945
-8.21745 11.3896 11.4639 -0.628925 -0.122917 0.767685
-8.12102 11.4974 11.5604 -0.63058 -0.122332 0.766423
-9.52215 5.94463 9.72262 -0.569971 -0.108233 0.814505
-10.3042 6.0642 9.19601 -0.562191 -0.0949266 0.821542
-11.0458 5.78034 8.65971 -0.558317 -0.0926601 0.824437
-11.9331 5.19932 8.00392 -0.555484 -0.0766594 0.827986
-12.3222 4.62701 7.68992 -0.550943 -0.0733971 0.831284
-12.4769 3.65819 7.50163 -0.541669 -0.0764497 0.837108
-12.487 2.80912 7.41944 -0.539834 -0.0770258 0.838234
-12.1071 2.10137 7.59657 -0.536379 -0.0737926 0.840745
-11.4206 1.34883 7.96616 -0.536262 -0.0775208 0.840483
-10.6846 1.06541 8.40933 -0.534978 -0.0805282 0.841019
-9.93299 0.946308 8.87658 -0.532635 -0.0796579 0.84258
-9.18784 1.0759 9.36103 -0.535909 -0.087801 0.839694
-8.33527 1.65356 9.96905 -0.538507 -0.0945148 0.837282
-7.85781 2.4068 10.3735 -0.545061 -0.107226 0.831494
-7.66637 3.30651 10.6282 -0.555433 -0.122451 0.822461
-7.85744 4.29042 10.6458 -0.56454 -0.118922 0.816794
-8.16798 5.02125 10.5381 -0.562163 -0.113756 0.819147
-8.88923 5.61752 10.1226 -0.567942 -0.121148 0.814104
-9.38364 5.88119 9.81112 -0.569971 -0.108234 0.814505
-9.67238 4.60021 9.45294 -0.55533 -0.101113 0.82546
-10.2921 4.55233 9.02995 -0.554578 -0.0956251 0.82661
-11.0138 4.12488 8.50135 -0.547944 -0.0875285 0.831901
-11.0973 3.10995 8.34303 -0.542944 -0.0866897 0.835283
-10.5537 2.50172 8.63407 -0.544869 -0.0862119 0.834077
-9.77918 2.35646 9.11878 -0.537454 -0.0916791 0.838295
-9.06318 2.99555 9.6604 -0.544256 -0.0971605 0.833274
-9.02409 3.85892 9.79644 -0.553677 -0.105081 0.826075
-9.37852 4.46692 9.63466 -0.556053 -0.101119 0.824973
-9.51956 4.54071 9.54865 -0.556053 -0.101119 0.824972
-14.4162 -3.2193 5.78353 -0.517824 -0.0444844 0.85433
-13.9512 -3.87429 6.03179 -0.519238 -0.0436389 0.853515
-13.7915 -4.69741 6.08766 -0.51868 -0.0401922 0.854023
-14.0514 -5.46694 5.8936 -0.51751 -0.0384874 0.854808
-14.5002 -6.09762 5.59541 -0.517589 -0.0375141 0.854806
-15.4011 -6.51598 5.03091 -0.518405 -0.0327544 0.854507
-16.1568 -6.42509 4.57802 -0.516133 -0.0378223 0.855673
-16.8986 -6.09752 4.14362 -0.517664 -0.0375116 0.854761
-17.4488 -5.46234 3.83916 -0.517612 -0.0404386 0.854657
-17.6558 -4.67687 3.7528 -0.515565 -0.0412141 0.855859
-17.5099 -3.92867 3.87705 -0.516065 -0.043429 0.855448
-17.1978 -3.27878 4.09833 -0.515912 -0.0437596 0.855523
-16.3973 -2.82297 4.60558 -0.515806 -0.046216 0.855458
-15.631 -2.69128 5.07515 -0.516777 -0.0453451 0.854918
-14.8234 -2.93135 5.55172 -0.517641 -0.0446531 0.854432
-14.6883 -3.01898 5.62905 -0.517825 -0.0444847 0.854329
-15.2253 -4.35667 5.23499 -0.51657 -0.0399727 0.855311
-16.0909 -4.44139 4.70828 -0.516652 -0.0397296 0.855273
-15.8471 -5.07971 4.82582 -0.516381 -0.0398921 0.855429
-15.1398 -4.6737 5.27179 -0.51657 -0.039973 0.855311
-12.9785 -9.56495 6.39868 -0.520699 -0.0201978 0.853502
-13.5386 -10.4139 6.03888 -0.521911 -0.0180075 0.85281
-13.4973 -11.181 6.04794 -0.521535 -0.0159915 0.853077
-13.0689 -11.7738 6.29984 -0.522167 -0.0128252 0.852745
-12.5555 -12.2455 6.6086 -0.523854 -0.0118734 0.851725
-11.9102 -12.4903 7.00507 -0.527954 -0.00948337 0.84922
-11.2888 -12.3173 7.39442 -0.535235 -0.0020717 0.844685
-10.6663 -11.7797 7.78601 -0.537102 0.00134809 0.843509
-10.2851 -11.1315 8.03746 -0.537188 -0.0160337 0.84331
-10.3829 -10.1794 7.98854 -0.532606 -0.0120212 0.846274
-11.2004 -9.28621 7.49142 -0.526433 -0.0158926 0.850057
-11.9295 -9.10797 7.04776 -0.522803 -0.0167454 0.852289
-12.6459 -9.40345 6.60545 -0.520699 -0.0201971 0.853501
-18.1427 10.5449 4.25335 -0.546963 -0.0417146 0.836109
-17.4599 11.054 4.72694 -0.549089 -0.0397318 0.834819
-16.8987 11.487 5.1213 -0.553183 -0.0405207 0.832073
-16.5781 12.2518 5.37032 -0.556811 -0.0392501 0.829696
-16.5217 13.0458 5.44315 -0.562297 -0.0346583 0.826209
-16.6185 13.7896 5.40846 -0.559843 -0.0346233 0.82787
-17.0275 14.519 5.16249 -0.558116 -0.0327381 0.829116
-17.7138 15.1388 4.72437 -0.554848 -0.0313526 0.831348
-18.3114 15.4035 4.33818 -0.551047 -0.0263827 0.834057
-18.9559 15.4913 3.91474 -0.551688 -0.0254494 0.833663
-19.6113 15.3978 3.48209 -0.546561 -0.0245063 0.837061
-20.2242 14.9838 3.06979 -0.546702 -0.0242436 0.836976
-20.7924 14.1613 2.67712 -0.543139 -0.0264571 0.839226
-20.9733 13.2943 2.53276 -0.540671 -0.0278703 0.840772
-20.9224 12.5071 2.53957 -0.541027 -0.0295316 0.840484
-20.6759 11.75 2.66943 -0.538692 -0.0359226 0.841737
-20.0531 11.219 3.04589 -0.539641 -0.0356141 0.841142
-19.2558 10.6612 3.53508 -0.543612 -0.0371659 0.838512
-18.2362 10.5305 4.19195 -0.543913 -0.0411519 0.838132
-18.383 12.0701 4.16709 -0.548985 -0.0313823 0.835243
-19.0721 12.2377 3.72221 -0.543715 -0.0314012 0.83868
-19.6224 12.9652 3.39269 -0.543715 -0.0314012 0.83868
-19.3817 13.7971 3.57937 -0.54591 -0.028755 0.83735
-18.7303 14.0466 4.01384 -0.550018 -0.0299503 0.834615
-18.1155 13.797 4.40867 -0.550195 -0.0333588 0.834365
-17.7053 13.0842 4.65138 -0.551373 -0.0326011 0.833619
-18.0532 12.3075 4.39279 -0.549364 -0.032006 0.83497
-18.2509 12.1779 4.25796 -0.548986 -0.0313824 0.835242
10.1666 5.17051 10.1076 0.616575 0.0742913 0.783779
9.93431 4.29264 10.3765 0.622227 0.0765676 0.77906
10.0158 3.26662 10.3975 0.631229 0.0651328 0.772832
10.4835 2.6167 10.066 0.631388 0.0568669 0.773379
11.0561 2.06523 9.63283 0.631655 0.0443372 0.773975
11.7393 1.79634 9.09425 0.630578 0.0399904 0.77508
12.8029 1.94483 8.24482 0.620936 0.031024 0.783247
13.4249 2.45399 7.74381 0.608705 0.0279046 0.792906
13.9017 3.13596 7.35427 0.598449 0.0337522 0.80045
14.0914 3.84296 7.18287 0.598093 0.0326089 0.800763
14.0771 4.66203 7.15927 0.593747 0.0419484 0.803548
13.3988 5.67985 7.60358 0.594405 0.0456382 0.80287
12.8179 6.15701 8.00901 0.596752 0.045089 0.801158
11.9889 6.32395 8.6081 0.597604 0.0619246 0.799396
11.3111 6.27085 9.12091 0.602842 0.0685306 0.794906
10.756 6.01963 9.56707 0.613606 0.0763811 0.785894
10.306 5.44467 9.97299 0.615673 0.0720987 0.784697
11.2116 4.48015 9.34809 0.61518 0.0625268 0.785903
11.397 3.54233 9.2679 0.620977 0.0524045 0.782075
12.0083 3.30112 8.8036 0.612595 0.0459975 0.789023
12.7075 3.62871 8.23987 0.611895 0.0386262 0.789979
12.811 4.35042 8.12246 0.60525 0.0445692 0.794787
11.8518 4.89259 8.81897 0.603507 0.0561417 0.795379
11.3728 4.68864 9.20531 0.615214 0.0630441 0.785835
16.3357 8.21466 5.39526 0.563241 0.0444819 0.825095
16.9681 7.32736 5.00277 0.564438 0.0358367 0.824697
17.8376 7.05713 4.42867 0.556822 0.0329332 0.829979
18.659 7.21276 3.87378 0.55473 0.0277488 0.831567
19.3673 7.72764 3.38452 0.554093 0.0275115 0.832
19.8217 8.57062 3.05232 0.54986 0.0330515 0.834602
19.6596 9.55034 3.11833 0.550279 0.0373598 0.834144
19.1323 10.226 3.43476 0.549842 0.039385 0.83434
18.3827 10.6377 3.9098 0.549587 0.0406647 0.834445
17.6154 10.6578 4.41317 0.54882 0.0416054 0.834904
16.9075 10.1799 4.90727 0.552026 0.0437251 0.832679
16.422 9.70879 5.25542 0.556769 0.0473285 0.829311
16.2467 8.6349 5.43332 0.559624 0.0456066 0.827491
16.3168 8.32136 5.40236 0.563241 0.0444814 0.825094
17.4694 8.74248 4.60555 0.553779 0.0427029 0.831565
18.4315 8.5722 3.97319 0.55294 0.0318758 0.832611
17.8822 9.09233 4.3145 0.552024 0.0408178 0.832829
17.5245 8.86153 4.5631 0.553525 0.0404768 0.831848
22.3907 13.293 1.16323 0.544545 0.0345514 0.83802
22.1017 14.2227 1.31237 0.544146 0.034652 0.838275
22.4971 14.9352 1.02893 0.541988 0.0301765 0.839844
22.8012 14.2509 0.856819 0.545219 0.0351475 0.837556
22.7563 13.4786 0.917759 0.544943 0.034451 0.837765
23.2162 -2.4352 1.11759 0.54947 0.000239608 0.835514
23.6172 -3.05245 0.854069 0.548926 -0.00101583 0.835869
23.2625 -3.61574 1.09274 0.552734 0.0102316 0.833295
