2.52598 -8.98956 20.3031 -0.348518 -0.20038 0.912345
2.16876 -9.62425 19.8829 -0.296634 -0.371219 0.879054
2.16876 -9.62425 19.8829 -0.296634 -0.371219 0.879054
1.95598 -10.44 19.5287 -0.26601 -0.270743 0.925168
1.95457 -11.1975 19.5047 -0.28716 0.393675 0.873247
1.90143 -12.0946 19.4072 -0.18396 -0.13965 0.972963
1.77825 -12.92 19.2971 -0.14317 -0.0961773 0.985014
1.82612 -13.7486 19.3776 -0.0972955 0.199231 0.972767
1.73926 -14.4869 19.4095 0.0656747 -0.00741604 0.993134
1.71516 -15.2366 19.5195 0.120851 0.250045 0.960663
1.6373 -16.0975 19.5398 -0.00571669 -0.102761 0.99469
1.66386 -16.8964 19.5692 0.116279 0.0614462 0.991314
1.3015 -17.407 19.5037 -0.075916 -0.0529546 0.993468
0.960947 -16.7824 19.4305 -0.302932 -0.00255846 0.953009
0.961685 -15.9635 19.4178 -0.279433 0.0868224 0.956232
1.08833 -15.1801 19.3621 -0.339194 0.117384 0.933364
1.14746 -14.4148 19.2946 -0.220705 0.125787 0.967195
1.28426 -13.6903 19.2878 -0.324748 0.0248277 0.94545
1.14094 -12.9675 19.1783 -0.311148 -0.00112889 0.950361
1.02783 -12.2038 19.1478 -0.592816 0.0709675 0.802058
0.900469 -11.3796 18.9866 -0.702304 0.0416143 0.71066
0.819074 -10.5059 18.8536 -0.71047 0.0291658 0.703109
1.08686 -9.84552 19.0841 -0.74351 0.103974 0.659887
1.41883 -9.22979 19.3548 -0.677597 0.0456731 0.733998
1.76476 -8.49834 19.6566 -0.697412 -0.0132197 0.716548
1.98609 -7.78723 19.8646 -0.687439 0.0336537 0.725462
2.2217 -6.91151 19.9512 -0.631481 0.0439397 0.774145
2.33715 -6.11282 20.0181 -0.546625 0.0176559 0.831833
2.36817 -5.31671 20.0327 -0.561449 -0.0256656 0.827113
2.67282 -4.57054 20.0914 -0.497813 0.349837 0.787659
3.41586 -4.7489 20.1047 0.681782 0.426122 0.594637
3.57176 -5.39699 19.9928 0.725367 -0.165696 0.668122
3.30543 -6.10365 20.1562 0.736056 -0.116229 0.666867
2.93451 -6.83007 20.1858 0.0568854 -0.0471504 0.997267
2.85888 -7.71837 20.3173 -0.0134432 0.14879 0.988751
2.80126 -8.52988 20.4355 -0.405137 0.0127215 0.914168
2.58086 -8.91907 20.333 -0.425152 -0.00126902 0.892201
3.68294 -8.76667 19.6352 0.681126 -0.241381 0.657842
3.4356 -9.55396 19.5061 0.528968 -0.296556 0.79514
3.25617 -10.3211 19.3393 0.496661 -0.229791 0.832828
3.28584 -11.0639 19.206 0.480926 -0.113864 0.869336
3.29868 -11.8241 19.0586 0.447163 -0.195292 0.872872
3.24517 -12.7108 18.9287 0.467843 -0.0692329 0.8792
3.16777 -13.7243 18.9665 0.479768 0.0225958 0.877104
3.10148 -14.4856 19.0094 0.424382 0.0345442 0.904824
3.0717 -15.2778 19.1426 0.474539 0.162086 0.865169
2.98834 -16.0498 19.2171 0.420178 -0.0262419 0.907062
2.98116 -16.8394 19.2883 0.41209 0.125357 0.901587
3.0892 -17.7621 19.3208 0.385668 -0.0437881 0.921598
3.03642 -18.7717 19.3086 0.429747 -0.0392399 0.902096
2.12417 -18.8312 19.4692 0.0481773 -0.103564 0.993455
1.36966 -18.8523 19.4466 -0.174697 -0.0499232 0.983356
0.633929 -18.9009 19.162 -0.46686 -0.00965015 0.883901
-0.125419 -18.576 18.7016 -0.640635 -0.00776409 0.767806
-0.103192 -17.6517 18.7859 -0.6203 -0.0800393 0.78027
-0.214086 -16.8068 18.7565 -0.677187 -0.0130235 0.735696
-0.241222 -16.0097 18.7285 -0.69993 0.0241494 0.713803
-0.106839 -14.927 18.6336 -0.672869 0.128044 0.728596
-0.00344845 -14.0269 18.57 -0.650575 0.185498 0.736439
0.0221229 -13.1602 18.393 -0.70439 0.124782 0.698112
-0.00806973 -12.4169 18.2126 -0.769163 0.12393 0.625494
-0.119924 -11.3728 17.8374 -0.799671 0.138263 0.584008
-0.224011 -10.5364 17.5153 -0.800159 0.12534 0.586545
-0.0743454 -9.7145 17.5547 -0.802256 0.111199 0.586487
0.326032 -9.08379 17.9935 -0.805471 0.113015 0.581706
0.686027 -8.4898 18.4099 -0.799343 0.0712321 0.596639
1.0561 -7.60827 18.792 -0.789737 0.0632689 0.610174
1.22403 -6.85124 18.9417 -0.793697 0.0345575 0.607331
1.29199 -5.98792 19.0277 -0.808449 0.0117174 0.588449
1.39298 -5.01013 19.1016 -0.822787 0.0155102 0.568138
1.51414 -4.22807 19.1651 -0.623413 0.110025 0.773162
1.85794 -3.47067 19.2016 -0.510523 0.232291 0.82646
2.35137 -2.74251 19.2017 -0.0804803 0.273391 0.95853
2.97144 -3.18889 19.2772 0.515694 0.350012 0.775282
3.84762 -3.81608 18.9984 0.707115 0.396102 0.519912
4.24316 -4.25816 18.4183 0.810238 0.196974 0.552011
4.48827 -5.0589 18.3066 0.865325 0.0667011 0.496721
4.26846 -5.90936 18.8601 0.886703 0.00896608 0.457962
3.99289 -7.04504 19.2977 0.836141 -0.0169301 0.546957
3.81348 -7.98239 19.5011 0.850449 -0.0429283 0.524286
3.6927 -8.71147 19.6317 0.852656 -0.0497233 0.520079
3.68854 -8.74019 19.6357 0.843974 -0.119247 0.518543
4.42245 -8.92028 18.3923 0.856873 -0.0814079 0.50906
4.59453 -7.86319 18.2241 0.862808 -0.0505314 0.502854
4.78443 -6.93487 17.9366 0.871171 -0.013732 0.49063
4.97514 -6.20803 17.5669 0.872827 0.024184 0.487431
5.20894 -5.58028 17.1372 0.863293 0.0375922 0.502552
5.5098 -4.87878 16.5635 0.849014 0.0482051 0.526166
5.79181 -3.89728 16.0559 0.812376 0.0550708 0.580528
5.60051 -3.55655 16.2855 0.804035 0.0604522 0.591501
5.04549 -3.35204 17.0465 0.803567 0.0886117 0.588581
4.58796 -3.03394 17.5858 0.780257 0.171039 0.601389
4.05586 -2.62738 18.1731 0.698059 0.239531 0.662122
3.23699 -1.67181 18.5644 0.5264 0.120194 0.831848
2.77844 -1.06881 18.682 0.322093 0.145843 0.934909
2.4424 -0.343962 18.7583 0.445865 0.0102005 0.895042
2.23224 0.662296 18.845 -0.0205123 -0.00948234 0.999745
2.06989 1.41929 18.8133 0.0418672 0.362036 0.931224
1.89611 2.33127 18.6721 0.222073 0.260575 0.916911
1.99987 3.25082 18.478 0.449059 0.130545 0.883163
2.1075 4.00148 18.3435 0.458943 0.0529139 0.881278
2.20178 4.90877 18.1916 0.526349 0.0633295 0.847907
2.38011 5.77358 18.0016 0.55811 0.126554 0.820059
2.64285 6.64733 17.7091 0.614481 0.0422982 0.787559
2.98732 7.45982 17.2834 0.657373 0.134693 0.741334
3.4111 7.95192 16.8195 0.667971 0.102686 0.737069
3.83489 8.40508 16.3404 0.6956 0.0952964 0.711691
4.28372 8.89162 15.7956 0.730181 0.112697 0.673895
4.40968 9.59578 15.5398 0.725357 0.118587 0.678081
4.22243 10.5506 15.5711 0.725453 0.123363 0.677126
4.16474 11.5005 15.4671 0.732878 0.118536 0.669929
4.145 12.2561 15.3591 0.729755 0.115818 0.673827
4.09386 13.2344 15.2498 0.738927 0.105333 0.665501
3.8221 13.913 15.4449 0.738488 0.105556 0.665952
3.1524 14.6965 16.0634 0.734878 0.0980229 0.671079
2.60127 15.4524 16.5598 0.725914 0.115759 0.677546
2.32772 16.1444 16.7308 0.711879 0.0998931 0.695161
2.12559 16.8988 16.833 0.718063 0.0844214 0.690839
2.058 17.677 16.8091 0.715022 0.0806777 0.694427
1.96175 18.5431 16.8075 0.71365 0.0733719 0.696649
1.76141 19.1957 16.9512 0.72636 0.0426274 0.685992
1.13089 19.6663 17.6049 0.737682 0.0323409 0.674373
0.454274 20.1293 18.1908 0.652328 -0.000468149 0.757937
-0.210569 20.2497 18.7234 0.493322 0.0509989 0.86474
-0.930474 20.2507 19.0603 0.361626 -0.0440762 0.931281
-1.71361 20.2579 19.2722 0.161067 0.0515923 0.984679
-2.69315 20.2272 19.2864 -0.0723654 0.0387317 0.996626
-3.45207 20.1925 19.1705 -0.268478 -0.0153602 0.960731
-4.39754 20.1522 18.7586 -0.442141 0.0295181 0.89646
-5.01353 20.0396 18.305 -0.704561 -0.0116459 0.707806
-4.90364 19.5118 18.3759 -0.586826 -0.0845001 0.805292
-4.17561 19.0735 18.7759 -0.490667 -0.129895 0.861611
-3.58414 18.6754 19.087 -0.466473 -0.0515574 0.87939
-3.01111 18.1593 19.2133 -0.200825 -0.0730602 0.974514
-2.3926 17.5281 19.1953 -0.0450588 -0.0665782 0.993166
-1.97176 16.8361 19.1478 -0.058845 -0.0860723 0.99455
-1.65235 16.0193 19.0002 -0.10168 -0.211341 0.972109
-1.54022 15.0973 18.9576 -0.0194696 0.0590326 0.998066
-1.57341 14.2539 18.9233 -0.140058 -0.165804 0.976162
-1.63 13.4747 18.7827 -0.255342 -0.0779177 0.962363
-1.71971 12.6075 18.6955 -0.306631 -0.22144 0.921926
-1.65138 11.766 18.5881 -0.489876 -0.152941 0.858272
-1.60485 11.0128 18.4995 -0.551177 -0.104529 0.827815
-1.55216 10.2736 18.4026 -0.426021 -0.0671145 0.902221
-1.52049 9.41626 18.3108 -0.541714 -0.124703 0.831261
-1.22091 8.66143 18.3211 -0.307984 -0.0404238 0.950532
-0.927751 7.96111 18.4691 -0.448452 0.0540972 0.891253
-0.610193 7.2745 18.4903 -0.256837 -0.106401 0.96058
-0.354728 6.32067 18.4649 -0.29539 -0.11843 0.947528
-0.303358 5.42199 18.4301 -0.343189 -0.0636282 0.936827
-0.155528 4.63209 18.3823 -0.419409 -0.143572 0.896372
0.190629 3.82748 18.338 -0.363603 -0.293773 0.884019
0.426752 3.06306 18.3247 -0.447922 -0.106362 0.887723
0.61205 2.10977 18.3542 -0.555483 -0.0602396 0.829343
0.841563 1.39311 18.4778 -0.604115 0.102493 0.773913
1.14825 0.509852 18.5389 -0.631873 -0.173353 0.753754
1.27129 -0.256411 18.549 -0.618681 -0.0287309 0.785116
1.25732 -1.05273 18.5152 -0.644879 -0.0257278 0.763852
1.18541 -2.0894 18.3778 -0.704323 0.00919516 0.705458
0.970563 -3.03452 18.2748 -0.755101 0.0536462 0.649681
0.749516 -3.8967 18.0517 -0.812933 0.0823785 0.576502
0.608704 -4.81227 17.9341 -0.836137 0.0440775 0.546747
0.513794 -5.73408 17.8755 -0.829427 0.0513386 0.556121
0.427515 -6.47697 17.8091 -0.822858 0.0559797 0.565483
0.167365 -7.50729 17.5332 -0.82112 0.0661366 0.566837
-0.156892 -8.12419 17.1695 -0.797452 0.080677 0.597965
-0.676557 -8.81378 16.5598 -0.813232 0.0926336 0.57452
-1.03812 -9.39429 16.2259 -0.783976 0.145278 0.603552
-1.34179 -10.0083 15.9657 -0.77469 0.116234 0.621464
-1.21891 -10.862 16.2869 -0.76996 0.116421 0.627323
-1.04124 -11.5312 16.6239 -0.784484 0.122574 0.607914
-0.906697 -12.2232 16.9665 -0.788371 0.159066 0.59428
-0.872193 -13.5033 17.345 -0.799301 0.157932 0.579807
-0.997421 -14.6572 17.4775 -0.802037 0.155325 0.576724
-1.06482 -15.404 17.5703 -0.821281 0.122753 0.557045
-1.15891 -16.1603 17.5713 -0.81674 0.0938911 0.569316
-1.1303 -17.1027 17.6801 -0.803344 0.035095 0.594184
-1.14992 -17.9364 17.6772 -0.801401 0.0167811 0.597892
-1.26463 -18.7971 17.5306 -0.746675 -0.0019463 0.66464
-1.30848 -19.7757 17.4854 -0.780914 -0.00063929 0.624638
-0.904341 -20.1435 17.9624 -0.737606 -0.0121891 0.675121
-0.327795 -20.1948 18.4818 -0.61853 -0.0281248 0.785258
0.47918 -20.3139 19.0875 -0.533418 -0.0418279 0.84048
1.3298 -20.1845 19.3763 -0.123769 -0.0503603 0.991032
2.214 -20.1915 19.407 0.0487117 -0.0227088 0.998555
3.05194 -20.2307 19.223 0.403598 -0.0547234 0.912976
3.71498 -20.1777 18.822 0.635147 0.0252184 0.771979
4.20129 -19.7863 18.3475 0.724887 0.0222007 0.68851
4.36683 -19.0872 18.1678 0.736503 -0.0360683 0.675296
4.2057 -17.8822 18.3527 0.724797 0.0190205 0.688699
4.09292 -17.0487 18.4708 0.748496 0.010468 0.663057
4.10921 -16.1108 18.4014 0.744895 -0.0175108 0.664897
4.20761 -15.2756 18.3542 0.769038 -0.0985943 0.629981
4.30568 -14.5423 18.2557 0.668034 0.118077 0.734703
4.32819 -13.6913 18.1614 0.715215 0.0472557 0.697305
4.43622 -12.7948 18.0198 0.725601 -0.00435586 0.682486
4.44503 -12.0353 17.9892 0.782103 -0.0114867 0.622434
4.37325 -11.2848 18.131 0.793673 -0.0336858 0.607261
4.28472 -10.505 18.3151 0.798223 -0.1016 0.593732
4.35518 -9.50052 18.4128 0.824411 -0.113236 0.551082
4.37437 -9.30389 18.4119 0.856873 -0.0814066 0.50906
5.16643 -9.37042 17.1514 0.847015 -0.0456374 0.529001
5.23521 -8.4844 17.0806 0.855969 -0.0281761 0.516249
5.38437 -7.56222 16.8659 0.865944 -0.00647484 0.5001
5.66009 -6.81146 16.398 0.855969 -0.000621518 0.517027
5.98089 -6.19083 15.875 0.826564 0.0131559 0.562689
6.36109 -5.59038 15.3237 0.812816 -0.00106656 0.582519
6.73956 -4.66641 14.8381 0.782562 -0.0198761 0.622256
7.06346 -3.89308 14.403 0.781328 0.0319022 0.623305
7.35251 -3.10345 14.0296 0.746918 0.021751 0.66456
7.74414 -2.35282 13.5818 0.730874 0.0248238 0.681986
7.68835 -1.79447 13.6114 0.727327 0.0423571 0.684982
7.12835 -1.82111 14.2304 0.750343 0.0402133 0.659819
6.57964 -1.99752 14.8825 0.764105 0.0381286 0.643964
5.93463 -2.11651 15.6838 0.78529 0.0688238 0.615291
5.42401 -2.12177 16.3551 0.794773 0.0866332 0.600352
4.59631 -1.57793 17.3025 0.753035 0.0996396 0.650015
4.0621 -0.814297 17.7689 0.742217 0.114922 0.660229
3.68327 -0.0591547 17.9791 0.676365 0.160835 0.718792
3.42069 0.81761 18.0472 0.682685 0.136062 0.71787
3.22746 1.61276 18.054 0.70485 0.167024 0.689413
3.10116 2.38931 17.896 0.630191 0.194805 0.747666
3.24219 3.13121 17.6638 0.618832 0.11435 0.776974
3.35866 3.84815 17.4626 0.65477 0.134181 0.743822
3.42444 4.73593 17.2641 0.657111 0.0911068 0.748239
3.6304 5.77144 16.9664 0.654367 0.0872043 0.751131
3.90869 6.47075 16.5858 0.72875 0.0843153 0.67957
4.32247 7.14337 16.0318 0.72895 0.109705 0.675712
4.90502 7.47614 15.3559 0.727263 0.109337 0.677588
5.4065 7.72817 14.7749 0.728186 0.107725 0.67686
5.73201 8.49283 14.2984 0.718167 0.119842 0.685474
5.55848 9.39877 14.3453 0.714963 0.0949368 0.692686
5.37782 10.1452 14.4248 0.715353 0.121373 0.688142
5.1411 11.0919 14.4936 0.708836 0.133295 0.692664
5.13087 12.1079 14.3204 0.718749 0.111975 0.686194
5.13721 12.9405 14.1892 0.700961 0.0939865 0.706882
5.05115 14.1669 14.0911 0.696276 0.101221 0.710571
4.60575 14.8453 14.4596 0.722871 0.0947236 0.684459
4.12496 15.3541 14.9017 0.734466 0.0913661 0.672467
3.53278 16.0923 15.4467 0.734313 0.0932627 0.672373
3.15019 16.8527 15.7561 0.731773 0.0939985 0.675025
2.98882 17.9579 15.7888 0.734536 0.0828265 0.673495
3.01237 18.9933 15.6392 0.727648 0.0755996 0.681682
2.88918 19.9936 15.6729 0.727954 0.0658372 0.682458
2.42262 20.4521 16.1402 0.742773 0.0576702 0.667052
1.64681 20.9766 16.9729 0.755866 0.0542482 0.652475
1.18364 21.3765 17.4642 0.737096 0.0468925 0.673872
0.669517 21.6256 17.95 0.657608 0.115352 0.744477
-0.0657903 21.6007 18.5076 0.551211 0.0801612 0.830203
-0.892462 21.5879 18.9495 0.324638 0.110559 0.939354
-1.67987 21.6204 19.2245 0.251195 0.114299 0.958368
-2.43126 21.64 19.2769 -0.023903 0.0305995 0.99789
-3.22646 21.5649 19.1868 -0.234042 0.0630868 0.970178
-4.00206 21.5833 18.886 -0.431034 0.0768656 0.896347
-4.74588 21.5608 18.3854 -0.666078 0.161985 0.728081
-5.38759 21.3987 17.745 -0.723321 0.102097 0.682922
-5.82915 21.1832 17.0999 -0.858 0.02756 0.512911
-6.2462 20.7653 16.4247 -0.849516 0.0221319 0.526819
-6.21442 20.0604 16.4614 -0.876184 -0.0211799 0.48151
-6.08916 19.2952 16.5283 -0.869647 -0.113722 0.480232
-5.75649 18.6028 16.8888 -0.847745 -0.170139 0.502375
-5.27808 18.2544 17.446 -0.79295 -0.253707 0.553952
-4.6981 17.9333 18.0169 -0.701211 -0.267962 0.660681
-4.16856 17.5443 18.3897 -0.686379 -0.303472 0.6609
-3.43353 16.8229 18.6956 -0.536247 -0.253813 0.804996
-3.01394 15.8701 18.654 -0.310291 -0.203118 0.928688
-2.87389 15.1406 18.5415 -0.422869 -0.139171 0.895159
-2.85569 14.3836 18.3871 -0.620262 -0.171886 0.76533
-2.91505 13.5553 18.1528 -0.62595 -0.161675 0.762824
-2.981 12.6637 17.9078 -0.656415 -0.194762 0.727544
-2.82572 11.6269 17.7398 -0.679809 -0.211219 0.702315
-2.71499 10.4528 17.5259 -0.662461 -0.165505 0.729126
-2.74825 9.386 17.2236 -0.700563 -0.145087 0.698198
-2.59701 8.64218 17.2481 -0.720413 -0.150256 0.676202
-2.05791 7.71909 17.5412 -0.693361 -0.18759 0.695745
-1.65888 6.89969 17.7487 -0.692621 -0.16619 0.701562
-1.46984 5.70874 17.6761 -0.670078 -0.149063 0.72717
-1.3615 4.70093 17.5421 -0.736026 -0.266447 0.620284
-1.01843 3.73301 17.4721 -0.714419 -0.284941 0.639073
-0.705877 2.79917 17.4051 -0.701954 -0.271061 0.658086
-0.512318 2.02989 17.3797 -0.700402 -0.192776 0.687222
-0.163892 1.06968 17.4693 -0.697958 -0.18461 0.691934
0.104992 0.351193 17.571 -0.715363 -0.148763 0.682733
0.188048 -0.756556 17.4374 -0.727204 -0.121112 0.675277
0.182783 -1.81415 17.2995 -0.75295 -0.0538038 0.655349
0.06669 -2.86674 17.0777 -0.773061 -0.0531861 0.632013
-0.0612067 -3.57232 16.8501 -0.82989 0.00104164 0.557175
-0.173213 -4.53196 16.7396 -0.82363 0.0489552 0.56479
-0.278911 -5.59684 16.7017 -0.817334 0.0613415 0.572889
-0.440921 -6.47786 16.5441 -0.822866 0.0522174 0.565817
-0.681948 -7.21807 16.306 -0.80727 0.0924407 0.582897
-1.15227 -7.71857 15.7701 -0.790615 0.0862737 0.606205
-1.58776 -8.42003 15.3929 -0.737746 0.112805 0.665556
-2.17518 -8.66023 14.8024 -0.717876 0.0804348 0.691509
-2.95286 -8.47196 13.9929 -0.685849 0.0736713 0.723793
-3.55132 -7.71695 13.3704 -0.659502 0.0434485 0.749513
-3.81317 -6.90871 13.135 -0.641176 0.0300265 0.766669
-4.13203 -6.23107 12.8407 -0.62554 -0.000627448 0.779828
-4.8651 -5.85588 12.2937 -0.585968 -0.0195263 0.810099
-5.35015 -6.34351 11.9349 -0.572542 -0.0174126 0.819687
-5.18191 -7.33688 12.0566 -0.607984 0.0133475 0.79374
-4.67424 -7.85782 12.4648 -0.615495 0.0285617 0.787563
-4.12493 -8.15822 12.9178 -0.625823 0.0369862 0.779088
-3.32062 -8.18375 13.6276 -0.680053 0.0586663 0.730812
-3.42215 -8.84359 13.5861 -0.685849 0.0736713 0.723792
-2.92984 -9.28242 14.1154 -0.691645 0.0886763 0.716773
-2.55995 -9.81745 14.5373 -0.716895 0.0620265 0.693834
-2.3232 -11.0399 14.988 -0.754958 0.0936782 0.649048
-2.09976 -11.6977 15.3173 -0.767238 0.0790119 0.635758
-1.81206 -12.4637 15.8033 -0.784075 0.0974915 0.612961
-1.70553 -13.2091 16.1109 -0.805015 0.137788 0.577032
-1.77593 -14.2111 16.2579 -0.812093 0.137379 0.567016
-1.895 -15.1416 16.3063 -0.800247 0.130703 0.585175
-2.00092 -16.1369 16.3714 -0.8104 0.10107 0.576546
-2.05113 -16.9908 16.4077 -0.797881 0.0623165 0.599585
-2.12297 -18.2942 16.3993 -0.794041 0.0272306 0.607254
-2.3343 -19.1898 16.1631 -0.792898 0.017657 0.60902
-2.3896 -20.0595 16.0896 -0.796912 -0.000854451 0.604095
-2.21916 -20.9795 16.2965 -0.793677 -0.0177538 0.608081
-1.83412 -21.3699 16.7823 -0.784345 -0.0394837 0.618776
-1.1074 -21.57 17.6725 -0.764287 -0.0565967 0.641957
-0.495884 -21.5097 18.2915 -0.650646 -0.0735152 0.755808
0.0845498 -21.5782 18.76 -0.565234 -0.0498342 0.822469
0.743126 -21.6655 19.1531 -0.405464 -0.0300455 0.911025
1.54555 -21.4649 19.3887 -0.103882 -0.0536654 0.993141
2.28866 -21.5666 19.3381 0.142245 -0.0652291 0.98768
3.07236 -21.5887 19.0757 0.437201 -0.0749263 0.894616
3.83036 -21.5781 18.6279 0.548843 -0.0457889 0.834671
4.4409 -21.5071 18.1792 0.704863 -0.0116997 0.709247
4.88858 -21.145 17.5524 0.866468 0.00765343 0.49836
5.19859 -20.6079 17.0505 0.856993 -0.0133201 0.515157
5.33402 -19.7779 16.8467 0.847724 -0.0122657 0.530005
5.30706 -18.9236 16.8711 0.828155 0.0107242 0.560397
5.09897 -18.0042 17.1624 0.821943 0.0111909 0.56946
4.99262 -17.0223 17.3035 0.809443 -0.00426706 0.587182
5.02256 -16.0016 17.2876 0.820998 -0.0194527 0.570498
5.1112 -15 17.1822 0.826359 -0.0138664 0.562973
5.18108 -14.1275 17.0801 0.833146 0.0248338 0.552495
5.3239 -13.125 16.8233 0.822448 0.0140297 0.568562
5.40354 -12.1592 16.6968 0.815495 -0.00252038 0.578624
5.20014 -11.0379 17.0045 0.821196 -0.00376731 0.570633
5.11875 -10.145 17.1509 0.821684 -0.0282218 0.569244
5.15286 -9.61817 17.1421 0.838252 -0.0593326 0.542002
5.90621 -9.90811 15.9765 0.831023 -0.00178096 0.556236
5.98498 -9.01058 15.88 0.831443 -0.025925 0.555005
6.13684 -8.08601 15.6647 0.836092 0.012214 0.548454
6.63389 -7.1888 14.9524 0.815841 0.0207146 0.577905
7.07977 -6.59339 14.4032 0.782159 -0.00517873 0.622865
7.3912 -5.7977 14.0368 0.752707 -0.00209504 0.658352
7.6481 -5.13543 13.7452 0.751556 -0.00384576 0.659653
7.96143 -4.53691 13.4059 0.732033 0.00948789 0.681031
8.35799 -3.71448 12.9726 0.722046 0.00666255 0.691813
8.81272 -2.82213 12.4857 0.707998 0.0111998 0.706125
9.07439 -1.94769 12.2094 0.69303 0.0227271 0.720548
8.96455 -1.08265 12.2847 0.692174 0.0385538 0.720701
8.50578 -0.493398 12.698 0.710502 0.0362536 0.702761
7.80084 -0.227868 13.4004 0.71844 0.047921 0.693936
7.15251 -0.351634 14.0941 0.736059 0.0714885 0.673132
6.37219 -0.548713 14.9859 0.75437 0.064245 0.653298
5.8896 -0.66715 15.5548 0.754377 0.0642678 0.653288
5.2343 -0.546186 16.3536 0.780387 0.0928295 0.618349
4.78734 -0.0374429 16.8041 0.759301 0.115573 0.640394
4.47316 0.811998 16.9919 0.746109 0.13344 0.652315
4.28078 1.85995 16.9348 0.696163 0.190961 0.692019
4.32924 2.70618 16.7187 0.70159 0.126088 0.701337
4.46363 3.45232 16.4526 0.706725 0.105249 0.699575
4.44923 4.39336 16.3183 0.710451 0.110057 0.695088
4.52957 5.14989 16.1183 0.719048 0.0965708 0.688215
4.8597 5.83838 15.6646 0.72259 0.104081 0.68338
5.32301 6.0712 15.1376 0.723822 0.11649 0.680082
5.94686 6.29285 14.4516 0.704464 0.116698 0.700074
6.37615 6.71204 13.9511 0.694627 0.110629 0.710669
6.76387 7.32725 13.4793 0.680197 0.143243 0.718897
6.94006 8.38246 13.1431 0.677424 0.102789 0.728256
6.83614 9.16254 13.1335 0.667496 0.101272 0.737688
6.59943 9.92547 13.25 0.687381 0.0971427 0.719772
6.28863 10.7707 13.4059 0.676912 0.127258 0.72498
6.12472 11.6897 13.4128 0.667415 0.113156 0.736024
6.21759 12.6725 13.1865 0.665097 0.0999076 0.740043
6.22422 13.9553 13.0071 0.664959 0.100222 0.740125
6.16599 14.8182 12.9589 0.658682 0.0824786 0.747875
5.75575 15.5535 13.2441 0.661647 0.0847263 0.744994
5.24721 16.0032 13.6572 0.700635 0.0799657 0.708873
4.69774 16.4666 14.1585 0.709907 0.0856265 0.699071
4.03917 17.1929 14.7674 0.72491 0.0828382 0.683769
4.00497 18.1679 14.6881 0.718359 0.0736488 0.691763
3.96883 19.4067 14.5915 0.722605 0.0748211 0.687183
4.00456 20.1747 14.4705 0.726009 0.0697583 0.684125
3.6032 21.1076 14.8069 0.72549 0.0662174 0.685039
2.80113 21.8516 15.5824 0.730305 0.0689433 0.679582
2.3137 22.1759 16.084 0.741352 0.0836924 0.665877
1.60074 22.6937 16.8137 0.745536 0.0894469 0.660378
0.998326 22.9861 17.4413 0.727914 0.0917991 0.679307
0.392743 23.0833 18.0365 0.666467 0.0238568 0.745153
-0.208881 23.0744 18.5534 0.511511 0.00656712 0.859083
-0.926621 23.0245 18.8911 0.36431 0.0281775 0.930767
-1.69049 23.0696 19.119 0.280641 0.0404848 0.958943
-2.42638 23.0642 19.2711 0.0294605 -0.0609422 0.987112
-3.15853 23.0456 19.1344 -0.304148 0.037142 0.951901
-3.93351 23.0763 18.8005 -0.42106 -0.0148007 0.906912
-4.63722 23.0188 18.4644 -0.557628 -0.040575 0.818172
-5.25106 23.0036 17.7948 -0.804565 -0.0239598 0.590033
-6.03934 22.7017 16.646 -0.843654 0.064591 0.532988
-6.47444 22.1853 16.014 -0.840273 0.030276 0.541297
-6.84045 21.844 15.4763 -0.829204 0.0125839 0.558804
-7.14289 21.1894 15.0319 -0.823205 -0.0395538 0.566365
-7.13949 20.2819 14.9734 -0.829076 -0.0330356 0.558028
-6.9551 19.5216 15.1729 -0.834752 -0.0771807 0.545189
-6.75035 18.8212 15.3571 -0.827568 -0.130653 0.54595
-6.49239 18.0444 15.5622 -0.821945 -0.135778 0.553048
-6.12935 17.4529 15.9144 -0.809299 -0.176528 0.560244
-5.46621 16.9618 16.6743 -0.784626 -0.226174 0.577242
-4.83419 16.634 17.3296 -0.693191 -0.262358 0.671113
-4.13198 15.956 17.764 -0.658005 -0.289909 0.694969
-3.97073 15.0934 17.6459 -0.674945 -0.191826 0.712497
-3.98223 14.2118 17.3772 -0.704993 -0.194551 0.682008
-4.06065 13.5144 17.1026 -0.698756 -0.183453 0.691437
-4.0628 12.5249 16.7941 -0.726996 -0.234269 0.645441
-3.85676 11.8108 16.7933 -0.682974 -0.215164 0.698034
-3.75713 10.8822 16.6157 -0.683768 -0.195679 0.702973
-3.85416 9.82613 16.2039 -0.723695 -0.197014 0.6614
-3.72612 8.82123 16.0472 -0.725058 -0.192626 0.661201
-3.37556 7.98827 16.1994 -0.737581 -0.178743 0.651172
-3.06782 7.27167 16.3384 -0.733932 -0.192377 0.651408
-2.64393 6.74412 16.6669 -0.739627 -0.168018 0.651649
-2.43778 5.82263 16.6495 -0.750719 -0.207023 0.627345
-2.36672 4.71452 16.3635 -0.7343 -0.225681 0.640174
-2.00714 3.52429 16.3327 -0.722417 -0.244291 0.646866
-1.86217 2.59002 16.1679 -0.712854 -0.216772 0.66697
-1.54409 1.5911 16.1871 -0.711496 -0.210876 0.6703
-1.07624 0.737732 16.4061 -0.711724 -0.196265 0.674088
-0.892243 -0.0951719 16.398 -0.723824 -0.162134 0.670664
-0.81703 -1.06918 16.2678 -0.732301 -0.119152 0.670476
-0.801929 -1.96092 16.1452 -0.73552 -0.0772224 0.673087
-0.970982 -2.9805 15.8449 -0.734585 -0.0757519 0.674275
-1.06418 -3.72831 15.6816 -0.72326 -0.0367828 0.689595
-1.10369 -4.49398 15.6017 -0.722239 -0.0153497 0.691218
-1.09377 -5.26885 15.6142 -0.762391 0.00976511 0.644771
-1.42775 -6.24124 15.3045 -0.718931 0.0677823 0.691768
-1.88335 -6.89918 14.9058 -0.707349 0.0854549 0.70168
-2.43735 -6.95074 14.3579 -0.703738 0.0868441 0.705131
-2.78891 -6.42442 13.9892 -0.661214 0.00971935 0.750134
-3.23882 -5.44103 13.5985 -0.647098 -0.0137047 0.762283
-3.8509 -4.77299 13.1083 -0.628231 -0.0158198 0.777866
-4.41201 -4.51078 12.6732 -0.594264 -0.0351798 0.8035
-5.1283 -4.32762 12.1589 -0.582435 -0.0334946 0.812187
-6.13901 -4.77689 11.428 -0.572751 -0.0332361 0.819055
-6.49074 -5.52698 11.1604 -0.569703 -0.0210912 0.821578
-6.66673 -6.3187 11.0185 -0.56765 -0.0198064 0.82303
-6.58065 -7.41389 11.0529 -0.566794 -0.0187225 0.823647
-6.03527 -8.39308 11.4348 -0.598593 -0.0037411 0.801044
-5.33994 -8.98662 11.9702 -0.622383 0.00765058 0.782675
-4.7486 -9.39431 12.4548 -0.637601 0.0191545 0.770128
-4.21675 -9.81952 12.9101 -0.667886 0.0286578 0.74337
-3.63155 -10.5624 13.4983 -0.694598 0.0400557 0.718008
-3.44962 -11.3279 13.7827 -0.727367 0.0828861 0.681224
-3.14075 -12.0691 14.1895 -0.726263 0.0650345 0.684333
-2.71916 -13.0373 14.7938 -0.764193 0.0972854 0.637609
-2.61498 -14.0175 15.1065 -0.743649 0.150864 0.651327
-2.73113 -15.0629 15.1904 -0.763324 0.121499 0.634487
-2.81829 -16.1832 15.2698 -0.779413 0.0888004 0.620185
-2.94038 -17.4755 15.2579 -0.791975 0.05191 0.608068
-3.167 -18.3295 15.036 -0.798043 0.0427947 0.600828
-3.36626 -19.0741 14.8334 -0.766987 0.0317141 0.640878
-3.38579 -20.3814 14.8432 -0.770716 0.000972022 0.637133
-3.31371 -21.3332 14.9216 -0.769248 -0.0157545 0.638743
-2.99916 -22.0077 15.2772 -0.767565 -0.0407915 0.639664
-2.25941 -22.7811 16.122 -0.775543 -0.0491752 0.629189
-1.76653 -22.9444 16.7269 -0.78026 -0.0531216 0.623194
-0.868602 -23.0537 17.8685 -0.789401 -0.0335565 0.61296
-0.192852 -22.9435 18.507 -0.603105 0.0426039 0.796523
0.757189 -23.2407 19.1878 -0.524369 0.0395172 0.849063
1.36636 -22.9608 19.4481 -0.237992 0.0852725 0.967517
2.15705 -23.0592 19.3793 0.369017 -0.0115572 0.929039
3.0179 -22.9822 19.0189 0.424603 0.0134413 0.90528
3.69363 -22.9665 18.6121 0.568832 0.042114 0.821374
4.3308 -22.929 18.0697 0.753905 -0.109964 0.647601
4.8191 -22.7472 17.486 0.823402 -0.139043 0.55016
5.24612 -22.5369 16.8455 0.853222 -0.0940596 0.512138
5.68699 -22.0337 16.2164 0.842991 -0.0628087 0.533505
5.96444 -21.3774 15.8476 0.822166 -0.0409687 0.567759
6.21417 -20.7473 15.5286 0.816036 -0.00731545 0.577954
6.26317 -19.615 15.4698 0.818912 -0.00441743 0.57389
6.19196 -18.6675 15.5784 0.821025 0.00184134 0.570889
5.99866 -17.9631 15.8555 0.825307 0.00367779 0.564673
5.79785 -17.1977 16.1472 0.82634 0.0002318 0.563172
5.87312 -16.1703 16.0452 0.825703 -0.00821215 0.564046
5.85001 -15.3962 16.0885 0.828757 -0.00269821 0.559581
5.92202 -14.6205 15.9881 0.831092 -0.00520096 0.556111
6.08361 -13.6626 15.7374 0.821439 0.00419722 0.570281
6.28521 -12.6386 15.4395 0.821287 0.00455612 0.570497
6.24188 -11.3916 15.4946 0.822233 -0.000103832 0.569135
6.00476 -10.5744 15.8336 0.827495 0.0116956 0.561351
5.92356 -10.2066 15.9496 0.831023 -0.0017806 0.556236
10.7381 2.4655 10.4712 0.646224 0.0536485 0.761251
10.2815 3.04857 10.8211 0.646602 0.0588003 0.760527
10.1554 4.17225 10.8387 0.655904 0.0698305 0.751535
10.3008 5.08018 10.6222 0.648859 0.0747927 0.757224
10.6698 5.80975 10.2492 0.631463 0.0724831 0.772011
11.3599 6.18387 9.65831 0.616569 0.0667935 0.784452
12.017 6.32268 9.1287 0.614994 0.0684166 0.78555
12.7278 6.1683 8.59488 0.607542 0.0590448 0.792058
13.3561 5.80084 8.13635 0.606865 0.0530997 0.793029
13.8127 5.30906 7.81773 0.60434 0.0391868 0.795705
14.2019 4.04829 7.58423 0.598497 0.033347 0.800425
13.835 3.08396 7.9099 0.615965 0.031544 0.787141
13.4775 2.35046 8.22031 0.622367 0.0345134 0.781924
12.7541 2.04792 8.81562 0.626265 0.0294196 0.779055
12.1413 1.83531 9.32631 0.63459 0.034237 0.772089
11.402 2.1323 9.92797 0.648464 0.0409602 0.760138
11.0514 2.25789 10.2219 0.646994 0.0474096 0.760973
11.5335 3.63134 9.72573 0.637099 0.0530959 0.768935
11.2869 4.29461 9.87967 0.636022 0.057978 0.76949
11.6768 4.78865 9.51992 0.629068 0.0579055 0.775137
12.5954 4.67714 8.80085 0.618335 0.0483439 0.784426
12.8321 4.01529 8.65264 0.61995 0.044046 0.783396
12.0993 3.42719 9.27536 0.627802 0.0450194 0.77707
11.705 3.53079 9.58957 0.635639 0.049335 0.7704
16.6809 7.62558 5.62257 0.570048 0.0386738 0.820697
16.3822 8.30363 5.79609 0.569581 0.047678 0.820551
16.4289 9.51399 5.69647 0.558996 0.0460993 0.827888
16.8254 10.1301 5.39476 0.558763 0.0446299 0.828125
17.5748 10.6341 4.86525 0.556409 0.042882 0.829801
18.4586 10.581 4.27943 0.553252 0.0416373 0.831973
19.1226 10.2496 3.85296 0.55441 0.0403253 0.831266
19.6683 9.51618 3.52375 0.554624 0.0382848 0.83122
19.7923 8.76793 3.47302 0.555761 0.0334076 0.83067
19.5227 7.97576 3.6849 0.557502 0.0284966 0.829686
18.8289 7.35654 4.17333 0.558547 0.0289301 0.828968
18.0109 7.13461 4.73471 0.560839 0.0345023 0.827206
17.2988 7.21698 5.21492 0.565298 0.036727 0.824057
16.7666 7.54115 5.56739 0.568191 0.0391687 0.821964
17.6384 8.77046 4.9174 0.560927 0.0394722 0.826913
18.2679 9.05527 4.48056 0.555799 0.0403853 0.830335
18.1786 8.58347 4.56048 0.557183 0.0351761 0.829641
17.7893 8.6308 4.82064 0.560581 0.0363769 0.827296
22.4923 13.2882 1.49628 0.544492 0.0340412 0.838075
22.1077 14.2459 1.70703 0.544278 0.0334338 0.838238
22.6148 15.1346 1.34433 0.542186 0.0293875 0.839743
23.2576 14.8447 0.938548 0.545156 0.029916 0.837801
23.3207 13.7328 0.942354 0.54185 0.0338913 0.839789
23.2064 12.9799 1.04462 0.542716 0.0330041 0.839264
22.7415 13.1172 1.34123 0.544688 0.0339509 0.837951
23.9778 -1.48212 1.02326 0.542513 0.00594587 0.840026
23.1606 -1.80964 1.55613 0.54847 0.00879558 0.836124
22.8501 -2.50572 1.7672 0.549001 0.00930886 0.835769
22.9904 -3.43217 1.68551 0.549472 0.0095824 0.835457
23.4173 -4.09408 1.4124 0.549146 0.0100606 0.835666
24.1915 -3.93743 0.897164 0.56239 0.00564308 0.826768
24.2084 -2.87351 0.878386 0.548037 0.00309009 0.836449
24.0156 -2.05465 1.00291 0.542513 0.00594587 0.840026
3.18061 9.87535 16.7846 0.713956 0.107172 0.691852
3.1932 10.7585 16.6438 0.722328 0.0913533 0.68549
3.10298 11.8584 16.5847 0.719902 0.101344 0.686637
3.08094 12.6673 16.4756 0.743917 0.113826 0.658505
2.78293 13.3356 16.6965 0.743798 0.106512 0.659863
2.36524 13.86 17.0781 0.739672 0.111498 0.663666
1.89388 14.5325 17.4492 0.703007 0.109825 0.702652
1.52675 15.1929 17.7133 0.665015 0.114531 0.736237
1.20948 15.9964 17.8532 0.668535 0.137382 0.730881
1.06391 16.7356 17.8828 0.680317 0.0636452 0.730149
0.851424 17.9309 17.9604 0.658539 0.0612256 0.750051
0.328478 18.5353 18.3234 0.605315 0.0222581 0.795001
-0.413735 18.8268 18.8309 0.51968 -0.0176423 0.8535
-1.07864 18.8689 19.1821 0.418427 -0.0597141 0.906285
-1.38439 18.5011 19.2509 0.186752 -0.0891775 0.978351
-0.924859 17.6945 19.0345 0.393304 -0.0746274 0.916375
-0.592479 17.0115 18.9206 0.392845 0.039856 0.918741
-0.266885 16.1135 18.7764 0.327739 0.0166243 0.942548
-0.157508 15.3262 18.7789 0.355275 0.00233607 0.934759
-0.171198 14.4332 18.8021 0.325967 0.0274109 0.944984
-0.218773 13.6424 18.8325 0.196943 -0.0084976 0.980378
-0.302252 12.8836 18.8018 0.188908 -0.105605 0.9763
-0.311673 11.9426 18.7906 0.0969931 -0.0523151 0.993321
-0.293862 11.15 18.7268 0.0856061 -0.0349661 0.994687
-0.24146 10.354 18.7091 -0.100517 -0.127088 0.986785
0.0527987 9.25663 18.6144 0.0160064 -0.0992764 0.987276
0.361253 8.50246 18.6581 -0.12765 0.0254468 0.991446
0.689122 7.70196 18.6535 0.113118 0.0864946 0.98981
0.918485 6.96254 18.6997 0.230362 0.168447 0.957087
1.08234 6.22931 18.7048 0.18378 -0.0601195 0.980719
1.24051 6.51031 18.6845 0.31096 0.0369533 0.937393
1.66904 7.51211 18.3168 0.385477 0.151089 0.910264
2.0945 8.39588 17.9343 0.642887 0.0756858 0.762212
2.57007 9.05324 17.4388 0.669949 0.0865057 0.737248
3.0806 9.64854 16.9184 0.689081 0.0864378 0.718763
2.0129 10.6847 17.8282 0.6905 0.0759838 0.718616
2.08814 11.5836 17.6655 0.714444 0.0632935 0.696824
2.0257 12.4189 17.6316 0.710265 0.0864873 0.698601
1.64368 13.0468 17.933 0.703533 0.101311 0.70334
1.05386 13.2903 18.3207 0.533944 0.0568827 0.842881
0.981899 12.4003 18.4231 0.437027 0.0839508 0.895522
1.03154 11.5389 18.4753 0.34028 0.0628659 0.93822
1.07018 10.7764 18.4748 0.416148 -0.033899 0.907788
1.2148 10.0153 18.4025 0.545885 -0.00501619 0.837845
1.76638 10.2963 18.0349 0.581535 0.0404164 0.812517
1.96776 10.6108 17.8751 0.631705 0.0438493 0.771228
-7.01385 11.5565 13.3425 -0.690264 -0.153339 0.707088
-7.11236 12.3556 13.416 -0.7089 -0.175393 0.683153
-7.70048 13.3477 13.0413 -0.699864 -0.147804 0.69848
-8.24679 13.7307 12.5925 -0.69882 -0.117101 0.705648
-9.14583 13.7132 11.7134 -0.686918 -0.114446 0.717667
-9.67437 13.3372 11.1752 -0.66725 -0.0891802 0.739326
-10.0846 12.8529 10.7626 -0.647202 -0.0790315 0.758211
-10.3919 12.2575 10.4299 -0.637883 -0.0951342 0.764121
-10.3661 11.4486 10.361 -0.629119 -0.0906782 0.771982
-9.7772 10.3921 10.7079 -0.63196 -0.0961267 0.768988
-9.21969 10.0372 11.1168 -0.632267 -0.115448 0.766101
-8.40228 9.84635 11.756 -0.640533 -0.124282 0.757751
-7.62986 10.143 12.4692 -0.652203 -0.132245 0.746314
-7.22989 10.746 12.9572 -0.68209 -0.135734 0.71856
-7.01757 11.4026 13.3043 -0.686795 -0.159059 0.709234
-8.11376 11.782 12.3388 -0.666868 -0.139475 0.731878
-8.66562 11.265 11.7637 -0.651261 -0.132507 0.747195
-9.13058 11.634 11.4195 -0.65171 -0.109017 0.750526
-8.27383 12.0994 12.2509 -0.671802 -0.13198 0.728676
-8.14409 12.0078 12.3571 -0.678301 -0.142896 0.7207
-9.93544 6.05225 10.0129 -0.585814 -0.105884 0.803493
-10.9306 5.90036 9.28148 -0.578884 -0.100499 0.809193
-11.6039 5.61366 8.77602 -0.565559 -0.0884652 0.819926
-12.1335 4.97686 8.34751 -0.565994 -0.0825942 0.820262
-12.4785 4.37824 8.05737 -0.555557 -0.0811566 0.827508
-12.5787 3.46098 7.90176 -0.554703 -0.0773649 0.828444
-12.3416 2.53475 7.9693 -0.549208 -0.0805725 0.831781
-11.8169 1.78765 8.24229 -0.548292 -0.0812286 0.832333
-11.1056 1.28192 8.66149 -0.546045 -0.0814889 0.833783
-10.4683 1.00792 9.05207 -0.546109 -0.0812484 0.833765
-9.83971 0.955815 9.45709 -0.545321 -0.0906183 0.833315
-9.07062 1.21635 9.99266 -0.549668 -0.0927107 0.830223
-8.5403 1.58631 10.3852 -0.554757 -0.104925 0.82535
-8.03561 2.17292 10.8036 -0.561463 -0.113183 0.819682
-7.77086 3.00747 11.1161 -0.575975 -0.129626 0.80709
-7.86229 3.94544 11.202 -0.579938 -0.125731 0.8049
-8.17606 4.67287 11.0898 -0.584976 -0.128235 0.800813
-8.83932 5.40647 10.7197 -0.581499 -0.121691 0.804394
-9.56426 5.83425 10.2529 -0.583867 -0.108235 0.804602
-9.93488 6.05177 10.0132 -0.583886 -0.108213 0.804591
-10.017 4.64069 9.77315 -0.567927 -0.102559 0.816664
-10.617 4.55635 9.34367 -0.567551 -0.0922076 0.818155
-11.1354 4.16557 8.94196 -0.563717 -0.0886466 0.821188
-11.3244 3.45792 8.74188 -0.555791 -0.0854181 0.826922
-10.7352 2.70696 9.05862 -0.552513 -0.0906288 0.828547
-10.1405 2.39312 9.4163 -0.553322 -0.096704 0.827306
-9.23703 3.0056 10.1029 -0.554625 -0.10331 0.825649
-9.05941 3.79416 10.3296 -0.569724 -0.107757 0.814741
-9.68294 4.53287 9.99189 -0.567928 -0.102559 0.816664
-14.5422 -3.13657 6.14568 -0.523449 -0.0450705 0.850864
-13.9208 -3.97302 6.48421 -0.525048 -0.0449119 0.849887
-13.9514 -5.07077 6.4096 -0.524799 -0.0409289 0.850242
-14.2568 -5.77238 6.18737 -0.523219 -0.0401073 0.851252
-15.0224 -6.41905 5.68891 -0.522413 -0.0391222 0.851794
-15.9686 -6.42478 5.10614 -0.522517 -0.0332515 0.851979
-16.6522 -6.27799 4.6964 -0.519981 -0.0394655 0.853265
-17.197 -5.75311 4.38827 -0.520302 -0.0402537 0.853033
-17.606 -4.70162 4.1906 -0.518109 -0.0430032 0.854233
-17.4373 -3.88466 4.33448 -0.518486 -0.0445758 0.853923
-16.9856 -3.12121 4.64958 -0.519125 -0.0475895 0.853373
-16.3322 -2.80805 5.06505 -0.52048 -0.0476887 0.852541
-15.6253 -2.69273 5.50376 -0.522439 -0.0454318 0.851465
-14.9236 -2.87604 5.92481 -0.523106 -0.0453599 0.85106
-14.8145 -2.95236 5.98789 -0.523449 -0.0450706 0.850864
-15.3368 -4.26495 5.59659 -0.522473 -0.0457009 0.85143
-15.6879 -5.12515 5.34002 -0.521384 -0.0409407 0.852339
-16.0188 -4.19005 5.18273 -0.520372 -0.0427458 0.852868
-15.7609 -4.06927 5.34682 -0.522321 -0.0458664 0.851514
-12.5956 -9.41554 7.08441 -0.531826 -0.0219133 0.84657
-13.1877 -10.05 6.69822 -0.527343 -0.0241935 0.849308
-13.4786 -10.7667 6.50191 -0.527384 -0.0164025 0.849469
-13.198 -11.664 6.65931 -0.526596 -0.013351 0.850011
-12.6401 -12.1243 7.00189 -0.530604 -0.0109201 0.84755
-12.0305 -12.3776 7.38359 -0.535691 -0.00666467 0.844388
-11.2679 -12.2042 7.87187 -0.544911 0.0057534 0.838474
-10.6887 -11.6946 8.25211 -0.555476 -0.00243736 0.831529
-10.3606 -10.8638 8.48054 -0.547037 -0.0223102 0.836811
-10.6409 -10.0893 8.31351 -0.54606 -0.0109685 0.837674
-11.172 -9.53055 7.98099 -0.537647 -0.018556 0.842966
-12.0071 -9.30188 7.45789 -0.532576 -0.0224245 0.846085
-12.0564 -9.30628 7.42672 -0.532576 -0.0224244 0.846085
-18.3785 10.4936 4.5295 -0.553783 -0.0428208 0.831558
-19.1546 10.6351 4.02459 -0.549503 -0.0389063 0.834585
-19.908 11.0158 3.54797 -0.547821 -0.0396823 0.835654
-20.4654 11.4966 3.20703 -0.543327 -0.0370941 0.838701
-20.9085 12.1793 2.94711 -0.544522 -0.0320598 0.838133
-21.0812 12.9434 2.86192 -0.544651 -0.0291205 0.838157
-21.018 13.8294 2.93246 -0.545547 -0.0258496 0.837679
-20.8165 14.5273 3.08575 -0.546994 -0.0232571 0.836814
-20.2907 15.0162 3.44401 -0.551494 -0.0243391 0.833824
-19.7027 15.3144 3.84151 -0.550981 -0.0234259 0.834189
-18.8543 15.4624 4.40814 -0.554355 -0.0234183 0.831948
-18.1749 15.3774 4.86036 -0.557134 -0.0248585 0.830049
-17.6113 14.9548 5.22955 -0.56061 -0.0258721 0.827667
-17.1414 14.3796 5.52662 -0.559681 -0.0295081 0.828183
-16.8545 13.6735 5.6972 -0.567705 -0.0332246 0.822561
-16.7257 12.8224 5.75157 -0.566228 -0.0356305 0.823473
-16.8887 11.8737 5.59451 -0.56093 -0.0397393 0.826909
-17.3995 11.1596 5.21671 -0.557242 -0.0435102 0.829209
-18.1357 10.6899 4.70069 -0.553276 -0.0413562 0.831971
-18.587 12.1104 4.46862 -0.553382 -0.0338675 0.832239
-18.0232 12.6872 4.86769 -0.556672 -0.0340006 0.830032
-18.0541 13.4646 4.87926 -0.555335 -0.033322 0.830958
-18.6726 13.9997 4.48462 -0.554623 -0.0282616 0.83162
-19.3277 13.9143 4.0459 -0.552124 -0.0263796 0.83334
-19.7472 13.2213 3.74462 -0.550716 -0.0312836 0.834103
-19.5022 12.4201 3.87427 -0.549643 -0.03302 0.834747
