0.776463 -14.423 21.1397 0.323425 0.112729 -0.921107
1.02089 -13.6247 21.0531 0.26158 -0.0533232 -0.96026
1.02089 -13.6247 21.0531 0.26158 -0.0533232 -0.96026
1.51026 -13.6656 21.1541 0.133211 0.00876725 -0.991049
2.24601 -14.0376 21.1573 -0.134659 -0.0480379 -0.989727
2.91032 -14.3519 21.0696 -0.213095 -0.150548 -0.965363
2.98796 -15.306 21.0745 -0.336851 -0.0233069 -0.941171
3.0976 -16.1421 21.0635 -0.324534 -0.0096277 -0.945825
3.20764 -17.1392 21.039 -0.270119 -0.0211848 -0.962545
3.22016 -17.9236 21.0365 -0.321406 0.0106622 -0.946881
3.20088 -18.6745 21.0248 -0.295818 0.000724264 -0.955244
3.12796 -19.5331 21.0294 -0.256057 0.0399619 -0.964899
2.65978 -19.9285 21.1245 -0.149281 -0.0394968 -0.987263
1.80589 -19.8638 21.193 0.010802 -0.0139159 -0.999845
0.948038 -19.9813 21.094 0.193065 -0.0173922 -0.980854
0.427496 -19.6032 20.9589 0.309492 -0.0182334 -0.950723
0.0161554 -18.9247 20.8216 0.334416 0.00403886 -0.942264
0.285375 -18.2527 20.9345 0.28893 0.048555 -0.956101
0.544241 -17.3983 21.0439 0.311385 0.012765 -0.950198
0.539898 -16.6374 21.074 0.371836 0.0446246 -0.927225
0.570133 -15.8144 21.0952 0.381004 -0.0467985 -0.923388
0.713812 -14.8952 21.1065 0.305878 -0.00535535 -0.951816
0.779984 -14.4527 21.1313 0.267739 0.138138 -0.941158
-0.0607167 6.44915 20.7729 0.206202 0.0172762 -0.978357
0.00602951 7.17994 20.7812 0.14662 -0.00156916 -0.989131
0.0213494 7.97567 20.7781 0.0985435 0.00205233 -0.995058
-0.0424862 8.72483 20.77 0.0651841 -0.00380276 -0.99781
-0.0372829 9.42 20.7672 0.0281833 -0.0100945 -0.999458
-0.0482663 10.2905 20.7561 -0.019162 -0.00723224 -0.99979
-0.0514133 11.0806 20.7469 -0.0433644 -0.0153591 -0.998941
-0.138677 11.8986 20.7427 -0.0736076 -0.00221216 -0.997213
-0.0663976 12.6392 20.7274 -0.103262 -0.0137956 -0.994558
-0.142233 13.412 20.7241 -0.14202 -0.0112106 -0.989739
-0.275377 14.2225 20.7298 -0.16646 -0.023198 -0.985775
-0.45288 13.87 20.7633 -0.155933 -0.00586882 -0.98775
-0.477158 13.0907 20.7721 -0.121766 -0.00849021 -0.992456
-0.477237 12.341 20.7714 -0.0976109 0.00499133 -0.995212
-0.418507 11.5309 20.7658 -0.0646415 -0.00386817 -0.997867
-0.422126 10.7894 20.7632 -0.0263768 0.00203769 -0.99965
-0.385706 9.99236 20.7592 -0.00616096 0.010206 -0.999929
-0.356723 9.37377 20.7568 0.0429058 0.00832675 -0.998971
-0.389696 8.60321 20.744 0.0641512 0.00809016 -0.997826
-0.34579 7.83672 20.7384 0.1026 0.0133449 -0.994633
-0.304548 6.95917 20.7328 0.14265 0.0100101 -0.989723
-0.0751409 6.51849 20.771 0.206201 0.0172794 -0.978357
-1.12381 18.1943 20.9155 -0.257251 0.0101706 -0.966222
-1.76299 18.7523 21.0307 -0.149838 -0.0302442 -0.98823
-2.26468 19.3216 21.098 -0.0945211 0.00468713 -0.995512
-2.9922 19.8223 21.1054 0.0918437 0.0307869 -0.995297
-3.76639 19.8864 20.9938 0.202507 0.0102521 -0.978474
-3.70549 20.3108 21.0067 0.234285 0.0304495 -0.971056
-2.94763 20.2664 21.1261 0.0860006 0.0424962 -0.995388
-2.15216 20.3007 21.1135 -0.0960846 0.0469143 -0.993733
-1.2487 20.2782 20.965 -0.206126 0.035818 -0.97764
-1.02783 19.543 20.8867 -0.218796 0.0351561 -0.974926
