61.3887 14.3421 54.502 -0.311905 -0.0320858 -0.94957
61.3407 13.5251 54.5323 -0.307375 0.00378319 -0.951568
61.3407 13.5251 54.5323 -0.307375 0.00378319 -0.951568
61.2889 12.6674 54.5731 -0.352368 -0.0180762 -0.935687
60.7236 13.2388 54.7298 -0.272527 -0.0110208 -0.962085
60.244 13.9551 54.8242 -0.218903 -0.0189883 -0.975435
59.7446 14.7159 54.8791 -0.125542 -0.0397261 -0.991293
60.1718 15.077 54.7901 -0.19032 -0.0720423 -0.979075
60.9982 15.3555 54.5887 -0.222017 -0.0331758 -0.974478
61.3585 14.8327 54.4942 -0.309561 -0.0338266 -0.950278
61.3871 14.488 54.4979 -0.312974 -0.0200258 -0.94949
62.7443 14.2414 53.9526 -0.402856 -0.0133474 -0.915166
62.7527 15.4528 53.9201 -0.387098 -0.0259985 -0.921672
62.5838 16.4985 53.9646 -0.388871 -0.0195142 -0.921086
62.435 17.2605 54.0187 -0.380359 -0.00112456 -0.924832
62.3657 18.19 54.0495 -0.38515 -0.00563967 -0.922795
62.2071 18.9742 54.1009 -0.385938 -0.0206141 -0.922294
61.485 19.6992 54.3378 -0.322349 -0.0723138 -0.943487
61.1634 19.11 54.4664 -0.286085 -0.056239 -0.9565
61.2061 18.3506 54.4876 -0.307099 0.00373111 -0.951618
61.1873 17.5764 54.4869 -0.327562 -0.00490922 -0.944817
60.7894 16.7895 54.6204 -0.326243 0.0100128 -0.944414
60.091 16.5046 54.7555 -0.12033 -0.00151104 -0.992227
59.3268 16.3742 54.848 -0.0927265 -0.0177789 -0.995533
58.4348 16.474 54.9207 -0.0886962 -0.0639015 -0.994007
57.5825 16.3279 55.0083 -0.10949 -0.0692849 -0.991455
56.7482 16.4748 55.1176 -0.189093 -0.0862621 -0.978163
56.1522 16.9823 55.2313 -0.234816 -0.0151905 -0.971921
55.5154 17.5305 55.4076 -0.241172 0.0446118 -0.969337
54.5493 17.6064 55.657 -0.251644 0.0686271 -0.965254
53.6926 17.736 55.8919 -0.228095 0.0894537 -0.969521
52.8302 17.7662 56.1025 -0.233037 0.108644 -0.96638
52.0238 17.6497 56.2905 -0.244331 0.120682 -0.962115
51.4261 17.7894 56.457 -0.241055 0.127236 -0.962134
50.652 17.5759 56.6235 -0.240507 0.12751 -0.962234
49.9755 17.5664 56.7904 -0.243555 0.131695 -0.960902
50.6213 17.5209 56.6239 -0.238623 0.12733 -0.962728
51.3652 17.53 56.4381 -0.240051 0.12652 -0.96248
52.1389 17.1949 56.2018 -0.230105 0.123451 -0.965242
52.951 17.1821 56.0075 -0.233143 0.109057 -0.966308
53.6907 16.9341 55.8123 -0.217185 0.105687 -0.970392
54.3971 17.1155 55.6618 -0.251636 0.0686292 -0.965255
54.8645 16.3614 55.5235 -0.246144 0.00490833 -0.969221
55.1867 15.6346 55.4171 -0.176537 0.0342364 -0.983698
55.1543 14.7628 55.3925 -0.158128 0.0294073 -0.986792
55.1499 13.9885 55.3748 -0.128876 0.0239951 -0.99137
55.0838 13.2283 55.3615 -0.0908807 0.00782758 -0.995831
55.1654 12.4582 55.3482 -0.0885377 0.0090573 -0.99603
55.0819 11.6004 55.3466 -0.0847474 0.0203287 -0.996128
55.0639 10.4185 55.3599 -0.0523377 -0.0126205 -0.99855
55.1985 9.57536 55.3333 -0.0257157 0.00960904 -0.999233
55.2353 8.69821 55.3448 -0.00935473 -0.00836879 -0.999907
55.0843 7.92611 55.3485 -0.000555047 -0.0104127 -0.999887
55.1161 7.10956 55.3614 0.0144114 -0.0122169 -0.999822
55.1906 6.111 55.3752 0.00878349 -0.00572692 -0.999901
55.3179 5.10056 55.4038 0.0221489 -0.0256509 -0.999426
55.0952 4.29114 55.4226 0.00688534 -0.0281544 -0.999528
55.3909 3.38703 55.4589 0.0135322 -0.0392759 -0.99913
55.3106 2.48602 55.5012 0.0281361 -0.0441902 -0.998604
55.3822 1.67381 55.5382 0.023659 -0.0453202 -0.998692
55.1859 0.961903 55.5741 -0.00899593 -0.0516206 -0.998596
55.1016 0.0354702 55.6166 -0.0124903 -0.0447137 -0.998922
55.3158 -0.872219 55.6571 -0.0160402 -0.0471736 -0.998758
55.3673 -1.86183 55.7032 -0.0237208 -0.0369119 -0.998949
55.4966 -2.59586 55.7207 -0.0196286 -0.0554986 -0.998199
55.3349 -3.55198 55.784 -0.0392381 -0.0603793 -0.997382
55.6085 -4.56522 55.8253 -0.0440776 -0.051672 -0.997691
55.5313 -5.30742 55.8659 -0.0441539 -0.0491323 -0.997816
55.3549 -6.26788 55.9236 -0.0527598 -0.053053 -0.997197
55.2989 -7.25669 55.9784 -0.0740871 -0.0547774 -0.995746
55.2119 -8.15399 56.0344 -0.0739364 -0.0558749 -0.995689
54.5304 -8.63223 56.1177 -0.0833567 -0.0573215 -0.99487
53.5623 -8.69176 56.2023 -0.0870555 -0.0603303 -0.994363
52.6421 -8.73716 56.288 -0.0890629 -0.0677732 -0.993718
52.5702 -9.37842 56.3366 -0.0912036 -0.064704 -0.993728
53.1643 -10.0123 56.3226 -0.0907534 -0.0599028 -0.994065
53.7732 -10.5327 56.2969 -0.0915863 -0.0560032 -0.994221
54.483 -11.0771 56.2607 -0.0948297 -0.0543357 -0.99401
55.2221 -10.8332 56.1764 -0.0959203 -0.0545235 -0.993895
55.98 -10.4233 56.0845 -0.0902334 -0.0451574 -0.994896
56.117 -9.71124 56.0423 -0.0889342 -0.0430122 -0.995104
56.3253 -8.94117 55.9886 -0.0817667 -0.0458183 -0.995597
56.2359 -8.03394 55.9529 -0.080224 -0.0482701 -0.995607
56.32 -7.2011 55.9105 -0.0556106 -0.0405444 -0.997629
56.2634 -6.45548 55.8827 -0.0538931 -0.0406918 -0.997717
56.2819 -5.63994 55.8431 -0.051333 -0.0469104 -0.997573
56.3757 -4.89462 55.8093 -0.0359164 -0.0307038 -0.998883
56.2912 -3.87442 55.7694 -0.0212084 -0.0409628 -0.998922
56.3229 -3.01035 55.7362 -0.0160231 -0.0420989 -0.998985
56.299 -2.13463 55.6988 -0.00305945 -0.0326507 -0.999453
56.1966 -1.28563 55.6711 -0.00396797 -0.0409111 -0.999155
56.2027 -0.421908 55.6327 0.00520118 -0.0413738 -0.99913
56.2969 0.662077 55.5942 0.0142479 -0.0376985 -0.999183
56.3005 1.53981 55.5634 0.0156096 -0.0354134 -0.999251
56.282 2.32837 55.5325 0.0261087 -0.0377311 -0.998947
56.3708 3.26223 55.499 0.0379243 -0.0348864 -0.998671
56.3715 4.07491 55.4709 0.0346686 -0.0352624 -0.998777
56.3765 4.86992 55.4404 0.0379516 -0.0390489 -0.998509
56.2653 5.76303 55.4147 0.0291147 -0.0291613 -0.999142
56.2573 6.69129 55.3854 0.0255112 -0.0284213 -0.99927
56.3327 7.53694 55.3669 0.0208662 -0.025229 -0.99946
56.3287 8.47266 55.3458 0.00232165 -0.0226727 -0.999737
56.3707 9.3444 55.328 -0.00877889 -0.0175565 -0.99979
56.3463 10.2123 55.3019 -0.0239881 -0.048684 -0.998526
56.2829 10.9756 55.2864 -0.0460617 -0.0179484 -0.998727
56.3193 11.8757 55.2657 -0.0555071 -0.0258873 -0.998121
56.3564 12.8961 55.2384 -0.088195 -0.00939664 -0.995978
56.3409 13.8049 55.237 -0.100291 -0.000824858 -0.994958
56.7108 14.6333 55.1889 -0.126115 -0.0112631 -0.991866
57.4274 14.7685 55.1084 -0.0975354 -0.0381814 -0.994448
58.1022 14.277 55.0723 -0.0863736 -0.0473935 -0.995125
58.6288 13.6732 55.0471 -0.092189 -0.0488147 -0.994469
59.0932 13.0629 55.0298 -0.125059 -0.0742849 -0.989342
59.5888 12.3357 55.012 -0.144233 -0.0452369 -0.988509
60.109 11.7277 54.9605 -0.262544 -0.117978 -0.95768
60.702 11.0679 54.8789 -0.267031 -0.149057 -0.951534
61.1613 10.4378 54.8187 -0.381631 -0.151585 -0.91078
61.4144 9.74505 54.7689 -0.438552 -0.052675 -0.89716
61.4892 8.98296 54.7752 -0.433523 -0.0451406 -0.90001
61.4892 8.21906 54.815 -0.430792 -0.0489697 -0.901122
61.4601 7.25376 54.8663 -0.426061 -0.0331737 -0.904085
61.4646 6.45371 54.897 -0.421582 -0.0428542 -0.905772
61.47 5.62297 54.9299 -0.415956 -0.0378863 -0.908594
61.514 4.71476 54.9514 -0.414895 -0.0465694 -0.908677
61.4693 3.83849 55.0176 -0.400989 -0.0456307 -0.914946
61.4444 3.06899 55.0612 -0.402201 -0.043824 -0.91448
61.5189 2.26253 55.075 -0.395007 -0.0544756 -0.916993
61.5429 1.41708 55.109 -0.387079 -0.0513 -0.920618
61.5245 0.624611 55.1467 -0.376563 -0.0171265 -0.926233
61.5848 -0.112352 55.1358 -0.382396 -0.0348353 -0.923342
61.5218 -0.884085 55.1905 -0.381736 -0.0343848 -0.923631
61.6106 -1.75009 55.1888 -0.374967 -0.055306 -0.925387
61.6103 -2.5063 55.2235 -0.392452 -0.0434498 -0.918726
61.5879 -3.34517 55.2736 -0.37969 -0.0575173 -0.923324
61.5651 -4.31601 55.3125 -0.370024 -0.00984991 -0.92897
61.528 -5.18896 55.3478 -0.378308 -0.0318096 -0.92513
61.6465 -6.0779 55.3319 -0.377012 -0.0357075 -0.92552
61.6308 -6.97764 55.3639 -0.380333 -0.0268512 -0.924458
61.6387 -7.7122 55.388 -0.381102 -0.0407718 -0.923634
61.649 -8.65963 55.4224 -0.376184 -0.0345837 -0.925899
61.5906 -9.68287 55.4923 -0.383151 -0.0369986 -0.922944
61.599 -10.4882 55.5228 -0.378929 -0.0481755 -0.924171
61.5527 -11.2611 55.5738 -0.371972 -0.0423561 -0.927277
61.5659 -12.038 55.5966 -0.372581 -0.0284445 -0.927563
61.69 -12.9945 55.5729 -0.376776 -0.0142451 -0.926145
61.6062 -13.8043 55.6186 -0.373163 -0.0170179 -0.927585
61.6101 -14.7906 55.631 -0.377863 -0.0165252 -0.925714
61.614 -15.745 55.6477 -0.377826 -0.019299 -0.925676
61.707 -16.5719 55.6192 -0.374325 0.00379052 -0.92729
61.7381 -17.4784 55.6174 -0.346215 0.0028073 -0.938151
61.6139 -18.3428 55.6765 -0.301999 0.00277404 -0.953304
62.088 -18.4103 55.4922 -0.368798 -0.00334381 -0.929486
62.498 -17.7834 55.3296 -0.379996 -0.00255755 -0.924962
62.681 -16.8357 55.2349 -0.381129 -0.0224347 -0.924249
62.6012 -15.8634 55.2458 -0.380162 -0.0201288 -0.924701
62.6275 -15.0776 55.2189 -0.380881 -0.0176026 -0.924454
62.355 -14.3889 55.317 -0.383307 -0.0152778 -0.923484
62.5416 -13.5526 55.2277 -0.385853 -0.0169724 -0.922404
62.7818 -12.7025 55.1115 -0.39144 -0.0201558 -0.919957
62.6805 -11.9586 55.1335 -0.397273 -0.0274998 -0.917288
62.6965 -11.1709 55.1047 -0.392002 -0.0306156 -0.919373
62.4407 -9.94691 55.15 -0.387187 -0.0473943 -0.920782
62.5921 -9.1373 55.0509 -0.390738 -0.0393249 -0.919661
62.6003 -8.25209 55.0074 -0.39468 -0.0389674 -0.917992
62.6708 -7.1853 54.9333 -0.395228 -0.0302359 -0.918068
62.7317 -6.42039 54.8861 -0.397192 -0.0250202 -0.917394
62.7382 -5.56797 54.8562 -0.401149 -0.027654 -0.915595
62.7427 -4.67239 54.8269 -0.403778 -0.0223534 -0.914558
62.8046 -3.73973 54.7833 -0.41061 -0.029713 -0.911205
62.7538 -2.68043 54.7418 -0.408679 -0.0518139 -0.91119
62.7027 -1.78794 54.7188 -0.406981 -0.0468315 -0.912235
62.5739 -0.919702 54.7409 -0.407583 -0.0312318 -0.912634
62.6542 -0.148321 54.6786 -0.411518 -0.0413563 -0.910395
62.7271 0.869315 54.5977 -0.419881 -0.0365002 -0.906845
62.8361 1.90888 54.499 -0.423496 -0.0452168 -0.904769
62.753 2.71783 54.4977 -0.423297 -0.042589 -0.904989
62.7701 3.66968 54.4419 -0.41346 -0.0518696 -0.909034
62.8511 4.54928 54.3425 -0.432263 -0.0619368 -0.89958
62.667 5.76322 54.3589 -0.431729 -0.0528575 -0.900453
62.7987 6.61339 54.259 -0.434205 -0.0420318 -0.899823
62.9619 7.38848 54.1429 -0.437339 -0.0403751 -0.89839
63.0573 8.13282 54.063 -0.437032 -0.0399104 -0.89856
63.0238 8.90005 54.0405 -0.433804 -0.0456324 -0.899851
62.7461 9.70543 54.1292 -0.425309 -0.0480399 -0.903772
62.6529 10.5327 54.1319 -0.41959 -0.0533718 -0.906052
62.6719 11.3666 54.0632 -0.415012 -0.0652748 -0.907471
62.6086 12.1535 54.0548 -0.403211 -0.0222994 -0.914836
62.6493 12.9039 54.0185 -0.403214 -0.022297 -0.914834
62.6842 13.7089 53.9868 -0.40285 -0.0133487 -0.915168
62.7092 14.0326 53.9711 -0.402852 -0.0133492 -0.915168
54.758 22.3957 55.5895 -0.334648 -0.0895014 -0.937896
54.7548 22.3955 55.5908 -0.321333 -0.0878344 -0.94236
53.8833 22.3844 55.8581 -0.282283 -0.065307 -0.957096
53.0085 22.399 56.1068 -0.253361 -0.0563811 -0.965492
52.8442 22.6853 56.1396 -0.275235 -0.0330022 -0.96081
53.8553 22.3755 55.8669 -0.274701 -0.0674262 -0.959163
53.8557 22.3754 55.8668 -0.27084 -0.0648401 -0.960339
45.9446 -2.6634 56.5621 -0.136165 -0.0667097 -0.988438
45.9518 -2.66831 56.5614 -0.136165 -0.0667097 -0.988438
46.1657 -2.92594 56.5506 -0.12715 -0.0747754 -0.989061
46.6643 -3.56981 56.5355 -0.121536 -0.0752455 -0.989731
46.3284 -3.07178 56.5407 -0.127153 -0.0747681 -0.989061
47.0995 -3.74534 56.4953 -0.118633 -0.0741925 -0.990162
47.1724 -3.85588 56.4949 -0.118119 -0.0740993 -0.990231
47.3991 -4.41039 56.5105 -0.114263 -0.0766939 -0.990484
48.2559 -4.64339 56.4301 -0.113236 -0.0785134 -0.990461
47.519 -4.46105 56.5005 -0.115189 -0.0779697 -0.990279
47.5029 -4.44652 56.5012 -0.115192 -0.0779654 -0.990279
48.374 -4.6591 56.4178 -0.113242 -0.0784852 -0.990463
48.8929 -5.23008 56.4043 -0.108161 -0.079706 -0.990933
48.2693 -5.00993 56.4576 -0.113245 -0.0784861 -0.990462
50.3571 -7.34006 56.4103 -0.10547 -0.0778165 -0.991373
51.2105 -8.06474 56.3764 -0.100784 -0.0723244 -0.992276
50.8276 -7.83095 56.3983 -0.1028 -0.0743665 -0.991918
50.4676 -7.44964 56.4072 -0.106409 -0.0758201 -0.991423
-57.3067 -13.3098 56.7878 0.149549 0.0205154 -0.988519
-57.3025 -14.0643 56.7879 0.156845 -0.0158264 -0.987496
-57.6437 -14.5867 56.7402 0.185739 0.000798693 -0.982599
-57.6022 -13.8375 56.7394 0.14239 0.00585114 -0.989793
-57.3382 -13.2943 56.7834 0.144338 0.0164704 -0.989391
-57.649 -12.6608 56.7492 0.142436 0.0175631 -0.989648
-57.6486 -11.8773 56.7611 0.138082 0.0120515 -0.990348
-57.5625 -11.0544 56.7944 0.144966 0.0394337 -0.988651
-57.5486 -11.4333 56.7819 0.158046 0.0300731 -0.986943
-57.5894 -12.2482 56.7651 0.156357 -0.00585051 -0.987469
-57.3996 -13.0347 56.7801 0.15617 0.029677 -0.98727
-57.3079 -13.3007 56.7878 0.154752 0.0245667 -0.987648
-57.3833 -14.942 56.7928 0.209598 -0.0301211 -0.977109
-57.5088 -15.0914 56.7713 0.192179 -0.0201211 -0.981154
-57.5257 -15.044 56.767 0.192179 -0.0201216 -0.981154
-62.5305 -16.1318 56.2211 0.284115 0.0131521 -0.958661
-62.5362 -16.1797 56.2186 0.275716 0.0202979 -0.961018
