1.01738 -17.9795 21.5753 0.196215 0.063403 -0.978389
1.3474 -18.6291 21.6026 0.134058 0.0587291 -0.989232
1.3474 -18.6291 21.6026 0.134058 0.0587291 -0.989232
2.09563 -18.6188 21.6287 -0.0541988 0.0154045 -0.997876
2.72681 -18.1827 21.5741 -0.137453 0.0552407 -0.988967
2.67302 -17.2648 21.5948 -0.212573 -0.00982941 -0.977096
2.53691 -16.4793 21.6516 -0.113962 0.0761324 -0.990282
2.30473 -15.6649 21.7313 -0.207468 0.0315759 -0.977732
1.63346 -15.294 21.8127 -0.0395016 0.0484735 -0.998043
1.14103 -15.6516 21.7434 0.14594 0.100736 -0.983717
1.03069 -16.526 21.6472 0.120004 0.0332356 -0.992217
1.00614 -17.3751 21.6123 0.235847 0.00246453 -0.971569
1.01502 -17.9168 21.5797 0.202091 0.0773972 -0.976304
-0.586771 -17.9285 20.9822 0.43217 0.0308456 -0.901208
-0.631785 -17.1444 20.9738 0.461284 0.00348817 -0.886941
-0.559565 -16.2392 20.9987 0.494814 -0.0110517 -0.868929
-0.444743 -15.3624 21.024 0.512743 -0.0678492 -0.855776
-0.230392 -14.481 21.0971 0.570372 -0.0664027 -0.818529
-0.0679579 -13.6868 21.1442 0.600928 -0.0716336 -0.79565
0.0310984 -12.8294 21.1828 0.619431 -0.0155427 -0.784897
0.0793832 -12.0413 21.2297 0.711294 0.0196901 -0.701943
0.152585 -11.2687 21.3036 0.754274 -0.00471073 -0.656543
0.162092 -10.4317 21.2979 0.779569 -0.0164662 -0.625981
0.208504 -9.66889 21.3365 0.797628 -0.0207274 -0.60274
0.251182 -8.84624 21.3726 0.810962 -0.0127036 -0.584961
0.238328 -7.92577 21.3333 0.820848 -0.0118471 -0.571023
0.229309 -7.1679 21.3054 0.824465 -0.009784 -0.565828
0.237795 -6.35613 21.3054 0.824643 -0.00745457 -0.565605
0.240473 -5.4589 21.3016 0.821822 -0.00588741 -0.569702
0.215404 -4.66562 21.2634 0.816164 0.00238338 -0.577815
0.216229 -3.91712 21.2648 0.802479 0.00189566 -0.596628
0.204984 -3.16052 21.2526 0.787137 0.00260476 -0.616773
0.190343 -2.34861 21.2406 0.770452 0.00976047 -0.637424
0.203148 -1.52799 21.2615 0.741269 0.0133729 -0.671065
0.153409 -0.673198 21.2199 0.71033 0.00272215 -0.703863
0.0671551 0.0823996 21.1543 0.649068 0.0278072 -0.760222
-0.00217637 0.834156 21.122 0.624435 0.0371586 -0.780192
-0.0936187 1.65254 21.0878 0.563033 0.0305572 -0.825869
-0.230976 2.40429 21.0261 0.516552 0.0471383 -0.85456
-0.441131 3.16939 20.9622 0.433763 0.0581052 -0.899152
-0.709729 3.86858 20.8971 0.383875 0.0779561 -0.919835
-0.795227 4.74721 20.9332 0.306679 0.0622928 -0.949574
-0.746371 5.61287 21.0025 0.256257 0.0669328 -0.964288
-0.731494 6.39956 21.0388 0.185515 0.0354648 -0.981806
-0.72799 7.17188 21.0737 0.142066 0.0323304 -0.989202
-0.690884 7.96514 21.0989 0.108634 0.0123446 -0.994005
-0.696782 8.87153 21.1252 0.0617159 0.0231177 -0.997746
-0.692791 9.71524 21.1491 0.0113425 0.0285796 -0.999354
-0.691999 10.6385 21.1651 -0.0273748 0.00825796 -0.999582
-0.744487 11.4153 21.1804 -0.068659 0.022802 -0.99738
-0.762403 12.2715 21.1986 -0.0898248 0.0239609 -0.995669
-0.751285 13.0455 21.2059 -0.126029 0.00753433 -0.991973
-0.753496 13.8793 21.2145 -0.153398 0.00167625 -0.988115
-0.772531 14.756 21.2216 -0.18559 0.00722344 -0.982601
-0.770992 15.6476 21.2272 -0.211862 -0.000402946 -0.977246
-0.754441 16.4218 21.2239 -0.252916 0.00227214 -0.96748
-0.844261 17.1978 21.2502 -0.251417 0.0075171 -0.96785
-1.19865 17.8885 21.3427 -0.243561 0.0121262 -0.969778
-1.73722 18.4192 21.4443 -0.147504 -0.00113754 -0.989061
-2.33884 18.9164 21.514 -0.0562541 0.0156724 -0.997581
-3.05415 19.3026 21.5168 0.023232 0.00867726 -0.999622
-3.94636 19.5341 21.369 0.25076 -0.0549878 -0.966119
-4.77686 19.593 21.0814 0.374805 -0.0225918 -0.926828
-4.99372 20.2436 20.9823 0.410933 0.0222828 -0.911086
-4.45068 20.561 21.2214 0.3119 0.0612306 -0.947438
-3.50701 20.6116 21.4662 0.173293 0.0410691 -0.982837
-2.69687 20.6089 21.5392 -0.00959098 0.0704429 -0.997184
-1.92576 20.5939 21.497 -0.122767 0.0344279 -0.991838
-1.12347 20.5861 21.3638 -0.232079 0.0199631 -0.972492
-0.396162 20.5857 21.1414 -0.35297 0.0195382 -0.93543
0.181506 20.351 20.9062 -0.391013 0.0185273 -0.920184
0.210409 19.5282 20.8884 -0.373006 0.00545021 -0.927614
0.224694 18.6163 20.8933 -0.359505 -0.0338708 -0.932528
0.321445 17.8295 20.8833 -0.326179 -0.0442028 -0.944124
0.349966 17.0441 20.9162 -0.289811 -0.059417 -0.955238
0.309817 16.2362 20.9601 -0.251391 -0.0397094 -0.967033
0.320662 15.3244 20.9905 -0.216936 -0.0295365 -0.975739
0.305295 14.4319 21.0278 -0.179222 -0.0365361 -0.983069
0.289195 13.5109 21.0595 -0.142726 -0.0291805 -0.989284
0.260721 12.7453 21.0879 -0.118233 -0.0328323 -0.992443
0.267345 11.9473 21.1072 -0.0804532 -0.0252468 -0.996439
0.293064 11.196 21.1238 -0.0560763 -0.017928 -0.998266
0.295897 10.3699 21.1462 -0.000343809 -0.0214853 -0.999769
0.259514 9.60909 21.1643 0.0171145 -0.0276551 -0.999471
0.213027 8.75682 21.1773 0.0636355 -0.01193 -0.99786
0.288289 7.94615 21.2024 0.104581 -0.0323558 -0.99399
0.317621 7.19504 21.2255 0.141225 -0.0148391 -0.989866
0.324281 6.33211 21.2569 0.208195 -0.0251057 -0.977747
0.351382 5.5725 21.2868 0.248781 -0.0432236 -0.967375
0.353127 4.75844 21.3166 0.333002 -0.0358963 -0.942243
0.397569 4.01136 21.3611 0.387418 -0.0312301 -0.921375
0.406333 3.16901 21.3913 0.431586 -0.0209765 -0.901828
0.387475 2.30305 21.4042 0.52431 -0.0209825 -0.851004
0.415787 1.50421 21.4458 0.571582 -0.0189604 -0.820326
0.450618 0.752696 21.4838 0.625159 -0.0042751 -0.780415
0.541645 0.00975812 21.5768 0.668753 -0.018359 -0.743111
0.607487 -0.804485 21.6786 0.71754 -0.0253049 -0.696057
0.628869 -1.67013 21.7363 0.743586 -0.0307733 -0.667868
0.656607 -2.66966 21.8098 0.777568 -0.0232125 -0.62831
0.64856 -3.502 21.8327 0.793718 -0.0253903 -0.607756
0.662702 -4.29417 21.8754 0.808919 -0.0204671 -0.587564
0.665882 -5.04693 21.9017 0.814847 -0.0166322 -0.579438
0.647835 -5.83657 21.8933 0.823487 -0.0135621 -0.567173
0.689225 -6.64133 21.9676 0.824518 -0.00833408 -0.565775
0.701265 -7.47117 21.9959 0.824436 -0.00287992 -0.565934
0.663958 -8.21808 21.9456 0.820704 -0.00131276 -0.571352
0.657391 -8.97435 21.9365 0.808367 0.000315083 -0.588679
0.639508 -9.87187 21.9021 0.791844 0.0151109 -0.610537
0.61589 -10.6236 21.8527 0.767901 0.018651 -0.640297
0.605503 -11.4275 21.8067 0.728081 0.0533578 -0.682344
0.726815 -12.2024 21.8037 0.596098 0.217671 -0.771919
1.21457 -12.854 21.8425 0.284793 0.397604 -0.87224
1.84088 -13.3909 21.8439 -0.118667 0.163984 -0.979224
2.55736 -13.8988 21.6575 -0.268413 -0.00613904 -0.963284
3.53282 -14.1288 21.2867 -0.408889 0.0221479 -0.911744
4.02822 -14.6819 21.0369 -0.508144 -0.0281144 -0.860695
4.11705 -15.4567 21.0099 -0.469949 -0.0185672 -0.882423
4.18276 -16.2723 21.0027 -0.456333 -0.0189775 -0.889606
4.34024 -17.1289 20.9527 -0.450203 -0.0297186 -0.892432
4.37538 -18.007 20.9561 -0.452691 -0.0261264 -0.891222
4.35254 -18.7563 20.9856 -0.474672 -0.00260495 -0.87995
4.33777 -19.5671 20.9652 -0.455543 0.0439141 -0.88913
4.26088 -20.3307 21.0129 -0.455512 -0.0133153 -0.889879
3.40487 -20.4557 21.378 -0.329685 -0.0565446 -0.942303
2.49942 -20.3782 21.5993 -0.147927 -0.0318792 -0.987622
1.63994 -20.4121 21.6187 0.0459547 -0.0712005 -0.996403
0.796202 -20.4441 21.5064 0.179105 -0.0631136 -0.981799
-0.00707631 -20.3848 21.2376 0.366522 -0.0188521 -0.930218
-0.569029 -20.1395 20.9815 0.431822 -0.0319946 -0.901288
-0.617015 -19.3421 20.9477 0.421195 -0.000601429 -0.90697
