2.22558 -17.8594 22.0709 -0.120185 0.0348467 -0.991919
1.40365 -17.836 22.0727 0.149123 0.0511209 -0.987496
1.40365 -17.836 22.0727 0.149123 0.0511209 -0.987496
1.07745 -17.1715 22.05 0.171446 0.0266408 -0.984833
1.11375 -16.4139 22.0784 0.115854 0.0498857 -0.99198
1.60548 -16.2564 22.1363 0.016823 0.0500967 -0.998603
2.3086 -16.6137 22.1082 -0.123044 0.065992 -0.990205
2.622 -17.2676 22.0283 -0.235754 0.0489046 -0.970581
2.40176 -17.8432 22.0471 -0.138113 0.045302 -0.98938
2.39679 -19.2393 21.99 -0.0666251 -0.0232329 -0.997508
3.16493 -19.2263 21.8726 -0.239959 0.0369023 -0.970081
3.85156 -19.0803 21.6372 -0.415805 0.0322151 -0.908883
3.92284 -18.2751 21.61 -0.394286 -0.00301126 -0.918983
3.94766 -17.489 21.5972 -0.389779 -0.0585135 -0.919047
3.87225 -16.5992 21.6267 -0.436759 0.00578087 -0.89956
3.73408 -15.7422 21.6866 -0.373973 -0.00601161 -0.927408
2.97262 -15.4547 21.9846 -0.300711 0.018079 -0.952986
2.28986 -15.1154 22.1762 -0.186571 0.0471969 -0.978838
1.67428 -14.6217 22.2072 0.0211803 0.0864418 -0.996032
1.00793 -14.2578 22.1971 0.193054 0.0438984 -0.98007
0.293501 -13.886 21.9187 0.529763 -0.0117762 -0.848064
0.124266 -14.7087 21.7898 0.500475 -0.0210677 -0.865495
-0.0854013 -15.465 21.687 0.450334 0.00869011 -0.89233
-0.201022 -16.3549 21.6287 0.480648 0.0126019 -0.876823
-0.222111 -17.3137 21.6087 0.4344 0.010935 -0.900591
-0.262367 -18.2025 21.5803 0.429056 0.0135022 -0.903177
-0.24243 -18.9654 21.576 0.440079 0.0239182 -0.89764
0.419524 -19.2237 21.8117 0.248091 0.0856498 -0.964943
1.25669 -19.216 21.9793 0.139017 0.0354152 -0.989477
2.14462 -19.2304 22.0066 -0.0842924 0.0112806 -0.99562
2.24228 -19.2358 22.0002 -0.066623 -0.0232371 -0.997508
2.02735 -20.6001 22.0495 -0.0301127 -0.0982055 -0.99471
2.85967 -20.6539 21.9713 -0.150841 -0.0703125 -0.986054
3.7738 -20.6109 21.6933 -0.347691 -0.07078 -0.934934
4.45741 -20.6453 21.3615 -0.461011 -0.0608003 -0.885266
5.1258 -20.4769 20.9539 -0.541053 -0.0364505 -0.84015
5.17286 -19.6365 20.9158 -0.544779 0.00570287 -0.838549
5.12265 -18.8534 20.9522 -0.532378 0.000808134 -0.846506
5.16115 -18.065 20.9134 -0.539569 -0.0313748 -0.841275
5.11686 -17.204 20.9213 -0.550031 -0.022428 -0.834843
5.06301 -16.416 20.9301 -0.573138 -0.0445187 -0.81824
4.94452 -15.5341 20.9607 -0.582827 -0.0414166 -0.81154
4.84047 -14.7694 20.9922 -0.587323 -0.046463 -0.808018
4.77855 -13.9789 21.0119 -0.62225 -0.00842682 -0.782509
4.33399 -14.0113 21.3362 -0.568115 0.0284466 -0.822234
3.71254 -14.238 21.7017 -0.430921 0.0358238 -0.901679
2.97774 -14.0099 22.0253 -0.350945 0.131574 -0.926204
2.49093 -13.4809 22.2468 -0.268227 0.177301 -0.945053
1.74131 -13.1676 22.4788 -0.0731806 0.404709 -0.911513
1.04379 -12.75 22.484 0.487956 0.209877 -0.847261
0.795035 -11.9817 22.5113 0.690663 0.135164 -0.708569
0.757097 -11.1539 22.5944 0.75117 0.0690318 -0.656489
0.790389 -10.2758 22.7128 0.779708 0.0401729 -0.624696
0.802463 -9.48141 22.7824 0.805112 0.0405255 -0.591737
0.786503 -8.64112 22.8007 0.81762 0.0159706 -0.575536
0.815939 -7.87939 22.861 0.821851 0.00613839 -0.569635
0.78666 -7.01428 22.8195 0.827085 -0.00631982 -0.56204
0.790963 -6.24862 22.8127 0.827125 -0.0141864 -0.561834
0.786547 -5.39363 22.7784 0.822686 -0.0203268 -0.568133
0.806731 -4.53724 22.7664 0.813317 -0.0316976 -0.580909
0.790654 -3.73959 22.6921 0.802596 -0.0447403 -0.594842
0.793472 -2.98255 22.6382 0.78791 -0.0400692 -0.614406
0.774747 -2.05992 22.5324 0.760719 -0.0669311 -0.645621
0.701289 -1.11648 22.3642 0.729609 -0.0445362 -0.682245
0.690474 -0.331862 22.2985 0.69374 -0.0593623 -0.717367
0.659131 0.476968 22.1947 0.648388 -0.0585434 -0.759056
0.64967 1.25421 22.1235 0.609177 -0.0796752 -0.788676
0.656844 2.07557 22.0493 0.549864 -0.0709912 -0.832232
0.595009 2.82548 21.9403 0.472192 -0.0716359 -0.877667
0.535727 3.69528 21.8678 0.408233 -0.0633457 -0.910619
0.49807 4.45204 21.8199 0.363754 -0.0357936 -0.930807
0.503896 5.38444 21.7671 0.278413 -0.0746339 -0.957019
0.512949 6.13479 21.7207 0.221127 -0.0566783 -0.973597
0.497014 7.06212 21.6712 0.136625 -0.0457217 -0.989567
0.497865 7.94237 21.6327 0.100522 -0.0385418 -0.994188
0.449217 8.76164 21.597 0.0517926 -0.0296988 -0.998216
0.453581 9.55927 21.573 0.0235198 -0.0343486 -0.999133
0.445622 10.3989 21.5491 -0.013128 -0.0347014 -0.999173
0.45247 11.2702 21.5156 -0.0600049 -0.0421084 -0.997206
0.468326 12.0616 21.4861 -0.0841906 -0.0379869 -0.995725
0.448557 12.9668 21.4562 -0.116018 -0.0316038 -0.992744
0.47366 13.8003 21.4194 -0.153274 -0.0485622 -0.98699
0.506842 14.5686 21.3878 -0.17534 -0.0334824 -0.983938
0.518263 15.5347 21.345 -0.227391 -0.0442213 -0.972799
0.528991 16.5127 21.2976 -0.256807 -0.0388331 -0.965682
0.698894 17.2363 21.1912 -0.314136 -0.0820971 -0.945822
1.10886 17.8443 20.9705 -0.433326 -0.0567791 -0.898573
1.18176 18.6123 20.8885 -0.45256 -0.0662915 -0.889266
1.16768 19.501 20.8649 -0.455227 -0.0193347 -0.889961
1.11004 20.4405 20.8772 -0.459459 -0.00989725 -0.888144
0.626003 20.7804 21.1283 -0.433133 0.0213208 -0.900926
-0.133314 20.8176 21.4594 -0.357008 0.0261014 -0.933659
-0.953954 20.7731 21.7317 -0.277754 0.0171464 -0.960499
-1.70525 20.7741 21.8998 -0.156823 0.0383393 -0.986142
-2.60093 20.769 21.9767 -0.00343219 0.0586039 -0.997768
-3.40093 20.7436 21.9249 0.1244 0.0682608 -0.989473
-4.18325 20.748 21.7689 0.259129 0.0505654 -0.964518
-4.94436 20.8015 21.4893 0.425904 0.0530996 -0.903209
-5.69656 20.7917 21.0744 0.519804 0.0422234 -0.853242
-5.93335 20.0681 20.9219 0.531043 -0.0121407 -0.847224
-5.66668 19.4104 21.1044 0.527815 -0.0283839 -0.848885
-4.87894 19.3524 21.5254 0.404512 -0.018057 -0.914354
-4.11259 19.3875 21.7871 0.206128 -0.00178323 -0.977091
-3.2618 19.1646 21.9077 0.0465681 -0.0410643 -0.998071
-2.61647 18.7147 21.9287 -0.0311211 -0.0101191 -0.999209
-1.94819 18.3714 21.8885 -0.137449 0.00895309 -0.990468
-1.29811 17.9621 21.7721 -0.222371 -0.0067241 -0.974939
-1.01426 17.2417 21.7019 -0.245904 0.000363725 -0.969265
-0.90362 16.3568 21.6684 -0.234594 0.00586671 -0.972029
-0.939796 15.4567 21.6651 -0.204579 0.0105067 -0.978734
-0.9448 14.6842 21.6528 -0.183629 0.0166556 -0.982818
-0.906502 13.9233 21.6375 -0.157346 0.0166111 -0.987404
-0.953955 13.1436 21.6327 -0.126239 0.0160089 -0.991871
-0.939853 12.3782 21.6175 -0.101514 0.0237265 -0.994489
-0.949992 11.5827 21.601 -0.0561177 0.0202723 -0.998218
-0.934038 10.7556 21.5801 -0.0334757 0.0202631 -0.999234
-0.879775 9.97231 21.556 -0.00518292 0.0387448 -0.999236
-0.93726 9.13561 21.5311 0.0461258 0.0379949 -0.998213
-0.919357 8.34622 21.4981 0.0854149 0.0454947 -0.995151
-0.891584 7.56323 21.4722 0.131032 0.0199231 -0.991178
-0.914821 6.78829 21.4366 0.174478 0.048889 -0.983218
-0.925687 6.0228 21.401 0.224328 0.0508872 -0.973066
-0.921896 5.22919 21.356 0.259329 0.0602643 -0.963907
-0.95994 4.46349 21.2864 0.333019 0.0982953 -0.937783
-0.979759 3.71499 21.2011 0.389272 0.132105 -0.911601
-1.01524 2.91385 21.0898 0.45627 0.102058 -0.883969
-0.981053 2.05055 21.0015 0.51177 0.127468 -0.849225
-0.907325 1.30024 20.9598 0.591635 0.0958853 -0.800484
-0.756731 0.528833 20.9897 0.627193 0.0687309 -0.775502
-0.625083 -0.237023 21.0383 0.681567 0.0489924 -0.730114
-0.516532 -1.05704 21.086 0.722628 0.0457818 -0.689719
-0.454918 -1.9842 21.1038 0.756695 0.0373254 -0.652702
-0.415518 -2.75047 21.122 0.773822 0.0182554 -0.63314
-0.377184 -3.52823 21.1449 0.79612 0.0228723 -0.604702
-0.372364 -4.29709 21.1299 0.806128 0.0102495 -0.591653
-0.367535 -5.14177 21.1226 0.819385 0.00464127 -0.573213
-0.345787 -5.93478 21.152 0.82369 -0.00395092 -0.567023
-0.363496 -6.77362 21.1356 0.825687 -0.0106352 -0.564028
-0.372734 -7.67311 21.1427 0.823398 -0.0137234 -0.567298
-0.391139 -8.6148 21.1528 0.818333 -0.0277301 -0.574075
-0.428568 -9.40079 21.133 0.805941 -0.019079 -0.59162
-0.470253 -10.2024 21.1269 0.778912 -0.0425312 -0.625561
-0.518038 -10.9943 21.1192 0.764887 -0.0482206 -0.642357
-0.577677 -11.771 21.1079 0.730954 -0.0630015 -0.679456
-0.737424 -12.6701 21.041 0.696667 -0.092042 -0.711329
-0.877225 -13.5499 21.0129 0.645488 -0.0676749 -0.760766
-1.0633 -14.444 20.9877 0.593305 -0.0897335 -0.799538
-1.29553 -15.1577 20.9187 0.548579 -0.0961391 -0.830124
-1.41319 -15.9161 20.9048 0.525845 -0.0472086 -0.849262
-1.46397 -16.6944 20.9071 0.526353 -0.0192222 -0.850049
-1.4603 -17.4955 20.9212 0.525727 -0.00893394 -0.850606
-1.51721 -18.3718 20.8989 0.521203 -0.0116706 -0.853235
-1.49839 -19.1325 20.9103 0.522169 0.0155123 -0.852701
-1.44556 -19.964 20.9306 0.494253 0.00373908 -0.869126
-1.27743 -20.5695 21.0385 0.507734 -0.0325281 -0.860656
-0.609387 -20.6568 21.4048 0.441445 -0.0330099 -0.896681
0.171049 -20.6421 21.7255 0.320063 -0.0869895 -0.943394
1.15855 -20.638 21.9816 0.206267 -0.0752013 -0.975602
1.89241 -20.5904 22.0526 0.00466495 -0.0865338 -0.995562
-0.130876 18.643 21.4464 -0.340127 -0.00279305 -0.940375
-0.268235 19.4251 21.5014 -0.330597 0.0100924 -0.943718
