1.17553 -16.0708 22.5674 0.235548 0.0732924 -0.968192
1.89131 -16.395 22.6119 -0.0206583 0.0850991 -0.996158
1.89131 -16.395 22.6119 -0.0206583 0.0850991 -0.996158
2.5707 -16.7055 22.5156 -0.237219 0.0823975 -0.967956
2.99769 -17.3632 22.3745 -0.296069 0.0180144 -0.954997
2.36977 -17.673 22.4905 -0.147502 0.0254893 -0.988733
1.542 -17.6496 22.5112 0.0734245 0.0321652 -0.996782
0.795508 -17.5572 22.3878 0.305174 0.0359297 -0.951616
0.635228 -16.8192 22.3647 0.308305 0.0330448 -0.950713
0.667308 -16.0544 22.4272 0.324818 0.0971541 -0.940621
1.12087 -16.0494 22.5576 0.217271 0.110873 -0.969794
1.42251 -14.6386 22.7222 0.0883194 0.0622107 -0.992884
0.684742 -14.3601 22.5582 0.43288 0.0916264 -0.896783
-0.00537008 -13.7874 22.2109 0.530138 0.00443885 -0.8479
-0.369896 -14.1157 21.962 0.564758 -0.0155554 -0.82511
-0.536584 -14.9008 21.8792 0.540914 -0.051752 -0.839484
-0.687075 -15.6554 21.8257 0.541205 -0.0282183 -0.840294
-0.734802 -16.4286 21.7949 0.483416 0.0250706 -0.874788
-0.763949 -17.3099 21.7721 0.462004 -0.000315019 -0.886679
-0.729669 -18.1015 21.7704 0.443212 0.0488189 -0.895015
-0.691707 -18.9586 21.7847 0.449362 0.00566428 -0.893332
0.0174106 -19.0783 22.0846 0.338695 0.0346206 -0.940259
0.760307 -19.0746 22.3132 0.244446 0.0265565 -0.968927
1.53329 -19.0994 22.4553 0.0960492 0.00282852 -0.99414
2.302 -19.1408 22.4451 -0.110188 -0.00324082 -0.993905
3.12038 -19.105 22.3265 -0.239429 0.0142586 -0.970809
3.95588 -18.9822 22.0462 -0.388894 0.0253258 -0.920934
4.40585 -18.5683 21.8369 -0.453137 -0.000490134 -0.891426
4.42684 -17.8001 21.8204 -0.493922 -0.000241171 -0.869506
4.3924 -16.963 21.8355 -0.447542 -0.0110234 -0.893512
4.25585 -16.2254 21.8954 -0.480916 -0.00321827 -0.876736
3.94437 -15.5739 22.0538 -0.470728 -0.0317535 -0.881315
3.19087 -15.4351 22.3945 -0.377487 0.030868 -0.924845
2.43598 -15.0678 22.6414 -0.159853 0.0206722 -0.986924
1.6494 -14.7049 22.7327 -0.00282679 0.0450631 -0.997177
1.82931 -13.267 22.9593 -0.196594 0.339162 -0.919957
1.12867 -13.0418 22.9474 0.387768 0.347617 -0.852357
0.643364 -12.3431 22.8693 0.627868 0.160915 -0.761504
0.480015 -11.4952 22.8574 0.732702 0.0866513 -0.67501
0.408164 -10.7041 22.8509 0.764238 0.0441155 -0.643245
0.347264 -9.93574 22.8176 0.794256 0.0327002 -0.606702
0.3196 -8.94603 22.8182 0.805147 0.0120965 -0.592952
0.297746 -8.02902 22.8045 0.819682 0.000206086 -0.572818
0.311228 -7.25833 22.8244 0.824139 -0.00409004 -0.566369
0.323013 -6.45747 22.8315 0.825021 -0.0108045 -0.564998
0.329772 -5.54876 22.8182 0.820829 -0.0158346 -0.570949
0.375338 -4.63639 22.8449 0.813933 -0.0260509 -0.580374
0.405385 -3.84454 22.8392 0.802811 -0.0362579 -0.595108
0.459465 -2.94929 22.8506 0.784666 -0.0476481 -0.617938
0.538876 -2.19558 22.8803 0.763508 -0.0587637 -0.64298
0.630348 -1.4411 22.9054 0.739486 -0.0726575 -0.669219
0.666126 -0.636768 22.8553 0.708154 -0.0822588 -0.701171
0.656959 0.144804 22.7495 0.671946 -0.0858151 -0.73553
0.619487 0.993475 22.6159 0.622872 -0.113428 -0.774048
0.572396 1.82296 22.4863 0.550457 -0.0898203 -0.830018
0.489911 2.68552 22.3685 0.502057 -0.0433569 -0.863747
0.501076 3.53919 22.3061 0.442368 -0.0839086 -0.8929
0.469097 4.2905 22.2378 0.365097 -0.0649561 -0.928407
0.424198 5.04229 22.1725 0.297386 -0.0482893 -0.953535
0.456784 5.80058 22.1365 0.260143 -0.0551434 -0.963994
0.427158 6.62827 22.0789 0.172706 -0.0539708 -0.983494
0.407367 7.39746 22.041 0.141276 -0.0475537 -0.988827
0.431815 8.2025 22.012 0.102622 -0.0509426 -0.993346
0.394242 9.04323 21.9803 0.036276 -0.0228323 -0.999081
0.408145 9.87996 21.9583 0.00799787 -0.0170203 -0.999823
0.463315 10.6557 21.931 -0.0365384 -0.03527 -0.99871
0.37349 11.4033 21.9097 -0.0631126 -0.0150976 -0.997841
0.408489 12.2821 21.8812 -0.0935231 -0.0244947 -0.995286
0.399992 13.1146 21.859 -0.122923 -0.0415175 -0.991412
0.43172 13.9151 21.8279 -0.153749 -0.0223962 -0.987856
0.41272 14.7501 21.804 -0.185407 -0.0395134 -0.981759
0.411991 15.5258 21.7764 -0.223253 -0.0363215 -0.974006
0.432342 16.351 21.7437 -0.246264 -0.0338146 -0.968613
0.550655 17.1098 21.6704 -0.293973 -0.0603403 -0.953703
0.922547 17.7353 21.4889 -0.382084 -0.063804 -0.921727
1.42679 18.3729 21.1898 -0.472809 -0.0644956 -0.878801
1.76011 19.0281 20.9627 -0.514041 -0.0344605 -0.85696
1.74676 19.8325 20.9529 -0.513771 -0.00937736 -0.857837
1.70107 20.6558 20.9779 -0.51642 0.0117769 -0.856138
1.01922 20.7244 21.3657 -0.463216 0.0233118 -0.885693
0.220666 20.7443 21.7434 -0.407964 0.033847 -0.912315
-0.58519 20.7396 22.0428 -0.292893 0.0374429 -0.954992
-1.41378 20.6842 22.2528 -0.201197 0.0523445 -0.977696
-2.27909 20.6476 22.355 -0.0304569 0.0857389 -0.995852
-3.13272 20.7354 22.3506 0.062793 0.078518 -0.994818
-3.95329 20.7123 22.2255 0.235181 0.0389562 -0.97039
-4.74844 20.7245 21.9892 0.33145 0.0406325 -0.941752
-5.53446 20.7638 21.6194 0.475257 0.0364891 -0.87909
-6.21663 20.7451 21.2042 0.558887 0.0407083 -0.827853
-6.5099 20.0646 20.9789 0.577392 0.00459181 -0.816454
-6.19332 19.4164 21.2038 0.542889 0.00214307 -0.839802
-5.36778 19.3758 21.7094 0.474015 -0.0383226 -0.878735
-4.65245 19.4936 22.0224 0.379007 0.0147433 -0.925276
-3.84846 19.4989 22.2528 0.177088 -0.0409286 -0.981754
-2.93675 19.1512 22.3393 0.0396963 -0.0317643 -0.99865
-2.28373 18.7487 22.3239 -0.062536 -0.0163697 -0.997908
-1.6938 18.2742 22.2552 -0.167012 -0.00487661 -0.98577
-1.1929 17.6835 22.1516 -0.242726 -0.0191787 -0.969905
-0.930579 16.8923 22.0917 -0.251555 0.000494081 -0.96784
-0.892748 16.0363 22.0745 -0.230665 0.0169597 -0.972885
-0.895255 15.1857 22.0608 -0.200139 0.0255526 -0.979398
-0.888945 14.3478 22.0432 -0.163795 0.0119493 -0.986422
-0.894037 13.5151 22.031 -0.142467 0.018326 -0.989621
-0.864955 12.7391 22.0128 -0.120052 0.0200566 -0.992565
-0.831959 11.8867 21.9906 -0.0837173 0.0129248 -0.996322
-0.866671 11.1374 21.9771 -0.0425465 0.0300967 -0.998521
-0.918241 10.1949 21.9584 -0.00808795 0.0195968 -0.999754
-0.886816 9.23842 21.9319 0.0161119 0.0354034 -0.999243
-0.884845 8.48249 21.9069 0.0647249 0.045976 -0.996773
-0.832854 7.65937 21.8821 0.125325 0.0192042 -0.99193
-0.921088 6.91193 21.8448 0.170875 0.0509733 -0.983764
-0.917744 6.13766 21.8121 0.202583 0.0583564 -0.977314
-0.851465 5.21777 21.7782 0.307297 0.0403869 -0.950756
-0.935832 4.42632 21.7063 0.347039 0.0796954 -0.93444
-0.94783 3.62543 21.6372 0.400144 0.0510611 -0.914309
-0.942198 2.71976 21.5679 0.455067 0.105627 -0.88417
-0.984391 1.87917 21.4647 0.549091 0.108135 -0.828736
-1.05746 1.09857 21.3274 0.592617 0.0928249 -0.800039
-1.10548 0.301859 21.1977 0.6592 0.0870285 -0.746915
-1.10131 -0.45296 21.1189 0.696838 0.0713238 -0.713673
-1.03897 -1.22666 21.1071 0.726122 0.0524121 -0.685318
-0.956522 -2.16234 21.128 0.765824 0.0457642 -0.641419
-0.903861 -3.03286 21.1343 0.7856 0.0318405 -0.617848
-0.853206 -3.85143 21.1645 0.804815 0.0208115 -0.593107
-0.809085 -4.65192 21.1983 0.815037 0.0150826 -0.579212
-0.803505 -5.5707 21.1908 0.822548 0.00825342 -0.568606
-0.808716 -6.51088 21.1832 0.82701 -0.00373787 -0.562174
-0.817299 -7.29239 21.1851 0.82629 -0.0138393 -0.563074
-0.828469 -8.07854 21.1961 0.822554 -0.0219082 -0.568239
-0.857989 -8.90997 21.1944 0.810206 -0.0301321 -0.58537
-0.912437 -9.67259 21.1684 0.802771 -0.0431556 -0.594723
-0.951834 -10.4505 21.1828 0.779896 -0.0481391 -0.623963
-1.05072 -11.2849 21.1485 0.760311 -0.0662789 -0.646168
-1.12775 -12.0375 21.1449 0.729122 -0.0903025 -0.678381
-1.32402 -12.8139 21.0692 0.68259 -0.136302 -0.717844
-1.53903 -13.6023 21.0318 0.623418 -0.137886 -0.769352
-1.73411 -14.3621 21.0062 0.58178 -0.13118 -0.80242
-1.9211 -15.1568 20.9913 0.54833 -0.0734595 -0.833029
-1.99715 -15.9742 20.9835 0.55241 -0.0351005 -0.832773
-2.05603 -16.737 20.9712 0.568708 -0.0297973 -0.821985
-2.06402 -17.51 20.9759 0.573846 -0.00769278 -0.818927
-2.04349 -18.3706 20.9887 0.567102 0.00418914 -0.823637
-2.01525 -19.2432 21.0016 0.562738 -0.00333476 -0.826629
-2.06679 -20.0529 20.9768 0.572608 -0.0117881 -0.819736
-1.72655 -20.5824 21.2113 0.5413 -0.0325914 -0.84006
-0.992413 -20.5766 21.6388 0.478482 -0.0318943 -0.877509
-0.24 -20.5992 21.9963 0.376263 -0.0544574 -0.924911
0.563445 -20.5501 22.2651 0.271873 -0.0639486 -0.960206
1.42671 -20.5801 22.4459 0.100754 -0.0502819 -0.992941
2.20522 -20.6083 22.4791 -0.020953 -0.0698862 -0.997335
2.95856 -20.5819 22.3977 -0.189811 -0.0409075 -0.980968
3.76418 -20.5812 22.1572 -0.357284 -0.0423712 -0.932627
4.53935 -20.5312 21.7894 -0.488751 -0.057527 -0.870525
5.22457 -20.5777 21.3718 -0.555027 -0.049714 -0.830346
5.64375 -20.0665 21.0508 -0.601329 -0.022745 -0.798573
5.68907 -19.2936 21.0061 -0.594216 -0.00233797 -0.804296
5.64884 -18.4805 21.0345 -0.597077 -0.00534227 -0.802166
5.67644 -17.6083 20.9887 -0.603467 -0.0335867 -0.796681
5.61049 -16.7223 21.0066 -0.617446 -0.0323847 -0.785902
5.44361 -15.9467 21.094 -0.609855 -0.05095 -0.790873
5.4154 -15.163 21.0565 -0.630594 -0.0583297 -0.773918
5.33783 -14.2308 21.0703 -0.655337 -0.0117835 -0.754822
5.28528 -13.431 21.1041 -0.68233 0.00367693 -0.731009
4.63975 -13.886 21.6522 -0.633377 0.0599888 -0.771515
3.96661 -14.1475 22.1 -0.484542 0.119796 -0.865549
3.27642 -13.9224 22.4418 -0.376779 0.100195 -0.92074
2.59241 -13.5252 22.7299 -0.292774 0.136141 -0.945721
2.0812 -13.2585 22.9086 -0.196592 0.339165 -0.919956
-0.172293 -13.5941 22.1037 0.593381 -0.0214597 -0.804635
-0.311751 -13.7031 22.0038 0.593398 -0.0217745 -0.804615
-0.139733 18.6658 21.8557 -0.330887 -0.0225355 -0.943401
-0.668834 19.1773 22.017 -0.275471 0.0154517 -0.961079
