4.01583 -16.2353 22.4751 -0.423782 0.0116762 -0.905674
3.28807 -16.3422 22.7562 -0.303757 0.0462901 -0.951071
3.28807 -16.3422 22.7562 -0.303757 0.0462901 -0.951071
2.46675 -16.2892 22.9857 -0.213979 0.103301 -0.971361
2.07488 -16.9429 22.9848 -0.0909219 0.0864918 -0.992095
1.3932 -17.3264 22.9358 0.101147 0.10398 -0.988855
0.579916 -17.1261 22.8031 0.269401 0.0805731 -0.959651
-0.100861 -16.7083 22.5853 0.42265 0.0214008 -0.906031
-0.647509 -16.1258 22.3039 0.492987 0.0072267 -0.869987
-1.04464 -16.0779 22.0769 0.507832 -0.0166343 -0.861254
-1.02033 -16.8971 22.0916 0.503897 0.01389 -0.863652
-1.01295 -17.6799 22.0777 0.487675 0.0217234 -0.872755
-0.936645 -18.4741 22.1083 0.459921 -0.00141366 -0.887959
-0.24088 -18.565 22.4318 0.407163 0.0354272 -0.912668
0.509659 -18.563 22.7039 0.282066 0.0764449 -0.956334
1.27987 -18.4633 22.8613 0.0925338 0.0619 -0.993784
2.1042 -18.3043 22.8998 -0.0409177 0.0242149 -0.998869
2.8874 -18.2069 22.8185 -0.174308 0.0257671 -0.984354
3.62563 -18.3156 22.6421 -0.303694 -0.00309069 -0.952617
4.30938 -18.3342 22.3456 -0.465935 -0.00847593 -0.884762
4.36933 -17.6358 22.3031 -0.465728 -0.0102868 -0.884821
4.1202 -16.7406 22.4204 -0.41581 0.0103444 -0.90939
4.09584 -16.3259 22.4362 -0.421734 0.0164533 -0.90657
5.59857 -15.8742 21.4481 -0.620614 -0.0493072 -0.782321
5.85572 -16.7746 21.2907 -0.615625 -0.027558 -0.787557
6.01736 -17.5676 21.1937 -0.62297 -0.0301442 -0.781665
6.0809 -18.4227 21.1788 -0.629021 -0.0150308 -0.777076
6.08743 -19.1784 21.186 -0.637689 -0.00917406 -0.770167
6.11144 -20.0088 21.1692 -0.651822 -0.0051612 -0.758205
5.67223 -20.3372 21.5145 -0.589048 -0.0189601 -0.807876
4.99215 -20.3388 21.9658 -0.494612 -0.045426 -0.867926
4.29181 -20.3592 22.3454 -0.428459 -0.00554058 -0.903544
3.48214 -20.3363 22.669 -0.322537 0.00150375 -0.946556
2.6745 -20.2964 22.832 -0.126211 -0.0402202 -0.990865
1.88846 -20.3395 22.8748 -0.00450973 -0.0415522 -0.999071
1.14463 -20.3941 22.8045 0.188239 0.0149484 -0.982009
0.368938 -20.3822 22.6322 0.293626 -0.00185554 -0.955531
-0.422536 -20.3823 22.3458 0.392949 -0.0160836 -0.91942
-1.1012 -20.4107 22.0285 0.457447 0.000608578 -0.889088
-1.75112 -20.4521 21.6539 0.529185 -0.0178023 -0.84832
-2.40118 -20.3471 21.2219 0.594631 -0.0162131 -0.803835
-2.56837 -19.6241 21.0855 0.602738 -0.00995598 -0.797872
-2.48482 -18.7935 21.1344 0.594714 -0.00706641 -0.803906
-2.53707 -18.0286 21.1047 0.59004 0.00435721 -0.807363
-2.55913 -17.1482 21.0902 0.627297 -0.00421454 -0.778769
-2.5356 -16.3747 21.099 0.585142 -0.0184525 -0.810719
-2.50896 -15.5058 21.0981 0.601969 -0.0564429 -0.796522
-2.3915 -14.662 21.0948 0.561049 -0.095965 -0.822116
-2.23981 -13.9215 21.1004 0.588202 -0.117091 -0.800174
-2.00716 -13.1309 21.1433 0.629006 -0.138893 -0.764893
-1.60089 -12.4277 21.3634 0.662436 -0.144142 -0.734952
-1.14553 -11.6734 21.7075 0.725988 -0.0613327 -0.684967
-1.10782 -10.7669 21.6499 0.76617 -0.0751038 -0.638234
-1.14183 -9.8476 21.5356 0.791389 -0.0516345 -0.609128
-1.15918 -9.05792 21.4624 0.813796 -0.0340436 -0.580132
-1.16451 -8.21582 21.4123 0.821271 -0.0253489 -0.569967
-1.17405 -7.41643 21.3687 0.827095 -0.0175782 -0.561777
-1.19027 -6.66511 21.3289 0.826756 -0.00796653 -0.562504
-1.17889 -5.87257 21.341 0.825338 0.00195627 -0.564624
-1.17511 -4.99983 21.359 0.821734 0.0148602 -0.569677
-1.16244 -4.23613 21.3985 0.810062 0.0169502 -0.586099
-1.14729 -3.48468 21.4484 0.798193 0.0268229 -0.601765
-1.14237 -2.58841 21.5033 0.781399 0.0377695 -0.622888
-1.10849 -1.76673 21.5898 0.748363 0.0429664 -0.661792
-1.06348 -0.857229 21.6907 0.720763 0.0350667 -0.692252
-0.996594 -0.0762046 21.8062 0.693909 0.0391042 -0.718919
-0.972468 0.743497 21.8746 0.632326 0.0437712 -0.773465
-0.95681 1.52513 21.9309 0.587525 0.0387982 -0.808054
-0.849229 2.30451 22.0458 0.53477 0.0669885 -0.84157
-0.843338 3.17952 22.0979 0.420783 0.0589383 -0.905245
-0.791437 4.0874 22.1644 0.374329 0.0599488 -0.925251
-0.760758 4.91821 22.2078 0.29347 0.0505382 -0.954632
-0.800999 5.72423 22.2312 0.247699 0.0262669 -0.968476
-0.780129 6.60849 22.2661 0.175244 0.0257501 -0.984188
-0.735764 7.56131 22.3035 0.11774 0.0339823 -0.992224
-0.757106 8.36921 22.3195 0.0812124 0.0156394 -0.996475
-0.736182 9.21955 22.3374 0.0478069 0.0112954 -0.998793
-0.698986 10.122 22.3536 0.000832895 0.0227231 -0.999658
-0.749194 10.9304 22.3687 -0.0433891 0.0214129 -0.998829
-0.745656 11.6825 22.3848 -0.0685239 0.0170792 -0.997466
-0.74125 12.4871 22.3986 -0.103249 0.00663214 -0.994633
-0.731189 13.3787 22.4066 -0.125536 0.00778424 -0.992058
-0.719394 14.1342 22.4139 -0.166348 0.00931783 -0.986023
-0.700029 14.9596 22.4187 -0.188505 0.00673261 -0.982049
-0.718221 15.7688 22.4353 -0.222779 0.014099 -0.974767
-0.759248 16.5314 22.4581 -0.240822 -0.000555545 -0.970562
-0.890852 17.2629 22.4919 -0.252818 -0.00259386 -0.96751
-1.40558 17.9983 22.6172 -0.221983 -0.00012867 -0.975051
-1.9334 18.5936 22.7205 -0.143253 0.00318936 -0.989441
-2.40255 19.1971 22.7689 -0.0791309 0.00161266 -0.996756
-3.22166 19.5907 22.7795 0.0139141 -0.053983 -0.998445
-4.09712 19.5648 22.6367 0.202643 -0.0178302 -0.97907
-4.81961 19.5583 22.4077 0.38133 -0.0315057 -0.923902
-5.60228 19.5519 22.0352 0.50102 -0.0221716 -0.865152
-6.28448 19.5547 21.621 0.536434 -0.00164416 -0.843941
-6.80442 19.824 21.2233 0.620204 -0.0261077 -0.784006
-6.96848 20.4418 21.1011 0.625222 0.0207253 -0.780172
-6.17682 20.4732 21.6797 0.555239 -0.00523858 -0.831674
-5.32849 20.5443 22.1837 0.457716 0.0197031 -0.888177
-4.5966 20.5983 22.5002 0.328497 0.0260639 -0.943538
-3.69367 20.5865 22.7239 0.160891 0.0331827 -0.986144
-2.90304 20.5334 22.7984 0.0444884 0.0103539 -0.998956
-2.08301 20.5647 22.7627 -0.107 0.0553297 -0.992718
-1.32027 20.6012 22.6408 -0.227718 0.0439331 -0.972551
-0.410268 20.6018 22.38 -0.312865 0.0272323 -0.949407
0.32628 20.6021 22.117 -0.369967 0.0363431 -0.928059
1.20385 20.5858 21.7088 -0.460487 0.0323334 -0.88685
1.95561 20.59 21.2758 -0.528594 0.00548324 -0.848829
2.26445 20.065 21.0676 -0.563636 -0.00194308 -0.82595
2.0452 19.3999 21.2231 -0.532826 -0.0444397 -0.844804
1.50945 18.8764 21.5511 -0.46123 -0.0371075 -0.886504
1.10551 18.2171 21.7914 -0.406499 -0.0581287 -0.91171
0.59493 17.5434 22.0384 -0.330211 -0.0640111 -0.941472
0.297072 16.773 22.1693 -0.278713 -0.0398983 -0.959545
0.242844 16.0245 22.2123 -0.238527 -0.0266076 -0.970707
0.207675 15.2034 22.2368 -0.207783 -0.0152193 -0.977984
0.254983 14.4363 22.2437 -0.175955 -0.028017 -0.983937
0.24919 13.6564 22.2633 -0.149809 -0.0365957 -0.988008
0.278785 12.7291 22.2845 -0.116019 -0.0347114 -0.992626
0.27158 11.9729 22.3049 -0.0863279 -0.0390723 -0.995486
0.215797 11.1472 22.3259 -0.0407415 -0.019826 -0.99897
0.294209 10.3361 22.3407 -0.00763054 -0.0235922 -0.99955
0.256182 9.39522 22.3662 0.0207942 -0.0362948 -0.998917
0.238899 8.59983 22.3913 0.0633735 -0.0120501 -0.997802
0.25359 7.76602 22.4183 0.126202 -0.0352693 -0.991377
0.285927 6.89764 22.4593 0.15787 -0.0379982 -0.986579
0.249755 6.08466 22.4909 0.195613 -0.0361172 -0.979681
0.354885 5.33682 22.555 0.292037 -0.0468957 -0.955257
0.321141 4.56526 22.5931 0.332818 -0.0799355 -0.939597
0.351018 3.71704 22.6642 0.406961 -0.0568947 -0.911499
0.396401 2.92212 22.7571 0.476427 -0.102558 -0.873208
0.424725 2.13295 22.8554 0.534838 -0.0961436 -0.839251
0.380001 1.38206 22.9029 0.586128 -0.0870783 -0.80538
0.242105 0.596821 22.8807 0.639498 -0.085756 -0.763678
0.0842161 -0.221635 22.8129 0.694411 -0.0630968 -0.716807
-0.00311411 -1.02318 22.7874 0.717444 -0.0575145 -0.694169
-0.0786492 -1.86216 22.757 0.754426 -0.0320993 -0.6556
-0.157257 -2.67179 22.7077 0.773774 -0.025349 -0.632954
-0.184783 -3.42478 22.704 0.792279 -0.0218841 -0.609766
-0.19429 -4.18265 22.7209 0.805709 -0.016775 -0.592074
-0.245322 -5.10168 22.6782 0.815791 -0.0118558 -0.578204
-0.265462 -5.98015 22.669 0.823511 -0.0106465 -0.567196
-0.254984 -6.7929 22.6967 0.824569 -0.0081563 -0.565702
-0.272623 -7.70495 22.6801 0.82265 -0.00426687 -0.568532
-0.256152 -8.45553 22.7051 0.815543 -0.00353086 -0.578686
-0.250731 -9.32795 22.7071 0.804999 0.00076954 -0.59323
-0.229076 -10.0848 22.7223 0.786187 0.0030207 -0.617981
-0.180107 -10.8325 22.7592 0.756301 0.0259737 -0.653627
-0.155816 -11.6587 22.7526 0.739778 0.0132613 -0.672325
-0.159073 -12.471 22.7358 0.692898 0.00893114 -0.720598
0.0110017 -13.2353 22.86 0.645632 0.0444244 -0.761538
0.257131 -14.1018 22.9565 0.577179 0.0803615 -0.812654
0.549914 -14.831 23.0365 0.493117 0.128411 -0.860434
1.10867 -15.2571 23.2109 0.314413 0.292707 -0.903032
1.75275 -14.9322 23.337 -0.230722 0.187899 -0.954705
2.45678 -14.6283 23.1876 -0.319326 0.144049 -0.935973
2.93938 -14.0586 23.109 -0.387716 0.137929 -0.911401
3.51477 -14.0604 22.8454 -0.415975 0.120162 -0.90106
4.22903 -14.1781 22.4383 -0.525601 0.0966397 -0.845224
4.80553 -13.8476 22.0392 -0.633448 0.0294764 -0.773223
5.26532 -13.3563 21.6566 -0.683568 0.0343869 -0.729076
5.66664 -13.3511 21.2717 -0.709534 -0.0168348 -0.704445
5.74136 -14.0778 21.2156 -0.687527 -0.0353153 -0.725145
5.6644 -14.9086 21.3305 -0.659364 -0.0483115 -0.75027
