-8.87493 20.2006 22.5582 0.717998 0.00983932 -0.695975
-9.44631 20.3376 21.9354 0.750575 0.00926601 -0.66069
-9.44631 20.3376 21.9354 0.750575 0.00926601 -0.66069
-9.69098 19.9035 21.6487 0.763603 -0.010443 -0.645489
-9.08328 19.8961 22.332 0.735103 0.00630834 -0.677926
-8.87378 20.1159 22.5582 0.716914 0.00543258 -0.697125
-3.39385 20.0687 25.2269 0.0511645 -0.0118277 -0.99842
-2.76841 20.2699 25.2212 -0.0247896 0.00123967 -0.999692
-2.02677 20.0839 25.1772 -0.0788991 -0.00381063 -0.996875
-1.27594 20.2692 25.0933 -0.149666 -0.00852281 -0.988676
-0.538521 20.1764 24.9499 -0.237772 0.0347053 -0.970701
0.275874 20.2176 24.6985 -0.34099 0.0135704 -0.939548
0.989707 20.2109 24.3951 -0.422372 0.00808412 -0.906322
1.8198 20.236 23.9924 -0.448853 -0.00215775 -0.893599
2.55171 20.2476 23.6149 -0.474365 -0.00381128 -0.880276
3.22722 20.1994 23.2326 -0.515601 0.00051603 -0.856829
3.90173 20.2678 22.7944 -0.576383 0.00127788 -0.817094
4.48505 20.2322 22.3389 -0.639103 -0.0231714 -0.768772
5.13735 20.2661 21.7584 -0.680769 0.0157196 -0.732156
5.19969 19.8353 21.6955 -0.711876 -0.000737714 -0.702305
4.65745 19.8793 22.1995 -0.656797 -0.0109853 -0.753987
4.07468 19.9286 22.6686 -0.598948 -0.0233011 -0.800316
3.63635 20.1694 22.9764 -0.548374 0.0122238 -0.836144
2.94708 19.8799 23.3971 -0.508931 0.00716472 -0.860778
2.28885 19.6757 23.7589 -0.462712 -0.0182805 -0.886258
1.73955 19.2332 24.0451 -0.443804 -0.0160693 -0.89598
1.08511 19.437 24.3572 -0.415753 -0.017133 -0.909281
0.38769 19.5854 24.6558 -0.363885 -0.019033 -0.930976
-0.515278 19.7862 24.9364 -0.260296 -0.0181513 -0.965358
-1.45847 19.8584 25.1206 -0.121389 0.000119283 -0.992605
-2.18651 19.8816 25.1916 -0.082944 -0.0100094 -0.996504
-2.97745 19.8476 25.2276 -0.0162966 -0.021309 -0.99964
-3.34741 19.991 25.2317 0.027926 -0.0176071 -0.999084
8.33788 -10.4418 21.7578 -0.816254 0.00983068 -0.577598
7.89919 -10.9418 22.356 -0.807731 0.0123244 -0.589423
7.86834 -11.8029 22.3837 -0.793698 0.00583445 -0.60821
8.22449 -11.8645 21.909 -0.801304 0.0015203 -0.598256
8.48329 -11.2608 21.5508 -0.811934 -0.00178706 -0.583746
8.45743 -10.4976 21.5865 -0.816805 0.00460596 -0.576866
8.34197 -10.4403 21.752 -0.818429 0.00970993 -0.574526
8.50797 -19.6697 22.1513 -0.75515 0.0120334 -0.655305
8.19017 -20.067 22.5084 -0.740291 0.00140057 -0.672285
8.71134 -20.1596 21.9141 -0.758399 -0.00138692 -0.651781
8.89418 -19.7035 21.6893 -0.775228 -0.00246301 -0.631677
8.62674 -19.678 22.0106 -0.763913 0.0124989 -0.645198
2.73791 -19.8643 25.2883 -0.0196563 0.0145419 -0.999504
2.17149 -20.1125 25.2777 0.0519477 -0.0128615 -0.998567
1.25473 -20.1915 25.201 0.119884 0.00207129 -0.99268
0.481031 -20.0851 25.0778 0.197475 0.0243688 -0.980005
-0.32449 -20.0338 24.8671 0.325294 -0.0105447 -0.945554
-1.11225 -20.1013 24.5635 0.391564 0.00743256 -0.920102
-1.89119 -20.0671 24.1839 0.449144 0.0154284 -0.893326
-2.71549 -20.0468 23.7597 0.460483 0.0126579 -0.887578
-3.47721 -20.0386 23.3403 0.524384 0.00287813 -0.851168
-4.14555 -20.0844 22.8729 0.605238 -0.0109743 -0.795969
-4.74906 -20.1021 22.3799 0.675074 -0.0231441 -0.737366
-5.34128 -20.0721 21.8161 0.716797 -0.0192749 -0.697016
-5.61659 -19.5289 21.5251 0.726712 -0.00803838 -0.686895
-5.60741 -18.7773 21.5322 0.726485 0.00431608 -0.687169
-5.58383 -17.9293 21.5557 0.740105 -0.00821956 -0.672439
-5.6928 -17.1309 21.4368 0.736047 0.0101461 -0.676855
-5.63948 -16.3865 21.5026 0.749863 0.0101798 -0.661511
-5.59589 -15.6221 21.5762 0.76487 0.0190949 -0.643902
-5.67896 -14.8114 21.5237 0.770135 0.0411892 -0.636548
-5.69602 -14.0211 21.5607 0.780376 0.0493517 -0.623332
-5.2286 -14.3043 22.0989 0.755534 0.0612809 -0.652237
-4.83138 -14.8441 22.4937 0.733103 0.0832523 -0.674847
-4.68156 -15.6672 22.571 0.7108 0.0611344 -0.700733
-4.61441 -16.4906 22.576 0.695329 0.0502408 -0.716933
-4.37609 -17.3907 22.7437 0.660282 0.0465329 -0.749163
-3.91571 -18.0658 23.0804 0.596734 0.025492 -0.802034
-3.24984 -18.3742 23.5064 0.501285 0.0179475 -0.865096
-2.67733 -18.7573 23.8114 0.471975 0.0365747 -0.880852
-2.08361 -19.2758 24.1033 0.457276 0.021555 -0.889061
-1.36691 -19.6037 24.4512 0.429467 0.0158182 -0.902944
-0.517014 -19.738 24.806 0.352603 0.0210042 -0.935537
0.163139 -19.7832 25.0089 0.241361 0.00425645 -0.970426
0.943034 -19.7268 25.1645 0.146248 0.00825078 -0.989037
