-1.32696 19.8172 25.5067 -0.125619 -0.0116708 -0.991821
-0.523483 19.8906 25.3547 -0.238525 -0.0368303 -0.970438
-0.523483 19.8906 25.3547 -0.238525 -0.0368303 -0.970438
0.246291 19.9139 25.1299 -0.314204 0.0101612 -0.949254
-0.174789 20.2654 25.2718 -0.265572 0.0085931 -0.963053
-0.847626 20.2146 25.4211 -0.175754 0.0130506 -0.984345
-1.62267 20.3038 25.5336 -0.0940424 0.00278181 -0.995564
-2.39367 20.3328 25.5942 -0.0492245 -0.00476382 -0.998744
-3.26959 20.1323 25.6171 -0.0150402 -0.00374314 -0.99988
-2.59373 19.8588 25.6041 -0.043691 0.00281871 -0.999019
-1.83307 19.8436 25.5576 -0.0795974 0.00149372 -0.996824
-1.43235 19.8235 25.5179 -0.105391 -0.0124925 -0.994352
0.265057 19.9078 25.1227 -0.379393 0.00720901 -0.925023
0.995557 19.8432 24.8103 -0.433488 -0.00847163 -0.90112
1.83468 19.4978 24.3975 -0.459293 -0.00765226 -0.888252
2.43636 19.8176 24.0845 -0.460086 -0.00617791 -0.887852
3.2075 19.9037 23.6747 -0.482108 -0.00264621 -0.876108
3.99074 19.9243 23.2042 -0.546584 0.000871537 -0.837404
4.84005 19.9056 22.5783 -0.614255 -0.0211562 -0.788824
5.44769 19.8757 22.018 -0.699302 -0.0108392 -0.7145
5.95807 20.0327 21.4902 -0.726111 -0.00951195 -0.68741
5.47993 20.3066 21.9893 -0.718653 0.0097298 -0.695301
4.90443 20.2993 22.5268 -0.634732 0.0388583 -0.771494
4.3038 20.2786 22.9956 -0.576121 -0.00537763 -0.817347
3.66579 20.2888 23.4079 -0.514357 -7.33298e-05 -0.857576
2.97898 20.278 23.7972 -0.471645 -0.00937583 -0.881688
2.29476 20.2397 24.1538 -0.459863 -0.0098598 -0.887935
1.44832 20.2997 24.5875 -0.450213 0.00171677 -0.892918
0.690758 20.2446 24.9535 -0.401939 0.0141212 -0.915334
0.41766 20.1785 25.066 -0.385845 0.02429 -0.922244
-9.42774 20.2026 22.5603 0.745484 0.00120261 -0.666523
-9.99571 20.2826 21.9021 0.769356 0.006279 -0.638768
-10.2611 19.9176 21.5743 0.783347 0.00314817 -0.621576
-9.68118 19.873 22.2707 0.756975 7.06369e-05 -0.653443
-9.434 19.969 22.5529 0.745485 0.00120513 -0.666522
-6.12439 -13.3941 21.7414 0.787149 0.0565121 -0.614167
-6.23046 -14.0904 21.5446 0.7878 0.0438752 -0.614366
-6.10989 -14.8451 21.6426 0.780163 0.0417326 -0.624183
-5.97303 -15.7556 21.7684 0.758347 0.0211104 -0.651475
-6.0945 -16.5988 21.6113 0.758909 0.00629617 -0.651148
-6.18198 -17.3467 21.5038 0.750541 -0.00542364 -0.660801
-6.14921 -18.1256 21.5469 0.745864 -0.0123672 -0.665983
-6.16758 -18.9009 21.5323 0.751174 -0.00237171 -0.660097
-6.1774 -19.7603 21.5256 0.748835 -0.0126843 -0.66263
-5.6631 -20.0946 22.0854 0.713728 -0.00426889 -0.700372
-4.98224 -20.1089 22.7355 0.657715 -0.0102273 -0.752792
-4.35977 -20.0974 23.1993 0.561716 -0.0233036 -0.827002
-3.64388 -20.0875 23.6395 0.502893 0.00016865 -0.864349
-2.90161 -20.0989 24.0471 0.471944 0.00376719 -0.88162
-2.20085 -20.06 24.4207 0.470379 0.0104865 -0.882402
-1.5295 -20.1442 24.7677 0.445463 0.00550352 -0.895207
-0.830085 -20.1008 25.0923 0.403382 -0.00435977 -0.915021
-0.0351556 -19.9729 25.356 0.247272 0.015966 -0.968815
0.706882 -20.0499 25.5168 0.137636 0.0153006 -0.990357
1.50019 -20.1275 25.6104 0.0970242 0.0127441 -0.9952
2.31717 -20.1483 25.6656 0.0430511 0.00526635 -0.99894
2.16627 -19.7276 25.6656 0.0553226 0.0128888 -0.998377
1.38502 -19.6802 25.6056 0.10056 0.0134016 -0.994834
0.576826 -19.6894 25.4972 0.172641 0.00657629 -0.984963
-0.231265 -19.7777 25.3092 0.289225 0.00431994 -0.956177
-0.953832 -19.7801 25.0397 0.38735 0.0211838 -0.921689
-1.60474 -19.6592 24.7363 0.447535 0.0161697 -0.89412
-2.30836 -19.3441 24.3744 0.481139 0.00935693 -0.876591
-2.92398 -18.8597 24.0432 0.471723 0.0158513 -0.881587
-3.56657 -18.7025 23.6996 0.486147 0.0320012 -0.873291
-4.18628 -18.4655 23.3474 0.533841 0.0565869 -0.843689
-4.68176 -17.9619 23.0173 0.634641 0.00113451 -0.772806
-5.06758 -17.3001 22.6886 0.703067 0.0276235 -0.710587
-5.22692 -16.553 22.5589 0.715603 0.0357758 -0.69759
-5.32971 -15.745 22.4936 0.728165 0.0499848 -0.683509
-5.39917 -14.9077 22.4803 0.752886 0.0618819 -0.655124
-5.55156 -14.0621 22.3927 0.770895 0.0681357 -0.633293
-5.96052 -13.5453 21.9371 0.786429 0.056284 -0.615111
-6.00143 -13.5065 21.8883 0.786432 0.056285 -0.615107
8.33181 -11.3391 22.4407 -0.808823 0.00261518 -0.588046
8.3713 -10.5588 22.3988 -0.816096 0.0088491 -0.577831
8.70801 -10.098 21.928 -0.821545 0.0066167 -0.570105
8.95691 -10.569 21.5657 -0.820392 0.00240497 -0.571787
8.76963 -11.3588 21.8351 -0.814097 -0.00431426 -0.580713
8.35558 -11.4882 22.4073 -0.808823 0.00261377 -0.588047
8.95649 -19.6712 22.2545 -0.767661 0.00547274 -0.640708
8.81463 -20.133 22.4201 -0.758467 -0.00421543 -0.651697
9.32381 -20.1006 21.8027 -0.77504 -0.00058161 -0.631903
