1.20583 -20.4427 26.3226 0.0995122 -0.0157451 -0.994912
2.03401 -20.4652 26.3915 0.0697282 -0.000539211 -0.997565
2.03401 -20.4652 26.3915 0.0697282 -0.000539211 -0.997565
2.88186 -20.4825 26.438 0.0444588 -0.00650861 -0.99899
3.1996 -19.8655 26.451 0.0424614 0.000743516 -0.999096
2.74618 -19.4117 26.4333 0.0515598 0.00545886 -0.998655
1.83059 -19.3637 26.3826 0.0621072 0.0132515 -0.997982
1.04457 -19.4056 26.3055 0.124858 0.00765815 -0.992145
0.214834 -19.3289 26.1767 0.201964 0.0802167 -0.976102
-0.53593 -19.3076 26.0017 0.270295 0.122906 -0.9549
-1.33677 -19.4074 25.7018 0.390483 0.130508 -0.910618
-2.00114 -19.3496 25.3567 0.523649 0.0473733 -0.850535
-2.68186 -19.2997 24.9407 0.532095 0.0127862 -0.846588
-3.30193 -18.9238 24.5584 0.510991 0.015865 -0.859439
-3.99884 -18.7193 24.2065 0.417804 0.00703141 -0.90851
-4.62727 -18.7309 23.9107 0.426827 0.010461 -0.904271
-4.80776 -19.4406 23.8271 0.428526 -0.00921185 -0.903482
-4.61552 -20.2762 23.9297 0.418837 -0.00898478 -0.908017
-3.96696 -20.4786 24.2366 0.440478 -0.00948778 -0.897713
-3.22794 -20.4529 24.6155 0.484098 0.0202397 -0.87478
-2.57195 -20.4555 24.9952 0.519244 0.00205261 -0.854624
-1.7436 -20.4284 25.4791 0.478061 -0.0417241 -0.877308
-1.0649 -20.5027 25.8047 0.361374 -0.090038 -0.927068
-0.263704 -20.5642 26.0663 0.23741 -0.0356537 -0.970724
0.582315 -20.4639 26.2383 0.166561 -0.0249277 -0.985716
0.962362 -20.4594 26.2985 0.0995122 -0.0157451 -0.994912
-5.94242 -19.0217 23.0287 0.693923 -0.00838698 -0.719672
-6.12148 -18.3214 22.8362 0.739741 -0.00361572 -0.672882
-6.12652 -17.5333 22.8262 0.735861 0.00183593 -0.67713
-6.21463 -16.7924 22.7334 0.738105 0.0112087 -0.674575
-6.25311 -15.9362 22.718 0.75353 0.0412748 -0.656117
-6.34501 -15.0069 22.6666 0.772893 0.0525227 -0.632355
-6.23998 -14.3337 22.851 0.780836 0.0597971 -0.621853
-6.4199 -13.6791 22.686 0.788426 0.064544 -0.611734
-6.46876 -12.8981 22.7138 0.793958 0.0765952 -0.603129
-6.77002 -12.3144 22.3795 0.803909 0.069966 -0.590623
-7.24431 -11.8537 21.7805 0.810459 0.0641845 -0.582268
-7.57088 -11.7647 21.3353 0.811603 0.0620726 -0.580902
-7.5494 -12.6648 21.2734 0.809446 0.0585113 -0.584273
-7.44892 -13.5744 21.3349 0.805605 0.0443999 -0.590778
-7.08043 -14.0045 21.7953 0.795828 0.0469976 -0.603696
-6.67835 -14.5131 22.2796 0.789012 0.04724 -0.612559
-6.5165 -15.3817 22.4352 0.781261 0.0272905 -0.623608
-6.60157 -16.2104 22.3081 0.767966 0.00669044 -0.640456
-6.73243 -16.9547 22.1475 0.758492 0.00445436 -0.651667
-6.95676 -17.8601 21.8903 0.760209 -0.00604749 -0.64965
-7.1357 -18.7274 21.6875 0.766493 -0.00178848 -0.642225
-7.45708 -19.4049 21.297 0.775316 -0.000565556 -0.631552
-7.46399 -20.2218 21.2951 0.774212 -0.00332459 -0.632917
-7.06309 -20.4437 21.7829 0.767451 -0.0119207 -0.640996
-6.53766 -20.4689 22.3964 0.751974 -0.00487606 -0.659175
-6.2137 -20.0382 22.7526 0.742028 -0.00622286 -0.67034
-6.00506 -19.2244 22.9672 0.737208 -0.0134404 -0.675532
-5.95797 -19.0525 23.0152 0.712884 -0.0211485 -0.700069
9.57372 -19.8641 22.7923 -0.784984 0.00124209 -0.619514
9.86139 -19.3572 22.4239 -0.792055 0.00149194 -0.610441
10.3145 -19.3377 21.8215 -0.806872 0.00705277 -0.590677
10.6918 -19.6123 21.2998 -0.812039 0.0014366 -0.583601
10.5808 -20.4718 21.4566 -0.808655 -0.00426197 -0.588263
10.0642 -20.5071 22.1574 -0.799321 -0.0149847 -0.600717
9.60741 -20.1889 22.7494 -0.785625 -0.00171543 -0.618701
9.57362 -19.8697 22.7924 -0.784756 0.000672363 -0.619804
9.16205 -11.2188 22.6565 -0.817857 0.00218604 -0.575417
9.11857 -10.4367 22.7296 -0.818533 0.0135141 -0.5743
9.13786 -9.46583 22.7269 -0.826796 0.0164323 -0.562261
9.43412 -8.89593 22.3033 -0.830848 0.0146096 -0.556301
9.80523 -8.4914 21.7534 -0.834038 0.0103269 -0.55161
10.0823 -8.68471 21.3301 -0.83528 0.00677991 -0.549781
10.1191 -9.5199 21.2671 -0.833037 0.00302437 -0.553206
10.0397 -10.3827 21.3858 -0.831109 -0.00213871 -0.556103
9.66307 -10.8652 21.9405 -0.824826 -0.00110266 -0.565381
9.25533 -11.1385 22.5242 -0.817856 0.00218761 -0.575418
6.86784 19.4697 21.75 -0.761782 -0.00309355 -0.647826
6.24893 19.5467 22.4429 -0.732242 -0.0278799 -0.680317
5.62294 19.5923 23.0477 -0.660682 -0.0176165 -0.750459
5.22218 19.7477 23.3678 -0.590813 0.0228783 -0.806484
5.66371 20.0875 23.0334 -0.672776 0.032136 -0.737739
6.09269 20.5818 22.611 -0.72746 0.011479 -0.68589
6.67491 20.607 21.9668 -0.752373 0.00852258 -0.658682
7.18869 20.5761 21.3648 -0.765849 0.0091417 -0.642956
7.29171 19.8056 21.2392 -0.77091 -0.00451411 -0.636913
6.93178 19.4769 21.6747 -0.761784 -0.00309445 -0.647824
4.96898 19.5683 23.5325 -0.51012 -0.00206533 -0.858803
4.15002 19.5219 23.9904 -0.462591 -0.0192655 -0.886362
3.45519 19.5076 24.3349 -0.453275 0.00416946 -0.891332
2.63453 19.5868 24.7687 -0.489715 -0.00112809 -0.871882
1.94212 19.5681 25.1648 -0.508938 -0.00275601 -0.860733
1.19943 19.5202 25.5763 -0.460737 -0.0330669 -0.886921
0.473146 19.5377 25.8922 -0.311585 -0.0741459 -0.947321
-0.375955 19.5247 26.1198 -0.204249 -0.0347553 -0.977723
-1.16938 19.5405 26.2459 -0.126485 -0.0228878 -0.991698
-1.91996 19.5133 26.3259 -0.0813366 -0.0168321 -0.996545
-2.7353 19.5158 26.3797 -0.0520595 -0.00827806 -0.998609
-3.47062 19.6388 26.4109 -0.0337604 -0.00982802 -0.999374
-3.51199 20.4978 26.4099 -0.0306238 0.000334106 -0.999531
-2.75998 20.6359 26.3827 -0.0512104 0.0123959 -0.998573
-1.97919 20.5921 26.3322 -0.0877686 0.0202357 -0.995935
-1.23465 20.6207 26.2544 -0.123637 0.0219805 -0.992084
-0.334084 20.6456 26.1132 -0.205548 0.0394144 -0.977156
0.455138 20.6333 25.8939 -0.346203 0.0770217 -0.934366
1.18815 20.6159 25.5798 -0.449103 0.0567862 -0.890959
1.92463 20.6365 25.1701 -0.505164 -0.00479316 -0.86301
2.64088 20.6333 24.7486 -0.485205 -0.0254737 -0.874029
3.35325 20.6581 24.3727 -0.436506 -0.0192368 -0.899465
4.06531 20.5965 24.0382 -0.426831 0.0028435 -0.904125
4.52562 19.9898 23.7975 -0.474433 0.0132253 -0.880192
4.8961 19.6775 23.5805 -0.502562 0.0443231 -0.863404
-10.2972 19.9898 22.7983 0.775104 -0.00314012 -0.631826
-10.482 20.6418 22.5704 0.775672 0.00906913 -0.631014
-10.957 20.6684 21.969 0.791702 0.0183235 -0.610586
-11.4161 20.538 21.3571 0.802147 0.00398539 -0.597076
-11.4452 19.7352 21.3132 0.806733 -0.00309282 -0.590908
-10.9774 19.4779 21.9422 0.795744 -0.00262704 -0.605578
