37.871 22.7857 -26.7944 -0.612125 -0.79001 0.0340715
38.939 21.9661 -27.2358 -0.586678 -0.809111 0.0294835
39.8191 21.3373 -27.4925 -0.565945 -0.824109 0.0136982
40.8977 20.617 -27.6507 -0.554001 -0.832275 0.0200311
41.7301 20.0782 -27.9606 -0.52724 -0.8495 0.0192061
42.6454 19.5293 -28.378 -0.488798 -0.87161 0.0370369
43.6531 18.9637 -28.588 -0.470115 -0.88178 0.0381599
44.1195 18.7063 -29.0398 -0.44361 -0.895996 0.0200118
45.0092 18.2926 -28.7088 -0.415743 -0.909231 0.0213817
46.0124 17.8384 -28.7702 -0.405639 -0.913726 0.0237136
46.7682 17.5421 -28.9633 -0.35524 -0.934598 0.0172582
47.7333 17.1896 -29.1343 -0.337592 -0.941196 0.0134867
48.7578 16.8434 -29.2769 -0.300705 -0.95349 0.0208235
49.6709 16.579 -29.4426 -0.247909 -0.968202 0.0294855
50.6609 16.34 -29.4848 -0.233141 -0.971831 0.0344996
51.8903 16.0665 -29.3809 -0.182727 -0.983012 0.0062043
53.1451 15.831 -29.255 -0.171631 -0.985074 -0.0105502
54.3321 15.6372 -29.5919 -0.147847 -0.9888 -0.00807657
55.3117 15.5343 -29.7503 -0.0979487 -0.995119 -0.0119732
56.1537 15.4378 -30.3702 -0.0831105 -0.996088 0.0236468
55.3397 15.5278 -30.1079 -0.0996677 -0.994513 0.0317707
54.2025 15.655 -30.2416 -0.158685 -0.986961 0.0265599
53.081 15.8333 -30.1673 -0.16582 -0.985871 0.021115
51.8852 16.0425 -30.4888 -0.197575 -0.97996 0.0173904
50.9236 16.2555 -30.3986 -0.215065 -0.976517 0.0126862
49.9115 16.4939 -30.2128 -0.247912 -0.968201 0.0294835
48.9362 16.7631 -30.0224 -0.279969 -0.959122 0.0348607
47.5228 17.2461 -29.7544 -0.329316 -0.94336 0.0402781
46.3815 17.6772 -29.6241 -0.367122 -0.929574 0.0333816
45.7948 17.9191 -29.3855 -0.410248 -0.911696 0.02187
44.5988 18.4676 -29.2474 -0.415301 -0.909448 0.0207049
43.7422 18.8873 -29.2535 -0.451777 -0.890851 0.0459688
42.8517 19.3846 -29.0592 -0.490614 -0.870665 0.0351088
41.8158 19.9756 -28.944 -0.512706 -0.857222 0.0409478
40.9638 20.5321 -28.6847 -0.544032 -0.837586 0.0498006
40.1101 21.104 -28.4898 -0.558208 -0.828927 0.0358302
39.281 21.6858 -28.2915 -0.577601 -0.815292 0.04094
38.2957 22.418 -27.9784 -0.596623 -0.80179 0.0342636
37.5222 23.0137 -27.6752 -0.613548 -0.788691 0.0390529
36.5482 23.8005 -27.3696 -0.629038 -0.77622 0.042351
35.4885 24.7065 -26.6418 -0.6372 -0.76982 0.0364359
34.4384 25.6058 -26.2056 -0.647423 -0.761451 0.0321983
33.6452 26.3125 -25.5569 -0.652714 -0.756882 0.0330826
33.2809 26.66 -24.797 -0.653294 -0.756386 0.03296
34.0514 25.9823 -25.1006 -0.650299 -0.758942 0.0332904
34.866 25.2794 -25.3439 -0.645471 -0.763077 0.0328598
35.5853 24.6636 -25.7113 -0.638147 -0.769349 0.0295152
36.303 24.059 -26.0123 -0.632456 -0.773952 0.0315916
37.1795 23.3239 -26.674 -0.622325 -0.781966 0.0352321
37.5573 23.0314 -26.6939 -0.61059 -0.791404 0.0293148
37.7712 22.8969 -25.7381 -0.611918 -0.790511 0.0252633
36.8686 23.6241 -25.3117 -0.627801 -0.777832 0.0282291
35.9353 24.4036 -24.9113 -0.635673 -0.771367 0.0299967
35.1894 25.0384 -24.5489 -0.642577 -0.765579 0.0310725
34.4524 25.6831 -24.111 -0.648626 -0.760433 0.0320164
33.6297 26.4047 -23.7446 -0.652989 -0.756691 0.0320033
32.6566 27.2648 -23.2906 -0.654417 -0.75549 0.031199
31.7972 28.0235 -22.9796 -0.657925 -0.752492 0.0298104
31.0937 28.6411 -22.887 -0.657548 -0.752774 0.0310097
31.2499 28.457 -24.0474 -0.657267 -0.753029 0.0307904
31.8645 27.8795 -25.0308 -0.656897 -0.75329 0.0322712
32.5336 27.2655 -25.731 -0.657149 -0.753045 0.0328304
33.1683 26.6904 -26.3136 -0.652308 -0.757151 0.0348395
33.9924 25.9464 -27.0251 -0.650012 -0.759007 0.037202
34.8628 25.178 -27.552 -0.648568 -0.760179 0.0385506
35.6039 24.5385 -28.009 -0.635405 -0.771098 0.0408382
36.6743 23.6453 -28.4449 -0.624685 -0.780013 0.0367252
37.6246 22.8854 -28.7871 -0.604402 -0.795997 0.0329695
38.5291 22.1887 -29.1286 -0.590071 -0.806495 0.0364766
39.4732 21.4944 -29.3366 -0.579452 -0.812747 0.0595135
40.4013 20.8455 -29.6273 -0.55589 -0.828598 0.0664165
41.4658 20.1361 -29.8267 -0.53617 -0.841638 0.0645618
42.5134 19.5162 -30.1102 -0.494016 -0.867285 0.0609306
43.5292 18.9484 -30.2812 -0.457098 -0.887591 0.05695
44.4337 18.4936 -30.3975 -0.425489 -0.90404 0.0408617
45.3811 18.0549 -30.4571 -0.403309 -0.913934 0.0449292
46.4416 17.608 -30.639 -0.356757 -0.932929 0.04867
47.5864 17.1756 -30.8101 -0.335787 -0.940044 0.0597005
48.6134 16.8204 -30.9901 -0.284516 -0.957476 0.0390663
49.7689 16.4899 -31.1329 -0.262025 -0.962653 0.0650522
51.4971 16.0877 -31.4058 -0.20036 -0.978509 0.0462574
52.8548 15.8396 -31.4006 -0.166855 -0.984737 0.049526
54.1634 15.6268 -31.3911 -0.141535 -0.989383 0.0253703
55.3604 15.4704 -31.8778 -0.121354 -0.992212 0.0273409
56.4051 15.393 -31.9418 -0.0340495 -0.999355 0.0114487
57.6149 15.3559 -31.5781 -0.0331856 -0.999395 0.0103797
58.8478 15.3338 -31.52 -0.000905853 -0.999768 0.0206276
60.5897 15.3597 -31.5437 0.0324299 -0.999152 0.0248509
61.6776 15.3976 -31.6125 0.0420903 -0.99873 0.0265868
62.7084 15.4622 -31.7139 0.0807211 -0.996443 0.0242104
63.9399 15.5832 -31.7003 0.109149 -0.993532 0.0313051
65.2539 15.7506 -31.816 0.148922 -0.988553 0.0241876
66.5092 15.9548 -32.0184 0.173043 -0.98455 0.0267923
67.6108 16.1593 -32.2297 0.196902 -0.979826 0.0342092
68.9548 16.4472 -32.4375 0.232135 -0.972029 0.0356818
70.0229 16.7076 -32.2291 0.248898 -0.968389 0.0165176
69.667 16.6442 -31.2072 0.222234 -0.974842 0.0126653
68.6007 16.4008 -30.5175 0.223187 -0.974775 0.00113243
67.2892 16.1395 -29.9268 0.183656 -0.982942 0.00737959
65.851 15.8835 -29.4457 0.166301 -0.985958 0.00546193
64.6072 15.6961 -29.3559 0.147241 -0.989092 0.00413989
63.6301 15.5926 -29.1843 0.109697 -0.993898 -0.00211516
62.6351 15.5018 -28.9263 0.0741503 -0.997063 -0.00576576
61.3752 15.4058 -28.7103 0.0555178 -0.998338 -0.0131709
60.2123 15.3492 -28.6556 0.0331796 -0.999172 -0.01799
58.9232 15.3281 -28.5595 0.013238 -0.999788 -0.0157958
57.7446 15.3475 -28.6837 -0.0143575 -0.999548 -0.0260179
56.6259 15.4005 -28.6905 -0.0901958 -0.995903 -0.00653543
55.4533 15.5057 -28.5329 -0.0940719 -0.995511 -0.00925525
54.267 15.6453 -28.4261 -0.123282 -0.992348 0.006902
53.1427 15.8253 -28.3182 -0.178107 -0.98399 -0.00645366
52.0578 16.0243 -28.3002 -0.201333 -0.979356 -0.00211034
51.0092 16.2576 -28.3068 -0.226795 -0.973877 -0.000214571
49.3756 16.6828 -28.2144 -0.263037 -0.964643 0.0166172
48.3126 17.0069 -28.1559 -0.3157 -0.948718 0.00920711
47.1656 17.4122 -27.9685 -0.350539 -0.936479 0.0110557
46.0829 17.8223 -27.6447 -0.381168 -0.923777 -0.0027249
45.0652 18.2821 -27.6711 -0.423182 -0.906019 0.00678654
44.2273 18.6879 -27.4788 -0.459359 -0.888214 0.00805443
43.3387 19.1522 -27.4958 -0.491999 -0.870553 0.00751371
42.3461 19.7229 -27.1862 -0.520287 -0.853708 0.021647
41.527 20.2292 -26.8037 -0.519692 -0.85417 0.0177142
40.3874 20.9773 -26.5682 -0.551578 -0.834054 0.0107549
39.2228 21.7928 -26.2978 -0.586753 -0.809301 0.0274522
38.3965 22.4102 -25.9181 -0.605597 -0.795432 0.0224952
37.9317 22.7723 -25.7733 -0.609354 -0.792476 0.0258526
38.0799 22.6774 -24.8108 -0.615429 -0.788124 0.0103789
36.9564 23.5809 -24.3497 -0.628482 -0.777506 0.0201083
35.9727 24.4048 -23.9477 -0.640301 -0.767733 0.0243011
35.2576 25.018 -23.4878 -0.646064 -0.762875 0.0237871
34.4728 25.7076 -23.0465 -0.651624 -0.757957 0.0296683
33.5858 26.4892 -22.615 -0.652327 -0.757287 0.0313898
32.7826 27.1979 -22.1834 -0.65343 -0.756472 0.0279214
31.859 28.0124 -21.8569 -0.658738 -0.751819 0.0288472
30.9824 28.791 -21.6122 -0.658253 -0.752173 0.0306381
29.9945 29.6504 -21.7596 -0.659218 -0.751278 0.0318091
29.9544 29.6313 -23.0335 -0.65864 -0.75173 0.0331043
30.3921 29.2103 -23.921 -0.65662 -0.753576 0.0311512
30.7883 28.8241 -24.9469 -0.658203 -0.752247 0.0298961
31.313 28.3363 -25.6603 -0.659865 -0.750815 0.0292312
32.2277 27.4899 -26.6922 -0.656951 -0.753191 0.0334482
33.079 26.7075 -27.5611 -0.655252 -0.754661 0.0336295
33.8112 26.0543 -27.9825 -0.651097 -0.757946 0.0398505
34.5347 25.4074 -28.546 -0.648563 -0.760183 0.0385663
35.3541 24.6815 -28.9934 -0.641746 -0.765315 0.0486821
36.4128 23.7981 -29.387 -0.620246 -0.783004 0.0469113
37.281 23.0847 -29.7045 -0.611537 -0.789028 0.0558454
38.4384 22.1892 -30.1815 -0.594596 -0.802102 0.0555614
39.3887 21.4775 -30.447 -0.570383 -0.819082 0.0613894
40.2012 20.8886 -30.6292 -0.562304 -0.821632 0.0906711
41.1723 20.24 -30.7648 -0.516247 -0.851502 0.0892267
42.2513 19.5841 -31.1224 -0.490749 -0.867727 0.0787405
43.1606 19.0729 -31.2789 -0.458796 -0.886443 0.0610295
44.2715 18.4764 -31.5896 -0.436187 -0.896828 0.0689256
45.1719 18.0773 -31.5258 -0.389238 -0.918268 0.0726518
46.2728 17.6006 -31.6779 -0.369805 -0.925658 0.0775934
47.3387 17.192 -31.8248 -0.319673 -0.943678 0.0853267
48.5604 16.7659 -31.9332 -0.297387 -0.949743 0.0939657
49.5363 16.4911 -32.0905 -0.237195 -0.969223 0.065558
50.4822 16.249 -32.2299 -0.215512 -0.974283 0.0636474
51.6025 16.0242 -32.4018 -0.179887 -0.981996 0.0568133
52.6105 15.8304 -32.4397 -0.178422 -0.982763 0.0475828
53.6668 15.6601 -32.482 -0.139127 -0.989246 0.0413584
54.6515 15.5309 -32.6591 -0.124524 -0.99173 0.0310691
55.7279 15.4048 -32.9281 -0.0559687 -0.997892 0.0220172
57.236 15.344 -32.6715 -0.0481929 -0.998417 0.0290072
58.2507 15.3101 -32.5606 -0.0427265 -0.998154 0.0415828
59.3927 15.3046 -32.631 0.00683051 -0.999234 0.0384587
60.7275 15.3322 -32.5654 0.0354684 -0.998368 0.0447603
62.3077 15.3865 -32.69 0.0574625 -0.997083 0.0469711
63.5098 15.4858 -32.768 0.0969173 -0.994271 0.0450756
64.6047 15.6165 -32.8309 0.140646 -0.988772 0.0488769
65.8631 15.8132 -32.911 0.16222 -0.986087 0.0355218
66.8308 15.962 -33.1614 0.166344 -0.985001 0.045852
67.9982 16.1902 -33.314 0.209725 -0.976452 0.0504724
69.4877 16.527 -33.4307 0.228232 -0.972247 0.0514448
70.8734 16.8997 -33.2297 0.245556 -0.969039 0.0258016
71.4035 17.0733 -31.913 0.252305 -0.967336 0.0245808
70.5839 16.8739 -30.8291 0.257266 -0.966318 -0.00279957
69.3921 16.577 -29.7626 0.214532 -0.976692 -0.00701117
68.48 16.3794 -29.3566 0.200124 -0.979768 -0.0021326
67.1323 16.1089 -28.8508 0.181429 -0.983337 -0.00601374
66.1593 15.9344 -28.532 0.173106 -0.984843 -0.0108907
64.6879 15.706 -28.2233 0.139891 -0.990094 -0.0120023
63.6714 15.5817 -28.1825 0.102402 -0.99458 -0.0176756
62.6226 15.4778 -27.8228 0.0933279 -0.995562 -0.0120751
61.6331 15.4046 -27.724 0.0608474 -0.997853 -0.0242095
60.3697 15.3308 -27.6795 0.0495786 -0.998144 -0.0353653
59.2378 15.2955 -27.5179 0.00528049 -0.998581 -0.0529845
58.2179 15.3085 -27.5013 -0.0107814 -0.999616 -0.0255089
57.0454 15.3468 -27.4835 -0.0876513 -0.995921 -0.0214144
55.5077 15.4767 -27.3894 -0.0838951 -0.996135 -0.0260187
54.5097 15.5949 -27.4748 -0.126169 -0.99161 -0.0281299
53.3612 15.7479 -27.3212 -0.167659 -0.984958 -0.0369905
51.8879 16.037 -27.2406 -0.215179 -0.975763 -0.0391657
50.5547 16.3458 -27.1779 -0.255729 -0.965883 -0.0367955
49.3871 16.6748 -27.1332 -0.270056 -0.961828 -0.0440725
48.4054 16.9824 -27.1252 -0.318411 -0.946808 -0.0465779
47.4523 17.3165 -26.9202 -0.362395 -0.931269 -0.0255939
46.4054 17.7061 -26.6849 -0.356971 -0.934057 -0.00540225
45.4207 18.1106 -26.6426 -0.424426 -0.905398 -0.0108297
44.2923 18.6543 -26.4326 -0.44777 -0.893984 -0.0114203
43.3807 19.1242 -26.4634 -0.473547 -0.880491 -0.00279273
42.4013 19.6903 -26.1423 -0.522566 -0.852124 -0.0277761
41.5359 20.2121 -25.7739 -0.526077 -0.849825 -0.0322518
40.2544 21.0735 -25.5923 -0.556768 -0.830532 -0.00563545
39.0434 21.9447 -25.072 -0.594467 -0.80403 0.0120625
38.2956 22.5087 -24.8267 -0.615427 -0.788125 0.0103775
66.4723 15.9782 -30.9231 0.168955 -0.985199 0.0285681
65.1436 15.7741 -30.3335 0.159262 -0.986987 0.0148571
66.4526 15.9779 -30.7283 0.166301 -0.985958 0.00546193
67.4082 16.1587 -31.0436 0.188368 -0.982093 0.00320932
67.3052 16.1366 -31.1291 0.196697 -0.979856 0.0345327
62.0042 15.4434 -30.664 0.0523979 -0.998363 0.0174132
63.1076 15.5221 -30.727 0.0870035 -0.995807 0.0282677
64.1313 15.6408 -30.4305 0.115584 -0.992994 0.0245631
64.1344 15.6452 -30.1988 0.116957 -0.993115 0.0066008
63.0555 15.5271 -30.1265 0.0919166 -0.995764 0.00238283
62.1973 15.4606 -29.8129 0.0697202 -0.997495 0.0119784
61.1263 15.3999 -29.6945 0.0443661 -0.998996 0.0061837
59.7506 15.356 -29.6255 0.0188493 -0.999822 0.00100069
58.7249 15.3462 -29.6101 -0.0102619 -0.999918 -0.00758987
57.9887 15.3589 -30.2827 -0.0102627 -0.999918 -0.00759061
59.3597 15.3478 -30.5043 0.00469249 -0.999871 -0.00373193
60.472 15.3742 -30.5602 0.024953 -0.999684 -0.00318602
61.6292 15.4224 -30.5455 0.0568661 -0.998377 0.00320693
61.8799 15.4376 -30.242 0.0568655 -0.998377 0.00320652
