33.7599 33.2799 -27.3748 0.660169 0.750779 -0.0225176
34.543 32.5878 -27.4611 0.660991 0.750072 -0.0219874
35.2844 31.9197 -27.7202 0.663523 0.747329 -0.0351623
36.3284 30.9946 -27.8836 0.65402 0.755659 -0.0351672
37.2132 30.2146 -28.1717 0.65016 0.758575 -0.0430852
38.2003 29.3525 -28.493 0.643281 0.764096 -0.0477078
38.9372 28.7284 -28.6621 0.635854 0.770052 -0.051948
39.7253 28.0801 -28.9466 0.617738 0.78481 -0.0497198
40.4733 27.4783 -29.1537 0.611582 0.789392 -0.0525394
41.3366 26.8255 -29.2384 0.584798 0.808407 -0.066993
42.3046 26.0923 -29.7645 0.563117 0.821745 -0.0873783
43.2135 25.454 -29.9418 0.537967 0.837134 -0.0962997
43.9953 24.9474 -30.1565 0.506946 0.856912 -0.0906387
44.9979 24.3545 -30.3637 0.501417 0.862504 -0.068317
45.9253 23.8447 -30.4708 0.452685 0.887569 -0.0854256
47.1523 23.2523 -30.7547 0.418622 0.905723 -0.0664877
48.1644 22.799 -31.0112 0.375573 0.923171 -0.0818525
49.2161 22.3811 -31.4347 0.344223 0.937143 -0.0572081
50.1649 22.0443 -31.445 0.322505 0.944427 -0.06362
51.1741 21.743 -31.6637 0.273476 0.960942 -0.042435
52.2913 21.4329 -31.7591 0.245184 0.96817 -0.0503171
53.563 21.1217 -31.9978 0.221555 0.974388 -0.0384789
54.7907 20.8779 -32.2056 0.161668 0.98586 -0.0440839
55.8456 20.7127 -32.3859 0.145505 0.987847 -0.0546411
56.8351 20.5755 -32.4747 0.0794597 0.995271 -0.0558787
57.9433 20.4882 -32.6326 0.0624765 0.997135 -0.0425141
59.1035 20.404 -32.8539 0.0517936 0.997028 -0.0542313
60.3578 20.3525 -33.174 0.0223493 0.998494 -0.0500985
61.384 20.3696 -33.2913 -0.0421423 0.997346 -0.0592145
62.626 20.4288 -33.512 -0.0730762 0.995863 -0.0540037
63.7623 20.5144 -33.865 -0.115276 0.991585 -0.0589166
64.8988 20.6298 -34.1435 -0.115108 0.991614 -0.0587571
65.8561 20.7692 -34.3164 -0.187169 0.980341 -0.0624049
66.7223 20.9082 -34.8206 -0.207682 0.975688 -0.0700134
67.7848 21.1326 -35.2039 -0.252723 0.966199 -0.0506357
68.7101 21.3697 -35.3815 -0.274163 0.960567 -0.0463246
69.6645 21.6293 -35.7915 -0.284277 0.957891 -0.0403837
70.6507 21.9295 -35.6339 -0.293574 0.955098 -0.0391136
71.5708 22.2329 -35.369 -0.314157 0.94876 -0.0340513
72.0546 22.4137 -34.1739 -0.309296 0.950751 -0.018999
71.5 22.2595 -32.992 -0.291857 0.956302 -0.00379779
70.8022 22.0332 -32.1785 -0.284466 0.95858 0.00826788
70.0117 21.8046 -31.4749 -0.247646 0.968829 0.00644928
68.8513 21.5014 -30.5163 -0.234731 0.971938 0.00759949
67.3306 21.1528 -29.5686 -0.216918 0.976174 0.00563734
66.5217 20.9822 -29.0382 -0.192826 0.98109 0.016718
65.3615 20.797 -28.386 -0.119299 0.992787 0.0118647
64.4016 20.6712 -27.9672 -0.113851 0.993111 0.026492
63.3264 20.5602 -27.6497 -0.0794362 0.996756 0.0129305
62.1654 20.4525 -27.0252 -0.0595191 0.996418 0.0600711
60.8145 20.3744 -26.5919 -0.00511355 0.998248 0.0586517
59.5182 20.3619 -26.2017 0.040764 0.997583 0.0541093
57.9056 20.4335 -25.689 0.0934792 0.993395 0.0596718
56.9959 20.5258 -25.4355 0.115822 0.990389 0.0753588
56.1135 20.6523 -25.1067 0.180896 0.982495 0.0445056
55.1561 20.8228 -24.9349 0.199963 0.978751 0.0417095
53.9981 21.0679 -24.4405 0.233095 0.971699 0.0375027
53.0243 21.2946 -24.1656 0.257787 0.964792 0.0477978
51.5394 21.6943 -23.568 0.283056 0.958598 0.0311345
50.4777 22.048 -23.3853 0.368479 0.928472 0.0465107
49.5025 22.4187 -23.0444 0.375895 0.924083 0.0690922
48.1793 22.9785 -22.6233 0.423799 0.904619 0.0434772
47.3012 23.3673 -22.321 0.418215 0.907649 0.0356254
46.528 23.768 -21.9574 0.481694 0.875803 0.0306754
45.1868 24.5062 -21.41 0.520817 0.850922 0.0538407
44.3584 25.0335 -20.8516 0.552605 0.832804 0.0326333
43.5753 25.5452 -20.6117 0.559374 0.828762 0.0159452
42.7476 26.1279 -20.0437 0.571738 0.820431 -0.0028519
41.7559 26.8352 -19.4375 0.605461 0.795724 -0.00282747
40.6371 27.7088 -18.7017 0.611537 0.791176 -0.00788075
39.8781 28.3162 -18.3119 0.627326 0.778734 -0.00593193
39.2046 28.871 -17.8435 0.628581 0.777719 -0.0061865
38.228 29.686 -17.1681 0.64657 0.762808 -0.00848559
37.4285 30.3676 -16.8179 0.64661 0.762772 -0.0085854
36.6895 31.0117 -16.2499 0.656033 0.7547 -0.00698443
35.8847 31.7179 -15.8108 0.65734 0.753534 -0.0095011
35.2204 32.3041 -15.4076 0.65974 0.751428 -0.0098886
34.2989 33.1225 -14.8611 0.660152 0.751053 -0.0109296
33.615 33.7297 -14.5292 0.66176 0.749651 -0.00986285
32.8846 34.384 -14.0736 0.662594 0.748853 -0.0137162
32.0695 35.1148 -13.5909 0.663418 0.748117 -0.0140149
31.2372 35.8582 -13.3694 0.664272 0.747282 -0.0176847
30.5605 36.4608 -13.0915 0.659706 0.751245 -0.0204683
29.8158 37.1261 -12.509 0.657126 0.753521 -0.0197633
28.9879 37.8549 -12.0949 0.65502 0.755259 -0.0227463
28.2584 38.4962 -11.8868 0.649383 0.75993 -0.0284276
27.5615 39.1038 -11.5052 0.646013 0.762823 -0.0276999
26.7585 39.7987 -11.0308 0.645284 0.763311 -0.0307288
25.9488 40.4956 -10.6336 0.640457 0.767333 -0.0318562
25.1387 41.1892 -10.2367 0.641493 0.766442 -0.0324464
24.1316 42.0545 -9.56398 0.638816 0.768477 -0.0368322
23.3675 42.7019 -9.12258 0.631034 0.774677 -0.0408841
22.6864 43.2764 -8.70654 0.626697 0.778055 -0.0433794
21.8611 43.9744 -8.12706 0.619324 0.78365 -0.0482691
20.795 44.84 -7.76201 0.616534 0.785705 -0.050352
19.9864 45.5206 -7.0965 0.614827 0.785916 -0.0657463
19.251 46.1156 -6.76975 0.614862 0.784557 -0.0773864
18.5892 46.6538 -6.3421 0.593487 0.799782 -0.0875286
17.8549 47.2651 -5.76803 0.564101 0.818992 -0.105082
17.1469 47.8773 -4.88857 0.545165 0.82862 -0.126075
16.6772 48.3316 -4.07108 0.516243 0.845073 -0.132852
16.1735 48.7522 -3.15678 0.486347 0.860829 -0.149799
15.8829 49.0304 -2.18745 0.452582 0.881737 -0.130994
15.4759 49.3968 -1.05463 0.406354 0.905253 -0.124068
15.4009 49.6179 0.708707 0.39041 0.916657 -0.084378
15.4792 49.6715 1.8447 0.377556 0.924515 -0.0516605
15.651 49.6701 3.1373 0.368681 0.92851 -0.0432028
15.8602 49.6259 4.24363 0.353196 0.935548 -0.00162558
16.2746 49.4528 5.25034 0.373267 0.927548 0.0180644
16.5287 49.3236 6.24139 0.386092 0.921992 0.0293956
16.8683 49.1285 7.24271 0.418036 0.907774 0.0345281
17.0426 49.0067 8.19723 0.425729 0.904235 0.0333668
17.5471 48.6812 9.49458 0.454933 0.888681 0.0559278
18.0973 48.3351 10.2761 0.471181 0.880175 0.0572747
18.9363 47.8244 11.1183 0.472061 0.880057 0.0513717
19.8431 47.2989 11.7816 0.476119 0.878543 0.0372455
20.6853 46.8351 12.214 0.460943 0.88709 0.0245391
21.5265 46.4039 12.5155 0.443482 0.895608 0.0342677
22.3074 45.9971 12.882 0.447575 0.893403 0.0388117
23.1006 45.5707 13.3629 0.456275 0.888354 0.050357
24.2798 44.9205 14.0332 0.460835 0.886633 0.0388944
25.0465 44.495 14.4801 0.467122 0.883622 0.0317137
26.1969 43.8748 14.8766 0.466991 0.883802 0.028485
27.1885 43.3307 15.4509 0.467899 0.883363 0.0271756
28.3497 42.698 16.0721 0.467154 0.883802 0.0257089
29.3602 42.1437 16.5862 0.470789 0.881779 0.0286769
30.3628 41.5969 16.9687 0.471159 0.881596 0.0282422
31.5545 40.9391 17.5428 0.473368 0.880404 0.0285058
32.4644 40.4269 18.2157 0.475624 0.879086 0.0314519
33.3856 39.9154 18.5023 0.480802 0.876404 0.0273235
34.5419 39.2599 19.2589 0.478632 0.877618 0.0264304
35.3303 38.8171 19.6772 0.479286 0.877242 0.0270326
36.3065 38.2687 20.2448 0.477149 0.878441 0.0258991
37.081 37.8359 20.6439 0.477436 0.878293 0.0256232
37.8 37.4294 21.1965 0.476373 0.878853 0.0261963
38.6211 36.9685 21.7051 0.477062 0.878497 0.025581
39.3362 36.5664 22.1927 0.476978 0.878562 0.0249
40.0713 36.154 22.6992 0.476085 0.87908 0.0236797
41.1874 35.534 23.4201 0.465168 0.884992 0.0181906
41.8907 35.1607 23.8848 0.460327 0.887559 0.0183902
42.6877 34.7348 24.5687 0.456335 0.889526 0.0223471
43.4863 34.3117 25.0431 0.459088 0.888139 0.0211284
44.2499 33.9029 25.6428 0.461196 0.887119 0.0178501
44.9387 33.5437 26.2098 0.450586 0.892513 0.0198148
45.5858 33.2032 26.8351 0.450489 0.892562 0.0198132
46.3946 32.7894 27.3718 0.443627 0.896147 0.0107125
47.2096 32.388 27.902 0.43109 0.902046 0.0217799
48.0262 31.9839 28.4306 0.423722 0.905525 0.0194394
49.0266 31.5309 29.054 0.399032 0.916802 0.0157159
49.9238 31.1219 29.589 0.396616 0.917742 -0.00468842
50.8855 30.7309 29.967 0.376289 0.9265 -0.00187422
52.2063 30.1992 30.2303 0.347024 0.937346 -0.0152571
53.0667 29.9128 30.5698 0.319048 0.947624 -0.0141635
53.9462 29.6164 30.7663 0.316645 0.948168 -0.026701
55.1998 29.2381 31.0061 0.288555 0.956762 -0.0361629
56.1534 28.9706 31.1763 0.23995 0.969256 -0.0544741
57.4166 28.6782 31.3424 0.221669 0.972824 -0.0669019
58.423 28.4688 31.5278 0.187685 0.97928 -0.0760524
59.3547 28.3049 31.6319 0.155014 0.985233 -0.0708111
60.4029 28.1618 31.6906 0.135998 0.988189 -0.0704765
61.484 28.031 31.6994 0.107195 0.992157 -0.0642862
62.8218 27.9231 31.739 0.0451841 0.997579 -0.0527801
64.166 27.8917 31.8558 0.0128453 0.998955 -0.0436708
65.271 27.8713 31.6703 0.0071441 0.999118 -0.0413676
66.5681 27.912 31.7254 -0.0559712 0.997479 -0.0436092
67.6066 27.9816 31.9892 -0.0608771 0.997106 -0.0452274
68.6639 28.0683 31.8106 -0.12206 0.99146 -0.0459069
69.6678 28.2046 31.8586 -0.13515 0.990359 -0.0303825
70.729 28.363 32.194 -0.140383 0.989343 -0.0386503
71.8895 28.5447 32.4253 -0.147793 0.988549 -0.0294983
72.9477 28.7327 32.9439 -0.188994 0.981331 -0.0356609
73.4512 28.834 33.9147 -0.180074 0.983495 -0.0136328
73.0551 28.7754 34.9594 -0.173634 0.984786 -0.0069869
72.0076 28.6109 35.4086 -0.149914 0.988618 -0.0126242
71.0876 28.4544 35.6968 -0.165753 0.986028 0.0165512
69.9802 28.3122 35.7599 -0.122959 0.992312 0.0133341
68.7678 28.1805 35.9423 -0.0931692 0.995481 0.0183467
67.6739 28.0965 36.2512 -0.0734945 0.997295 -0.00109503
66.376 28.0214 36.5186 -0.0196323 0.999762 0.000713163
65.1505 28.0125 36.7456 -0.00561528 0.999977 -0.00390476
63.9344 28.0172 37.0124 0.0210388 0.999656 0.00168914
62.9675 28.0354 37.2283 0.0320432 0.999483 -0.00253807
61.9179 28.1103 37.4794 0.107376 0.994216 -0.00231619
60.7738 28.2412 37.6439 0.113556 0.993528 0.00250244
59.6812 28.3787 37.719 0.136978 0.989844 0.0375986
58.5731 28.5551 37.9866 0.176146 0.984155 0.0202688
57.6363 28.7234 37.9531 0.194247 0.980567 0.0203974
56.6267 28.9369 38.3956 0.228841 0.973244 0.0206808
55.5082 29.1966 38.5504 0.227622 0.973339 0.0274179
54.5835 29.4254 38.7811 0.261228 0.964242 0.0446919
53.6522 29.6884 39.0988 0.282329 0.958921 0.0275713
52.5247 30.0185 39.1399 0.284737 0.957838 0.0381546
51.5318 30.3427 39.3839 0.33964 0.939846 0.0364859
50.4912 30.7041 39.6972 0.336724 0.940992 0.0339417
49.5735 31.0365 39.9442 0.368259 0.928926 0.0378412
48.1073 31.6227 40.0025 0.371384 0.927867 0.0337031
47.152 32.0131 39.9177 0.380344 0.923641 0.0470027
45.9413 32.5831 39.5039 0.428349 0.90241 0.0466006
44.6561 33.2225 39.1197 0.440367 0.896498 0.0486565
43.7397 33.688 38.9683 0.444466 0.894965 0.0383054
42.6692 34.2294 38.6558 0.444746 0.894963 0.0352466
41.869 34.6385 38.2858 0.440296 0.897084 0.0371313
41.0051 35.11 37.4618 0.446071 0.89365 0.0490969
40.2748 35.5139 36.785 0.452377 0.890652 0.0457582
39.5719 35.9264 35.8615 0.464309 0.8842 0.0509822
38.3772 36.6032 34.8699 0.467294 0.882992 0.044112
37.4516 37.1493 33.8743 0.470233 0.881513 0.0424238
36.5144 37.698 32.8713 0.474126 0.879515 0.0407132
35.9639 38.0267 32.1503 0.4754 0.878895 0.0392072
35.0229 38.5801 31.1582 0.477246 0.878005 0.0366449
34.4737 38.9075 30.4598 0.476691 0.878371 0.0350848
34.0049 39.1901 29.742 0.476385 0.878543 0.0349188
33.299 39.612 28.7658 0.478536 0.877314 0.0362824
32.7063 39.9678 28.0417 0.480618 0.87614 0.0372133
31.8674 40.463 27.0214 0.477803 0.878002 0.0285814
31.1819 40.8513 26.5153 0.476201 0.878879 0.0283328
30.2985 41.3593 25.5906 0.475748 0.879122 0.0284356
29.5911 41.7682 24.7694 0.475594 0.879247 0.0271013
28.601 42.3252 23.9765 0.472609 0.880871 0.0266138
27.6905 42.8406 23.0417 0.469759 0.882462 0.0241253
26.7316 43.3696 22.2537 0.467844 0.88348 0.024194
25.9932 43.7739 21.6703 0.463632 0.885637 0.0263172
25.3419 44.1328 21.0256 0.460773 0.887119 0.0265552
24.3119 44.6989 19.9904 0.460743 0.887099 0.0277928
23.7949 44.9906 19.2427 0.460436 0.887283 0.0269641
22.9647 45.4366 18.6366 0.455491 0.889853 0.026253
22.1794 45.8626 17.8117 0.452364 0.891364 0.0289264
21.34 46.3179 16.9854 0.452871 0.890968 0.0329116
20.6976 46.6664 16.3549 0.451689 0.891495 0.0348268
20.008 47.0342 15.7028 0.446066 0.893697 0.0482669
19.3186 47.4187 14.9534 0.438032 0.897459 0.0510759
18.6277 47.799 14.4002 0.45419 0.888971 0.0585467
18.0041 48.1579 13.7398 0.453866 0.889422 0.0541722
17.2992 48.57 13.211 0.472746 0.878775 0.0653142
16.5132 49.0262 12.943 0.48223 0.874475 0.0514209
15.3076 49.6878 12.8861 0.481719 0.875283 0.0427312
14.4053 50.2057 12.9185 0.476608 0.878449 -0.0122942
13.2189 50.7951 13.256 0.429969 0.90268 -0.0169592
12.3936 51.1948 13.5059 0.432951 0.901186 -0.0204083
11.3796 51.6862 13.8301 0.422352 0.904468 -0.0596357
10.2473 52.2115 14.4634 0.394205 0.917831 -0.0467843
8.96165 52.7902 15.023 0.372241 0.925986 -0.063138
8.23966 53.1114 15.5615 0.367992 0.927938 -0.0592345
7.29225 53.5322 16.2382 0.368327 0.926778 -0.0736031
6.52701 53.88 16.8855 0.340604 0.937196 -0.0739448
5.63043 54.2289 17.3866 0.328491 0.942233 -0.0655018
4.42317 54.7053 18.1314 0.319374 0.944667 -0.0740947
3.67139 54.991 18.6697 0.308223 0.94901 -0.0660874
2.58963 55.4132 19.653 0.299247 0.951644 -0.0692575
1.49904 55.7817 20.2239 0.272597 0.959354 -0.0730051
0.747479 56.0342 20.8773 0.267727 0.961254 -0.0654235
-0.263378 56.3505 21.5471 0.249263 0.966162 -0.0663276
-1.4685 56.7251 22.4228 0.237472 0.968876 -0.0682213
-2.44381 56.9924 23.0947 0.217588 0.974092 -0.0613923
-3.29423 57.2079 23.6401 0.199316 0.978554 -0.0515815
-4.24319 57.4349 24.2554 0.197358 0.978578 -0.0585921
-5.06862 57.6098 24.7135 0.164368 0.985639 -0.038717
-6.64473 57.8931 25.2236 0.158535 0.986506 -0.0404347
-7.55113 58.0414 25.4951 0.139886 0.989492 -0.0346175
-8.78728 58.2227 26.0382 0.116571 0.992249 -0.0387403
-10.3067 58.376 26.3563 0.0804323 0.996353 -0.0284098
-11.263 58.4558 26.57 0.060324 0.997531 -0.035679
-12.5994 58.5484 26.7836 0.0650126 0.997289 -0.0344098
-13.6328 58.5909 26.889 0.0312679 0.998845 -0.0364745
-14.573 58.6136 26.9788 0.00508692 0.999241 -0.0386156
-15.7095 58.6087 27.0323 -0.0231686 0.999304 -0.0292481
-16.739 58.5803 27.0401 -0.0393545 0.998885 -0.0250852
-17.8646 58.5256 26.9035 -0.0430312 0.998592 -0.0309257
-19.0108 58.4473 26.813 -0.0685459 0.9975 -0.0171639
-20.0615 58.3636 26.6341 -0.0833416 0.996112 -0.0285436
-21.0032 58.265 26.437 -0.108289 0.993943 -0.0187354
-22.2 58.1107 26.1254 -0.136876 0.990332 -0.0220903
-23.1806 57.9719 25.7893 -0.129849 0.991294 -0.021333
-24.4154 57.7722 25.405 -0.155486 0.987351 -0.0310032
-25.6704 57.5416 24.9276 -0.184895 0.982724 -0.00823931
-26.6357 57.3561 24.4801 -0.1902 0.981667 -0.010981
-27.6416 57.1438 23.9717 -0.206145 0.978494 -0.00557525
-28.5482 56.9568 23.3781 -0.202786 0.979076 -0.011585
-29.4203 56.763 23.0361 -0.214504 0.976557 -0.0173496
-30.2549 56.5561 22.3543 -0.233706 0.972232 -0.00772191
-30.6471 56.4669 21.468 -0.224037 0.974581 -0.000421329
-30.7202 56.4519 20.5457 -0.226029 0.97411 0.00459878
-30.6761 56.4688 19.1482 -0.231302 0.972847 0.00821913
-30.7297 56.4694 17.7463 -0.231462 0.972786 0.0106451
-30.6121 56.5081 16.8091 -0.232019 0.972634 0.0121929
-30.6983 56.5075 15.8279 -0.231572 0.972597 0.0206727
-30.7641 56.5234 14.4276 -0.231324 0.97262 0.0223412
-30.684 56.577 13.05 -0.225565 0.973944 0.023544
-30.7178 56.6007 11.7391 -0.224504 0.974252 0.0207564
-30.7394 56.6264 10.5085 -0.225151 0.973853 0.0302868
-30.7528 56.653 9.54157 -0.22456 0.973982 0.0305024
-30.7925 56.6846 8.34545 -0.22435 0.973872 0.0352087
-30.7504 56.7419 7.11923 -0.224144 0.973735 0.0400042
-30.8406 56.763 6.16089 -0.216507 0.975361 0.042377
-30.805 56.8262 4.91789 -0.217138 0.975137 0.044264
-30.8817 56.8581 3.93249 -0.215866 0.975189 0.0490845
-30.9231 56.9142 2.64116 -0.216591 0.975001 0.0496176
-30.9161 56.9739 1.59309 -0.211844 0.97581 0.0540033
-30.9822 57.0263 0.407391 -0.212651 0.975531 0.0558411
-31.0468 57.0783 -0.6518 -0.211712 0.975255 0.063679
-31.0245 57.1717 -2.00122 -0.200612 0.977319 0.0674774
-31.1817 57.2069 -2.92643 -0.19515 0.978467 0.0671896
-30.9546 57.3648 -4.4753 -0.186082 0.97983 0.0728197
-31.1483 57.4018 -5.58535 -0.181012 0.981293 0.065564
-31.1646 57.4751 -6.71781 -0.178851 0.981653 0.0661003
-31.1291 57.5475 -7.70482 -0.176984 0.981896 0.067467
-31.2685 57.5921 -8.67562 -0.166485 0.983815 0.0662672
-31.1748 57.7069 -10.1019 -0.168806 0.983144 0.0702284
-31.2729 57.783 -11.3524 -0.158384 0.984781 0.071558
-31.3481 57.8612 -12.5542 -0.151963 0.985886 0.0702616
-31.5211 57.9498 -14.1287 -0.143253 0.98704 0.072318
-31.4463 58.0392 -15.2672 -0.138554 0.988076 0.0671428
-31.4637 58.1103 -16.3156 -0.128559 0.989519 0.065756
-31.4983 58.188 -17.4957 -0.117782 0.99092 0.064155
-31.4483 58.2596 -18.7129 -0.109701 0.993132 0.0406874
-30.5262 58.3914 -19.4436 -0.110662 0.993092 0.0390252
-29.589 58.5152 -20.0231 -0.109023 0.993391 0.0358992
-28.7667 58.6382 -20.6395 -0.107894 0.99273 0.0531764
-27.9635 58.7587 -21.464 -0.087948 0.995189 0.0431816
-27.3315 58.85 -22.2979 -0.07896 0.995648 0.0494988
-26.5312 58.9411 -22.8733 -0.0599926 0.997213 0.0443549
-25.4249 59.0442 -23.7815 -0.0586091 0.997536 0.0385606
-24.5515 59.1109 -24.3385 -0.0493366 0.998199 0.0341371
-23.6543 59.1745 -24.8191 -0.0252773 0.998488 0.0488192
-22.6967 59.2053 -25.1245 -0.0110423 0.999513 0.0291721
-21.7276 59.228 -25.4526 0.0026264 0.999272 0.0380513
-20.3574 59.2237 -25.5662 0.0096434 0.999566 0.0278329
-19.3807 59.2107 -25.6194 0.0251646 0.999277 0.0284882
-18.3624 59.1855 -25.7854 0.0318522 0.999136 0.0266859
-17.0835 59.1368 -25.7255 0.0527787 0.997859 0.0353361
-15.9513 59.0628 -25.7002 0.0639516 0.996889 0.0460609
-14.664 58.9372 -25.6274 0.102203 0.994096 0.0363991
-13.4564 58.7943 -25.5022 0.120274 0.991848 0.0420987
-12.3415 58.6312 -25.6888 0.152762 0.987894 0.0269837
-11.4047 58.4792 -25.4522 0.164097 0.986097 0.0261848
-10.2743 58.2725 -25.4889 0.183707 0.982955 0.00715911
-9.2976 58.0846 -25.3544 0.208538 0.977917 0.0137977
-7.78619 57.7524 -25.1554 0.218772 0.975759 0.00578088
-6.51648 57.4434 -24.8834 0.244376 0.969623 0.0105962
-5.47314 57.1714 -24.4852 0.251926 0.967665 0.0125538
23.2601 45.3579 16.3968 0.457413 0.888677 0.0320367
22.7539 45.6464 15.6368 0.457552 0.888538 0.0338539
21.9463 46.0883 14.944 0.453319 0.890589 0.0367916
22.8437 45.6139 15.2808 0.457927 0.888319 0.0345224
23.8798 45.0529 15.9479 0.461057 0.886757 0.0329745
24.8687 44.5216 16.4353 0.462374 0.886169 0.0302465
25.9014 43.9604 17.0479 0.465308 0.884711 0.0278165
26.736 43.5106 17.3982 0.466171 0.88428 0.0270595
27.7139 42.9792 17.8652 0.467639 0.883491 0.0275155
28.6834 42.4487 18.3458 0.469662 0.882416 0.0275546
29.6391 41.9273 18.7318 0.472053 0.881165 0.0267313
30.6832 41.3514 19.2494 0.472981 0.880645 0.0274653
31.574 40.8541 19.8458 0.474576 0.879777 0.0277092
32.4347 40.3764 20.2187 0.476 0.879007 0.0277536
33.3637 39.8573 20.6979 0.47694 0.878504 0.027543
34.1394 39.4181 21.2372 0.478194 0.877824 0.0274883
35.2177 38.8113 21.8712 0.477574 0.878165 0.0273636
36.2345 38.2423 22.3928 0.47652 0.878721 0.0278957
37.2024 37.6998 22.9603 0.476023 0.878998 0.0276495
37.9603 37.2767 23.3614 0.474967 0.879569 0.0276346
38.7806 36.8187 23.8448 0.474497 0.879879 0.0257481
39.4431 36.4409 24.5544 0.472186 0.88111 0.0261309
40.2564 35.9896 25.2166 0.468527 0.883062 0.0260755
41.1246 35.5127 25.7737 0.462969 0.885974 0.0264148
41.8987 35.0966 26.2714 0.460096 0.887457 0.0270602
42.6612 34.6901 26.7367 0.455751 0.889735 0.0257273
43.4949 34.244 27.401 0.454548 0.890324 0.0265955
44.1729 33.8815 28.0051 0.447588 0.893849 0.0263423
44.9792 33.4545 28.7146 0.448148 0.893503 0.0285577
45.7633 33.0519 29.2885 0.44089 0.897118 0.0280488
46.6515 32.5953 30.1456 0.429469 0.902694 0.0264427
47.5475 32.1613 30.6018 0.417427 0.908377 0.0244567
48.5709 31.6936 30.9527 0.401089 0.91585 0.0185997
49.4899 31.2925 31.3204 0.388789 0.921238 0.0127761
50.8253 30.7482 31.9286 0.356778 0.934043 0.0165401
51.9438 30.313 32.3285 0.340981 0.93979 0.0124128
52.8696 30.0023 32.558 0.30808 0.95126 0.0138176
53.9004 29.6808 32.7275 0.291632 0.956519 0.00462686
55.1115 29.3227 32.9775 0.271596 0.962132 -0.0231708
56.0994 29.0657 33.1488 0.238185 0.970877 -0.0257733
57.0844 28.8299 33.2543 0.214518 0.976484 -0.0214658
58.072 28.6197 33.3707 0.167715 0.98545 -0.0255079
59.1079 28.4545 33.5722 0.169183 0.984373 -0.048858
60.1597 28.2847 33.7926 0.153813 0.987125 -0.0400633
61.3196 28.1389 33.7045 0.115902 0.992475 -0.0394945
62.3915 28.0373 33.6508 0.0718661 0.996789 -0.0353024
63.4337 27.9786 33.7377 0.0499789 0.998295 -0.030156
64.729 27.9597 33.7167 -0.00595527 0.999143 -0.0409578
65.967 27.9699 33.5955 -0.0248563 0.998912 -0.0379492
66.8969 28.0088 33.678 -0.061144 0.997307 -0.0397532
67.9513 28.0895 33.8808 -0.0774515 0.996163 -0.0394436
67.9759 28.0936 33.9654 -0.0825014 0.996382 -0.0127665
67.0811 28.0372 34.2706 -0.0689555 0.997468 -0.0173872
66.0118 28.0017 34.6241 -0.0321553 0.999346 -0.0165689
64.7552 27.9962 34.8527 -0.000786145 0.999775 -0.0212183
63.6753 27.9967 35.0696 0.0196292 0.999696 -0.0120764
62.7441 28.0392 35.2253 0.0646947 0.997815 -0.000804509
61.5756 28.1414 35.3706 0.102419 0.994708 -0.00812658
60.5847 28.2642 35.5984 0.136869 0.990408 -0.0189292
59.5913 28.4085 35.7315 0.157465 0.987488 -0.0084389
58.2773 28.6297 35.9458 0.17699 0.984195 -0.00327258
57.2883 28.8192 36.129 0.21529 0.97655 -0.000603591
55.9659 29.1148 36.5072 0.225138 0.974205 0.0154124
54.7695 29.4182 36.7811 0.268683 0.963135 0.00985631
53.8241 29.6882 37.0266 0.275635 0.961253 0.00423952
52.9427 29.9424 37.2002 0.296284 0.954933 0.0058997
51.5887 30.3864 37.3945 0.319018 0.947684 0.00600832
50.5379 30.752 37.6608 0.341328 0.939591 0.0235914
49.4201 31.1747 37.843 0.36376 0.931243 0.0213305
48.532 31.532 37.963 0.387155 0.92171 0.0236749
47.5826 31.9335 37.9501 0.398215 0.916416 0.039984
46.6294 32.3582 37.6797 0.407296 0.912487 0.0370352
45.7486 32.7682 37.55 0.422884 0.905388 0.0375287
44.9283 33.1702 37.313 0.434503 0.899888 0.0374528
43.9485 33.6605 37.0039 0.442325 0.896232 0.0334302
42.9878 34.1523 36.6109 0.44645 0.894108 0.0354101
42.0999 34.624 36.0058 0.451924 0.891308 0.0365346
41.4196 34.9926 35.4497 0.453926 0.890242 0.0376957
40.7154 35.3901 34.6626 0.458097 0.887946 0.0412188
39.9407 35.8303 33.8261 0.46519 0.884346 0.0391114
39.2609 36.2198 33.1056 0.465244 0.884313 0.039217
38.2017 36.8292 32.0428 0.468794 0.882432 0.0393226
37.4684 37.261 31.1149 0.473125 0.880245 0.0363444
36.5869 37.7764 30.1236 0.473966 0.879776 0.0367529
35.7588 38.2646 29.106 0.476246 0.878642 0.0343227
35.1932 38.6014 28.3244 0.475927 0.878841 0.0336497
34.484 39.0214 27.4188 0.477298 0.878126 0.0328811
33.8079 39.4234 26.4793 0.478264 0.877659 0.0312345
33.0185 39.883 25.6066 0.478036 0.877831 0.0298843
32.1648 40.37 24.9181 0.477322 0.878244 0.02916
31.3265 40.8506 24.1114 0.475636 0.879186 0.0283202
30.632 41.2546 23.2399 0.474413 0.879858 0.0279401
29.7937 41.7285 22.5248 0.473785 0.880216 0.0273323
28.78 42.2967 21.7291 0.472005 0.881194 0.0266156
28.0469 42.7079 21.0398 0.469508 0.882528 0.0265721
27.2929 43.13 20.2772 0.467909 0.883416 0.0252171
26.6469 43.487 19.7097 0.465784 0.88449 0.026884
25.9317 43.8812 19.0993 0.463172 0.88589 0.0259069
25.3027 44.2337 18.3231 0.463576 0.88564 0.0272055
24.5957 44.6284 17.5035 0.45966 0.887579 0.0302653
23.7107 45.1081 16.8889 0.460088 0.887347 0.0305623
23.6117 45.1634 16.7756 0.458691 0.888045 0.0312381
23.0566 45.424 17.4732 0.457934 0.888517 0.0286782
23.8113 45.0167 18.081 0.459158 0.887966 0.0262637
24.4882 44.6469 18.6956 0.461185 0.88688 0.0274404
25.1059 44.3006 19.5095 0.462901 0.88601 0.0266351
25.88 43.873 20.2916 0.462748 0.8861 0.026291
26.8091 43.3631 21.0534 0.466885 0.883948 0.0255877
27.5593 42.9462 21.7532 0.467253 0.883732 0.0263216
28.2903 42.5361 22.4615 0.470658 0.881913 0.0266452
29.0253 42.1236 23.1031 0.473536 0.880366 0.0268163
29.802 41.6894 23.648 0.474535 0.879824 0.0269155
30.5696 41.2457 24.5609 0.475661 0.879184 0.0279404
31.3289 40.8075 25.4082 0.476091 0.878926 0.0287277
32.0765 40.383 25.9832 0.477002 0.878424 0.0289791
32.7342 40.0057 26.5495 0.47835 0.877678 0.0293593
33.2755 39.6853 27.2464 0.47994 0.876741 0.0313545
34.1585 39.1599 28.4148 0.476455 0.878488 0.0353473
34.7827 38.7884 29.2361 0.476197 0.878645 0.0349286
35.3632 38.4385 30.1179 0.476469 0.87843 0.0365725
36.2048 37.9454 31.0189 0.474763 0.879312 0.0375601
37.0059 37.473 31.9637 0.473279 0.880037 0.0392776
37.732 37.0442 32.8583 0.47078 0.881409 0.0385159
38.4377 36.6354 33.5937 0.470398 0.881622 0.038332
39.4062 36.0794 34.5179 0.464617 0.884532 0.0416322
40.1095 35.6759 35.2396 0.461408 0.886214 0.0413854
40.6861 35.3487 35.935 0.455005 0.889501 0.0416647
41.6786 34.8015 36.8509 0.451162 0.891575 0.03931
42.669 34.2753 37.494 0.445011 0.89479 0.0362837
43.5724 33.8144 37.8401 0.44206 0.896317 0.0346176
44.4963 33.3456 38.1835 0.441201 0.896765 0.0339693
45.4474 32.8736 38.3867 0.434251 0.899536 0.0470291
46.3849 32.4242 38.6149 0.420487 0.905758 0.0528503
47.5606 31.9 38.8715 0.396962 0.916727 0.045004
48.5305 31.4925 38.9945 0.380638 0.923783 0.0417101
49.5635 31.0915 38.781 0.362297 0.931165 0.0409036
50.7211 30.6616 38.5935 0.337371 0.940801 0.032739
52.3088 30.1257 38.2066 0.315711 0.948193 0.0354413
53.538 29.7485 38.1152 0.28103 0.959391 0.0243042
54.3932 29.5085 37.838 0.277535 0.960272 0.0291811
55.4049 29.2381 37.6069 0.238539 0.970937 0.0194918
56.4239 28.9969 37.3503 0.217827 0.975845 0.0137319
57.2928 28.8161 37.0507 0.209247 0.977771 0.0115214
58.3444 28.6176 36.9338 0.173879 0.984767 0.000430783
59.3249 28.4539 36.7553 0.148008 0.988789 0.0197203
60.4137 28.2866 36.6935 0.144303 0.989427 -0.00332415
61.5792 28.1446 36.4895 0.10207 0.994757 0.000900628
62.4872 28.0623 36.2782 0.0833561 0.996496 0.006864
63.554 28.0124 36.1676 0.0196279 0.999696 -0.0120742
64.7077 28.0053 35.8468 -0.00735033 0.999953 -0.00639187
65.7024 28.0113 35.6442 -0.00648195 0.999965 -0.00515002
66.9533 28.0434 35.4063 -0.0504793 0.998465 0.0023571
67.8505 28.1036 35.1317 -0.0669387 0.997633 -0.0157484
68.7638 28.1804 34.8957 -0.0974183 0.995199 -0.00937664
69.8111 28.289 34.6886 -0.134507 0.990845 -0.0115704
70.9177 28.4407 34.8167 -0.133978 0.990911 -0.012054
71.9131 28.5842 34.4404 -0.149914 0.988618 -0.0126242
71.7382 28.5462 33.61 -0.151448 0.988366 -0.014036
70.4736 28.3593 33.1118 -0.133449 0.990976 -0.0125354
69.3883 28.1969 32.8124 -0.124007 0.991519 -0.0369211
68.1003 28.0673 32.896 -0.086923 0.995577 -0.0356359
66.9596 27.9782 32.743 -0.0552833 0.997671 -0.0397931
65.7475 27.9297 32.667 -0.0185296 0.998313 -0.0550221
64.7118 27.9202 32.7551 0.0117874 0.999059 -0.0414914
63.6865 27.9375 32.7955 0.0308377 0.998898 -0.029746
62.3874 27.9939 32.6527 0.0776445 0.994748 -0.0592306
61.2083 28.1124 32.7113 0.102336 0.994057 -0.0341007
59.9672 28.2764 32.6759 0.138441 0.989877 -0.0312699
58.8292 28.4515 32.5457 0.174386 0.983726 -0.0424919
57.5194 28.7062 32.3178 0.216999 0.97553 -0.035172
56.5719 28.9208 32.2637 0.245885 0.968355 -0.042767
55.6709 29.1445 32.1355 0.273395 0.961676 -0.0206256
54.4599 29.4855 31.8302 0.287706 0.95743 -0.0194703
53.4797 29.7925 31.7088 0.301689 0.953216 -0.0190409
52.1403 30.2424 31.3849 0.347022 0.937347 -0.0152568
50.5411 30.866 30.818 0.367256 0.929979 0.0108992
49.7582 31.1915 30.4391 0.382793 0.923689 0.014897
48.424 31.7789 29.8868 0.401568 0.915687 0.0158766
47.5627 32.1783 29.481 0.42372 0.905526 0.0194383
46.6814 32.6184 28.8184 0.43187 0.901634 0.0233126
45.9768 32.9784 28.1811 0.441332 0.897016 0.024241
45.1665 33.3937 27.6777 0.447585 0.89385 0.0263449
44.4267 33.7806 27.0437 0.447025 0.894196 0.0241283
43.6806 34.1791 26.3428 0.455354 0.889962 0.0249126
42.8667 34.6123 25.758 0.456362 0.88947 0.0240005
41.8074 35.1791 25.0519 0.46126 0.886932 0.0243118
40.6679 35.7917 24.4152 0.472912 0.88091 0.0187546
39.9727 36.1755 23.9327 0.47463 0.879859 0.0238935
39.1204 36.659 23.0412 0.474495 0.87988 0.0257499
38.0917 37.2344 22.4257 0.475772 0.879161 0.0267859
37.2138 37.726 21.9059 0.47623 0.87891 0.0268733
36.4748 38.1419 21.4174 0.477035 0.878476 0.0267808
35.432 38.7245 20.9109 0.478089 0.877901 0.0268489
34.3098 39.3568 20.2292 0.478185 0.877833 0.0273661
33.3895 39.8765 19.6237 0.477313 0.878304 0.027464
32.5206 40.3605 19.257 0.476521 0.878719 0.027901
31.7365 40.7967 18.9073 0.474839 0.87956 0.0299703
30.7434 41.3555 18.1345 0.471923 0.881164 0.0289438
29.7282 41.911 17.7477 0.471349 0.881484 0.0285656
28.601 42.527 17.2547 0.469274 0.88262 0.0276196
27.766 42.9823 16.8784 0.468055 0.883276 0.027339
26.7888 43.5136 16.3999 0.467036 0.883812 0.0274379
25.8758 44.0114 15.8748 0.465699 0.884478 0.0286967
24.8324 44.5753 15.4132 0.464516 0.884943 0.0331934
23.9234 45.0709 14.8613 0.461477 0.886474 0.0346545
22.6043 45.7816 14.1733 0.45683 0.888796 0.0367027
21.539 46.3478 13.6562 0.450355 0.892052 0.0375452
20.719 46.7807 13.2953 0.455523 0.889506 0.035749
19.8803 47.2292 12.9565 0.462854 0.885654 0.037187
18.9379 47.7507 12.4377 0.466814 0.883307 0.0430474
18.1593 48.1988 11.8867 0.474293 0.87872 0.0537967
18.3998 48.0176 12.727 0.457021 0.887805 0.0540501
19.0353 47.6492 13.3584 0.4589 0.886996 0.0513712
19.6804 47.2772 14.0966 0.454285 0.889768 0.0437058
20.3474 46.9097 14.7538 0.453105 0.890613 0.0387741
21.2168 46.4347 15.559 0.452711 0.890962 0.0351661
21.8745 46.0757 16.1762 0.453404 0.890722 0.032229
22.4839 45.7428 16.8034 0.455469 0.889666 0.0321902
22.7093 45.6173 17.0658 0.457417 0.888675 0.0320344
-15.3338 58.9501 -23.297 0.0919988 0.995694 0.0114028
-17.1366 59.0815 -23.1859 0.0550196 0.998403 0.0128131
-19.0847 59.1444 -22.9804 0.0281977 0.999526 0.0123255
-21.0933 59.1622 -22.6927 -0.000789312 0.999842 0.0177841
-22.57 59.1278 -22.4927 -0.0230943 0.999351 0.0276418
-24.6745 59.0006 -21.2147 -0.0597898 0.997736 0.0308029
-23.0868 59.0923 -21.4038 -0.0440254 0.998771 0.0227862
-21.4673 59.1429 -21.6115 -0.0207939 0.999745 0.00882185
-19.7369 59.1492 -21.8403 0.0154563 0.999841 0.00893766
-18.2106 59.1091 -22.0595 0.0373119 0.999294 0.00428673
-16.6418 59.0388 -22.2253 0.0645712 0.997872 0.00900453
-14.5266 58.8695 -22.3117 0.0989893 0.995058 0.00775244
-12.8222 58.6625 -22.3441 0.137425 0.990488 0.00695968
-10.9725 58.3802 -22.3546 0.168891 0.985619 0.00561332
-9.16611 58.0373 -22.3465 0.196191 0.980557 0.00417057
-7.54586 57.6819 -22.312 0.222554 0.974919 -0.00187253
-6.33022 57.3798 -22.2793 0.252928 0.967483 0.00224718
-4.52243 56.8787 -21.3271 0.275051 0.961399 0.00771591
-6.15689 57.3317 -21.322 0.257812 0.966185 0.00435651
-7.7409 57.7262 -21.339 0.224865 0.974375 0.00545789
-9.74724 58.1485 -21.3578 0.196095 0.980566 0.00601359
-11.2893 58.4253 -21.3655 0.155096 0.987868 0.00788283
-13.1574 58.7021 -21.3325 0.133869 0.990999 -0.0008706
-15.1316 58.9225 -21.2614 0.0929533 0.995662 0.00413728
-16.6793 59.0376 -21.1959 0.0553493 0.998456 0.00459532
-18.5007 59.1119 -20.9848 0.0323722 0.999457 0.00614764
-20.0928 59.1439 -20.7672 0.0116202 0.999892 0.00899861
-21.7 59.1217 -20.5598 -0.0284519 0.99934 0.0225871
-23.6652 59.0328 -20.3132 -0.0534674 0.998185 0.0277289
-25.3874 58.9192 -20.0999 -0.0799125 0.996292 0.0318804
-25.7765 58.8864 -20.053 -0.0791653 0.996424 0.0295323
-26.861 58.7565 -18.9121 -0.0925201 0.995119 0.0343302
-25.2557 58.9015 -19.0974 -0.078509 0.996552 0.0268509
-23.6257 59.0136 -19.2952 -0.0575371 0.998098 0.0221277
-22.0689 59.0871 -19.489 -0.0372784 0.999087 0.0208728
-20.266 59.1326 -19.7158 -0.0193288 0.99976 0.0103559
-18.5357 59.1071 -19.9417 0.0316555 0.999483 0.00555883
-16.8347 59.04 -20.1399 0.0463942 0.998903 0.00629
-14.9542 58.8998 -20.2465 0.096675 0.995305 0.00465175
-13.1955 58.7033 -20.3097 0.115806 0.993268 0.00270277
-11.3054 58.4236 -20.3597 0.15929 0.987215 0.00572706
-9.75503 58.1447 -20.3731 0.189292 0.98192 -0.00102017
-8.21282 57.8298 -20.3844 0.224868 0.974374 0.00545942
-6.65894 57.4533 -20.3731 0.24068 0.97058 0.00695834
-4.96657 57.0013 -20.367 0.274037 0.961716 0.0024779
-3.09839 56.4526 -20.406 0.292137 0.956346 0.007654
-2.49591 56.2686 -20.4211 0.295815 0.95522 0.00691835
-0.949355 55.7748 -19.513 0.315783 0.948808 0.00665835
-2.63272 56.3081 -19.4678 0.298382 0.954441 -0.00307018
-4.34022 56.8191 -19.4268 0.277149 0.960827 0.000881345
-5.93221 57.2669 -19.4063 0.24512 0.969492 -0.000877299
-7.85839 57.7474 -19.418 0.228513 0.97354 -0.00153324
-9.48838 58.0945 -19.4006 0.189085 0.98196 -0.00115469
-11.2375 58.4088 -19.3636 0.164267 0.986392 -0.00683556
-13.0206 58.6844 -19.3009 0.131561 0.991308 -0.000128784
-14.6452 58.8659 -19.233 0.0989803 0.995089 0.000604709
-16.2927 59.012 -19.1366 0.0563241 0.998411 -0.00182861
-18.0227 59.0851 -18.9685 0.0352552 0.999352 0.00721847
-19.5581 59.1172 -18.7779 0.00631359 0.999895 0.0130192
-21.2752 59.0908 -18.558 -0.0273877 0.999296 0.0256288
-22.9351 59.025 -18.3559 -0.0438498 0.998683 0.0266327
-24.5421 58.9268 -18.1554 -0.0643154 0.997427 0.0316735
-26.4251 58.7616 -17.9353 -0.0949589 0.994799 0.0368585
-27.9569 58.6037 -17.7647 -0.103319 0.993821 0.0405586
-28.6246 58.5297 -17.6973 -0.110208 0.992898 0.0448087
-28.9257 58.4461 -16.6516 -0.1176 0.991846 0.0491088
-27.0504 58.6584 -16.8357 -0.0964225 0.994331 0.0448256
-25.4494 58.8161 -17.0201 -0.0785674 0.996258 0.0360213
-23.6847 58.9506 -17.2292 -0.0610449 0.997721 0.0287296
-22.0123 59.0438 -17.434 -0.0369425 0.999054 0.0229257
-20.4222 59.0884 -17.6302 -0.0197961 0.999644 0.0178673
-18.6801 59.092 -17.85 0.0139884 0.9999 0.0021813
-17.0656 59.0434 -18.0334 0.044213 0.999022 8.47488e-05
-15.5299 58.9551 -18.1526 0.0735025 0.99728 0.00553799
-13.939 58.7983 -18.244 0.117006 0.993086 -0.00952132
-11.7896 58.5033 -18.3451 0.151903 0.988222 -0.0185423
-9.9799 58.197 -18.4151 0.18135 0.983408 -0.00458651
-8.23181 57.8304 -18.4383 0.219163 0.975688 -0.000878791
-6.60868 57.4388 -18.4498 0.244305 0.969683 -0.00538737
-5.07326 57.0341 -18.4648 0.275454 0.96129 -0.00688635
-3.4615 56.5672 -18.4823 0.280549 0.95983 -0.00431074
-1.91229 56.083 -18.5271 0.300944 0.95364 -0.00190452
-0.237135 55.5298 -18.5388 0.320089 0.947379 0.00406883
1.17861 55.0346 -18.5631 0.331177 0.943542 0.00709977
2.73484 54.4553 -17.6894 0.352397 0.935846 0.00288234
1.27549 54.9944 -17.6176 0.337084 0.941472 0.00199097
-0.216733 55.518 -17.5849 0.321966 0.946749 0.00207236
-1.83331 56.0616 -17.5462 0.309855 0.950777 -0.00363937
-3.44555 56.5652 -17.5173 0.28218 0.959358 -0.00272041
-5.09133 57.0459 -17.5012 0.278149 0.960503 -0.00817322
-6.9036 57.5187 -17.4847 0.243843 0.969798 -0.00576456
-8.74945 57.9488 -17.4522 0.209136 0.977821 -0.0113002
-10.2926 58.2568 -17.4165 0.174911 0.984562 -0.00657877
-12.2169 58.5825 -17.3212 0.160493 0.987033 -0.0028456
-13.7815 58.7887 -17.2373 0.111071 0.99379 -0.00666237
-15.5474 58.9503 -17.1201 0.0754782 0.997126 0.00651204
-17.2342 59.0467 -16.9756 0.0443972 0.998949 0.0113579
-19.1472 59.0847 -16.7449 -0.00318621 0.999969 0.007205
-20.9515 59.0594 -16.521 -0.0250981 0.999529 0.0176315
-22.6076 58.992 -16.3253 -0.0448564 0.998753 0.021925
-24.1728 58.8891 -16.1312 -0.0719185 0.99693 0.0309549
-26.005 58.7205 -15.931 -0.0984017 0.994344 0.0399685
-27.5837 58.5514 -15.7656 -0.106795 0.992648 0.0569656
-28.9462 58.3861 -15.6266 -0.120603 0.991079 0.0567197
-28.9436 58.3292 -14.5788 -0.126864 0.990497 0.0531159
-27.2679 58.5417 -14.7609 -0.114929 0.992127 0.0497567
-25.3605 58.7449 -14.9661 -0.0947148 0.994705 0.0398836
-23.5334 58.9053 -15.1735 -0.0747334 0.996634 0.0336954
-21.6333 59.0163 -15.4059 -0.0469387 0.998614 0.0238236
-19.8925 59.0687 -15.6101 -0.0113286 0.99986 0.0123383
-18.002 59.0602 -15.818 0.0243649 0.99964 0.0112722
-16.3615 58.9932 -16.0039 0.0529664 0.998539 0.0106764
-14.7079 58.8804 -16.1456 0.081187 0.996683 0.00564353
-13.0773 58.7174 -16.264 0.118716 0.992778 -0.0172973
-11.0294 58.3982 -16.3841 0.169449 0.985478 -0.0109543
-9.30387 58.0729 -16.4597 0.19894 0.979945 -0.0114134
-7.3683 57.6434 -16.5109 0.224266 0.974515 -0.00507341
-5.84715 57.2568 -16.5315 0.259157 0.965789 -0.00938872
-3.73539 56.6595 -16.5464 0.280309 0.959881 -0.00741286
-2.10637 56.1525 -16.5525 0.307286 0.951616 -0.00165457
-0.21072 55.5138 -16.6084 0.326811 0.945089 0.000887867
1.31327 54.9777 -16.6586 0.340218 0.940344 0.00208603
2.94563 54.3745 -16.7404 0.355181 0.934797 -0.00110407
4.40369 53.8069 -16.8173 0.368442 0.929643 0.00376207
5.61701 53.3156 -15.9223 0.37692 0.926239 0.00361438
3.79661 54.0465 -15.7971 0.364721 0.931116 -0.00126451
2.10351 54.6902 -15.7235 0.349701 0.936858 -0.00234774
0.18791 55.3774 -15.6503 0.329216 0.944254 -0.000930043
-1.83571 56.0668 -15.5704 0.314071 0.949394 -0.00319826
-3.34905 56.5503 -15.5655 0.296793 0.954929 -0.00488184
-4.82132 56.9837 -15.5603 0.271321 0.962471 -0.0058918
-6.34851 57.3993 -15.5501 0.247686 0.968782 -0.0106256
-8.16794 57.8426 -15.5119 0.217952 0.975872 -0.0130978
-9.99064 58.212 -15.4364 0.1849 0.982757 6.79885e-05
-11.735 58.5251 -15.3346 0.160625 0.986922 -0.0135615
-13.4706 58.7658 -15.2181 0.109469 0.993971 0.00611634
-15.011 58.899 -15.0829 0.0811687 0.996682 0.00608856
-16.6726 59.0005 -14.9222 0.0492454 0.998779 0.00399031
-18.5431 59.0663 -14.7288 0.0129877 0.9998 0.0151907
-20.6225 59.0314 -14.4901 -0.0354828 0.999098 0.0233134
-22.3044 58.9548 -14.2878 -0.0459147 0.9987 0.0221215
-24.3055 58.8073 -14.0495 -0.0846483 0.995776 0.0355582
-25.9304 58.6475 -13.8658 -0.0949406 0.994765 0.0378019
-27.6612 58.447 -13.6866 -0.127325 0.990568 0.0506353
-28.8917 58.2806 -13.5638 -0.133801 0.989483 0.0549686
-28.9192 58.2141 -12.5278 -0.137753 0.988709 0.0589821
-27.0628 58.4725 -12.7276 -0.11859 0.991543 0.05272
-25.0931 58.6919 -12.9354 -0.0982645 0.994397 0.0389683
-23.2556 58.859 -13.1395 -0.0750061 0.996807 0.0273948
-21.5694 58.968 -13.3435 -0.0469289 0.998642 0.0226401
-19.583 59.0444 -13.5771 -0.0164362 0.999631 0.0216272
-17.8487 59.0349 -13.7684 0.0203991 0.999656 0.0164992
-16.0486 58.9636 -13.9455 0.0537532 0.998552 0.00232939
-14.4958 58.8529 -14.0956 0.0851304 0.996361 0.00415447
-12.8886 58.686 -14.2316 0.12661 0.991937 0.00556394
-11.1008 58.4299 -14.3599 0.173937 0.984676 -0.0126059
-9.58542 58.1489 -14.4502 0.187297 0.982143 -0.0177656
-8.0493 57.8206 -14.5283 0.20965 0.977741 -0.00832138
-6.45388 57.4329 -14.5744 0.250535 0.968106 -0.00162584
-4.81487 56.9888 -14.5866 0.267613 0.963474 -0.0100299
-3.28054 56.5268 -14.5858 0.299605 0.954059 0.00291568
-1.62009 55.9987 -14.6043 0.314071 0.949394 -0.00320317
-0.157631 55.5034 -14.6556 0.330346 0.943819 -0.00878487
1.50852 54.9097 -14.7298 0.341367 0.939916 -0.00520241
2.9553 54.3705 -14.7861 0.35289 0.935665 0.000357942
4.57262 53.7399 -14.8888 0.368575 0.929597 -0.00154704
6.15421 53.0955 -14.9951 0.387799 0.921743 -0.00136581
7.32374 52.5954 -15.0733 0.399835 0.916582 0.00308479
8.53824 52.0569 -14.2889 0.413202 0.910603 -0.00816944
6.85981 52.7948 -14.0925 0.39306 0.919471 -0.00875186
5.22928 53.4801 -13.9615 0.382384 0.923985 -0.00582523
3.76825 54.0614 -13.8434 0.368282 0.929709 -0.00298862
2.28102 54.6277 -13.7725 0.351278 0.936265 -0.00350082
0.661838 55.2247 -13.7107 0.33551 0.94199 -0.00943233
-1.08426 55.8266 -13.6501 0.316676 0.948504 -0.0075142
-2.55527 56.3063 -13.6209 0.308278 0.951283 -0.00507567
-4.0772 56.7746 -13.608 0.28109 0.959681 0.000311331
-5.82098 57.2648 -13.5958 0.255912 0.966685 0.00546153
-7.48125 57.6899 -13.5534 0.229782 0.973218 0.00688649
-9.21065 58.0809 -13.4664 0.20898 0.97792 0.000774959
-11.0115 58.4224 -13.3526 0.181261 0.983408 -0.00731607
-12.5703 58.6575 -13.2328 0.113663 0.993512 -0.0038296
-14.1546 58.8171 -13.0998 0.0905373 0.99589 0.00255362
-15.7197 58.9489 -12.9534 0.0580996 0.99831 0.00100336
-17.3194 59.0052 -12.7875 0.0278942 0.999601 0.00437381
-18.91 59.0322 -12.6188 0.00645728 0.999949 0.00772703
-20.8261 58.9814 -12.3943 -0.0485767 0.998574 0.0221215
-22.6683 58.8726 -12.1745 -0.0694988 0.99718 0.0283023
-24.6634 58.697 -11.9346 -0.0946699 0.994787 0.0378882
-26.3275 58.5108 -11.7668 -0.112793 0.992737 0.0418466
-27.969 58.2907 -11.5845 -0.134319 0.989742 0.0486838
-28.7185 58.1835 -11.5076 -0.139562 0.988797 0.052941
-28.7454 58.1224 -10.4652 -0.152464 0.986461 0.0604172
-26.6306 58.4196 -10.68 -0.124168 0.991486 0.0392066
-24.8601 58.6359 -10.88 -0.104659 0.993762 0.0385174
-23.2274 58.7948 -11.0728 -0.084798 0.995708 0.0370814
-21.5592 58.9188 -11.2699 -0.0637314 0.99744 0.0324291
-20.0071 59 -11.4478 -0.0404528 0.99888 0.0245561
-17.9569 59.0188 -11.6899 0.000810989 0.999943 0.0106277
-16.2791 58.9698 -11.8629 0.0324466 0.999464 0.00443095
-14.4545 58.8444 -12.0514 0.0878816 0.996128 0.002565
-12.5893 58.6521 -12.2168 0.121804 0.992475 0.0125538
-10.9978 58.4275 -12.3541 0.174043 0.984692 0.00955973
-9.33037 58.1117 -12.4494 0.20139 0.979493 -0.00598134
-7.83173 57.7722 -12.5321 0.225181 0.974282 -0.00829046
-6.23442 57.385 -12.5992 0.250608 0.968057 -0.00784997
-4.50778 56.9116 -12.6295 0.285515 0.958223 -0.0170151
-3.03152 56.4645 -12.6448 0.294177 0.955694 -0.0104622
-1.52456 55.9808 -12.6705 0.307756 0.951431 -0.00808088
0.0861405 55.4344 -12.7093 0.331899 0.943299 -0.00541887
1.83736 54.7987 -12.765 0.349638 0.936867 -0.005733
3.32429 54.2375 -12.8371 0.356006 0.934478 -0.00312759
5.17895 53.5072 -12.9704 0.368412 0.929648 -0.00525699
6.62058 52.9049 -13.088 0.389138 0.921167 -0.00487061
8.23451 52.2025 -13.2649 0.40133 0.915872 -0.0106513
9.37604 51.6762 -13.4434 0.427463 0.903893 -0.0159116
11.2534 50.7615 -12.8929 0.462312 0.886661 -0.0099928
9.68511 51.543 -12.5362 0.436488 0.899553 -0.0168377
8.24226 52.214 -12.2751 0.408172 0.912813 -0.0129391
6.47503 52.9762 -12.0682 0.384166 0.923146 -0.0147679
4.95185 53.6092 -11.9519 0.375793 0.926659 -0.00905205
3.11583 54.3245 -11.828 0.355173 0.93475 -0.00968987
1.35443 54.9848 -11.7525 0.345179 0.938449 -0.0128677
-0.371259 55.5998 -11.7192 0.323298 0.946274 -0.00668594
-1.96168 56.1311 -11.6929 0.309375 0.9509 -0.00870369
-3.61928 56.6629 -11.6677 0.292246 0.956216 -0.0155943
-5.42405 57.182 -11.6172 0.258542 0.965913 -0.0129566
-6.97269 57.5811 -11.572 0.234736 0.972 -0.0107701
-8.60922 57.9669 -11.4843 0.223156 0.974596 -0.019062
-10.466 58.324 -11.3742 0.180167 0.983636 -0.000881222
-12.1938 58.6027 -11.2449 0.130365 0.991458 0.00400132
-14.3955 58.833 -11.0334 0.0833481 0.9965 0.00639113
-15.9907 58.9531 -10.8683 0.0509642 0.99868 0.00642035
-17.6615 59.002 -10.6873 0.0266692 0.999603 0.00914221
-19.4332 58.9975 -10.4856 -0.0379327 0.999156 0.0157367
-21.2432 58.9104 -10.2728 -0.0618353 0.99785 0.0216994
-22.7763 58.8044 -10.0888 -0.0722029 0.996961 0.0292469
-24.4536 58.6424 -9.89556 -0.103287 0.994156 0.0313954
-26.183 58.4353 -9.69688 -0.125171 0.991209 0.0428529
-27.999 58.1764 -9.49445 -0.149235 0.986986 0.0598926
-28.5711 58.0864 -9.43728 -0.152461 0.986461 0.0604207
-28.6307 58.0151 -8.38051 -0.162159 0.985298 0.0537841
-26.932 58.2874 -8.57648 -0.136193 0.989601 0.0462843
-25.3137 58.5091 -8.7591 -0.128398 0.991018 0.0373825
-23.4176 58.7151 -8.97611 -0.091185 0.995382 0.0300048
-21.7072 58.8582 -9.18625 -0.0694031 0.997429 0.017839
-19.673 58.971 -9.43823 -0.0355166 0.998982 0.027824
-18.1031 59.0019 -9.61555 0.00877597 0.999928 0.00816128
-16.5172 58.9595 -9.79639 0.0369421 0.999163 0.0175865
-14.996 58.8728 -9.96023 0.073557 0.99716 0.0161944
-13.4537 58.7464 -10.1203 0.09053 0.995868 0.00709378
-11.7943 58.5462 -10.2769 0.150439 0.98859 0.00762689
-10.0587 58.2446 -10.3905 0.175327 0.984487 0.00680592
-8.52199 57.9595 -10.4935 0.206915 0.978356 0.00238005
-7.02271 57.6069 -10.5731 0.237591 0.971277 -0.0130695
-4.97511 57.0685 -10.6382 0.267918 0.963431 -0.0045237
-3.43409 56.6149 -10.6905 0.297842 0.954607 -0.00388284
-1.74286 56.0681 -10.7297 0.310358 0.950593 -0.00715297
0.254802 55.3927 -10.7527 0.324425 0.945865 -0.00934252
1.83532 54.821 -10.7778 0.344675 0.938642 -0.0122856
3.2727 54.2788 -10.8248 0.357549 0.933782 -0.0145268
5.1551 53.5369 -10.9445 0.375953 0.92659 -0.00948337
6.83324 52.8433 -11.0869 0.389776 0.920771 -0.0160109
8.25792 52.2238 -11.2789 0.402016 0.915486 -0.0164033
9.73633 51.5364 -11.5706 0.436177 0.899702 -0.016892
11.2744 50.7708 -11.9405 0.45343 0.890879 -0.0271259
12.5011 50.1017 -12.3346 0.491246 0.870218 -0.0373826
14.1508 49.1586 -12.1028 0.511695 0.858194 -0.0408943
12.7988 49.9742 -11.4829 0.487116 0.872481 -0.0386634
11.32 50.7767 -10.9841 0.453431 0.890879 -0.0271255
9.81941 51.526 -10.5778 0.437478 0.898752 -0.0292954
8.43951 52.1611 -10.3043 0.406363 0.913489 -0.0201873
6.82327 52.8649 -10.0851 0.389779 0.920769 -0.0160149
4.95974 53.6295 -9.89559 0.373752 0.927362 -0.0175926
3.37928 54.2544 -9.79283 0.356828 0.933991 -0.0183063
1.78131 54.8541 -9.79082 0.344068 0.938853 -0.0131489
0.132643 55.4522 -9.77545 0.33149 0.943329 -0.0156629
-1.46257 55.989 -9.74696 0.309277 0.950812 -0.0174564
-3.0123 56.4857 -9.71027 0.302183 0.953215 -0.00819179
-4.70028 56.9953 -9.67163 0.277958 0.960593 0.000130097
-6.21074 57.4154 -9.60427 0.252012 0.967705 -0.00612468
-7.87454 57.8163 -9.54932 0.228095 0.973635 -0.00289268
-9.68001 58.1724 -9.42442 0.180112 0.98364 -0.0035559
-11.7673 58.5324 -9.28184 0.165295 0.986244 0.000904902
-13.44 58.736 -9.1156 0.0882861 0.996034 0.011054
-14.9928 58.86 -8.95132 0.0738448 0.997189 0.0127053
-16.7111 58.9535 -8.76298 0.0421417 0.999039 0.0120449
-18.5145 58.9869 -8.56474 0.00516702 0.99979 0.019831
-20.2464 58.9284 -8.34311 -0.052666 0.998363 0.0223164
-21.9699 58.8192 -8.13073 -0.0708726 0.99716 0.0254748
-23.5978 58.6695 -7.9264 -0.103892 0.994103 0.0310861
-25.146 58.491 -7.74188 -0.125085 0.99122 0.0428619
-26.6771 58.2711 -7.56318 -0.140093 0.988627 0.0546851
-28.1798 58.0345 -7.37712 -0.159247 0.985803 0.0532299
-28.1818 58.0342 -7.3769 -0.164511 0.984709 0.0573133
-28.4769 57.9204 -6.27589 -0.163766 0.984798 0.0579043
-26.6461 58.2244 -6.52361 -0.14592 0.988134 0.0479349
-24.9562 58.4703 -6.74489 -0.130333 0.990306 0.0480265
-23.2479 58.6734 -6.94824 -0.101495 0.994038 0.0398476
-21.6662 58.8156 -7.14722 -0.0708763 0.99716 0.0254759
-20.1044 58.9125 -7.34336 -0.0531237 0.998298 0.0240434
-18.3111 58.962 -7.55906 0.000916078 0.999693 0.0247634
-16.7613 58.9421 -7.74252 0.0366903 0.99919 0.0165417
-15.0457 58.8603 -7.94055 0.0699997 0.997543 0.00283961
-13.4591 58.7279 -8.11279 0.0908909 0.995852 0.00411286
-11.8432 58.5461 -8.2955 0.145451 0.989365 0.0011619
-10.2553 58.2782 -8.41135 0.165292 0.986244 0.000903047
-8.57933 57.9633 -8.52114 0.189718 0.981835 0.00249478
-7.02322 57.6145 -8.60707 0.236574 0.971606 0.00389765
-5.44933 57.2078 -8.6739 0.26983 0.962902 0.00330685
-3.76857 56.7254 -8.68997 0.289871 0.957065 -0.00108404
-2.23744 56.255 -8.73155 0.29897 0.954193 -0.0115456
-0.6327 55.7279 -8.80585 0.320889 0.946999 -0.0149546
0.853345 55.2108 -8.82304 0.335835 0.941788 -0.0158017
2.37827 54.649 -8.80264 0.351895 0.935933 -0.0141211
3.94008 54.0566 -8.75882 0.363195 0.931533 -0.0183399
5.39736 53.4744 -8.8736 0.377891 0.925637 -0.0198779
6.94105 52.8359 -9.07626 0.387425 0.921682 -0.0200958
8.7479 52.0469 -9.32104 0.403903 0.914579 -0.0201876
10.1502 51.4041 -9.6505 0.428106 0.903118 -0.0332248
11.6259 50.6562 -10.0846 0.4493 0.892695 -0.0349986
13.1375 49.8196 -10.6312 0.492858 0.869173 -0.0403619
14.3967 49.0626 -11.2005 0.507597 0.860571 -0.0419708
15.6684 48.2327 -11.8385 0.549997 0.833605 -0.0510478
17.1067 47.2192 -12.607 0.55598 0.829603 -0.0514271
18.3142 46.3386 -13.2427 0.572541 0.818317 -0.0505412
19.5545 45.4053 -13.9219 0.594039 0.803137 -0.0457087
20.6665 44.5467 -14.5348 0.603181 0.79681 -0.0356071
21.914 43.5612 -15.2261 0.611856 0.790159 -0.0357954
23.1598 42.5598 -15.9036 0.618106 0.785515 -0.0301886
24.3025 41.6292 -16.5166 0.623152 0.781466 -0.0315053
25.6052 40.5476 -17.203 0.632053 0.774459 -0.0268746
26.766 39.5723 -17.8255 0.638829 0.76897 -0.0241299
27.8573 38.6432 -18.422 0.645793 0.763229 -0.0208132
29.1198 37.552 -19.1132 0.647529 0.761731 -0.0217214
30.2306 36.582 -19.7242 0.6537 0.756481 -0.0203274
31.5226 35.4405 -20.4385 0.657682 0.753001 -0.0210571
32.658 34.4302 -21.0664 0.657758 0.752926 -0.0213733
33.809 33.4062 -21.6885 0.657766 0.752914 -0.021551
34.8926 32.4461 -22.256 0.655588 0.754792 -0.0222224
36.0337 31.4405 -22.8188 0.651034 0.758685 -0.0235053
