52.8652 22.2257 -34.7912 0.279787 0.949877 0.13947
52.7268 22.2611 -34.7542 0.279787 0.949877 0.139471
52.5199 22.4252 -35.4569 0.279787 0.949877 0.13947
53.3211 22.1773 -35.3464 0.246986 0.95912 0.13739
54.0722 22.0214 -35.504 0.229208 0.962275 0.146593
55.1917 21.7732 -35.4944 0.197998 0.969056 0.1474
55.9687 21.6191 -35.4959 0.167899 0.975914 0.139292
56.8173 21.5162 -35.6212 0.128861 0.97954 0.154587
57.9264 21.3977 -35.9102 0.121364 0.984633 0.123578
58.7575 21.3408 -36.0986 0.090495 0.988121 0.124211
59.9769 21.2754 -36.4131 0.081597 0.987845 0.132302
60.7629 21.2812 -36.6387 0.0287148 0.990775 0.132437
61.736 21.3093 -37.0273 -0.00950962 0.992429 0.122455
63.078 21.3179 -37.0687 -0.00174668 0.991661 0.128865
63.7701 21.364 -37.1247 -0.0588663 0.989426 0.132559
64.5043 21.4397 -37.3232 -0.0682778 0.987761 0.140236
65.3453 21.484 -37.1023 -0.0887353 0.987091 0.13333
66.0849 21.5194 -36.8615 -0.140927 0.980935 0.133813
66.0512 21.4751 -36.6011 -0.107666 0.979723 0.168895
64.807 21.2741 -36.1275 -0.0897638 0.97991 0.178096
63.9698 21.1866 -35.8485 -0.0375015 0.986218 0.161148
63.2439 21.1304 -35.6438 -0.0455255 0.988267 0.144813
62.206 21.0826 -35.4533 -0.00257807 0.988756 0.149013
61.4786 21.0362 -35.1036 0.00956971 0.986712 0.162183
60.4002 21.0369 -34.9489 0.0293417 0.983648 0.177693
59.5803 21.0863 -34.9262 0.0944849 0.979948 0.175428
58.6557 21.1526 -34.7984 0.103561 0.9805 0.166531
57.7281 21.2311 -34.5983 0.132332 0.978087 0.16073
56.9545 21.293 -34.338 0.113143 0.977506 0.176268
56.1874 21.3872 -34.1946 0.167969 0.970172 0.174792
55.3551 21.507 -34.0006 0.181979 0.971044 0.154781
54.4605 21.6548 -33.7859 0.202224 0.964878 0.167679
53.334 21.9373 -33.6822 0.264455 0.953442 0.144955
52.5829 22.158 -33.769 0.251322 0.953031 0.16901
51.2654 22.5146 -33.3916 0.304896 0.935813 0.176895
50.2655 22.8047 -33.1377 0.344643 0.922589 0.170305
49.3337 23.1386 -32.8781 0.378588 0.90997 0.169084
48.5082 23.4901 -32.8273 0.408986 0.896515 0.17027
47.7337 23.8265 -32.7381 0.400494 0.898484 0.179369
46.9576 24.1506 -32.3895 0.449962 0.877687 0.164924
46.2459 24.4932 -32.2712 0.464703 0.870806 0.159545
45.451 24.9004 -32.0062 0.496839 0.853543 0.156895
44.514 25.4621 -31.7352 0.543486 0.83082 0.119837
43.8597 25.8961 -31.7763 0.542882 0.831317 0.119125
42.8533 26.5842 -31.4895 0.590464 0.798392 0.115369
42.2733 26.9448 -31.0912 0.598554 0.791063 0.12511
41.6522 27.4095 -30.9136 0.629896 0.768837 0.108565
40.7509 28.0924 -30.6678 0.618043 0.779762 0.0999685
40.027 28.6644 -30.4651 0.640084 0.764508 0.0762239
39.4057 29.1619 -30.2077 0.642432 0.762467 0.0769724
38.8326 29.6366 -30.0606 0.65872 0.750554 0.0523234
37.8859 30.4313 -29.8253 0.646682 0.761776 0.0387342
37.1877 31.0413 -29.4763 0.665977 0.745418 0.0287512
36.5337 31.5972 -29.2621 0.656827 0.753833 0.0135097
35.9503 32.1012 -29.1347 0.65776 0.75315 0.00616453
36.3736 31.7401 -29.3674 0.652887 0.757355 0.0123219
37.1166 31.1123 -29.8075 0.648377 0.761144 0.0163406
37.8776 30.439 -29.8395 0.656331 0.753595 0.0337453
37.9774 30.393 -30.6017 0.646299 0.762022 0.0402327
38.5394 29.9339 -30.9126 0.645915 0.762268 0.0417279
39.4439 29.2218 -31.4956 0.631133 0.774397 0.0445066
40.3796 28.5143 -31.9859 0.61848 0.78319 0.0638903
41.2645 27.8428 -32.2617 0.615732 0.78543 0.0630351
42.1172 27.2735 -32.802 0.588526 0.803493 0.0896433
42.9405 26.7092 -33.1595 0.571762 0.813261 0.10494
43.8941 26.1103 -33.5033 0.558341 0.822921 0.105147
44.5226 25.736 -33.734 0.522688 0.843689 0.122415
45.6795 25.059 -33.8564 0.486261 0.86481 0.12387
46.7224 24.5541 -34.2543 0.46225 0.877444 0.127484
47.7914 24.0272 -34.2258 0.434054 0.89054 0.136148
48.3989 23.8199 -34.7166 0.382154 0.913326 0.138555
49.1965 23.527 -34.8855 0.382409 0.918464 0.100932
49.9358 23.2287 -34.9713 0.382392 0.91847 0.100944
50.8224 22.919 -35.0909 0.32727 0.936829 0.123471
51.7998 22.6128 -35.29 0.298519 0.945463 0.12843
52.186 22.5104 -35.3675 0.279787 0.949877 0.13947
52.4113 22.5397 -36.0938 0.286627 0.952182 0.105799
53.123 22.3168 -35.992 0.257423 0.958423 0.123123
54.408 22.0417 -36.3132 0.210736 0.970056 0.119093
55.2415 21.8693 -36.2499 0.191798 0.973369 0.125566
55.9963 21.7076 -36.1541 0.208387 0.972587 0.103199
56.8705 21.6055 -36.3663 0.142705 0.982782 0.117366
57.7213 21.5158 -36.6499 0.121364 0.984633 0.123577
58.6699 21.4394 -36.8001 0.100031 0.986488 0.129753
59.3994 21.4048 -37.0362 0.0723174 0.991452 0.108592
60.5865 21.3798 -37.4285 0.0391123 0.993634 0.105647
61.4951 21.3906 -37.7051 -0.00953127 0.99243 0.122443
62.235 21.4261 -37.9357 -0.00950962 0.992429 0.122455
63.0613 21.4344 -37.9652 -0.0309134 0.990504 0.130729
63.8915 21.4888 -37.9672 -0.0682777 0.987761 0.140236
64.78 21.5391 -37.915 -0.0613356 0.990627 0.122053
65.7291 21.6024 -37.8449 -0.107932 0.985722 0.124515
66.4781 21.6746 -37.5853 -0.140911 0.980937 0.133816
67.6312 21.8107 -37.3886 -0.157559 0.977401 0.13949
68.0047 21.781 -36.721 -0.17686 0.973899 0.142273
67.4828 21.632 -36.2561 -0.149068 0.972778 0.173108
66.6801 21.4477 -36.021 -0.136367 0.971946 0.18891
65.8854 21.3391 -35.9149 -0.102721 0.980181 0.169395
64.8773 21.1436 -35.3742 -0.063633 0.983064 0.169621
64.1334 21.0923 -35.1991 -0.0288522 0.989384 0.142429
63.3321 21.0497 -35.0649 -0.0455246 0.988267 0.144811
62.563 21.0027 -34.9365 -0.00930351 0.986915 0.160973
61.8107 20.956 -34.6377 0.00831204 0.986427 0.16399
60.8164 20.9192 -34.3659 0.0188272 0.985038 0.170842
59.9769 20.9318 -34.2222 0.057251 0.984067 0.168326
58.7408 21.0075 -33.9561 0.112636 0.981053 0.157634
57.7909 21.0922 -33.8043 0.122483 0.97957 0.159183
56.9316 21.1613 -33.6556 0.130958 0.973549 0.1833
56.1119 21.282 -33.4832 0.182655 0.970877 0.155031
55.0879 21.4481 -33.3169 0.18198 0.971044 0.154778
54.3761 21.5649 -33.1339 0.253491 0.955114 0.152696
52.8182 21.9941 -33.1948 0.253292 0.952657 0.16819
51.7875 22.2158 -32.7104 0.309776 0.93509 0.172039
50.8444 22.4971 -32.508 0.314659 0.934366 0.167181
49.8521 22.8238 -32.345 0.378586 0.909972 0.16908
49.0762 23.1293 -32.2291 0.382547 0.909132 0.164733
48.2667 23.4745 -32.1648 0.400495 0.898483 0.179368
47.1061 23.9602 -31.7832 0.450659 0.877221 0.1655
46.3941 24.2928 -31.6086 0.464702 0.870806 0.159547
45.6415 24.6695 -31.3537 0.520163 0.842181 0.138367
44.7639 25.2119 -31.1753 0.536781 0.830334 0.149704
43.76 25.8711 -31.2316 0.531592 0.833268 0.15177
42.8221 26.4613 -30.6593 0.598554 0.791063 0.12511
42.0699 27.0123 -30.4537 0.60676 0.787189 0.110346
41.4396 27.4895 -30.2666 0.641745 0.757917 0.117158
40.5297 28.1958 -29.9535 0.637736 0.766548 0.0754723
39.8609 28.733 -29.7585 0.640085 0.764507 0.0762211
39.2903 29.2054 -29.5792 0.655386 0.753514 0.0518312
38.7138 29.7039 -29.5246 0.662052 0.747595 0.0528087
38.0622 30.2482 -29.1698 0.656331 0.753596 0.0337429
37.3458 30.878 -28.9029 0.665977 0.745418 0.0287512
36.6408 31.4933 -28.6735 0.656827 0.753833 0.0135097
36.0714 31.9941 -28.5728 0.664664 0.747043 -0.00834834
35.2572 32.7236 -28.5265 0.666698 0.74514 -0.0167113
34.5871 33.3224 -28.3368 0.659331 0.75168 -0.0161396
33.7379 34.0817 -27.8618 0.660741 0.750338 -0.0203603
33.0922 34.6498 -27.7975 0.658968 0.751743 -0.0253152
32.4776 35.192 -27.5897 0.653508 0.756248 -0.0314441
31.8197 35.7711 -27.4366 0.655624 0.754237 -0.0358306
31.1972 36.3176 -27.2167 0.650623 0.758183 -0.0425756
30.3418 37.0731 -26.781 0.647251 0.761116 -0.0420679
29.7532 37.5796 -26.6164 0.643851 0.76371 -0.0469089
30.1844 37.1839 -27.1632 0.642766 0.764654 -0.0464398
30.8293 36.629 -27.3151 0.649977 0.758613 -0.0448824
31.306 36.1937 -27.8481 0.648535 0.760263 -0.0374486
31.8382 35.7216 -28.1412 0.653508 0.756248 -0.0314433
32.3761 35.2505 -28.3924 0.651391 0.75826 -0.027057
33.09 34.6232 -28.6628 0.657417 0.75323 -0.0207425
33.8026 33.9914 -29.1531 0.657786 0.753009 -0.017115
34.4067 33.4549 -29.6835 0.657342 0.753536 -0.0092309
35.0371 32.9042 -29.9776 0.655194 0.75542 -0.00783704
35.7221 32.3142 -30.2797 0.651927 0.758272 0.00381535
36.4416 31.7047 -30.6646 0.645482 0.763649 0.0137853
37.0715 31.1725 -30.8567 0.647953 0.761542 0.0145325
37.6479 30.6963 -31.2066 0.637459 0.770022 0.0266471
38.2244 30.2393 -31.6538 0.629536 0.776657 0.0221203
38.9057 29.6928 -32.0582 0.62618 0.777674 0.0546261
39.6488 29.1471 -32.6063 0.621229 0.78095 0.0647447
40.61 28.4142 -32.989 0.61848 0.78319 0.0638917
41.5033 27.7906 -33.406 0.588585 0.804816 0.0749719
42.5397 27.0596 -33.7503 0.588643 0.806141 0.0603018
43.5467 26.4069 -34.0289 0.554092 0.828059 0.0854425
44.2916 25.9562 -34.2997 0.515458 0.850744 0.102653
44.9562 25.5736 -34.4664 0.519082 0.847211 0.11254
45.618 25.2049 -34.5968 0.474555 0.871406 0.123983
46.2775 24.8701 -34.7919 0.476699 0.871452 0.115456
46.9553 24.5389 -34.9486 0.429057 0.894511 0.125539
47.9616 24.102 -35.276 0.429153 0.894448 0.125663
48.7689 23.7803 -35.5701 0.382409 0.918464 0.100932
49.6107 23.4557 -35.8057 0.382373 0.918476 0.100957
50.4656 23.1435 -35.8487 0.327269 0.936829 0.123472
51.3021 22.8691 -35.9834 0.327249 0.936821 0.123588
51.8304 22.7162 -36.1084 0.286627 0.952183 0.105796
44.256 25.7047 -32.2465 0.54288 0.831318 0.119127
44.9718 25.2835 -32.5732 0.520162 0.842181 0.138368
46.0904 24.6681 -32.7675 0.488143 0.858733 0.15553
46.8166 24.3087 -32.846 0.449961 0.877687 0.164924
47.1967 24.2146 -33.5556 0.443073 0.887033 0.1293
46.7887 24.3443 -32.9855 0.452092 0.883526 0.122453
46.0403 24.7385 -33.035 0.486263 0.864809 0.123873
45.3575 25.1454 -33.1027 0.500112 0.858259 0.115232
44.6301 25.583 -33.1387 0.533545 0.838172 0.111988
44.1428 25.847 -32.7282 0.542276 0.831814 0.118413
50.1226 23.0798 -34.3243 0.371855 0.919458 0.125015
48.9025 23.5188 -34.0777 0.361303 0.920451 0.149099
49.1529 23.3015 -33.3433 0.367965 0.915631 0.161266
49.8929 23.0305 -33.5186 0.374626 0.910811 0.17343
50.5817 22.8557 -34.0173 0.309777 0.93509 0.172038
51.4826 22.5507 -33.9571 0.304896 0.935813 0.176895
50.542 22.9238 -34.3843 0.322262 0.938939 0.120428
50.3221 22.9999 -34.3529 0.382392 0.91847 0.100944
60.1621 21.1694 -35.6719 0.0336082 0.989651 0.139245
59.0554 21.2384 -35.5016 0.0904948 0.988121 0.124212
59.9896 21.1496 -35.4999 0.0758668 0.982008 0.171878
60.2972 21.1353 -35.4766 0.0339206 0.986088 0.161874
54.1042 21.9019 -34.7693 0.231382 0.962091 0.144337
54.8773 21.6958 -34.5308 0.206655 0.968205 0.140974
54.333 21.7833 -34.3711 0.222375 0.960832 0.164057
53.7622 21.9625 -34.6172 0.233554 0.961907 0.142085
53.9131 21.9276 -34.6289 0.233555 0.961907 0.142084
61.8368 21.177 -36.0864 -0.0025798 0.988756 0.149013
61.9896 21.1562 -35.9409 -0.0131539 0.98782 0.155042
60.9174 21.1198 -35.5353 0.0385016 0.988527 0.146058
61.4679 21.1896 -36.1529 0.0232484 0.98911 0.144522
