51.9914 23.0759 -34.6763 0.311504 0.943042 0.115636
53.1865 22.7331 -34.7288 0.271719 0.9556 0.114004
54.3362 22.4003 -34.4738 0.235565 0.961584 0.140944
53.8239 22.5024 -34.3274 0.247811 0.957269 0.148116
53.0081 22.7015 -34.1444 0.272285 0.948536 0.161682
52.2201 22.9201 -34.0996 0.300066 0.94095 0.153892
51.4346 23.184 -34.03 0.326347 0.933949 0.145731
50.5322 23.4911 -33.9779 0.319815 0.935414 0.150502
49.8545 23.6915 -33.5399 0.384762 0.910424 0.151942
49.0867 24.0229 -33.6322 0.391018 0.910631 0.132374
48.1548 24.4211 -33.4889 0.420965 0.898066 0.126367
47.3737 24.7654 -33.1645 0.453723 0.883751 0.114539
46.6542 25.0771 -32.7191 0.453506 0.879152 0.143419
45.7324 25.5389 -32.3501 0.506239 0.84753 0.159422
44.8991 26.0022 -32.1669 0.520067 0.84185 0.14251
44.1548 26.4794 -32.0823 0.546851 0.826462 0.133843
43.2614 27.0537 -31.7837 0.587156 0.800689 0.118931
43.6893 26.8455 -32.5031 0.555916 0.824642 0.10419
44.7244 26.151 -32.4334 0.540297 0.834141 0.110063
45.5161 25.7142 -32.6783 0.49756 0.860524 0.109237
46.2948 25.2947 -32.9205 0.486757 0.865529 0.117143
47.3513 24.8547 -33.7648 0.4449 0.887129 0.12214
48.0805 24.5395 -34.052 0.436075 0.890509 0.129742
49.1883 24.0815 -34.2803 0.376181 0.915637 0.141762
49.9524 23.7776 -34.3455 0.383925 0.915451 0.118012
51.1133 23.369 -34.5827 0.325118 0.939559 0.107367
51.4349 23.2646 -34.6428 0.325118 0.939559 0.107367
51.6091 23.2904 -35.396 0.311505 0.943041 0.115637
52.6137 22.9901 -35.5173 0.284861 0.951044 0.118974
53.6285 22.7027 -35.4228 0.251351 0.959267 0.128958
54.4514 22.495 -35.3239 0.222869 0.966291 0.128881
55.3463 22.3155 -35.5016 0.181816 0.973005 0.141458
56.7766 22.0737 -35.5944 0.176696 0.975095 0.134047
57.7783 21.973 -35.7986 0.115761 0.984684 0.130369
58.5238 21.8743 -35.7119 0.0831725 0.985252 0.149516
59.5475 21.826 -35.9495 0.08159 0.985135 0.151167
60.2571 21.8496 -36.6051 0.0699982 0.991831 0.106633
61.1513 21.8416 -36.9525 0.0304618 0.994098 0.104119
62.0796 21.8204 -37.0219 0.0302558 0.994088 0.104278
62.938 21.8387 -37.1124 -0.0266581 0.992761 0.117113
63.7254 21.8663 -37.1676 -0.0471707 0.990822 0.124834
64.5229 21.9263 -37.1879 -0.0788919 0.988848 0.126319
65.7638 21.976 -36.8017 -0.075943 0.989548 0.12249
65.0455 21.8478 -36.39 -0.0724418 0.980196 0.184303
64.2014 21.7408 -36.1528 -0.0483593 0.983717 0.170849
63.3536 21.6962 -36.0047 -0.024976 0.987277 0.157034
62.5154 21.6623 -35.8963 0.024698 0.988928 0.145948
61.6549 21.6278 -35.4522 0.0352137 0.988799 0.145038
60.719 21.6041 -34.9808 0.043448 0.989771 0.135886
59.5882 21.6323 -34.7091 0.0831725 0.985252 0.149516
58.2372 21.6851 -34.2868 0.0847547 0.985369 0.147864
57.2338 21.792 -34.236 0.133606 0.976357 0.169931
56.5324 21.8976 -34.1392 0.174599 0.972184 0.156121
55.6028 22.0415 -33.9784 0.18468 0.970352 0.155686
54.7297 22.2122 -33.915 0.234823 0.958961 0.158911
53.2756 22.5442 -33.6719 0.25929 0.953371 0.153606
52.4382 22.7642 -33.5521 0.272285 0.948536 0.161682
51.0243 23.2196 -33.3398 0.326347 0.933949 0.145732
49.8475 23.6053 -33.0058 0.384762 0.910424 0.151942
48.9014 23.9896 -32.8294 0.410612 0.899161 0.151352
48.0356 24.3782 -32.7893 0.400924 0.900561 0.167056
47.3328 24.6896 -32.5375 0.453288 0.874553 0.172297
46.223 25.1871 -32.0376 0.492697 0.855993 0.155746
45.4468 25.6063 -31.8014 0.50624 0.84753 0.159422
44.7484 26.0272 -31.6932 0.534557 0.835728 0.125725
43.8009 26.6073 -31.426 0.546851 0.826462 0.133843
43.0685 27.1078 -31.1955 0.587726 0.800422 0.117905
42.409 27.575 -30.9075 0.607055 0.78832 0.100176
41.3387 28.4003 -30.6782 0.629027 0.773619 0.075828
40.5641 29.0014 -30.4946 0.62905 0.774398 0.0670448
39.8355 29.577 -30.1252 0.638208 0.767478 0.0605673
39.17 30.1332 -29.7826 0.653653 0.755896 0.0368646
38.5053 30.7011 -29.7194 0.650541 0.758972 0.0267555
37.889 31.2279 -29.3383 0.657263 0.753498 0.0156588
37.2321 31.7994 -29.2689 0.656235 0.754399 0.0153759
36.5999 32.3478 -29.2139 0.658635 0.752395 0.0100951
36.3357 32.5853 -29.6776 0.65693 0.753839 0.0126045
37.2916 31.7675 -30.2453 0.652142 0.757914 0.0160985
38.2848 30.9285 -30.8077 0.650541 0.758972 0.0267555
38.9092 30.4144 -31.1213 0.644067 0.764171 0.0349343
39.4964 29.9502 -31.583 0.633965 0.772366 0.0392269
40.349 29.2981 -32.0521 0.624385 0.779027 0.0570986
40.9692 28.8242 -32.2985 0.610189 0.789318 0.0664153
41.9468 28.1066 -32.5097 0.600633 0.795859 0.0764763
42.5689 27.6515 -32.7422 0.589014 0.802821 0.0889405
43.532 27.0479 -33.2323 0.562328 0.820045 0.106364
44.5802 26.3921 -33.4978 0.531087 0.839046 0.118109
45.8567 25.6527 -33.7457 0.486758 0.865529 0.117142
46.8738 25.1686 -34.2469 0.478244 0.870717 0.114055
47.7476 24.7716 -34.5276 0.430748 0.89541 0.11268
48.463 24.4588 -34.7838 0.420968 0.898065 0.126364
49.2267 24.1445 -34.8923 0.391672 0.915264 0.0942614
50.0717 23.8022 -35.079 0.36777 0.923561 0.10504
50.8358 23.5412 -35.2488 0.334567 0.935682 0.111543
50.5125 23.7504 -35.9721 0.344015 0.931806 0.115719
49.672 24.0525 -35.8483 0.39152 0.915319 0.0943605
48.9073 24.3525 -35.5797 0.397754 0.912157 0.0988049
48.1167 24.6779 -35.2268 0.446922 0.890425 0.0860444
47.002 25.1835 -34.9506 0.430681 0.895441 0.112693
46.2922 25.5587 -34.8317 0.480502 0.870911 0.103108
45.6289 25.8847 -34.4939 0.478244 0.870717 0.114053
44.8783 26.3154 -34.3251 0.521041 0.848289 0.0944526
43.9928 26.837 -34.1249 0.521042 0.848289 0.0944563
43.3087 27.2784 -33.9077 0.56262 0.82276 0.0807768
42.6195 27.7135 -33.539 0.562474 0.821403 0.0935706
41.4738 28.5334 -33.2363 0.600633 0.795859 0.0764763
40.547 29.2051 -32.9472 0.610189 0.789318 0.0664153
39.7701 29.7985 -32.5488 0.624385 0.779027 0.0570986
39.0805 30.3164 -32.0727 0.629177 0.775695 0.0481637
38.4643 30.8121 -31.6836 0.633847 0.773071 0.0244583
37.9082 31.2683 -31.3655 0.647458 0.761661 0.0258895
37.1996 31.8635 -31.036 0.652143 0.757914 0.0161003
36.1833 32.7259 -30.516 0.646132 0.763208 0.0052426
35.392 33.4058 -29.9677 0.654487 0.756066 -0.00335722
34.8187 33.9061 -29.5904 0.656418 0.754319 -0.0100426
34.1469 34.492 -29.2426 0.654783 0.755709 -0.0126806
33.4353 35.1195 -28.721 0.656226 0.754376 -0.0165502
32.666 35.7923 -28.4381 0.650537 0.759026 -0.0261125
32.0428 36.3402 -28.0797 0.653101 0.756534 -0.0331505
31.2947 37.0125 -27.3472 0.651827 0.757384 -0.0381794
30.613 37.6086 -27.0889 0.643369 0.764178 -0.0459191
30.0202 38.1218 -26.858 0.645124 0.762599 -0.0475173
29.3519 38.7126 -26.4499 0.637747 0.768403 -0.0522119
29.9031 38.2513 -26.3705 0.645094 0.762628 -0.0474537
30.6116 37.6381 -26.6175 0.645115 0.762785 -0.0444708
31.1747 37.1373 -26.9838 0.653501 0.755674 -0.043514
31.8587 36.5437 -27.0201 0.65183 0.757381 -0.0381762
32.5064 35.9753 -27.2123 0.656049 0.753977 -0.0334519
33.254 35.3153 -27.4643 0.66055 0.750435 -0.0228332
33.9207 34.7261 -27.6117 0.659011 0.751912 -0.0178509
34.5327 34.179 -27.9591 0.661418 0.749852 -0.0157913
35.1487 33.6337 -27.9955 0.660737 0.750501 -0.0122782
36.0157 32.8636 -28.219 0.668595 0.743618 0.00365286
36.6976 32.2516 -28.4153 0.663613 0.748008 0.00687489
37.6414 31.4316 -28.7485 0.661605 0.74932 0.0257141
38.6212 30.5772 -29.1909 0.659701 0.750485 0.0386091
39.4931 29.8341 -29.3876 0.653454 0.75583 0.0414513
40.2358 29.2026 -29.599 0.645929 0.761688 0.0487134
40.8854 28.686 -29.8652 0.629047 0.774399 0.0670448
41.6731 28.0619 -30.0773 0.635893 0.767769 0.0785558
42.3202 27.5671 -30.3073 0.606234 0.789031 0.0995456
43.0561 27.0392 -30.596 0.605411 0.789742 0.0989235
43.8934 26.4382 -30.7599 0.567005 0.813575 0.126386
44.6091 26.0134 -31.0085 0.534555 0.83573 0.12572
45.2956 25.5929 -31.1278 0.533897 0.83617 0.125597
46.0215 25.1737 -31.3266 0.492697 0.855993 0.155746
47.0314 24.6697 -31.6436 0.466223 0.869504 0.162182
47.9254 24.3092 -32.1612 0.451154 0.875915 0.170978
48.7214 23.9439 -32.1141 0.391238 0.90196 0.182761
49.5869 23.5931 -32.2866 0.381428 0.911217 0.155554
50.3638 23.2832 -32.3837 0.349021 0.923653 0.153605
51.4308 22.9596 -32.5839 0.319814 0.935415 0.1505
52.1753 22.722 -32.7337 0.327847 0.933365 0.1461
53.4159 22.4007 -32.9642 0.246295 0.958207 0.14553
54.377 22.1893 -33.199 0.253546 0.956892 0.141423
55.1557 22.02 -33.3143 0.184677 0.970352 0.155687
56.3705 21.8265 -33.4983 0.177762 0.972404 0.151098
57.3167 21.6736 -33.6209 0.154103 0.97427 0.163028
58.498 21.5978 -33.8547 0.109348 0.969834 0.207512
59.9268 21.5214 -34.298 0.104793 0.954601 0.277139
60.9769 21.5259 -34.4938 0.0468779 0.974125 0.208289
62.3652 21.5091 -34.8154 0.0393306 0.989285 0.140462
63.1944 21.5565 -35.1517 -0.0246279 0.987258 0.157212
64.0564 21.6103 -35.3562 -0.0242798 0.987238 0.157391
65.0756 21.7218 -35.708 -0.0891463 0.980692 0.172875
65.9482 21.8781 -36.0855 -0.105852 0.981188 0.161449
67.0336 22.0727 -36.4126 -0.148806 0.977335 0.148077
67.9138 22.3569 -37.2564 -0.175834 0.97375 0.144542
67.1624 22.274 -37.6117 -0.148812 0.977334 0.148076
66.3648 22.1887 -37.7482 -0.13923 0.981071 0.13459
65.5691 22.0844 -37.811 -0.139662 0.981002 0.134647
64.7915 22.0447 -37.9734 -0.0730023 0.990249 0.118651
63.9947 21.9959 -37.9988 -0.0673078 0.98889 0.132541
62.9639 21.9366 -37.9369 -0.0163828 0.992488 0.120745
62.1436 21.92 -37.8445 -0.00609718 0.992216 0.124379
61.1426 21.9215 -37.7128 0.045642 0.99284 0.109216
60.2604 21.9391 -37.3967 0.0607631 0.991583 0.114325
58.835 21.9464 -36.5726 0.0699677 0.991829 0.106674
58.0684 22.0294 -36.5094 0.125392 0.98478 0.120351
57.192 22.1369 -36.5156 0.115846 0.984673 0.130382
56.0321 22.3042 -36.2897 0.176702 0.975094 0.134046
55.1767 22.4412 -36.2177 0.192161 0.975078 0.105125
54.3046 22.6369 -36.1597 0.223889 0.968311 0.110669
53.4155 22.8573 -36.202 0.249806 0.962479 0.105975
52.6386 23.0577 -36.142 0.286625 0.951915 0.106611
51.6949 23.3636 -36.1881 0.30251 0.948071 0.0982332
51.1802 23.5139 -36.0532 0.334567 0.935682 0.111543
42.3651 27.6682 -31.3746 0.607853 0.788802 0.0906305
41.612 28.2333 -31.258 0.621473 0.778045 0.0893649
40.9849 28.7215 -31.0912 0.622161 0.779469 0.073101
40.3409 29.2206 -30.9319 0.62905 0.774398 0.0670448
39.2824 30.0786 -30.6531 0.636086 0.769923 0.0498984
40.1471 29.3945 -31.1576 0.629174 0.775698 0.0481624
40.7906 28.9022 -31.4184 0.619744 0.782778 0.0563536
41.4016 28.434 -31.6343 0.610189 0.789318 0.0664159
42.1715 27.8353 -31.5479 0.608652 0.789283 0.0810852
42.3075 27.7389 -31.6299 0.608653 0.789283 0.0810843
35.7688 33.0873 -28.9356 0.654413 0.756114 -0.00591176
36.3842 32.5362 -29.0026 0.668596 0.743617 0.00365224
35.8075 33.0537 -28.7999 0.668595 0.743618 0.00365286
35.166 33.6102 -28.7862 0.656776 0.754047 -0.00692984
35.1783 33.5989 -28.8681 0.654411 0.756116 -0.00591073
12.3342 51.318 -17.4143 0.510982 0.854475 -0.0936398
13.239 50.788 -17.3154 0.509378 0.855902 -0.0891172
14.0593 50.2711 -17.4806 0.522531 0.848758 -0.0810621
15.2795 49.5088 -17.6251 0.52103 0.850094 -0.0766053
15.8616 49.1179 -18.0043 0.51526 0.853932 -0.0728559
16.6206 48.6322 -18.164 0.526466 0.846216 -0.0821658
16.7939 48.549 -17.84 0.547831 0.833301 -0.0740964
16.1627 48.9793 -17.4998 0.51483 0.854213 -0.0726007
15.5352 49.408 -16.9927 0.520686 0.850591 -0.0733514
14.8721 49.8537 -16.5305 0.523853 0.848538 -0.0744767
13.9471 50.436 -16.4594 0.524914 0.847611 -0.0775278
13.3232 50.8076 -16.674 0.511592 0.854181 -0.0929929
12.4389 51.3181 -16.8435 0.511285 0.85427 -0.0938676
11.5685 51.7995 -17.1484 0.497613 0.861717 -0.0991247
11.945 51.5449 -17.4693 0.51126 0.854284 -0.0938739
11.9717 51.5309 -17.451 0.511293 0.854266 -0.0938594
