43.4755 31.4735 -25.8627 0.595445 0.80277 -0.0317202
42.2383 32.4308 -25.2997 0.614868 0.788469 -0.0159237
40.6302 33.7518 -24.527 0.631797 0.775006 -0.0140762
39.3801 34.8183 -23.8746 0.647018 0.762394 -0.0110922
38.0806 35.9487 -23.122 0.65334 0.756977 -0.0114902
36.9447 36.9491 -22.4126 0.65662 0.754147 -0.0106427
35.8115 37.9504 -21.7173 0.658529 0.752484 -0.0103869
34.6585 38.9668 -21.0137 0.657156 0.753691 -0.0098151
33.3978 40.0718 -20.2649 0.654725 0.755827 -0.00786873
32.0749 41.2195 -19.5303 0.65137 0.758674 -0.0114263
30.7731 42.3357 -18.8377 0.644733 0.764346 -0.00969069
29.5884 43.3362 -18.1977 0.638003 0.769975 -0.00956391
28.2425 44.4539 -17.4491 0.630125 0.776389 -0.012742
26.9049 45.5462 -16.708 0.621396 0.78332 -0.0166421
25.6194 46.565 -16.0582 0.611142 0.791354 -0.0162505
24.3816 47.5242 -15.4559 0.598912 0.800605 -0.0183099
23.0639 48.5147 -14.8287 0.59617 0.802511 -0.0235988
21.3678 49.7488 -14.0457 0.571692 0.820184 -0.0215959
20.0193 50.6907 -13.4519 0.55233 0.833274 -0.0242213
18.6885 51.5779 -12.9136 0.538505 0.842197 -0.0267655
17.3143 52.4401 -12.3839 0.514471 0.857026 -0.0287317
15.7138 53.4057 -11.7308 0.491566 0.870498 -0.0244214
14.3566 54.1773 -11.1577 0.480554 0.876566 -0.0264489
12.9532 54.9475 -10.6027 0.461463 0.886817 -0.0246456
11.4786 55.7079 -10.0595 0.450341 0.892498 -0.0253192
9.97182 56.4487 -9.55775 0.426046 0.904475 -0.0202359
8.32056 57.2258 -9.16813 0.417596 0.908453 -0.0180653
6.50438 58.0482 -8.93022 0.399839 0.916408 -0.0180223
4.9586 58.7151 -8.94228 0.387297 0.921663 -0.0231962
3.27004 59.417 -9.0191 0.380833 0.924566 -0.0119762
1.61307 60.08 -9.17407 0.364582 0.93109 -0.0122849
-0.0891573 60.7223 -9.32104 0.34497 0.938541 -0.0117033
-1.97012 61.3812 -9.52919 0.319207 0.947621 -0.0110559
-3.81381 61.9667 -9.7316 0.280175 0.959753 -0.0194201
-5.44826 62.4278 -9.91445 0.260737 0.965121 -0.0236215
-7.19 62.872 -10.102 0.238509 0.97102 -0.0152723
-8.92409 63.2524 -10.2597 0.183403 0.982954 -0.0128562
-10.9463 63.6001 -10.4625 0.153483 0.98813 -0.00654032
-12.7269 63.8083 -10.62 0.0946756 0.995506 0.00216941
-14.5867 63.9476 -10.8047 0.0534161 0.998565 0.00392558
-16.3321 64.0133 -10.9902 0.0187776 0.999823 0.00153484
-18.3102 63.9918 -11.1866 -0.0296183 0.999528 -0.00816716
-20.0363 63.8976 -11.3461 -0.0752538 0.997032 0.0162269
-21.9724 63.7027 -11.538 -0.115927 0.992858 0.0281699
-23.9071 63.4739 -11.7471 -0.125318 0.991706 0.0285396
-25.7766 63.1928 -11.9404 -0.164534 0.985601 0.0389643
-27.6918 62.8537 -12.1322 -0.183569 0.981979 0.0449383
-29.8083 62.4441 -12.3457 -0.200558 0.97781 0.0605284
-30.4762 62.3102 -12.4052 -0.213836 0.974824 0.0631908
-30.3212 62.2826 -11.4648 -0.218518 0.973666 0.0649933
-28.6677 62.6213 -11.3081 -0.200861 0.978155 0.0535506
-26.9899 62.9396 -11.1349 -0.186018 0.981719 0.040321
-25.3248 63.2357 -10.9676 -0.155039 0.98752 0.02769
-23.3549 63.5208 -10.7599 -0.132014 0.991024 0.0210753
-21.4068 63.749 -10.5482 -0.108137 0.994005 0.0161523
-19.6889 63.9105 -10.3688 -0.0903715 0.995712 0.0197408
-17.9587 64.0059 -10.2105 -0.0249258 0.999674 0.00554989
-16.1771 64.0053 -10.0285 0.0220941 0.999726 0.00766779
-14.2476 63.9249 -9.81292 0.0593587 0.998231 0.00343435
-12.4655 63.7863 -9.63576 0.0832305 0.996529 -0.00171377
-10.751 63.5707 -9.47525 0.14677 0.989119 -0.0101365
-8.75098 63.2351 -9.28358 0.181381 0.983405 -0.00390233
-7.10832 62.8639 -9.13045 0.231762 0.972652 -0.0153136
-5.47165 62.4577 -8.95223 0.260737 0.965121 -0.0236158
-3.82724 61.9852 -8.76979 0.287284 0.957654 -0.0191613
-2.14876 61.455 -8.58765 0.315336 0.948904 -0.0119953
-0.367251 60.8316 -8.38467 0.340795 0.940111 -0.00700916
1.35905 60.1939 -8.21932 0.366031 0.930479 -0.0151779
2.92023 59.5731 -8.05716 0.371516 0.928328 -0.0135701
4.63777 58.87 -7.94281 0.382282 0.923918 -0.0153664
6.46725 58.0868 -7.88986 0.40154 0.915629 -0.0197088
8.10392 57.3499 -8.10814 0.414778 0.909672 -0.0213764
9.72743 56.5891 -8.42108 0.426774 0.904142 -0.0197835
11.3767 55.7879 -8.93584 0.444804 0.895379 -0.0211181
12.8693 55.0221 -9.51876 0.45482 0.890207 -0.0258821
14.5729 54.0882 -10.2322 0.479434 0.877115 -0.028499
16.0452 53.2434 -10.8627 0.491508 0.87051 -0.025123
17.3777 52.4374 -11.4397 0.516199 0.855863 -0.0322226
19.0689 51.361 -12.0769 0.537091 0.843161 -0.0247591
20.5683 50.3434 -12.6967 0.563097 0.826002 -0.0253292
22.0993 49.2577 -13.3753 0.574374 0.818085 -0.0288487
23.654 48.0986 -14.0981 0.595075 0.803338 -0.023125
25.0067 47.0671 -14.7313 0.605067 0.795953 -0.0187651
26.4687 45.9228 -15.4352 0.613796 0.78926 -0.0179931
27.7874 44.8502 -16.1255 0.628982 0.77722 -0.017633
29.135 43.7313 -16.887 0.639961 0.768317 -0.0117683
30.7169 42.3973 -17.7639 0.645477 0.763713 -0.0100996
32.1103 41.2033 -18.5208 0.65217 0.758011 -0.00964955
33.2793 40.1864 -19.1734 0.653759 0.756653 -0.00870448
34.4305 39.1797 -19.8468 0.656394 0.754366 -0.00881115
35.6517 38.104 -20.5869 0.658647 0.752396 -0.0092002
36.9197 36.9851 -21.3677 0.657528 0.753359 -0.0103235
38.0834 35.9618 -22.0873 0.655521 0.755098 -0.0109644
39.2379 34.9549 -22.7748 0.650472 0.759439 -0.0117889
40.5797 33.8155 -23.4771 0.640866 0.76748 -0.0163082
41.8678 32.7528 -24.1063 0.622692 0.782394 -0.0106857
43.3154 31.6122 -24.775 0.60159 0.798623 -0.0170471
44.7236 30.5676 -25.3935 0.589218 0.807755 -0.0188083
46.1618 29.602 -25.9837 0.544735 0.83857 -0.00798069
47.8499 28.5973 -26.6313 0.486621 0.873587 -0.00678349
49.5366 27.7149 -27.2653 0.436242 0.899827 -0.00194952
51.0147 27.0519 -27.8244 0.394414 0.91888 -0.00986191
52.635 26.4248 -28.4504 0.351929 0.936011 0.00537609
54.1111 25.9483 -29.0342 0.263098 0.964767 0.00208791
55.7587 25.5185 -29.7134 0.222129 0.975001 -0.00565081
57.4782 25.1791 -30.434 0.187967 0.982175 0.000409249
59.7178 24.9155 -31.3177 0.0782074 0.996804 -0.0162725
60.2064 24.8725 -31.5058 0.0799045 0.996598 -0.0201872
63.0684 24.8863 -31.5695 -0.0875996 0.99589 0.0229985
61.2501 24.8344 -30.8913 0.0312552 0.999511 -0.000736251
59.6402 24.9237 -30.2719 0.0932416 0.995311 0.0257417
57.9322 25.0909 -29.6147 0.152821 0.988203 0.00999075
56.4133 25.3851 -28.9792 0.207865 0.977925 0.0213284
54.8999 25.7291 -28.3336 0.254322 0.966804 0.024695
53.1202 26.2555 -27.6089 0.327035 0.944975 0.00837543
51.6057 26.8069 -27.0172 0.373958 0.927438 -0.00367274
50.0998 27.4436 -26.4496 0.412071 0.911151 -0.000890276
48.5256 28.2321 -25.8657 0.478089 0.878301 -0.00428738
46.9032 29.1552 -25.2563 0.518608 0.854781 -0.0198775
45.3692 30.1509 -24.6415 0.560359 0.827811 -0.0269658
43.8085 31.2602 -23.9775 0.589441 0.807797 -0.00485177
42.3606 32.3739 -23.3195 0.620352 0.78422 -0.0127083
41.0704 33.4242 -22.6998 0.632808 0.774249 -0.00958609
39.8695 34.4334 -22.0854 0.644617 0.764398 -0.0128237
38.5022 35.6109 -21.304 0.655136 0.755464 -0.00840805
37.1613 36.7861 -20.4843 0.656595 0.754204 -0.0076424
35.8225 37.9644 -19.6597 0.658527 0.752519 -0.00752147
34.6883 38.9643 -18.9718 0.656965 0.753907 -0.0045276
33.3309 40.1533 -18.181 0.655227 0.755395 -0.00750453
31.9235 41.3778 -17.3879 0.652664 0.757599 -0.00856866
30.7349 42.396 -16.7274 0.645009 0.764114 -0.00969445
29.4604 43.4742 -16.0079 0.640269 0.768039 -0.0130953
28.0333 44.6664 -15.1978 0.631862 0.774998 -0.0113322
26.7692 45.6948 -14.5491 0.624836 0.780633 -0.01385
25.5049 46.7019 -13.942 0.610768 0.791613 -0.0176573
24.1719 47.7313 -13.3252 0.598805 0.80068 -0.0185451
22.8811 48.7133 -12.7249 0.592149 0.805526 -0.0220826
21.5476 49.6831 -12.1219 0.578746 0.815069 -0.0267412
19.9896 50.7711 -11.4535 0.556161 0.830711 -0.0245744
18.5535 51.7337 -10.9078 0.538728 0.841862 -0.0322678
16.983 52.7141 -10.2718 0.506172 0.861814 -0.0326711
15.5734 53.5578 -9.61496 0.492329 0.869704 -0.0350335
14.1768 54.3503 -9.0384 0.474671 0.879163 -0.0419454
12.7011 55.1427 -8.35805 0.448374 0.893407 -0.0280155
11.2221 55.8918 -7.80471 0.435674 0.899738 -0.0257074
9.77763 56.5937 -7.35373 0.428628 0.903185 -0.0231408
7.78651 57.5187 -6.98093 0.410119 0.911788 -0.0211023
6.25848 58.2003 -6.85935 0.402271 0.915313 -0.0195016
4.49953 58.945 -6.95019 0.38249 0.923788 -0.0177911
2.78696 59.6422 -7.10257 0.372631 0.927857 -0.0150852
1.13758 60.296 -7.26681 0.365364 0.930757 -0.0141642
-0.496173 60.8891 -7.43307 0.336267 0.941679 -0.0128283
-2.13328 61.4555 -7.63127 0.325534 0.945528 -0.00201346
-3.97179 62.0438 -7.82938 0.292889 0.956086 -0.0107504
-5.67427 62.5307 -8.01175 0.243942 0.969538 -0.0220898
-7.57229 62.9837 -8.21348 0.226735 0.973922 -0.00821709
-9.29147 63.3391 -8.37644 0.18705 0.982291 -0.0108237
-11.1469 63.6368 -8.54846 0.139898 0.990156 -0.00450317
-12.9143 63.8254 -8.71733 0.0832304 0.996529 -0.0017138
-14.589 63.9451 -8.89116 0.0600453 0.998194 -0.00198151
-16.2969 64.0034 -9.09081 0.0126392 0.999861 0.0108919
-18.018 63.9975 -9.26879 -0.015877 0.999787 0.0131566
-19.6933 63.8967 -9.42634 -0.0924606 0.995668 0.00979144
-21.4882 63.7254 -9.62863 -0.114417 0.993336 0.0139029
-23.1283 63.5289 -9.8103 -0.132892 0.990868 0.022805
-24.9386 63.267 -9.99991 -0.153992 0.987565 0.0316453
-26.9704 62.9064 -10.2053 -0.193411 0.980023 0.0463313
-28.599 62.5845 -10.3793 -0.200861 0.978155 0.0535546
-30.318 62.2221 -10.5369 -0.22189 0.973058 0.0626292
-30.5868 62.1616 -10.5641 -0.223138 0.97251 0.0665807
-29.9845 62.237 -9.58608 -0.221896 0.973057 0.0626263
-28.0236 62.6521 -9.3982 -0.205011 0.977389 0.0517899
-26.3574 62.9758 -9.21588 -0.187843 0.98137 0.0403506
-24.5899 63.2887 -9.03064 -0.167534 0.985193 0.0364345
-22.8989 63.5359 -8.85962 -0.135279 0.990336 0.030557
-21.0748 63.7557 -8.65238 -0.108697 0.993955 0.015442
-19.1718 63.923 -8.43472 -0.0808043 0.99638 0.0264109
-17.1086 63.9874 -8.22773 -0.00807013 0.999529 0.0296048
-14.7613 63.9408 -7.95705 0.0385413 0.999154 0.0143393
-12.9004 63.8378 -7.75514 0.0808493 0.996588 -0.0166194
-11.2066 63.6559 -7.58737 0.139008 0.990192 -0.0140391
-9.48977 63.3835 -7.43312 0.172614 0.984989 -0.00101085
-7.70674 63.0225 -7.26627 0.216799 0.976182 -0.00818207
-6.06244 62.6341 -7.09459 0.236739 0.971565 -0.00412256
-4.31953 62.159 -6.90001 0.282506 0.95925 -0.00542169
-2.46712 61.5716 -6.71467 0.312438 0.949869 -0.0114871
-0.821493 61.0175 -6.52482 0.331269 0.943457 -0.0122258
0.737313 60.4587 -6.34964 0.348431 0.937237 -0.0134904
2.58455 59.7386 -6.15957 0.37228 0.927995 -0.0152629
4.15887 59.1041 -6.01415 0.382677 0.923716 -0.0174968
5.73956 58.4439 -5.85303 0.394161 0.918858 -0.0183462
7.34885 57.7437 -5.85882 0.406024 0.91361 -0.0214923
9.01027 56.9906 -6.04946 0.415937 0.908952 -0.0283374
10.6741 56.1976 -6.45896 0.429082 0.902716 -0.0315191
12.1171 55.4831 -7.00017 0.438672 0.898165 -0.0294465
13.6465 54.6857 -7.65259 0.457652 0.888493 -0.033675
15.1283 53.8601 -8.38929 0.487437 0.872155 -0.0418385
16.7489 52.8995 -9.09969 0.508985 0.86005 -0.0353345
18.17 52.0236 -9.74292 0.532527 0.845707 -0.0345749
19.63 51.0567 -10.2978 0.543496 0.838928 -0.0284747
21.1739 49.9815 -10.9454 0.571906 0.819873 -0.0270457
22.6221 48.9354 -11.5938 0.589014 0.807791 -0.0231468
23.9213 47.9485 -12.1944 0.603437 0.797069 -0.0233408
25.2424 46.929 -12.8034 0.610131 0.792103 -0.0176866
26.5201 45.9143 -13.3836 0.623901 0.781393 -0.0131448
28.0331 44.6797 -14.1455 0.630244 0.776338 -0.00962248
29.247 43.6723 -14.8162 0.640502 0.767906 -0.00887295
30.4166 42.6759 -15.4992 0.645335 0.763877 -0.00587111
31.7212 41.5626 -16.237 0.648559 0.76114 -0.00615087
33.1905 40.2872 -17.0784 0.655815 0.754869 -0.00893779
34.7711 38.898 -17.9943 0.657652 0.753294 -0.00646426
35.9808 37.8338 -18.7276 0.658759 0.75234 -0.00455194
37.2574 36.7118 -19.5105 0.656725 0.754101 -0.00666478
38.8259 35.3392 -20.4612 0.652109 0.758085 -0.00779696
40.1065 34.2438 -21.1846 0.645223 0.763954 -0.00783731
41.3775 33.1837 -21.8287 0.632616 0.774411 -0.00921626
42.829 32.0148 -22.5206 0.621098 0.783659 -0.0108016
44.4616 30.7985 -23.2451 0.578084 0.815848 -0.0145439
45.8443 29.8293 -23.8266 0.563848 0.825878 -0.00103739
47.3354 28.8943 -24.4085 0.512348 0.858676 0.0132648
49.1498 27.8929 -25.0798 0.459342 0.887925 0.0243677
50.5791 27.2199 -25.5966 0.40323 0.914694 0.0272014
52.2082 26.5699 -26.2156 0.348222 0.936997 0.0279087
53.9549 25.968 -26.9098 0.305415 0.952157 0.0109028
55.7948 25.4751 -27.6904 0.229069 0.972973 0.0291564
57.6194 25.1335 -28.4766 0.181768 0.982833 0.0316038
59.1819 24.9279 -29.0971 0.105954 0.993952 0.028852
59.7547 24.8842 -29.3076 0.0887912 0.995439 0.0349013
54.0626 25.9124 -25.9152 0.303032 0.952112 0.0406846
53.1055 26.2105 -25.5185 0.334563 0.941819 0.032306
51.7727 26.6959 -25.0118 0.350992 0.93585 0.0314621
50.6684 27.1582 -24.6091 0.41027 0.91144 0.0309004
49.8387 27.5201 -24.3165 0.423261 0.905517 0.029807
49.055 27.9222 -24.0345 0.468829 0.882935 0.0249948
47.8884 28.5597 -23.6065 0.506601 0.861807 0.0253777
47.1416 28.994 -23.3259 0.533461 0.845752 0.0110952
46.3968 29.477 -23.0319 0.547428 0.836761 0.0123907
45.667 29.9506 -22.7439 0.564168 0.825631 0.00691195
44.9297 30.4716 -22.4321 0.578027 0.816008 0.00403764
43.8746 31.2244 -21.9803 0.582528 0.812802 -0.00391807
42.9708 31.9121 -21.5704 0.612798 0.790214 -0.00630604
41.907 32.7574 -21.0698 0.627237 0.778805 -0.00598813
40.9852 33.5178 -20.6121 0.634101 0.773205 -0.00835885
40.3332 34.0616 -20.2795 0.64506 0.764094 -0.00753855
39.6558 34.6385 -19.9042 0.648483 0.761182 -0.00840803
38.7766 35.3927 -19.3981 0.652108 0.758086 -0.00780064
38.0068 36.0644 -18.9349 0.655051 0.755562 -0.00584899
37.3579 36.6317 -18.5419 0.656491 0.754317 -0.00506119
36.5475 37.3418 -18.049 0.658759 0.75234 -0.00455194
35.7483 38.0446 -17.5692 0.658977 0.752149 -0.00459146
34.8937 38.7976 -17.052 0.659672 0.751535 -0.00528393
34.2506 39.3641 -16.6755 0.659399 0.75177 -0.00595922
33.4745 40.0466 -16.2195 0.657256 0.753643 -0.0060522
32.5602 40.8461 -15.683 0.653423 0.756976 -0.00508053
31.4354 41.814 -15.0319 0.649122 0.760672 -0.00438689
30.4774 42.6354 -14.4803 0.6476 0.761934 -0.00838363
29.8017 43.2131 -14.0884 0.644096 0.7649 -0.00829521
29.0866 43.8193 -13.6718 0.642353 0.766334 -0.0106965
28.0773 44.6553 -13.1164 0.634771 0.772599 -0.0125432
27.2699 45.3228 -12.7019 0.63206 0.774828 -0.0118956
26.406 46.0281 -12.3092 0.625986 0.779758 -0.0109497
25.2822 46.9176 -11.8073 0.612353 0.790448 -0.014665
24.2562 47.7196 -11.3384 0.604358 0.796426 -0.0213954
23.262 48.4785 -10.878 0.597966 0.801187 -0.0231457
22.5181 49.0396 -10.533 0.580795 0.813691 -0.0241709
21.4573 49.8135 -10.0451 0.57676 0.816496 -0.0261215
20.6246 50.4102 -9.67398 0.566914 0.823205 -0.0307058
19.6613 51.0758 -9.26545 0.558839 0.828683 -0.0313699
18.8006 51.6533 -8.92762 0.540564 0.840138 -0.0442672
18.0293 52.1605 -8.63773 0.520142 0.853168 -0.0394653
17.1887 52.6783 -8.25497 0.510618 0.858758 -0.0424705
16.4155 53.1528 -7.90295 0.502457 0.863692 -0.0396691
15.312 53.8043 -7.35808 0.485493 0.873372 -0.0389555
14.2714 54.3905 -6.82391 0.463923 0.885207 -0.0344082
13.5282 54.7944 -6.47228 0.456325 0.888989 -0.0382823
12.5692 55.2963 -6.02805 0.443653 0.895366 -0.0386208
11.6214 55.7752 -5.65252 0.434211 0.900168 -0.0340233
10.8029 56.1757 -5.33391 0.429251 0.902639 -0.0314195
9.70504 56.7023 -5.07423 0.423576 0.905324 -0.0311783
8.88003 57.0842 -4.86275 0.41172 0.910837 -0.0293691
7.99847 57.4821 -4.7884 0.406615 0.913272 -0.0244566
7.01949 57.9148 -4.77513 0.399863 0.916242 -0.0246942
5.96618 58.3673 -4.83023 0.393808 0.919016 -0.0180209
4.7289 58.8867 -4.96266 0.382283 0.923899 -0.0164516
3.78735 59.272 -5.06633 0.374052 0.927308 -0.0135774
2.85792 59.6444 -5.15956 0.367982 0.929732 -0.013688
1.95204 60.0016 -5.28008 0.368239 0.929637 -0.0132211
0.915167 60.4026 -5.4061 0.347913 0.937463 -0.0109025
0.0535225 60.7225 -5.49274 0.348821 0.937156 -0.00793454
-0.83401 61.0337 -5.57516 0.325992 0.945295 -0.012097
-1.77296 61.3566 -5.67021 0.322826 0.946364 -0.0133755
-3.13692 61.8028 -5.83326 0.301072 0.95353 -0.0116588
-4.02952 62.0766 -5.91653 0.29433 0.955692 -0.00467353
-5.39778 62.4677 -6.07227 0.27459 0.961541 -0.00629772
-6.54776 62.7618 -6.18919 0.241892 0.970223 -0.0124751
-7.6402 63.0133 -6.30027 0.225128 0.974264 -0.011299
-8.53226 63.2007 -6.38413 0.196572 0.980489 -0.000969019
-9.5695 63.3978 -6.4771 0.186028 0.982545 -5.00095e-05
-10.6594 63.57 -6.58503 0.15454 0.987986 0.00112563
-11.6463 63.7093 -6.66847 0.123811 0.99228 0.00709357
-12.5432 63.806 -6.7566 0.0858757 0.996271 0.00832741
-13.5816 63.8872 -6.86359 0.0598482 0.998207 -0.000775459
-14.5528 63.9414 -6.9752 0.0466265 0.998905 -0.00389076
-15.6539 63.9687 -7.10524 0.0162709 0.999862 0.00329849
-16.9845 63.9707 -7.25884 -0.00961671 0.999939 0.00539038
-17.993 63.9591 -7.37439 -0.0291558 0.99952 0.0104497
-19.0444 63.9037 -7.48557 -0.066276 0.997127 0.0366862
-19.9609 63.8392 -7.589 -0.0778108 0.996757 0.0204993
-20.935 63.7557 -7.6968 -0.087274 0.996017 0.0182784
-21.852 63.6479 -7.81004 -0.128178 0.991308 0.0296349
-22.9456 63.5014 -7.93047 -0.136435 0.990204 0.029706
-23.948 63.3606 -8.03574 -0.159369 0.986713 0.0316041
-24.9813 63.1886 -8.14794 -0.167992 0.985073 0.0375538
-25.8987 63.0244 -8.24819 -0.189053 0.981192 0.039007
-27.0275 62.8051 -8.37383 -0.202693 0.97783 0.0525806
-27.9942 62.6097 -8.48188 -0.20904 0.976441 0.0535255
-29.0681 62.3806 -8.58066 -0.219668 0.973828 0.058344
-30.0213 62.168 -8.68212 -0.223074 0.972581 0.0657613
-30.2761 62.1108 -8.70916 -0.228505 0.971464 0.0635914
-30.2737 62.054 -7.80747 -0.230419 0.971265 0.059589
-28.8271 62.3795 -7.65613 -0.219669 0.973828 0.0583491
-27.675 62.6271 -7.53691 -0.211791 0.975902 0.0525339
-26.7424 62.8181 -7.43357 -0.203629 0.977936 0.0466569
-25.7955 63.0037 -7.32754 -0.190886 0.980592 0.044742
-24.8831 63.1722 -7.22399 -0.186647 0.981244 0.0481973
-23.588 63.3867 -7.08513 -0.150744 0.988013 0.0332526
-22.5785 63.5237 -6.96364 -0.137372 0.990056 0.0303108
-21.1443 63.6959 -6.79715 -0.111234 0.992969 0.040502
-20.2505 63.7952 -6.68879 -0.111178 0.993646 0.0175022
-19.2204 63.8725 -6.5748 -0.0695566 0.997498 0.0126728
-18.1335 63.937 -6.44022 -0.0462956 0.998789 0.0166421
-17.0368 63.9642 -6.31187 -0.00840319 0.999958 0.00376773
-15.9276 63.9747 -6.18046 0.00379871 0.999991 -0.0021075
-14.346 63.9311 -5.9969 0.0465682 0.998909 0.00354669
-13.057 63.8427 -5.84944 0.0859782 0.996263 0.00822266
-11.9729 63.747 -5.73848 0.0899027 0.995904 0.00963651
-10.9334 63.612 -5.65124 0.149692 0.988731 0.00202678
-9.66878 63.4138 -5.52304 0.155342 0.98786 0.00125626
-8.66622 63.2293 -5.43413 0.188785 0.981998 -0.00633168
-7.72145 63.0418 -5.34729 0.207054 0.97831 -0.00622753
-6.70069 62.8101 -5.25023 0.233575 0.972318 -0.00640358
-5.48053 62.4963 -5.1254 0.255551 0.966792 -0.00274566
-4.37117 62.1823 -5.00908 0.276825 0.96089 -0.0076527
-3.32564 61.8701 -4.9121 0.290349 0.956864 -0.0104501
-2.40404 61.5759 -4.80967 0.313331 0.949577 -0.0112563
-1.46046 61.2602 -4.71164 0.325412 0.945509 -0.0108908
-0.506278 60.9332 -4.628 0.32568 0.945394 -0.0127754
0.779803 60.4667 -4.45601 0.344991 0.938558 -0.00951933
1.63718 60.138 -4.41781 0.360413 0.932738 -0.0100741
2.56755 59.7727 -4.2761 0.367724 0.929827 -0.0141549
3.4592 59.4188 -4.15352 0.374282 0.927189 -0.0152536
4.32859 59.0689 -4.04863 0.382504 0.923797 -0.0170077
5.25476 58.6876 -3.92941 0.381696 0.924101 -0.0185885
6.13092 58.3196 -3.79156 0.391893 0.919768 -0.0211475
6.99268 57.9516 -3.72676 0.395596 0.918149 -0.0224924
8.14385 57.4463 -3.75248 0.405975 0.913511 -0.0261171
9.0726 57.0315 -3.79515 0.407889 0.912646 -0.0265359
10.0804 56.5604 -4.048 0.419928 0.907156 -0.0269846
11.1621 56.0413 -4.33604 0.427279 0.90362 -0.0300497
12.0644 55.6014 -4.632 0.434464 0.899991 -0.0354599
12.9261 55.1625 -5.02657 0.448939 0.89281 -0.0366545
13.9522 54.6131 -5.52325 0.460583 0.886888 -0.0359523
14.7093 54.2008 -5.88551 0.468666 0.882549 -0.0382076
15.4837 53.7627 -6.31504 0.478305 0.876996 -0.0458404
16.4551 53.1856 -6.83021 0.504282 0.862229 -0.047546
17.2682 52.6862 -7.22094 0.508459 0.859519 -0.0519295
18.2816 52.0507 -7.66645 0.526272 0.849075 -0.0459224
19.1401 51.4904 -7.97953 0.549111 0.834329 -0.0486992
19.9041 50.9583 -8.29995 0.555644 0.830309 -0.0429651
21.1322 50.0894 -8.86445 0.573571 0.818043 -0.0426889
21.9367 49.5043 -9.23649 0.58 0.813758 -0.0373735
23.1683 48.5843 -9.81542 0.598562 0.800457 -0.0314847
23.8617 48.0558 -10.1394 0.606478 0.794663 -0.0263614
24.829 47.3027 -10.5885 0.605961 0.795155 -0.023236
25.5309 46.7472 -10.9044 0.619934 0.784508 -0.0151653
26.2079 46.2054 -11.2046 0.624443 0.780842 -0.0189039
26.8992 45.6425 -11.5129 0.630692 0.775849 -0.0169175
28.0741 44.6765 -12.0694 0.63098 0.775682 -0.0134909
28.8058 44.0673 -12.4647 0.634768 0.772601 -0.0125448
29.5642 43.4297 -12.8981 0.642356 0.766331 -0.0107001
30.6009 42.5412 -13.5052 0.648262 0.761348 -0.0102978
31.4304 41.8291 -13.9857 0.649585 0.760234 -0.00915047
32.0702 41.276 -14.3552 0.653828 0.756623 -0.00546769
32.707 40.7246 -14.7314 0.652941 0.757399 -0.00392441
33.4519 40.0737 -15.175 0.658395 0.752662 -0.00401042
34.1093 39.4956 -15.5684 0.660246 0.751038 -0.00416364
34.7354 38.9435 -15.9399 0.660681 0.750657 -0.00385884
35.4591 38.3049 -16.3745 0.660368 0.750939 -0.0021454
36.2973 37.5665 -16.8776 0.660211 0.751077 -0.00193885
37.1658 36.8037 -17.3982 0.65786 0.753139 -0.0015028
38.1562 35.9394 -17.9943 0.656107 0.754665 -0.0019654
39.178 35.0542 -18.5967 0.650449 0.759546 -0.0025698
39.829 34.4959 -18.9713 0.648756 0.760992 -0.00256095
40.6049 33.836 -19.3994 0.646748 0.7627 -0.00218355
41.6305 32.9921 -19.914 0.634584 0.772846 -0.00343285
42.38 32.3829 -20.2774 0.621365 0.783503 0.00533361
43.3967 31.5923 -20.7489 0.609423 0.792806 0.00785722
44.3725 30.8632 -21.1843 0.591637 0.806132 0.0108234
45.2571 30.2337 -21.5625 0.576407 0.817106 0.00965533
46.3777 29.4763 -22.0174 0.549215 0.835639 0.00834473
47.3991 28.8271 -22.4162 0.519346 0.854508 0.00979748
48.1242 28.3942 -22.692 0.491405 0.870687 0.0206288
20.5056 50.5984 -7.47561 0.559268 0.827576 -0.0483439
19.2335 51.4867 -6.95244 0.546058 0.836331 -0.0486849
17.6784 52.4984 -6.29132 0.52551 0.848989 -0.0552923
16.5291 53.2124 -5.70058 0.496095 0.866903 -0.0486701
15.1759 53.9967 -4.93378 0.467437 0.882928 -0.0440604
13.821 54.7367 -4.25711 0.456238 0.888695 -0.0454666
12.6284 55.3626 -3.71089 0.443596 0.895518 -0.0356527
11.1867 56.0668 -3.21956 0.427128 0.903611 -0.0323888
9.93219 56.6644 -2.85478 0.417537 0.908305 -0.0253924
8.65096 57.2495 -2.699 0.407314 0.912957 -0.0245791
7.28644 57.8495 -2.73551 0.397936 0.917198 -0.0198554
5.97792 58.4067 -2.82687 0.391507 0.919933 -0.0211226
4.35788 59.075 -3.092 0.377716 0.925743 -0.0181698
2.59256 59.7799 -3.33824 0.368195 0.929572 -0.0181122
0.96643 60.405 -3.52063 0.354249 0.93509 -0.0106857
-0.617993 60.9819 -3.72233 0.335218 0.942113 -0.00718562
-2.17251 61.5102 -3.86042 0.310009 0.950645 -0.0129682
-3.5318 61.9396 -4.01071 0.288605 0.957437 -0.00467315
-5.05336 62.3895 -4.1383 0.271822 0.962183 -0.017822
-6.63481 62.7988 -4.28712 0.228276 0.973596 0.000817379
-8.19933 63.141 -4.43416 0.200437 0.979706 0.00125144
-9.80946 63.4366 -4.57413 0.154893 0.987922 -0.0042607
-11.5532 63.6983 -4.73778 0.143763 0.989594 0.00605169
-13.1074 63.8395 -4.90075 0.0863027 0.996245 0.00689695
-14.6362 63.9358 -5.08264 0.0378175 0.999265 -0.00622181
-16.3706 63.9709 -5.27139 -0.00786149 0.999964 -0.00307648
-17.9227 63.9281 -5.46498 -0.0470853 0.998692 0.01995
-19.8531 63.8176 -5.72968 -0.0666947 0.997591 0.0190642
-21.4614 63.6406 -5.90859 -0.122978 0.992046 0.0268611
-23.1768 63.4152 -6.12641 -0.141074 0.989595 0.0282725
-24.7212 63.1592 -6.29462 -0.186989 0.981427 0.0428551
-26.2998 62.8631 -6.47773 -0.202423 0.977899 0.0523349
-28.1449 62.4753 -6.68153 -0.216962 0.974643 0.0547532
-29.9311 62.0774 -6.87562 -0.225467 0.972725 0.0544989
-30.1665 62.0229 -6.89925 -0.237345 0.969308 0.064097
-30.3517 61.9225 -6.02121 -0.240106 0.968922 0.0594888
-28.4543 62.3607 -5.81348 -0.220006 0.974384 0.0466178
-26.662 62.7414 -5.61093 -0.207464 0.976923 0.0508002
-24.8446 63.0963 -5.38512 -0.191043 0.980461 0.046881
-23.4407 63.3456 -5.23135 -0.169262 0.984723 0.0408787
-21.4644 63.6146 -4.98264 -0.124187 0.991794 0.0303545
-19.9885 63.7756 -4.80711 -0.0991605 0.994675 0.0280816
-18.2037 63.8982 -4.54705 -0.0561064 0.998293 0.0161918
-16.7499 63.9609 -4.33592 -0.0303117 0.999379 0.0179626
-15.0209 63.9544 -4.19775 0.0197607 0.999686 0.0154397
-13.4744 63.8639 -3.99578 0.0545651 0.99837 0.016722
-11.8719 63.7249 -3.79425 0.0936637 0.995533 0.0119
-10.3777 63.5244 -3.67213 0.147777 0.989018 0.00209118
-8.64073 63.2322 -3.51451 0.176721 0.984252 0.00426193
-6.70722 62.8142 -3.33626 0.234206 0.97213 -0.0105545
-5.22294 62.4475 -3.21424 0.258708 0.965882 -0.0118948
-3.82215 62.0366 -3.12479 0.292064 0.956314 -0.0127118
-2.36963 61.5879 -2.97157 0.30566 0.952085 -0.0102968
-0.546027 60.9633 -2.81205 0.335221 0.942112 -0.0071802
1.1592 60.344 -2.57352 0.352432 0.935778 -0.0105536
2.84396 59.6982 -2.40324 0.367041 0.930016 -0.0187355
4.47509 59.0463 -2.12159 0.379495 0.92498 -0.0198867
5.87966 58.4693 -1.922 0.388143 0.921423 -0.0180247
7.29754 57.8659 -1.75971 0.395416 0.918255 -0.0213023
8.75163 57.2341 -1.61117 0.403932 0.914389 -0.0270447
10.2744 56.537 -1.87543 0.417207 0.908339 -0.0293036
11.6527 55.8857 -2.17737 0.425642 0.904094 -0.037998
13.5351 54.9481 -2.74943 0.447165 0.893642 -0.0380414
14.854 54.2555 -3.26306 0.456678 0.888342 -0.0478862
15.9908 53.6198 -3.94226 0.472471 0.879615 -0.0552195
17.0871 52.949 -4.737 0.494211 0.867895 -0.050137
17.7946 52.5075 -5.15859 0.515937 0.854218 -0.0641965
16.5835 53.3856 -2.60687 0.470505 0.879425 -0.0723639
15.1224 54.2149 -1.67758 0.450241 0.891286 -0.0537818
13.5274 55.0241 -1.31671 0.438778 0.897469 -0.0449887
12.0388 55.7498 -1.00746 0.422308 0.905816 -0.0339672
10.3809 56.5256 -0.704714 0.413877 0.909954 -0.0262736
8.90012 57.1944 -0.574002 0.405336 0.913953 -0.0198157
7.4254 57.8334 -0.77633 0.396027 0.918007 -0.0206415
5.8817 58.4828 -1.02518 0.387947 0.921483 -0.019154
4.22384 59.1669 -1.30874 0.379495 0.92498 -0.0198865
2.80169 59.7343 -1.50775 0.36123 0.932307 -0.0178148
1.1426 60.3593 -1.69577 0.350228 0.936478 -0.0187151
-0.291165 60.8796 -1.88981 0.332365 0.94313 -0.0062051
-2.09971 61.5099 -2.05217 0.327307 0.944897 -0.00632082
-3.67735 62.0048 -2.19062 0.295529 0.955286 -0.00952388
-5.15359 62.4403 -2.28833 0.258573 0.96592 -0.0117577
-6.7532 62.8354 -2.40333 0.234308 0.972106 -0.0104358
-8.24088 63.1541 -2.51763 0.201391 0.979511 -0.000461404
-9.67277 63.4179 -2.6571 0.164806 0.986326 0.000742453
-11.0933 63.6312 -2.79509 0.136527 0.990636 0.000739819
-12.5844 63.7753 -2.90416 0.0769273 0.996967 0.0117751
-14.26 63.8935 -3.14157 0.0523845 0.998534 0.0136413
-15.8598 63.9534 -3.32053 0.0016771 0.999658 0.0261149
-17.3728 63.9171 -3.47075 -0.0448352 0.998925 0.0117499
-18.9392 63.8342 -3.72003 -0.0735728 0.996968 0.0253417
-20.5371 63.6962 -3.94797 -0.111154 0.993302 0.0315435
-22.2659 63.4897 -4.18318 -0.123653 0.991798 0.0323511
-23.867 63.2292 -4.35818 -0.171914 0.984097 0.0447056
-25.2553 62.9786 -4.53452 -0.192696 0.980522 0.0380137
-26.7041 62.6924 -4.71915 -0.202976 0.978195 0.0439913
-28.3961 62.3259 -4.91035 -0.223264 0.973312 0.0530845
-29.8751 61.9787 -5.06947 -0.240148 0.968933 0.0591365
-30.4417 61.8441 -5.13086 -0.242981 0.968019 0.0624415
-30.1811 61.851 -4.20449 -0.247465 0.96697 0.0610698
-28.6982 62.2119 -4.05264 -0.23089 0.971471 0.0541719
-27.0777 62.5751 -3.86932 -0.216672 0.975143 0.0463628
-25.5158 62.8895 -3.67747 -0.200478 0.978645 0.0454125
-24.122 63.1497 -3.49585 -0.176724 0.983881 0.0273136
-22.643 63.3999 -3.31454 -0.152627 0.987624 0.0361181
-21.2054 63.5884 -3.12899 -0.122924 0.992146 0.0231579
-19.5468 63.7687 -2.90525 -0.087956 0.995786 0.0259527
-17.8733 63.8789 -2.61201 -0.0543474 0.998261 0.0228515
-16.2016 63.9266 -2.40234 -0.0242743 0.999536 0.0184039
-14.7155 63.9118 -2.23005 0.0341095 0.99936 0.0107833
-13.0109 63.8026 -2.00933 0.0767605 0.997045 0.00285434
-11.4945 63.6713 -1.84546 0.115859 0.993246 0.00621417
-9.92182 63.4632 -1.72552 0.149749 0.988589 -0.016338
-8.4924 63.204 -1.59361 0.197758 0.98025 0.000915493
-6.77583 62.8502 -1.46471 0.217509 0.976041 -0.00583028
-5.27489 62.472 -1.36882 0.265442 0.96407 0.0104906
-3.76676 62.0308 -1.27043 0.292734 0.956188 0.00349805
-1.97864 61.4719 -1.13587 0.307608 0.951452 -0.0107968
-0.437029 60.9446 -1.01442 0.33201 0.943114 -0.0174834
1.0713 60.403 -0.848014 0.348479 0.93716 -0.0171474
2.58458 59.8328 -0.64904 0.359188 0.933132 -0.0157752
4.04971 59.2549 -0.456893 0.382043 0.924003 -0.0161854
5.49931 58.6608 -0.203367 0.385209 0.92264 -0.0186796
7.09802 57.99 0.0748822 0.391908 0.919818 -0.0185058
8.71524 57.2971 0.369812 0.401136 0.91578 -0.0209066
10.1481 56.6646 0.427686 0.41014 0.911658 -0.0257706
11.5093 56.04 0.193196 0.418009 0.907835 -0.0332253
12.8248 55.421 0.00181629 0.421837 0.905883 -0.0377989
14.1383 54.7847 -0.0852153 0.434017 0.899973 -0.0409577
15.3908 54.1564 -0.39431 0.446051 0.893425 -0.0532086
16.2346 53.705 -0.763433 0.448542 0.89153 -0.0631153
16.3883 53.7308 0.778938 0.4459 0.892979 -0.0613322
14.9676 54.4381 1.00548 0.435536 0.898998 -0.0459428
13.6531 55.0699 1.05552 0.431885 0.900987 -0.0412071
12.3515 55.6885 1.1772 0.419796 0.906907 -0.0359448
11.0102 56.3042 1.33037 0.409673 0.911815 -0.0275958
9.47633 56.9878 1.38775 0.402924 0.914848 -0.0265562
7.76107 57.7303 1.1132 0.39549 0.918255 -0.0199021
6.37098 58.3148 0.821247 0.390281 0.920498 -0.0190797
4.84846 58.9439 0.560174 0.380813 0.924471 -0.0183107
3.07321 59.6579 0.318994 0.37228 0.928068 -0.009838
1.69687 60.1812 0.117755 0.352955 0.935547 -0.0132472
0.156096 60.7522 -0.0577082 0.337442 0.941266 -0.0122806
-1.23669 61.2391 -0.190696 0.319619 0.947498 -0.00952225
-2.88376 61.766 -0.293183 0.29272 0.956185 -0.00496995
-4.65022 62.2982 -0.433239 0.282082 0.959388 0.00212027
-6.28446 62.7333 -0.511736 0.250352 0.968146 0.00404399
-7.71168 63.0575 -0.557413 0.198689 0.98004 -0.00667403
-9.34114 63.37 -0.72905 0.171856 0.985122 0.000244191
-10.7897 63.5876 -0.82751 0.130082 0.991488 0.00554632
-12.5829 63.7699 -0.981777 0.0738677 0.997255 -0.00502485
-14.2525 63.8841 -1.20061 0.0550337 0.998484 0.00106
-15.9184 63.9171 -1.43539 -0.00489531 0.999861 0.0159485
-17.6572 63.8636 -1.65349 -0.0394434 0.999142 0.0126013
-19.124 63.7678 -1.8962 -0.0825205 0.995791 0.0398788
-20.7345 63.6288 -2.15262 -0.11958 0.992413 0.0285927
-22.1886 63.4305 -2.34045 -0.141955 0.989318 0.0331352
-23.671 63.2043 -2.54206 -0.170588 0.984913 0.0290793
-25.0719 62.9476 -2.72971 -0.194929 0.980236 0.0337557
-26.767 62.5969 -2.94164 -0.211134 0.976787 0.0361843
-28.1609 62.2881 -3.10324 -0.235467 0.970632 0.0492927
-29.5443 61.954 -3.24527 -0.246492 0.967595 0.0547808
-29.7116 61.911 -3.26287 -0.252608 0.965765 0.0590485
-30.1808 61.7398 -2.43946 -0.254124 0.965553 0.0559296
-28.7308 62.1027 -2.28685 -0.243681 0.968578 0.0497672
-27.2149 62.4589 -2.09758 -0.227595 0.972548 0.0484742
-25.3309 62.8662 -1.87236 -0.202097 0.97872 0.0355545
-23.6974 63.1676 -1.65053 -0.172105 0.984412 0.0362444
-21.9153 63.4491 -1.4006 -0.1461 0.989168 0.0141818
-20.4237 63.6305 -1.20365 -0.107224 0.994008 0.0212278
-18.6905 63.7878 -0.909521 -0.0729548 0.997076 0.0227409
-17.0686 63.8737 -0.648487 -0.0316013 0.999478 0.00666594
-15.3708 63.9001 -0.406457 0.000603018 0.999866 0.0163774
-13.6806 63.8515 -0.176345 0.0550323 0.998484 0.00106507
-12.1239 63.736 0.0455093 0.0947429 0.995462 0.00885154
-10.498 63.542 0.157795 0.135462 0.990731 0.010074
-9.00407 63.3016 0.284748 0.177233 0.983968 0.0198634
-7.44671 63.0059 0.378525 0.199985 0.979758 0.00898289
-5.66188 62.5806 0.456515 0.253352 0.967321 -0.0101389
-4.17352 62.1599 0.517239 0.281811 0.959437 -0.00800973
-2.54463 61.6679 0.634429 0.306568 0.951845 -0.00259609
-1.15567 61.2209 0.731382 0.306371 0.951868 -0.00921968
0.596325 60.6025 0.863331 0.342556 0.939418 -0.0122299
2.21197 60.0028 1.06495 0.355154 0.934626 -0.0184441
3.61031 59.4565 1.27058 0.371668 0.928271 -0.01328
5.23648 58.8018 1.51943 0.37802 0.925682 -0.014619
7.00125 58.0679 1.84898 0.390426 0.920456 -0.018142
8.29761 57.5258 2.1823 0.394294 0.918704 -0.0227165
9.9167 56.8221 2.37856 0.402413 0.915107 -0.0253713
11.2703 56.2163 2.30085 0.407447 0.912801 -0.0279648
12.9135 55.4682 2.22859 0.421413 0.906118 -0.0368893
14.7644 54.6079 2.40655 0.427151 0.903243 -0.0411703
16.1532 53.936 2.2773 0.429127 0.901981 -0.0477476
16.8022 53.6137 2.11798 0.436203 0.898241 -0.0537554
17.3384 53.4402 3.5632 0.430392 0.901558 -0.0442215
15.9149 54.116 3.56702 0.427929 0.902854 -0.0416211
14.3559 54.8466 3.48039 0.425525 0.904101 -0.0391272
12.9839 55.4802 3.32858 0.419222 0.907186 -0.0355806
11.5643 56.1161 3.2884 0.406701 0.913118 -0.0284418
10.0506 56.7877 3.29951 0.40359 0.914611 -0.0245247
8.70552 57.3734 3.17929 0.396707 0.917681 -0.0220174
7.36172 57.942 2.88201 0.387322 0.921697 -0.0213612
5.63425 58.6514 2.48284 0.379686 0.924953 -0.0173329
4.1768 59.2442 2.24839 0.373361 0.927564 -0.0150921
2.78397 59.7978 2.03943 0.366793 0.930247 -0.0101723
1.19094 60.398 1.81929 0.343332 0.939154 -0.0106512
-0.361872 60.957 1.68743 0.337349 0.941274 -0.0140777
-1.72432 61.4126 1.63193 0.308715 0.951101 -0.0101306
-3.08439 61.845 1.50544 0.296977 0.954881 -0.00244739
-4.79626 62.3412 1.42001 0.269157 0.963096 -6.17063e-05
-6.37737 62.7633 1.38451 0.223597 0.974504 0.0185934
-8.14339 63.1298 1.31504 0.189288 0.981862 0.0107966
-9.59134 63.3899 1.14877 0.164365 0.98616 0.0217453
-11.1936 63.6204 1.07104 0.115478 0.993244 0.0114285
-12.7677 63.7783 0.918077 0.0825628 0.996582 0.00292768
-14.329 63.8791 0.696711 0.0284177 0.999572 0.00697847
-15.7656 63.8898 0.46874 -0.000473127 0.999969 0.00786332
-17.6485 63.849 0.157025 -0.0486692 0.998814 0.00152311
-19.4489 63.7039 -0.140052 -0.0980546 0.995127 0.0104144
-21.143 63.5353 -0.395152 -0.107847 0.993932 0.0216226
-22.6206 63.3253 -0.594237 -0.164119 0.986274 0.018145
-24.3526 63.0189 -0.832649 -0.184523 0.981963 0.0412224
-26.1168 62.6612 -1.06088 -0.223693 0.973387 0.0497993
-28.1772 62.1893 -1.32727 -0.234268 0.970559 0.0559741
-29.6188 61.8314 -1.50994 -0.25789 0.964345 0.059419
-30.3602 61.6376 -1.59336 -0.258079 0.964186 0.0611545
-30.1093 61.6522 -0.698528 -0.258633 0.964544 0.0525764
-28.6599 62.0257 -0.494634 -0.2517 0.966632 0.0476485
-26.9546 62.4317 -0.285336 -0.234098 0.971547 0.0359682
-25.4173 62.7781 -0.0674605 -0.200539 0.979006 0.0364876
-23.5973 63.1367 0.150935 -0.181519 0.983073 0.0248687
-21.8934 63.4165 0.413014 -0.138934 0.989765 0.0326099
-20.4923 63.5868 0.607417 -0.10769 0.99402 0.0180624
-18.6486 63.7631 0.887845 -0.0802249 0.996667 0.0147655
-16.8956 63.859 1.18101 -0.0364026 0.999135 0.0201022
-14.847 63.8757 1.55014 0.00432197 0.999868 0.015689
-12.8875 63.7838 1.86924 0.0719337 0.997279 0.016105
-11.3634 63.6369 2.01006 0.117904 0.993024 0.00108115
-9.72425 63.4044 2.09845 0.159517 0.987195 0.000765339
-8.24409 63.139 2.23949 0.189284 0.981863 0.0108008
-6.82217 62.8403 2.32073 0.204044 0.978934 0.00739054
-5.30495 62.4762 2.34578 0.242699 0.970059 0.00914949
-3.80395 62.0615 2.40676 0.278862 0.960311 0.0062559
-2.20891 61.573 2.5052 0.303413 0.952773 -0.0127922
-0.559 61.0302 2.61614 0.326568 0.945174 -0.000389794
1.03341 60.4626 2.7234 0.345244 0.938498 -0.00533931
2.71291 59.8327 2.95821 0.362254 0.932033 -0.00924167
4.11963 59.2822 3.15799 0.371535 0.928264 -0.0169945
5.53883 58.713 3.4423 0.378329 0.925477 -0.0189631
6.9947 58.1147 3.75883 0.383454 0.923392 -0.017618
8.35281 57.547 4.06978 0.394896 0.918514 -0.0197479
10.011 56.8318 4.28226 0.403525 0.914631 -0.0248546
11.4598 56.1924 4.32597 0.405337 0.913824 -0.0250495
12.8703 55.5637 4.33705 0.4085 0.912413 -0.0251049
14.2119 54.9544 4.47939 0.419542 0.907314 -0.0276745
15.8472 54.1991 4.73843 0.424274 0.904857 -0.0350067
17.2707 53.5342 4.9082 0.425136 0.904397 -0.0364088
17.97 53.2087 4.96634 0.424201 0.904831 -0.0365292
19.2511 52.6603 6.48837 0.433139 0.901068 -0.0216328
17.9756 53.2536 6.22721 0.424463 0.904986 -0.0288337
16.6709 53.8584 5.99697 0.424704 0.90488 -0.0286045
15.024 54.6177 5.70391 0.421182 0.906436 -0.0312873
13.3878 55.3621 5.44893 0.417442 0.908143 -0.0319027
11.5683 56.1735 5.3796 0.405118 0.913913 -0.0253408
10.2669 56.7448 5.30504 0.402344 0.915214 -0.0224253
8.78291 57.3835 5.07438 0.394584 0.91866 -0.0191847
7.42163 57.9556 4.83854 0.384625 0.922934 -0.0160051
5.72911 58.6524 4.50594 0.381838 0.924065 -0.0174212
4.43805 59.1737 4.21378 0.371048 0.928493 -0.0149309
2.59336 59.8906 3.87745 0.362411 0.931925 -0.0132351
1.01028 60.4799 3.65675 0.342881 0.939325 -0.0100794
-0.355684 60.9637 3.56133 0.329269 0.944228 -0.00394196
-2.09683 61.5487 3.45624 0.302061 0.953285 -0.0025986
-3.53475 61.9804 3.35786 0.283508 0.958904 -0.0112315
-4.94711 62.3775 3.3009 0.256812 0.96646 -0.00140221
-6.92811 62.8601 3.26302 0.219974 0.975447 0.0106832
-8.3528 63.158 3.18063 0.19043 0.981698 -0.00252378
-9.75288 63.4062 3.06142 0.174792 0.984596 -0.00430172
-11.4956 63.6412 2.93727 0.103887 0.994487 0.0142224
-13.0564 63.7805 2.78807 0.065814 0.997822 0.00437076
-14.6058 63.8594 2.51097 0.00850147 0.999782 0.019061
-16.4556 63.8483 2.16737 -0.0187644 0.999583 0.0219402
-18.2027 63.7842 1.84717 -0.0733209 0.997115 0.0196553
-20.0838 63.6124 1.59894 -0.117409 0.992763 0.025237
-21.7089 63.411 1.33926 -0.127137 0.991283 0.0345472
-23.4338 63.1375 1.06479 -0.1783 0.983364 0.0347153
-24.8357 62.8657 0.894915 -0.200575 0.979111 0.0333215
-26.4083 62.5271 0.679221 -0.229978 0.972559 0.0352079
-28.0543 62.1316 0.436389 -0.244056 0.968546 0.0485355
-29.4369 61.7807 0.249397 -0.259329 0.964656 0.0467585
-30.1435 61.5967 0.152984 -0.258629 0.964544 0.0525821
-29.9983 61.5892 1.05313 -0.261377 0.963969 0.0494539
-28.4376 61.9985 1.24247 -0.250241 0.967317 0.040966
-27.0223 62.3456 1.46344 -0.239205 0.970297 0.0361252
-25.2656 62.7415 1.72933 -0.211203 0.976661 0.039069
-23.7365 63.0492 1.94368 -0.179281 0.983005 0.0395031
-22.1706 63.3111 2.16738 -0.152494 0.987626 0.0366198
-20.3965 63.544 2.45896 -0.13014 0.991095 0.0281984
-18.7694 63.7214 2.68537 -0.103149 0.994215 0.0299516
-17.1355 63.8153 2.95669 -0.0384416 0.99879 0.0306569
-15.7165 63.8429 3.22962 -0.00990529 0.999813 0.016594
-14.1431 63.8228 3.5283 0.0215568 0.999501 0.0230968
-12.2801 63.7102 3.82659 0.0886709 0.995964 0.0139103
-10.7683 63.5479 3.9431 0.126611 0.991925 0.00739153
-9.2311 63.3179 4.0686 0.174672 0.984618 -0.00415847
-7.73454 63.0302 4.17092 0.203858 0.978978 -0.00661151
-6.34923 62.7154 4.21591 0.235031 0.971968 -0.0061641
-4.88852 62.3551 4.24417 0.245456 0.969377 0.00774515
-3.13003 61.8728 4.34143 0.276853 0.960826 -0.0128946
-1.67297 61.4123 4.4466 0.309786 0.950799 -0.00375502
-0.136828 60.8914 4.52962 0.332577 0.943073 -0.00230656
1.43358 60.3349 4.64976 0.336533 0.941599 -0.0117159
2.89616 59.7873 4.90304 0.362237 0.932003 -0.012476
4.3613 59.2182 5.20809 0.37124 0.928475 -0.0107431
5.69393 58.6838 5.50202 0.377693 0.9258 -0.0155408
7.21072 58.06 5.7687 0.38519 0.922637 -0.0192064
8.59644 57.483 6.00859 0.387106 0.921817 -0.0200509
10.0749 56.8512 6.29833 0.397621 0.917351 -0.0191086
11.5146 56.2228 6.37886 0.403258 0.914772 -0.023998
12.9582 55.5863 6.48081 0.407424 0.912844 -0.0268773
14.346 54.9643 6.70153 0.417128 0.908406 -0.028315
15.6487 54.3661 6.9434 0.422731 0.905876 -0.0262171
17.0712 53.7082 7.22808 0.423673 0.90556 -0.0215066
18.8478 52.8766 7.70368 0.431458 0.901979 -0.0166589
20.262 52.1981 8.21906 0.441533 0.89722 -0.00678703
21.4855 51.5967 8.79594 0.448066 0.893994 -0.00334937
22.7331 50.9707 9.43936 0.451371 0.892335 0.00123276
23.2319 50.718 9.67216 0.452066 0.891982 0.0021594
31.5886 41.7015 -13.0355 0.654683 0.755863 -0.00782295
32.3082 41.0769 -13.4543 0.653925 0.756539 -0.00550063
33.4534 40.0777 -14.14 0.658291 0.752755 -0.00373124
34.3057 39.3282 -14.6564 0.66053 0.75079 -0.00385539
35.1309 38.5989 -15.1537 0.66134 0.750077 -0.00384511
35.8746 37.9412 -15.5994 0.661107 0.750289 -0.00200392
36.8695 37.0652 -16.195 0.660438 0.75088 -0.00119819
37.7312 36.3107 -16.7133 0.658403 0.752665 0.000969816
38.6917 35.4749 -17.2857 0.655191 0.755461 0.00187283
39.7129 34.5975 -17.8738 0.651274 0.758837 0.00281538
40.7091 33.7486 -18.4288 0.644828 0.76432 0.00356602
41.6055 33.0072 -18.8827 0.634607 0.772801 0.00728751
42.5472 32.2439 -19.3431 0.627617 0.778522 0.000629082
43.0355 31.8634 -19.5701 0.612817 0.790217 0.0035932
37.9549 42.7605 17.3585 0.481699 0.876243 0.0128323
37.0637 43.2567 16.9332 0.481344 0.876434 0.0130492
36.2674 43.6994 16.5613 0.481102 0.876559 0.0136325
35.5798 44.0818 16.2366 0.480171 0.877068 0.0137198
34.7619 44.5344 15.8933 0.479722 0.8773 0.0145501
33.7103 45.1138 15.4524 0.477025 0.878805 0.0121801
32.9268 45.5436 15.1143 0.47631 0.879193 0.0122163
31.972 46.0665 14.712 0.47545 0.879657 0.0122814
31.1294 46.525 14.3443 0.472719 0.881131 0.0120598
30.2647 46.9932 13.9533 0.471963 0.881537 0.0119908
29.3161 47.5051 13.5269 0.469454 0.882899 0.0101051
28.437 47.978 13.11 0.468512 0.883394 0.0105534
27.7103 48.3657 12.7834 0.467305 0.884042 0.00976369
27.0197 48.7332 12.4715 0.466137 0.884659 0.00979315
26.0704 49.2387 12.0363 0.464804 0.885366 0.00919998
24.7917 49.9079 11.4578 0.459492 0.888144 0.00823167
24.0351 50.3006 11.1071 0.457226 0.889331 0.0059256
22.8529 50.9085 10.5827 0.45275 0.891617 0.00602477
21.6097 51.5364 10.0472 0.448728 0.893668 0.000445006
20.7625 51.9621 9.68865 0.445416 0.895324 -0.000121542
19.9253 52.3719 9.36423 0.439708 0.89814 -0.00116654
19.12 52.7665 9.04418 0.438042 0.898922 -0.00768091
18.2792 53.1695 8.69496 0.43344 0.900999 -0.0181942
17.4359 53.5642 8.46135 0.426502 0.904283 -0.0191992
16.3659 54.0643 8.23605 0.426841 0.904108 -0.0198937
15.4576 54.488 8.07312 0.42249 0.905992 -0.0260854
14.3705 54.9853 7.77917 0.417435 0.908514 -0.0187081
13.6016 55.3292 7.62646 0.411245 0.911196 -0.0244728
12.6432 55.7565 7.50966 0.408002 0.912671 -0.0237716
11.4761 56.2646 7.32401 0.4024 0.915137 -0.0244815
10.5371 56.6747 7.33064 0.398335 0.916997 -0.0211192
9.56236 57.0951 7.22483 0.397611 0.917278 -0.0225058
8.76759 57.4322 7.04454 0.39091 0.920225 -0.0194015
7.72723 57.866 6.83136 0.387313 0.921705 -0.0211936
6.67085 58.3039 6.65645 0.382994 0.923558 -0.0188834
5.55532 58.7598 6.48674 0.376045 0.926476 -0.0152578
4.78461 59.0661 6.33136 0.371909 0.928143 -0.0153224
3.7523 59.4712 6.0872 0.361982 0.932096 -0.0128606
2.721 59.8688 5.90575 0.358606 0.933424 -0.0109638
1.78943 60.2182 5.75474 0.352197 0.935885 -0.00871817
0.889991 60.5408 5.60626 0.332163 0.943156 -0.0112034
-0.228344 60.9306 5.51686 0.326097 0.945303 -0.007927
-1.092 61.2234 5.43679 0.323965 0.946058 -0.00461517
-1.90251 61.4887 5.40122 0.305619 0.952154 1.94625e-05
-2.84639 61.7916 5.35011 0.293516 0.955944 0.00436007
-3.93672 62.1086 5.24977 0.26254 0.964921 0.000139915
-4.79575 62.3328 5.19779 0.248747 0.968568 0.000658906
-5.73569 62.5669 5.18294 0.239991 0.970774 0.00162272
-6.76238 62.8208 5.16995 0.240553 0.970633 -0.00250618
-8.01914 63.0958 5.11282 0.207805 0.978162 -0.00404694
-8.97694 63.2851 5.04791 0.190755 0.981638 0.000200599
-9.90951 63.428 4.96846 0.140725 0.99004 0.00411857
-10.7965 63.5395 4.89254 0.117846 0.992955 0.012327
-12.0308 63.667 4.77092 0.0872297 0.995896 0.0241133
-12.9419 63.7493 4.66576 0.0813374 0.996516 0.0184232
-13.849 63.7938 4.51044 0.0262374 0.999505 0.0173566
-14.7237 63.8163 4.34625 0.0214604 0.999501 0.0231661
-15.5725 63.8271 4.18538 -0.0103563 0.999769 0.0188544
-16.4487 63.8189 4.01775 -0.038896 0.999146 0.0139427
-17.3652 63.7857 3.8399 -0.0381892 0.999183 0.0132603
-18.2281 63.7334 3.68508 -0.0766301 0.99682 0.0218589
-19.1375 63.6583 3.55142 -0.104415 0.994137 0.028083
-20.0538 63.5659 3.43241 -0.116963 0.992741 0.0280137
-21.1224 63.4277 3.24577 -0.137217 0.990244 0.0242587
-22.012 63.3037 3.09963 -0.14595 0.988934 0.0266107
-22.8935 63.1621 2.96452 -0.17172 0.984693 0.0298537
-23.7842 63.0099 2.84481 -0.183986 0.982359 0.0334567
-25.0665 62.7519 2.66422 -0.210493 0.977115 0.0306301
-26.0059 62.5486 2.51717 -0.221538 0.97466 0.0309735
-27.073 62.3002 2.34319 -0.239731 0.970141 0.0368253
-28.2997 61.995 2.14899 -0.254767 0.966251 0.0381015
-29.4589 61.6918 1.98439 -0.26253 0.963885 0.0447708
-30.2132 61.49 1.88547 -0.267919 0.96245 0.0436859
-30.2555 61.4402 2.72213 -0.270063 0.961747 0.0459267
-29.1582 61.7352 2.887 -0.264985 0.963451 0.0393187
-28.3302 61.9523 3.0169 -0.255105 0.966136 0.0387541
-27.3237 62.2099 3.1978 -0.244487 0.969156 0.0310372
-26.3954 62.4312 3.36493 -0.225532 0.973658 0.0335553
-25.2427 62.6847 3.55391 -0.214501 0.976304 0.0286253
-24.1053 62.9172 3.70841 -0.192707 0.980886 0.0269598
-23.1816 63.0857 3.84288 -0.170201 0.985033 0.027223
-22.3015 63.2342 3.97476 -0.159555 0.986877 0.0247982
-21.3873 63.3682 4.11334 -0.14929 0.988443 0.0263186
-20.5556 63.4795 4.25679 -0.13416 0.990719 0.0218352
-19.219 63.6351 4.46314 -0.0945774 0.995386 0.0162054
-18.3764 63.7075 4.59361 -0.0888287 0.995826 0.0209872
-17.1404 63.7819 4.81329 -0.0374823 0.999218 0.012578
-15.985 63.8073 5.0403 -0.0117321 0.999808 0.0157159
-14.7646 63.8032 5.25904 0.0113291 0.999727 0.0204586
-13.7765 63.7845 5.44331 0.0198113 0.99975 -0.0103832
-12.9386 63.7464 5.61787 0.0843597 0.996405 -0.00775373
-12.0989 63.675 5.74516 0.096651 0.995318 -0.000736801
-11.0154 63.559 5.83228 0.11249 0.993624 0.00758165
-9.82182 63.4035 5.93407 0.133496 0.990866 0.0190694
-8.24932 63.133 6.04062 0.198028 0.980074 0.0155227
-7.40617 62.9619 6.08493 0.20507 0.978711 0.00845451
-6.15532 62.6767 6.15366 0.232627 0.972566 -0.000342902
-5.05039 62.4042 6.20421 0.239603 0.970829 -0.00904594
-3.91465 62.1065 6.27509 0.257883 0.966162 -0.00526098
-2.7519 61.7647 6.36742 0.290668 0.956808 -0.00552374
-1.91589 61.4995 6.40851 0.306004 0.951985 -0.0093372
-0.688519 61.0966 6.48499 0.321704 0.946777 -0.0109218
0.162016 60.8063 6.59374 0.327699 0.944717 -0.0111117
1.10269 60.4774 6.71569 0.335746 0.941893 -0.0105701
1.94461 60.1725 6.86698 0.351119 0.936259 -0.011571
2.74753 59.8688 6.95778 0.355524 0.934624 -0.00892949
3.86004 59.4442 7.15568 0.362087 0.932047 -0.0134564
4.72376 59.1072 7.37698 0.371931 0.928144 -0.014714
5.64197 58.7423 7.55988 0.376043 0.926477 -0.0152573
6.65199 58.3292 7.68502 0.38019 0.924774 -0.0157662
7.54885 57.9631 7.79595 0.380877 0.924369 -0.021785
8.71754 57.4767 8.05944 0.390434 0.920364 -0.022187
9.75843 57.0337 8.22036 0.394989 0.918415 -0.0222989
10.6401 56.6523 8.25881 0.398507 0.916894 -0.022321
11.7518 56.1712 8.37218 0.400141 0.916174 -0.0226378
12.6251 55.7892 8.52214 0.406502 0.913443 -0.0194187
13.4565 55.421 8.66506 0.413967 0.910093 -0.0190328
14.5093 54.9448 8.90915 0.418198 0.908191 -0.0172893
15.5306 54.4717 9.17845 0.42297 0.906058 -0.0124507
16.5317 54.0077 9.40752 0.424853 0.905145 -0.0145629
17.3167 53.641 9.5727 0.429132 0.903179 -0.0106174
18.069 53.2805 9.76801 0.433292 0.901242 -0.00460744
18.8371 52.9107 10.065 0.441449 0.897281 0.00308697
19.6406 52.5126 10.3879 0.442593 0.896721 -0.00161279
20.401 52.138 10.6456 0.442075 0.896976 0.00208791
21.1832 51.753 10.974 0.445416 0.895324 -0.000122764
22.0105 51.3316 11.3021 0.452868 0.891558 0.00585625
23.0671 50.7918 11.7478 0.452837 0.891573 0.00595092
23.909 50.3573 12.1131 0.455028 0.890415 0.0104976
25.1372 49.719 12.6702 0.460128 0.887833 0.00584274
25.8993 49.3182 13.0035 0.465696 0.884898 0.00915406
26.6095 48.9408 13.3196 0.466323 0.884567 0.00919726
27.3074 48.5693 13.6425 0.466952 0.884231 0.00958725
28.1486 48.12 14.0287 0.468459 0.883422 0.0105616
29.1922 47.5598 14.508 0.470666 0.882242 0.0110557
29.8996 47.1768 14.8184 0.471936 0.881548 0.0122547
30.8337 46.6714 15.2386 0.472719 0.881131 0.0120605
31.6778 46.2127 15.6081 0.473243 0.880851 0.0119413
32.4481 45.7914 15.9408 0.476376 0.879156 0.012285
33.2253 45.3654 16.2898 0.476701 0.87898 0.0122346
33.9702 44.955 16.6068 0.478786 0.877811 0.0145408
34.9669 44.404 17.0342 0.479237 0.877577 0.0138117
35.6666 44.017 17.3394 0.480109 0.877097 0.0140011
36.4736 43.5687 17.7067 0.480958 0.876644 0.0132536
37.3968 43.0557 18.1341 0.480991 0.876625 0.0132629
38.1689 42.6261 18.499 0.481267 0.876483 0.0126564
39.0291 42.1484 18.8855 0.481177 0.876525 0.0131202
