15.4509 67.0672 -1.36885 0.48124 0.876155 -0.0275936
14.2189 67.7404 -1.33553 0.476569 0.878848 -0.0225547
12.869 68.4707 -1.31203 0.471854 0.881484 -0.0184281
11.4835 69.2042 -1.33299 0.466398 0.884364 -0.0193148
10.2535 69.8452 -1.36561 0.460964 0.887255 -0.0170772
8.78873 70.5979 -1.38452 0.455709 0.889998 -0.0152696
7.56957 71.2139 -1.384 0.440878 0.89745 -0.0144848
5.95269 71.9909 -1.39178 0.429785 0.902804 -0.0151351
4.47759 72.6743 -1.40241 0.415884 0.909343 -0.0116278
3.11465 73.2945 -1.41231 0.413076 0.910637 -0.0104243
1.69001 73.9002 -1.41657 0.379719 0.925081 -0.0061823
0.158069 74.5152 -1.44202 0.356598 0.934253 -0.00296191
-1.25919 75.0498 -1.46358 0.347391 0.93765 -0.0114928
-2.57305 75.5179 -1.48213 0.322679 0.946494 -0.0051846
-4.10712 76.0087 -1.49955 0.283115 0.959086 -0.000580969
-5.47357 76.3816 -1.51991 0.239811 0.970646 -0.0183475
-6.95685 76.7304 -1.53964 0.210086 0.977461 -0.0208317
-8.43958 77.0236 -1.5506 0.17234 0.98503 -0.0037286
-10.0505 77.2721 -1.5579 0.131602 0.991266 -0.00854043
-11.4129 77.4029 -1.55115 0.0605498 0.998154 0.00478203
-13.0465 77.4758 -1.53667 0.0317243 0.999145 0.0265222
-14.6336 77.468 -1.5115 -0.0239777 0.999589 0.015739
-16.0197 77.3913 -1.4772 -0.0634944 0.997978 0.00273455
-17.4763 77.2595 -1.43666 -0.119878 0.992786 0.00225297
-19.1565 77.0062 -1.39368 -0.169849 0.985324 0.0169876
-20.8103 76.6828 -1.34997 -0.202578 0.979197 0.0116383
-22.2901 76.3347 -1.30948 -0.23517 0.971512 0.0293265
-23.6716 75.9746 -1.26075 -0.256414 0.966116 0.0295125
-25.1171 75.5655 -1.20444 -0.278809 0.959793 0.0325974
-26.4416 75.146 -1.15088 -0.31622 0.948421 0.0224236
-28.2057 74.5356 -1.09012 -0.338663 0.94039 0.0312075
-29.6628 73.9949 -1.09163 -0.3568 0.933498 0.0357217
-30.9588 73.4905 -1.12163 -0.369786 0.928443 0.0353668
-32.2729 72.9574 -1.15963 -0.382575 0.923345 0.0327192
-33.6118 72.3925 -1.22388 -0.403929 0.913697 0.0447067
-34.9406 71.8034 -1.30151 -0.412954 0.909195 0.0532335
-35.0363 71.7602 -1.30668 -0.412954 0.909195 0.0532335
-34.9948 71.7304 -0.307991 -0.415387 0.908781 0.0396356
-33.554 72.3767 -0.228005 -0.398279 0.916479 0.0379474
-32.1153 72.9868 -0.169267 -0.383127 0.923062 0.0342232
-30.8221 73.5059 -0.124805 -0.368857 0.928802 0.0356585
-29.4026 74.0575 -0.0940315 -0.355831 0.933974 0.0328155
-27.7842 74.6553 -0.103462 -0.336496 0.941213 0.029814
-26.3528 75.1479 -0.167613 -0.31226 0.949333 0.0355075
-24.4314 75.7329 -0.24361 -0.278368 0.960082 0.0274737
-22.9707 76.14 -0.300262 -0.258957 0.965778 0.0146165
-21.1739 76.5844 -0.357832 -0.22207 0.974973 0.0105774
-19.4944 76.9229 -0.403491 -0.17885 0.98372 0.0175479
-17.9437 77.1823 -0.450176 -0.143799 0.989295 0.0248656
-16.586 77.3432 -0.493562 -0.0820002 0.99615 0.0309908
-15.1015 77.4335 -0.531767 -0.0426334 0.998963 0.0159713
-13.1304 77.4585 -0.568065 0.00957929 0.999533 0.0290135
-11.5721 77.3943 -0.589924 0.062169 0.997799 0.0230558
-10.036 77.2617 -0.597783 0.105834 0.994306 0.012437
-8.61871 77.0557 -0.59434 0.161585 0.986842 0.00582763
-7.08373 76.7778 -0.592485 0.197065 0.980322 -0.0115877
-5.72808 76.4603 -0.580999 0.247582 0.968867 0.000730462
-4.40644 76.0966 -0.567895 0.281595 0.959533 -0.00129436
-2.74027 75.5799 -0.549425 0.311932 0.950101 -0.00245801
-1.2049 75.0333 -0.535985 0.349861 0.936792 -0.00433336
0.168273 74.5169 -0.520234 0.351328 0.936128 -0.0152883
1.83351 73.8541 -0.50166 0.378453 0.925484 -0.0158973
3.16508 73.2779 -0.495882 0.409064 0.912506 -0.000358796
4.89784 72.4927 -0.483776 0.416865 0.908931 -0.00827395
6.31836 71.8285 -0.475364 0.434979 0.900381 -0.0103209
7.83603 71.0924 -0.467651 0.435647 0.900089 -0.0071853
9.4406 70.279 -0.483473 0.456656 0.889528 -0.0143257
10.7472 69.6042 -0.473317 0.46287 0.886261 -0.0171228
12.2225 68.8308 -0.439253 0.468433 0.883348 -0.016353
13.6394 68.0757 -0.446831 0.47391 0.880292 -0.022248
15.0327 67.3221 -0.492167 0.47618 0.878975 -0.0255956
16.5493 66.4911 -0.535577 0.482055 0.875621 -0.0301865
17.8367 65.7817 -0.563875 0.481996 0.875102 -0.043318
19.315 64.9645 -0.579788 0.484247 0.873621 -0.0478769
19.6994 64.8144 0.40595 0.480193 0.87525 -0.0578926
18.3425 65.5445 0.27149 0.481961 0.875121 -0.0433237
17.1342 66.206 0.304732 0.477655 0.877758 -0.0372371
15.8414 66.9096 0.350282 0.474989 0.879472 -0.0302418
14.3684 67.7046 0.389866 0.472653 0.880805 -0.0279634
12.7526 68.5678 0.417778 0.467508 0.88381 -0.0177797
11.507 69.2256 0.417886 0.463964 0.885672 -0.0179788
10.0618 69.9745 0.404215 0.456528 0.889592 -0.0144137
8.5819 70.7264 0.407703 0.448061 0.893936 -0.0109054
7.18616 71.4148 0.421875 0.436565 0.899645 -0.00707071
5.94013 72.0163 0.424087 0.426668 0.904388 -0.0060811
4.5018 72.6825 0.415743 0.416865 0.908931 -0.00827376
3.23154 73.2531 0.415022 0.407554 0.913159 -0.0063694
1.71449 73.9167 0.410131 0.394847 0.918698 -0.00946963
0.407978 74.442 0.40044 0.361327 0.93235 -0.0129091
-1.15985 75.0236 0.394329 0.347483 0.937631 -0.0102176
-2.70464 75.5715 0.385018 0.31789 0.948121 -0.00357633
-4.23423 76.0483 0.371068 0.279343 0.960191 -0.000648149
-5.73767 76.462 0.361052 0.247582 0.968867 0.000730462
-7.10354 76.7915 0.358375 0.225843 0.974163 0.00104071
-8.757 77.0757 0.359428 0.16066 0.98701 0.000421733
-10.0884 77.2614 0.368475 0.110551 0.993862 0.00416327
-11.9114 77.4015 0.378889 0.0506355 0.998706 0.00462866
-13.2617 77.4408 0.399983 0.0101045 0.99993 0.00619186
-14.8753 77.4374 0.42753 -0.0268198 0.99964 -0.00102269
-16.234 77.3429 0.469048 -0.0956035 0.9954 0.00619569
-17.6563 77.1982 0.504758 -0.121171 0.991955 0.0366561
-19.0004 76.9869 0.559936 -0.165829 0.985832 0.0252182
-20.4135 76.7277 0.605874 -0.191494 0.98144 0.0102599
-22.0953 76.3529 0.652934 -0.229593 0.973142 0.0167965
-23.4176 76.0041 0.706378 -0.268821 0.963018 0.0182174
-24.8705 75.5737 0.768333 -0.283217 0.958824 0.0210957
-26.5544 75.0411 0.840838 -0.316996 0.948205 0.0205075
-28.098 74.507 0.897951 -0.345249 0.938094 0.027997
-29.4372 74.0093 0.903237 -0.349695 0.936379 0.0301163
-30.8015 73.483 0.867114 -0.366567 0.929936 0.0291193
-32.2358 72.8991 0.807261 -0.384697 0.922436 0.0334784
-33.7605 72.2461 0.750293 -0.40011 0.915664 0.0383442
-34.62 71.857 0.71396 -0.416641 0.908271 0.0381337
-35.0284 71.6319 1.67613 -0.419533 0.907162 0.0323882
-33.5535 72.2957 1.7443 -0.403163 0.914287 0.0392331
-31.9582 72.9784 1.80558 -0.384885 0.92234 0.0339401
-30.5105 73.5636 1.8726 -0.364249 0.930779 0.0311842
-29.1876 74.0706 1.90981 -0.350184 0.936232 0.0290124
-27.9041 74.551 1.89207 -0.34816 0.937073 0.0260571
-26.4127 75.0629 1.83658 -0.311554 0.949746 0.0302688
-25.0891 75.4826 1.77441 -0.287204 0.957473 0.0275677
-23.7414 75.887 1.71358 -0.282455 0.959152 0.0157011
-22.2702 76.291 1.64262 -0.251168 0.967758 0.0189316
-20.5087 76.6988 1.59131 -0.207592 0.978065 0.0171579
-18.7414 77.0152 1.52426 -0.165629 0.986091 0.0138268
-17.2631 77.2291 1.47497 -0.129496 0.991387 0.0195359
-15.8331 77.3693 1.42802 -0.0836265 0.996391 0.0145188
-13.9118 77.44 1.37641 0.0063435 0.999886 0.0137158
-12.1388 77.4089 1.34942 0.0353553 0.999372 -0.00252589
-10.4658 77.2974 1.33178 0.103081 0.994613 0.0109345
-8.72734 77.0645 1.31159 0.152868 0.98823 -0.00573457
-7.25581 76.8011 1.30772 0.199767 0.979505 0.0257543
-5.74637 76.4615 1.30444 0.247115 0.968978 0.00385059
-4.26768 76.0532 1.30855 0.279948 0.959908 0.0143398
-2.65733 75.5562 1.32024 0.313535 0.949572 0.00303424
-1.38769 75.1122 1.32527 0.343893 0.939005 -0.00263173
-0.0258152 74.6116 1.32861 0.348231 0.937388 -0.00618937
1.59566 73.97 1.33267 0.384998 0.922915 -0.00214563
3.16805 73.289 1.32673 0.40754 0.913134 -0.00989294
4.42901 72.7247 1.32119 0.416004 0.909317 -0.00912107
5.88408 72.0482 1.32316 0.429876 0.90287 -0.00572999
7.24631 71.393 1.31414 0.437032 0.899409 -0.00815113
8.70171 70.6777 1.29741 0.447735 0.894078 -0.012544
10.0259 70.0061 1.28942 0.45703 0.889356 -0.0130031
11.5144 69.237 1.29374 0.465092 0.885145 -0.0144033
13.2107 68.3448 1.26754 0.466792 0.884116 -0.0210756
14.7594 67.521 1.21675 0.47284 0.880707 -0.0278738
16.2123 66.7406 1.19498 0.473409 0.88011 -0.0359293
17.4684 66.0636 1.16996 0.476592 0.878036 -0.043736
18.6914 65.4078 1.1911 0.47185 0.880192 -0.0511732
20.0543 64.6844 1.39531 0.475558 0.877544 -0.0613307
20.2271 64.6713 2.47024 0.461948 0.884082 -0.070727
18.5503 65.5331 2.11594 0.467975 0.882429 -0.0481517
17.2762 66.2067 2.05343 0.468747 0.882569 -0.0367236
16.068 66.8505 2.06137 0.469081 0.882632 -0.0303935
14.8388 67.5065 2.07867 0.469544 0.882502 -0.0267961
13.5831 68.1693 2.101 0.465893 0.884486 -0.025054
12.2127 68.8895 2.13502 0.464032 0.885621 -0.0186918
10.8874 69.579 2.17739 0.45686 0.889409 -0.0151769
9.54223 70.2652 2.1813 0.452629 0.891593 -0.0137358
7.9589 71.0547 2.20568 0.440058 0.897933 -0.00803249
6.72385 71.6542 2.22127 0.432995 0.90134 -0.0100964
4.83417 72.548 2.23399 0.424 0.905635 -0.00699564
3.40058 73.1965 2.2484 0.407962 0.912881 -0.0146557
1.87729 73.8571 2.25833 0.390283 0.920674 -0.0062878
0.622152 74.3632 2.2559 0.367898 0.929857 0.00407835
-0.809613 74.9038 2.25373 0.338954 0.940794 -0.00401644
-2.10686 75.3652 2.25651 0.328801 0.94438 0.0059994
-3.79712 75.9109 2.25121 0.298502 0.954368 0.00884961
-5.1506 76.2972 2.24609 0.271909 0.962319 0.00270006
-6.98258 76.731 2.25685 0.212809 0.977091 0.0024864
-8.42726 77.019 2.26491 0.182772 0.983122 0.00804241
-9.96538 77.2327 2.28504 0.127197 0.991844 0.0081103
-11.5393 77.3751 2.30166 0.0843725 0.996432 -0.00217647
-13.1173 77.4287 2.33241 -0.00272681 0.999975 0.00645047
-14.5486 77.413 2.35322 -0.0467932 0.998656 0.0223013
-16.0608 77.3312 2.41791 -0.0819566 0.996343 0.0241444
-17.4104 77.1895 2.45959 -0.126868 0.991574 0.0261911
-18.7418 76.9961 2.50687 -0.155878 0.987593 0.0190478
-20.2623 76.7254 2.56379 -0.186974 0.98209 0.0232466
-21.8589 76.3796 2.60809 -0.233529 0.972119 0.0212085
-23.3324 75.9915 2.68153 -0.26887 0.963023 0.0172273
-24.7547 75.5721 2.74653 -0.29801 0.954421 0.0164311
-26.073 75.1461 2.81644 -0.319985 0.947229 0.0191689
-27.5583 74.6382 2.89846 -0.320953 0.946308 0.0385974
-29.0465 74.0922 2.90916 -0.349305 0.936545 0.0295007
-30.3822 73.5826 2.87376 -0.370569 0.928296 0.030751
-31.8452 72.9891 2.80544 -0.384695 0.922543 0.0304168
-33.4245 72.3137 2.73773 -0.39926 0.916132 0.0359657
-34.8246 71.6892 2.67919 -0.41544 0.909029 0.0327886
-35.049 71.5862 2.66666 -0.418407 0.907652 0.0332246
-34.9966 71.5713 3.6711 -0.412436 0.910087 0.0404791
-33.5739 72.2084 3.72174 -0.404883 0.91361 0.0372344
-32.0621 72.8609 3.79235 -0.389579 0.920366 0.0339882
-30.6864 73.4296 3.85276 -0.371909 0.927847 0.0279835
-29.1717 74.0146 3.89106 -0.3493 0.936546 0.02951
-27.9085 74.4835 3.91045 -0.344569 0.938467 0.0234795
-26.4933 74.9837 3.83534 -0.319823 0.947287 0.019005
-25.0796 75.4465 3.75109 -0.296396 0.954909 0.0172554
-23.7568 75.8543 3.68289 -0.272762 0.961946 0.0161733
-22.1666 76.2812 3.60313 -0.228727 0.973153 0.0256293
-20.4942 76.6579 3.55294 -0.199551 0.97958 0.0245598
-19.0491 76.9226 3.49711 -0.169568 0.985032 0.0309521
-17.2974 77.1801 3.42811 -0.124988 0.991901 0.0225735
-15.9539 77.3145 3.3848 -0.0853257 0.99604 0.024984
-14.4704 77.4046 3.32123 -0.0214215 0.999579 0.0195445
-13.0579 77.4202 3.30025 -0.00257465 0.999946 0.0101067
-11.384 77.3592 3.26193 0.0658115 0.997336 0.03147
-9.98478 77.2369 3.24194 0.105405 0.994427 -0.00205772
-8.5066 77.028 3.22118 0.160401 0.987028 0.00691237
-7.0048 76.7391 3.20378 0.214594 0.976549 -0.0173608
-5.34435 76.3352 3.19458 0.244446 0.969648 0.00540092
-3.82438 75.9136 3.1879 0.295274 0.95541 0.00205649
-2.1749 75.3902 3.19038 0.320835 0.947132 -0.00245275
-0.49344 74.7997 3.18169 0.347669 0.937594 -0.00662975
1.17594 74.1482 3.18336 0.371925 0.928233 -0.00737938
2.80137 73.4669 3.17772 0.394533 0.918842 -0.00851891
4.09501 72.8952 3.16705 0.414938 0.909788 -0.0105991
5.33667 72.3192 3.1495 0.425397 0.904976 -0.00751128
6.57205 71.7353 3.13646 0.429071 0.903227 -0.00888671
8.00675 71.0408 3.11479 0.438528 0.898665 -0.00973895
9.22784 70.4365 3.08824 0.448594 0.893679 -0.0100621
10.4531 69.8169 3.06147 0.453741 0.89101 -0.0148781
11.9874 69.0276 3.01196 0.459256 0.888048 -0.0213129
13.295 68.3442 2.98601 0.463951 0.885546 -0.0236155
14.8876 67.5065 2.95578 0.466154 0.884228 -0.0290204
16.2095 66.8064 2.93079 0.468757 0.882736 -0.0323248
17.504 66.1276 2.98011 0.459789 0.886947 -0.0438056
18.7745 65.4714 3.12378 0.461455 0.885465 -0.0548676
20.0765 64.8205 3.46012 0.45549 0.888067 -0.0621722
20.5541 64.5911 3.61707 0.447892 0.891928 -0.062104
21.7435 64.1207 5.12163 0.430351 0.900289 -0.0654006
20.173 64.845 4.52544 0.439668 0.896599 -0.0529349
18.9564 65.4357 4.18904 0.454937 0.889059 -0.0510574
17.3816 66.2352 3.92971 0.460173 0.886981 -0.0388028
16.0572 66.9218 3.83008 0.46358 0.885331 -0.0358126
14.8506 67.5543 3.83379 0.462833 0.886049 -0.0265257
13.6259 68.1947 3.86514 0.463026 0.885991 -0.0250264
12.2393 68.9175 3.90267 0.458055 0.888748 -0.0176752
10.7733 69.6704 3.9645 0.454589 0.890541 -0.0168867
9.40087 70.363 3.99775 0.445808 0.895068 -0.0104379
8.13988 70.9858 4.02537 0.438526 0.898665 -0.00974563
6.90847 71.5833 4.04965 0.435901 0.899972 -0.00644053
5.68877 72.1662 4.0701 0.427031 0.904158 -0.0119628
4.2193 72.8489 4.09636 0.413776 0.910351 -0.00707538
2.48968 73.6066 4.10255 0.395724 0.918369 0.000597803
1.16422 74.1584 4.10991 0.372391 0.928065 -0.00450794
-0.0951572 74.6494 4.11086 0.357247 0.934004 -0.00336573
-1.65405 75.2191 4.12325 0.329465 0.944107 -0.0107139
-2.99817 75.6562 4.12783 0.295274 0.95541 0.00205654
-4.3393 76.0594 4.13369 0.270943 0.962595 0.0013348
-5.79177 76.4554 4.14259 0.24858 0.968595 -0.00558671
-7.1288 76.7801 4.15634 0.214788 0.976618 0.00909546
-8.87672 77.0762 4.18421 0.151294 0.988464 0.00693213
-10.257 77.2497 4.20771 0.082867 0.996251 0.024842
-11.8667 77.3629 4.23576 0.0624804 0.997624 0.029044
-13.2703 77.4041 4.26726 0.0173663 0.999596 0.0224814
-14.7916 77.3751 4.30576 -0.0230725 0.99941 0.0254598
-16.159 77.2725 4.36096 -0.0811144 0.996352 0.0265357
-17.6107 77.119 4.41474 -0.122986 0.992267 0.0167433
-19.1412 76.8904 4.47934 -0.178688 0.98374 0.0180881
-20.8946 76.5436 4.54597 -0.213583 0.976572 0.026265
-22.2762 76.224 4.59314 -0.238908 0.970869 0.0183473
-23.8654 75.7982 4.66626 -0.274833 0.961074 0.0283466
-25.2536 75.3751 4.74575 -0.305796 0.951914 0.0186628
-26.5771 74.935 4.82403 -0.320405 0.947041 0.0213064
-27.9894 74.4297 4.87293 -0.342687 0.939228 0.0204179
-29.2666 73.9504 4.86568 -0.351436 0.935835 0.0265622
-30.5458 73.4569 4.84299 -0.369886 0.928661 0.0277924
-31.7892 72.9456 4.81093 -0.388621 0.920964 0.0282715
-33.1909 72.3466 4.74348 -0.39722 0.917225 0.0302541
-34.5438 71.744 4.68598 -0.412404 0.910616 0.026493
-34.8967 71.5845 4.67244 -0.41276 0.910468 0.0260394
-35.035 71.4983 5.68011 -0.418545 0.907958 0.0207858
-33.5768 72.1523 5.73625 -0.401924 0.915429 0.0211432
-32.1614 72.7614 5.79706 -0.389687 0.920725 0.0202282
-30.9196 73.2759 5.82762 -0.372224 0.927629 0.0308731
-29.5011 73.8381 5.83836 -0.363004 0.931301 0.0301142
-27.8858 74.4443 5.8473 -0.349167 0.936772 0.0232475
-26.4923 74.9454 5.7871 -0.325782 0.945334 0.0144487
-25.0922 75.4101 5.70958 -0.306324 0.951773 0.0171125
-22.9419 76.0222 5.60929 -0.255039 0.966241 0.036526
-21.4377 76.4031 5.55437 -0.211579 0.977125 0.0214741
-19.9937 76.7124 5.49712 -0.194418 0.980735 0.0189829
-18.584 76.9684 5.43757 -0.15193 0.988297 0.0136493
-16.9739 77.1753 5.3727 -0.117748 0.993043 -0.000474851
-15.2626 77.3367 5.29565 -0.077325 0.996963 0.00921191
-13.6325 77.3901 5.24729 -0.00622813 0.999831 0.0173132
-12.2558 77.3625 5.20919 0.0464726 0.998768 0.017426
-10.6438 77.2729 5.18374 0.0514631 0.998651 0.00684199
-9.27742 77.1263 5.14718 0.135473 0.990553 0.0212412
-7.94225 76.9191 5.11884 0.167986 0.985751 0.008657
-6.46433 76.6224 5.10058 0.214393 0.976589 0.0175818
-4.74827 76.1799 5.08467 0.269883 0.962889 -0.00270708
-3.29338 75.7579 5.06637 0.287153 0.957829 -0.0102903
-1.9168 75.3176 5.0591 0.322934 0.946415 -0.0034687
-0.579738 74.8349 5.04415 0.354927 0.934886 -0.00385828
0.691623 74.3485 5.03947 0.371343 0.928487 0.00399962
1.98774 73.8181 5.03345 0.388155 0.921584 0.00433259
3.22909 73.2849 5.02563 0.39731 0.917672 -0.00474842
4.50629 72.723 5.01381 0.410929 0.911666 -0.00120315
6.07094 71.9947 4.98291 0.425255 0.905034 -0.00846846
7.52611 71.2939 4.95314 0.436793 0.899506 -0.0100271
8.99881 70.5718 4.9208 0.443009 0.896453 -0.0107652
10.4877 69.8295 4.88092 0.450207 0.892811 -0.0142165
11.7322 69.1953 4.82694 0.455993 0.889846 -0.0156456
13.1065 68.49 4.77978 0.458248 0.888538 -0.022546
14.5808 67.7218 4.7368 0.46213 0.886423 -0.0262705
15.9555 67.0075 4.7526 0.460601 0.887098 -0.0300625
17.2427 66.3476 4.88877 0.456821 0.888969 -0.0323743
18.5235 65.7027 5.09743 0.451085 0.891452 -0.0428425
19.793 65.0857 5.44455 0.439767 0.89655 -0.0529492
21.1629 64.4486 5.90017 0.43295 0.899416 -0.0600393
22.6374 63.799 6.5111 0.417627 0.906885 -0.0561016
23.8222 63.3014 7.0442 0.407391 0.911605 -0.0548601
23.9963 63.2284 7.12292 0.406126 0.912246 -0.0535585
40.7101 50.0993 -21.3527 0.654438 0.755826 0.0209324
43.2381 47.9333 -23.1078 0.658601 0.752275 0.018113
45.728 45.8069 -24.9074 0.652854 0.757306 0.0164026
48.3289 43.6497 -26.8457 0.631373 0.775352 0.0140148
50.0135 42.3165 -28.1385 0.61596 0.78766 0.01357
52.8692 40.2427 -29.3123 0.553213 0.832749 0.0220093
50.3239 42.0551 -27.2702 0.613263 0.789618 0.0202937
47.8054 44.0488 -25.3601 0.641769 0.766656 0.019264
45.1342 46.2874 -23.4072 0.655995 0.754542 0.0183394
42.4893 48.5499 -21.5226 0.658579 0.752265 0.0192694
39.7104 50.9189 -19.6309 0.654435 0.755817 0.0213496
37.9832 52.3584 -18.4906 0.644536 0.764337 0.0190173
51.3622 41.251 -26.9768 0.595072 0.802953 0.0339818
50.5766 41.8354 -26.3568 0.613263 0.789618 0.0202908
49.8427 42.391 -25.7929 0.622911 0.781904 0.0246553
49.1939 42.9044 -25.3004 0.631207 0.775266 0.0232474
48.3992 43.5367 -24.709 0.633207 0.773659 0.0223788
47.7674 44.0516 -24.2437 0.643465 0.765259 0.0182139
46.8183 44.8401 -23.5533 0.650154 0.759597 0.0176712
45.8992 45.6133 -22.8914 0.653753 0.756428 0.0206111
44.9949 46.38 -22.2419 0.656743 0.753854 0.0198196
44.2889 46.9819 -21.735 0.657345 0.753336 0.0195458
43.6568 47.5223 -21.2835 0.657841 0.752904 0.0195447
42.9847 48.0979 -20.8112 0.658515 0.752314 0.0195062
42.5185 48.4978 -20.4887 0.658526 0.752311 0.0192806
34.0682 58.6784 11.849 0.452548 0.891324 -0.0272457
34.9951 58.2148 12.3128 0.457678 0.888725 -0.0264349
35.9096 57.7486 12.7778 0.464154 0.885449 -0.0232874
36.7992 57.2918 13.2315 0.467111 0.883951 -0.0209041
37.6962 56.8244 13.6906 0.472146 0.881314 -0.019076
38.6155 56.3406 14.1611 0.476652 0.878825 -0.0216818
39.3842 55.9332 14.5557 0.478537 0.877797 -0.0217642
40.3349 55.4239 15.047 0.481648 0.876125 -0.0205126
41.294 54.9059 15.548 0.484168 0.874739 -0.0203125
42.0473 54.4985 15.9428 0.48549 0.873996 -0.0207484
42.8535 54.0587 16.3654 0.487707 0.872735 -0.0218181
43.7915 53.5457 16.8565 0.489193 0.871895 -0.0221382
44.9902 52.8876 17.4866 0.491037 0.870867 -0.0217738
45.7648 52.4607 17.8971 0.492356 0.870093 -0.0228829
46.7719 51.905 18.4401 0.492715 0.869887 -0.022984
47.5958 51.4497 18.8845 0.493246 0.869568 -0.0236796
48.4351 50.9862 19.3382 0.49255 0.869931 -0.0247981
49.4131 50.4473 19.8811 0.493794 0.869194 -0.0258662
49.5873 50.3512 19.9776 0.493015 0.869609 -0.0267787
54.4617 47.788 23.6768 0.469006 0.882471 -0.0357518
53.6279 48.2162 23.2354 0.471527 0.881135 -0.035544
52.6238 48.7449 22.6906 0.480156 0.876449 -0.0358902
51.676 49.2492 22.1716 0.483087 0.875022 -0.0310292
50.1697 50.0634 21.3409 0.490124 0.871226 -0.0272713
49.0157 50.6964 20.7081 0.491975 0.87023 -0.0256901
47.8004 51.3654 20.0413 0.492342 0.870049 -0.0247796
46.9598 51.8295 19.5869 0.491705 0.870448 -0.0233708
45.779 52.4803 18.9503 0.492379 0.870082 -0.0228057
44.8528 52.9901 18.4563 0.491238 0.870726 -0.0228078
44.0249 53.4444 18.0199 0.489299 0.871837 -0.0220503
42.8561 54.0836 17.4078 0.488022 0.872556 -0.0219331
41.9384 54.583 16.9268 0.485332 0.874048 -0.0222105
41.0624 55.0569 16.468 0.484188 0.874687 -0.0219876
40.1359 55.556 15.9821 0.482012 0.875891 -0.0218782
39.3177 55.9944 15.555 0.478317 0.877896 -0.0226001
38.3945 56.4833 15.0779 0.475711 0.879279 -0.0238431
37.4678 56.9711 14.6019 0.473798 0.880352 -0.0222849
36.4567 57.4964 14.0835 0.468866 0.882949 -0.0237946
35.4897 57.9916 13.59 0.464676 0.885124 -0.0251423
34.3967 58.5459 13.0361 0.456947 0.889064 -0.0276427
33.5378 58.972 12.6045 0.45373 0.890688 -0.0283425
32.4581 59.5019 12.0647 0.450389 0.89239 -0.0281076
31.4492 59.9878 11.5659 0.441292 0.896837 -0.0307373
30.5268 60.4237 11.1124 0.432988 0.900646 -0.0368604
29.5886 60.8539 10.6537 0.428835 0.902595 -0.0377263
28.3724 61.402 10.073 0.423071 0.905105 -0.0423699
27.4924 61.7908 9.66407 0.416443 0.908103 -0.043871
26.4107 62.2609 9.1638 0.414547 0.908959 -0.0441061
25.5225 62.6392 8.76497 0.408624 0.911307 -0.0504582
24.3112 63.1526 8.23016 0.408491 0.911367 -0.0504483
23.425 63.5255 7.8325 0.408043 0.911406 -0.0532844
22.384 63.9695 7.38387 0.411554 0.909914 -0.0517571
21.3075 64.4428 6.95392 0.423993 0.904462 -0.0466805
20.1938 64.9507 6.56963 0.433996 0.899521 -0.0500987
19.1538 65.4434 6.26105 0.44173 0.896145 -0.0424112
18.1086 65.9509 5.98645 0.447324 0.893621 -0.0366477
17.1664 66.4217 5.8286 0.451243 0.891729 -0.0346218
16.0611 66.9839 5.70874 0.458647 0.888157 -0.0286343
15.0804 67.4891 5.6592 0.458825 0.888111 -0.0271696
14.0492 68.0231 5.67214 0.458953 0.888172 -0.0226672
13.0694 68.5287 5.69788 0.456471 0.889564 -0.0176092
12.1305 69.0089 5.72195 0.452361 0.89163 -0.0191075
10.8414 69.6645 5.77101 0.450855 0.892494 -0.0135784
9.5413 70.3161 5.81598 0.443066 0.896352 -0.0156961
8.40479 70.8773 5.84988 0.43948 0.898145 -0.0138942
7.4519 71.3422 5.87118 0.434442 0.900625 -0.0115902
6.43051 71.8303 5.89356 0.431192 0.902218 -0.00873967
5.43416 72.2969 5.91656 0.418954 0.908005 -0.00211138
4.49555 72.7273 5.93603 0.41371 0.910406 -0.00227474
3.51655 73.1661 5.95222 0.39898 0.916947 -0.00479653
2.44316 73.6256 5.96069 0.386443 0.922313 -0.000208618
1.47231 74.0345 5.96671 0.383451 0.923542 -0.00604352
0.0189096 74.6133 5.97192 0.365424 0.930811 -0.00751267
-1.01775 75.002 5.97902 0.329254 0.94418 -0.0107352
-2.23516 75.4297 5.99068 0.322934 0.946415 -0.00346862
-3.33629 75.7695 6.01125 0.287963 0.957631 0.00442727
-4.35795 76.0755 6.0311 0.276793 0.96092 -0.00422948
-5.69368 76.4329 6.0436 0.232514 0.972572 0.00640478
-6.69297 76.6559 6.0602 0.199096 0.979964 0.0055722
-8.03175 76.9239 6.07143 0.188959 0.981937 0.00970401
-9.26688 77.1101 6.10363 0.138626 0.990274 0.0118167
-10.3513 77.2499 6.14064 0.126857 0.991832 0.0133221
-11.4396 77.3077 6.17339 0.0464776 0.998767 0.0174217
-12.6896 77.3525 6.18845 0.0274112 0.999343 0.0237134
-13.7612 77.3544 6.2176 -0.00188893 0.999176 0.040533
-14.8792 77.3322 6.2499 -0.0501824 0.998593 0.0171234
-15.9737 77.2713 6.29203 -0.0718754 0.997362 0.0101858
-17.021 77.1778 6.34596 -0.106527 0.994309 -0.000850974
-18.1447 77.0224 6.40069 -0.139157 0.990264 0.00365244
-19.4113 76.8059 6.45315 -0.174387 0.984468 0.0203158
-20.8883 76.5015 6.50831 -0.207424 0.977984 0.0228451
-22.0809 76.2266 6.56221 -0.24435 0.969345 0.0257424
-23.1248 75.9562 6.6038 -0.259411 0.965563 0.0198523
-24.4934 75.5705 6.65882 -0.29018 0.956697 0.0229342
-25.5404 75.2462 6.71132 -0.300653 0.953475 0.022226
-26.5425 74.908 6.76692 -0.322573 0.946265 0.0230132
-27.6593 74.5043 6.82002 -0.343092 0.939028 0.0226737
-28.819 74.0732 6.81313 -0.348699 0.936983 0.0217427
-29.9781 73.6279 6.84544 -0.368253 0.929543 0.0184168
-31.0915 73.1801 6.83376 -0.376336 0.926186 0.0234713
-32.0627 72.7806 6.8011 -0.382684 0.923607 0.022437
-33.251 72.2713 6.76677 -0.395511 0.918247 0.019816
-34.3319 71.7917 6.71985 -0.406361 0.913562 0.0165917
-34.661 71.6455 6.70541 -0.409874 0.91194 0.0192261
-34.5516 71.6763 7.71568 -0.412991 0.910673 0.0106129
-33.5625 72.1136 7.74272 -0.402003 0.915566 0.0115023
-32.4834 72.5829 7.77368 -0.394935 0.91856 0.0165465
-31.4374 73.02 7.80479 -0.378467 0.925481 0.0157586
-30.3599 73.4558 7.82823 -0.368803 0.929287 0.0202244
-29.325 73.8576 7.80907 -0.355982 0.93428 0.0199631
-28.2391 74.2651 7.78249 -0.346299 0.937875 0.0216177
-27.0617 74.6976 7.77217 -0.32985 0.943647 0.0270121
-26.0918 75.0305 7.722 -0.321277 0.946499 0.0303454
-25.0639 75.3729 7.66687 -0.303168 0.952612 0.024882
-24.0134 75.6937 7.61334 -0.277899 0.960464 0.0167648
-22.7975 76.023 7.56669 -0.248662 0.96837 0.0206686
-21.7279 76.2939 7.52357 -0.232453 0.972422 0.0190083
-20.7334 76.5145 7.4778 -0.213909 0.976623 0.0212309
-19.5762 76.7534 7.43228 -0.181581 0.983252 0.0156317
-18.295 76.983 7.36808 -0.170709 0.985187 0.0162886
-16.9451 77.1575 7.30661 -0.109668 0.993268 0.0373053
-15.5131 77.2923 7.23768 -0.079231 0.996611 0.022104
-13.8503 77.3423 7.19617 -0.0135365 0.999747 0.0179502
-12.6595 77.3327 7.1619 0.00996275 0.999743 0.0203704
-11.3412 77.2841 7.13801 0.0397429 0.999008 0.0200924
-10.3081 77.2183 7.09908 0.0940384 0.994485 0.0464366
-9.04382 77.0611 7.05828 0.131817 0.990976 0.0243053
-7.90348 76.885 7.03199 0.181576 0.983254 0.0155661
-6.75457 76.6609 7.012 0.203456 0.978923 0.0177775
-5.57408 76.391 6.99608 0.242376 0.97014 0.00903553
-4.40694 76.0887 6.97774 0.275134 0.961344 0.0109138
-3.19475 75.7282 6.95241 0.282865 0.959159 -0.00104535
-2.15299 75.4007 6.92631 0.312125 0.950019 0.00643342
-1.00767 75.0047 6.91143 0.339314 0.940657 0.00547044
0.204119 74.5455 6.9048 0.362473 0.931984 -0.00426883
1.2139 74.1444 6.89997 0.376926 0.926242 -0.0016887
2.28839 73.6971 6.89557 0.389367 0.921053 -0.00744068
3.29474 73.2699 6.88507 0.403151 0.915049 -0.0124227
4.48608 72.7381 6.86453 0.413471 0.910482 -0.00800479
5.60369 72.224 6.84205 0.421553 0.906765 -0.00839983
6.74357 71.6893 6.80791 0.424438 0.905438 -0.0057942
7.99501 71.0918 6.77684 0.434442 0.900625 -0.0115899
9.28545 70.4581 6.74241 0.441431 0.897207 -0.012561
10.5026 69.8516 6.70585 0.448665 0.89359 -0.014031
11.6068 69.2927 6.6681 0.451062 0.892359 -0.0154275
12.8522 68.6592 6.62968 0.453026 0.891347 -0.0163786
13.9928 68.0741 6.60761 0.455959 0.889807 -0.0185635
15.0391 67.5365 6.60221 0.455786 0.889805 -0.022503
16.0362 67.0275 6.65702 0.454594 0.89021 -0.0295075
17.1863 66.4476 6.78762 0.449853 0.892667 -0.0278807
18.2571 65.9207 7.00032 0.443106 0.895819 -0.034145
19.3486 65.3968 7.28777 0.437726 0.898298 -0.0381709
20.4585 64.8795 7.63551 0.427655 0.902918 -0.043004
21.5358 64.3948 8.02318 0.419027 0.906668 -0.0486808
22.4881 63.9802 8.40235 0.411127 0.91012 -0.0515291
23.4547 63.5684 8.81532 0.40821 0.911548 -0.0494422
24.4053 63.1653 9.23102 0.408011 0.911638 -0.0494238
25.2709 62.797 9.62103 0.409886 0.910874 -0.0479894
26.3758 62.3238 10.1263 0.414547 0.908903 -0.0452294
27.2789 61.9321 10.552 0.418258 0.907343 -0.042288
28.1585 61.544 10.9667 0.423276 0.904995 -0.042686
29.1934 61.0749 11.4656 0.43107 0.901477 -0.0389741
30.2466 60.5905 11.9817 0.433416 0.90061 -0.0324331
31.1478 60.1682 12.4266 0.443368 0.895782 -0.0316261
32.161 59.6827 12.9343 0.448171 0.89341 -0.0310075
33.0911 59.2252 13.4018 0.454423 0.890326 -0.0286093
34.0097 58.7695 13.865 0.456319 0.889416 -0.026682
34.8568 58.3441 14.2939 0.464685 0.885086 -0.0262626
35.9997 57.7602 14.8776 0.465841 0.884532 -0.0244144
37.1857 57.1454 15.4868 0.472088 0.881237 -0.0235386
38.1442 56.6426 15.9811 0.476486 0.878867 -0.0235628
39.0788 56.1468 16.468 0.478309 0.877948 -0.0206566
40.0858 55.6092 16.9973 0.481696 0.876055 -0.0222871
40.9555 55.1411 17.4542 0.483786 0.874896 -0.0225328
41.8186 54.6744 17.9062 0.485317 0.874056 -0.0221991
42.9227 54.0737 18.4845 0.488332 0.872369 -0.0224448
43.9811 53.4951 19.0403 0.489526 0.871677 -0.0232937
45.2644 52.7909 19.7208 0.491364 0.870658 -0.0227139
46.4661 52.1293 20.3665 0.491704 0.870449 -0.0233706
47.6259 51.491 20.9947 0.491986 0.870278 -0.023782
48.4926 51.014 21.4668 0.491485 0.870547 -0.0242976
49.4465 50.4907 21.9901 0.491554 0.870486 -0.0250776
50.2919 50.0316 22.4524 0.487081 0.873026 -0.0240338
51.0994 49.5933 22.8938 0.487263 0.872935 -0.0236396
51.9625 49.131 23.3651 0.481073 0.87617 -0.0299078
53.0116 48.5797 23.9343 0.478522 0.877559 -0.0301268
53.9831 48.0753 24.4511 0.469819 0.882119 -0.0336905
55.2419 47.44 25.1033 0.461111 0.886529 -0.0379811
56.2536 46.9438 25.6211 0.443748 0.895081 -0.0437948
57.1353 46.5315 26.0651 0.426579 0.903332 -0.0449535
58.5607 45.9112 26.771 0.412865 0.908786 -0.0604188
58.6067 45.8918 26.7936 0.412864 0.908787 -0.0604178
52.9805 48.6311 24.9482 0.472978 0.880422 -0.0339069
52.08 49.1042 24.4621 0.478379 0.877711 -0.0278878
51.2244 49.5575 23.9986 0.482097 0.875729 -0.0260888
50.2844 50.0643 23.4909 0.487445 0.872844 -0.0232425
49.4383 50.5242 23.0295 0.490082 0.871341 -0.0241965
48.5364 51.0187 22.536 0.491212 0.870732 -0.0231463
47.5063 51.5855 21.9753 0.491782 0.870396 -0.0237141
46.5933 52.088 21.4826 0.49186 0.87035 -0.0237641
45.6192 52.6237 20.9589 0.491019 0.870825 -0.0237509
44.4043 53.2917 20.3113 0.490382 0.8712 -0.0231277
43.3446 53.8716 19.7505 0.488639 0.872168 -0.0235597
42.4333 54.3678 19.2714 0.488043 0.872513 -0.0231391
41.2023 55.0351 18.6256 0.484285 0.874597 -0.0233992
40.3394 55.5002 18.1716 0.483377 0.875119 -0.0226512
39.2864 56.0643 17.6143 0.478757 0.877627 -0.0237055
38.3813 56.5443 17.1393 0.47585 0.879261 -0.0216275
37.4814 57.0184 16.6703 0.473947 0.880251 -0.023082
36.632 57.4615 16.2318 0.469611 0.88257 -0.0231449
35.4842 58.0536 15.6419 0.467047 0.88389 -0.0246076
34.4421 58.5845 15.1093 0.460806 0.887154 -0.0248033
33.5905 59.0105 14.6778 0.457132 0.888949 -0.0282704
32.5621 59.521 14.1563 0.452695 0.891173 -0.0296303
31.504 60.0332 13.6191 0.445091 0.894889 -0.0326624
30.5918 60.4692 13.1616 0.437806 0.898425 -0.0340315
29.6353 60.9156 12.6839 0.433942 0.900145 -0.0378657
28.7735 61.3099 12.2576 0.431228 0.901416 -0.0386107
27.7993 61.7503 11.786 0.423209 0.905062 -0.0419208
26.843 62.17 11.3309 0.418727 0.907067 -0.043553
25.7563 62.6412 10.8179 0.414285 0.908978 -0.0461095
24.7665 63.0633 10.3651 0.409678 0.910931 -0.048665
23.4527 63.6213 9.78062 0.407893 0.911816 -0.0470588
22.4751 64.0379 9.36275 0.410768 0.910498 -0.0475761
21.3204 64.5402 8.90878 0.417729 0.907405 -0.0460224
20.1837 65.0512 8.50311 0.427386 0.903009 -0.0437701
19.0074 65.5987 8.14005 0.43662 0.898859 -0.0376179
17.8186 66.1697 7.85519 0.442367 0.896202 -0.0336639
16.6806 66.7297 7.66002 0.449758 0.892716 -0.0278533
15.7173 67.2157 7.56746 0.453967 0.890691 -0.0241502
14.6671 67.7499 7.53796 0.455621 0.889922 -0.0211935
13.3513 68.4227 7.54804 0.453599 0.891022 -0.0181317
12.3413 68.9362 7.58114 0.452942 0.8914 -0.0158037
10.8718 69.6803 7.6244 0.448659 0.8936 -0.0135868
9.84186 70.1944 7.6513 0.446156 0.894867 -0.0125839
8.74468 70.7373 7.68117 0.441421 0.897212 -0.0125588
7.68683 71.2506 7.71058 0.432439 0.901599 -0.0107605
6.70593 71.7159 7.7386 0.426309 0.904536 -0.00860535
5.52684 72.268 7.77235 0.422386 0.906381 -0.00799101
4.47393 72.7516 7.79405 0.413024 0.910688 -0.00759516
3.47992 73.1995 7.81231 0.405704 0.913954 -0.00957736
2.38814 73.6626 7.84028 0.386916 0.922073 -0.00884075
1.04787 74.2137 7.83971 0.377475 0.926019 -0.00121879
-0.117576 74.6682 7.84208 0.354851 0.934891 0.00771607
-1.21665 75.072 7.84966 0.329423 0.944148 0.00809285
-2.2191 75.4171 7.8699 0.312055 0.950055 0.00404798
-3.59414 75.8479 7.90924 0.282807 0.959172 -0.00308086
-4.79883 76.181 7.93703 0.262941 0.964791 0.00632122
-5.88631 76.4465 7.9554 0.227818 0.973594 0.0146321
-7.07094 76.7054 7.97272 0.195877 0.980345 0.0235879
-8.22451 76.9242 7.99594 0.161696 0.986513 0.0254436
-9.37949 77.0978 8.02997 0.122338 0.992416 0.0119605
-10.6478 77.2264 8.07943 0.0787941 0.996783 0.0146626
-11.8865 77.2912 8.11604 0.0358977 0.999346 0.0043885
-13.0091 77.3135 8.15059 0.00436796 0.999796 0.0196949
-14.1306 77.3075 8.18371 -0.0244184 0.999403 0.0244438
-15.1708 77.2838 8.20793 -0.0490729 0.998373 0.0290393
-16.3263 77.1926 8.24344 -0.100171 0.994501 0.0305555
-17.4356 77.0668 8.29384 -0.117794 0.992382 0.0361029
-18.7325 76.8792 8.36084 -0.159069 0.986946 0.0251898
-19.7769 76.6858 8.40992 -0.192426 0.980843 0.0303305
-20.9431 76.4495 8.46234 -0.212263 0.977093 0.0152951
-22.1282 76.1714 8.51028 -0.239823 0.970513 0.0242662
-23.1405 75.912 8.55036 -0.252717 0.96731 0.0210963
-24.5062 75.5228 8.61896 -0.289175 0.957069 0.0199243
-25.5881 75.1766 8.67265 -0.316991 0.948201 0.0207527
-26.6842 74.8023 8.72596 -0.32985 0.943647 0.0270113
-28.1645 74.2702 8.75656 -0.341928 0.939367 0.0259902
-29.8452 73.6388 8.80393 -0.358278 0.933476 0.0160957
-31.0068 73.1817 8.80112 -0.374909 0.926958 0.0138354
-32.038 72.754 8.77782 -0.381075 0.924416 0.0154144
-33.1035 72.2977 8.76009 -0.395143 0.918457 0.0172783
-34.147 71.8427 8.73784 -0.405821 0.913886 0.0109857
-34.7697 71.5677 8.72024 -0.408961 0.912521 0.00748595
-35.0111 71.4529 9.72368 -0.406299 0.913736 -0.00278015
-33.7714 71.9995 9.74132 -0.40012 0.916429 0.00788202
-32.691 72.4645 9.75419 -0.388909 0.921242 0.00790599
-31.4092 73.0017 9.76706 -0.380536 0.924647 0.0148581
-30.2052 73.4789 9.77218 -0.362135 0.932057 0.0113053
-29.1424 73.8892 9.75898 -0.351373 0.936152 0.0125432
-27.9422 74.3354 9.73117 -0.333259 0.942786 0.00960031
-26.5916 74.8139 9.6887 -0.325631 0.94543 0.0112289
-25.5523 75.1657 9.64701 -0.322584 0.94629 0.0217809
-24.2109 75.5872 9.58357 -0.285067 0.957862 0.0351649
-23.1566 75.8842 9.52526 -0.255904 0.966453 0.0219444
-22.1448 76.1414 9.48289 -0.239671 0.970481 0.0269271
-20.8494 76.4458 9.42881 -0.21479 0.976064 0.0341296
-19.6838 76.6857 9.37504 -0.179266 0.98347 0.0254868
-18.5172 76.8816 9.32143 -0.146642 0.988774 0.0286689
-17.4068 77.033 9.26732 -0.124651 0.991467 0.0381401
-16.1625 77.173 9.21386 -0.102895 0.993957 0.0382469
-15.0192 77.2603 9.18504 -0.0752869 0.996754 0.0285362
-13.6863 77.3133 9.14453 -0.0107957 0.999937 -0.00319215
-12.629 77.2999 9.10947 0.00714344 0.999965 0.00445447
-11.4566 77.2682 9.07008 0.0430162 0.998804 0.0232433
-10.4017 77.1937 9.03287 0.0835864 0.996402 0.013996
-9.3529 77.0826 8.99135 0.151872 0.988127 0.0232187
-8.13741 76.8847 8.94999 0.180381 0.982936 0.0360516
-6.72739 76.6176 8.92858 0.204542 0.978624 0.0214048
-5.59903 76.365 8.90552 0.235121 0.971817 0.0169925
-4.56318 76.1096 8.88441 0.251417 0.967833 0.0093893
-3.53893 75.827 8.85979 0.265259 0.964137 0.00879815
-2.3942 75.4696 8.81439 0.315071 0.948942 0.015484
-1.30883 75.0924 8.78934 0.33305 0.9428 0.0143682
-0.204905 74.6936 8.78042 0.35485 0.934892 0.00772396
0.85645 74.2856 8.77977 0.358101 0.933666 0.00563896
2.16907 73.7543 8.78187 0.377175 0.926139 0.00243004
3.36702 73.2543 8.74984 0.394012 0.919105 -0.000228277
4.82282 72.5979 8.72067 0.414604 0.91 -0.0016751
5.99972 72.0572 8.69042 0.422265 0.906414 -0.0102891
7.24544 71.472 8.65392 0.426274 0.904526 -0.0111273
8.222 71.0013 8.62249 0.43519 0.900317 -0.00626483
9.21252 70.5173 8.59829 0.442115 0.896912 -0.00912927
10.645 69.8062 8.56389 0.446387 0.894761 -0.0118685
11.8673 69.1922 8.53542 0.450879 0.89247 -0.0143376
12.802 68.7194 8.50895 0.451115 0.892295 -0.0174719
13.8986 68.1632 8.48624 0.453599 0.891021 -0.018132
14.8643 67.6709 8.48333 0.452941 0.891321 -0.0197783
16.021 67.0869 8.52893 0.450265 0.892611 -0.022522
17.0917 66.5534 8.65892 0.4443 0.895483 -0.0265944
18.2479 65.9912 8.89317 0.440592 0.897269 -0.0280596
19.2539 65.5184 9.15652 0.430218 0.902057 -0.0347166
20.4749 64.9607 9.55736 0.424144 0.904781 -0.0383829
21.6736 64.4317 10.0066 0.41271 0.909981 -0.0400629
22.9179 63.8987 10.5225 0.407727 0.911953 -0.0458323
23.9059 63.4801 10.9529 0.406783 0.912259 -0.0480762
24.8647 63.0732 11.3825 0.409644 0.910982 -0.0479864
25.9058 62.6253 11.8645 0.415664 0.908346 -0.0461693
26.7817 62.2439 12.2821 0.420312 0.906232 -0.0456147
27.7644 61.8104 12.7571 0.427709 0.903021 -0.040214
28.8673 61.3101 13.3054 0.431866 0.9011 -0.0388619
29.9902 60.7899 13.8706 0.438684 0.897939 -0.0355112
30.891 60.3642 14.3283 0.445178 0.894825 -0.0332511
32.0944 59.7824 14.9411 0.450512 0.892305 -0.0288128
33.1968 59.239 15.5021 0.45685 0.889106 -0.0278999
34.057 58.8089 15.9403 0.461004 0.886956 -0.0280114
34.9169 58.3734 16.3797 0.463703 0.885656 -0.0243667
35.9687 57.8329 16.92 0.467134 0.883856 -0.0241787
36.9175 57.3398 17.4104 0.4716 0.881535 -0.0221112
37.9524 56.7977 17.9501 0.475561 0.879328 -0.0249708
38.8391 56.33 18.4167 0.477696 0.878206 -0.0236826
39.6733 55.8847 18.8586 0.481697 0.876031 -0.023192
40.5379 55.421 19.3172 0.483498 0.875025 -0.0236775
41.4685 54.9187 19.8071 0.48507 0.874169 -0.0231213
42.5799 54.3164 20.3919 0.487673 0.872705 -0.0236665
43.6839 53.7143 20.9758 0.489611 0.871613 -0.0238902
44.7725 53.1175 21.5557 0.491214 0.870703 -0.0241718
45.7588 52.5757 22.0814 0.491181 0.870718 -0.0243139
46.7746 52.0164 22.6245 0.49194 0.870313 -0.0234679
47.3275 51.7119 22.9221 0.491909 0.870332 -0.0234087
-35.0838 71.4211 10.7136 -0.402458 0.915405 -0.00779044
-33.3222 72.1903 10.7626 -0.392563 0.919712 0.00501308
-31.4008 72.9916 10.7596 -0.380644 0.924702 0.00596991
-29.5748 73.7119 10.7514 -0.357229 0.933928 0.012842
-27.7262 74.4031 10.7032 -0.334894 0.942227 0.00735148
-25.5496 75.1444 10.6245 -0.30548 0.951995 0.0196984
-23.5531 75.7429 10.5214 -0.274001 0.961372 0.0262341
-21.3514 76.3035 10.4223 -0.21868 0.975402 0.0277356
-19.3414 76.7225 10.3308 -0.1734 0.984452 0.0280567
-17.1737 77.0364 10.2339 -0.127664 0.991733 0.0129725
-15.269 77.215 10.1602 -0.0778296 0.99662 0.0263071
-13.2635 77.2944 10.099 -0.0118211 0.998987 0.0434171
-11.1179 77.2254 10.0231 0.0559175 0.998122 0.0250134
-8.9974 77.0205 9.92783 0.153444 0.988149 0.00393005
-6.47905 76.5548 9.88334 0.204565 0.978849 0.00281931
-4.58721 76.1066 9.83874 0.251417 0.967833 0.00938931
-2.58276 75.5209 9.76874 0.313158 0.949689 0.004758
-0.56571 74.8205 9.73073 0.334003 0.94257 -0.00184544
1.75423 73.9216 9.72037 0.376293 0.9265 -0.00157568
3.67366 73.1198 9.68347 0.389555 0.920983 0.00610851
5.67114 72.2163 9.63477 0.412791 0.910797 -0.00719647
7.50123 71.3576 9.57676 0.436843 0.899511 -0.00694563
9.53574 70.3678 9.52586 0.442258 0.896819 -0.0110904
11.3823 69.4502 9.49037 0.446748 0.894609 -0.00956853
13.0913 68.5908 9.44709 0.450859 0.892528 -0.010942
14.9551 67.6446 9.42643 0.449856 0.892924 -0.017761
16.8149 66.7171 9.57024 0.444248 0.895657 -0.0210267
18.513 65.8958 9.90299 0.429266 0.902701 -0.0293348
20.528 64.9748 10.5232 0.418454 0.907585 -0.0344335
22.5754 64.0914 11.339 0.404837 0.913344 -0.0437039
20.5503 65.0035 11.4775 0.414814 0.909355 -0.031656
18.5131 65.9261 10.8419 0.424161 0.905263 -0.0242318
16.8152 66.739 10.5117 0.44254 0.896483 -0.0218216
14.9275 67.6772 10.3666 0.449856 0.892924 -0.0177604
13.0474 68.6245 10.4004 0.450291 0.892817 -0.0107646
11.2431 69.5288 10.43 0.447116 0.894434 -0.00870631
9.29839 70.4914 10.4674 0.437824 0.899044 -0.00543085
7.4284 71.3982 10.5158 0.435514 0.900166 -0.00537673
5.22362 72.4241 10.585 0.410001 0.912067 -0.00574008
3.20899 73.3136 10.6382 0.389754 0.920913 0.00342065
1.37043 74.0768 10.6585 0.371754 0.928329 0.00196321
-0.467985 74.7839 10.6792 0.34908 0.937066 -0.00706179
-2.30547 75.4227 10.7135 0.315547 0.948862 0.0095511
-4.51174 76.0723 10.7845 0.2681 0.963287 0.0141333
-6.61802 76.5763 10.8462 0.195902 0.980618 0.00310205
-8.73536 76.9628 10.8827 0.161034 0.986634 0.0249127
-11.1332 77.2044 10.9837 0.057359 0.998115 0.0218157
-13.8064 77.2562 11.0802 -0.016502 0.999539 0.025472
-15.7187 77.1562 11.1454 -0.0785817 0.996616 0.0241336
-17.7818 76.949 11.2402 -0.124738 0.992159 0.00785301
-19.8882 76.5802 11.3332 -0.194181 0.980404 0.0331843
-21.7586 76.1823 11.418 -0.226068 0.973543 0.0332887
-23.6476 75.6899 11.5014 -0.272438 0.96185 0.024947
-25.49 75.1429 11.5994 -0.297247 0.954447 0.0259855
-27.5872 74.4346 11.6811 -0.338288 0.940719 0.0246869
-29.6774 73.6594 11.7395 -0.354714 0.934912 0.0108587
-31.6768 72.8732 11.7747 -0.37726 0.926104 0.00250196
-33.5256 72.106 11.7782 -0.390621 0.92051 -0.00877156
-34.9123 71.5051 11.7274 -0.401232 0.915935 -0.00871374
-34.5366 71.683 12.7381 -0.397848 0.917344 -0.0140287
-32.7667 72.4292 12.8076 -0.382796 0.923821 -0.0046137
-30.9027 73.1813 12.7636 -0.364959 0.931004 0.00600554
-29.0994 73.8659 12.7227 -0.34551 0.938292 0.0151769
-27.137 74.572 12.644 -0.329637 0.94379 0.0245089
-25.1838 75.2099 12.5522 -0.287624 0.957303 0.0290376
-23.2 75.7868 12.4557 -0.241106 0.969593 0.04191
-20.8603 76.3458 12.3562 -0.211627 0.976668 0.0365075
-18.985 76.7353 12.2726 -0.194272 0.98069 0.0224908
-16.8637 77.045 12.1681 -0.104542 0.994355 0.0181231
-14.9057 77.187 12.0825 -0.0631152 0.997784 0.0210655
-12.7473 77.2337 12.0053 0.0114715 0.999334 0.0346262
-10.795 77.1384 11.929 0.06436 0.99675 0.0484544
-8.46035 76.893 11.837 0.137867 0.989515 0.0430402
-6.5362 76.5562 11.8065 0.203903 0.978989 -0.00202063
-4.61539 76.0922 11.7373 0.267893 0.963449 0.000603592
-2.44398 75.45 11.6711 0.305304 0.952104 0.0169868
-0.494907 74.7976 11.6347 0.332598 0.94305 0.00600065
1.64195 73.9712 11.5961 0.371226 0.928525 -0.00565538
3.72907 73.0921 11.5609 0.393338 0.919391 -0.0024004
5.54922 72.2813 11.5088 0.416204 0.909268 -0.00255991
7.69729 71.2735 11.4489 0.428994 0.903304 -0.00248353
9.87254 70.2178 11.3894 0.441394 0.8973 -0.00495152
11.6577 69.3304 11.359 0.44711 0.894439 -0.00847964
13.5295 68.3933 11.3379 0.450128 0.892888 -0.0116719
15.2613 67.5267 11.3238 0.446649 0.894586 -0.0148428
17.1534 66.5957 11.5116 0.437808 0.898872 -0.0188087
18.9579 65.7446 11.9012 0.422158 0.906302 -0.0199676
17.4904 66.4553 12.514 0.433699 0.900996 -0.0105548
15.7386 67.3011 12.2818 0.438197 0.898819 -0.0103868
13.961 68.1876 12.2806 0.445532 0.895249 -0.00541804
11.9251 69.2047 12.2908 0.446482 0.894761 -0.00756546
9.62477 70.3455 12.3284 0.441477 0.897254 -0.0057035
7.81897 71.2195 12.3859 0.428332 0.903606 -0.00526751
5.95598 72.0982 12.4374 0.420504 0.90729 -0.0014717
3.9124 73.02 12.4991 0.401769 0.915736 -0.00291195
2.09658 73.7868 12.5266 0.386135 0.922442 -0.000592568
0.280305 74.5084 12.5675 0.339168 0.940697 0.00737933
-1.53066 75.1421 12.6085 0.316706 0.948461 0.0108787
-3.3767 75.7389 12.6369 0.296993 0.954853 0.00714123
-5.4058 76.2954 12.7186 0.248511 0.968616 0.00494678
-7.5728 76.727 12.7849 0.161949 0.986556 0.021921
-9.51913 76.9946 12.8394 0.11676 0.992682 0.0308252
-11.6459 77.1543 12.9202 0.0622309 0.997312 0.0386842
-13.8455 77.1983 13.0078 -0.0126465 0.999469 0.0300268
-16.0294 77.0955 13.0989 -0.0896754 0.995732 0.0217986
-18.2496 76.8445 13.2083 -0.166014 0.985722 0.0281274
-20.3771 76.435 13.3134 -0.201042 0.979419 0.017925
-22.8866 75.8424 13.4272 -0.249664 0.968235 0.0137453
-25.0505 75.224 13.5212 -0.28523 0.95819 0.0227264
-27.074 74.5781 13.6263 -0.327492 0.944739 0.0147105
-29.4336 73.7345 13.7266 -0.341426 0.93989 0.00586983
-31.2217 73.055 13.7681 -0.357504 0.933896 0.00536931
-33.0963 72.3046 13.7676 -0.380666 0.924611 -0.0137068
-34.724 71.6235 13.7226 -0.397961 0.917139 -0.0219912
-33.0205 72.3501 14.728 -0.378789 0.925361 -0.0150331
-30.6101 73.2884 14.7365 -0.355465 0.934656 -0.0079576
-28.6124 74.0267 14.6789 -0.341355 0.939915 0.0060385
-26.4534 74.771 14.5693 -0.30862 0.950984 0.0195888
-24.5684 75.3476 14.4796 -0.278282 0.960377 0.0153104
-22.5742 75.9001 14.3915 -0.256988 0.966086 0.0251912
-20.6226 76.3638 14.2985 -0.200648 0.979396 0.0229035
-18.3925 76.7868 14.1845 -0.156465 0.987072 0.0347443
-16.4983 77.0289 14.0908 -0.098407 0.994745 0.0282577
-14.303 77.1649 13.9941 -0.0158895 0.999692 0.0190554
-12.2867 77.1563 13.8983 0.0382591 0.998504 0.0390704
-10.2788 77.0327 13.8343 0.0730884 0.996883 0.0297016
-7.82925 76.7483 13.7503 0.151175 0.988083 0.0289455
-5.49322 76.29 13.6747 0.222159 0.974501 0.0315223
-3.35355 75.7165 13.5911 0.286977 0.957601 0.0253711
-1.22322 75.0309 13.5495 0.324143 0.945932 0.0120043
0.846313 74.297 13.5032 0.353073 0.935516 0.0122134
2.76993 73.506 13.4547 0.384631 0.923069 -0.00137346
4.55308 72.7426 13.4053 0.40922 0.912411 -0.00674266
6.35478 71.9189 13.3584 0.423953 0.905641 -0.00882482
8.39164 70.9509 13.3098 0.43338 0.901194 -0.00557656
10.568 69.8863 13.2505 0.443037 0.896468 -0.00799232
12.3626 68.9941 13.2041 0.448727 0.893654 -0.00510827
14.189 68.0796 13.219 0.445372 0.89533 -0.00524358
15.8265 67.2686 13.2393 0.43739 0.899257 -0.0052444
14.318 68.0199 14.1598 0.446265 0.894892 -0.00382864
12.5498 68.9055 14.1491 0.448726 0.893655 -0.0051088
10.5717 69.8906 14.1891 0.442349 0.896842 -0.00100513
8.77089 70.7727 14.2342 0.435945 0.899964 -0.00416739
6.80549 71.7113 14.2883 0.426847 0.904318 -0.00314984
4.77245 72.6511 14.3477 0.409435 0.912332 -0.00369068
2.81714 73.4874 14.3942 0.383867 0.923388 -0.000490668
0.917399 74.2554 14.4457 0.36515 0.930909 0.00864398
-1.58183 75.1439 14.5024 0.311381 0.95028 0.00300618
-3.4109 75.7132 14.5435 0.288699 0.957402 0.00589224
-5.34345 76.2403 14.6116 0.242712 0.970016 0.0126722
-7.2341 76.6265 14.6841 0.182045 0.983036 0.0223453
-9.21489 76.9046 14.758 0.113453 0.993434 0.0147189
-11.3631 77.0714 14.8326 0.0575255 0.99779 0.0332512
-13.5508 77.1394 14.9171 0.00535912 0.999732 0.0225287
-15.945 77.0614 15.0288 -0.0769612 0.996563 0.0306536
-18.0472 76.8039 15.1358 -0.146219 0.988373 0.041702
-20.0996 76.4488 15.2398 -0.19723 0.9801 0.0224401
-21.9847 76.0283 15.3381 -0.228917 0.972999 0.0294886
-23.9495 75.5084 15.4329 -0.272686 0.961897 0.0198933
-26.0822 74.8689 15.5353 -0.301719 0.953218 0.0184657
-27.9099 74.2635 15.6299 -0.325695 0.945415 0.01059
-29.9391 73.542 15.7196 -0.34492 0.93863 0.00222177
-30.7574 73.2351 15.7115 -0.348948 0.937137 -0.00320224
-28.7129 73.9762 16.6465 -0.327893 0.944704 0.00452631
-26.7185 74.6498 16.5473 -0.304296 0.952517 0.0107227
-24.7888 75.2438 16.4524 -0.280103 0.959705 0.0225672
-22.8163 75.7919 16.3515 -0.241418 0.970128 0.0238502
-20.8699 76.2593 16.2476 -0.22518 0.974086 0.0212132
-18.9074 76.6413 16.1416 -0.15259 0.987816 0.0305853
-16.9838 76.9046 16.0482 -0.106737 0.993382 0.0424241
-15.067 77.0786 15.9524 -0.043146 0.998317 0.0387548
-13.1458 77.1156 15.8624 0.00579969 0.999697 0.0239203
-10.9254 77.0297 15.7778 0.062782 0.997981 0.00961768
-8.79135 76.8342 15.6997 0.125915 0.99204 0.00145423
-6.80789 76.5266 15.6193 0.17702 0.984135 0.0119032
-4.47348 75.9977 15.5281 0.257162 0.966355 0.00496059
-2.63277 75.4696 15.4738 0.289258 0.957168 -0.0126466
-0.522429 74.7842 15.4255 0.328262 0.944586 -0.00145521
1.82972 73.8952 15.3586 0.37087 0.928685 0.000335857
3.81891 73.0628 15.3234 0.394097 0.919063 0.00335005
5.69115 72.2345 15.2488 0.418466 0.908218 0.00514346
7.47569 71.4006 15.2145 0.429585 0.903011 -0.00531164
9.3449 70.4981 15.1469 0.439913 0.898036 -0.00277792
11.1708 69.5955 15.1169 0.442601 0.896718 -6.9381e-05
11.4238 69.4706 15.1148 0.44493 0.895565 0.000619348
-27.8112 74.2782 17.5862 -0.318273 0.947977 0.00642495
-25.1114 75.1331 17.4428 -0.282457 0.959135 0.0166776
-22.4397 75.8568 17.3003 -0.230841 0.972721 0.0229547
-19.7738 76.4634 17.1509 -0.190683 0.981147 0.0314761
-16.9334 76.8748 17.0099 -0.110373 0.993367 0.032237
-14.2268 77.0766 16.875 -0.0248799 0.999102 0.034302
-11.3761 77.046 16.7536 0.0647985 0.997744 0.0175359
-8.49869 76.7957 16.6429 0.116528 0.993128 0.0108797
-5.77376 76.3146 16.5275 0.221924 0.975031 0.00807033
-2.82732 75.5347 16.4214 0.280782 0.959764 0.00385275
-0.176252 74.6576 16.3545 0.336196 0.941782 -0.00440739
2.62773 73.5676 16.2809 0.37953 0.925166 -0.00501722
5.20022 72.4599 16.212 0.409631 0.912251 -0.000398011
7.36643 71.4567 16.1472 0.432137 0.901805 -0.00236631
3.93436 73.0221 17.2033 0.391904 0.919964 -0.00883833
1.16816 74.1664 17.2629 0.367694 0.929945 -0.00177234
-1.80458 75.2156 17.3346 0.317653 0.948194 0.00493971
-4.39707 75.9767 17.4246 0.261476 0.965193 -0.00570802
-7.08745 76.5516 17.5258 0.184171 0.982798 0.0137638
-9.79849 76.9136 17.6457 0.0787161 0.996804 0.0136164
-12.6566 77.0515 17.763 0.0175488 0.999293 0.0332528
-15.3563 76.9832 17.8913 -0.0640038 0.997453 0.0314723
-18.191 76.6867 18.037 -0.125443 0.991242 0.0412619
-21.1218 76.1488 18.1958 -0.208228 0.977807 0.0231189
-23.7691 75.497 18.3418 -0.26638 0.963683 0.0188961
