1.45251 74.6897 3.30789 -0.389859 -0.920865 0.0043405
2.86014 74.0911 3.21357 -0.397647 -0.91752 0.00590523
4.1334 73.5265 3.12166 -0.415888 -0.909338 0.011874
5.72566 72.7852 3.01615 -0.429129 -0.903199 0.00888999
7.05785 72.1476 2.94081 -0.433144 -0.901285 0.00846659
8.37962 71.5001 2.87081 -0.439937 -0.89797 0.0102471
9.52043 70.9306 2.832 -0.449091 -0.893421 0.0107872
10.5987 70.3785 2.7779 -0.458031 -0.888799 0.0156058
11.6936 69.8105 2.70565 -0.460012 -0.887749 0.0170244
12.8572 69.2025 2.6269 -0.462042 -0.886599 0.0214387
13.9563 68.6206 2.60258 -0.469273 -0.882728 0.0239711
15.3044 67.8996 2.5277 -0.470362 -0.882074 0.026541
16.5212 67.249 2.4876 -0.469239 -0.882399 0.0344492
17.7649 66.5833 2.45971 -0.46718 -0.883222 0.0407543
19.044 65.9105 2.54605 -0.470275 -0.881231 0.0476751
20.1206 65.362 2.80559 -0.458133 -0.886965 0.0583751
19.7579 65.475 1.62315 -0.470028 -0.880858 0.0562285
18.2323 66.2863 1.50542 -0.477801 -0.877333 0.0446504
16.9376 66.9888 1.57178 -0.471757 -0.880972 0.0365207
15.6625 67.6771 1.62113 -0.474968 -0.879485 0.0301876
14.2527 68.437 1.68273 -0.470986 -0.88184 0.0230423
13.1634 69.0184 1.71844 -0.467938 -0.883475 0.0224923
11.8534 69.7092 1.78553 -0.465014 -0.88505 0.021203
10.6571 70.3329 1.86369 -0.459037 -0.888302 0.0142924
9.49101 70.9329 1.91124 -0.453789 -0.890994 0.0143395
8.22301 71.5669 1.94593 -0.441602 -0.897151 0.0103917
6.97039 72.1811 2.0081 -0.437453 -0.899216 0.00675852
5.80898 72.7368 2.07406 -0.431219 -0.902241 0.00323343
4.59402 73.3042 2.14528 -0.414572 -0.909986 0.00748991
3.2333 73.9203 2.23797 -0.410781 -0.911655 0.0119532
2.02781 74.4415 2.31655 -0.391858 -0.920008 0.0056381
0.817218 74.9549 2.39833 -0.376441 -0.926426 0.00515191
-0.500456 75.4538 2.49084 -0.340311 -0.940242 0.0115551
-1.66105 75.8694 2.56503 -0.332329 -0.943148 -0.00536038
-2.98072 76.3121 2.65389 -0.304341 -0.952546 -0.00572381
-4.30953 76.7167 2.7465 -0.275847 -0.96119 0.00478401
-5.50473 77.0458 2.82832 -0.257199 -0.966358 -0.00019921
-6.67278 77.3224 2.9053 -0.216031 -0.976386 -0.00130251
-7.87429 77.5745 2.99324 -0.171213 -0.985225 -0.00418529
-9.05547 77.7672 3.07466 -0.157365 -0.987503 -0.00859178
-10.5457 77.9422 3.16917 -0.0999237 -0.99471 -0.0238118
-11.866 78.0415 3.24385 -0.040121 -0.999054 -0.0167981
-13.3061 78.0694 3.33314 0.00314718 -0.999982 -0.00514615
-14.5412 78.0505 3.40851 0.0276836 -0.999467 -0.0173143
-15.8261 77.9669 3.47074 0.0891318 -0.995728 -0.0240989
-17.0946 77.84 3.53252 0.121594 -0.992243 -0.0258773
-18.5145 77.6435 3.58461 0.152097 -0.988188 -0.0187315
-19.7336 77.43 3.62272 0.181313 -0.983124 -0.024338
-21.0038 77.1752 3.66027 0.215541 -0.976227 -0.0228863
-22.3151 76.8707 3.69663 0.253229 -0.966938 -0.0301051
-23.538 76.5325 3.72323 0.283672 -0.958837 -0.0127312
-24.716 76.1779 3.74541 0.298973 -0.954094 -0.0178604
-26.1407 75.72 3.77146 0.320834 -0.946839 -0.0236993
-27.3549 75.2986 3.79372 0.336627 -0.941415 -0.0204888
-28.8621 74.7369 3.80598 0.353944 -0.934874 -0.0270943
-30.3213 74.1784 3.78327 0.36992 -0.928629 -0.02842
-31.4396 73.722 3.76186 0.389613 -0.920531 -0.0286997
-32.7179 73.1739 3.73885 0.395142 -0.918071 -0.0317677
-34.3885 72.4292 3.70673 0.408878 -0.911985 -0.0332102
-34.9497 72.174 3.69369 0.415715 -0.908592 -0.0405197
-35.1837 72.1016 2.72416 0.418659 -0.907764 -0.026236
-33.8002 72.7274 2.75972 0.408874 -0.911986 -0.0332142
-32.7071 73.2109 2.78298 0.395953 -0.917748 -0.0309958
-31.4901 73.7266 2.81 0.384881 -0.922632 -0.0248586
-30.1191 74.2856 2.83699 0.364048 -0.931034 -0.0253846
-28.6425 74.8478 2.85336 0.354211 -0.934765 -0.0273793
-27.4216 75.2974 2.84118 0.332337 -0.942891 -0.0225565
-26.2811 75.6952 2.82314 0.310319 -0.950461 -0.0180721
-24.9508 76.1231 2.80007 0.30284 -0.952765 -0.0229673
-23.4834 76.563 2.77325 0.283424 -0.958852 -0.0165666
-22.2825 76.8995 2.7506 0.248635 -0.968521 -0.0121989
-20.6861 77.2658 2.71115 0.205349 -0.978473 -0.0205754
-19.3739 77.5167 2.67673 0.169193 -0.985526 -0.0105721
-18.1243 77.7214 2.63929 0.157228 -0.987482 -0.0126148
-16.9055 77.8864 2.59067 0.112896 -0.993325 -0.0236412
-15.5705 78.0108 2.52226 0.0787238 -0.996854 -0.00920587
-13.9732 78.073 2.43137 0.00970728 -0.999949 -0.00276455
-12.7427 78.0771 2.34785 -0.00860958 -0.999947 -0.00562321
-11.5264 78.0399 2.27771 -0.067575 -0.997704 -0.00454775
-10.2199 77.9185 2.19808 -0.113099 -0.993578 -0.00343654
-8.63403 77.7089 2.09001 -0.148279 -0.988943 -0.0022684
-7.30564 77.4664 1.98978 -0.196266 -0.980547 -0.00280363
-5.93423 77.1533 1.89346 -0.223746 -0.974647 -0.000214294
-4.73181 76.8426 1.81337 -0.269126 -0.963088 -0.00573737
-3.49929 76.4791 1.73126 -0.279651 -0.9601 -0.00203835
-2.27754 76.0872 1.65001 -0.325917 -0.945398 -0.00112035
-0.868816 75.5848 1.56365 -0.34638 -0.938093 0.00129872
0.540369 75.0558 1.46814 -0.366555 -0.930393 0.00233123
1.84538 74.5166 1.38038 -0.391307 -0.920259 0.00158247
3.07352 73.9808 1.30297 -0.40703 -0.913346 0.0112142
4.21118 73.4691 1.22888 -0.410501 -0.911811 0.00949093
5.34943 72.9446 1.16377 -0.423385 -0.905885 0.0108916
6.51153 72.395 1.10528 -0.434033 -0.900873 0.00662263
7.68358 71.8228 1.04803 -0.442235 -0.896849 0.00948563
8.8011 71.2653 1.01403 -0.447368 -0.894281 0.0111323
10.0178 70.6467 0.977235 -0.457109 -0.889353 0.0101298
11.2131 70.0278 0.919085 -0.462704 -0.886366 0.0161329
12.3726 69.4162 0.849041 -0.468224 -0.883453 0.0166299
13.9743 68.5628 0.802575 -0.472701 -0.880965 0.0213178
15.1057 67.9503 0.76376 -0.475361 -0.879344 0.02805
16.1612 67.3759 0.713568 -0.478036 -0.87779 0.0310894
17.512 66.6382 0.633851 -0.479477 -0.876511 0.0427767
18.704 65.9815 0.565089 -0.477801 -0.877333 0.0446515
19.3404 65.6393 0.607895 -0.47926 -0.875974 0.0545898
19.39 65.5547 -0.354963 -0.484528 -0.873414 0.048787
18.1181 66.2594 -0.328357 -0.481962 -0.875048 0.0447635
16.9117 66.9308 -0.227813 -0.482108 -0.875402 0.0352486
15.5483 67.6804 -0.141245 -0.478203 -0.877785 0.0285494
14.4436 68.2845 -0.112985 -0.476922 -0.878613 0.0241838
13.1816 68.9659 -0.0685576 -0.470772 -0.882057 0.018653
12.0883 69.5496 -0.0422113 -0.468437 -0.883328 0.0172654
11.0348 70.1071 0.0166916 -0.461998 -0.886774 0.0138058
9.85983 70.7177 0.0821911 -0.458762 -0.888473 0.0123331
8.59628 71.3565 0.109182 -0.447337 -0.894296 0.0111466
7.14607 72.0772 0.156948 -0.43997 -0.897943 0.0112014
5.68957 72.775 0.222046 -0.42466 -0.905318 0.00798551
4.37227 73.388 0.277583 -0.417844 -0.908446 0.0114641
3.16506 73.934 0.354115 -0.409822 -0.912153 0.00465245
1.9597 74.4653 0.430738 -0.397737 -0.917472 0.00708719
0.808601 74.9446 0.503607 -0.373949 -0.927406 0.00900051
-0.453127 75.4267 0.587049 -0.34905 -0.937056 0.00954695
-1.85291 75.9387 0.665569 -0.328536 -0.944485 0.00362905
-3.11067 76.3622 0.745892 -0.307756 -0.951458 -0.00357416
-4.54557 76.7939 0.840126 -0.268342 -0.963322 0.00176097
-5.7193 77.1055 0.916624 -0.24814 -0.96872 -0.00270935
-6.88451 77.3932 0.990033 -0.211112 -0.977304 -0.0175639
-8.51653 77.691 1.12 -0.153185 -0.988197 0.00028528
-9.76798 77.8707 1.20442 -0.123571 -0.992306 -0.00767011
-11.4573 78.031 1.3154 -0.0614186 -0.998101 0.00465345
-12.8993 78.0837 1.40751 -0.0133336 -0.999911 -0.000406569
-14.1612 78.068 1.48973 0.0156066 -0.999876 0.00216878
-15.4532 78.0247 1.57341 0.0700513 -0.997526 -0.00597364
-16.7485 77.9183 1.64783 0.101929 -0.994778 -0.00529674
-17.933 77.7609 1.69739 0.138727 -0.990242 -0.0132159
-19.6164 77.4789 1.75023 0.177163 -0.984162 -0.00622378
-21.2244 77.1619 1.7838 0.221064 -0.975092 -0.01805
-22.4749 76.8622 1.80858 0.24823 -0.968616 -0.012879
-23.8317 76.48 1.8326 0.285974 -0.957971 -0.0225941
-25.1318 76.0865 1.85521 0.289407 -0.956932 -0.0228888
-26.4017 75.6753 1.8742 0.309405 -0.950696 -0.0211136
-27.6223 75.2493 1.88792 0.330235 -0.943609 -0.0233994
-28.9693 74.7489 1.89121 0.354192 -0.934829 -0.0253615
-30.2987 74.2392 1.88398 0.369498 -0.928869 -0.0259508
-31.5553 73.7298 1.85894 0.384224 -0.922687 -0.0319417
-33.1914 73.0347 1.81884 0.395063 -0.918125 -0.0311767
-34.3093 72.5373 1.7876 0.416434 -0.908539 -0.0337554
-34.9508 72.2431 1.76667 0.419567 -0.907059 -0.0347627
-34.9082 72.3043 0.807628 0.415344 -0.908661 -0.0427119
-33.6531 72.8671 0.852915 0.40215 -0.91491 -0.0348701
-32.4518 73.386 0.888838 0.394523 -0.918194 -0.0356613
-31.3349 73.8522 0.914991 0.378861 -0.925089 -0.0259802
-29.8498 74.4434 0.936978 0.361413 -0.932036 -0.0262674
-28.4861 74.9567 0.946544 0.348302 -0.937045 -0.0251598
-27.2469 75.4064 0.936022 0.328971 -0.943945 -0.0272975
-25.9351 75.8504 0.920673 0.311031 -0.950094 -0.0241041
-24.6391 76.2582 0.902824 0.289529 -0.956899 -0.0227401
-23.3535 76.6442 0.879681 0.284968 -0.958182 -0.0260677
-22.1043 76.9725 0.856424 0.229233 -0.973289 -0.012642
-20.577 77.3125 0.829819 0.193318 -0.981117 -0.00612406
-19.2373 77.5622 0.80279 0.167052 -0.985878 -0.0117904
-17.7701 77.796 0.756661 0.15248 -0.988242 -0.0113355
-16.2832 77.9711 0.688937 0.101929 -0.994778 -0.00529693
-14.8061 78.0647 0.572541 0.0230553 -0.999715 -0.00626007
-13.4715 78.084 0.478899 0.00387304 -0.999992 -0.000457324
-11.957 78.0598 0.377342 -0.0386145 -0.999244 0.00455528
-10.589 77.9775 0.310747 -0.0837361 -0.996456 -0.0080372
-9.40331 77.8361 0.210191 -0.13751 -0.990435 -0.011409
-8.17738 77.6416 0.14105 -0.160173 -0.987088 -0.00152711
-6.9917 77.4224 0.0312972 -0.237203 -0.971459 -0.00119191
-5.80489 77.1262 -0.0405569 -0.242351 -0.970188 0.00118789
-4.52991 76.7865 -0.112632 -0.259731 -0.965679 0.00187192
-3.28198 76.4179 -0.197362 -0.30912 -0.951022 0.00137801
-2.1014 76.0264 -0.27087 -0.332048 -0.943262 -0.000616469
-0.592312 75.4703 -0.362711 -0.352866 -0.935667 0.00349583
0.60844 75.0149 -0.428974 -0.363226 -0.931618 0.0124331
1.74342 74.5479 -0.495864 -0.389121 -0.921041 0.0164045
3.16406 73.9281 -0.589214 -0.412018 -0.911152 0.00652809
4.4678 73.3326 -0.655095 -0.417988 -0.908399 0.00983117
5.83513 72.6964 -0.707053 -0.426686 -0.904313 0.0124956
6.96615 72.1516 -0.750659 -0.439509 -0.898126 0.0142061
8.06986 71.607 -0.791281 -0.445632 -0.895106 0.0140489
9.25347 71.0122 -0.816239 -0.452699 -0.891562 0.0134362
10.3615 70.4438 -0.864148 -0.45948 -0.888087 0.0134216
11.4182 69.8882 -0.928445 -0.467528 -0.883827 0.0163555
12.6741 69.2188 -0.962777 -0.471861 -0.881474 0.0187158
13.8336 68.5935 -0.997614 -0.477614 -0.878287 0.0222664
14.9644 67.9755 -1.00774 -0.479633 -0.877092 0.0257307
16.199 67.294 -1.06366 -0.482189 -0.875611 0.0282756
17.4984 66.5696 -1.1734 -0.484636 -0.874126 0.0321085
18.5547 65.9743 -1.26901 -0.489487 -0.871094 0.0399739
19.3369 65.5269 -1.33959 -0.489378 -0.870823 0.0466603
19.4308 65.4299 -2.28021 -0.500225 -0.864932 0.0408337
18.0079 66.2464 -2.13403 -0.491824 -0.870085 0.0325594
16.8911 66.8772 -2.00613 -0.487806 -0.872406 0.030868
15.6038 67.5947 -1.91784 -0.483007 -0.875167 0.0280514
14.2924 68.3187 -1.89059 -0.48063 -0.876645 0.0220899
12.9492 69.051 -1.86768 -0.477326 -0.878464 0.0214648
11.7644 69.6844 -1.85529 -0.469864 -0.882511 0.0200619
10.6473 70.2773 -1.81521 -0.466583 -0.884301 0.0176482
9.54188 70.852 -1.73747 -0.45435 -0.89072 0.0135734
8.44695 71.4067 -1.73184 -0.445119 -0.895371 0.0133986
7.33085 71.9593 -1.68116 -0.440525 -0.89765 0.0126921
5.88396 72.661 -1.64019 -0.429337 -0.90302 0.0149996
4.69281 73.2183 -1.59594 -0.419942 -0.907475 0.0117553
3.52715 73.754 -1.54676 -0.415254 -0.909648 0.0102131
2.3144 74.2899 -1.47554 -0.395137 -0.918566 0.0101318
1.08671 74.8097 -1.3997 -0.383475 -0.923539 0.0048591
-0.374733 75.3838 -1.32367 -0.358758 -0.933414 0.00561404
-1.64239 75.8615 -1.2606 -0.344793 -0.938568 0.0144045
-3.06471 76.351 -1.16572 -0.305173 -0.95224 -0.010417
-4.57229 76.7949 -1.07209 -0.260633 -0.965436 0.00206529
-5.81361 77.1271 -1.00675 -0.239256 -0.970956 5.28598e-05
-7.16989 77.4472 -0.917843 -0.21073 -0.97734 0.0199879
-8.40172 77.682 -0.812497 -0.160272 -0.987052 -0.00635583
-9.66603 77.8773 -0.744131 -0.124462 -0.992211 -0.00506229
-11.2614 78.028 -0.639167 -0.0535668 -0.998449 -0.0151506
-12.9966 78.1032 -0.525002 -0.0180153 -0.999586 -0.0224321
-14.2328 78.0979 -0.444575 0.0169046 -0.999648 -0.0204521
-15.5017 78.047 -0.326617 0.0504787 -0.998651 -0.0121329
-17.0316 77.9236 -0.228928 0.0977716 -0.994782 -0.0291334
-18.6561 77.6876 -0.156958 0.151056 -0.988401 -0.0156737
-20.196 77.4078 -0.122921 0.18661 -0.982237 -0.019681
-21.7008 77.0791 -0.098512 0.228949 -0.973373 -0.0112694
-22.9625 76.7708 -0.078219 0.25388 -0.967179 -0.0105266
-24.1515 76.4342 -0.0591721 0.288027 -0.957186 -0.0289036
-25.3733 76.0585 -0.031913 0.301033 -0.953294 -0.0246781
-26.6106 75.6571 -0.0157639 0.318876 -0.94739 -0.027773
-27.8293 75.2305 -0.00567012 0.330362 -0.943458 -0.0273432
-29.123 74.7493 -0.00320904 0.349567 -0.936406 -0.0307817
-30.249 74.3142 -0.0179457 0.367373 -0.929622 -0.0289904
-31.5047 73.8134 -0.0393451 0.374938 -0.926413 -0.0343707
-32.8323 73.2626 -0.0726689 0.390715 -0.919809 -0.0359529
-33.9771 72.7658 -0.111643 0.409563 -0.911344 -0.0413415
-34.997 72.309 -0.156379 0.415352 -0.908657 -0.0427217
-35.038 72.3365 -1.11402 0.419251 -0.906778 -0.0445335
-33.7842 72.8968 -1.05514 0.398951 -0.915871 -0.0449278
-32.6437 73.3803 -1.01596 0.38877 -0.920664 -0.0351688
-31.3825 73.8994 -0.984972 0.375155 -0.92624 -0.0365734
-30.1183 74.4028 -0.963045 0.363213 -0.930983 -0.0367079
-28.5931 74.9804 -0.951951 0.348643 -0.93656 -0.0360901
-27.074 75.5242 -0.956949 0.330931 -0.943156 -0.030671
-25.8758 75.9212 -0.980581 0.306704 -0.951428 -0.0267833
-24.6231 76.3097 -1.00781 0.289338 -0.957131 -0.0135546
-23.1259 76.7398 -1.03543 0.250763 -0.968008 -0.00882352
-21.6445 77.1089 -1.05488 0.234753 -0.971695 -0.0264441
-20.4602 77.3693 -1.06971 0.217556 -0.976 -0.0097106
-19.1438 77.6201 -1.0967 0.168779 -0.985521 -0.0161721
-17.8584 77.8252 -1.14309 0.151055 -0.988401 -0.0156734
-16.5939 77.9734 -1.22689 0.0986356 -0.995113 -0.00465181
-15.1658 78.077 -1.32428 0.0598583 -0.998167 -0.00889656
-13.9012 78.129 -1.44617 0.0100041 -0.999392 -0.0334073
-12.0905 78.0927 -1.53919 -0.0305883 -0.999357 -0.0187106
-10.6354 77.9938 -1.65476 -0.10519 -0.994378 -0.0121379
-9.40648 77.8388 -1.72887 -0.139167 -0.990167 -0.0141869
-8.18557 77.6359 -1.80565 -0.187786 -0.982205 -0.00323345
-6.87537 77.3726 -1.90753 -0.209525 -0.977769 0.00824542
-5.58426 77.0597 -1.98349 -0.251931 -0.967735 -0.00441968
-4.24544 76.6962 -2.04873 -0.271721 -0.962337 0.00869869
-2.78683 76.2508 -2.14171 -0.306505 -0.951636 0.0210635
-1.38123 75.7508 -2.22422 -0.344793 -0.938568 0.0144044
-0.0317672 75.2417 -2.28655 -0.355265 -0.934687 0.0121469
1.26695 74.7251 -2.35393 -0.37706 -0.926093 0.0133195
2.58035 74.1705 -2.43179 -0.403082 -0.915117 0.00926383
3.83933 73.602 -2.5029 -0.412532 -0.910927 0.00547187
5.11423 73.0145 -2.54805 -0.425472 -0.904942 0.00733157
6.37963 72.4077 -2.57784 -0.433063 -0.901325 0.00829515
7.46058 71.8818 -2.61293 -0.442104 -0.896893 0.0112521
8.54826 71.3415 -2.65313 -0.446458 -0.89469 0.0143051
9.82996 70.6881 -2.69337 -0.456712 -0.889488 0.0150025
10.9305 70.1098 -2.75782 -0.471236 -0.881862 0.015962
12.0003 69.5379 -2.77253 -0.4703 -0.882321 0.0181286
13.1793 68.9046 -2.78131 -0.478146 -0.878046 0.0202911
14.4204 68.224 -2.78643 -0.482482 -0.875598 0.0232224
15.495 67.6305 -2.8033 -0.485289 -0.874011 0.0244919
16.833 66.8793 -2.9191 -0.49045 -0.871134 0.0241708
18.1599 66.1237 -3.04966 -0.49399 -0.868846 0.0328645
19.2562 65.4904 -3.20836 -0.501321 -0.864553 0.0350005
19.3746 65.4204 -3.24247 -0.500621 -0.864936 0.0355587
19.5847 65.2599 -4.29441 -0.504414 -0.863142 0.0234831
18.5399 65.8748 -3.97448 -0.497567 -0.867043 0.0257617
17.2623 66.6079 -3.90054 -0.49166 -0.870377 0.0267425
16.1865 67.219 -3.76862 -0.488229 -0.872394 0.0236742
14.9049 67.9335 -3.69437 -0.483389 -0.875104 0.0229971
13.7693 68.5594 -3.68129 -0.48156 -0.876214 0.0186737
12.3766 69.3172 -3.69866 -0.473451 -0.880661 0.0167152
11.2874 69.9018 -3.68879 -0.471009 -0.881959 0.0172707
10.2039 70.4747 -3.64854 -0.463257 -0.886071 0.0164682
9.05861 71.0686 -3.59912 -0.456514 -0.889579 0.0156012
7.89819 71.6517 -3.55808 -0.444998 -0.895423 0.0139613
6.69854 72.2421 -3.51956 -0.436916 -0.899442 0.0104158
5.5124 72.8134 -3.49165 -0.430895 -0.902335 0.011
4.04835 73.4987 -3.44932 -0.415117 -0.909722 0.00908614
2.58535 74.158 -3.37253 -0.399183 -0.916804 0.0110714
1.28498 74.703 -3.29275 -0.378895 -0.925326 0.0145059
0.0598555 75.1926 -3.23662 -0.358599 -0.93337 0.0151009
-1.22356 75.6818 -3.17888 -0.354208 -0.935127 0.00857891
-2.87483 76.2632 -3.09149 -0.320861 -0.946875 0.0218109
-4.45066 76.7455 -3.00296 -0.275678 -0.96116 0.013168
-6.02097 77.1777 -2.93568 -0.244624 -0.969617 -0.00160976
-7.48502 77.5053 -2.82781 -0.190872 -0.981608 -0.00362107
-9.02402 77.7907 -2.71321 -0.15697 -0.987598 -0.00338316
-10.4606 77.977 -2.61983 -0.102706 -0.994709 -0.00213142
-11.7504 78.0811 -2.56077 -0.0597216 -0.9982 -0.00549744
-12.9984 78.1381 -2.49187 -0.0312459 -0.999354 -0.0177793
-14.3775 78.1392 -2.38119 0.0293728 -0.999517 -0.0101156
-16.071 78.0288 -2.23983 0.084549 -0.996365 -0.0103914
-17.5817 77.8703 -2.14043 0.124308 -0.9922 -0.00931629
-18.9337 77.6682 -2.06509 0.158511 -0.987209 -0.0170863
-20.2317 77.4277 -2.03203 0.191157 -0.981481 -0.0124256
-21.4671 77.173 -2.01673 0.217627 -0.975839 -0.0193983
-22.9186 76.8117 -1.99799 0.253585 -0.967086 -0.0209724
-24.119 76.4858 -1.97443 0.277449 -0.960494 -0.0217802
-25.3565 76.1083 -1.94489 0.299151 -0.953997 -0.0199549
-26.639 75.6945 -1.91483 0.317189 -0.947976 -0.0270664
-28.0293 75.2145 -1.89465 0.337866 -0.940666 -0.0315294
-29.3321 74.7393 -1.90074 0.353025 -0.935003 -0.0337938
-30.8463 74.1551 -1.9193 0.369523 -0.928486 -0.0369506
-32.0165 73.681 -1.94544 0.379976 -0.924045 -0.0419444
-33.3765 73.1138 -1.98904 0.388287 -0.920546 -0.0427548
-34.8244 72.4797 -2.05432 0.41029 -0.91092 -0.0434493
-35.1036 72.3546 -2.06854 0.414805 -0.908785 -0.0452472
-35.1992 72.3694 -3.02422 0.411241 -0.908863 -0.0696347
-33.6196 73.0616 -2.94342 0.388396 -0.920013 -0.0522039
-32.4169 73.5601 -2.90026 0.374753 -0.925949 -0.046675
-31.2566 74.0303 -2.86992 0.370313 -0.927935 -0.0424742
-29.9963 74.5231 -2.85394 0.357055 -0.933395 -0.0358503
-28.8755 74.9378 -2.83516 0.343004 -0.938791 -0.0319287
-27.5173 75.4199 -2.83997 0.325642 -0.945105 -0.0270975
-26.1332 75.8849 -2.87971 0.309221 -0.950756 -0.0210835
-24.928 76.2695 -2.91805 0.295649 -0.954906 -0.0273184
-23.7569 76.6125 -2.94561 0.275419 -0.961016 -0.0243561
-22.5757 76.9191 -2.96732 0.246128 -0.969185 -0.0101084
-21.135 77.2638 -2.98648 0.209825 -0.977659 -0.0125347
-19.5148 77.5763 -3.01719 0.177174 -0.98376 -0.0287419
-18.1927 77.8002 -3.07428 0.143764 -0.98914 -0.0305705
-16.9811 77.9519 -3.16395 0.101702 -0.994567 -0.0222093
-15.5241 78.0797 -3.2637 0.0755215 -0.997142 -0.00228797
-14.1707 78.1386 -3.37077 0.0326545 -0.999466 0.00124588
-12.8569 78.1473 -3.48928 -0.00990875 -0.999768 -0.0191075
-11.2122 78.0487 -3.56151 -0.0616366 -0.998098 0.00058395
-9.658 77.8912 -3.62556 -0.124158 -0.992248 0.00532623
-8.23813 77.6757 -3.74966 -0.177966 -0.983831 -0.0201199
-6.89273 77.3928 -3.83447 -0.216596 -0.976257 -0.00293982
-5.39976 77.0119 -3.93152 -0.264354 -0.964426 0.000288063
-4.24656 76.6822 -3.98415 -0.288123 -0.95756 0.00797786
-2.94822 76.2744 -4.04294 -0.309259 -0.950808 0.01794
-1.77916 75.8765 -4.10374 -0.325123 -0.945616 0.0103086
-0.563925 75.4265 -4.1533 -0.354617 -0.935008 0.00261999
0.817519 74.8876 -4.21717 -0.369507 -0.929198 0.00747818
2.13608 74.3365 -4.2831 -0.38847 -0.921455 0.00356683
3.79344 73.6055 -4.37383 -0.4154 -0.909588 0.00963346
4.88464 73.0997 -4.41445 -0.425818 -0.904702 0.0139051
6.34132 72.4048 -4.45509 -0.434324 -0.90069 0.0110035
7.74139 71.7171 -4.48164 -0.44328 -0.896285 0.0132727
8.96009 71.1014 -4.53132 -0.454243 -0.890681 0.0186971
10.1739 70.4721 -4.57204 -0.462386 -0.886495 0.0180411
11.3906 69.8295 -4.61204 -0.470227 -0.882412 0.0153302
12.5782 69.1929 -4.59965 -0.476569 -0.878965 0.0173644
13.8399 68.5014 -4.58045 -0.482449 -0.875708 0.019423
14.967 67.8772 -4.61486 -0.484822 -0.874386 0.0199144
16.0979 67.2429 -4.68328 -0.490444 -0.871217 0.0211204
17.339 66.5376 -4.84252 -0.493055 -0.869701 0.0227297
18.4264 65.909 -5.02725 -0.498857 -0.866397 0.0223169
19.6444 65.1985 -5.30043 -0.50238 -0.864442 0.0188204
20.071 64.9279 -6.39069 -0.502221 -0.864676 0.0104041
19.0317 65.5357 -6.09934 -0.499527 -0.866076 0.0196042
17.928 66.1735 -5.90799 -0.496008 -0.868109 0.0190573
16.8528 66.7911 -5.71638 -0.494313 -0.86899 0.0226172
15.7706 67.4055 -5.57872 -0.490751 -0.871033 0.0215657
14.5441 68.0913 -5.52297 -0.486942 -0.873213 0.0196602
13.3259 68.7647 -5.49204 -0.48101 -0.87654 0.0175413
12.2417 69.3564 -5.51112 -0.473674 -0.880478 0.0197976
10.9082 70.0686 -5.52065 -0.466491 -0.884335 0.0183802
9.73845 70.6804 -5.48598 -0.458544 -0.888529 0.015903
8.64589 71.2423 -5.45252 -0.45532 -0.89018 0.0162447
7.39203 71.8709 -5.41378 -0.444146 -0.895729 0.0201032
6.05742 72.5227 -5.38827 -0.434859 -0.900281 0.0198061
4.91199 73.0696 -5.36011 -0.429805 -0.902702 0.0199476
3.43124 73.7565 -5.28917 -0.404414 -0.914405 0.0176725
1.96125 74.4016 -5.22432 -0.396938 -0.917789 0.0102309
0.52223 74.9971 -5.15043 -0.369428 -0.929222 0.0083095
-0.730323 75.4878 -5.09682 -0.357355 -0.933957 0.00469538
-1.90539 75.9124 -5.0493 -0.327397 -0.944883 0.00258657
-3.1218 76.32 -4.99444 -0.305078 -0.952326 -0.0014363
-4.6496 76.7976 -4.92917 -0.295558 -0.955324 0.00102353
-6.00341 77.1734 -4.85277 -0.245525 -0.969338 0.0100513
-7.24487 77.47 -4.77278 -0.22155 -0.975007 0.0166538
-8.45151 77.7177 -4.68384 -0.17981 -0.9836 0.0141165
-9.75168 77.9001 -4.59164 -0.121325 -0.992571 -0.00913089
-10.9717 78.0324 -4.54925 -0.0928826 -0.995627 -0.0100121
-12.2654 78.1256 -4.48642 -0.0563216 -0.998397 0.00553072
-13.757 78.1498 -4.38018 0.00858157 -0.99995 0.00519364
-15.0041 78.1161 -4.28665 0.034619 -0.99937 -0.00778683
-16.2616 78.0302 -4.20032 0.0835904 -0.996492 -0.00394274
-17.6663 77.8934 -4.09037 0.119284 -0.992792 -0.0115911
-19.1423 77.6716 -4.00851 0.175929 -0.984017 -0.0275617
-20.8646 77.3345 -3.96493 0.205124 -0.978588 -0.0170002
-22.2174 77.0204 -3.94502 0.232257 -0.972439 -0.0204717
-23.3768 76.7326 -3.92505 0.253786 -0.967135 -0.0155951
-24.6 76.3949 -3.89911 0.274475 -0.96143 -0.01778
-26.0473 75.9377 -3.85071 0.305117 -0.95207 -0.0215988
-27.4418 75.4732 -3.79116 0.320607 -0.946926 -0.0232842
-29.2119 74.8468 -3.78303 0.33845 -0.940403 -0.0330595
-30.3864 74.4102 -3.80154 0.357055 -0.933395 -0.0358513
-31.7299 73.8849 -3.82005 0.370318 -0.927934 -0.0424655
-33.0197 73.3668 -3.86546 0.37957 -0.923775 -0.0506633
-34.3526 72.8096 -3.92014 0.390442 -0.918027 -0.0691518
-35.2824 72.4064 -3.97636 0.405317 -0.910986 -0.0763054
-34.9197 72.6401 -4.90239 0.393085 -0.916908 -0.0690279
-33.7867 73.111 -4.84093 0.377222 -0.923704 -0.0668975
-32.6554 73.5644 -4.78988 0.365688 -0.929042 -0.0561491
-31.4862 74.0231 -4.75867 0.360836 -0.931503 -0.0458151
-30.2099 74.5143 -4.73804 0.352978 -0.934828 -0.0387773
-28.9763 74.9644 -4.7248 0.340676 -0.939538 -0.0347531
-27.7508 75.3932 -4.75622 0.322811 -0.946138 -0.0248319
-26.5555 75.7938 -4.8028 0.311112 -0.950112 -0.0222977
-25.4201 76.1594 -4.84182 0.286625 -0.957894 -0.0168864
-24.2397 76.5159 -4.87789 0.274476 -0.961429 -0.0177904
-23.0145 76.8409 -4.90588 0.233725 -0.972108 -0.0194465
-21.5796 77.1936 -4.93532 0.232264 -0.972437 -0.0204786
-20.3155 77.4657 -4.96324 0.196493 -0.980353 -0.0172706
-19.1433 77.693 -5.00274 0.160845 -0.986898 -0.012685
-17.8458 77.8779 -5.06873 0.131866 -0.991232 -0.00840951
-16.5235 78.0051 -5.16353 0.0911737 -0.995834 0.00127082
-15.2929 78.1062 -5.24581 0.0473279 -0.998879 -0.000688495
-13.6198 78.1404 -5.35759 -0.000176803 -0.999966 0.00823601
-12.2978 78.1129 -5.43559 -0.0419751 -0.999091 0.00745979
-11.0435 78.0381 -5.50382 -0.0777341 -0.99694 0.00824554
-9.71326 77.8929 -5.57366 -0.134548 -0.990897 0.00456828
-8.09467 77.6216 -5.66874 -0.203033 -0.979041 0.0160402
-6.80404 77.3525 -5.75756 -0.200857 -0.979552 0.0115932
-5.58634 77.0581 -5.83474 -0.251983 -0.967698 0.00810798
-4.41993 76.7278 -5.89966 -0.296346 -0.955027 -0.010136
-2.83784 76.2313 -5.96552 -0.307272 -0.951602 -0.00618837
-1.3922 75.7321 -6.02428 -0.341014 -0.940044 0.00512161
-0.057344 75.2173 -6.07423 -0.370242 -0.928847 0.0128262
1.24613 74.6937 -6.12978 -0.38688 -0.922002 0.0153722
2.5268 74.1382 -6.19004 -0.402818 -0.915166 0.0144672
3.8252 73.56 -6.2466 -0.415994 -0.909205 0.0171952
5.01381 73.0024 -6.30306 -0.429464 -0.902944 0.0159062
6.26176 72.4033 -6.33222 -0.436372 -0.899575 0.0185536
7.61889 71.7372 -6.35739 -0.442649 -0.896449 0.0209777
8.76203 71.1647 -6.38521 -0.453675 -0.890993 0.0176468
9.82566 70.6175 -6.41932 -0.460063 -0.887738 0.0162519
10.9221 70.0395 -6.43191 -0.469039 -0.882941 0.0204479
12.3314 69.2865 -6.42887 -0.475351 -0.879557 0.0205183
13.5061 68.6465 -6.42913 -0.48156 -0.876257 0.0165356
14.6148 68.031 -6.45427 -0.488225 -0.872563 0.0163997
15.6769 67.4359 -6.51466 -0.48949 -0.871759 0.0208885
16.7161 66.8469 -6.64441 -0.493224 -0.869672 0.0200346
17.8334 66.2071 -6.82582 -0.494103 -0.869193 0.0191413
18.8989 65.5936 -7.03526 -0.495276 -0.868611 0.014696
19.9616 64.9787 -7.29108 -0.499899 -0.866003 0.0118546
20.168 64.8588 -7.34851 -0.499907 -0.865998 0.0118566
20.7191 64.5337 -8.44579 -0.495695 -0.868464 0.00748854
19.3776 65.3023 -8.08573 -0.494709 -0.868975 0.0120463
18.242 65.9539 -7.8418 -0.494342 -0.869138 0.0149781
17.2159 66.5404 -7.65989 -0.494409 -0.86906 0.0171767
16.1689 67.1364 -7.50976 -0.491922 -0.870433 0.0189702
15.1302 67.7236 -7.41133 -0.490081 -0.871491 0.018001
13.963 68.3762 -7.37285 -0.482225 -0.875783 0.0215241
12.8165 69.0017 -7.36144 -0.478323 -0.877903 0.0221952
11.7588 69.5723 -7.36215 -0.470378 -0.882186 0.0222026
10.4692 70.2595 -7.35923 -0.468726 -0.883193 0.0162911
9.28792 70.8773 -7.33715 -0.457605 -0.888968 0.018263
8.1365 71.4633 -7.30662 -0.446961 -0.894376 0.0178208
6.94837 72.0511 -7.28383 -0.442183 -0.896825 0.0133689
5.7363 72.6407 -7.25803 -0.435952 -0.899853 0.0144978
4.48673 73.2361 -7.22231 -0.428221 -0.903575 0.0133583
3.31482 73.7736 -7.17871 -0.413681 -0.910305 0.0145767
1.94442 74.3804 -7.11544 -0.399522 -0.916592 0.0155579
0.722596 74.8926 -7.05668 -0.378743 -0.925358 0.016311
-0.898607 75.5291 -6.99525 -0.35474 -0.934777 0.0187355
-2.32973 76.0579 -6.94234 -0.333239 -0.942817 0.00695669
-3.4846 76.4455 -6.89415 -0.305739 -0.952111 -0.00297105
-4.72709 76.8273 -6.83669 -0.275508 -0.961276 -0.00660495
-5.93504 77.136 -6.76993 -0.233309 -0.972391 -0.0046671
-7.53494 77.494 -6.67161 -0.198667 -0.980041 0.0071633
-8.82839 77.7449 -6.59126 -0.174476 -0.984488 0.0185053
-10.2936 77.9543 -6.50794 -0.1217 -0.992395 0.0184813
-11.5999 78.0758 -6.43696 -0.0807341 -0.996718 0.00591212
-12.9014 78.1226 -6.36485 -0.013853 -0.999759 0.0170121
-14.1273 78.1354 -6.29064 -0.00584226 -0.999967 0.00562726
-15.4636 78.0976 -6.21204 0.0534432 -0.99857 0.00149666
-17.3289 77.9232 -6.09633 0.104043 -0.994573 0.000259694
-18.5234 77.7871 -6.025 0.142374 -0.989805 0.00397016
-19.7601 77.5856 -5.97115 0.182921 -0.983128 0.000204752
-21.0653 77.3221 -5.93152 0.20497 -0.978704 -0.0111941
-22.5164 76.9777 -5.89602 0.239372 -0.970884 -0.00923952
-23.7224 76.6727 -5.86508 0.26817 -0.963345 -0.00715513
-24.9751 76.31 -5.82872 0.286624 -0.957894 -0.0168861
-26.3526 75.8822 -5.78433 0.30522 -0.951987 -0.0236869
-27.5533 75.4899 -5.74491 0.318687 -0.947297 -0.0326637
-28.9462 75.0089 -5.71196 0.338505 -0.940319 -0.0348447
-30.3791 74.4873 -5.69154 0.353298 -0.934855 -0.0350364
-31.717 73.979 -5.70509 0.353588 -0.934013 -0.0509396
-33.0859 73.4533 -5.75772 0.365708 -0.929046 -0.0559517
-34.1028 73.0521 -5.80992 0.373273 -0.925695 -0.0612833
-33.6421 73.2962 -6.73907 0.367049 -0.927844 -0.0661829
-32.4966 73.734 -6.67934 0.358798 -0.931897 -0.0532094
-31.2846 74.1937 -6.66716 0.35154 -0.934956 -0.0477138
-29.9925 74.6728 -6.67247 0.336803 -0.940791 -0.0384302
-28.7628 75.1084 -6.68443 0.334606 -0.94188 -0.030009
-27.5176 75.5321 -6.72082 0.319832 -0.947077 -0.0274498
-26.2693 75.9345 -6.76602 0.298993 -0.954046 -0.0199965
-25.1275 76.2816 -6.80018 0.286279 -0.958003 -0.0166016
-23.7358 76.6777 -6.84168 0.268782 -0.963138 -0.0109741
-22.3287 77.0333 -6.88298 0.239364 -0.970886 -0.0092415
-21.1646 77.3101 -6.91568 0.199275 -0.979894 -0.00986352
-19.9386 77.5487 -6.95424 0.180591 -0.983541 0.00582977
-18.5244 77.7801 -7.01505 0.135542 -0.990763 0.00411739
-17.0937 77.9528 -7.10088 0.109823 -0.993951 0.000458997
-15.8997 78.0653 -7.16569 0.0787952 -0.996884 0.00367581
-14.5766 78.1404 -7.22854 0.0221336 -0.999755 0.000959309
-13.025 78.1218 -7.32182 -0.0157166 -0.999876 0.000749426
-11.7284 78.0806 -7.39277 -0.0586765 -0.998265 0.00491814
-10.0428 77.9079 -7.48443 -0.12311 -0.992293 0.01406
-8.77934 77.7377 -7.55477 -0.158009 -0.987427 -0.00466317
-7.39409 77.478 -7.63654 -0.216021 -0.976344 -0.00936681
-6.1129 77.1849 -7.71279 -0.224938 -0.97437 0.00252145
-4.88335 76.8601 -7.78138 -0.266123 -0.963872 0.0113936
-3.37229 76.41 -7.85351 -0.296835 -0.9549 0.00738108
-2.04054 75.9461 -7.90637 -0.34279 -0.939399 0.00486284
-0.87576 75.5122 -7.95138 -0.352146 -0.935936 0.00405229
0.489065 74.9713 -8.00324 -0.373171 -0.927663 0.0136061
1.80108 74.4246 -8.05998 -0.383983 -0.923289 0.00972995
3.3852 73.7293 -8.12613 -0.41046 -0.911829 0.00948627
4.69764 73.1221 -8.16813 -0.428115 -0.903624 0.0134708
5.81006 72.5902 -8.19616 -0.435347 -0.900178 0.0123799
7.15831 71.9321 -8.22713 -0.443909 -0.895915 0.0168
8.28446 71.3695 -8.25146 -0.447601 -0.894044 0.0183927
9.40937 70.7943 -8.27668 -0.457338 -0.889072 0.0198112
10.4819 70.2347 -8.29908 -0.463134 -0.886023 0.0216738
11.8264 69.517 -8.30039 -0.471325 -0.881802 0.0167016
12.9791 68.8921 -8.307 -0.479125 -0.877538 0.0191385
14.5476 68.0277 -8.3259 -0.486206 -0.873572 0.0217878
15.9077 67.2647 -8.40039 -0.489511 -0.871776 0.0196675
17.2821 66.484 -8.58838 -0.491978 -0.870434 0.017372
18.4566 65.8154 -8.82591 -0.493968 -0.869376 0.0134281
19.8408 65.028 -9.13901 -0.490032 -0.871676 0.00698494
20.9659 64.3929 -9.42723 -0.491932 -0.870631 -0.0019372
21.4993 64.0933 -9.59557 -0.490367 -0.871512 -0.00244295
21.8215 63.9236 -10.6356 -0.486857 -0.873393 -0.0124341
20.8015 64.4883 -10.2967 -0.482832 -0.875706 -0.00344683
19.3457 65.3 -9.92935 -0.490036 -0.871674 0.0069784
18.2089 65.9434 -9.69382 -0.488063 -0.872718 0.0125518
16.8088 66.7355 -9.44938 -0.49106 -0.870959 0.0170423
15.7681 67.3232 -9.31668 -0.489201 -0.871986 0.0179835
14.6658 67.9393 -9.26711 -0.486719 -0.873318 0.0204845
13.4123 68.6334 -9.25204 -0.480747 -0.876629 0.0201023
12.2198 69.2843 -9.24776 -0.476772 -0.878852 0.0175099
11.158 69.8539 -9.23914 -0.468424 -0.883271 0.0202972
10.0153 70.4567 -9.22554 -0.464582 -0.885308 0.0198137
8.85329 71.0605 -9.20646 -0.454119 -0.890713 0.0201646
7.40229 71.7938 -9.17845 -0.447925 -0.893911 0.0168992
6.31201 72.336 -9.15229 -0.434561 -0.900566 0.0116889
4.64946 73.1319 -9.10932 -0.428898 -0.903291 0.0106325
3.49173 73.6718 -9.07522 -0.415153 -0.909647 0.0138063
2.19123 74.2525 -9.02903 -0.401821 -0.915682 0.00817052
1.04077 74.7312 -8.98312 -0.384065 -0.92325 0.0101776
-0.171417 75.2319 -8.93565 -0.367486 -0.929989 0.00863029
-1.39464 75.7046 -8.88599 -0.347928 -0.937512 0.00419607
-2.62949 76.1407 -8.83922 -0.323118 -0.94617 0.0189177
-3.9859 76.5844 -8.77898 -0.285156 -0.958032 0.0293242
-5.26276 76.9533 -8.71502 -0.263568 -0.964279 0.0264319
-6.81128 77.3436 -8.63027 -0.238752 -0.970973 0.0144658
-7.97785 77.5857 -8.56224 -0.184693 -0.982691 0.0144115
-9.35366 77.8098 -8.48576 -0.125003 -0.992128 0.00747593
-10.7092 77.9685 -8.41391 -0.0963787 -0.995119 0.0211784
-12.0584 78.0861 -8.34304 -0.0575154 -0.998223 0.0155579
-13.2618 78.1234 -8.27958 -0.0133938 -0.999909 0.00138182
-14.9407 78.1119 -8.18398 0.0466546 -0.998833 0.0124975
-16.1757 78.0389 -8.11754 0.0797605 -0.996792 0.00670335
-17.6846 77.8818 -8.0493 0.123318 -0.992365 0.0019828
-18.9807 77.7163 -7.97971 0.139662 -0.990199 0.000216136
-20.2532 77.4916 -7.9345 0.181917 -0.983258 -0.0104549
-21.4996 77.2367 -7.89015 0.227327 -0.973798 -0.00636543
-22.6725 76.9575 -7.85431 0.235472 -0.971876 -0.00323025
-24.1122 76.5863 -7.81087 0.263263 -0.964601 -0.0154389
-25.2799 76.2559 -7.77598 0.282014 -0.959167 -0.0216038
-26.6268 75.8417 -7.73307 0.301941 -0.953122 -0.0197305
-28.0456 75.3821 -7.68051 0.319642 -0.94708 -0.0294517
-29.1866 74.9916 -7.65568 0.331906 -0.942698 -0.0340396
-30.4264 74.5569 -7.6389 0.336802 -0.940791 -0.0384298
-31.6556 74.1044 -7.64063 0.350621 -0.935243 -0.0488504
-32.9338 73.6245 -7.64932 0.356581 -0.93257 -0.0562346
-32.6664 73.7832 -8.62514 0.346018 -0.936489 -0.0570912
-31.2656 74.2981 -8.6115 0.342513 -0.938447 -0.0447437
-29.9457 74.7652 -8.62984 0.325685 -0.944714 -0.038006
-28.7654 75.1692 -8.65111 0.322465 -0.945894 -0.0360684
-27.4633 75.5944 -8.68585 0.30579 -0.951813 -0.023334
-26.1459 76.0118 -8.72715 0.29952 -0.953963 -0.0155413
-24.7706 76.4185 -8.77016 0.277348 -0.960686 -0.0126355
-23.2107 76.842 -8.8187 0.254139 -0.967107 -0.0108131
-21.7503 77.1849 -8.86688 0.226052 -0.973935 -0.018737
-19.8475 77.5761 -8.93956 0.198018 -0.980069 -0.0159566
-18.5617 77.7688 -8.98622 0.121329 -0.992556 0.0106061
-17.2046 77.9322 -9.04439 0.116169 -0.993142 0.0131887
-15.9497 78.0418 -9.10751 0.071094 -0.997425 0.00941103
-14.7539 78.112 -9.17178 0.0394014 -0.999154 0.0117501
-13.2977 78.1226 -9.24916 -0.00975533 -0.999932 0.00635489
-12.1051 78.0716 -9.30911 -0.0840051 -0.996355 0.0147948
-10.8581 77.9689 -9.37585 -0.0864446 -0.996249 -0.00393059
-9.20779 77.7709 -9.4602 -0.147961 -0.988977 0.00570184
-7.81446 77.5373 -9.53589 -0.192509 -0.980853 0.0294686
-6.12187 77.1532 -9.62184 -0.245263 -0.969159 0.0240282
-4.85267 76.8146 -9.69269 -0.265675 -0.96375 0.0245418
-3.60541 76.4474 -9.751 -0.306975 -0.951464 0.0219634
-2.37271 76.0351 -9.80587 -0.325257 -0.945488 0.0161542
-1.01121 75.544 -9.86086 -0.352328 -0.935699 0.0182148
0.202152 75.0683 -9.90805 -0.374534 -0.927084 0.0155167
1.66926 74.4589 -9.96005 -0.383849 -0.923337 0.0103922
2.85206 73.9507 -9.99827 -0.40755 -0.913082 0.013573
4.19598 73.3358 -10.0421 -0.416853 -0.90892 0.00992323
5.87414 72.5288 -10.0892 -0.436087 -0.899713 0.0185788
7.16294 71.8958 -10.1215 -0.445768 -0.894979 0.0174264
8.39972 71.2727 -10.1428 -0.449648 -0.893019 0.0182774
9.5823 70.6641 -10.1615 -0.461787 -0.886769 0.0198455
10.6532 70.1 -10.1748 -0.468217 -0.883378 0.0203936
11.7267 69.5271 -10.1863 -0.472214 -0.881189 0.0227925
13.1373 68.763 -10.1958 -0.48147 -0.876207 0.0211536
14.1857 68.1856 -10.1981 -0.485044 -0.874243 0.0207798
15.5072 67.4489 -10.245 -0.487668 -0.872836 0.0183857
16.6218 66.8235 -10.3415 -0.489797 -0.871705 0.0151264
18.0164 66.0381 -10.5694 -0.487212 -0.87319 0.0127674
19.0546 65.4562 -10.7758 -0.484732 -0.874628 0.00775084
20.0869 64.8819 -11.0308 -0.483521 -0.875332 0.000610519
21.2199 64.261 -11.358 -0.481325 -0.876502 -0.00836137
21.5283 64.0949 -11.4609 -0.477331 -0.878633 -0.012629
20.1895 64.8271 -11.9813 -0.478786 -0.877931 0.000452561
18.907 65.5287 -11.6552 -0.482813 -0.875666 0.0100265
17.573 66.2735 -11.395 -0.487208 -0.873193 0.0127035
16.52 66.8623 -11.256 -0.487027 -0.873195 0.0182927
15.4064 67.4854 -11.1728 -0.487042 -0.873169 0.0191279
14.0355 68.2461 -11.1399 -0.482435 -0.875703 0.020019
12.7748 68.9374 -11.1369 -0.479314 -0.877397 0.0207998
11.477 69.6401 -11.1282 -0.472713 -0.881029 0.0181708
10.3486 70.2423 -11.1167 -0.465487 -0.884856 0.0187321
9.19018 70.8472 -11.1006 -0.461816 -0.886749 0.0200633
8.0574 71.427 -11.0844 -0.45144 -0.892071 0.0202626
6.78332 72.0658 -11.0624 -0.444825 -0.895452 0.0172425
5.58313 72.6513 -11.0272 -0.436731 -0.899398 0.0186786
4.15205 73.3368 -10.9863 -0.421489 -0.906579 0.021465
2.75965 73.9707 -10.9426 -0.409412 -0.912038 0.0238395
1.57814 74.4873 -10.9078 -0.388016 -0.9216 0.00989117
0.260145 75.0316 -10.866 -0.372018 -0.928172 0.00995401
-0.94398 75.5019 -10.8236 -0.354117 -0.93514 0.0107029
-2.4996 76.0624 -10.7607 -0.325229 -0.945493 0.016394
-3.68249 76.4524 -10.7058 -0.295344 -0.955089 0.0240321
-5.06464 76.8458 -10.6407 -0.26042 -0.965134 0.0264276
-6.54655 77.2311 -10.5593 -0.235879 -0.971538 0.021814
-7.73299 77.5013 -10.4998 -0.199167 -0.979895 0.0117887
-8.94808 77.7234 -10.4388 -0.158991 -0.987117 0.0179358
-10.2692 77.9207 -10.3761 -0.128829 -0.991663 -0.00267302
-11.7955 78.0451 -10.2949 -0.068208 -0.997534 -0.016522
-13.0624 78.0955 -10.2282 -0.0359242 -0.99914 0.0206989
-14.3049 78.1171 -10.1683 0.0169594 -0.999736 0.0155058
-15.83 78.0377 -10.092 0.0663832 -0.99767 0.015748
-17.1405 77.9269 -10.0276 0.102772 -0.994653 -0.0101505
-18.4933 77.7696 -9.96471 0.124584 -0.992201 -0.00406375
-19.9767 77.5495 -9.90127 0.180029 -0.98366 -0.00173166
-21.1862 77.3162 -9.8631 0.200191 -0.979757 -0.000628647
-22.4379 77.0414 -9.82218 0.225854 -0.974099 -0.0109716
-23.8755 76.6838 -9.77626 0.258488 -0.965873 -0.016512
-25.5001 76.2251 -9.72478 0.277448 -0.960521 -0.020552
-26.7224 75.8539 -9.68888 0.29564 -0.955043 -0.0221477
-28.2454 75.3724 -9.64696 0.306499 -0.951465 -0.0277931
-29.6093 74.9195 -9.6181 0.322085 -0.945874 -0.0398028
-30.9351 74.4602 -9.60119 0.329236 -0.943357 -0.0409915
-31.9502 74.099 -9.5958 0.337339 -0.940032 -0.0504215
-31.214 74.4071 -10.5695 0.328009 -0.94372 -0.0424586
-29.9976 74.827 -10.5928 0.319712 -0.946753 -0.0379786
-28.6639 75.2693 -10.6195 0.30674 -0.951262 -0.0317983
-27.4474 75.659 -10.6482 0.294426 -0.955198 -0.0301819
-26.1099 76.062 -10.6845 0.283638 -0.95877 -0.0175693
-24.6875 76.4725 -10.7259 0.266831 -0.963637 -0.0143115
-23.5022 76.7891 -10.7629 0.243095 -0.969947 -0.0103331
-21.8854 77.1683 -10.8157 0.20821 -0.978078 -0.00343996
-20.536 77.4459 -10.861 0.19478 -0.980845 0.00202311
-19.2017 77.6746 -10.9116 0.154536 -0.987934 0.0102081
-17.6244 77.8838 -10.9802 0.109159 -0.994018 0.00354408
-16.0003 78.0227 -11.058 0.0594736 -0.99823 0.000280644
-14.7595 78.0861 -11.1147 0.0358307 -0.999344 0.00521554
-13.4501 78.1004 -11.1731 -0.00118717 -0.999985 0.00530848
-12.2151 78.0694 -11.2396 -0.0416917 -0.99913 -0.000272686
-11.0224 77.998 -11.3014 -0.0820396 -0.996589 0.00897959
-9.70686 77.8374 -11.3617 -0.153483 -0.988146 0.00315845
-8.50703 77.6399 -11.4219 -0.167032 -0.985945 -0.00342739
-7.11812 77.349 -11.4866 -0.223114 -0.974533 0.022488
-5.80745 77.0378 -11.5664 -0.246907 -0.968971 0.011488
-4.55488 76.6903 -11.6308 -0.270126 -0.962703 0.0153325
-3.23734 76.292 -11.6894 -0.316782 -0.948465 0.00797964
-2.10537 75.9121 -11.738 -0.327438 -0.944815 0.0104283
-0.885562 75.4631 -11.7817 -0.364346 -0.931149 0.0146426
0.502211 74.9155 -11.8274 -0.367674 -0.92973 0.0204504
1.66658 74.4316 -11.8628 -0.391439 -0.919952 0.0215509
2.95606 73.8581 -11.8984 -0.40779 -0.912837 0.0208817
4.559 73.1248 -11.9458 -0.421489 -0.906579 0.0214778
5.64041 72.6035 -11.9805 -0.433111 -0.901102 0.020763
6.77359 72.052 -12.0129 -0.44499 -0.895345 0.0184532
8.09755 71.3853 -12.0335 -0.452104 -0.891746 0.019778
9.30278 70.7672 -12.048 -0.459134 -0.888106 0.0215281
10.5557 70.1128 -12.0654 -0.46702 -0.884012 0.0203573
11.7415 69.4773 -12.0709 -0.474573 -0.879967 0.0209259
12.8749 68.8632 -12.0794 -0.47748 -0.878416 0.0199762
14.4423 68.0003 -12.0839 -0.482577 -0.875617 0.0203291
15.829 67.2298 -12.123 -0.486885 -0.873284 0.0178476
16.9103 66.6266 -12.2061 -0.48525 -0.874223 0.0163226
18.0848 65.9738 -12.3944 -0.484371 -0.874726 0.0154563
19.0877 65.4223 -12.6093 -0.476773 -0.878988 0.00821965
17.716 66.1631 -13.2354 -0.481743 -0.876229 0.0121351
16.4759 66.8504 -13.0942 -0.485124 -0.874229 0.0194451
15.2216 67.5469 -13.0265 -0.484687 -0.874421 0.0215878
13.8973 68.2785 -13.025 -0.482896 -0.875422 0.0211628
12.8145 68.8741 -13.0146 -0.480566 -0.876663 0.0227781
11.4217 69.6281 -13.0027 -0.47403 -0.880284 0.0199145
10.2691 70.2424 -13.006 -0.469068 -0.882926 0.0204117
8.70658 71.0541 -12.9883 -0.458779 -0.888331 0.0197423
7.49539 71.6702 -12.9719 -0.452782 -0.891436 0.0181937
6.39086 72.2222 -12.9569 -0.440309 -0.897672 0.0176889
5.22109 72.7837 -12.9148 -0.431956 -0.901673 0.0199914
4.13516 73.3001 -12.8811 -0.422962 -0.905876 0.022168
2.99573 73.819 -12.8505 -0.40675 -0.91331 0.0204842
1.86108 74.3234 -12.8222 -0.401993 -0.915221 0.0277652
0.602832 74.8521 -12.7867 -0.377231 -0.925645 0.0296495
-0.901251 75.4542 -12.7405 -0.36799 -0.929677 0.0168577
-2.26521 75.9556 -12.6914 -0.329302 -0.944104 0.0151172
-3.66423 76.4131 -12.6355 -0.288385 -0.957463 0.00992138
-5.2363 76.8727 -12.5612 -0.267977 -0.963425 0.000679551
-6.55596 77.2044 -12.4861 -0.231736 -0.972737 0.0090336
-7.76969 77.4918 -12.4156 -0.226888 -0.97389 0.0077972
-8.98711 77.7138 -12.3567 -0.157183 -0.987446 0.0156112
-10.2566 77.8924 -12.295 -0.100472 -0.994543 0.0280933
-11.5975 78.0168 -12.2334 -0.0554092 -0.99791 0.0332555
-12.7924 78.0679 -12.1718 -0.023937 -0.999166 0.0330923
-14.0793 78.0837 -12.1091 0.00465012 -0.999711 0.023603
-15.6902 78.0299 -12.035 0.0596561 -0.997749 0.0306322
-16.9634 77.9398 -11.9815 0.0852412 -0.995871 0.0312181
-18.6573 77.7509 -11.9108 0.123265 -0.992356 0.00596672
-20.0688 77.5324 -11.8519 0.164616 -0.986349 0.00409491
-21.2815 77.2995 -11.8076 0.207255 -0.978284 -0.002377
-22.5858 77.019 -11.7645 0.217019 -0.976167 -0.000231063
-23.7555 76.7365 -11.7285 0.248638 -0.968563 -0.00803573
-24.9084 76.425 -11.6952 0.266912 -0.963635 -0.0128779
-26.2708 76.0373 -11.6579 0.280497 -0.959619 -0.0212724
-27.7105 75.6083 -11.6195 0.288876 -0.956933 -0.0288204
-29.0279 75.1875 -11.5919 0.306562 -0.951089 -0.0380744
-30.4732 74.7094 -11.5654 0.319571 -0.946513 -0.0445816
-31.1206 74.4884 -11.5571 0.32685 -0.943775 -0.0495718
-30.4295 74.7689 -12.5389 0.310762 -0.949554 -0.0421208
-29.2496 75.1548 -12.5635 0.305173 -0.951554 -0.0376017
-27.742 75.6262 -12.5955 0.285622 -0.957993 -0.0258905
-26.14 76.0972 -12.6359 0.280008 -0.959752 -0.0217334
-24.6374 76.5135 -12.6769 0.257514 -0.966182 -0.0133548
-23.3287 76.8544 -12.7143 0.233321 -0.972383 -0.00571518
-21.699 77.2112 -12.7652 0.208755 -0.977968 0.000927953
-20.4018 77.4624 -12.8113 0.179861 -0.983631 0.010983
-19.1726 77.6661 -12.8595 0.141851 -0.989696 0.0195057
-17.9674 77.8181 -12.9071 0.113301 -0.993372 0.019365
-16.7807 77.9347 -12.9541 0.0874513 -0.996157 -0.0048357
-15.5854 78.0046 -13.0079 0.0581445 -0.997789 0.0322027
-14.1418 78.0551 -13.0738 0.0125457 -0.999415 0.0318108
-12.9113 78.0429 -13.1333 -0.0115993 -0.999901 0.00798314
-11.6302 77.9865 -13.1949 -0.0670092 -0.997547 0.0202243
-10.3645 77.8823 -13.2544 -0.0918108 -0.995557 0.020894
-9.12967 77.7198 -13.3126 -0.160354 -0.986783 0.0233775
-7.78603 77.4703 -13.3781 -0.188239 -0.981769 0.0263938
-6.13516 77.097 -13.484 -0.241123 -0.970436 0.010632
-4.86646 76.7641 -13.5441 -0.27042 -0.96257 0.0182058
-3.70844 76.4165 -13.5984 -0.288087 -0.957551 0.0100512
-2.46938 76.0081 -13.6463 -0.335724 -0.941701 0.0220892
-1.10083 75.5081 -13.6954 -0.349974 -0.936519 0.021231
0.461089 74.8903 -13.7419 -0.376877 -0.92617 0.0131734
1.60755 74.4114 -13.7699 -0.398576 -0.916978 0.016997
2.83502 73.8683 -13.7974 -0.410703 -0.911551 0.0199414
3.97635 73.3469 -13.8258 -0.419106 -0.907501 0.0281588
5.37491 72.6896 -13.868 -0.431415 -0.901966 0.018408
6.49107 72.1526 -13.8997 -0.436183 -0.899632 0.0201534
7.70162 71.5441 -13.9193 -0.452499 -0.891479 0.0225833
9.02022 70.8688 -13.9399 -0.45827 -0.888529 0.0224806
10.1205 70.2966 -13.943 -0.464408 -0.885407 0.0194838
11.4961 69.5661 -13.9393 -0.473191 -0.880665 0.0227899
12.6745 68.9275 -13.9389 -0.480188 -0.876887 0.0221017
13.9717 68.2143 -13.9585 -0.482559 -0.875572 0.0226001
15.2749 67.4943 -13.9541 -0.484648 -0.874407 0.0230084
16.393 66.8751 -13.9889 -0.484276 -0.874665 0.0209457
16.7514 66.6763 -14.0265 -0.480815 -0.876644 0.0177059
15.6301 67.2724 -14.8982 -0.484012 -0.874748 0.0234021
14.571 67.8595 -14.8833 -0.483471 -0.874994 0.0253217
13.2417 68.5934 -14.8677 -0.481707 -0.876054 0.0220998
11.9669 69.2894 -14.8862 -0.474908 -0.879784 0.0210256
10.7424 69.9463 -14.8767 -0.471725 -0.881521 0.0198824
9.62251 70.5395 -14.8759 -0.461362 -0.887042 0.0173988
8.47781 71.1282 -14.8699 -0.455851 -0.889873 0.0180661
7.12809 71.8149 -14.8478 -0.452012 -0.891873 0.015725
6.03077 72.3549 -14.8325 -0.435985 -0.899739 0.0196723
4.69634 72.9969 -14.8003 -0.432818 -0.901324 0.0168504
3.52546 73.5383 -14.7688 -0.415226 -0.909594 0.0150312
2.07707 74.1893 -14.7351 -0.409553 -0.912116 0.0176387
0.963066 74.6717 -14.7186 -0.388881 -0.921173 0.0145511
-0.330309 75.194 -14.6808 -0.372459 -0.927941 0.0141538
-1.6132 75.6789 -14.6422 -0.345181 -0.938336 0.0193918
-2.81575 76.1038 -14.6002 -0.320607 -0.946899 0.0243471
-4.42382 76.6172 -14.5319 -0.29475 -0.95532 0.0220269
-5.76314 76.9829 -14.4693 -0.259609 -0.965631 0.0126319
-7.30214 77.3519 -14.3883 -0.206073 -0.978278 0.0225108
-8.80277 77.6407 -14.292 -0.188244 -0.981767 0.0263996
-10.1631 77.8485 -14.2251 -0.118628 -0.992589 0.0263694
-11.698 77.9689 -14.1558 -0.0765554 -0.996949 0.0152488
-13.255 78.0393 -14.0828 -0.00705909 -0.999914 0.0110859
-14.6921 78.0351 -14.0121 0.0136725 -0.999888 0.00608096
-16.1674 77.9747 -13.953 0.0509941 -0.998649 -0.00999961
-17.5129 77.8547 -13.8953 0.115971 -0.993163 0.013318
-18.8172 77.699 -13.842 0.140146 -0.990083 0.00977123
-20.4475 77.4439 -13.7816 0.181828 -0.983295 0.00835327
-21.6272 77.2175 -13.7407 0.198863 -0.979968 0.0108037
-22.9411 76.9414 -13.6992 0.214677 -0.976683 -0.00181622
-24.2026 76.6366 -13.6621 0.250524 -0.968055 -0.0103915
-25.6253 76.2593 -13.6236 0.26223 -0.964831 -0.0183507
-26.911 75.8952 -13.5909 0.279641 -0.959832 -0.0228715
-28.1359 75.5389 -13.5623 0.28618 -0.957667 -0.0312249
-29.3404 75.1633 -13.535 0.300322 -0.95312 -0.0370016
-29.5378 75.1012 -13.53 0.303618 -0.951873 -0.0418743
-29.2903 75.2196 -14.5118 0.299929 -0.953039 -0.0419407
-28.0016 75.6116 -14.5406 0.287239 -0.957244 -0.0343234
-26.521 76.0352 -14.5742 0.266106 -0.963507 -0.0290228
-25.2142 76.3891 -14.6073 0.261872 -0.964946 -0.0174127
-23.6667 76.7858 -14.649 0.229654 -0.973225 -0.00963889
-21.9749 77.1508 -14.7001 0.194639 -0.980867 -0.00398809
-20.4953 77.4332 -14.7488 0.177758 -0.984068 -0.0033962
-18.7223 77.7073 -14.8099 0.143181 -0.989585 0.0148662
-17.1888 77.8884 -14.8686 0.109274 -0.993587 0.0290425
-15.859 77.9966 -14.9203 0.0548234 -0.998183 0.0250207
-14.5849 78.019 -14.9772 0.0125499 -0.999674 0.0222385
-12.9821 78.0204 -15.0561 -0.000469839 -0.999774 0.0212476
-11.6037 77.9573 -15.1155 -0.0647792 -0.997817 0.0128538
-10.1788 77.8233 -15.1918 -0.096732 -0.994848 0.0303224
-8.79711 77.6162 -15.2712 -0.149216 -0.988395 0.028458
-7.47644 77.3617 -15.3562 -0.185153 -0.982625 0.0128806
-6.08242 77.0498 -15.4225 -0.228183 -0.973615 0.00249893
-4.80439 76.7241 -15.4757 -0.274584 -0.961562 0.00182489
-3.64822 76.3703 -15.5314 -0.296714 -0.954965 0.00163196
-2.45062 75.9697 -15.573 -0.33788 -0.941148 0.00877265
-1.12981 75.4866 -15.6248 -0.346134 -0.938102 0.0124788
0.191739 74.9694 -15.663 -0.372455 -0.927942 0.0141478
1.55707 74.4011 -15.6775 -0.399284 -0.916715 0.014319
2.83774 73.8336 -15.7058 -0.409545 -0.912194 0.0132655
3.98051 73.3152 -15.7349 -0.415103 -0.909689 0.0124627
5.42975 72.6324 -15.7606 -0.435471 -0.900124 0.0118941
6.87892 71.9179 -15.7755 -0.445225 -0.895224 0.0186727
8.00022 71.3523 -15.7977 -0.454293 -0.890636 0.0196048
9.46681 70.5998 -15.8056 -0.457845 -0.888806 0.0200449
10.6567 69.9704 -15.8037 -0.470923 -0.881933 0.02064
11.9367 69.2815 -15.8181 -0.477312 -0.878426 0.0232754
13.0815 68.6552 -15.7953 -0.482358 -0.875611 0.0252042
14.4824 67.8819 -15.7997 -0.483294 -0.875091 0.0253375
12.8272 68.7699 -16.7308 -0.482988 -0.875317 0.0233128
11.386 69.5559 -16.739 -0.477032 -0.878568 0.0236584
10.1636 70.2102 -16.725 -0.469652 -0.882539 0.0234963
9.03003 70.8036 -16.7395 -0.457728 -0.888858 0.0204075
7.81754 71.424 -16.7274 -0.453021 -0.89126 0.0206914
6.62011 72.0283 -16.702 -0.446679 -0.894526 0.0173642
5.33741 72.6591 -16.6906 -0.435643 -0.899926 0.0186684
4.23339 73.185 -16.6868 -0.428816 -0.903242 0.0164615
2.70084 73.8813 -16.6526 -0.410834 -0.911601 0.0140896
1.5375 74.3967 -16.6268 -0.404895 -0.914309 0.00999616
0.361072 74.8845 -16.6245 -0.381044 -0.924419 0.0159824
