20.4838 65.9135 -10.9851 -0.485162 -0.874404 0.00509448
19.8397 66.2639 -11.6519 -0.483665 -0.875212 0.00845609
19.034 66.6985 -12.3574 -0.483106 -0.875449 0.0139681
18.0846 67.2087 -13.1988 -0.484602 -0.87455 0.0178861
17.3559 67.6002 -13.7791 -0.485061 -0.874193 0.022358
16.7059 67.9465 -14.4042 -0.485635 -0.873812 0.024551
15.874 68.3869 -15.2473 -0.489304 -0.871718 0.0262461
15.1161 68.7872 -15.983 -0.488367 -0.872216 0.0271185
14.3875 69.177 -16.5508 -0.485996 -0.873616 0.0244284
13.4557 69.6774 -17.2365 -0.48371 -0.874961 0.0216495
12.4943 70.1974 -17.6231 -0.48203 -0.875835 0.023666
11.6351 70.659 -17.9133 -0.478286 -0.877932 0.0218671
10.7109 71.1522 -18.1951 -0.474014 -0.880251 0.0216051
9.78391 71.6459 -18.4757 -0.470353 -0.882249 0.0194346
8.91953 72.0985 -18.6779 -0.464365 -0.885482 0.0166613
7.98824 72.5791 -18.9279 -0.462215 -0.886625 0.0159263
6.87419 73.1476 -19.1627 -0.45418 -0.890809 0.013409
5.77889 73.6942 -19.2742 -0.446792 -0.894586 0.00960635
4.9021 74.1315 -19.3281 -0.43816 -0.898801 0.00894512
3.96185 74.5803 -19.3598 -0.430966 -0.902354 0.00464536
2.84497 75.1012 -19.2754 -0.418358 -0.90827 0.0047374
1.5384 75.6877 -19.1866 -0.401956 -0.915656 0.00241197
0.645375 76.0683 -19.2053 -0.384749 -0.92302 -0.00129895
-0.252459 76.4419 -19.1655 -0.377869 -0.925833 -1.09771e-05
-0.801149 76.6615 -19.1625 -0.368372 -0.929667 -0.00194274
-0.84026 76.6833 -20.1021 -0.370888 -0.928602 -0.0118329
-1.88266 77.0806 -20.072 -0.351504 -0.936112 -0.0117899
-2.78087 77.4134 -19.9541 -0.335428 -0.942026 -0.00871166
-3.71855 77.7279 -19.7279 -0.310429 -0.950245 -0.0258555
-4.68725 78.0265 -19.5226 -0.273863 -0.961682 -0.0129199
-5.54407 78.2553 -19.1707 -0.244766 -0.969329 -0.0177683
-6.46628 78.4753 -19.0904 -0.218649 -0.975642 -0.00542778
-7.49956 78.6784 -19.1154 -0.149776 -0.98847 0.001374
-8.67471 78.8665 -19.0747 -0.144283 -0.989338 -0.00991739
-9.7934 79.01 -19.0105 -0.112326 -0.993588 0.00221736
-11.0256 79.1208 -19.0355 -0.0689586 -0.997173 0.0298546
-12.1364 79.1688 -19.293 -0.0278531 -0.999503 0.0147743
-13.0858 79.1862 -19.6242 -0.0146932 -0.999705 0.018872
-14.2824 79.1748 -19.8263 0.0209043 -0.99954 0.0187465
-15.6791 79.1136 -20.1217 0.0545963 -0.998352 0.012488
-16.7302 79.0423 -20.3924 0.0725599 -0.997256 0.0121417
-18.2306 78.9117 -20.4793 0.0956344 -0.995367 0.00949662
-19.3423 78.7872 -20.5306 0.125253 -0.992091 0.0082353
-20.3319 78.6531 -20.5305 0.146276 -0.989162 -0.0127261
-21.3565 78.4885 -20.5655 0.169266 -0.985566 -0.0030229
-22.334 78.3113 -20.3875 0.18589 -0.982546 -0.00698724
-23.4969 78.0815 -20.2002 0.199405 -0.979819 -0.0138509
-24.427 77.8789 -19.8911 0.225663 -0.973969 -0.0214459
-25.633 77.5785 -19.3929 0.241368 -0.970101 -0.0253333
-26.6707 77.3033 -18.8608 0.247035 -0.968449 -0.0328805
-27.6134 77.0301 -18.2218 0.263793 -0.96371 -0.0409456
-28.4077 76.7788 -17.5908 0.280778 -0.958951 -0.0397002
-29.3081 76.468 -16.6129 0.291255 -0.95558 -0.045097
-29.9836 76.2242 -15.8106 0.292246 -0.955366 -0.0432171
-30.7298 75.93 -14.7004 0.308389 -0.949847 -0.0513969
-31.4001 75.655 -13.7399 0.322142 -0.945015 -0.0553056
-31.9918 75.3823 -12.6053 0.329015 -0.943031 -0.0494036
-32.5174 75.1517 -11.8041 0.337576 -0.939929 -0.050752
-33.1622 74.861 -10.7944 0.346258 -0.936418 -0.0566815
-33.617 74.6424 -9.99716 0.349718 -0.935123 -0.0569324
-34.0568 74.4239 -9.16697 0.349763 -0.9348 -0.0617593
-34.5108 74.1854 -8.30586 0.369151 -0.92702 -0.0658164
-34.7933 74.0084 -7.33854 0.372434 -0.925916 -0.0630224
-35.4189 73.6858 -6.40106 0.388241 -0.918749 -0.0718949
-35.9574 73.3923 -5.57458 0.388601 -0.918448 -0.0737713
-36.6982 72.9688 -4.56666 0.405023 -0.910134 -0.087246
-37.081 72.7043 -3.68453 0.438974 -0.895489 -0.0734919
-37.1097 72.5962 -2.51121 0.441739 -0.894972 -0.0621902
-37.0452 72.5373 -0.99423 0.446373 -0.893627 -0.0467205
-37.0542 72.4915 0.0615599 0.434042 -0.900125 -0.0370442
-37.0059 72.4736 1.11119 0.432377 -0.900917 -0.0373977
-37.0364 72.4176 2.09826 0.43367 -0.900334 -0.0364056
-36.921 72.434 3.12912 0.435705 -0.899527 -0.0316897
-37.0115 72.3539 4.35201 0.435155 -0.900018 -0.0246448
-37.0003 72.3366 5.30919 0.437336 -0.899123 -0.0177073
-37.0213 72.3027 6.47348 0.43806 -0.89876 -0.0182672
-37.0265 72.283 7.80106 0.434952 -0.900438 -0.00541455
-36.9495 72.3167 8.89419 0.43508 -0.900387 -0.00278867
-36.9702 72.3121 10.118 0.430148 -0.902704 0.00992573
-36.9876 72.3211 11.3255 0.425714 -0.904673 0.0182634
-37.041 72.3201 12.281 0.421082 -0.906404 0.0326259
-37.026 72.3711 13.4346 0.409977 -0.911142 0.0406383
-36.3625 72.687 14.0016 0.40125 -0.915427 0.0314826
-35.1018 73.2379 14.1454 0.395254 -0.918021 0.0318
-33.9721 73.726 14.556 0.391145 -0.920159 0.0176631
-33.2559 74.0284 15.0834 0.375287 -0.926858 0.00973809
-32.4065 74.3754 15.5875 0.373362 -0.927661 0.006771
-31.485 74.7479 16.2008 0.359397 -0.933176 0.0040176
-30.8074 75.0077 16.8723 0.354321 -0.935123 -0.00137436
-30.1174 75.2647 17.5066 0.350672 -0.936482 -0.00017918
-29.1866 75.6075 18.1207 0.339705 -0.940531 -0.00153458
-28.4871 75.8601 18.7855 0.335302 -0.942111 -0.000406867
-27.7513 76.1124 19.3905 0.316065 -0.948732 -0.00316048
-26.8448 76.41 19.96 0.307215 -0.951631 -0.00332485
-26.0721 76.6554 20.4445 0.299101 -0.954188 -0.00402868
-25.2148 76.9126 20.8472 0.288792 -0.957362 -0.00761962
-24.1993 77.201 21.3205 0.266892 -0.96372 -0.00338789
-23.1573 77.4825 21.5585 0.258149 -0.966014 -0.0132837
-22.2438 77.7113 21.8122 0.23791 -0.971191 -0.0136772
-21.0317 77.9904 21.8165 0.216337 -0.976256 -0.00893657
-20.0847 78.1978 21.7008 0.207814 -0.977926 -0.0203672
-18.9202 78.4223 21.4126 0.179466 -0.983543 -0.020745
-17.9691 78.5752 21.1935 0.152908 -0.988063 -0.018737
-17.0259 78.7077 20.8655 0.121999 -0.992461 -0.0114946
-15.9628 78.8305 20.6598 0.0847302 -0.995969 -0.00503089
-14.96 78.8914 20.521 0.0511968 -0.998452 -0.0182387
-13.7352 78.9478 20.0991 0.0408304 -0.999038 -0.0160123
-12.6962 78.9697 19.7282 0.0150978 -0.999603 -0.0231124
-11.7428 78.955 19.4511 -0.0208645 -0.999617 -0.0181922
-10.5449 78.918 19.0611 -0.0597901 -0.997595 -0.0215794
-9.38813 78.8098 18.8566 -0.100552 -0.994561 -0.0271473
-8.22567 78.6752 18.4674 -0.139404 -0.990077 -0.0177284
-7.32372 78.5568 18.0376 -0.149062 -0.988657 -0.0107143
-6.36991 78.3777 17.8886 -0.185714 -0.98255 0.010313
-5.27578 78.1385 18.054 -0.228541 -0.973523 -0.00471224
-3.91656 77.7918 18.194 -0.267293 -0.963585 0.00759471
-2.97272 77.5223 18.3062 -0.29069 -0.956729 0.0130406
-1.90176 77.2022 18.4514 -0.300686 -0.953545 0.00441621
-0.892578 76.8674 18.5817 -0.321646 -0.946729 0.0137404
0.0828442 76.5245 18.7069 -0.338829 -0.940748 0.0137264
1.14747 76.1301 18.82 -0.36257 -0.931485 0.0236924
2.15696 75.7199 18.8866 -0.379834 -0.924925 0.0143698
3.04795 75.3429 18.7144 -0.392875 -0.919491 0.0136324
4.36855 74.7697 18.7254 -0.407719 -0.913056 0.00971939
5.4892 74.2605 18.4122 -0.41362 -0.910393 0.0101359
6.35741 73.8578 18.2425 -0.430346 -0.902639 0.00672163
7.42427 73.3458 18.0715 -0.435527 -0.900144 0.00649442
8.25411 72.9395 17.8463 -0.439273 -0.898345 0.00403098
9.15212 72.4985 17.6594 -0.443114 -0.896454 0.00383067
10.5241 71.8081 17.4053 -0.452697 -0.891663 0.00127449
11.4675 71.3295 17.1426 -0.453965 -0.891016 -0.000360004
12.381 70.8628 16.8669 -0.454156 -0.890914 -0.00373807
13.1625 70.4661 16.4394 -0.455099 -0.890435 -0.00321375
13.9778 70.0507 15.9391 -0.455777 -0.890086 -0.00377792
14.7762 69.6431 15.5595 -0.455766 -0.890094 -0.00320712
15.5864 69.2302 15.1273 -0.453717 -0.891136 -0.00380695
16.7167 68.6592 14.3311 -0.449674 -0.893185 -0.00128255
17.6393 68.2003 13.5557 -0.442057 -0.896969 -0.00302041
18.7221 67.6711 12.6942 -0.432199 -0.901726 0.00541381
19.5087 67.2942 12.0194 -0.423676 -0.905696 0.0127015
20.4896 66.8304 11.299 -0.414105 -0.909978 0.019417
21.6239 66.3025 10.4084 -0.403719 -0.9144 0.0294117
22.6488 65.8032 9.31809 -0.406799 -0.912341 0.0463585
22.6302 65.7436 8.09707 -0.408477 -0.910898 0.0584126
22.1782 65.894 7.23532 -0.422545 -0.904588 0.0558185
21.7216 66.0112 5.8312 -0.428949 -0.901446 0.057946
21.3331 66.1246 4.75004 -0.440031 -0.894827 0.074554
20.9658 66.1999 3.5141 -0.455083 -0.887096 0.0772052
20.6948 66.2428 2.24528 -0.472781 -0.878642 0.0666876
20.4835 66.2742 1.21594 -0.477788 -0.876138 0.0635386
20.3494 66.2658 -0.0566965 -0.488348 -0.870424 0.0615147
20.3588 66.2006 -1.02938 -0.501917 -0.863544 0.0486932
20.4661 66.0884 -1.99014 -0.501986 -0.863995 0.038906
20.435 66.0661 -2.94278 -0.505984 -0.861647 0.0391272
20.4839 65.9882 -4.20616 -0.506293 -0.861988 0.0246839
20.767 65.8028 -5.10188 -0.506399 -0.862118 0.0176079
20.9641 65.6684 -6.07096 -0.50597 -0.862471 0.00941615
21.3317 65.4489 -7.30136 -0.498113 -0.867093 0.00285644
21.5546 65.3216 -8.35992 -0.494155 -0.869373 0.000684454
21.7911 65.1929 -9.69496 -0.485004 -0.874503 -0.00218078
21.7293 65.2259 -10.6364 -0.483512 -0.875334 0.00221449
20.8822 65.6906 -11.9584 -0.479452 -0.877566 0.00171235
20.0724 66.1268 -12.6323 -0.475551 -0.879636 0.00930456
19.2324 66.5735 -13.3821 -0.477518 -0.878518 0.0134738
18.5722 66.9251 -13.9537 -0.478037 -0.878118 0.0188475
17.6593 67.4071 -14.7523 -0.481918 -0.87588 0.0241534
16.8837 67.8128 -15.5623 -0.486998 -0.873026 0.0256747
15.997 68.2804 -16.3726 -0.490079 -0.871132 0.0308655
15.1303 68.7416 -17.15 -0.49101 -0.870656 0.0294299
14.3695 69.1537 -17.6759 -0.489777 -0.871394 0.028037
13.535 69.6063 -18.2056 -0.487083 -0.873023 0.0241134
12.5957 70.1164 -18.5777 -0.482491 -0.875626 0.0219044
11.657 70.6241 -18.8632 -0.477776 -0.87824 0.020601
10.6116 71.1843 -19.1907 -0.47484 -0.879893 0.0177278
9.73261 71.6536 -19.4369 -0.471235 -0.88182 0.017775
8.80795 72.1394 -19.6679 -0.465557 -0.884879 0.0151763
7.6675 72.7292 -19.943 -0.461894 -0.886815 0.0145813
6.51583 73.3179 -20.1295 -0.452995 -0.891445 0.00972317
5.34709 73.9006 -20.2831 -0.446263 -0.894879 0.00641864
4.40561 74.3686 -20.2735 -0.433837 -0.900934 -0.0101525
3.27081 74.9087 -20.2353 -0.421646 -0.906692 -0.00961432
2.41558 75.301 -20.1716 -0.414941 -0.909775 -0.0109087
1.29784 75.8003 -20.1015 -0.405649 -0.913898 -0.0154514
0.135018 76.2883 -20.1318 -0.381807 -0.924179 -0.0102706
-0.419486 76.5153 -20.1001 -0.370888 -0.928602 -0.0118329
-0.416379 76.5295 -21.04 -0.368564 -0.929311 -0.0192796
-1.32419 76.8785 -21.0657 -0.35883 -0.933313 -0.0129664
-2.23068 77.2214 -20.9878 -0.344439 -0.938573 -0.0179518
-3.28061 77.6034 -20.8198 -0.335504 -0.941881 -0.0172266
-4.15145 77.9007 -20.6322 -0.289992 -0.956179 -0.0290666
-5.05541 78.1434 -20.4494 -0.263756 -0.964295 -0.0238221
-6.16813 78.4287 -20.0631 -0.241043 -0.970051 -0.029978
-7.53755 78.7053 -20.0181 -0.195513 -0.98063 -0.011835
-8.77894 78.8889 -20.0061 -0.124111 -0.992121 -0.0170991
-9.80716 79.0138 -19.9596 -0.114137 -0.993447 -0.00604164
-11.0921 79.1265 -20.0578 -0.048475 -0.998579 0.00661443
-12.1731 79.1555 -20.3101 -0.0296491 -0.999525 0.00768089
-13.1566 79.1737 -20.6351 -0.00913748 -0.999889 0.00845475
-14.0875 79.1685 -20.8056 0.00876482 -0.999943 0.00595829
-15.1394 79.1366 -20.9395 0.0549716 -0.998376 0.00773365
-16.5492 79.0515 -21.3007 0.0674094 -0.997577 -0.00590985
-17.507 78.9723 -21.3988 0.0858613 -0.996285 -0.0047865
-18.4564 78.8848 -21.4652 0.098523 -0.995107 -0.00742738
-19.4796 78.77 -21.5344 0.117701 -0.993048 -0.00135549
-20.6256 78.623 -21.5725 0.153649 -0.988032 -0.0112669
-22.1669 78.3576 -21.3682 0.17422 -0.984382 -0.0226282
-23.0777 78.1823 -21.2018 0.190201 -0.981419 -0.0241385
-24.3675 77.9207 -20.9356 0.194506 -0.980653 -0.0220766
-25.7654 77.5779 -20.4328 0.235693 -0.971451 -0.0270682
-26.632 77.3525 -20.0477 0.239842 -0.970153 -0.0357537
-27.6519 77.0659 -19.4849 0.257375 -0.965825 -0.0306717
-28.4278 76.8338 -18.8487 0.276324 -0.959861 -0.0459879
-29.3952 76.5044 -17.9411 0.28447 -0.95754 -0.0467994
-30.0452 76.2693 -17.1609 0.292341 -0.955107 -0.0480218
-30.7366 76.0187 -16.396 0.296412 -0.953504 -0.0544977
-31.3012 75.7827 -15.37 0.303501 -0.951234 -0.0551275
-32.2444 75.3798 -14.1257 0.334926 -0.940062 -0.0633896
-32.8947 75.0839 -13.0146 0.335409 -0.940588 -0.0528625
-33.5479 74.7788 -11.7707 0.34031 -0.938943 -0.0506466
-34.2384 74.464 -10.8018 0.340983 -0.937926 -0.0634377
-34.5963 74.2758 -9.92945 0.343201 -0.935365 -0.0829587
-35.1185 74.0049 -9.07393 0.357471 -0.93048 -0.0799021
-35.523 73.7756 -8.20812 0.372256 -0.925539 -0.0693125
-35.9886 73.5124 -7.23383 0.38056 -0.921476 -0.077826
-36.5803 73.1884 -6.28031 0.375753 -0.92221 -0.0904269
-37.1059 72.8832 -5.49045 0.406099 -0.905955 -0.119505
-37.823 72.4169 -4.4685 0.423494 -0.899313 -0.106813
-37.9983 72.2156 -3.24905 0.444586 -0.892541 -0.0755911
-37.9167 72.1648 -2.20976 0.452916 -0.888853 -0.0673268
-37.9265 72.1068 -1.24957 0.453127 -0.89091 -0.0309069
-37.8832 72.0922 0.0608131 0.43812 -0.898467 -0.0272433
-37.9088 72.0386 1.09197 0.435632 -0.899303 -0.0384438
-37.8325 72.0254 2.15366 0.440911 -0.896463 -0.0441747
-37.7538 72.0228 3.24815 0.440757 -0.897291 -0.0227766
-37.8526 71.9473 4.17467 0.442161 -0.896557 -0.026048
-37.8314 71.9217 5.46673 0.444524 -0.895526 -0.0203462
-37.8555 71.8916 6.41333 0.446908 -0.894418 -0.0169982
-37.8625 71.8748 7.6042 0.445177 -0.895427 -0.00517749
-37.7846 71.912 8.78073 0.439959 -0.898017 -0.00104714
-37.8435 71.8887 9.74817 0.438194 -0.898842 0.00825753
-37.861 71.8992 10.9038 0.431122 -0.902047 0.0207432
-37.9462 71.884 11.8519 0.420985 -0.906188 0.0391618
-37.9534 71.9351 13.0468 0.41531 -0.908589 0.0444735
-37.8905 72.0136 14.0135 0.407834 -0.911158 0.0571549
-37.3505 72.3133 14.9771 0.394053 -0.917175 0.0592369
-36.397 72.7139 14.9478 0.376816 -0.924519 0.0532566
-35.5174 73.0922 15.1168 0.395038 -0.918131 0.0313206
-34.3722 73.5792 15.4356 0.384089 -0.92291 0.0266788
-33.0906 74.1054 16.3005 0.370734 -0.928713 0.00692505
-32.2323 74.459 16.982 0.377675 -0.925868 0.011429
-31.4686 74.756 17.5712 0.354565 -0.93503 -0.00139841
-30.6432 75.0699 18.2675 0.354348 -0.935112 0.00162361
-29.8651 75.3654 18.7528 0.338695 -0.940859 0.00836641
-28.9946 75.6862 19.6423 0.327605 -0.944678 0.0160641
-28.0903 76.0032 20.2877 0.312735 -0.949808 0.00752878
-27.1387 76.3242 20.8854 0.308125 -0.951149 0.015101
-25.9726 76.6832 21.5695 0.285646 -0.958334 -0.0013268
-25.1381 76.9364 21.9434 0.299318 -0.954084 0.0114898
-24.0442 77.2417 22.3511 0.262161 -0.965005 0.00217426
-23.1187 77.4875 22.5407 0.244929 -0.969509 -0.00786249
-22.1704 77.7201 22.8543 0.236687 -0.971578 0.00391418
-21.1909 77.9506 22.733 0.2201 -0.975466 0.00240994
-19.9718 78.2194 22.6049 0.215245 -0.976553 0.00370217
-18.9747 78.3986 22.3767 0.184638 -0.98272 -0.0130473
-17.8637 78.5858 22.1609 0.151181 -0.988505 0.00150667
-16.8909 78.7121 21.8936 0.124641 -0.992134 -0.01158
-15.9803 78.8233 21.791 0.084729 -0.995969 -0.00503826
-14.7977 78.8899 21.5 0.0518245 -0.998636 -0.00632992
-13.9079 78.9307 21.1803 0.0331313 -0.999436 -0.00543531
-12.9969 78.9554 20.8737 0.0236615 -0.999701 -0.0061313
-11.8863 78.9584 20.5589 -0.0223084 -0.999719 0.00796993
-10.8883 78.9253 20.1865 -0.0408869 -0.999121 0.00926364
-9.73765 78.8417 19.9301 -0.0912563 -0.995759 0.0116564
-8.6338 78.737 19.5276 -0.109469 -0.993558 0.0198244
-7.60141 78.5925 19.1812 -0.138231 -0.990161 0.0185678
-6.59362 78.4273 18.8201 -0.162844 -0.986481 0.00666754
-5.11887 78.1121 19.0209 -0.225168 -0.973877 0.0280474
-4.00018 77.8265 19.0944 -0.275984 -0.960962 0.0189332
-2.90606 77.5217 19.2595 -0.278397 -0.960058 0.0252985
-1.63783 77.127 19.4056 -0.317941 -0.947976 0.0159145
-0.534456 76.7637 19.5136 -0.322339 -0.945945 0.0303357
0.410201 76.4295 19.7259 -0.339431 -0.940098 0.0316474
1.34697 76.073 19.8568 -0.378828 -0.925198 0.0223375
2.22982 75.7058 19.8524 -0.387058 -0.92188 0.0179639
3.26083 75.267 19.6591 -0.392325 -0.919599 0.0204637
4.17813 74.8671 19.6561 -0.405725 -0.913848 0.0163249
5.10194 74.4565 19.5931 -0.409842 -0.911981 0.0170458
5.97253 74.0521 19.1874 -0.420955 -0.906705 0.0233456
7.08084 73.5246 19.1132 -0.427553 -0.903872 0.0146566
7.99888 73.0723 18.8873 -0.442373 -0.896718 0.0137795
8.91674 72.6191 18.6973 -0.440026 -0.897976 0.00414694
9.74458 72.2073 18.538 -0.450676 -0.892676 0.00396232
10.7453 71.6983 18.3092 -0.453441 -0.891276 0.00401179
11.6989 71.2085 18.0657 -0.456365 -0.889779 -0.00491794
12.7042 70.6946 17.7588 -0.45565 -0.890149 -0.00417911
13.5703 70.2529 17.3962 -0.455691 -0.890128 -0.00413883
14.4361 69.8125 16.7509 -0.455804 -0.890071 -0.00393527
15.2585 69.3921 16.4204 -0.456632 -0.889644 -0.0045042
16.0785 68.9748 15.8656 -0.455233 -0.890342 -0.00711414
16.7951 68.6138 15.3546 -0.448892 -0.893514 -0.00913531
17.7186 68.1591 14.6627 -0.445912 -0.895076 -0.000488558
18.682 67.6858 13.859 -0.443646 -0.896114 -0.0125432
19.5982 67.2608 13.0813 -0.425426 -0.904988 0.00301959
20.4231 66.8732 12.423 -0.42336 -0.90596 0.00169995
21.5444 66.3665 11.6092 -0.407443 -0.913081 0.0165349
22.438 65.9712 11.0644 -0.395113 -0.918284 0.0223463
23.3444 65.5493 10.228 -0.393139 -0.918222 0.0480706
23.6734 65.3547 9.2383 -0.396306 -0.916529 0.0537382
23.6307 65.3113 8.26093 -0.396394 -0.915826 0.064305
23.1881 65.4302 7.27337 -0.416291 -0.905753 0.0794523
22.7593 65.557 6.3129 -0.423602 -0.903794 0.0609471
22.5169 65.6007 5.34388 -0.42193 -0.903638 0.0735709
22.0683 65.723 4.34023 -0.440744 -0.893684 0.0841015
21.7428 65.7818 3.29795 -0.457287 -0.883803 0.0988632
21.5993 65.7627 2.34523 -0.473029 -0.877534 0.0782319
21.244 65.8473 1.01569 -0.4747 -0.876569 0.0788766
21.1766 65.8015 0.058144 -0.495428 -0.866093 0.0665861
21.3265 65.6279 -1.21103 -0.501079 -0.864226 0.0449225
21.2661 65.5813 -2.78349 -0.509784 -0.859225 0.0426952
21.2821 65.5282 -3.78821 -0.510774 -0.859342 0.0253182
21.6604 65.2742 -5.07405 -0.517519 -0.855548 0.0145607
21.8355 65.1565 -6.24643 -0.517815 -0.855473 -0.00574151
22.2295 64.9311 -7.32236 -0.507707 -0.861438 -0.00966787
22.4429 64.813 -8.36458 -0.497176 -0.867585 -0.00816844
22.7233 64.6728 -9.46127 -0.497548 -0.867255 -0.0177243
22.7617 64.6551 -10.515 -0.484372 -0.874848 0.00402481
22.2725 64.9311 -11.6951 -0.479526 -0.877463 -0.0106007
21.5703 65.3169 -12.529 -0.4715 -0.881825 -0.00854669
20.8763 65.6888 -13.1403 -0.465522 -0.884963 0.00652542
20.0164 66.1461 -13.8183 -0.468617 -0.883395 0.00332015
19.21 66.5593 -14.6415 -0.469084 -0.882835 0.0216243
18.4047 66.9829 -15.2611 -0.481917 -0.87588 0.024154
17.7524 67.3198 -15.9575 -0.480328 -0.876563 0.0301404
16.8991 67.7617 -16.7254 -0.487572 -0.872373 0.0352025
16.1364 68.1611 -17.5348 -0.490027 -0.871168 0.030643
15.4416 68.533 -18.0846 -0.491391 -0.870392 0.0308592
14.6067 68.9895 -18.6285 -0.493191 -0.869505 0.0268981
13.8247 69.4238 -19.0531 -0.489963 -0.871475 0.0209454
12.741 70.0123 -19.5638 -0.483518 -0.875069 0.0215649
11.6482 70.6081 -19.8235 -0.478508 -0.877917 0.0170888
10.7754 71.0794 -20.121 -0.477442 -0.87855 0.01345
9.6416 71.6832 -20.3742 -0.469152 -0.882942 0.0175675
8.58922 72.2403 -20.6718 -0.467614 -0.88385 0.00914968
7.54713 72.7767 -20.9104 -0.45713 -0.889299 0.0133258
6.58282 73.2715 -21.0617 -0.460413 -0.887649 0.00794377
5.62069 73.7581 -21.2521 -0.451742 -0.892133 0.00393017
4.49176 74.3311 -21.2356 -0.448049 -0.893893 -0.0143655
3.28637 74.9082 -21.1744 -0.425673 -0.904846 -0.00756824
2.34803 75.3466 -21.0887 -0.413276 -0.910226 -0.0262812
1.44532 75.749 -21.0248 -0.390291 -0.920612 -0.0120139
0.280599 76.2443 -21.0633 -0.386359 -0.922062 -0.0212327
-0.247945 76.4606 -21.0466 -0.379223 -0.924957 -0.025384
-19.4503 78.3478 20.0657 0.188931 -0.981828 -0.0178509
-22.6647 77.6363 19.884 0.251456 -0.967596 -0.0229752
-23.4112 77.441 19.8353 0.271073 -0.96245 -0.0145025
-25.9172 76.7135 18.7832 0.299544 -0.954043 -0.0086826
-23.0584 77.5524 18.88 0.266996 -0.9636 -0.0137144
-20.2652 78.2185 19.0443 0.199628 -0.97965 -0.0208375
-17.0187 78.7378 18.9888 0.121215 -0.992093 -0.0325421
-14.8354 78.9345 18.8793 0.0517785 -0.998255 -0.0284006
0.289059 76.4376 17.2967 -0.341345 -0.939938 -0.000394942
1.33362 76.0331 17.2511 -0.370485 -0.928793 0.00917918
2.51434 75.5524 17.1936 -0.382625 -0.923858 0.00922868
3.42214 75.1725 17.1486 -0.398486 -0.917162 0.00472282
4.29958 74.786 17.1055 -0.402713 -0.915286 0.0085474
5.02145 74.4629 17.0621 -0.414682 -0.909958 0.00385912
-10.3039 78.9301 17.6237 -0.0793445 -0.996213 -0.0355529
-11.9873 79.0022 17.6902 -0.0223214 -0.999405 -0.026302
-13.6191 79.0031 17.774 0.0311404 -0.9992 -0.025101
-15.1773 78.937 17.8543 0.0622491 -0.997843 -0.0208299
-16.5206 78.8261 17.9174 0.104091 -0.994286 -0.0236539
-18.2365 78.6007 18.0233 0.141283 -0.989734 -0.0215933
-19.6545 78.362 18.028 0.195375 -0.980461 -0.0229073
-21.0608 78.0758 17.9815 0.22335 -0.974337 -0.027967
-22.4935 77.7245 17.9262 0.248622 -0.968407 -0.0193451
-23.8357 77.3545 17.8882 0.273 -0.961816 -0.0195235
-25.3216 76.9136 17.8352 0.293055 -0.955986 -0.0144927
-26.636 76.4969 17.7881 0.306821 -0.951705 -0.0108581
-27.5008 76.2047 17.7425 0.323854 -0.946077 -0.00749856
-28.5936 75.8284 16.7343 0.336169 -0.941792 -0.00423503
-27.1263 76.3412 16.7969 0.322868 -0.946383 -0.010744
-25.4651 76.8871 16.8558 0.30596 -0.951841 -0.0196766
-23.9573 77.3438 16.9217 0.275142 -0.961113 -0.0236506
-22.3262 77.7857 16.9699 0.24527 -0.96921 -0.021768
-20.8881 78.1389 16.9959 0.235563 -0.971607 -0.0221283
-19.5656 78.4111 17.0074 0.199107 -0.979485 -0.0310806
-18.1852 78.6375 16.9744 0.141429 -0.989333 -0.0349002
-16.4926 78.857 16.8676 0.101382 -0.994415 -0.0293316
-15.0944 78.9644 16.7962 0.0583499 -0.997815 -0.0309943
-13.7423 79.0272 16.7204 0.0303231 -0.998968 -0.0338237
-12.1063 79.0374 16.6442 -0.0132847 -0.999293 -0.0351779
-10.5017 78.9772 16.5889 -0.0861187 -0.996095 -0.0194344
-9.11491 78.8407 16.5483 -0.115664 -0.992914 -0.0272655
-7.72386 78.6484 16.514 -0.156885 -0.987324 -0.0240628
-6.39896 78.4107 16.4679 -0.196578 -0.980313 -0.0185181
-4.85251 78.0571 16.4247 -0.254337 -0.966555 -0.0329327
-3.50519 77.6899 16.3867 -0.27306 -0.961937 -0.0107352
-1.91877 77.2073 16.3368 -0.303805 -0.952728 -0.00352996
-0.579241 76.7508 16.2968 -0.332969 -0.942935 -0.00239888
0.809381 76.2371 16.2429 -0.358599 -0.933459 0.00785313
2.0733 75.7302 16.1883 -0.378621 -0.925539 0.00488324
3.44882 75.1557 16.1257 -0.39006 -0.920766 0.00653972
4.70644 74.6021 16.0657 -0.407703 -0.913112 0.00200078
6.09585 73.9673 15.9892 -0.422592 -0.906311 0.0040126
7.82813 73.1466 15.8694 -0.435572 -0.900153 -0.00149731
9.04015 72.5512 15.7652 -0.445151 -0.895455 0.000399921
10.3144 71.9158 15.6657 -0.451971 -0.892031 -0.00161427
11.643 71.2421 15.5794 -0.452933 -0.891543 -0.00186824
13.9202 70.0829 14.4304 -0.455216 -0.89038 0.00119566
12.5604 70.7777 14.5131 -0.453771 -0.891117 -0.00142978
11.2647 71.4357 14.5943 -0.452778 -0.891623 -0.000363443
9.83572 72.1568 14.7106 -0.446378 -0.894843 -0.00154228
8.36812 72.8832 14.8202 -0.438635 -0.898655 0.00420202
7.07836 73.5044 14.9106 -0.424477 -0.905439 -0.000258234
5.68808 74.1554 14.9923 -0.422191 -0.906495 -0.00465534
4.18021 74.8361 15.0623 -0.408122 -0.912927 -2.23408e-05
2.80992 75.4289 15.125 -0.386973 -0.922089 -0.00222491
1.49547 75.9673 15.1789 -0.372495 -0.928034 -0.000864693
-0.441024 76.7125 15.2568 -0.341779 -0.939727 -0.0099912
-1.86802 77.2038 15.3032 -0.312618 -0.949744 -0.0160353
-3.51501 77.713 15.3496 -0.281153 -0.959586 -0.0121222
-4.87172 78.0914 15.3915 -0.247203 -0.968903 -0.010861
-6.2676 78.3998 15.4194 -0.190678 -0.98161 -0.00909657
-7.77169 78.6739 15.4692 -0.171091 -0.98522 -0.00829555
-9.47009 78.8986 15.5162 -0.103245 -0.994604 -0.010178
-11.2168 79.0403 15.5694 -0.0479625 -0.998712 -0.0165535
-12.8713 79.0805 15.6229 0.00582475 -0.999604 -0.0275185
-14.7675 79.0151 15.7178 0.0517119 -0.997771 -0.0421728
-16.5136 78.8911 15.8179 0.0813285 -0.995625 -0.0460095
-18.3567 78.6432 15.9125 0.150973 -0.987765 -0.039073
-19.7052 78.4122 15.9829 0.197853 -0.979937 -0.0240296
-21.0575 78.119 16.0044 0.236904 -0.97136 -0.0183518
-22.4003 77.7941 15.9943 0.25347 -0.966898 -0.0293361
-23.949 77.3674 15.9529 0.279168 -0.960086 -0.0173063
-25.4059 76.9262 15.8878 0.305974 -0.951837 -0.0196755
-26.9513 76.4123 15.8483 0.328151 -0.944457 -0.0178469
-28.508 75.8681 15.7788 0.333824 -0.942585 -0.00980732
-29.3764 75.5522 15.7332 0.352602 -0.935765 -0.0038402
-31.1752 74.8688 14.6422 0.369255 -0.929328 0.000176161
-29.7918 75.4046 14.7485 0.355505 -0.934644 -0.00749588
-28.4348 75.9106 14.8358 0.340302 -0.940197 -0.0149927
-26.8395 76.4693 14.8874 0.32863 -0.9443 -0.0173035
-25.4403 76.9336 14.9252 0.306747 -0.951642 -0.0168223
-24.0134 77.3683 14.9996 0.283416 -0.958792 -0.0198255
-22.6534 77.7469 15.0295 0.262732 -0.964667 -0.0197451
-21.2657 78.0873 15.0256 0.227188 -0.973621 -0.0211725
-19.8139 78.4133 14.9555 0.196475 -0.980322 -0.0191187
-18.2175 78.6971 14.8685 0.158702 -0.987228 -0.0139687
-16.6941 78.9126 14.7729 0.12985 -0.990853 -0.0367381
-15.2914 79.0282 14.6814 0.0717919 -0.996592 -0.0406316
-13.8288 79.1073 14.6158 0.049285 -0.998121 -0.0363971
-12.3425 79.1089 14.5585 -0.0329265 -0.998356 -0.0469265
-10.8791 79.0324 14.517 -0.0648612 -0.997891 -0.00271257
-9.17242 78.8774 14.4591 -0.100717 -0.994886 -0.00755862
-7.76003 78.6891 14.4124 -0.155682 -0.9877 -0.0145448
-6.42952 78.4403 14.3738 -0.207751 -0.97792 -0.0226353
-5.11405 78.1487 14.3422 -0.225367 -0.974273 -0.0012036
-3.72727 77.7865 14.3088 -0.279943 -0.959957 -0.0106899
-2.04135 77.2745 14.2731 -0.313798 -0.949443 -0.00947076
-0.536115 76.7498 14.2226 -0.348361 -0.937357 0.00252003
0.860471 76.2261 14.1679 -0.360976 -0.932566 -0.00410273
2.17962 75.6937 14.1145 -0.378957 -0.925401 -0.00494191
3.93021 74.9418 14.0376 -0.399424 -0.916765 0.00134435
5.20569 74.3756 13.9827 -0.410705 -0.911767 -0.00134537
6.70388 73.6806 13.9091 -0.430077 -0.902791 0.00101806
7.9812 73.0675 13.8297 -0.43607 -0.89991 0.00227671
9.49266 72.3268 13.7307 -0.440117 -0.897933 0.00353214
10.743 71.701 13.6307 -0.453081 -0.891469 0.000529447
12.1001 71.0121 13.539 -0.452654 -0.891686 0.000843902
13.5744 70.2576 13.4425 -0.455605 -0.89018 0.00202634
14.9879 69.536 13.359 -0.454402 -0.890795 0.00171495
15.7143 69.1666 13.3418 -0.45095 -0.892548 0.00124367
16.7284 68.6498 12.3545 -0.44466 -0.895676 0.00651855
15.2686 69.3887 12.3387 -0.453763 -0.891085 0.00813639
13.9598 70.0576 12.4035 -0.455147 -0.890409 0.00360941
12.2753 70.9205 12.5146 -0.456085 -0.889927 0.00405893
10.9938 71.5715 12.6085 -0.447655 -0.894191 0.00523749
9.67656 72.2324 12.6965 -0.444256 -0.895887 0.00479659
8.15052 72.9804 12.7918 -0.43912 -0.89842 0.00377623
6.87977 73.5946 12.8638 -0.43148 -0.902121 0.00164091
5.65971 74.166 12.9245 -0.417846 -0.908518 -0.000249867
4.40913 74.7308 12.9756 -0.40323 -0.915083 -0.0053741
3.16757 75.2732 13.0307 -0.397882 -0.917435 -0.00182221
1.44887 75.9952 13.1063 -0.37608 -0.926571 -0.00548921
0.063142 76.5268 13.1612 -0.347775 -0.937574 -0.00270937
-1.25034 77.0129 13.2046 -0.331562 -0.943433 0.000874439
-2.62855 77.4737 13.2527 -0.319505 -0.947583 -0.00159037
-3.97433 77.8736 13.2708 -0.266795 -0.96372 -0.00797495
-5.50718 78.2546 13.3103 -0.217531 -0.97591 -0.016742
-6.85337 78.5486 13.332 -0.210337 -0.977574 -0.0104108
-8.44914 78.8064 13.3758 -0.14512 -0.988723 -0.0369851
-10.0532 78.9876 13.4295 -0.0942651 -0.995305 -0.0219561
-11.4346 79.1006 13.4778 -0.037602 -0.999128 -0.0181688
-12.7799 79.1487 13.5127 0.0163354 -0.999365 -0.0316629
-14.1505 79.1256 13.5789 0.0299079 -0.999226 -0.0255712
-15.7408 79.0358 13.6479 0.0631699 -0.997469 -0.0326258
-17.4576 78.8489 13.7616 0.147888 -0.988542 -0.0302255
-18.8627 78.608 13.8719 0.175132 -0.984269 -0.0233038
-20.3402 78.3151 13.975 0.209467 -0.977456 -0.0265105
-21.651 78.0188 14.0503 0.230492 -0.972801 -0.02304
-23.4825 77.5418 14.0633 0.262113 -0.964798 -0.0215072
-25.1195 77.0504 13.9882 0.301257 -0.953394 -0.0168587
-26.5983 76.5711 13.9342 0.31976 -0.947325 -0.0181505
-27.9169 76.1132 13.9023 0.32953 -0.943933 -0.0200249
-29.5318 75.5122 13.7875 0.357923 -0.933688 -0.0108868
-30.8794 74.9896 13.7094 0.370259 -0.928919 -0.00427488
-32.3175 74.4031 13.6368 0.382242 -0.924054 0.00389761
-32.9058 74.1589 13.5966 0.38756 -0.921798 0.00920322
-35.5815 72.9844 12.4068 0.405412 -0.913982 0.016712
-34.0458 73.6643 12.5519 0.396482 -0.917999 0.0089537
-32.7321 74.2277 12.6507 0.391387 -0.920217 0.00417478
-31.295 74.8234 12.7426 0.37595 -0.926634 -0.00340296
-29.902 75.3767 12.8117 0.363368 -0.931565 -0.0122535
-28.4065 75.9515 12.9027 0.353343 -0.9354 -0.013235
-26.5705 76.5989 12.9741 0.31976 -0.947325 -0.0181512
-25.0629 77.0864 13.0444 0.297172 -0.954548 -0.0229467
-23.4338 77.5797 13.1051 0.272954 -0.961528 -0.0310003
-22.1005 77.9399 13.1083 0.245519 -0.969053 -0.0256232
-20.4501 78.3227 12.9882 0.215173 -0.976164 -0.0283659
-18.6441 78.6765 12.829 0.165766 -0.985519 -0.0356984
-16.9582 78.9307 12.6763 0.119352 -0.992803 -0.0098277
-15.5839 79.0641 12.5874 0.0785207 -0.996785 -0.0159173
-14.2209 79.1502 12.507 0.0596011 -0.997896 -0.0255111
-12.7137 79.179 12.4236 -0.0200238 -0.999214 -0.0342043
-11.1672 79.115 12.3679 -0.0624235 -0.997688 -0.0268863
-9.60053 78.969 12.3398 -0.104937 -0.994115 -0.0268994
-7.97884 78.7637 12.2954 -0.159586 -0.987142 -0.00913605
-6.3555 78.4553 12.2722 -0.21069 -0.977287 -0.0227824
-4.95515 78.1367 12.2467 -0.23766 -0.971331 -0.00575735
-3.61152 77.7868 12.221 -0.26999 -0.962747 -0.0149357
-2.17311 77.3302 12.189 -0.319656 -0.947492 -0.00884053
-0.849874 76.8662 12.1554 -0.336079 -0.941805 0.0073948
0.514541 76.3613 12.1054 -0.354545 -0.935039 -1.49055e-05
1.95409 75.7904 12.0422 -0.385417 -0.922742 -0.000672872
3.67936 75.0549 11.9591 -0.397766 -0.917476 -0.00443869
4.96256 74.4822 11.9022 -0.411598 -0.911364 -0.00144926
6.50518 73.769 11.8342 -0.424861 -0.90524 0.0057497
7.82376 73.1363 11.7663 -0.437829 -0.899057 0.00140453
9.36463 72.381 11.6886 -0.440893 -0.897554 0.00321629
10.9752 71.5749 11.5943 -0.447657 -0.89419 0.00522842
12.3201 70.8929 11.4985 -0.456652 -0.889619 0.00687982
13.6679 70.1993 11.4094 -0.456652 -0.889597 0.00925708
14.9246 69.5537 11.3272 -0.455755 -0.890034 0.0112726
16.2546 68.8763 11.3151 -0.450439 -0.892745 0.0105393
17.4803 68.2648 11.4397 -0.442105 -0.896914 0.00938571
18.0335 67.9963 11.5186 -0.440018 -0.897894 0.0130592
18.9411 67.5418 10.6992 -0.430936 -0.902012 0.0258613
17.6021 68.1889 10.4768 -0.442035 -0.896823 0.0177017
16.2173 68.8797 10.309 -0.451471 -0.892145 0.0158445
14.9011 69.5529 10.3149 -0.455755 -0.890034 0.0112732
13.3811 70.3352 10.4076 -0.4569 -0.889433 0.0122858
11.9481 71.0718 10.4983 -0.453909 -0.890989 0.0102137
10.4528 71.8307 10.5899 -0.452202 -0.89187 0.00896978
9.13133 72.4928 10.6565 -0.446763 -0.894638 0.00504321
7.89272 73.1016 10.7137 -0.438834 -0.898568 0.00105945
6.5201 73.7628 10.7864 -0.427941 -0.903807 -0.000641664
4.98321 74.4758 10.8557 -0.415058 -0.909792 0.00224375
3.39546 75.1775 10.92 -0.400462 -0.916303 0.00434542
2.01106 75.7669 10.9938 -0.378207 -0.925714 -0.00368809
0.64571 76.3115 11.0659 -0.364128 -0.931341 -0.00370985
-0.930818 76.8975 11.1235 -0.342202 -0.939589 -0.00842073
-2.47263 77.4321 11.1555 -0.317841 -0.948143 0.0014182
-3.8984 77.8757 11.1803 -0.283351 -0.958971 -0.00927368
-5.47425 78.2803 11.2048 -0.225355 -0.974168 -0.014591
-6.80576 78.5672 11.2164 -0.189992 -0.981722 -0.0111776
-8.45771 78.8462 11.2387 -0.150453 -0.987635 -0.0440593
-9.89385 79.0308 11.2684 -0.102078 -0.993744 -0.0453157
-11.3751 79.1518 11.2972 -0.0573694 -0.998112 -0.0219545
-13.0008 79.2083 11.3408 0.00355937 -0.999233 -0.0390076
-14.624 79.1559 11.4599 0.0588814 -0.99779 -0.0307903
-16.4907 79.0119 11.5873 0.0811591 -0.996353 -0.0263433
-18.1441 78.7902 11.7533 0.143503 -0.989353 -0.0242355
-19.9811 78.4616 11.9583 0.202205 -0.97862 -0.0376395
-21.6394 78.0792 12.1121 0.230285 -0.972629 -0.0310017
-23.0853 77.7048 12.1407 0.257683 -0.965646 -0.0335655
-24.3978 77.3207 12.1175 0.287637 -0.957234 -0.031113
-25.9221 76.8386 12.0438 0.309233 -0.95045 -0.0319326
-27.4944 76.3015 11.9785 0.336737 -0.941466 -0.0158223
-28.9173 75.7698 11.9099 0.358458 -0.933415 -0.0156382
-30.1848 75.2776 11.8471 0.364469 -0.93116 -0.0101096
-31.748 74.6404 11.7658 0.381003 -0.924565 -0.00401639
-33.2029 74.025 11.6685 0.393992 -0.919109 -0.00306226
-34.5653 73.4285 11.5536 0.407539 -0.913167 0.00613151
-35.3977 73.0579 11.4773 0.416633 -0.909001 0.0115475
-35.2263 73.1251 10.5486 0.418563 -0.90818 0.00385387
-33.9831 73.6854 10.6719 0.401924 -0.915663 -0.00424432
-32.6292 74.2736 10.7723 0.394383 -0.918943 -0.00246065
-31.2507 74.8515 10.8552 0.381062 -0.924529 -0.00619145
-29.8523 75.419 10.9123 0.366055 -0.930528 -0.0110155
-28.448 75.9643 10.9744 0.356534 -0.934173 -0.0142606
-27.076 76.4693 11.029 0.343636 -0.938971 -0.0157767
-25.7496 76.9199 11.0837 0.310551 -0.950417 -0.0163238
-23.9406 77.4859 11.1479 0.285171 -0.958085 -0.027409
-22.3395 77.9388 11.1471 0.261957 -0.96469 -0.0274163
-21.012 78.271 11.0702 0.210929 -0.97595 -0.0550459
-19.5799 78.5728 10.9219 0.184441 -0.982106 -0.0380613
-18.0404 78.8305 10.7213 0.146734 -0.988956 -0.0208456
-16.6846 79.0045 10.5618 0.11245 -0.993583 -0.0121637
-14.9478 79.1705 10.3795 0.0640708 -0.99759 -0.0266415
-13.3925 79.2452 10.2677 0.0119989 -0.999583 -0.0262479
-11.9419 79.2072 10.2461 -0.0462114 -0.998745 -0.0192942
-10.5208 79.1222 10.2189 -0.0638521 -0.997797 -0.0179857
-8.95464 78.9541 10.1916 -0.136796 -0.990161 -0.0294522
-7.34051 78.7008 10.1724 -0.164157 -0.986427 -0.00377538
-5.90191 78.3881 10.1645 -0.224923 -0.974351 -0.00704262
-4.45519 78.036 10.1443 -0.258426 -0.966002 -0.00753482
-2.82537 77.5499 10.1268 -0.30815 -0.951334 0.00260751
-1.42821 77.0793 10.102 -0.33032 -0.943868 -0.00133546
0.212891 76.4781 10.0366 -0.360075 -0.932894 -0.00742031
1.90958 75.8082 9.94669 -0.385566 -0.92268 0.000971771
3.4076 75.1705 9.86929 -0.39801 -0.917376 -0.00293346
4.93407 74.4946 9.81881 -0.411731 -0.911277 0.00711274
6.39887 73.8163 9.73566 -0.425512 -0.904939 0.00493338
7.93657 73.0778 9.66693 -0.437967 -0.898984 0.00343199
9.20385 72.4501 9.61506 -0.446595 -0.894714 0.00630938
10.5543 71.7683 9.5441 -0.452265 -0.891833 0.00953135
12.0358 71.0132 9.45716 -0.45582 -0.88999 0.0120502
13.4946 70.2621 9.37433 -0.458281 -0.888696 0.0140384
14.7221 69.6286 9.31514 -0.457954 -0.888855 0.0146607
16.4702 68.7343 9.32877 -0.451467 -0.892147 0.0158382
18.0362 67.9553 9.55351 -0.441614 -0.896917 0.0227492
19.6412 67.1899 9.88897 -0.425124 -0.904665 0.0291664
20.329 66.8441 9.11297 -0.413477 -0.909817 0.0356294
19.0543 67.4335 8.74569 -0.434402 -0.900403 0.0238436
17.3954 68.2422 8.424 -0.445993 -0.894717 0.023902
16.0359 68.9311 8.29659 -0.454321 -0.890579 0.0214719
14.5784 69.6835 8.30565 -0.459743 -0.887857 0.0186204
13.1576 70.4198 8.35936 -0.458283 -0.888695 0.0140299
11.7886 71.1264 8.43268 -0.455731 -0.890049 0.0110921
10.4575 71.8068 8.51162 -0.453492 -0.891186 0.0115336
9.03556 72.5243 8.579 -0.448263 -0.893855 0.00913075
7.53095 73.2674 8.62598 -0.434843 -0.900465 0.0086033
5.85659 74.0655 8.6942 -0.419453 -0.907748 0.00725472
4.48819 74.6879 8.79761 -0.41514 -0.909741 0.00550939
3.12445 75.2953 8.83445 -0.395353 -0.91852 -0.00407779
1.72551 75.8877 8.90337 -0.387617 -0.921814 -0.00350067
0.0709769 76.5403 8.99326 -0.357587 -0.933868 -0.00469795
-1.34763 77.0548 9.0443 -0.321833 -0.946792 -0.0028715
-2.76844 77.5364 9.08724 -0.306811 -0.951753 -0.00579892
-4.28772 77.9942 9.10072 -0.260686 -0.965421 -0.00208141
-5.89971 78.4029 9.11095 -0.217526 -0.97596 -0.0135584
-7.53894 78.7461 9.12018 -0.179155 -0.983745 -0.012205
-8.98251 78.9829 9.13264 -0.132165 -0.991187 -0.00900942
-10.3545 79.1348 9.13835 -0.0683149 -0.997405 -0.0227184
-11.7659 79.2179 9.15466 -0.0434593 -0.998991 -0.0113188
-13.1973 79.2607 9.19289 -0.0177096 -0.999818 -0.00712132
-15.0055 79.1848 9.30824 0.0653059 -0.997832 -0.00815102
-16.6656 79.0253 9.51604 0.119484 -0.992668 -0.0182777
-18.0472 78.848 9.70464 0.141742 -0.98974 -0.0179862
-19.6589 78.5932 9.94663 0.178107 -0.983716 -0.024093
-21.0601 78.3022 10.072 0.215143 -0.976082 -0.0312643
-22.5889 77.8986 10.1507 0.260402 -0.965092 -0.0280637
-24.3455 77.3949 10.177 0.28357 -0.95857 -0.0270476
-26.0272 76.8498 10.1055 0.31283 -0.949486 -0.0247913
-27.744 76.243 10.0427 0.343411 -0.938981 -0.0196088
-29.1561 75.7059 9.99231 0.368277 -0.929623 -0.0131138
-30.7081 75.0837 9.94536 0.381693 -0.924214 -0.0118239
-32.1973 74.4668 9.87324 0.390485 -0.92058 -0.00731173
-33.4708 73.9133 9.77831 0.39865 -0.917088 -0.00535667
-34.7282 73.3546 9.66181 0.414618 -0.909994 -0.00138111
-35.675 72.9176 9.56271 0.421524 -0.906817 -0.000897107
-35.4294 73.0354 8.63782 0.419577 -0.907711 -0.00394237
-34.0545 73.6626 8.7821 0.408698 -0.912585 -0.0124302
-32.5358 74.3311 8.91366 0.400354 -0.916206 -0.0168492
-31.0999 74.9361 9.0084 0.383802 -0.923321 -0.0132445
-29.2869 75.6686 9.04824 0.368113 -0.929654 -0.0153645
-28.0102 76.1591 9.07882 0.352123 -0.935776 -0.0182423
-26.4615 76.7246 9.12924 0.337597 -0.941057 -0.0209587
-24.9807 77.2184 9.17575 0.312725 -0.949538 -0.0241068
-23.4928 77.6734 9.18878 0.281687 -0.959116 -0.0273552
-22.079 78.067 9.14646 0.25695 -0.965933 -0.0308306
-20.7172 78.3944 9.05169 0.212132 -0.97724 -0.00169149
-19.0956 78.7037 8.84016 0.181537 -0.983253 -0.0160807
-17.705 78.9265 8.6256 0.132477 -0.990693 -0.031254
-16.1984 79.1119 8.39199 0.0971348 -0.995101 -0.0183977
-14.7972 79.2253 8.20905 0.0558886 -0.998001 -0.0295107
-13.4395 79.2677 8.12037 0.0141177 -0.999599 -0.0245326
-11.9831 79.2365 8.06333 -0.0316537 -0.999417 -0.0127582
-10.5724 79.1719 8.05873 -0.0608255 -0.997972 -0.0187467
-9.1561 79.0161 8.05931 -0.125997 -0.991855 -0.0186658
-7.6185 78.7705 8.0628 -0.191301 -0.981403 -0.0158463
-6.28288 78.5 8.05975 -0.205383 -0.978495 -0.0191384
-4.9608 78.1775 8.06191 -0.24818 -0.968693 -0.00636652
-3.24346 77.6865 8.04866 -0.297386 -0.954757 -6.97097e-05
-1.55424 77.131 7.99714 -0.323726 -0.946098 -0.00997193
-0.177772 76.6388 7.94559 -0.352341 -0.935862 -0.00433271
1.42988 76.0166 7.86994 -0.373625 -0.927571 -0.00411049
2.67656 75.498 7.80549 -0.392184 -0.919854 -0.00772272
3.95267 74.9308 7.75277 -0.415258 -0.909702 0.00145853
5.21849 74.351 7.66902 -0.416867 -0.908966 0.00156956
6.59339 73.7085 7.59614 -0.433666 -0.901072 0.00174439
7.8911 73.0851 7.57556 -0.43748 -0.899208 0.00604088
9.1364 72.4619 7.54126 -0.448197 -0.893873 0.0105276
10.503 71.7705 7.48051 -0.453831 -0.891029 0.0102623
11.7192 71.148 7.40088 -0.454844 -0.890489 0.0120836
13.0509 70.458 7.33325 -0.459509 -0.888051 0.0147503
14.2817 69.8183 7.28833 -0.462377 -0.886519 0.0170869
15.517 69.1734 7.28253 -0.461875 -0.886608 0.0244589
16.7286 68.5467 7.33401 -0.456242 -0.889444 0.0270743
18.3824 67.7224 7.5719 -0.443843 -0.895395 0.0356459
19.9057 66.9948 7.98905 -0.433748 -0.900184 0.0391245
20.8705 66.5578 8.31725 -0.417914 -0.907529 0.0417006
20.5816 66.6345 7.24086 -0.427608 -0.902836 0.0451434
19.3321 67.2183 6.79947 -0.434982 -0.899536 0.0403216
17.949 67.8988 6.46523 -0.452267 -0.891362 0.0304582
16.5035 68.6341 6.29846 -0.45736 -0.888988 0.0228396
14.9189 69.461 6.26768 -0.463326 -0.885896 0.0227383
13.2583 70.3318 6.29617 -0.460803 -0.887372 0.0152122
12.0051 70.9827 6.35285 -0.46021 -0.887688 0.014744
10.6149 71.6996 6.43009 -0.455445 -0.89018 0.0122061
9.20413 72.4166 6.49301 -0.449333 -0.89332 0.00889252
7.83173 73.1042 6.52897 -0.445895 -0.89503 0.00995716
6.48201 73.7604 6.54955 -0.425433 -0.904965 0.00665242
5.01405 74.4429 6.62739 -0.417486 -0.908683 0.000941898
3.54068 75.119 6.7258 -0.414297 -0.910135 0.00360269
1.98816 75.7892 6.80101 -0.384877 -0.922967 -0.00129848
0.439074 76.4163 6.87577 -0.372205 -0.92782 -0.0247652
-1.13679 76.9955 6.94888 -0.327323 -0.944855 -0.0104521
-2.43314 77.4315 6.9855 -0.302614 -0.953097 -0.0055344
-3.95882 77.9115 7.00679 -0.297422 -0.954741 -0.00319585
-5.39605 78.3127 7.01605 -0.258208 -0.965988 -0.0139789
-6.7492 78.6181 7.00316 -0.206105 -0.978432 -0.0138504
-8.37737 78.916 6.993 -0.145531 -0.989308 -0.00948684
-9.89251 79.1282 6.98638 -0.135 -0.990801 -0.00939447
-11.3177 79.2367 6.97435 -0.0557833 -0.997956 -0.0311813
-12.8035 79.2929 6.99692 -0.0281161 -0.999349 -0.0226245
-14.1777 79.2795 7.06951 0.0209089 -0.999636 -0.0170481
-15.7472 79.1882 7.26383 0.0738776 -0.997017 -0.02236
-17.276 79.0154 7.51153 0.129467 -0.991265 -0.0251595
-18.7817 78.788 7.76532 0.15763 -0.987155 -0.0260344
-20.2259 78.5113 7.98284 0.194384 -0.980906 -0.00619642
-21.9508 78.1105 8.14836 0.243837 -0.969721 -0.0135692
-23.6392 77.6544 8.22294 0.276042 -0.961062 -0.0126437
-25.0291 77.2256 8.20796 0.307159 -0.951483 -0.0182679
-26.3103 76.8001 8.16902 0.317937 -0.947812 -0.0238368
-27.7147 76.2883 8.14166 0.351654 -0.935958 -0.017936
-29.0608 75.7722 8.11293 0.36401 -0.93117 -0.0204687
-30.4801 75.207 8.09655 0.37646 -0.926133 -0.0235496
-31.8066 74.6572 8.03133 0.388673 -0.921174 -0.0192618
-33.1006 74.0993 7.92554 0.405328 -0.91401 -0.0171769
-34.6158 73.4185 7.7856 0.415593 -0.90945 -0.0135375
-35.483 73.0153 7.6951 0.422718 -0.906224 -0.00820696
-35.7761 72.8941 6.77393 0.425565 -0.904824 -0.0137063
-34.3907 73.5358 6.89469 0.415808 -0.909308 -0.0161697
-33.125 74.1048 6.98559 0.404367 -0.914488 -0.0141229
-31.8096 74.6745 7.08795 0.389879 -0.920684 -0.0182965
-30.3451 75.2852 7.17694 0.379871 -0.924789 -0.0215031
-28.6042 75.9746 7.18644 0.367588 -0.929614 -0.0264096
-27.0864 76.5422 7.20376 0.338917 -0.940611 -0.0196789
-25.7526 77.0135 7.21882 0.322583 -0.946086 -0.0293433
-23.8817 77.5946 7.24303 0.278148 -0.960376 -0.0176693
-22.5336 77.9812 7.20038 0.27101 -0.962466 -0.0145862
-21.0818 78.3471 7.05677 0.225194 -0.974073 -0.0216542
-19.6172 78.6613 6.8536 0.184876 -0.982399 -0.0267175
-18.2045 78.9096 6.61011 0.146524 -0.988983 -0.0210743
-16.6575 79.1217 6.35079 0.10249 -0.9947 -0.00827143
-14.7887 79.2772 6.07108 0.06791 -0.997655 -0.00852511
-13.2347 79.3253 5.94209 0.00063276 -0.999719 -0.0236891
-11.6028 79.2726 5.92007 -0.0497044 -0.998232 -0.0325956
-9.67333 79.1072 5.92581 -0.0933165 -0.995629 -0.00387334
-7.87367 78.8488 5.93322 -0.146394 -0.989203 -0.00675186
-5.93137 78.4433 5.95339 -0.228726 -0.973482 -0.00426077
-4.31856 78.0224 5.96451 -0.281137 -0.959623 0.0092979
-2.83282 77.5679 5.96117 -0.298684 -0.954295 -0.0103845
-1.44441 77.1151 5.93122 -0.335694 -0.941956 -0.00523634
0.166176 76.53 5.86166 -0.351538 -0.936141 -0.00784211
1.43106 76.0267 5.80589 -0.390022 -0.920765 0.00865632
2.68625 75.488 5.73641 -0.401749 -0.915735 0.00528319
4.06623 74.8747 5.64448 -0.409364 -0.91237 0.00161058
5.29437 74.3116 5.55242 -0.422513 -0.906343 0.00507671
6.55042 73.7172 5.49751 -0.435947 -0.899924 0.00933579
7.9932 73.0128 5.45914 -0.446181 -0.894895 0.00923692
9.37601 72.3189 5.4378 -0.453347 -0.891254 0.0119095
11.0496 71.4628 5.38082 -0.455556 -0.890126 0.0120493
12.3589 70.7808 5.30743 -0.46141 -0.887015 0.017488
13.6018 70.1302 5.26172 -0.464645 -0.885241 0.0213106
14.9599 69.4114 5.21727 -0.466587 -0.88418 0.0228635
16.358 68.6755 5.24296 -0.466752 -0.883971 0.0271518
17.9126 67.8752 5.38636 -0.461111 -0.886672 0.0344808
19.2444 67.2141 5.73943 -0.447989 -0.892863 0.0458473
19.997 66.8563 6.02321 -0.438217 -0.897136 0.0557909
19.5896 66.9896 4.81347 -0.449156 -0.891953 0.0517579
18.0957 67.7386 4.38777 -0.45837 -0.887777 0.0418203
16.8181 68.398 4.21497 -0.467018 -0.883618 0.0333674
15.5845 69.0516 4.18905 -0.468481 -0.883088 0.0260919
14.2403 69.7653 4.21377 -0.468201 -0.883342 0.0222656
12.9517 70.4473 4.2548 -0.464864 -0.885125 0.0213456
11.5715 71.1726 4.32526 -0.46254 -0.886464 0.0154205
10.2408 71.8621 4.3894 -0.456438 -0.889657 0.0132308
8.97639 72.5088 4.41201 -0.451749 -0.89207 0.0116141
7.72235 73.1374 4.41297 -0.442538 -0.8967 0.00947443
6.26008 73.8451 4.44682 -0.429413 -0.903099 0.00405284
4.85012 74.5144 4.5416 -0.420405 -0.907336 0.000897199
3.50944 75.1237 4.64854 -0.404742 -0.91443 0.00142402
2.11989 75.7261 4.73701 -0.394516 -0.918887 0.00187071
0.838604 76.2625 4.81088 -0.384384 -0.923133 0.00860947
-0.599268 76.8158 4.87706 -0.339323 -0.940605 0.0110243
-1.93602 77.2833 4.91401 -0.313808 -0.949485 0.0014298
-3.52104 77.7819 4.92374 -0.290327 -0.956927 -3.68647e-05
-4.93811 78.1966 4.90422 -0.250131 -0.968132 0.012405
-6.37784 78.5468 4.88673 -0.220066 -0.975473 0.00487777
-7.75008 78.8268 4.87713 -0.174751 -0.98461 -0.0024563
-9.19515 79.0561 4.87369 -0.145587 -0.989234 -0.0148461
-10.7226 79.2194 4.8583 -0.0977178 -0.99519 -0.00694894
-12.3111 79.3248 4.86587 -0.026839 -0.999638 -0.00162043
-13.7052 79.3283 4.92255 0.0120292 -0.999866 0.0111027
-15.5885 79.2472 5.12956 0.0795029 -0.996491 -0.0261852
-17.1576 79.0896 5.36125 0.118443 -0.992754 -0.0202876
-18.5445 78.8838 5.60198 0.162504 -0.986376 -0.0256047
-20.1829 78.5639 5.88401 0.210685 -0.977315 -0.0216176
-21.8035 78.1895 6.12388 0.239998 -0.970456 -0.0248076
-23.299 77.7872 6.25361 0.274559 -0.961256 -0.0245905
-24.6171 77.3989 6.25956 0.296865 -0.954818 -0.0139263
-26.1225 76.9024 6.24726 0.334765 -0.942103 -0.0193493
-27.7652 76.3187 6.2467 0.346467 -0.937718 -0.0254215
-29.0243 75.8344 6.24175 0.366595 -0.930106 -0.0225908
-30.4083 75.2807 6.2299 0.383664 -0.923178 -0.0233188
-31.65 74.7607 6.15959 0.390942 -0.920118 -0.0233992
-33.0267 74.1647 6.06615 0.407155 -0.913144 -0.0198261
-34.3987 73.5492 5.98445 0.414518 -0.909797 -0.0210586
-35.6876 72.9521 5.89122 0.427367 -0.90388 -0.0189484
-35.6633 72.9847 5.00321 0.426853 -0.90402 -0.0233332
-34.2115 73.6546 5.11204 0.41452 -0.909797 -0.0210494
-32.9382 74.2244 5.16444 0.406603 -0.913216 -0.026653
-31.5827 74.8128 5.23671 0.389025 -0.920957 -0.0223351
-30.1157 75.4211 5.28433 0.374374 -0.927012 -0.0222003
-28.5118 76.0596 5.2846 0.364643 -0.930767 -0.0266261
-27.2498 76.5273 5.28448 0.337307 -0.940948 -0.0290132
-25.7469 77.0531 5.27422 0.324081 -0.945914 -0.0147646
-24.2876 77.514 5.26296 0.293889 -0.955751 -0.0130001
-22.8356 77.9309 5.19995 0.257223 -0.966228 -0.0154523
-21.4754 78.296 5.05677 0.249323 -0.968266 -0.017301
-19.9517 78.6385 4.78436 0.212323 -0.976906 -0.0239314
-18.1643 78.9622 4.46926 0.14675 -0.989174 2.15631e-05
-16.7685 79.1448 4.23132 0.108211 -0.994117 -0.00457037
-15.3369 79.283 4.03035 0.0630588 -0.998008 -0.00182843
-13.9758 79.3254 3.89042 0.0193691 -0.999811 -0.00174136
-12.5212 79.3264 3.82662 -0.023531 -0.999688 0.00839307
-11.1234 79.2584 3.80792 -0.0857153 -0.9959 -0.0289095
-9.74578 79.132 3.82228 -0.0947441 -0.995443 -0.0108117
-8.21037 78.9164 3.81392 -0.161766 -0.986704 -0.0157382
-6.84064 78.6554 3.8183 -0.21484 -0.97664 -0.00419037
-5.52224 78.3434 3.83749 -0.240868 -0.970549 0.00418011
-3.73905 77.8532 3.868 -0.291781 -0.956409 -0.0120977
-2.19658 77.3676 3.88496 -0.311184 -0.950345 0.00307639
-0.590933 76.8052 3.85264 -0.343774 -0.939046 0.00335258
0.680284 76.3204 3.79019 -0.372972 -0.927841 0.00135317
2.28044 75.6519 3.68735 -0.398862 -0.916989 0.00638757
3.76702 75.0038 3.59723 -0.400978 -0.916039 0.00938749
5.26755 74.3152 3.46835 -0.424718 -0.905325 0.000775978
6.67133 73.6413 3.39005 -0.438788 -0.898559 0.00753409
7.90312 73.0371 3.38177 -0.443706 -0.896112 0.0104431
9.36193 72.301 3.38616 -0.4555 -0.890183 0.00967833
10.818 71.5493 3.3533 -0.464413 -0.885505 0.0141829
12.1499 70.8489 3.28692 -0.464795 -0.885224 0.0185575
13.4695 70.1522 3.21404 -0.468272 -0.883377 0.0191668
14.8135 69.4335 3.18041 -0.471676 -0.881408 0.0253223
16.1143 68.7354 3.15788 -0.470207 -0.882043 0.0301067
17.5714 67.9596 3.23841 -0.471132 -0.88121 0.0387711
19.1363 67.1504 3.55242 -0.46557 -0.883597 0.0500019
19.749 66.8472 3.79457 -0.459429 -0.886488 0.0553583
19.3877 66.9553 2.52291 -0.469068 -0.881391 0.0559032
17.9304 67.7213 2.2295 -0.474703 -0.879152 0.0418129
16.7051 68.3808 2.14966 -0.474935 -0.879402 0.0329919
15.2673 69.1597 2.16789 -0.474248 -0.879994 0.0264507
13.743 69.9822 2.20869 -0.472001 -0.881338 0.0213876
12.2606 70.772 2.28848 -0.467162 -0.884032 0.0157423
10.9241 71.4776 2.34568 -0.46441 -0.885506 0.0141913
9.67879 72.1276 2.35769 -0.455935 -0.889941 0.0113384
8.25815 72.8471 2.36485 -0.448849 -0.893541 0.0109126
6.91296 73.5153 2.382 -0.439145 -0.89839 0.00686486
5.53236 74.177 2.4293 -0.424701 -0.905216 0.0146171
4.22049 74.7896 2.53169 -0.411383 -0.911378 0.0124474
2.98087 75.3363 2.62253 -0.396535 -0.917942 0.0119396
