-2.6635 78.1705 8.42015 -0.31883 -0.947811 0.00138996
-3.99881 78.5719 8.45412 -0.278794 -0.960347 -0.00256444
-5.43294 78.9439 8.48961 -0.23068 -0.972929 -0.0140232
-6.76304 79.2353 8.51152 -0.209836 -0.977726 -0.0045602
-8.46885 79.5578 8.53674 -0.155197 -0.98784 -0.00928992
-9.74766 79.7299 8.56572 -0.107943 -0.994059 -0.0139337
-11.423 79.8579 8.63179 -0.0497699 -0.998696 -0.0113279
-12.973 79.9036 8.75719 -0.015795 -0.999841 -0.00827914
-14.4713 79.8659 8.91389 0.050224 -0.998663 -0.0122532
-16.0535 79.7475 9.15795 0.110677 -0.99348 -0.0273527
-17.6415 79.5408 9.34374 0.12398 -0.991871 -0.0286577
-19.0046 79.3343 9.44521 0.169983 -0.98531 -0.0164402
-20.3507 79.0822 9.55862 0.211943 -0.976881 -0.0280074
-21.6334 78.7783 9.58789 0.237806 -0.971129 -0.0188872
-22.9565 78.4326 9.61115 0.267013 -0.963541 -0.0170933
-24.2855 78.0471 9.63094 0.29608 -0.955016 -0.0167749
-26.0195 77.4737 9.62762 0.32315 -0.946198 -0.0168184
-27.3036 77.0208 9.64361 0.341945 -0.939518 -0.0194832
-28.5961 76.5405 9.62144 0.359278 -0.933182 -0.00953554
-29.7954 76.0661 9.60151 0.373461 -0.927516 -0.0155234
-30.9998 75.5753 9.59059 0.382651 -0.923784 -0.014216
-32.343 75.012 9.51506 0.398832 -0.916957 -0.0111152
-33.7151 74.405 9.40434 0.408681 -0.912632 -0.00909264
-35.1998 73.7302 9.2873 0.417612 -0.908612 -0.00486456
-35.5199 73.5833 9.26247 0.421468 -0.906831 -0.00478768
-35.8444 73.4331 8.28978 0.427079 -0.904214 -0.000912911
-34.6641 73.9832 8.40968 0.419896 -0.90752 -0.00972831
-33.5025 74.5103 8.49918 0.408507 -0.91269 -0.0109214
-32.0554 75.1486 8.61295 0.396513 -0.917844 -0.0184177
-30.8081 75.6695 8.68305 0.380604 -0.924629 -0.0141856
-29.4157 76.2343 8.69425 0.369581 -0.929093 -0.0140004
-28.2252 76.7044 8.71713 0.351563 -0.935944 -0.0202814
-26.928 77.1802 8.70645 0.335735 -0.941702 -0.0218815
-25.5299 77.6604 8.67187 0.322717 -0.946261 -0.0210531
-24.257 78.0708 8.64362 0.291778 -0.956316 -0.0180507
-23.0008 78.4444 8.62451 0.260602 -0.965259 -0.0190063
-21.7136 78.7771 8.57314 0.239742 -0.970704 -0.0160292
-20.3264 79.1007 8.49689 0.201477 -0.979434 -0.0107835
-18.992 79.3616 8.39197 0.18045 -0.983193 -0.0277424
-17.6034 79.5813 8.24461 0.136461 -0.99024 -0.0283443
-16.1852 79.7527 8.04753 0.0921788 -0.994903 -0.040883
-14.8124 79.8671 7.8508 0.0573772 -0.998064 -0.0240183
-13.476 79.9162 7.68952 0.0181821 -0.999632 -0.0201208
-11.9526 79.8977 7.5442 -0.0289315 -0.999418 -0.0180975
-10.4282 79.8198 7.48805 -0.069909 -0.997488 -0.0113968
-9.02994 79.6573 7.45674 -0.144702 -0.989443 -0.00798885
-7.55894 79.4161 7.45957 -0.186424 -0.982419 -0.0099225
-6.06171 79.0983 7.46425 -0.214153 -0.976617 -0.0188979
-4.4224 78.6935 7.44462 -0.264033 -0.964507 -0.00356167
-3.11366 78.3158 7.42703 -0.310186 -0.950651 -0.00685083
-1.86083 77.9021 7.38781 -0.330874 -0.943675 -9.37325e-05
-0.510376 77.4262 7.36409 -0.34985 -0.936793 -0.00481365
1.00941 76.8327 7.31614 -0.365928 -0.930607 -0.00815325
2.51736 76.2139 7.2528 -0.394873 -0.91873 0.0032747
3.86398 75.6173 7.17409 -0.417284 -0.908775 0.00121487
5.20703 74.9998 7.07079 -0.418195 -0.908357 -3.12446e-05
6.43241 74.4297 6.96669 -0.427176 -0.90416 0.00387738
7.86609 73.7351 6.84043 -0.436083 -0.899905 0.0018188
9.50722 72.9066 6.67969 -0.451429 -0.892264 0.00878917
10.6837 72.306 6.57049 -0.456923 -0.889445 0.010486
12.058 71.5947 6.47283 -0.462409 -0.886576 0.012638
13.4554 70.8642 6.43856 -0.465363 -0.884984 0.0155169
14.686 70.2145 6.45521 -0.466482 -0.884311 0.0197193
15.9551 69.5462 6.52361 -0.463149 -0.885981 0.0230566
17.2026 68.9021 6.68567 -0.457544 -0.888789 0.0266102
18.417 68.2917 6.91097 -0.447989 -0.893391 0.034038
19.6897 67.6786 7.19758 -0.436385 -0.898829 0.0409114
19.5496 67.7011 6.22327 -0.445207 -0.894494 0.040882
18.3765 68.2769 5.92431 -0.453628 -0.890491 0.0353132
17.2016 68.8737 5.69019 -0.461264 -0.886686 0.0319881
15.9949 69.4992 5.53097 -0.466942 -0.884007 0.0222905
14.7557 70.1542 5.45809 -0.47049 -0.882182 0.0198389
13.5697 70.7843 5.43836 -0.467954 -0.883589 0.0170142
12.3082 71.4493 5.43654 -0.46573 -0.884775 0.0163983
10.715 72.2773 5.54989 -0.456625 -0.889584 0.0115465
9.57748 72.8603 5.6609 -0.451445 -0.892243 0.00993737
8.41524 73.4501 5.78245 -0.450106 -0.892933 0.00869007
7.05234 74.1248 5.91593 -0.437302 -0.899251 0.0106802
5.83779 74.706 6.02672 -0.427777 -0.903863 0.00616131
4.54441 75.3066 6.13787 -0.419488 -0.907756 0.00289246
3.27963 75.8762 6.2298 -0.400148 -0.916438 0.00485281
1.93452 76.4581 6.29439 -0.389448 -0.921045 0.00261784
0.611242 77.0021 6.34307 -0.363908 -0.93137 -0.0109788
-1.00373 77.611 6.37253 -0.333617 -0.942592 -0.0148042
-2.39408 78.0885 6.39585 -0.320192 -0.947348 -0.00303268
-3.74297 78.5292 6.41275 -0.292227 -0.956189 -0.017477
-4.98297 78.8585 6.44008 -0.240967 -0.970458 -0.0120699
-6.34074 79.1798 6.41587 -0.222162 -0.974934 -0.0121531
-7.95759 79.4915 6.38692 -0.165528 -0.98616 -0.00947664
-9.26783 79.6954 6.37417 -0.1351 -0.990815 -0.00587729
-10.6155 79.8467 6.39531 -0.0816163 -0.996659 -0.00303533
-11.9729 79.915 6.44518 -0.0438602 -0.999016 -0.00663957
-13.4929 79.921 6.56473 0.0114081 -0.999929 0.00353428
-14.8707 79.8853 6.74123 0.0680579 -0.997568 -0.0150503
-16.2613 79.7874 6.938 0.0836484 -0.996463 -0.00802236
-17.8535 79.5771 7.17835 0.138807 -0.989985 -0.0257372
-19.4218 79.307 7.35424 0.190443 -0.981355 -0.0259617
-20.8935 78.9896 7.47884 0.227252 -0.97327 -0.0332013
-22.1684 78.6834 7.58588 0.255142 -0.966547 -0.0262507
-23.4032 78.3478 7.64946 0.289911 -0.956945 -0.0144103
-24.6965 77.9548 7.687 0.3041 -0.952501 -0.0162589
-26.1621 77.4657 7.73099 0.326734 -0.944798 -0.0245345
-27.3819 77.0377 7.77727 0.345293 -0.93822 -0.0227084
-28.5881 76.5815 7.78785 0.364231 -0.931142 -0.0175839
-30.1047 75.9767 7.78501 0.377098 -0.925937 -0.0209332
-31.4304 75.4254 7.73796 0.389606 -0.920857 -0.0151773
-32.6996 74.8789 7.644 0.403415 -0.914958 -0.0103981
-34.0236 74.2885 7.55895 0.411275 -0.911423 -0.0127035
-35.431 73.639 7.43572 0.424431 -0.905384 -0.0117133
-35.6307 73.5591 6.52378 0.426938 -0.904147 -0.0155497
-34.1032 74.2631 6.64091 0.413754 -0.910326 -0.0106986
-32.7597 74.8659 6.73087 0.407025 -0.913149 -0.0221194
-31.2992 75.4991 6.82924 0.389333 -0.920926 -0.0177822
-29.7057 76.1563 6.86879 0.372177 -0.927923 -0.021039
-28.2168 76.747 6.85722 0.363775 -0.931201 -0.0230729
-26.5998 77.3373 6.79098 0.328518 -0.944232 -0.022379
-25.2543 77.795 6.72962 0.309717 -0.950548 -0.023095
-23.8393 78.2342 6.67672 0.288876 -0.957059 -0.0242765
-22.5517 78.6068 6.59153 0.270258 -0.962392 -0.0275982
-21.2752 78.9324 6.45727 0.22915 -0.97314 -0.0221092
-19.8067 79.2589 6.28573 0.199088 -0.979729 -0.0222464
-18.3328 79.5251 6.10673 0.149147 -0.988551 -0.0228448
-16.6522 79.7535 5.86614 0.0935064 -0.995429 -0.0194362
-15.0398 79.883 5.62596 0.0545622 -0.997829 -0.0368874
-13.5324 79.938 5.42975 0.0105408 -0.999819 -0.015844
-12.2389 79.9345 5.31132 -0.0307529 -0.999496 -0.00789321
-10.6467 79.8608 5.29421 -0.0550099 -0.998471 -0.00541699
-9.36885 79.7214 5.30204 -0.149744 -0.988325 -0.0280952
-7.88839 79.4894 5.32412 -0.155882 -0.987701 -0.0121793
-6.54386 79.2327 5.37276 -0.20956 -0.977768 -0.00736262
-5.03527 78.8789 5.41056 -0.238861 -0.971031 -0.00656501
-3.68614 78.5061 5.40535 -0.291123 -0.956564 0.0152836
-2.16326 78.0235 5.39606 -0.31277 -0.949765 -0.0110243
-0.671945 77.4949 5.37931 -0.34507 -0.938526 -0.00980043
0.532215 77.0309 5.36139 -0.372304 -0.928097 0.00504204
2.09921 76.3819 5.3088 -0.394418 -0.918922 0.00407722
3.62352 75.7217 5.22768 -0.401783 -0.915735 0.000506185
4.82599 75.1733 5.12851 -0.419544 -0.907731 0.00283746
6.14603 74.5524 5.01288 -0.428193 -0.903652 0.00801128
7.7062 73.7906 4.85279 -0.440389 -0.897719 0.0125711
9.1439 73.0693 4.70179 -0.454065 -0.890922 0.00907856
10.2864 72.4849 4.59368 -0.456332 -0.889719 0.0126555
11.7801 71.7079 4.4692 -0.463524 -0.885964 0.0145735
12.9598 71.0865 4.42832 -0.467509 -0.883769 0.0196939
14.1569 70.4492 4.44796 -0.472358 -0.881154 0.0210945
15.5773 69.6912 4.49767 -0.471093 -0.881778 0.0232387
16.7438 69.0754 4.59097 -0.467087 -0.883805 0.0268059
17.8842 68.4878 4.78904 -0.458776 -0.888008 0.0310832
19.2543 67.8004 5.14717 -0.453338 -0.890117 0.046641
19.1175 67.8147 4.08941 -0.452952 -0.890323 0.0464651
17.9647 68.4013 3.75981 -0.468248 -0.882742 0.0388674
16.7041 69.0633 3.57383 -0.472579 -0.880625 0.0341869
15.4834 69.7126 3.49668 -0.472964 -0.880665 0.0271088
14.2447 70.377 3.44209 -0.471671 -0.881481 0.0227626
13.1144 70.9826 3.44686 -0.470542 -0.882164 0.0194313
11.9698 71.588 3.48155 -0.465534 -0.884811 0.019663
10.5826 72.3172 3.58675 -0.458397 -0.888697 0.00947996
9.25963 72.9987 3.70889 -0.455515 -0.89017 0.0101891
8.07802 73.5985 3.83044 -0.448561 -0.893693 0.0102558
6.58095 74.333 3.99245 -0.436003 -0.899935 0.0043387
5.08229 75.0515 4.12571 -0.430295 -0.902657 0.00756618
3.91597 75.588 4.22247 -0.410573 -0.911782 0.00910182
2.44768 76.2294 4.31869 -0.39267 -0.919678 0.00176911
1.26844 76.7277 4.36361 -0.37548 -0.926814 0.00557543
-0.0894714 77.2711 4.39553 -0.361116 -0.932484 0.00833062
-1.53022 77.8021 4.39561 -0.336057 -0.941753 0.0128786
-2.79903 78.2226 4.40564 -0.302691 -0.953089 0.000304866
-4.48684 78.7295 4.38296 -0.268281 -0.963341 -0.000703347
-6.15171 79.155 4.35304 -0.21688 -0.976129 -0.0116525
-7.55408 79.4341 4.29153 -0.190814 -0.981605 -0.00649349
-8.93884 79.6784 4.23931 -0.149356 -0.98878 -0.00271684
-10.2121 79.8424 4.17673 -0.121391 -0.992592 -0.00506228
-11.525 79.9333 4.14853 -0.0431551 -0.998814 -0.0225286
-13.1788 79.961 4.23229 0.00641009 -0.999877 -0.0143383
-14.4815 79.9401 4.39046 0.0263259 -0.999547 -0.0145993
-16.1054 79.8286 4.62657 0.0932155 -0.995464 -0.0190101
-17.7595 79.6389 4.87486 0.140053 -0.989983 -0.0178779
-19.0869 79.4212 5.07074 0.183097 -0.98281 -0.0236719
-20.3228 79.1679 5.25427 0.215597 -0.976232 -0.0220944
-21.5644 78.8872 5.44915 0.229157 -0.973138 -0.0221012
-23.5561 78.3485 5.66137 0.266403 -0.963678 -0.0188191
-24.8325 77.9564 5.72193 0.308974 -0.950921 -0.0168704
-26.1471 77.5204 5.80414 0.315709 -0.948665 -0.0190545
-27.3624 77.089 5.88295 0.345225 -0.938258 -0.022177
-28.7782 76.5468 5.94348 0.369745 -0.928862 -0.022461
-30.0003 76.0571 5.95126 0.376467 -0.926263 -0.0175992
-31.5417 75.4156 5.90045 0.3925 -0.919507 -0.0212063
-32.7664 74.8836 5.82699 0.407937 -0.912793 -0.019926
-34.5317 74.087 5.72417 0.412933 -0.910508 -0.0214692
-35.722 73.532 5.62996 0.425557 -0.90462 -0.0237585
-35.7779 73.5055 5.624 0.430891 -0.902129 -0.022297
-35.3884 73.711 4.78805 0.429713 -0.902705 -0.0217001
-33.8956 74.3973 4.87687 0.413929 -0.909906 -0.0270882
-32.5847 74.9839 4.93304 0.402817 -0.914867 -0.0275271
-31.4072 75.4939 4.99332 0.392796 -0.919219 -0.0273472
-29.8847 76.1248 5.0263 0.377483 -0.925748 -0.0223089
-28.5882 76.6476 5.01098 0.362475 -0.931717 -0.022679
-27.1637 77.1838 4.91235 0.341949 -0.939313 -0.0276072
-25.7432 77.6753 4.78466 0.315402 -0.948755 -0.0196193
-24.3007 78.1425 4.68345 0.298565 -0.954231 -0.0174
-22.938 78.5364 4.56852 0.267412 -0.963475 -0.0143918
-21.6058 78.8959 4.39945 0.240766 -0.970455 -0.0157624
-20.3325 79.1921 4.18503 0.205107 -0.978394 -0.0259976
-18.5797 79.5172 3.89119 0.154027 -0.987577 -0.0310889
-17.0971 79.7326 3.64771 0.122721 -0.992441 0.000506896
-15.839 79.871 3.44003 0.0896045 -0.995917 -0.0109429
-14.1836 79.9591 3.1957 0.0341409 -0.999367 -0.00996453
-12.6336 79.9733 3.02911 -0.0143068 -0.999873 -0.00703015
-11.2659 79.945 3.04358 -0.0479294 -0.998626 -0.0212037
-9.94521 79.8137 3.08071 -0.129847 -0.991495 -0.00878324
-8.37513 79.595 3.16312 -0.138355 -0.990297 -0.0130196
-6.82916 79.3043 3.28372 -0.201899 -0.97916 -0.0219624
-5.36544 78.9747 3.34425 -0.259416 -0.965745 -0.00640525
-3.73143 78.517 3.3854 -0.270122 -0.962826 -0.000508712
-2.39714 78.0847 3.41471 -0.31062 -0.950512 0.00645652
-0.452555 77.4024 3.42295 -0.353845 -0.935288 0.00544297
0.97346 76.8392 3.40091 -0.375859 -0.926634 0.00887213
2.30596 76.2871 3.35371 -0.397147 -0.91773 0.0067494
3.67262 75.6845 3.27374 -0.405865 -0.913866 0.0111146
4.84841 75.1497 3.1809 -0.425972 -0.904651 0.012427
6.203 74.5065 3.06393 -0.430277 -0.902651 0.00908548
7.37571 73.9373 2.94293 -0.444281 -0.895829 0.0102086
8.70129 73.2733 2.80055 -0.451146 -0.892352 0.013226
9.94103 72.637 2.67757 -0.456447 -0.889683 0.0109313
11.1319 72.0161 2.58312 -0.466172 -0.884576 0.014453
12.4293 71.3264 2.49085 -0.469269 -0.882912 0.0158801
13.8802 70.5485 2.4707 -0.475195 -0.879556 0.0238883
15.2077 69.831 2.48789 -0.476254 -0.878951 0.0250605
16.3303 69.2231 2.51851 -0.475274 -0.879259 0.0319198
17.5628 68.5595 2.59562 -0.475341 -0.878886 0.0401334
19.1071 67.7617 3.01926 -0.465875 -0.883081 0.055941
18.7282 67.8923 1.77161 -0.475991 -0.878373 0.0435175
17.604 68.4928 1.5665 -0.479747 -0.876688 0.0355172
16.2797 69.2167 1.51896 -0.478179 -0.877768 0.0294538
15.0786 69.8737 1.52191 -0.480856 -0.87636 0.0277737
13.9144 70.5051 1.5225 -0.476541 -0.87882 0.024146
12.4278 71.3095 1.55219 -0.473639 -0.88053 0.0182307
11.2758 71.9236 1.62392 -0.469717 -0.882695 0.0146529
10.0654 72.5598 1.71482 -0.4583 -0.888738 0.0103309
8.92512 73.1448 1.82389 -0.45305 -0.891386 0.0132862
7.68577 73.7718 1.95206 -0.44725 -0.894331 0.0118065
6.23081 74.4834 2.09915 -0.429667 -0.902933 0.00988044
4.74719 75.1875 2.22614 -0.426627 -0.904399 0.00724924
3.46655 75.7699 2.32636 -0.403677 -0.914893 0.00390464
2.29492 76.284 2.39143 -0.395194 -0.918552 0.00916186
1.09435 76.784 2.42452 -0.374909 -0.927047 0.00520294
-0.225335 77.3061 2.44291 -0.359816 -0.93299 0.00788151
-1.6969 77.8407 2.43102 -0.32879 -0.944402 -0.00146026
-2.93385 78.2554 2.40334 -0.311251 -0.950326 0.00204328
-4.69184 78.7889 2.34295 -0.275297 -0.961354 0.00310668
-6.23009 79.1889 2.2894 -0.21285 -0.976971 -0.0149443
-7.77299 79.5056 2.14985 -0.168427 -0.985685 -0.00753365
-9.03836 79.7018 2.05746 -0.143005 -0.989582 -0.0166395
-10.393 79.8828 1.98375 -0.113008 -0.993377 -0.0207913
-12.0756 79.9851 1.87851 -0.0189297 -0.999563 -0.0226821
-13.5194 79.9881 1.96374 0.0240652 -0.999695 -0.0054729
-15.0327 79.943 2.14661 0.0562433 -0.998407 -0.00457394
-16.5705 79.8189 2.41682 0.104932 -0.994362 -0.0152986
-17.8596 79.6509 2.65814 0.136668 -0.990531 -0.0130497
-19.1129 79.4589 2.88485 0.182171 -0.983202 -0.0113046
-20.5748 79.1567 3.15504 0.223981 -0.974526 -0.011489
-21.8329 78.8625 3.36396 0.233778 -0.972145 -0.0167904
-23.4308 78.4176 3.56088 0.271265 -0.962272 -0.0211587
-25.2184 77.8726 3.72417 0.307515 -0.95125 -0.0236146
-26.4868 77.4477 3.8645 0.321244 -0.946722 -0.0227768
-27.7557 76.9949 3.98987 0.350143 -0.936269 -0.0282825
-28.9925 76.5102 4.07795 0.37102 -0.928348 -0.0226642
-30.2662 75.992 4.09519 0.377844 -0.925469 -0.0272308
-31.5295 75.4677 4.07668 0.394097 -0.918736 -0.0247419
-32.8427 74.895 4.03428 0.407488 -0.912881 -0.0245117
-34.2899 74.2412 3.98336 0.417771 -0.908246 -0.0235935
-35.5688 73.6486 3.8907 0.426728 -0.903681 -0.0355609
-35.4521 73.7357 3.0038 0.42951 -0.902672 -0.0265463
-34.1522 74.3354 3.07728 0.417605 -0.908067 -0.0319616
-32.742 74.9669 3.13388 0.406309 -0.913302 -0.0281495
-31.4466 75.5272 3.14559 0.394378 -0.918685 -0.0219854
-29.9318 76.1552 3.13861 0.376691 -0.92595 -0.0268488
-28.5546 76.7058 3.07563 0.365329 -0.930463 -0.0277961
-27.2158 77.2089 2.9395 0.340686 -0.94003 -0.0166459
-25.7334 77.7271 2.77144 0.316039 -0.948508 -0.0212539
-24.1011 78.24 2.58345 0.285043 -0.95834 -0.0183003
-22.8409 78.6102 2.41224 0.265909 -0.963767 -0.0210804
-21.4856 78.961 2.20959 0.222472 -0.974767 -0.0183016
-19.8359 79.3363 1.90454 0.195822 -0.980386 -0.0223017
-18.3114 79.5965 1.62802 0.149391 -0.988694 -0.012872
-16.8775 79.8014 1.35903 0.112851 -0.993479 -0.0162567
-15.4667 79.9299 1.08945 0.0590379 -0.997932 -0.0254369
-14.1669 79.9997 0.882039 0.0340782 -0.998961 -0.0302573
-12.6392 80.0231 0.765406 -0.00813966 -0.999695 -0.0233372
-11.1713 79.9503 0.787969 -0.0754864 -0.997113 -0.00824724
-9.79148 79.8179 0.921591 -0.119706 -0.992807 -0.00200286
-8.31703 79.6048 1.05105 -0.163329 -0.986559 -0.00492342
-7.02797 79.3744 1.18861 -0.200525 -0.979574 -0.0149596
-5.73698 79.0724 1.29307 -0.256223 -0.966608 0.00439141
-4.38669 78.6951 1.35669 -0.274365 -0.961602 0.00667292
-3.09201 78.3053 1.40203 -0.307969 -0.951388 0.00397334
-1.70396 77.8418 1.43927 -0.319188 -0.94769 0.0017982
-0.450448 77.3845 1.4601 -0.347174 -0.93779 0.00448465
0.804403 76.902 1.45173 -0.378926 -0.925427 -0.000605498
2.16554 76.3301 1.42849 -0.393143 -0.919475 -0.00211963
3.48973 75.755 1.3666 -0.408328 -0.912807 0.00716926
4.85804 75.1264 1.25601 -0.416532 -0.909072 0.00948132
6.22864 74.4756 1.14679 -0.429124 -0.903216 0.00731474
7.49983 73.8526 1.02619 -0.447256 -0.894328 0.0118079
9.15606 73.0142 0.866359 -0.453392 -0.891235 0.0116516
10.3693 72.3859 0.742821 -0.462361 -0.886565 0.0150122
11.9223 71.5609 0.650405 -0.472134 -0.881343 0.0179921
13.0739 70.94 0.608965 -0.478595 -0.877806 0.0200851
14.4043 70.2154 0.578765 -0.479528 -0.877236 0.0225635
15.952 69.3645 0.549619 -0.482978 -0.875233 0.0264593
17.2549 68.6428 0.548428 -0.484997 -0.873637 0.0391997
18.4415 67.9889 0.639531 -0.482118 -0.875049 0.0430273
18.9938 67.6905 0.771246 -0.485944 -0.872713 0.0472201
18.7674 67.7558 -0.372018 -0.492398 -0.869287 0.0433978
17.6575 68.3782 -0.424305 -0.486875 -0.872755 0.0353771
16.3443 69.115 -0.394252 -0.488724 -0.871873 0.0314085
15.024 69.8488 -0.347357 -0.4814 -0.876155 0.0246287
13.7563 70.5462 -0.340772 -0.481431 -0.876215 0.0217216
12.5104 71.2268 -0.301763 -0.477072 -0.878657 0.0190731
10.9123 72.0849 -0.231735 -0.46936 -0.88287 0.0155515
9.61644 72.766 -0.115571 -0.454427 -0.890668 0.0143674
8.45658 73.3584 0.00814858 -0.450282 -0.8928 0.0124483
7.2434 73.9686 0.116903 -0.448506 -0.89369 0.0126773
5.74764 74.696 0.229781 -0.43095 -0.902298 0.0118701
4.48172 75.2894 0.331249 -0.417484 -0.908653 0.00758399
3.20896 75.873 0.431255 -0.417684 -0.908591 0.001543
1.75981 76.4995 0.468467 -0.391818 -0.919979 0.0108261
0.533226 77.0058 0.470961 -0.359102 -0.933275 0.0065693
-0.858611 77.5308 0.461754 -0.347197 -0.937781 0.00450414
-2.06078 77.9571 0.433699 -0.324422 -0.945912 -0.000762487
-3.39457 78.3954 0.388723 -0.297159 -0.95477 -0.0105158
-4.8947 78.8324 0.312186 -0.274144 -0.961662 0.00721265
-6.48513 79.2587 0.199142 -0.232058 -0.972613 0.0131314
-7.84068 79.5317 0.0556091 -0.159106 -0.987259 -0.00197295
-9.11246 79.7424 -0.103231 -0.140742 -0.990011 -0.00832255
-10.7502 79.9338 -0.285511 -0.0947201 -0.99543 -0.0121634
-12.1732 80.0206 -0.332489 -0.0421157 -0.999111 0.00197657
-14.0039 80.0329 -0.261517 0.0104531 -0.999868 -0.0124025
-15.274 79.9701 -0.0518768 0.0574149 -0.998082 -0.0231582
-16.5853 79.8693 0.207081 0.0990946 -0.99467 -0.0284848
-18.2331 79.6285 0.527696 0.155694 -0.987648 -0.0176226
-19.6784 79.383 0.786181 0.176887 -0.983908 -0.0251997
-21.111 79.0763 1.04553 0.228366 -0.973253 -0.0250406
-22.4196 78.7489 1.26426 0.25882 -0.965654 -0.022891
-23.7677 78.3668 1.47467 0.279322 -0.959739 -0.0296843
-25.1515 77.9423 1.66744 0.302189 -0.952917 -0.0251305
-26.3491 77.5388 1.83206 0.320339 -0.947002 -0.0238611
-27.7435 77.0375 2.00335 0.338872 -0.940633 -0.0193655
-29.3575 76.4112 2.14459 0.370381 -0.92861 -0.0223949
-30.5901 75.9086 2.20674 0.382156 -0.923894 -0.0194162
-31.8827 75.363 2.21647 0.392661 -0.919395 -0.0230212
-33.1566 74.8126 2.20552 0.403898 -0.914218 -0.0327333
-34.7994 74.0707 2.15179 0.421101 -0.906521 -0.0298794
-35.5395 73.724 2.11985 0.430346 -0.902094 -0.0320727
-35.5253 73.7613 1.23795 0.426864 -0.903379 -0.0411607
-34.3278 74.3174 1.27493 0.411071 -0.910903 -0.0357338
-32.9379 74.9414 1.29995 0.403438 -0.914434 -0.032386
-31.3292 75.6272 1.27728 0.382677 -0.923376 -0.0305776
-30.1176 76.1253 1.21978 0.380631 -0.924395 -0.0247803
-28.7824 76.6635 1.1195 0.360601 -0.932569 -0.0167899
-27.2765 77.2276 0.937399 0.338344 -0.94083 -0.0190509
-25.9244 77.7078 0.742557 0.314526 -0.948896 -0.0258701
-24.451 78.1924 0.516733 0.295079 -0.955305 -0.0179135
-22.8955 78.6429 0.283604 0.263943 -0.964359 -0.018611
-21.6581 78.9741 0.0612824 0.239764 -0.970568 -0.0226105
-20.2926 79.2806 -0.185837 0.197667 -0.980247 -0.0065798
-18.6507 79.5849 -0.484659 0.16098 -0.986522 -0.0293247
-17.3851 79.7894 -0.715904 0.14712 -0.988715 -0.0282658
-16.139 79.935 -0.973026 0.0842732 -0.996105 -0.025923
-14.8732 80.0259 -1.2294 0.049281 -0.998154 -0.0354932
-13.3251 80.066 -1.43069 -0.00098328 -0.999831 -0.018342
-11.9216 80.0241 -1.45723 -0.0573357 -0.998345 -0.0044898
-10.4372 79.9038 -1.3283 -0.110723 -0.993825 -0.00726079
-9.09393 79.7364 -1.16621 -0.143733 -0.989475 0.0167257
-7.30615 79.4152 -0.946476 -0.19922 -0.979954 0.000892588
-5.88189 79.0935 -0.804089 -0.250272 -0.968081 -0.013545
-4.53697 78.7297 -0.699091 -0.267703 -0.963501 -0.00106052
-3.15493 78.3306 -0.619843 -0.285076 -0.958503 0.00183218
-1.77333 77.8695 -0.560828 -0.328949 -0.944276 -0.0116161
-0.433232 77.3748 -0.525874 -0.363989 -0.931397 0.00345105
1.04705 76.7927 -0.503008 -0.371557 -0.928304 0.0140639
2.80366 76.0454 -0.515092 -0.392132 -0.919897 0.00469976
4.12657 75.4483 -0.610829 -0.419287 -0.907851 0.00238484
5.45511 74.8228 -0.698446 -0.43266 -0.90149 0.0109804
6.75963 74.1942 -0.777691 -0.435542 -0.900091 0.0117835
7.98399 73.5842 -0.890495 -0.450284 -0.892799 0.0124493
9.34312 72.891 -1.02169 -0.456184 -0.889816 0.0111136
10.6144 72.2265 -1.12677 -0.470146 -0.882426 0.0169475
11.7669 71.6088 -1.19775 -0.473322 -0.880721 0.0172258
13.0669 70.9008 -1.25983 -0.479453 -0.877339 0.0200155
14.2486 70.2515 -1.27216 -0.482612 -0.875526 0.0232482
15.4186 69.6043 -1.27985 -0.486322 -0.873467 0.0233676
16.6608 68.9062 -1.34328 -0.491357 -0.870564 0.026185
17.8012 68.2594 -1.38732 -0.493026 -0.869336 0.0343399
18.9542 67.6008 -1.40673 -0.495946 -0.867573 0.0368072
18.7477 67.6812 -2.37156 -0.498119 -0.86651 0.032226
17.2966 68.5124 -2.32496 -0.494388 -0.868671 0.0314927
15.9887 69.2594 -2.23558 -0.491016 -0.87082 0.0240012
14.7297 69.9653 -2.17675 -0.486389 -0.873524 0.0195456
13.103 70.8626 -2.17003 -0.480925 -0.876575 0.0180897
11.9332 71.5012 -2.13272 -0.475863 -0.879412 0.0137489
10.4138 72.3181 -2.04707 -0.471467 -0.881769 0.0142044
8.92638 73.0925 -1.91674 -0.454585 -0.890619 0.0122364
7.70778 73.7109 -1.81661 -0.446737 -0.894578 0.0125242
6.47986 74.3158 -1.71316 -0.437561 -0.899084 0.0137333
5.26595 74.9002 -1.64409 -0.430567 -0.902468 0.0127933
4.10252 75.4544 -1.57945 -0.42642 -0.904413 0.0142634
2.8123 76.0366 -1.48552 -0.390234 -0.92071 0.00319174
1.60176 76.5497 -1.4734 -0.389702 -0.92093 0.00446776
0.244956 77.1049 -1.50614 -0.374692 -0.927146 0.00258531
-1.31502 77.6996 -1.55069 -0.342799 -0.939368 0.00876808
-2.68122 78.1785 -1.61534 -0.3174 -0.948271 0.00627475
-3.95579 78.5669 -1.69869 -0.28071 -0.959789 0.00260428
-5.33725 78.9624 -1.81011 -0.259634 -0.965707 -0.000478268
-6.61195 79.2731 -1.95056 -0.217907 -0.975967 0.00232696
-8.016 79.5529 -2.11117 -0.176762 -0.984235 0.00605519
-9.51349 79.7827 -2.29175 -0.123471 -0.992348 -0.000975894
-10.9872 79.951 -2.45134 -0.0922543 -0.995525 0.0204679
-12.5155 80.0484 -2.53572 -0.0526297 -0.998483 0.0161538
-13.9231 80.065 -2.43689 0.00424689 -0.999944 0.00965326
-15.1792 80.0251 -2.23762 0.063041 -0.998007 -0.00284626
-16.4968 79.9173 -1.9601 0.101966 -0.994758 -0.00771334
-17.8504 79.7429 -1.70904 0.147249 -0.989053 -0.00955182
-19.211 79.5073 -1.464 0.189521 -0.981641 -0.0215182
-20.4529 79.2527 -1.22267 0.202874 -0.978966 -0.0216319
-22.1335 78.8654 -0.883529 0.239619 -0.970864 -0.00249564
-23.3554 78.5371 -0.69996 0.266746 -0.963547 -0.0205787
-24.5773 78.1728 -0.521229 0.29509 -0.955302 -0.0179044
-26.1228 77.6647 -0.267913 0.326107 -0.945116 -0.0202396
-27.5323 77.1555 -0.0519653 0.344361 -0.93864 -0.019235
-28.825 76.6649 0.118891 0.351605 -0.935847 -0.0237662
-30.1118 76.1607 0.234867 0.371287 -0.92809 -0.0282111
-31.3219 75.6611 0.313145 0.379256 -0.924786 -0.0305944
-32.5425 75.1493 0.36477 0.39505 -0.918107 -0.031857
-34.1193 74.4469 0.389048 0.410031 -0.911334 -0.0366643
-35.6956 73.7216 0.343394 0.425481 -0.904095 -0.0397266
-35.8219 73.6617 0.335028 0.432699 -0.900712 -0.0385899
-35.9126 73.6564 -0.553048 0.433898 -0.900115 -0.0390581
-34.7589 74.1969 -0.517081 0.419809 -0.906803 -0.0383285
-33.5072 74.762 -0.545753 0.407207 -0.912486 -0.0393941
-32.0061 75.4091 -0.624632 0.386276 -0.921655 -0.0366415
-30.7701 75.9262 -0.704015 0.375196 -0.926334 -0.0336697
-29.5312 76.4209 -0.8203 0.360709 -0.932233 -0.0288104
-28.3452 76.8744 -0.974157 0.350345 -0.93627 -0.0256127
-27.1214 77.3287 -1.14798 0.340559 -0.939882 -0.025342
-25.7463 77.8187 -1.36435 0.313906 -0.949264 -0.0189693
-24.3308 78.2741 -1.61215 0.290423 -0.956602 -0.0238045
-22.4948 78.7889 -1.91627 0.253433 -0.967204 -0.0169596
-21.1679 79.121 -2.15838 0.211557 -0.977199 -0.0180789
-19.6595 79.4404 -2.45157 0.188192 -0.982084 -0.00973324
-18.0547 79.7176 -2.75072 0.149695 -0.988732 -0.0010935
-16.6764 79.8923 -2.99454 0.10914 -0.993906 0.0154851
-15.2741 80.0297 -3.28104 0.0736632 -0.997282 -0.0012143
-13.7757 80.0648 -3.51399 -0.00516814 -0.999964 0.0067004
-11.8581 79.9972 -3.55452 -0.064106 -0.997934 -0.00416118
-10.5776 79.9094 -3.48083 -0.0720075 -0.997267 -0.0165557
-9.15935 79.7396 -3.32572 -0.143583 -0.989638 -0.000243744
-7.87478 79.5332 -3.15808 -0.183658 -0.982902 -0.0131683
-6.48614 79.2438 -2.99541 -0.22819 -0.973616 -0.00141854
-4.99482 78.8708 -2.85038 -0.259634 -0.965707 -0.000478242
-3.29685 78.3587 -2.68906 -0.304359 -0.952505 0.00996373
-2.06223 77.9503 -2.60116 -0.333281 -0.942491 0.0251745
-0.745049 77.4806 -2.53317 -0.351483 -0.936126 0.0113039
0.673399 76.9304 -2.47141 -0.372357 -0.928086 0.00271639
2.19029 76.2949 -2.45038 -0.389175 -0.921146 0.00574083
3.59592 75.6743 -2.51592 -0.42234 -0.906274 0.0172224
4.93804 75.0433 -2.59532 -0.428203 -0.903613 0.0111768
6.10938 74.4819 -2.65957 -0.43483 -0.900464 0.00935202
7.29086 73.9045 -2.74003 -0.438718 -0.898496 0.0152403
8.73303 73.1774 -2.83869 -0.452301 -0.891748 0.0144909
10.1411 72.4475 -2.95441 -0.467527 -0.883857 0.0146962
11.508 71.7161 -3.03759 -0.476121 -0.879227 0.0163763
12.6361 71.1014 -3.06825 -0.479583 -0.877326 0.0172951
13.9551 70.3763 -3.08685 -0.484954 -0.874349 0.0182356
15.0965 69.736 -3.11939 -0.48887 -0.872164 0.0183424
16.3236 69.0421 -3.18529 -0.494467 -0.868854 0.024415
17.4321 68.4066 -3.25951 -0.497316 -0.867206 0.025108
18.6165 67.7213 -3.31804 -0.50214 -0.864427 0.0249492
18.8849 67.5652 -3.32409 -0.500494 -0.865245 0.0292684
18.8073 67.5834 -4.28611 -0.500971 -0.865177 0.0222846
17.5778 68.295 -4.21527 -0.498938 -0.86635 0.0223262
16.4512 68.9445 -4.1157 -0.496032 -0.867984 0.0235875
15.2648 69.6204 -4.03967 -0.493298 -0.869601 0.0212606
13.7681 70.4606 -4.01681 -0.484952 -0.87435 0.0182467
12.1632 71.3416 -3.97638 -0.478592 -0.877875 0.016862
10.8851 72.0339 -3.93459 -0.473151 -0.880799 0.017917
9.61929 72.7038 -3.852 -0.459896 -0.887779 0.0185405
8.20769 73.4294 -3.72744 -0.452291 -0.891753 0.014496
7.06539 73.9976 -3.66798 -0.441471 -0.897101 0.0177275
5.64317 74.6942 -3.5979 -0.43605 -0.899777 0.0161714
4.01522 75.4654 -3.51555 -0.421879 -0.906587 0.0108204
2.75584 76.0384 -3.45691 -0.401798 -0.915648 0.0121097
1.42165 76.6187 -3.43084 -0.391402 -0.920201 0.00582255
-0.102377 77.2265 -3.5013 -0.355246 -0.934736 0.0082794
-1.3208 77.675 -3.58014 -0.337649 -0.941217 0.0102106
-2.69227 78.1617 -3.67952 -0.319828 -0.947467 0.00391604
-4.03262 78.5933 -3.78985 -0.306309 -0.951922 0.00443626
-5.60574 79.0235 -3.94998 -0.251262 -0.967917 0.00203457
-6.84495 79.3384 -4.08301 -0.236355 -0.971655 -0.00469429
-8.16871 79.5917 -4.24711 -0.169347 -0.985557 -8.01268e-05
-9.49935 79.7852 -4.41357 -0.142404 -0.989802 0.00357053
-10.9888 79.9448 -4.56269 -0.0698704 -0.997551 -0.00314648
-12.2699 80.0293 -4.64432 -0.0515993 -0.998666 -0.00170185
-13.6419 80.0618 -4.60202 -0.00834445 -0.999962 -0.00244027
-15.2161 80.0206 -4.34151 0.0438553 -0.998898 0.0167078
-16.5323 79.9002 -4.12212 0.112099 -0.993693 0.00296101
-18.0293 79.725 -3.8416 0.145511 -0.989349 -0.00394846
-19.772 79.4215 -3.51804 0.176614 -0.984153 -0.0158357
-21.4589 79.0794 -3.18154 0.209386 -0.977654 -0.0187201
-22.7589 78.7397 -2.92536 0.263422 -0.964585 -0.0135784
-24.1014 78.3545 -2.69702 0.28581 -0.958244 -0.00899225
-25.4778 77.9231 -2.46472 0.314357 -0.949219 -0.0127439
-26.7407 77.4926 -2.2545 0.33264 -0.942936 -0.0149201
-28.5097 76.8423 -1.98887 0.342564 -0.938869 -0.0342754
-29.8801 76.3173 -1.80258 0.360756 -0.932089 -0.0326363
-31.2582 75.7628 -1.65238 0.371447 -0.927879 -0.0326793
-32.7385 75.1383 -1.53199 0.393103 -0.918596 -0.0406302
-34.1903 74.4997 -1.46526 0.405187 -0.91314 -0.0447118
-35.5481 73.873 -1.44167 0.422286 -0.905478 -0.0422289
-35.8658 73.7235 -1.43559 0.425151 -0.90411 -0.0427958
-35.8469 73.7837 -2.34226 0.421246 -0.905106 -0.0577532
-34.4879 74.4092 -2.38391 0.409907 -0.911123 -0.0427924
-33.0225 75.0576 -2.46761 0.394566 -0.918043 -0.0389233
-31.7959 75.5777 -2.58881 0.383636 -0.922843 -0.0344245
-30.6118 76.0618 -2.73289 0.365298 -0.930484 -0.0275066
-29.0301 76.6754 -2.9402 0.349069 -0.936771 -0.0247301
-27.8312 77.1222 -3.11277 0.340471 -0.940033 -0.0204295
-26.4078 77.6301 -3.35772 0.321445 -0.946745 -0.0186267
-24.9775 78.0986 -3.59906 0.293567 -0.955792 -0.0167617
-23.7646 78.468 -3.8016 0.279538 -0.960027 -0.0143558
-22.4678 78.8291 -4.02906 0.258462 -0.965995 -0.00716869
-21.206 79.1413 -4.2902 0.23365 -0.972258 -0.0110832
-19.8565 79.4233 -4.56663 0.177641 -0.983956 -0.0165495
-17.9073 79.7278 -4.966 0.121006 -0.992432 -0.0208978
-16.207 79.9268 -5.2896 0.103449 -0.994529 0.0145326
-14.824 80.0215 -5.52302 0.0581057 -0.998245 -0.01145
-13.2055 80.0606 -5.69394 -0.0233661 -0.999724 0.00243845
-11.8497 80.0064 -5.67872 -0.0558752 -0.998348 0.0133923
-10.5788 79.9161 -5.5898 -0.0961906 -0.995363 -0.000676763
-9.31086 79.7623 -5.44059 -0.127698 -0.991812 -0.00132088
-7.89001 79.5354 -5.26682 -0.181587 -0.983372 0.00221579
-6.64816 79.2791 -5.11951 -0.228994 -0.973329 0.0138459
-5.24962 78.9225 -4.96606 -0.259378 -0.965724 0.00997126
-3.91037 78.5431 -4.83061 -0.299476 -0.954027 0.0121051
-2.31378 78.022 -4.68622 -0.325554 -0.945451 0.011686
-1.08521 77.5838 -4.58533 -0.344006 -0.938935 0.00776846
0.322931 77.0497 -4.47666 -0.365008 -0.930921 0.0124557
1.77396 76.4536 -4.42905 -0.396875 -0.917746 0.0152235
3.28942 75.791 -4.47112 -0.40659 -0.9135 0.0142525
4.73175 75.1144 -4.53054 -0.432482 -0.90148 0.0171316
5.89293 74.5549 -4.57428 -0.439688 -0.898 0.0164339
7.32011 73.8545 -4.62738 -0.440017 -0.897827 0.017107
8.47179 73.2795 -4.70217 -0.452608 -0.891519 0.0184531
9.79109 72.5963 -4.80986 -0.463939 -0.88568 0.018221
11.3192 71.7822 -4.87207 -0.472491 -0.881167 0.0172129
12.6273 71.0722 -4.89949 -0.480702 -0.876762 0.0145963
13.7851 70.4314 -4.9385 -0.483773 -0.874989 0.0189137
15.0771 69.7062 -4.95372 -0.491914 -0.870417 0.0198658
16.3411 68.9847 -5.05057 -0.496178 -0.867982 0.0203822
17.5579 68.2833 -5.16474 -0.498296 -0.866747 0.0212279
18.6504 67.6494 -5.24595 -0.500817 -0.865307 0.0206653
18.9895 67.4314 -6.22964 -0.501053 -0.865203 0.0192549
17.7941 68.1248 -6.12068 -0.499692 -0.865967 0.020241
16.6159 68.8048 -6.02244 -0.496641 -0.867722 0.0201588
15.4495 69.4745 -5.89646 -0.494641 -0.868899 0.0185861
14.2442 70.1566 -5.87707 -0.489591 -0.871747 0.0189203
13.0779 70.8073 -5.8686 -0.483642 -0.875133 0.0152154
11.8869 71.4596 -5.79876 -0.473492 -0.880616 0.0179357
10.5148 72.1959 -5.78564 -0.469803 -0.882623 0.0161571
9.36934 72.7971 -5.72994 -0.45636 -0.889678 0.0144311
8.22385 73.3866 -5.63252 -0.455349 -0.890188 0.0149233
6.72853 74.1323 -5.56651 -0.441613 -0.897159 0.00917938
5.51812 74.7233 -5.52706 -0.435387 -0.900155 0.0126409
3.94577 75.4742 -5.48015 -0.429012 -0.90321 0.0126634
2.48003 76.1314 -5.44607 -0.398256 -0.917137 0.0158634
1.30289 76.638 -5.44907 -0.391257 -0.920116 0.0174608
-0.0604995 77.1845 -5.5308 -0.370152 -0.928906 0.0109874
-1.3686 77.6806 -5.64486 -0.350748 -0.936468 0.00178553
-2.56796 78.1027 -5.75933 -0.322298 -0.946633 0.00305153
-4.15527 78.6083 -5.9059 -0.283517 -0.958871 0.0135964
-5.63908 79.0118 -6.06383 -0.244777 -0.969579 0.00125525
-7.02062 79.3499 -6.21579 -0.230917 -0.972861 0.0147907
-8.52515 79.6502 -6.38781 -0.186893 -0.982335 0.00948056
-9.78144 79.8333 -6.54811 -0.129774 -0.991485 0.0108277
-11.3331 79.9615 -6.69718 -0.0706166 -0.997434 0.0117712
-13.0294 80.0536 -6.74775 -0.0543317 -0.998421 -0.0142946
-14.4223 80.058 -6.66496 0.0305062 -0.999527 -0.00395881
-15.7631 79.974 -6.47126 0.0795843 -0.996777 -0.0101148
-17.5075 79.7921 -6.12406 0.113724 -0.993492 -0.00638152
-18.7831 79.6234 -5.86065 0.145815 -0.989299 -0.00496262
-20.2969 79.3505 -5.54041 0.196203 -0.980473 -0.0132953
-21.7776 79.0203 -5.22942 0.240692 -0.970487 -0.0148953
-23.4875 78.5643 -4.8996 0.268305 -0.963268 -0.0112756
-24.9446 78.1292 -4.65053 0.298805 -0.954182 -0.0159091
-26.4389 77.6396 -4.38059 0.321445 -0.946745 -0.0186261
-27.8926 77.1242 -4.13182 0.341085 -0.939742 -0.023373
-29.423 76.5572 -3.90189 0.350158 -0.936301 -0.0270243
-30.9643 75.9497 -3.68917 0.369189 -0.928954 -0.0272731
-32.2682 75.417 -3.53625 0.382101 -0.923408 -0.0362931
-33.4523 74.9114 -3.38677 0.388025 -0.920543 -0.0451347
-34.7564 74.3384 -3.28896 0.404265 -0.912988 -0.0549785
-35.4126 74.04 -3.25021 0.417063 -0.906805 -0.0613381
-34.6283 74.4501 -4.20228 0.404256 -0.912992 -0.0549801
-33.3162 75.0177 -4.37543 0.384233 -0.922225 -0.0431911
-32.1485 75.5081 -4.54456 0.37868 -0.924619 -0.0409909
-30.4017 76.2079 -4.76449 0.367286 -0.92957 -0.0316229
-28.9996 76.7476 -4.9936 0.346127 -0.937777 -0.0277401
-27.7292 77.2116 -5.17369 0.333123 -0.942512 -0.0264645
-26.494 77.643 -5.40076 0.31679 -0.948262 -0.0210499
-25.2295 78.0567 -5.63654 0.298395 -0.954311 -0.015854
-23.825 78.4836 -5.8858 0.276702 -0.960735 -0.020579
-22.5543 78.8328 -6.12918 0.255392 -0.966653 -0.0188749
-21.2125 79.166 -6.4057 0.218075 -0.975921 -0.0046765
-19.9038 79.4452 -6.68188 0.188641 -0.982001 -0.00937943
-18.6532 79.6615 -6.95954 0.139583 -0.990111 -0.0140041
-17.2792 79.8301 -7.24673 0.103751 -0.994576 -0.00734476
-16.0116 79.9643 -7.51521 0.103226 -0.994656 -0.00201083
-14.6127 80.0456 -7.69943 0.0457927 -0.998914 0.00855032
-13.3016 80.0631 -7.77865 -0.00852557 -0.999941 -0.00671267
-11.7121 79.9889 -7.74955 -0.0676066 -0.997708 -0.00297443
-10.3964 79.8883 -7.64334 -0.0946791 -0.995504 0.00260376
-8.937 79.6966 -7.48117 -0.160507 -0.986935 0.0139933
-7.26894 79.3886 -7.29864 -0.193919 -0.980916 0.0141301
-5.97442 79.1008 -7.15001 -0.250626 -0.968053 -0.00775993
-4.55256 78.7134 -6.99635 -0.285031 -0.958457 0.0108031
-3.05245 78.2606 -6.85602 -0.29404 -0.955766 0.00714734
-1.81622 77.8364 -6.73337 -0.341218 -0.939977 0.00365588
-0.529281 77.3566 -6.61618 -0.360388 -0.932734 0.011276
0.76799 76.8393 -6.5184 -0.388145 -0.921282 0.0241457
2.02411 76.3105 -6.45964 -0.39463 -0.918658 0.0182682
3.4916 75.6622 -6.45628 -0.414938 -0.909656 0.0187918
4.677 75.1111 -6.47998 -0.426687 -0.904302 0.013244
5.93038 74.5118 -6.51166 -0.435689 -0.900053 0.00897118
7.45271 73.7617 -6.55794 -0.443011 -0.896422 0.0130223
8.84146 73.0539 -6.65007 -0.457906 -0.888881 0.0145712
9.97732 72.462 -6.70174 -0.46785 -0.883618 0.0183465
11.2165 71.8015 -6.71872 -0.473017 -0.880901 0.0163971
12.4619 71.1277 -6.77789 -0.47867 -0.877779 0.019474
13.9334 70.3085 -6.80784 -0.486158 -0.873685 0.0179969
15.0535 69.6783 -6.83764 -0.492816 -0.86994 0.0183624
16.344 68.9415 -6.93651 -0.496534 -0.86784 0.0175538
17.965 68.0079 -7.06589 -0.499271 -0.866288 0.0165584
19.1826 67.3034 -7.19481 -0.499048 -0.866488 0.0122595
19.299 67.2246 -8.1527 -0.498073 -0.867061 0.0113808
18.0038 67.9692 -8.00343 -0.498132 -0.867002 0.0131459
16.7896 68.6673 -7.90499 -0.497459 -0.867329 0.0165638
15.5418 69.3811 -7.80766 -0.492856 -0.869916 0.0183921
14.4233 70.0152 -7.75107 -0.490569 -0.871194 0.0190634
13.199 70.7005 -7.72917 -0.485002 -0.874368 0.0159576
11.8415 71.4449 -7.67401 -0.475697 -0.879423 0.0181273
10.5332 72.15 -7.63964 -0.469673 -0.882698 0.0158669
9.30962 72.7952 -7.61937 -0.459706 -0.887931 0.0157874
8.02736 73.4538 -7.56244 -0.453726 -0.890979 0.0170116
6.49787 74.2193 -7.50455 -0.440704 -0.897495 0.016815
5.11738 74.8906 -7.48202 -0.428536 -0.903458 0.010982
3.71609 75.5418 -7.46147 -0.412811 -0.910707 0.0141597
2.22975 76.2092 -7.48293 -0.398606 -0.917082 0.00856312
1.01086 76.7242 -7.54382 -0.387273 -0.921944 0.00622591
-0.167792 77.2053 -7.63004 -0.35589 -0.934489 0.00848285
-1.60149 77.7454 -7.7583 -0.352574 -0.935671 0.0145573
-3.20136 78.291 -7.90786 -0.304567 -0.95249 0.00110545
-4.50041 78.6954 -8.03035 -0.290532 -0.956858 0.0037186
-5.79418 79.0594 -8.16831 -0.250345 -0.968156 -0.00120003
-7.17642 79.358 -8.32072 -0.198081 -0.980163 0.00658929
-8.76816 79.6589 -8.49657 -0.162716 -0.986624 0.00987667
-10.1885 79.8585 -8.64615 -0.111865 -0.993719 -0.00302731
-11.4962 79.9707 -8.75293 -0.0716715 -0.997421 0.00390643
-13.0625 80.0558 -8.823 -0.0113026 -0.999272 0.0364398
-14.3669 80.0359 -8.7734 0.0318507 -0.9991 0.0280099
-15.8241 79.9721 -8.60635 0.0695986 -0.997561 0.00530966
-17.2701 79.8317 -8.31649 0.109601 -0.993912 0.011226
-18.5651 79.6753 -8.03119 0.145135 -0.989339 0.0119849
-19.8025 79.4671 -7.76009 0.188811 -0.981986 0.0073896
-21.5297 79.1017 -7.39597 0.231027 -0.972943 -0.00288967
-22.7871 78.7877 -7.14298 0.24747 -0.968846 -0.00977004
-24.3212 78.3532 -6.83077 0.291291 -0.956492 -0.0164837
-25.5287 77.9794 -6.61498 0.300953 -0.953533 -0.0142315
-26.7207 77.5912 -6.38517 0.321036 -0.946782 -0.0232337
-28.0265 77.1323 -6.13847 0.340516 -0.93991 -0.0248827
-29.2836 76.6716 -5.96577 0.346126 -0.937778 -0.0277397
-30.8236 76.0779 -5.721 0.362754 -0.931246 -0.0345027
-32.3559 75.4658 -5.51162 0.3717 -0.927062 -0.0489371
-33.6812 74.9108 -5.29836 0.38473 -0.921605 -0.0512524
-34.4357 74.589 -5.19683 0.388403 -0.91998 -0.0527329
-33.7634 74.93 -6.24711 0.384326 -0.921675 -0.0529875
-32.5661 75.4314 -6.47184 0.371586 -0.927203 -0.0470953
-31.1104 76.0038 -6.66457 0.358959 -0.932404 -0.0420933
-29.9043 76.4679 -6.86163 0.350207 -0.936107 -0.0325247
-28.6689 76.9232 -7.06432 0.340158 -0.94007 -0.0237017
-27.345 77.3898 -7.29085 0.320715 -0.946994 -0.018551
-25.9221 77.8689 -7.56453 0.303377 -0.952692 -0.0184457
-24.4686 78.3264 -7.8353 0.295461 -0.955275 -0.0123494
-23.2426 78.6783 -8.08564 0.250792 -0.968022 -0.006052
-21.6922 79.0647 -8.41107 0.236417 -0.971646 -0.00326889
-20.4555 79.3346 -8.67497 0.200152 -0.979748 0.0058356
-18.9275 79.6012 -9.00306 0.159492 -0.986995 0.0200591
-17.5793 79.7855 -9.29301 0.127478 -0.991763 0.0124998
-16.2241 79.9297 -9.57647 0.0832022 -0.996483 0.00992816
-14.6915 80.0108 -9.80516 0.0243802 -0.999668 0.00828557
-13.3902 80.024 -9.84724 0.00497836 -0.99995 0.00870043
-12.0702 80.0026 -9.81133 -0.0414775 -0.999113 0.00729164
-10.5728 79.8963 -9.70559 -0.0996421 -0.995012 0.00480596
-9.3052 79.734 -9.58261 -0.153367 -0.988087 0.0127458
-7.90941 79.5062 -9.43219 -0.1768 -0.984199 0.00971102
-6.62637 79.2464 -9.28742 -0.222408 -0.974945 0.0040105
-5.14223 78.8767 -9.13809 -0.279998 -0.95989 -0.0145612
-3.78263 78.4726 -9.00388 -0.298137 -0.954475 0.00957203
-2.35211 77.9944 -8.87598 -0.324676 -0.945643 0.0185527
-1.10591 77.5493 -8.75345 -0.347528 -0.937648 0.00633772
0.208881 77.0429 -8.63556 -0.369216 -0.929065 0.0227447
1.67981 76.4268 -8.5463 -0.393209 -0.919336 0.0143981
3.03002 75.8364 -8.49532 -0.413879 -0.910217 0.0144472
4.57329 75.1338 -8.47809 -0.422662 -0.906114 0.0177136
5.88581 74.5021 -8.48522 -0.44148 -0.897153 0.0145445
7.09784 73.903 -8.5048 -0.444789 -0.895418 0.019755
8.28223 73.3055 -8.5441 -0.454894 -0.890344 0.0189654
9.64454 72.6027 -8.5701 -0.460207 -0.887518 0.0228583
10.8528 71.9586 -8.58068 -0.47352 -0.880626 0.0166494
12.1461 71.2612 -8.63271 -0.47697 -0.878769 0.016267
13.4283 70.5534 -8.67701 -0.48569 -0.873904 0.0198953
14.7127 69.8323 -8.70869 -0.4908 -0.871105 0.0170987
15.8411 69.1916 -8.78823 -0.494732 -0.868876 0.0171779
17.0186 68.5182 -8.85521 -0.495578 -0.868432 0.0151195
18.1904 67.8463 -8.97256 -0.495097 -0.868733 0.0134524
19.3018 67.2108 -9.10253 -0.496314 -0.86809 0.00957173
19.5973 67.0415 -9.15384 -0.495969 -0.86829 0.00932847
19.548 67.0612 -10.0954 -0.495547 -0.868553 0.00702971
18.2709 67.7867 -9.9173 -0.493689 -0.869529 0.0138003
17.0665 68.473 -9.81794 -0.49493 -0.868755 0.0175732
15.8175 69.1853 -9.74199 -0.493116 -0.869752 0.0191837
14.6974 69.8212 -9.66867 -0.489942 -0.871534 0.0196038
13.5425 70.468 -9.63467 -0.486816 -0.873269 0.0202986
12.3774 71.1137 -9.59273 -0.479192 -0.877423 0.0224371
11.2291 71.7378 -9.54822 -0.4741 -0.880216 0.0211868
10.0875 72.3476 -9.52543 -0.46533 -0.884937 0.0188454
8.85333 72.9891 -9.52092 -0.461691 -0.886887 0.0165374
7.21261 73.8283 -9.49577 -0.451436 -0.892073 0.0203096
5.9122 74.4711 -9.48433 -0.434713 -0.900384 0.018272
4.69414 75.0574 -9.49345 -0.419701 -0.907553 0.0140944
3.37682 75.6651 -9.52771 -0.418614 -0.908066 0.0133444
1.85024 76.3439 -9.58933 -0.397663 -0.91745 0.012192
0.630487 76.8561 -9.64958 -0.377919 -0.925694 0.0163899
-0.553622 77.3265 -9.73544 -0.369366 -0.929203 0.0122978
-1.82143 77.8011 -9.85424 -0.336305 -0.941721 0.00772943
-3.11231 78.2461 -9.9835 -0.323765 -0.946136 0.0015514
-4.45 78.6704 -10.1052 -0.298987 -0.954207 0.00981761
-5.86012 79.0544 -10.2514 -0.234145 -0.972026 0.0184559
-7.17016 79.3495 -10.3745 -0.207797 -0.977958 0.020464
-8.66241 79.6236 -10.5337 -0.168447 -0.985708 -0.00212914
-10.0268 79.8332 -10.675 -0.105492 -0.99442 0.00100637
-11.4213 79.9526 -10.7829 -0.0605914 -0.998098 0.0113266
-12.7066 80.0093 -10.8518 -0.0180452 -0.999803 0.00829991
-14.2501 80.0107 -10.8708 0.0238837 -0.999682 0.00814156
-15.6582 79.9548 -10.7356 0.0711225 -0.997236 0.0215054
-16.9699 79.8534 -10.4835 0.0944556 -0.995404 0.015752
-18.2238 79.6963 -10.2082 0.133326 -0.991072 -0.000625722
-19.5098 79.5036 -9.92721 0.168417 -0.985705 -0.00468172
-20.8207 79.2602 -9.64253 0.205494 -0.978654 -0.00287901
-22.453 78.875 -9.29111 0.245352 -0.969432 0.00192217
-23.9016 78.5029 -8.98344 0.269512 -0.962996 -0.00160725
-25.2251 78.1053 -8.72189 0.292498 -0.956218 -0.00959068
-26.5472 77.68 -8.4687 0.310175 -0.950323 -0.0260555
-27.9876 77.1944 -8.1906 0.317322 -0.947959 -0.0260883
-29.2952 76.7249 -7.95753 0.338473 -0.940409 -0.0326795
-30.6536 76.2196 -7.72744 0.347955 -0.936896 -0.0339522
-31.9584 75.7185 -7.53537 0.360452 -0.931776 -0.0432148
-33.1274 75.2502 -7.34329 0.372162 -0.926969 -0.0471633
-33.3407 75.1626 -7.30337 0.371013 -0.927411 -0.0475193
-32.6308 75.4974 -8.39138 0.362544 -0.930732 -0.047961
-31.2625 76.0296 -8.61301 0.347318 -0.936847 -0.0410905
-29.8805 76.5465 -8.85083 0.33684 -0.94095 -0.0339399
-28.5628 77.0201 -9.10498 0.328159 -0.944036 -0.0332921
-27.3619 77.4348 -9.33715 0.315685 -0.948485 -0.0267962
-26.1481 77.8348 -9.57259 0.302358 -0.953042 -0.0170626
-24.5467 78.325 -9.88887 0.28005 -0.959954 -0.00780999
-22.9585 78.75 -10.2238 0.241414 -0.970397 -0.00693365
-21.7411 79.0548 -10.4815 0.219516 -0.975604 0.0030697
-20.0304 79.4056 -10.8625 0.177718 -0.984072 0.00423254
-18.4427 79.666 -11.2284 0.147533 -0.989048 0.00418747
-16.8935 79.8434 -11.5752 0.0944492 -0.995405 0.0157607
-15.6197 79.9376 -11.8109 0.0696162 -0.997425 0.0172613
-14.172 79.9991 -11.893 0.00891899 -0.999608 0.0265287
-12.7421 79.9894 -11.8651 -0.024453 -0.999092 0.0348952
-11.3922 79.9401 -11.8009 -0.0639547 -0.997836 0.0152666
-10.125 79.8416 -11.7005 -0.107187 -0.994105 0.0163259
-8.29296 79.5462 -11.5128 -0.186478 -0.982421 0.00868467
-7.02046 79.2978 -11.384 -0.208998 -0.977739 0.0186268
-5.41697 78.9203 -11.2194 -0.242312 -0.969853 0.0258867
-4.10645 78.5455 -11.1023 -0.281711 -0.959031 0.0299863
-2.68025 78.0905 -10.9628 -0.323909 -0.946035 0.0100462
-0.950298 77.4661 -10.8089 -0.357668 -0.933658 0.0188748
0.536896 76.8751 -10.7028 -0.377712 -0.925765 0.0171296
1.78127 76.356 -10.6285 -0.398457 -0.917039 0.0164664
3.29676 75.6877 -10.5614 -0.412476 -0.91085 0.0147164
4.67242 75.0456 -10.5063 -0.429146 -0.903141 0.0129975
5.88783 74.4624 -10.4837 -0.434693 -0.900385 0.0186937
7.429 73.6987 -10.497 -0.452821 -0.891413 0.0183046
8.7274 73.0368 -10.4922 -0.455816 -0.889891 0.0180715
10.3298 72.1957 -10.4874 -0.470332 -0.882177 0.0234951
11.8158 71.3965 -10.5093 -0.476439 -0.878934 0.0219195
13.2633 70.5999 -10.5742 -0.484817 -0.874354 0.0213771
14.4569 69.9351 -10.6129 -0.489939 -0.871537 0.0196019
15.6212 69.276 -10.6739 -0.492325 -0.870189 0.0196658
16.7838 68.6154 -10.7312 -0.492725 -0.86999 0.0184169
18.0025 67.9234 -10.8203 -0.491927 -0.870489 0.0160558
18.5071 67.6378 -10.8684 -0.490734 -0.871192 0.0143164
18.055 67.8762 -11.7606 -0.489832 -0.871641 0.0174973
16.9221 68.5168 -11.6991 -0.49226 -0.870252 0.01846
15.7832 69.1629 -11.6245 -0.492305 -0.870201 0.0196659
14.1265 70.0964 -11.5548 -0.488787 -0.8721 0.0229957
12.6805 70.8967 -11.5066 -0.481075 -0.876356 0.0238179
11.4146 71.5877 -11.4609 -0.47508 -0.879605 0.0243912
10.1631 72.2593 -11.4457 -0.470622 -0.882033 0.0230861
8.84212 72.9541 -11.4601 -0.456988 -0.889192 0.0223638
7.56219 73.6064 -11.4953 -0.451438 -0.891976 0.0241436
5.86323 74.4537 -11.5042 -0.444399 -0.895607 0.0199368
4.5005 75.1102 -11.5195 -0.427647 -0.903733 0.0195871
3.23846 75.6946 -11.5908 -0.409498 -0.912138 0.0177748
2.00719 76.2447 -11.6367 -0.400892 -0.915945 0.0181805
0.577615 76.8369 -11.7412 -0.374776 -0.926869 0.0213861
-0.774243 77.3779 -11.835 -0.364807 -0.930922 0.0173058
-2.045 77.8529 -11.9332 -0.342415 -0.939384 0.0175776
-3.26092 78.2634 -12.05 -0.296457 -0.954829 0.0203847
-4.90058 78.7633 -12.2091 -0.26622 -0.96371 0.0197578
-6.21689 79.0906 -12.324 -0.247712 -0.968768 0.0113287
-7.72278 79.4289 -12.4738 -0.202735 -0.979132 0.0140789
-9.12341 79.6948 -12.6158 -0.149904 -0.988538 0.0179029
-10.4084 79.855 -12.7473 -0.0870626 -0.996036 0.0182284
-12.0043 79.9548 -12.8632 -0.0346834 -0.999266 0.0162402
-13.402 79.9765 -12.9052 -0.01547 -0.999846 0.00833238
-14.8975 79.9651 -12.9188 0.0406153 -0.999094 0.0126813
-16.383 79.8644 -12.7474 0.0762143 -0.996966 0.0158318
-17.8861 79.7214 -12.4203 0.109801 -0.993882 0.0119437
-19.2403 79.5348 -12.1025 0.158714 -0.987276 0.00977577
-20.5986 79.2842 -11.7814 0.19143 -0.981506 -0.00033595
-22.1122 78.9678 -11.4402 0.240151 -0.970726 -0.004239
-23.5087 78.6203 -11.1438 0.240435 -0.970634 -0.00779205
-24.7239 78.281 -10.8865 0.27406 -0.961688 -0.00693026
-25.9256 77.9256 -10.6412 0.297266 -0.954638 -0.0173127
-27.1867 77.5223 -10.3939 0.313184 -0.949367 -0.0248635
-28.6253 77.0314 -10.1127 0.324962 -0.945191 -0.0318299
-29.8103 76.6132 -9.8677 0.328422 -0.943954 -0.0330303
-30.997 76.173 -9.64142 0.347181 -0.936914 -0.0407143
-32.3185 75.667 -9.4124 0.357061 -0.93314 -0.0419305
-31.7765 75.9215 -10.4968 0.346772 -0.937057 -0.0409023
-30.504 76.3978 -10.7344 0.342033 -0.938968 -0.0367706
-29.2742 76.8395 -10.986 0.324884 -0.9452 -0.0323534
-27.9166 77.3057 -11.2674 0.311525 -0.949934 -0.0240413
-26.6084 77.7297 -11.5261 0.296567 -0.954824 -0.0189334
-25.2821 78.1299 -11.7988 0.278296 -0.9604 -0.0134944
-23.8324 78.5454 -12.1065 0.261298 -0.965252 -0.00337695
-22.4311 78.8956 -12.4078 0.233169 -0.972436 0.000516844
-20.8557 79.2344 -12.7723 0.197059 -0.980378 0.00522296
-19.2511 79.5196 -13.1505 0.163135 -0.986523 0.0126418
-17.8182 79.7134 -13.4992 0.122682 -0.992357 0.0133034
-16.0182 79.8778 -13.87 0.0969303 -0.995283 0.00413686
-14.2671 79.9594 -13.9469 0.0155085 -0.999721 0.0177898
-12.9547 79.9611 -13.9312 -0.0186415 -0.999696 0.0161169
-11.6474 79.9265 -13.859 -0.0350429 -0.999301 0.0129894
-10.1339 79.8178 -13.7321 -0.110493 -0.993872 0.00321858
-8.78887 79.6174 -13.5948 -0.164951 -0.986139 0.0178912
-7.43516 79.3558 -13.4624 -0.205005 -0.978711 0.00986624
-6.18492 79.0866 -13.3414 -0.231762 -0.972768 -0.00301221
-4.70383 78.6916 -13.2208 -0.279766 -0.96 0.0114455
-3.18997 78.2197 -13.0722 -0.299264 -0.954022 0.0168455
-1.94687 77.7965 -12.9612 -0.336966 -0.941336 0.0184769
-0.548026 77.2703 -12.8517 -0.364807 -0.930922 0.0173059
0.721365 76.7638 -12.7616 -0.375627 -0.926706 0.0109456
2.2034 76.1327 -12.6586 -0.407417 -0.912996 0.0212112
