9.21269 74.0829 -9.88327 0.466966 0.884026 -0.0209735
10.6404 73.3262 -9.93047 0.469693 0.882631 -0.0187229
12.0132 72.5794 -9.95794 0.481492 0.876183 -0.021648
13.2697 71.8844 -9.97307 0.487635 0.872831 -0.01943
14.9391 70.9461 -9.99622 0.49155 0.870668 -0.017749
16.6211 69.982 -10.1059 0.498335 0.866788 -0.0184706
17.8043 69.2994 -10.2265 0.498346 0.866834 -0.0158003
18.3671 68.9898 -9.37896 0.498102 0.866992 -0.0148377
16.8101 69.8913 -9.19194 0.49982 0.865955 -0.017369
15.5189 70.6356 -9.08184 0.49635 0.867907 -0.019325
13.9617 71.5186 -9.0334 0.490202 0.871389 -0.019567
12.7015 72.2233 -9.02261 0.483036 0.875366 -0.0202536
11.3431 72.9708 -8.99731 0.477124 0.878507 -0.0240594
9.95967 73.7117 -8.94315 0.46708 0.883903 -0.0235124
8.65099 74.3977 -8.88432 0.458134 0.888716 -0.0172255
7.24877 75.1154 -8.81818 0.451399 0.892173 -0.0163418
5.91328 75.787 -8.76354 0.444878 0.895415 -0.0177646
4.46263 76.4848 -8.72015 0.423358 0.905727 -0.0206524
3.07456 77.1265 -8.67198 0.414744 0.90987 -0.0111312
1.59803 77.7737 -8.61115 0.395211 0.918507 -0.0123893
0.0364555 78.4192 -8.57037 0.366553 0.930351 -0.00926918
-1.42085 78.9719 -8.53932 0.343241 0.939165 -0.0124599
-3.11564 79.5618 -8.53972 0.320575 0.947209 -0.00518522
-4.56451 79.9978 -8.55263 0.263973 0.964351 -0.0185649
-5.9806 80.3862 -8.55659 0.234943 0.971934 -0.0121119
-7.52862 80.7391 -8.59813 0.220532 0.975351 -0.00744694
-9.07185 81.0354 -8.71224 0.138727 0.990283 -0.00970907
-10.9507 81.2554 -8.87351 0.0873915 0.996024 0.0172942
-12.4216 81.3216 -9.05978 0.0191748 0.999692 -0.0157675
-14.1164 81.3121 -9.26805 -0.0430937 0.999063 -0.00398651
-15.6247 81.2192 -9.35756 -0.0790781 0.996723 -0.0170305
-17.3556 81.0461 -9.42958 -0.108011 0.994145 -0.00292365
-18.8955 80.8501 -9.46229 -0.154997 0.987907 -0.00402367
-20.3903 80.5719 -9.44406 -0.203464 0.97904 0.00909877
-21.831 80.2547 -9.35397 -0.223152 0.974758 0.00703386
-23.7103 79.7764 -9.2321 -0.266238 0.963818 0.0131376
-25.1477 79.3503 -9.10157 -0.298166 0.954412 0.0139859
-26.6097 78.8844 -8.98798 -0.312222 0.949942 0.011312
-28.0248 78.4044 -8.86945 -0.333481 0.942436 0.0246088
-29.8306 77.7341 -8.77627 -0.351201 0.935754 0.031977
-31.5175 77.0877 -8.62008 -0.361675 0.931607 0.0360629
-32.7563 76.5891 -8.43782 -0.373186 0.926696 0.0443469
-33.3512 76.2943 -7.44585 -0.382017 0.922865 0.0488248
-31.9489 76.8792 -7.62073 -0.368943 0.928644 0.0387448
-30.5497 77.4284 -7.79175 -0.359191 0.932735 0.0314285
-28.9139 78.0506 -7.88694 -0.353744 0.934977 0.0261375
-27.2708 78.6456 -7.97627 -0.325692 0.945406 0.0114734
-25.4317 79.2494 -8.08177 -0.300871 0.953571 0.0134034
-23.6316 79.7849 -8.22848 -0.260893 0.965358 0.00444511
-21.875 80.2366 -8.32059 -0.237543 0.971346 0.00782262
-19.8505 80.6799 -8.35316 -0.197177 0.980368 -0.000792297
-17.8629 80.9947 -8.31194 -0.128391 0.991644 -0.0125395
-16.1769 81.1859 -8.24207 -0.0881377 0.99608 -0.00750392
-14.6672 81.2891 -8.12733 -0.0487776 0.998809 -0.00109792
-13.1758 81.3333 -8.00719 -0.00486963 0.999987 -0.00144709
-11.5792 81.2914 -7.84151 0.0826786 0.996539 0.00859356
-10.0764 81.1602 -7.63822 0.090673 0.995877 0.00275704
-8.37427 80.9297 -7.54565 0.165204 0.986258 -0.00187071
-6.69171 80.5678 -7.4535 0.215589 0.976356 -0.0158203
-5.20099 80.1937 -7.4287 0.263973 0.964351 -0.0185651
-3.74801 79.7832 -7.44994 0.294856 0.955427 -0.0147901
-2.14151 79.2473 -7.47598 0.326061 0.945107 -0.0213599
-0.559706 78.658 -7.51555 0.356765 0.933964 -0.0207252
0.84434 78.1139 -7.57285 0.378507 0.925585 -0.00503965
2.29623 77.4833 -7.63498 0.398011 0.917296 -0.0124679
3.96286 76.7316 -7.70493 0.41549 0.909459 -0.015886
5.39716 76.0556 -7.76598 0.435823 0.899923 -0.0140182
7.15247 75.1838 -7.83521 0.447238 0.894271 -0.0160612
8.80277 74.3406 -7.92304 0.458453 0.888493 -0.0200506
10.0885 73.6685 -7.97943 0.465371 0.884881 -0.0203652
11.3696 72.9792 -8.06046 0.481455 0.876248 -0.0197564
12.7846 72.199 -8.08753 0.485708 0.873901 -0.0196203
14.106 71.4585 -8.09302 0.490202 0.871389 -0.0195664
15.3993 70.723 -8.11253 0.497319 0.867368 -0.0186111
16.9357 69.8373 -8.25857 0.500128 0.865784 -0.017046
18.4014 68.9851 -8.44372 0.502212 0.864639 -0.0135211
18.6537 68.8381 -8.481 0.501583 0.865006 -0.0133623
18.4799 68.9551 -7.50593 0.503896 0.863641 -0.0145891
17.1501 69.7325 -7.32219 0.501682 0.864888 -0.0168647
15.7953 70.5158 -7.20172 0.497688 0.867146 -0.0191061
14.5377 71.2345 -7.16604 0.492272 0.870241 -0.01869
13.1475 72.0162 -7.15835 0.488253 0.872472 -0.0200633
11.7475 72.792 -7.12536 0.48199 0.875974 -0.0188294
10.457 73.4941 -7.02748 0.468053 0.883538 -0.0169415
8.90516 74.3084 -6.96347 0.459653 0.887957 -0.0158855
7.34355 75.1068 -6.87809 0.449369 0.893188 -0.0167948
5.88391 75.8307 -6.80593 0.43947 0.89815 -0.0139006
4.20594 76.6395 -6.73337 0.427952 0.903686 -0.0144704
2.36442 77.4653 -6.63452 0.408073 0.91288 -0.0112654
0.631879 78.2075 -6.54041 0.377168 0.926112 -0.00787249
-0.707265 78.7325 -6.47344 0.3524 0.935756 -0.0132167
-2.10951 79.2493 -6.42042 0.340278 0.940292 -0.00789332
-3.59235 79.7509 -6.35471 0.29468 0.955581 -0.00539223
-5.01824 80.1555 -6.32088 0.252837 0.967502 -0.00354218
-6.65344 80.564 -6.3058 0.210664 0.977556 -0.00217846
-8.26617 80.9009 -6.34851 0.189626 0.981838 0.00606736
-10.2786 81.1751 -6.48059 0.110532 0.993688 0.0191561
-11.9232 81.2988 -6.69528 0.0540416 0.998213 0.0254978
-13.6342 81.3295 -6.87409 -0.018399 0.999818 0.00495293
-15.4512 81.2574 -7.03581 -0.0550726 0.99847 -0.0050281
-16.9534 81.1095 -7.13889 -0.102173 0.994731 0.00836508
-18.6619 80.8868 -7.2008 -0.158837 0.987297 0.00403372
-20.2176 80.6062 -7.2438 -0.1971 0.980382 0.00137518
-21.8961 80.2228 -7.25732 -0.229458 0.973316 0.00240696
-23.5441 79.8003 -7.21733 -0.259534 0.965679 0.0103008
-25.2031 79.3091 -7.12255 -0.298589 0.95431 0.0116732
-26.7624 78.8042 -7.04186 -0.318615 0.947728 0.0172183
-28.5156 78.1775 -6.95623 -0.341446 0.939531 0.0263904
-29.9798 77.6173 -6.89666 -0.360226 0.932269 0.0333342
-31.3327 77.0866 -6.75966 -0.365223 0.930046 0.0403361
-32.8972 76.4404 -6.58218 -0.386598 0.921278 0.0422866
-33.6259 76.1317 -6.52142 -0.392677 0.918518 0.0461492
-34.3543 75.7661 -5.55799 -0.40024 0.914941 0.0518765
-32.8192 76.4316 -5.67836 -0.388452 0.920403 0.0443193
-31.3794 77.028 -5.81946 -0.375001 0.926327 0.0359397
-29.7341 77.6824 -5.96056 -0.363534 0.931096 0.0300587
-27.9773 78.3472 -6.02436 -0.341232 0.939619 0.0260093
-26.2643 78.9482 -6.08867 -0.323081 0.94603 0.0254214
-24.7245 79.445 -6.15747 -0.292518 0.956208 0.00996718
-23.0939 79.9153 -6.18941 -0.264589 0.964349 0.00476222
-21.697 80.2694 -6.1882 -0.225411 0.974264 -0.000484018
-20.0023 80.6483 -6.12691 -0.207227 0.978272 -0.00637434
-18.5795 80.8954 -6.05581 -0.143918 0.989552 0.00863765
-16.5938 81.1435 -5.95 -0.105124 0.994449 -0.00438802
-15.0832 81.2769 -5.83545 -0.0608589 0.998146 0.000232235
-13.3403 81.3285 -5.66458 -0.00698686 0.999939 0.00861038
-11.7295 81.2647 -5.47164 0.052076 0.998512 0.0161586
-9.79191 81.0974 -5.25505 0.110532 0.993688 0.0191561
-8.1273 80.8688 -5.18279 0.183534 0.983013 0.000663309
-6.46486 80.535 -5.15678 0.234222 0.972176 0.00365843
-4.74945 80.0904 -5.20772 0.26547 0.964105 -0.00517766
-3.09186 79.5955 -5.31901 0.321471 0.946902 -0.00583256
-1.54573 79.0578 -5.38701 0.33772 0.941149 -0.0135753
-0.156941 78.5364 -5.47204 0.353659 0.935305 -0.0114024
1.32319 77.9351 -5.55054 0.383153 0.92366 -0.00675808
2.9352 77.2314 -5.66859 0.405982 0.913685 -0.0189175
4.29341 76.6142 -5.76446 0.424238 0.905448 -0.0136315
5.62714 75.9708 -5.82096 0.43614 0.899776 -0.0135843
6.95134 75.3226 -5.89641 0.449361 0.893192 -0.0167914
8.48005 74.5431 -5.97312 0.457209 0.88926 -0.0133166
10.0511 73.7242 -6.06159 0.466123 0.884612 -0.0138371
11.5377 72.9242 -6.15368 0.478297 0.878098 -0.0132655
12.8449 72.2057 -6.20932 0.486748 0.873372 -0.0172661
14.2506 71.4175 -6.24027 0.491977 0.870366 -0.020552
15.4962 70.7098 -6.24563 0.497306 0.867322 -0.0209527
16.7517 69.9849 -6.3315 0.502433 0.864404 -0.0191442
18.0773 69.2082 -6.49039 0.504137 0.863458 -0.016932
18.62 68.888 -6.58025 0.506044 0.862378 -0.0149208
18.3188 69.0864 -5.55561 0.505931 0.862366 -0.0189121
17.0285 69.844 -5.40371 0.503337 0.863874 -0.0193107
15.4101 70.7801 -5.31433 0.495495 0.868368 -0.0205273
14.0389 71.5586 -5.29534 0.490731 0.871099 -0.0192469
12.7391 72.2834 -5.26262 0.484457 0.874663 -0.0163197
11.3593 73.0375 -5.19294 0.475493 0.879517 -0.018855
9.75381 73.8936 -5.09714 0.463825 0.885867 -0.0103544
8.11743 74.7441 -5.00029 0.458106 0.888815 -0.0121022
6.76916 75.4269 -4.92521 0.445909 0.895008 -0.0112371
5.42289 76.0862 -4.85181 0.434557 0.900547 -0.0132752
4.10687 76.7143 -4.754 0.423564 0.905817 -0.0094431
2.79946 77.3017 -4.67275 0.403715 0.914846 -0.00839324
1.37486 77.9186 -4.55535 0.383799 0.923241 -0.0180305
-0.199002 78.5628 -4.4322 0.364744 0.931077 -0.00751801
-1.60963 79.0877 -4.32934 0.336204 0.941789 -0.000486136
-3.09667 79.6014 -4.23488 0.308208 0.951317 0.00173294
-4.48537 80.0204 -4.11551 0.271235 0.962505 -0.00397084
-6.33997 80.5016 -3.98838 0.239527 0.970872 0.0058482
-8.10518 80.8663 -3.97296 0.163418 0.986546 0.00459248
-10.1515 81.1285 -4.11553 0.0965644 0.995261 0.0114072
-11.9962 81.2876 -4.32358 0.0650759 0.99788 -0.000107627
-13.8696 81.3166 -4.55625 -0.0153073 0.999793 0.0133959
-15.3939 81.2719 -4.70598 -0.0788454 0.996852 -0.00829544
-16.9512 81.1108 -4.80989 -0.103981 0.994575 -0.00283459
-18.3788 80.9328 -4.91126 -0.143835 0.98956 -0.00909245
-19.9194 80.6691 -5.0256 -0.199951 0.979801 -0.0032178
-21.6227 80.2893 -5.09962 -0.225515 0.974237 -0.00245862
-23.0367 79.9252 -5.13887 -0.260531 0.965383 0.0126556
-24.7308 79.4322 -5.15957 -0.292315 0.95621 0.0146809
-26.6884 78.7764 -5.09098 -0.326072 0.945218 0.0154792
-28.0704 78.2875 -5.05626 -0.340263 0.940017 0.0242655
-29.7918 77.629 -5.00211 -0.363138 0.931273 0.0293512
-31.3278 77.0162 -4.88497 -0.378424 0.925179 0.028957
-32.9926 76.318 -4.77156 -0.389571 0.920127 0.0400042
-34.7005 75.5704 -4.64205 -0.404239 0.913586 0.0441821
-35.0376 75.3746 -3.75879 -0.407735 0.91189 0.0470092
-33.6066 76.0132 -3.82146 -0.401981 0.914796 0.0395008
-32.2828 76.5844 -3.89049 -0.392857 0.919021 0.0326063
-30.6749 77.2529 -3.99641 -0.377868 0.925274 0.0329315
-29.2158 77.8289 -4.06152 -0.357838 0.933547 0.0210184
-27.7574 78.3774 -4.09098 -0.340522 0.939969 0.0224367
-25.9275 79.0223 -4.08272 -0.326927 0.944896 0.0170548
-24.346 79.5313 -4.11373 -0.29537 0.955211 0.0181473
-22.736 79.9948 -4.10754 -0.265185 0.964187 0.0045751
-21.2287 80.3829 -4.0066 -0.236179 0.971695 0.00538294
-19.7449 80.7083 -3.90774 -0.202528 0.979275 -0.00140963
-18.0871 80.9787 -3.7832 -0.141959 0.989872 -0.000881726
-16.3155 81.1777 -3.63209 -0.101492 0.994835 -0.00185069
-14.4761 81.2861 -3.45391 -0.0249282 0.999645 0.0094576
-12.7114 81.2981 -3.2499 0.0234196 0.999725 -0.00131477
-11.182 81.2202 -3.03952 0.0770708 0.997021 -0.00317504
-9.47956 81.0638 -2.84449 0.124352 0.992238 0.000521164
-7.66195 80.7838 -2.79872 0.186435 0.982467 -0.000826451
-6.01294 80.4367 -2.88078 0.226842 0.973866 -0.0112661
-4.61662 80.0725 -3.02672 0.265281 0.964103 -0.0114767
-3.18854 79.6325 -3.15187 0.307705 0.951478 -0.00275697
-1.51372 79.0561 -3.29521 0.336293 0.941728 -0.00739495
0.0715729 78.4623 -3.42573 0.367857 0.929863 -0.00593674
1.39945 77.9259 -3.54998 0.385974 0.922458 -0.0097416
3.14955 77.1555 -3.70031 0.404518 0.914491 -0.0084708
4.75378 76.4174 -3.80897 0.426557 0.904417 -0.00890526
6.06576 75.7867 -3.9059 0.438789 0.898556 -0.00786377
7.5558 75.0423 -4.01577 0.451986 0.891966 -0.0103096
9.49524 74.0423 -4.13098 0.46076 0.887452 -0.0113595
10.7882 73.3622 -4.20662 0.46788 0.8837 -0.0127891
12.0988 72.6538 -4.305 0.477496 0.878447 -0.018095
13.4238 71.9211 -4.34901 0.485887 0.873878 -0.0158546
14.8849 71.1001 -4.36183 0.493833 0.869354 -0.0187848
16.4725 70.1906 -4.42302 0.498776 0.866495 -0.0202136
17.7177 69.4633 -4.52562 0.507299 0.861497 -0.0216905
18.3499 69.0898 -4.59312 0.506981 0.861737 -0.0195053
17.896 69.3837 -3.60527 0.50515 0.862723 -0.0230584
16.2737 70.3272 -3.48307 0.497825 0.866999 -0.0219934
14.5115 71.3326 -3.42509 0.492883 0.869892 -0.0188297
13.0078 72.1704 -3.40342 0.485223 0.874205 -0.0180102
11.7506 72.8646 -3.30779 0.479033 0.877613 -0.0179653
10.3584 73.607 -3.24514 0.469462 0.882763 -0.0183109
8.82886 74.4052 -3.14788 0.459683 0.887885 -0.0187801
7.55195 75.0543 -3.05542 0.449771 0.893058 -0.012414
5.91281 75.8708 -2.91889 0.437 0.899404 -0.0101482
4.31222 76.634 -2.78511 0.422963 0.906046 -0.0135103
2.70804 77.3643 -2.67116 0.407492 0.913123 -0.0125258
1.21954 78.0094 -2.51869 0.382795 0.923812 -0.00621005
-0.218259 78.5868 -2.37232 0.367954 0.929778 -0.0110401
-1.59823 79.0956 -2.24562 0.340203 0.940255 -0.013478
-3.10126 79.6095 -2.08756 0.303631 0.952759 -0.00766994
-4.81621 80.1392 -1.92317 0.273063 0.961961 -0.00818663
-6.39977 80.5297 -1.73349 0.208123 0.978009 -0.0135284
-7.8467 80.8352 -1.64702 0.179451 0.983517 -0.0221665
-9.44562 81.0735 -1.67967 0.12198 0.992361 -0.018441
-11.0659 81.2192 -1.84963 0.0729251 0.996831 -0.031766
-12.7727 81.3024 -2.11793 0.0230136 0.999729 -0.00362442
-14.4197 81.2963 -2.31828 -0.0192772 0.999691 -0.0156874
-16.3112 81.1788 -2.53372 -0.0841994 0.996093 -0.0266252
-18.0594 80.9752 -2.71874 -0.140906 0.98998 0.0091927
-19.6449 80.7269 -2.84039 -0.185943 0.982297 0.0227452
-21.2458 80.3826 -2.95607 -0.221027 0.975262 0.00347497
-22.9421 79.9321 -3.0772 -0.271411 0.962303 0.0175905
-24.6889 79.4048 -3.04695 -0.290348 0.95682 0.0139454
-26.2744 78.881 -3.05993 -0.326373 0.945031 0.0199333
-27.6895 78.3793 -3.09201 -0.339191 0.940511 0.0197132
-29.0692 77.863 -3.08216 -0.357838 0.933547 0.0210185
-30.4767 77.3077 -3.05989 -0.376068 0.926316 0.0226331
-31.9329 76.7039 -2.9735 -0.389606 0.920539 0.0285639
-33.3276 76.0993 -2.90727 -0.402912 0.914706 0.031216
-34.6722 75.4954 -2.88292 -0.413901 0.909714 0.0332671
-35.4723 75.135 -2.88268 -0.412532 0.909681 0.0479361
-35.8942 74.8915 -1.99766 -0.429195 0.902275 0.0411316
-34.5608 75.5133 -1.98667 -0.416761 0.908229 0.0378165
-33.1581 76.1415 -1.98311 -0.401171 0.915429 0.0324397
-31.3461 76.9189 -2.04033 -0.384799 0.922536 0.0292836
-29.722 77.5836 -2.08832 -0.363797 0.930971 0.0307538
-28.3439 78.1083 -2.09236 -0.355117 0.934469 0.0256786
-26.9189 78.6332 -2.06301 -0.337688 0.940996 0.0222227
-24.9726 79.2965 -2.00706 -0.306276 0.951803 0.0163022
-23.0623 79.8788 -1.97559 -0.270828 0.962477 0.0170456
-21.3518 80.3315 -1.89156 -0.242423 0.969755 0.0283978
-19.8843 80.6419 -1.77489 -0.195389 0.980058 0.0361756
-18.144 80.9403 -1.63072 -0.152441 0.988114 0.0198149
-16.4361 81.1719 -1.4694 -0.104109 0.993868 0.0372385
-14.9007 81.2891 -1.28269 -0.0465965 0.998798 0.0151774
-13.2124 81.309 -1.06099 0.00971913 0.999901 -0.0101503
-11.3846 81.2742 -0.786407 0.0373804 0.999099 -0.0200797
-9.85993 81.133 -0.601944 0.120704 0.992633 -0.0104965
-8.43955 80.9477 -0.529195 0.151623 0.988432 0.00354113
-6.91 80.6512 -0.610733 0.204681 0.978817 -0.00488787
-5.29734 80.2721 -0.794725 0.261791 0.965125 3.89133e-05
-3.54772 79.7614 -0.986029 0.276311 0.961037 -0.00768023
-2.15708 79.3084 -1.14027 0.335294 0.942035 -0.0121641
-0.796214 78.8146 -1.28162 0.34693 0.937841 -0.00968812
0.814536 78.1845 -1.44965 0.374619 0.927166 -0.00486208
2.16489 77.6153 -1.61026 0.398495 0.917128 -0.00882285
3.63886 76.963 -1.72999 0.41451 0.90995 -0.0131216
5.10268 76.2729 -1.87148 0.433394 0.90113 -0.0116311
6.80141 75.4458 -2.02741 0.438389 0.898672 -0.014263
8.39282 74.6444 -2.16687 0.455899 0.889916 -0.0143326
9.73736 73.9508 -2.27086 0.462983 0.886199 -0.0172759
11.2661 73.1385 -2.37078 0.472074 0.881469 -0.0126055
12.5857 72.4226 -2.44704 0.484001 0.874927 -0.015695
13.9359 71.6725 -2.49097 0.486872 0.873301 -0.017329
15.6186 70.7258 -2.51751 0.492432 0.870124 -0.0198692
16.9613 69.9549 -2.5925 0.500409 0.865493 -0.0226487
18.5192 69.0476 -2.69221 0.505113 0.862567 -0.0289741
18.3369 69.1912 -1.71499 0.502372 0.863984 -0.0339867
16.9758 69.9748 -1.65053 0.495805 0.868024 -0.0266836
14.9354 71.1301 -1.57965 0.488057 0.872503 -0.0232138
13.5996 71.8773 -1.55916 0.484932 0.87441 -0.0157483
12.1989 72.6522 -1.49569 0.477508 0.878522 -0.0135705
10.5362 73.547 -1.38524 0.467188 0.884035 -0.01477
9.22699 74.2315 -1.28177 0.457163 0.889267 -0.0143216
7.87081 74.9269 -1.15391 0.453888 0.890961 -0.0132004
6.1752 75.7673 -0.994718 0.440528 0.897675 -0.0106649
4.59629 76.5263 -0.818365 0.424391 0.905435 -0.00887906
2.92737 77.2876 -0.670282 0.404678 0.91443 -0.00731486
1.47969 77.9231 -0.512535 0.387583 0.92178 -0.0100609
-0.0505377 78.5453 -0.323529 0.365879 0.930562 -0.0136807
-1.45152 79.0617 -0.174892 0.343754 0.939046 -0.00516722
-2.91338 79.5665 -0.00871222 0.3062 0.951945 0.00649008
-4.50144 80.0406 0.173556 0.274661 0.961537 0.00274711
-6.18869 80.483 0.367744 0.232914 0.972364 0.0160949
-7.88531 80.8362 0.510696 0.190966 0.981423 0.0184786
-9.4865 81.0958 0.497252 0.12688 0.991916 0.00199325
-10.9769 81.229 0.337512 0.059768 0.997943 0.0231671
-12.6667 81.3094 0.112404 0.0226158 0.999729 0.00557679
-14.1116 81.2997 -0.0954825 -0.00967035 0.999946 0.00371352
-15.9899 81.1888 -0.335045 -0.0919639 0.995519 0.0219919
-17.4793 81.0178 -0.484666 -0.136127 0.990189 0.0315326
-18.9223 80.7945 -0.604144 -0.166606 0.98577 0.0223488
-20.3966 80.5118 -0.734114 -0.210974 0.977473 0.00609087
-22.0428 80.1264 -0.829588 -0.248898 0.968494 0.00835986
-23.6877 79.6878 -0.916 -0.267133 0.963594 0.0112521
-25.3774 79.1524 -0.990465 -0.325722 0.94519 0.0228335
-26.9 78.6173 -1.05373 -0.340187 0.940248 0.0143331
-28.4794 78.0337 -1.07879 -0.357618 0.933622 0.0214362
-29.8648 77.4964 -1.0875 -0.367136 0.92988 0.0231253
-31.5922 76.7866 -1.06816 -0.385904 0.922176 0.0258833
-32.9916 76.1802 -1.05529 -0.404579 0.913927 0.0324657
-34.3707 75.5617 -1.05936 -0.415888 0.908724 0.0354732
-35.8197 74.8856 -1.08624 -0.428576 0.902566 0.0411987
-36.2947 74.6602 -1.09408 -0.42919 0.902303 0.0405712
-36.3092 74.6146 -0.171536 -0.43728 0.898574 0.0367554
-34.8726 75.2977 -0.140724 -0.427489 0.903399 0.0335316
-33.5249 75.9107 -0.113525 -0.404269 0.914229 0.0274139
-32.0029 76.5796 -0.106724 -0.397834 0.917029 0.0280301
-30.6415 77.1573 -0.104111 -0.385957 0.922135 0.0265237
-29.2575 77.7113 -0.084107 -0.369012 0.929092 0.0248601
-27.4957 78.3809 -0.047985 -0.345864 0.938156 0.0155593
-25.8367 78.9703 0.0214935 -0.326767 0.944841 0.0223378
-24.4064 79.4485 0.0796403 -0.297101 0.954491 0.0260487
-22.7947 79.9146 0.180572 -0.25912 0.965645 0.019664
-21.2035 80.316 0.27826 -0.226397 0.974005 0.00770555
-19.5845 80.6577 0.412968 -0.182359 0.983209 0.00668222
-17.8452 80.9529 0.566422 -0.157372 0.987402 0.0164598
-16.0995 81.1743 0.742914 -0.104839 0.994477 0.00496455
-14.2972 81.2922 0.966957 -0.0182651 0.999786 0.00968525
-12.8076 81.3007 1.16923 0.00622796 0.999957 0.00681351
-10.8278 81.1921 1.4271 0.0636203 0.997594 0.0275326
-9.34666 81.0472 1.54356 0.133974 0.990013 0.0438678
-7.76636 80.7944 1.53886 0.181532 0.983382 -0.00253387
-6.10781 80.453 1.41525 0.221757 0.975087 -0.00541022
-4.36394 80.0002 1.2003 0.271805 0.962352 0.000359179
-2.82226 79.5331 1.02773 0.30784 0.951437 -0.00148212
-1.3448 79.0284 0.853402 0.338773 0.940833 -0.00814791
0.063343 78.5083 0.695623 0.355871 0.934517 -0.0058188
1.48105 77.9348 0.497478 0.405055 0.914207 -0.0124951
2.82946 77.3379 0.353021 0.404103 0.914699 -0.00520787
4.14889 76.7408 0.225774 0.42193 0.906548 -0.0120434
5.50268 76.1087 0.0543618 0.428314 0.903574 -0.0100635
7.15097 75.3031 -0.0990685 0.440311 0.897669 -0.0177894
8.70433 74.5165 -0.265742 0.453639 0.891059 -0.0150273
9.97582 73.8587 -0.416362 0.46324 0.88613 -0.0135219
11.465 73.0671 -0.487812 0.47331 0.880794 -0.0133919
12.8675 72.3019 -0.607533 0.481929 0.875987 -0.019765
14.3567 71.4781 -0.645984 0.484836 0.874346 -0.0212772
15.9301 70.598 -0.665084 0.490672 0.871017 -0.0238835
17.4417 69.7392 -0.719375 0.495749 0.867944 -0.0301
18.45 69.1618 -0.750439 0.49389 0.868695 -0.0379711
18.2332 69.3295 0.248525 0.489367 0.871244 -0.0381194
16.8844 70.0896 0.254297 0.490813 0.870767 -0.0294584
15.2878 70.9834 0.272959 0.487301 0.872855 -0.0257173
14.0044 71.697 0.300268 0.483454 0.875113 -0.0211971
12.5023 72.5214 0.358803 0.478704 0.877796 -0.0178181
11.2297 73.2069 0.456951 0.469127 0.883009 -0.0146771
9.82495 73.9538 0.5521 0.464288 0.885542 -0.0158672
8.32784 74.7245 0.735904 0.45273 0.891509 -0.0157205
6.96017 75.4133 0.899426 0.440582 0.89764 -0.0114146
5.46199 76.139 1.05454 0.434958 0.900407 -0.00885805
4.10968 76.7724 1.23001 0.415033 0.909772 -0.00785835
2.52823 77.4778 1.39812 0.405372 0.914125 -0.00697958
0.751182 78.2448 1.62762 0.395776 0.918223 0.0151134
-0.684723 78.7923 1.80819 0.34633 0.93811 -0.00219123
-2.33208 79.3845 2.00648 0.319363 0.947616 -0.00553688
-4.16127 79.9412 2.22881 0.271938 0.962311 0.00266853
-5.84106 80.3897 2.43881 0.250703 0.968056 0.00383545
-7.50719 80.7431 2.59986 0.178651 0.983841 0.0118827
-9.18409 81.011 2.59975 0.137631 0.990377 0.0145541
-10.8052 81.1858 2.50131 0.0747184 0.997177 0.00742594
-12.5533 81.2806 2.27515 0.0431401 0.999069 0.000114724
-14.2845 81.2835 2.04666 -0.0253712 0.999605 0.0121284
-15.7065 81.1984 1.88123 -0.0798533 0.996768 0.00882304
-17.7118 80.9626 1.65686 -0.149684 0.988689 0.00947176
-19.1218 80.7396 1.52666 -0.178996 0.98383 -0.00617634
-20.6065 80.4392 1.37909 -0.209658 0.97774 0.00826003
-22.2698 80.0371 1.26108 -0.249584 0.968144 0.0201451
-24.0589 79.5211 1.14579 -0.298758 0.953728 0.0338509
-25.4411 79.0778 1.07439 -0.31809 0.947627 0.0286588
-27.1735 78.4773 0.994021 -0.343005 0.939091 0.0213646
-29.1367 77.742 0.927137 -0.365131 0.930839 0.0147479
-30.7515 77.0829 0.883254 -0.38546 0.922467 0.0217899
-32.3196 76.4173 0.853682 -0.398368 0.916934 0.0231508
-33.6484 75.8286 0.818224 -0.411486 0.910977 0.0282755
-35.0667 75.1734 0.770922 -0.429988 0.902411 0.0276523
-36.0477 74.7039 0.737901 -0.438874 0.89772 0.0385804
-35.6191 74.8813 1.66359 -0.440496 0.897335 0.0274667
-34.2579 75.5245 1.74987 -0.415622 0.909044 0.0299491
-32.8722 76.1465 1.79921 -0.406093 0.913377 0.0288177
-31.5145 76.7411 1.85271 -0.390458 0.920381 0.0210071
-29.7184 77.4885 1.90104 -0.374202 0.927135 0.0198225
-28.2901 78.0461 1.98335 -0.357069 0.933862 0.0200983
-26.9373 78.5398 2.04062 -0.341817 0.939503 0.0222685
-25.4646 79.0468 2.11655 -0.318566 0.947754 0.0166396
-23.7999 79.5698 2.20554 -0.293938 0.955593 0.0210322
-21.9697 80.0895 2.33964 -0.257194 0.965959 0.0278163
-20.4262 80.468 2.4613 -0.22095 0.975237 0.00967278
-18.7055 80.8016 2.63189 -0.152846 0.98825 0.000724073
-17.0273 81.0492 2.80456 -0.143972 0.989576 0.00348387
-15.3543 81.2166 2.99158 -0.0606933 0.997949 0.0203399
-13.8756 81.2714 3.16391 -0.0333275 0.999128 0.0251347
-12.4103 81.2704 3.35144 0.0339237 0.999359 0.0114719
-10.7809 81.1722 3.54967 0.084869 0.996348 0.0093589
-9.2641 81.0117 3.65355 0.138131 0.990413 -0.00113897
-7.75247 80.7736 3.665 0.190398 0.981692 -0.0054775
-6.12019 80.4576 3.527 0.21558 0.976486 0.000874121
-4.70158 80.0961 3.34003 0.275042 0.961432 0.000365674
-3.06001 79.6164 3.12967 0.29141 0.95659 0.00391485
-1.58514 79.1244 2.93922 0.33228 0.943175 -0.003239
-0.146556 78.5959 2.77851 0.346316 0.938116 -0.00217753
1.29507 78.0105 2.57193 0.390479 0.920607 0.0030156
2.78046 77.3742 2.39578 0.407024 0.913391 -0.00693336
4.1711 76.7506 2.23815 0.411658 0.911324 -0.00519534
5.72056 76.0244 2.01954 0.433141 0.901281 -0.00903507
7.34066 75.238 1.83671 0.4428 0.89657 -0.00955294
8.81391 74.4942 1.63569 0.451287 0.892197 -0.0179958
10.3253 73.703 1.46738 0.467675 0.883752 -0.0162224
11.7214 72.9582 1.35429 0.471765 0.881576 -0.0161443
13.2783 72.1183 1.26714 0.477607 0.878384 -0.0182414
14.5468 71.4198 1.22526 0.483463 0.875108 -0.0211946
16.0831 70.5684 1.21705 0.486842 0.873029 -0.0283785
17.4766 69.7926 1.22614 0.488015 0.872208 -0.0330959
18.4051 69.2771 1.27162 0.48524 0.87361 -0.0367053
18.3661 69.3447 2.28136 0.484134 0.87409 -0.0397728
16.9501 70.1201 2.20186 0.484246 0.874422 -0.0298453
15.665 70.8292 2.18099 0.482632 0.875468 -0.0249511
14.3102 71.5744 2.19972 0.480793 0.87654 -0.0227003
12.8581 72.3659 2.252 0.471813 0.881563 -0.0154491
11.1859 73.262 2.35848 0.470083 0.882495 -0.0149916
9.84892 73.9699 2.48963 0.46587 0.884812 -0.0084703
8.14171 74.8465 2.71184 0.447668 0.894132 -0.0110573
6.7204 75.55 2.88955 0.437149 0.89934 -0.00940945
5.31775 76.2297 3.07205 0.428625 0.903443 -0.00839859
3.9358 76.8684 3.27919 0.408086 0.912851 -0.0129881
2.35012 77.5696 3.46575 0.393535 0.919274 -0.00806113
0.860086 78.1949 3.64512 0.380652 0.924708 -0.0044363
-0.624254 78.7782 3.84634 0.350539 0.936543 -0.00298027
-2.01069 79.2745 4.02026 0.318874 0.94775 0.00948187
-3.42332 79.721 4.2076 0.27989 0.960031 -0.00136135
-4.88009 80.1375 4.3954 0.263189 0.964729 -0.00540323
-6.29866 80.4941 4.57797 0.206529 0.978378 0.0110527
-7.79527 80.7865 4.70498 0.180029 0.983652 0.00422063
-9.71037 81.0569 4.65527 0.111876 0.993596 0.0158479
-11.2925 81.1997 4.53396 0.0567201 0.998313 0.0123891
-12.9316 81.2631 4.3334 0.00791016 0.999911 0.0107638
-14.4107 81.2395 4.14963 -0.0395938 0.999202 0.00518693
-16.095 81.1308 3.94625 -0.105641 0.993368 0.0453863
-17.7112 80.9441 3.77613 -0.131443 0.991156 0.0182302
-19.7147 80.5985 3.59156 -0.199989 0.979367 0.0290544
-21.2252 80.2602 3.44729 -0.2415 0.970287 0.0148914
-22.7717 79.8523 3.33192 -0.2629 0.9647 0.0154224
-24.3143 79.3897 3.21565 -0.300763 0.953571 0.0156107
-25.7197 78.9409 3.14185 -0.3248 0.945486 0.0236959
-27.3851 78.3542 3.05402 -0.34058 0.94008 0.0159655
-28.9384 77.7766 2.94737 -0.365295 0.930547 0.0253435
-30.6082 77.1023 2.85325 -0.385464 0.922368 0.0255973
-32.4099 76.323 2.78029 -0.403458 0.914692 0.0236668
-34.3679 75.4404 2.68678 -0.416592 0.908379 0.0360546
-35.8423 74.7434 2.57162 -0.441101 0.896979 0.0292917
-36.1946 74.5701 2.54406 -0.442962 0.896117 0.0275387
-35.8913 74.6868 3.51232 -0.436987 0.899049 0.0274495
-34.5478 75.3279 3.62065 -0.427191 0.903619 0.0313189
-33.1896 75.9474 3.70615 -0.412286 0.910724 0.024555
-31.7406 76.591 3.77911 -0.401161 0.915787 0.0201026
-30.349 77.1812 3.86988 -0.381569 0.9241 0.0210584
-28.917 77.7606 3.95006 -0.369753 0.928962 0.0176913
-27.4325 78.3239 4.07407 -0.342721 0.939344 0.013255
-25.5162 78.9808 4.18113 -0.31902 0.947389 0.0260657
-24.1369 79.4273 4.26592 -0.299156 0.954064 0.0163667
-22.3919 79.942 4.40934 -0.260445 0.965488 -0.00128836
-20.7027 80.3654 4.54808 -0.220212 0.975354 0.0138563
-19.1347 80.6833 4.68588 -0.192163 0.980758 0.0344638
-17.7262 80.915 4.82142 -0.163688 0.985772 0.038209
-16.2677 81.0979 4.97628 -0.113717 0.993385 0.0159402
-14.7903 81.2123 5.14631 -0.0623165 0.997993 0.0112831
-13.1736 81.2601 5.34685 0.00280106 0.999985 0.00475368
-11.6965 81.2107 5.51556 0.0465088 0.998882 0.00841873
-10.0779 81.0853 5.65064 0.104181 0.994402 0.0176455
-8.44982 80.8794 5.73182 0.143609 0.989465 0.0183031
-7.01685 80.6299 5.69058 0.218411 0.975798 0.0107199
-5.2974 80.2513 5.47945 0.236225 0.971688 0.00444282
-3.64998 79.7952 5.2595 0.269473 0.963005 0.00235243
-2.19142 79.3385 5.06402 0.324039 0.946043 -0.00120917
-0.562042 78.7501 4.853 0.353965 0.935242 0.00565342
1.06537 78.1152 4.6468 0.375611 0.926775 0.0019225
2.56211 77.4838 4.46023 0.3976 0.917547 -0.00477523
4.05161 76.8261 4.26124 0.416583 0.909044 -0.00987689
5.71655 76.0472 4.01946 0.43038 0.902635 -0.00486408
7.1088 75.3705 3.83296 0.440803 0.897577 -0.00697222
8.71827 74.561 3.61803 0.455437 0.890241 -0.00700144
10.04 73.8809 3.45636 0.463649 0.885948 -0.0112385
11.5581 73.0789 3.31382 0.467382 0.883975 -0.0118972
12.906 72.3578 3.22722 0.472169 0.881345 -0.0169499
14.2345 71.6394 3.16856 0.479869 0.877107 -0.0202212
15.5188 70.9364 3.1464 0.480851 0.876452 -0.0247849
17.0398 70.1082 3.19759 0.477364 0.878148 -0.031286
18.4763 69.3318 3.31604 0.474451 0.879445 -0.0383817
18.5058 69.3161 3.3198 0.4763 0.878414 -0.0390838
18.3748 69.4269 4.30516 0.465745 0.884 -0.0403188
16.671 70.3385 4.15501 0.474687 0.879618 -0.0307437
15.273 71.0965 4.12731 0.476262 0.879034 -0.0217439
13.771 71.9101 4.16849 0.473661 0.880506 -0.0188066
12.504 72.5909 4.23987 0.470151 0.882422 -0.0170408
10.9788 73.4018 4.35997 0.465842 0.884727 -0.0158225
9.66224 74.0885 4.49099 0.461076 0.887282 -0.0118039
8.35458 74.7567 4.66354 0.453649 0.891144 -0.00801382
6.69406 75.5815 4.88392 0.437035 0.899415 -0.00730804
5.29109 76.2532 5.08784 0.425865 0.904769 -0.0056676
3.96679 76.8692 5.28272 0.411998 0.911152 0.00774361
2.64914 77.4502 5.45883 0.397363 0.917655 -0.00352929
0.972642 78.1553 5.67223 0.376 0.926614 -0.00329771
-0.599148 78.7624 5.87083 0.347755 0.937548 0.00837567
-2.02285 79.2773 6.05438 0.332761 0.94296 0.00980223
-3.72147 79.8072 6.2889 0.276 0.961117 0.00882213
-5.54744 80.3058 6.54108 0.24937 0.968365 0.00910483
-7.35183 80.7035 6.74382 0.181218 0.983439 -0.00260232
-8.7833 80.9087 6.74261 0.136884 0.990569 0.00597362
-10.5254 81.1178 6.63989 0.0877252 0.996115 0.00775364
-12.0024 81.2165 6.52016 0.0465088 0.998882 0.00840772
-13.772 81.2429 6.3098 -0.0225884 0.999235 0.0319166
-15.6139 81.135 6.0967 -0.0869182 0.996013 0.0200712
-17.4941 80.922 5.9007 -0.151318 0.988214 0.0231699
-19.1133 80.6585 5.748 -0.172592 0.98494 0.0102872
-20.6297 80.3576 5.60557 -0.216055 0.97608 0.0242697
-22.2136 79.9873 5.46876 -0.247407 0.968744 0.0180147
-23.6411 79.5724 5.33495 -0.292842 0.956107 0.0101554
-25.0562 79.119 5.22531 -0.316161 0.948598 0.0143077
-26.5346 78.6189 5.13483 -0.324341 0.945812 0.0155588
-27.9101 78.1223 5.03966 -0.346182 0.937813 0.0257726
-29.3556 77.5636 4.92694 -0.378679 0.925228 0.023562
-30.7953 76.9741 4.8464 -0.389402 0.920808 0.0218616
-32.4113 76.2713 4.71403 -0.410468 0.911581 0.0231705
-33.9339 75.5843 4.61406 -0.413892 0.91006 0.0219906
-35.2434 74.9716 4.51123 -0.43308 0.900969 0.0263816
-36.2713 74.4795 4.41297 -0.439054 0.898141 0.023962
-35.9294 74.6198 5.39776 -0.433096 0.901132 0.0197217
-34.4971 75.2977 5.52283 -0.423176 0.905789 0.0216394
-32.881 76.04 5.65096 -0.412122 0.910907 0.0201228
-31.5413 76.6307 5.76632 -0.399558 0.916402 0.0236752
-30.0673 77.2489 5.88142 -0.381701 0.924112 0.0179349
-28.5768 77.848 5.99293 -0.357029 0.933893 0.0193207
-27.1116 78.3952 6.10449 -0.344165 0.938769 0.0162334
-25.7277 78.8778 6.20001 -0.32218 0.946596 0.0125059
-24.3001 79.356 6.31001 -0.305774 0.952026 0.0121977
-22.6672 79.848 6.45096 -0.264835 0.964092 0.0197381
-21.1449 80.2231 6.61762 -0.218229 0.975736 0.0177771
-19.6083 80.5495 6.75255 -0.195323 0.980572 0.0180702
-17.8256 80.8493 6.92868 -0.149343 0.988736 0.0098715
-15.9351 81.0895 7.11249 -0.0906774 0.995724 0.0176549
-14.3955 81.1938 7.28036 -0.0440877 0.99827 0.0389022
-12.898 81.2257 7.44966 -0.00048405 0.999707 0.0241805
-11.2099 81.1532 7.61784 0.065328 0.997817 0.009703
-9.61229 81.0048 7.72787 0.117607 0.99287 0.0194598
-8.17733 80.8358 7.76621 0.122319 0.992467 0.00692863
-6.76492 80.5743 7.69587 0.208859 0.977918 0.00741195
-5.14654 80.1912 7.49779 0.237291 0.971367 0.0118038
-3.38857 79.6967 7.25224 0.29062 0.956639 0.0195585
-1.77083 79.174 7.03349 0.326375 0.945062 0.0183635
-0.175952 78.6032 6.82618 0.342973 0.939345 0.00119208
1.22326 78.0538 6.64904 0.372745 0.927929 0.00286329
2.60752 77.4727 6.47105 0.397822 0.917453 -0.00429642
3.99912 76.8567 6.2829 0.410606 0.9118 -0.00484515
5.39133 76.2122 6.08615 0.426225 0.904601 -0.00547962
6.72042 75.5753 5.88528 0.440482 0.89772 -0.00860228
8.45119 74.7192 5.66203 0.448026 0.894001 -0.00600032
9.92179 73.9678 5.47971 0.456248 0.88979 -0.0105836
11.2743 73.2625 5.34343 0.464555 0.88543 -0.0142056
12.8104 72.4473 5.22348 0.470106 0.882428 -0.0179246
14.0875 71.7626 5.14242 0.472385 0.881187 -0.0190101
15.7546 70.8621 5.10628 0.476117 0.879072 -0.0233263
17.4512 69.9534 5.19478 0.47054 0.881839 -0.0308719
18.0657 69.6297 5.25899 0.464834 0.884734 -0.0342753
18.6348 69.3757 6.34556 0.461004 0.88676 -0.0336512
17.1608 70.141 6.16427 0.467508 0.883532 -0.028418
15.8072 70.8607 6.11033 0.472359 0.881088 -0.0236649
14.2237 71.7112 6.14474 0.472796 0.880969 -0.0189022
12.9494 72.3935 6.21844 0.467414 0.883888 -0.016345
11.3448 73.2428 6.36157 0.465629 0.884867 -0.0141496
9.91126 73.9851 6.50001 0.45543 0.890201 -0.0112074
8.61433 74.6512 6.65406 0.45014 0.892861 -0.0132021
7.21324 75.3437 6.83397 0.442336 0.896815 -0.00784415
5.75257 76.0464 7.0401 0.424546 0.9054 -0.00345319
4.2141 76.7645 7.25854 0.41603 0.909342 -0.00401819
2.70733 77.4387 7.46214 0.393857 0.919159 -0.00488529
1.22619 78.0545 7.656 0.370777 0.928712 -0.00425542
-0.165139 78.5988 7.83113 0.353573 0.93538 0.00707835
-2.0349 79.2582 8.07455 0.320052 0.9474 -0.000735952
-3.71349 79.7976 8.29975 0.282539 0.959242 -0.00511989
-5.33075 80.2271 8.51865 0.232588 0.972545 0.00772457
-7.02272 80.6169 8.72466 0.217967 0.975855 0.0140294
-8.84724 80.8935 8.77138 0.12185 0.992525 0.00684079
-10.6802 81.1034 8.70184 0.0882397 0.99588 0.0208981
-12.2094 81.1887 8.56178 0.0316391 0.999146 0.0265664
-13.6716 81.1878 8.39673 -0.0245881 0.999588 0.0148219
-15.5386 81.1084 8.21042 -0.0775269 0.996814 0.0187273
-17.4078 80.8966 8.03098 -0.143387 0.989595 0.0118778
-19.1374 80.6141 7.85944 -0.190297 0.981366 0.0265877
-20.6876 80.3048 7.69529 -0.220397 0.975267 0.0166945
-22.4465 79.8776 7.50373 -0.260336 0.964952 0.0330667
-23.8281 79.4836 7.37981 -0.301381 0.953383 0.0151877
-25.4981 78.9402 7.23492 -0.319968 0.947332 0.013494
-27.0209 78.4079 7.11994 -0.337831 0.94108 0.0154291
-28.5245 77.849 6.99869 -0.361843 0.932052 0.0186484
-30.0295 77.245 6.87948 -0.381515 0.924185 0.0181026
-31.5105 76.6202 6.75046 -0.397467 0.917426 0.018682
-33.3463 75.8052 6.58099 -0.415298 0.909397 0.0229127
-34.6679 75.1965 6.46215 -0.424217 0.90534 0.0199859
-36.2614 74.4442 6.31233 -0.430773 0.902371 0.012716
-36.0982 74.5079 7.2779 -0.429027 0.903232 0.0103942
-34.6063 75.2137 7.43625 -0.420005 0.907432 0.0127567
-33.0478 75.9231 7.58363 -0.411708 0.911226 0.0127753
-31.4697 76.6174 7.73376 -0.400497 0.916131 0.0175287
-30.0888 77.2017 7.86702 -0.382306 0.923897 0.0160444
-28.4934 77.841 8.00262 -0.364813 0.930914 0.0176378
-26.7696 78.4792 8.15477 -0.334672 0.942151 0.0186041
-25.217 79.017 8.2808 -0.325487 0.945402 0.0165313
-23.7751 79.4757 8.41394 -0.279681 0.959709 0.0271434
-21.9625 79.9771 8.58545 -0.255492 0.966534 0.0231425
-20.5098 80.3282 8.74652 -0.21089 0.977476 0.00818008
-18.8316 80.657 8.92852 -0.178078 0.983867 0.0171488
-17.2813 80.9061 9.09269 -0.128948 0.991499 0.0173716
-15.7778 81.0684 9.24095 -0.0736532 0.996969 0.0250743
-14.1196 81.1618 9.39553 -0.0504075 0.998449 0.0236522
-12.5466 81.1824 9.55577 0.00871229 0.999881 0.0127677
-11.0373 81.1178 9.70621 0.0870297 0.996099 0.0145653
-9.32343 80.9416 9.78397 0.105728 0.994329 0.0114417
-7.57145 80.6985 9.75688 0.155201 0.987737 0.0169705
-5.84418 80.3385 9.57615 0.226473 0.973919 0.0138191
-4.19216 79.9358 9.3607 0.268013 0.9634 -0.00535603
-2.64293 79.478 9.15544 0.292084 0.956356 -0.00838432
-1.24617 78.9876 8.97565 0.328325 0.944564 0.000789777
0.449855 78.3593 8.75871 0.355105 0.93482 0.00355429
2.07491 77.7094 8.55246 0.390133 0.920757 -0.00195578
3.41458 77.124 8.37251 0.407765 0.913081 0.00335839
4.72839 76.5292 8.19411 0.422285 0.906455 -0.0038572
6.10617 75.8872 7.99697 0.420362 0.907353 -0.00248374
7.81943 75.0504 7.76851 0.443748 0.896119 -0.00766346
9.50163 74.207 7.56688 0.452681 0.891642 -0.00736763
10.9561 73.4573 7.41259 0.463463 0.886072 -0.00884804
12.4124 72.6933 7.2764 0.463872 0.88585 -0.00962666
13.737 71.9913 7.17884 0.47182 0.881606 -0.0124898
15.3002 71.1559 7.11346 0.469809 0.882562 -0.0190487
16.7327 70.3961 7.12895 0.466929 0.883937 -0.0251483
18.2543 69.6025 7.24884 0.460394 0.887229 -0.0293677
18.3508 69.5533 7.26144 0.456874 0.889027 -0.0299383
18.4412 69.5415 8.25436 0.457783 0.888217 -0.0388063
16.6572 70.4618 8.12486 0.463966 0.885547 -0.0232618
15.0145 71.3285 8.12779 0.470201 0.882401 -0.0167042
13.7335 72.0085 8.18976 0.467244 0.884044 -0.0122113
12.1526 72.8415 8.32219 0.464793 0.885363 -0.00995825
10.736 73.5825 8.44989 0.461211 0.887279 -0.00459483
9.13109 74.4002 8.63108 0.450465 0.892784 -0.00422597
7.14428 75.3889 8.87488 0.439932 0.898029 -0.00165046
5.7187 76.0699 9.06785 0.425391 0.905009 0.00121166
4.39767 76.6824 9.24932 0.414579 0.910012 0.00169288
2.88729 77.3596 9.45091 0.405024 0.914305 -0.00131328
1.4001 77.9915 9.64305 0.367407 0.93006 -0.000804017
-0.0020759 78.5343 9.82081 0.353853 0.935301 -0.000726877
-1.44219 79.0589 10.0015 0.331927 0.943305 -0.000602229
-2.83039 79.5343 10.1803 0.310786 0.950479 -0.00101378
-4.44293 80.004 10.3845 0.261725 0.965139 0.00262622
-6.08331 80.3849 10.5892 0.217118 0.976145 -0.000267783
-7.76834 80.7105 10.7606 0.174127 0.984589 0.0162403
-9.25271 80.9263 10.8028 0.123879 0.992242 0.0104625
-10.7041 81.0636 10.7554 0.0673011 0.997372 0.0268107
-12.3069 81.1569 10.6242 0.0390191 0.998821 0.0288663
-13.8465 81.1481 10.4744 -0.0353866 0.998981 0.0280279
-15.3801 81.0711 10.3296 -0.0786144 0.99674 0.0181462
-17.2156 80.8852 10.1374 -0.131216 0.991182 0.0184749
-18.705 80.6627 9.97099 -0.168608 0.985536 0.0170268
-20.2805 80.353 9.79713 -0.205512 0.977796 0.0409848
-21.9905 79.9446 9.61847 -0.255076 0.966626 0.0238662
-23.6173 79.4887 9.46131 -0.282992 0.959004 0.015061
-25.1599 79.0193 9.31686 -0.323837 0.945977 0.0160377
-26.5725 78.5299 9.18516 -0.337071 0.941266 0.020011
-28.2083 77.9287 9.03092 -0.358212 0.933432 0.0197444
-29.7054 77.3403 8.8969 -0.375916 0.926445 0.0196524
-31.5507 76.5659 8.71673 -0.396588 0.917952 0.00905507
-33.0101 75.9276 8.57101 -0.409994 0.912033 0.0100296
-34.5285 75.2382 8.41087 -0.416378 0.909146 0.00907338
-35.8381 74.6237 8.27897 -0.425611 0.904894 0.00462007
-36.1424 74.4801 8.24542 -0.431782 0.901978 0.000863077
-36.2593 74.4228 9.20402 -0.431511 0.902107 0.00126492
-34.8558 75.0802 9.3509 -0.418251 0.908322 0.0042181
-33.1815 75.8389 9.5374 -0.407492 0.91316 0.00943849
-31.7041 76.4896 9.68864 -0.395261 0.918495 0.0115982
-30.1444 77.139 9.84503 -0.379097 0.925121 0.0209034
-28.6799 77.7287 10.0007 -0.370459 0.928687 0.0173202
-27.0522 78.3346 10.1417 -0.341239 0.939761 0.0201467
-25.4754 78.8899 10.3001 -0.329275 0.943864 0.0264493
-23.9856 79.3618 10.4545 -0.2889 0.956987 0.0266929
-22.5797 79.7595 10.5869 -0.256557 0.966102 0.02874
-21.1439 80.1302 10.7414 -0.246157 0.968719 0.0314555
-19.6482 80.4571 10.8912 -0.205854 0.978259 0.0251602
-18.1164 80.7353 11.075 -0.162518 0.986379 0.0253907
-16.301 80.9801 11.3031 -0.106185 0.994199 0.0171257
-14.6409 81.0828 11.4599 -0.0494905 0.998435 0.0260537
-12.7989 81.134 11.6198 -0.0200046 0.999245 0.0333177
-11.139 81.0719 11.7539 0.067536 0.997685 0.00794769
-9.64068 80.9498 11.8041 0.0855527 0.996214 0.0154441
-8.11594 80.7516 11.7645 0.155776 0.987673 0.0153459
-6.4882 80.4567 11.6124 0.197926 0.979995 0.0208682
-4.91668 80.1176 11.4333 0.234727 0.971984 0.0122607
-3.51424 79.7393 11.2632 0.290258 0.956818 0.0157851
-2.14629 79.3024 11.0931 0.317186 0.948213 0.0168976
-0.67302 78.789 10.9051 0.342821 0.939401 -0.000718199
0.724511 78.2556 10.732 0.369096 0.929382 0.00420539
2.07307 77.7069 10.5618 0.391876 0.92001 0.00381856
3.38558 77.1433 10.3937 0.400218 0.916398 -0.00642156
4.82509 76.4914 10.2028 0.41805 0.908418 -0.00331892
6.12352 75.8838 10.0311 0.428701 0.903432 -0.00504216
7.83275 75.0522 9.80699 0.441275 0.897354 -0.00571325
9.29458 74.3225 9.63001 0.449207 0.893419 -0.00393145
10.941 73.4834 9.45446 0.459533 0.88813 -0.00743736
12.4196 72.7134 9.31726 0.465281 0.885109 -0.00979804
14.0494 71.8553 9.19305 0.465439 0.885017 -0.0105747
15.481 71.0992 9.12347 0.464947 0.885215 -0.0147516
16.8462 70.3847 9.12683 0.460521 0.887477 -0.0174319
18.0471 69.7667 9.18997 0.459676 0.88787 -0.0196232
17.6312 69.9986 10.1385 0.455788 0.889985 -0.0135768
16.0673 70.8084 10.1217 0.461258 0.887141 -0.0148712
14.4921 71.6338 10.1887 0.465005 0.885254 -0.00977198
12.8095 72.5194 10.3064 0.465001 0.885272 -0.00818088
11.4167 73.2447 10.4277 0.460351 0.887714 -0.00635085
10.0033 73.9705 10.5704 0.453879 0.891063 -0.00134541
8.64185 74.6541 10.7294 0.446012 0.895018 -0.0038475
7.28346 75.3275 10.8977 0.436691 0.899604 -0.00357354
5.58764 76.1381 11.113 0.42806 0.90375 -0.000988451
4.24611 76.7626 11.2894 0.414561 0.910017 0.00270931
2.80638 77.3953 11.4755 0.394303 0.91898 0.000197491
1.4826 77.9516 11.6415 0.386571 0.92224 0.00597673
-0.116241 78.5756 11.8379 0.353162 0.935557 0.00309529
-1.58884 79.1082 12.0213 0.329117 0.944279 0.00449495
-2.95285 79.5527 12.1877 0.307075 0.951572 0.0146572
-4.35553 79.9572 12.3573 0.240231 0.970384 0.0253946
-5.79957 80.3048 12.5193 0.227145 0.973719 0.0166091
-7.32532 80.6043 12.6731 0.16589 0.986106 0.0086421
-8.95322 80.8461 12.78 0.122189 0.992309 0.0198297
-10.4872 81.0061 12.7949 0.0846933 0.996246 0.0178873
-12.2469 81.103 12.7096 0.0356894 0.999307 0.0105547
-14.0472 81.0885 12.5708 -0.0336363 0.999167 0.0231039
-15.5038 81.0117 12.4414 -0.0531089 0.997771 0.0404082
-17.2259 80.8333 12.2235 -0.134186 0.990341 0.0349153
-18.6451 80.6113 12.0477 -0.177852 0.983442 0.0348044
-20.4196 80.2571 11.8521 -0.208485 0.977282 0.0381198
-21.8733 79.916 11.6907 -0.239373 0.970337 0.0338636
-23.3462 79.5226 11.5363 -0.273901 0.961339 0.0283874
-24.8445 79.0664 11.3864 -0.313139 0.949372 0.025244
-26.5132 78.4999 11.2011 -0.334107 0.942363 0.0180288
-28.021 77.955 11.0606 -0.351721 0.935883 0.0203711
-29.3554 77.4453 10.9298 -0.367416 0.929906 0.0167521
-30.7429 76.8786 10.7888 -0.383421 0.92346 0.0144926
-32.2107 76.2573 10.6281 -0.398329 0.917214 0.00718722
-33.6417 75.6268 10.48 -0.405605 0.914035 0.00489587
-34.9848 75.0169 10.3261 -0.419058 0.907953 -0.00331637
-36.127 74.488 10.2005 -0.422503 0.906344 -0.00572761
-35.0113 75.0065 11.3043 -0.414227 0.910174 -0.000623885
-33.5946 75.6433 11.4655 -0.404463 0.914546 0.00405965
-32.2149 76.2447 11.6192 -0.394305 0.918888 0.0129459
-30.4191 76.9944 11.8176 -0.380048 0.924819 0.0165309
-28.9543 77.5815 11.9748 -0.367193 0.929925 0.0202324
-27.5345 78.1187 12.1083 -0.346516 0.937889 0.0170631
-26.1769 78.601 12.2459 -0.321553 0.946656 0.0211234
-24.7505 79.0647 12.4105 -0.307044 0.95132 0.0267162
-23.021 79.5783 12.5993 -0.258523 0.965708 0.023968
-21.411 79.995 12.7805 -0.244338 0.969437 0.0221418
-19.1565 80.4928 13.0418 -0.189678 0.981661 0.0190597
-17.4245 80.7749 13.2519 -0.145204 0.989205 0.0197505
-15.9987 80.9453 13.4204 -0.106189 0.994053 0.0241299
-14.5628 81.0339 13.5819 -0.0506143 0.998277 0.0296952
-13.0899 81.0802 13.7005 -0.0115049 0.999816 0.0153305
-11.6127 81.0577 13.7778 0.0489596 0.998482 0.0252448
-10.086 80.9536 13.8177 0.0988751 0.994853 0.0221506
-8.29805 80.7415 13.731 0.13292 0.990831 0.0242014
-6.57721 80.4699 13.5762 0.196479 0.980474 0.00814968
-5.11861 80.1381 13.4263 0.237188 0.971434 0.00765609
-3.66353 79.7568 13.2662 0.284617 0.958603 0.00855215
-2.19382 79.3079 13.0931 0.312315 0.949978 0.00133027
-0.749027 78.804 12.9174 0.33866 0.940826 0.012469
0.59778 78.2958 12.7526 0.36576 0.930691 0.00584276
1.94125 77.7565 12.5899 0.384791 0.923004 -0.000277512
3.54968 77.0708 12.3864 0.407415 0.913215 0.00715417
4.85936 76.4744 12.2179 0.413545 0.910462 0.00629821
6.53898 75.6901 12.0082 0.42546 0.904976 0.00120302
7.83428 75.0613 11.8501 0.443453 0.896298 -0.000108893
9.19125 74.3821 11.6873 0.450127 0.892963 -0.0016271
10.4984 73.7192 11.5461 0.45286 0.891581 -0.000176973
11.8928 73.0028 11.4067 0.459622 0.888111 -0.00252425
13.2182 72.3123 11.2974 0.464831 0.885376 -0.00634358
14.501 71.638 11.1982 0.464731 0.885431 -0.00614603
15.7951 70.9611 11.1375 0.462266 0.88672 -0.00622504
16.844 70.4149 11.1087 0.46037 0.887685 -0.00861636
16.0122 70.8546 12.1259 0.462563 0.886567 -0.00587148
14.7308 71.5245 12.1914 0.463138 0.886283 -0.00222802
13.4274 72.207 12.2921 0.464184 0.885734 -0.00292299
11.907 72.9983 12.4223 0.460901 0.887449 -0.00203645
10.5846 73.6764 12.5604 0.451975 0.89203 -0.0013303
9.12468 74.4162 12.7149 0.452067 0.891984 -0.00045126
7.60914 75.1698 12.8946 0.439902 0.898044 0.00152532
5.94134 75.9696 13.0977 0.425468 0.904973 0.00119869
4.20101 76.7718 13.3139 0.409566 0.912272 0.00398198
2.57844 77.4859 13.5172 0.393622 0.919268 0.00283297
1.19103 78.0547 13.6862 0.377145 0.926127 0.00707849
-0.231913 78.6056 13.8556 0.343655 0.938996 0.0137132
-1.71242 79.1403 14.0324 0.326501 0.945181 0.00550917
-3.078 79.5725 14.1988 0.278765 0.960236 0.0153604
-4.53914 79.9751 14.3489 0.250965 0.967855 0.0165532
-6.03991 80.3376 14.4953 0.219589 0.975574 0.00596571
-7.66845 80.6427 14.6498 0.159464 0.987076 0.0159118
-9.49896 80.8846 14.7768 0.102 0.994762 0.00661228
-10.9991 81.0063 14.8001 0.0483663 0.998698 0.0162393
-12.4925 81.0636 14.7717 -0.00662256 0.999234 0.0385713
-14.1883 81.0179 14.6665 -0.0467234 0.998457 0.0299936
-15.7049 80.9456 14.5176 -0.0577173 0.998087 0.022171
-17.1951 80.7869 14.3377 -0.152752 0.9879 0.0268409
-18.8136 80.5236 14.1296 -0.176069 0.983968 0.028393
-20.5776 80.1738 13.9159 -0.206968 0.978126 0.0208451
-21.9994 79.8273 13.7442 -0.251669 0.967622 0.0192178
-23.7588 79.3424 13.5407 -0.281382 0.959482 0.0147489
-25.2791 78.8774 13.3662 -0.303858 0.952579 0.0162636
-27.09 78.2564 13.164 -0.337658 0.941048 0.0204021
-28.5999 77.7006 13.0117 -0.35413 0.935086 0.014334
-30.5659 76.9216 12.8005 -0.374191 0.927217 0.0158165
-31.9985 76.3299 12.6349 -0.390609 0.920527 0.00741013
-33.6047 75.6348 12.4524 -0.40314 0.915135 0.00267292
-32.5055 76.1058 13.5694 -0.395169 0.918584 0.00670429
-30.9522 76.7524 13.7575 -0.37705 0.926104 0.0128093
-29.5588 77.3104 13.906 -0.368203 0.929642 0.0138941
-28.0775 77.8799 14.0679 -0.350789 0.936284 0.0178449
-26.3443 78.4997 14.2541 -0.331291 0.943319 0.019914
-24.8342 78.999 14.4345 -0.298241 0.954393 0.0136592
-23.4215 79.4232 14.601 -0.278467 0.960293 0.0171484
-21.7319 79.8738 14.8048 -0.240959 0.970379 0.0174122
-20.2002 80.233 14.9917 -0.203807 0.978809 0.0198901
-18.591 80.534 15.1967 -0.177631 0.983748 0.0262062
-17.1701 80.7556 15.3854 -0.141629 0.989232 0.0369001
-15.6226 80.9077 15.5744 -0.073386 0.996829 0.0307716
-13.9698 81 15.7326 -0.0457203 0.998754 0.0199804
-12.3226 81.0229 15.8006 -0.000594732 0.999215 0.0396092
-11.6792 81.0228 15.811 0.0467957 0.998297 0.0348202
-14.5239 80.9451 16.7254 -0.061942 0.997877 0.0201188
-15.9717 80.8501 16.5814 -0.0745788 0.996707 0.0318183
-17.5858 80.664 16.3707 -0.152316 0.988144 0.019251
-19.0883 80.4181 16.172 -0.177891 0.983695 0.0264435
-20.7745 80.0853 15.9494 -0.212496 0.976745 0.0285435
-22.3588 79.7005 15.7509 -0.256227 0.966388 0.0210286
-23.9258 79.2581 15.5569 -0.283887 0.958629 0.0209387
-25.5917 78.737 15.3563 -0.32388 0.946039 0.0106093
-27.2344 78.17 15.1664 -0.329416 0.944056 0.0156126
-28.6349 77.6546 15.0051 -0.364146 0.931207 0.0158421
-30.2152 77.0353 14.8329 -0.369767 0.929045 0.0121696
-31.2629 76.6144 14.7189 -0.378281 0.925647 0.00902808
-29.6578 77.2467 15.8854 -0.359048 0.933281 0.00843145
-28.0945 77.8398 16.0686 -0.346672 0.937953 0.00794882
-26.714 78.3351 16.2334 -0.330462 0.943716 0.0139364
-25.1922 78.8529 16.4178 -0.305605 0.951992 0.01782
-23.667 79.3183 16.6045 -0.276414 0.960872 0.0178746
-22.0563 79.754 16.8058 -0.243866 0.969546 0.0225926
-20.5321 80.1099 17.0032 -0.22031 0.975044 0.027455
-18.9606 80.417 17.2155 -0.182763 0.982787 0.0269844
-17.4739 80.6605 17.4208 -0.151993 0.988105 0.0233668
-16.7297 80.751 17.52 -0.11823 0.992963 0.0068467
-18.8428 80.4135 18.253 -0.184671 0.982511 0.0238474
-20.2785 80.1384 18.0539 -0.198013 0.979919 0.0234272
-22.0225 79.7358 17.8261 -0.24674 0.968872 0.0201787
-23.5095 79.342 17.6391 -0.278691 0.960111 0.0227769
-24.9324 78.9172 17.4621 -0.302804 0.952944 0.0144027
-26.4043 78.4289 17.2779 -0.326959 0.944966 0.0116984
-28.0284 77.8545 17.0814 -0.340332 0.940257 0.00958717
-28.1636 77.8057 17.0652 -0.345974 0.938208 0.00828191
-25.1382 78.8349 18.4417 -0.306615 0.951772 0.0108058
-23.4055 79.3535 18.6621 -0.280271 0.95988 0.00884423
-22.0165 79.7223 18.8434 -0.248601 0.968508 0.0137712
-21.9433 79.7406 18.8531 -0.230176 0.972942 0.0200628
15.4566 71.1474 13.1417 0.463383 0.886156 -0.00196078
