12.7185 72.7226 -14.0138 0.489016 0.871903 -0.0254664
11.59 73.3485 -14.0559 0.484669 0.87437 -0.023926
10.2806 74.0601 -14.0877 0.474726 0.879897 -0.0203979
9.08412 74.7018 -14.1196 0.468967 0.882949 -0.0217178
7.88732 75.3276 -14.1796 0.457432 0.888985 -0.0214965
6.79829 75.8838 -14.2021 0.452786 0.891403 -0.0196457
5.69132 76.4391 -14.2657 0.447999 0.893782 -0.0212285
4.51275 77.015 -14.3305 0.430787 0.9022 -0.021389
3.36959 77.5516 -14.3778 0.423552 0.905619 -0.0214086
2.15563 78.0959 -14.478 0.397817 0.917366 -0.0134693
0.808387 78.6708 -14.5339 0.393472 0.919226 -0.0142804
-0.443799 79.1876 -14.6153 0.372646 0.9279 -0.0117029
-1.91028 79.7548 -14.695 0.352713 0.935701 -0.00753271
-3.20271 80.2111 -14.8029 0.310641 0.950519 -0.00394287
-4.55453 80.6133 -14.9164 0.263758 0.964554 0.00816413
-5.75274 80.9345 -14.9986 0.253434 0.967341 0.00471646
-6.95566 81.2247 -15.0846 0.21616 0.976354 -0.00278373
-8.13609 81.461 -15.1781 0.169897 0.985386 0.012213
-9.50341 81.6476 -15.235 0.115068 0.99335 -0.00398516
-10.9209 81.7759 -15.2254 0.0699983 0.997468 -0.0125961
-12.2195 81.8363 -15.1703 0.0237002 0.999596 -0.0156618
-13.4069 81.8628 -15.0942 0.0174026 0.999705 -0.0169495
-14.6168 81.8532 -15.0171 -0.0419446 0.999108 -0.00488531
-15.8402 81.7581 -14.9277 -0.0818181 0.996557 -0.0134408
-17.3947 81.6122 -14.802 -0.099663 0.994838 -0.0190913
-18.7317 81.4517 -14.6926 -0.143364 0.989507 -0.017943
-20.0009 81.2451 -14.5901 -0.179107 0.983661 -0.018185
-21.163 81.0188 -14.499 -0.189643 0.981808 -0.00943056
-22.5929 80.6939 -14.3885 -0.238171 0.971223 0.00026282
-24.1242 80.2974 -14.2729 -0.261922 0.965085 0.00287227
-25.7785 79.8259 -14.1495 -0.28653 0.957942 0.0157103
-27.1105 79.4163 -14.0497 -0.307317 0.951431 0.0183035
-28.3221 79.0164 -13.9591 -0.315509 0.948357 0.0327561
-28.9575 78.8003 -13.9113 -0.329047 0.943681 0.0345421
-29.8942 78.4276 -12.8881 -0.347424 0.937133 0.0328387
-28.3729 78.9742 -12.9989 -0.323794 0.945814 0.0243536
-27.1525 79.3824 -13.0878 -0.313176 0.94942 0.0228445
-25.6472 79.8517 -13.1979 -0.290782 0.956709 0.0123918
-24.4838 80.1948 -13.282 -0.263831 0.96455 0.00608136
-22.9834 80.5958 -13.3931 -0.24793 0.96877 -0.00395025
-21.5777 80.9368 -13.4964 -0.230209 0.973132 -0.00420386
-20.35 81.1897 -13.5913 -0.195949 0.980514 -0.014036
-19.1752 81.3964 -13.6852 -0.146957 0.989097 -0.0095761
-17.7566 81.5926 -13.8039 -0.128356 0.991594 -0.0163165
-16.496 81.7193 -13.9129 -0.0996744 0.994837 -0.0190797
-15.2449 81.8219 -14.0118 -0.0676363 0.9973 -0.0285853
-13.8424 81.8741 -14.0988 -0.00882174 0.999953 -0.00392802
-12.6712 81.8627 -14.1702 0.0268684 0.999583 -0.0106121
-11.4125 81.8246 -14.2283 0.0504095 0.998674 -0.0104333
-10.0293 81.7134 -14.2376 0.1139 0.993472 -0.0063967
-8.5568 81.5256 -14.2031 0.144474 0.989455 -0.0103429
-7.39948 81.3062 -14.1249 0.196728 0.980355 -0.0142335
-5.91878 80.9805 -14.0206 0.241584 0.970237 -0.0166676
-4.71569 80.6683 -13.9332 0.262702 0.964784 -0.013377
-3.09522 80.1799 -13.7978 0.297446 0.954738 -0.000409614
-1.93398 79.7695 -13.71 0.349459 0.936947 -0.00288367
-0.794841 79.3345 -13.6468 0.36455 0.931063 -0.0150353
0.404754 78.8527 -13.582 0.383337 0.923528 -0.0121938
1.55196 78.3686 -13.5284 0.394017 0.918977 -0.0151909
2.69915 77.8705 -13.466 0.404325 0.914534 -0.0121676
3.76269 77.3899 -13.3914 0.421567 0.906547 -0.0213036
4.9748 76.8135 -13.3234 0.43556 0.899827 -0.024473
6.04478 76.2864 -13.2557 0.447911 0.893797 -0.0224087
7.42752 75.5857 -13.2267 0.454749 0.890393 -0.0200835
8.4665 75.05 -13.1948 0.462266 0.886498 -0.0207595
9.80253 74.3387 -13.1451 0.473366 0.88062 -0.0208182
11.0191 73.6835 -13.1323 0.475203 0.879572 -0.0231488
12.3894 72.9344 -13.0929 0.484369 0.874448 -0.0269619
13.4118 72.361 -13.0791 0.489015 0.871903 -0.025467
14.5519 71.7207 -13.0732 0.491718 0.87042 -0.0241446
15.7374 71.0462 -13.0659 0.495921 0.868007 -0.025019
15.874 70.9681 -13.0675 0.495925 0.868005 -0.0250225
16.5778 70.5895 -12.1512 0.497408 0.867246 -0.0216899
15.1982 71.3789 -12.1482 0.496224 0.867929 -0.0214985
14.1406 71.9775 -12.1528 0.49018 0.871278 -0.024449
13.0744 72.5769 -12.1534 0.489363 0.87173 -0.0247368
12.0518 73.1463 -12.1787 0.482891 0.875425 -0.0211343
11.0097 73.7135 -12.1981 0.475775 0.879276 -0.02261
9.94072 74.2885 -12.2018 0.470871 0.881982 -0.0197244
8.58074 75.0088 -12.239 0.466768 0.884173 -0.019116
7.34196 75.6528 -12.2512 0.460426 0.887466 -0.0203194
5.99912 76.3335 -12.2918 0.445463 0.895124 -0.0177523
4.78633 76.9264 -12.3591 0.43655 0.899573 -0.013888
3.58422 77.4893 -12.4355 0.410406 0.91172 -0.0182345
2.30484 78.0598 -12.5063 0.40651 0.913533 -0.0143986
0.749724 78.7267 -12.5768 0.389512 0.920899 -0.0149993
-0.421349 79.2045 -12.6407 0.373459 0.927565 -0.0123163
-1.54015 79.6413 -12.7049 0.354233 0.935014 -0.0163814
-2.75636 80.0732 -12.7869 0.321831 0.946765 -0.00779668
-3.98659 80.4741 -12.8867 0.291209 0.956393 -0.0225893
-5.31645 80.8453 -12.9853 0.260715 0.965271 -0.016706
-6.5343 81.1384 -13.0616 0.229569 0.973284 -0.00411278
-8.02261 81.4443 -13.1552 0.179692 0.983645 -0.0123895
-10.0834 81.7129 -13.2235 0.100793 0.99489 0.00592268
-11.9838 81.852 -13.2089 0.0355784 0.999083 -0.0238319
-13.5314 81.8895 -13.1468 0.010842 0.999911 -0.00776521
-14.934 81.8684 -13.072 -0.0218357 0.999394 -0.027126
-16.4297 81.7387 -12.9471 -0.0872765 0.996151 -0.00811631
-17.8345 81.5895 -12.8257 -0.123909 0.992282 -0.00489565
-19.4288 81.3687 -12.6928 -0.146764 0.98912 -0.0100607
-20.7982 81.1133 -12.5852 -0.211905 0.977289 -0.00149234
-22.4359 80.7371 -12.4643 -0.243232 0.969968 0.000879327
-23.81 80.3729 -12.366 -0.257686 0.966188 0.00892831
-25.0166 80.0297 -12.2802 -0.284992 0.958356 0.0182313
-26.3756 79.6157 -12.1835 -0.292846 0.956074 0.012836
-27.8088 79.1453 -12.0821 -0.320489 0.947072 0.0184584
-28.961 78.7419 -12.0051 -0.332577 0.942717 0.0260443
-30.3013 78.2422 -11.9058 -0.347424 0.937133 0.0328388
-30.5908 78.1345 -11.8842 -0.351722 0.935434 0.0354358
-31.329 77.8124 -10.8827 -0.359039 0.932538 0.0382708
-30.2077 78.2476 -10.9594 -0.359025 0.932773 0.0321687
-29.078 78.673 -11.041 -0.343929 0.938642 0.0257741
-27.7407 79.1457 -11.1297 -0.330519 0.943587 0.0200394
-26.3776 79.599 -11.2207 -0.299796 0.953855 0.0168363
-25.0663 79.9992 -11.3112 -0.284318 0.958718 0.00481771
-23.9374 80.3337 -11.3889 -0.271447 0.962449 0.0028758
-22.7938 80.6405 -11.4671 -0.25883 0.965922 0.00118411
-21.427 80.9691 -11.5655 -0.223555 0.974659 0.00787988
-20.1084 81.2517 -11.6681 -0.17441 0.984672 -0.00134217
-18.6914 81.4793 -11.7795 -0.134468 0.990877 -0.00901966
-17.5062 81.6353 -11.8781 -0.116646 0.993173 0.00135321
-16.245 81.7625 -11.9896 -0.0878055 0.996116 -0.00651937
-15.0328 81.867 -12.0902 -0.0832918 0.996512 -0.00517721
-13.8196 81.9166 -12.1648 -0.00516407 0.999484 -0.0317046
-12.2894 81.8865 -12.2337 0.0279908 0.999295 -0.025032
-10.9446 81.8239 -12.2398 0.0843577 0.996224 -0.0205101
-9.73698 81.7061 -12.2184 0.110635 0.993605 -0.0225535
-8.46227 81.5302 -12.1744 0.161375 0.98675 -0.0168281
-7.24764 81.2995 -12.1067 0.201408 0.979297 -0.0203053
-5.96397 81.0167 -12.0277 0.228067 0.973535 -0.0146741
-4.63902 80.6806 -11.9453 0.276612 0.960961 -0.00630228
-3.33369 80.2755 -11.8444 0.309419 0.950918 -0.00388762
-2.18061 79.875 -11.7629 0.335181 0.94215 -0.00257067
-0.865372 79.3917 -11.6878 0.357125 0.934044 -0.00489227
0.472061 78.8629 -11.6078 0.379617 0.924901 -0.0212013
1.55469 78.4062 -11.5453 0.388989 0.921024 -0.0200634
2.88873 77.8223 -11.49 0.408489 0.912544 -0.0199774
3.97182 77.3283 -11.423 0.425237 0.90499 -0.012922
5.36635 76.6625 -11.3602 0.438079 0.8988 -0.015646
6.60277 76.0491 -11.2985 0.451266 0.892235 -0.0165868
7.64533 75.5184 -11.2782 0.459969 0.887681 -0.0212375
8.87619 74.8737 -11.2813 0.466889 0.884106 -0.0192484
10.0564 74.2477 -11.277 0.470112 0.882357 -0.0209832
11.1257 73.6735 -11.2694 0.4761 0.87913 -0.0214371
12.4444 72.9526 -11.238 0.482659 0.875545 -0.0214908
13.5407 72.3416 -11.2219 0.489887 0.871436 -0.0247114
14.5935 71.7476 -11.2259 0.493488 0.869475 -0.0219557
15.843 71.0347 -11.2217 0.49744 0.86721 -0.022352
16.891 70.4296 -11.2839 0.498529 0.866634 -0.0203413
17.0131 70.3803 -10.3952 0.499924 0.865858 -0.0191236
15.9914 70.9702 -10.3343 0.498994 0.866377 -0.0199201
14.9387 71.5743 -10.3038 0.494683 0.868804 -0.0216509
13.8981 72.1635 -10.2984 0.491863 0.87044 -0.0201117
12.7069 72.8314 -10.302 0.483562 0.875013 -0.0228156
11.4841 73.5014 -10.3342 0.480008 0.877055 -0.0191446
10.2941 74.1426 -10.3454 0.469579 0.882675 -0.0194888
9.05702 74.8009 -10.3405 0.466315 0.884338 -0.0222775
7.91554 75.3991 -10.3222 0.457982 0.888782 -0.0178745
6.72787 76.0052 -10.3248 0.449465 0.893075 -0.0199339
5.62248 76.5527 -10.3769 0.441324 0.897226 -0.0148023
4.11804 77.2735 -10.4283 0.430325 0.902541 -0.0155117
3.05267 77.765 -10.4918 0.41211 0.91106 -0.0116284
1.84469 78.2995 -10.54 0.39943 0.916566 -0.0190538
0.623242 78.823 -10.6209 0.383546 0.923281 -0.0210976
-0.855374 79.3967 -10.694 0.35363 0.935329 -0.0103107
-1.96094 79.8074 -10.7576 0.34983 0.936724 -0.0129295
-3.06173 80.1934 -10.8306 0.31172 0.950086 -0.0128924
-4.37075 80.5964 -10.9258 0.273467 0.961848 0.00801021
-5.68229 80.9529 -11.0098 0.247074 0.968887 -0.0146001
-7.32651 81.3362 -11.1188 0.216964 0.97612 -0.0107841
-8.8574 81.6112 -11.1885 0.153877 0.988016 -0.0120862
-10.0285 81.7627 -11.2313 0.103723 0.994361 -0.022082
-11.4824 81.8759 -11.2583 0.0449822 0.998959 -0.00761039
-12.8385 81.9213 -11.2333 0.0179127 0.999815 -0.00697167
-14.1386 81.9172 -11.1686 -0.0166874 0.999861 -0.000658595
-15.3364 81.8423 -11.0864 -0.0765602 0.997065 -0.000663813
-16.6884 81.7301 -10.9688 -0.102237 0.994757 -0.00258349
-17.9175 81.5932 -10.8622 -0.117291 0.993033 -0.0113625
-19.1181 81.4302 -10.7637 -0.175163 0.984537 -0.0023841
-20.3709 81.1995 -10.6689 -0.218635 0.975753 0.0102223
-21.7019 80.901 -10.5717 -0.219565 0.975598 4.02147e-06
-23.0238 80.5726 -10.4807 -0.253444 0.967291 0.0106749
-24.5627 80.1434 -10.3784 -0.284767 0.958581 0.00549694
-25.7988 79.7675 -10.296 -0.301778 0.95328 0.0136704
-27.027 79.3702 -10.2186 -0.309763 0.950687 0.0155478
-28.4495 78.8802 -10.127 -0.339522 0.940542 0.0102541
-29.8776 78.3432 -10.0313 -0.353346 0.93503 0.0294068
-31.0097 77.9048 -9.95706 -0.362545 0.931502 0.029416
-32.0071 77.5123 -9.88717 -0.367409 0.929254 0.0386998
-32.3982 77.3118 -8.91393 -0.377502 0.925243 0.0376387
-31.2773 77.7668 -8.99087 -0.367038 0.929584 0.0340161
-30.0875 78.2317 -9.07008 -0.357229 0.933526 0.0302716
-28.8285 78.7096 -9.14942 -0.352008 0.935619 0.0266033
-27.6482 79.1392 -9.2209 -0.331223 0.943301 0.0217582
-26.4787 79.5345 -9.28997 -0.313446 0.949397 0.0199072
-24.9217 80.0336 -9.38817 -0.303668 0.952694 0.012624
-23.7734 80.3728 -9.46305 -0.270651 0.962668 0.00425179
-22.6417 80.6716 -9.53679 -0.244178 0.969728 0.00203233
-21.4874 80.9575 -9.61314 -0.230201 0.973091 -0.0100195
-19.9712 81.2807 -9.71908 -0.180184 0.983632 -0.00155788
-18.5715 81.51 -9.82744 -0.141936 0.989813 0.0111555
-17.1752 81.6866 -9.94203 -0.110369 0.993815 -0.0122857
-15.8205 81.8086 -10.0574 -0.0716702 0.997243 -0.0192537
-14.5532 81.8983 -10.1577 -0.0676697 0.997707 0.00157694
-13.3616 81.9378 -10.2254 -0.00142206 0.999982 -0.00581881
-12.1746 81.909 -10.2617 0.0348917 0.999391 -0.00077893
-10.9617 81.8601 -10.2637 0.0381361 0.999241 -0.00794686
-9.72066 81.7465 -10.2307 0.124505 0.992218 -0.00148634
-8.38246 81.5454 -10.1585 0.167562 0.985812 -0.00987356
-7.07638 81.2825 -10.102 0.210649 0.977562 -0.000194285
-5.82145 80.9977 -10.0157 0.253942 0.967208 -0.0046801
-4.59931 80.6636 -9.93297 0.275632 0.961255 -0.00395731
-3.32397 80.2919 -9.85449 0.287058 0.957911 0.00184686
-2.19391 79.9022 -9.77903 0.326683 0.945134 -0.00050678
-0.978352 79.4526 -9.70481 0.356378 0.934332 -0.0043728
0.121723 79.0301 -9.67255 0.364935 0.931011 -0.00641302
1.43479 78.4921 -9.5851 0.399549 0.916684 -0.00711907
2.67248 77.9496 -9.51687 0.409746 0.912089 -0.0142237
4.01538 77.3397 -9.46241 0.417363 0.908626 -0.0143773
5.2471 76.7527 -9.42166 0.431835 0.901798 -0.016682
6.37897 76.2007 -9.38696 0.442063 0.896776 -0.0193019
7.44404 75.6604 -9.37462 0.454277 0.890656 -0.0191058
8.86329 74.9243 -9.39902 0.461871 0.88674 -0.0191796
9.99658 74.322 -9.41218 0.471128 0.881836 -0.0201005
11.1717 73.6927 -9.40604 0.475004 0.879736 -0.0208451
12.2606 73.0994 -9.38817 0.48222 0.875797 -0.021058
13.4796 72.42 -9.3828 0.490343 0.871272 -0.0211654
14.5647 71.8074 -9.3925 0.492102 0.870356 -0.0178008
15.7883 71.1078 -9.43023 0.498721 0.866537 -0.0197545
17.0225 70.3934 -9.51763 0.500852 0.865339 -0.0183131
17.7296 69.9824 -9.60237 0.498894 0.866506 -0.0165084
17.8358 69.9379 -8.73337 0.500823 0.865382 -0.01704
16.726 70.5844 -8.59501 0.500648 0.865458 -0.0182846
15.5595 71.2592 -8.52442 0.497454 0.867281 -0.0190513
14.2329 72.0165 -8.48905 0.495101 0.868578 -0.0211672
12.9932 72.7156 -8.47013 0.486253 0.873585 -0.0201911
11.7456 73.4016 -8.48127 0.477626 0.878336 -0.0199866
10.2252 74.2212 -8.47772 0.470817 0.881999 -0.020228
8.89167 74.9283 -8.45921 0.463791 0.885717 -0.0200652
7.831 75.4799 -8.43471 0.457005 0.889257 -0.0191963
6.61888 76.1022 -8.42703 0.449476 0.893076 -0.0196622
5.53091 76.6339 -8.45413 0.432696 0.901394 -0.0162263
4.47653 77.1386 -8.48191 0.424458 0.905345 -0.0136182
3.38438 77.6401 -8.5073 0.415794 0.909388 -0.0113089
1.85415 78.3225 -8.56962 0.400731 0.916139 -0.0102223
0.736829 78.7927 -8.6248 0.377418 0.926034 -0.00417272
-0.467377 79.2622 -8.68325 0.360319 0.932801 -0.00726202
-1.66571 79.7141 -8.74412 0.352906 0.935655 0.00251483
-3.13972 80.2294 -8.82739 0.308851 0.951106 0.00284411
-4.25439 80.5689 -8.90548 0.279382 0.960175 -0.00314047
-5.53002 80.9302 -8.99539 0.262139 0.965014 -0.00556647
-6.7412 81.2123 -9.07904 0.208296 0.978001 -0.0112913
-8.05519 81.4903 -9.13847 0.197576 0.980227 0.0108919
-9.28301 81.6902 -9.21432 0.153521 0.988115 -0.0077448
-10.903 81.8601 -9.27029 0.078513 0.996783 0.0160914
-12.1146 81.9147 -9.27024 0.0337899 0.999357 -0.0119892
-13.5499 81.9432 -9.23179 -0.00322246 0.999976 -0.00611269
-15.235 81.8703 -9.11171 -0.0598357 0.998022 -0.0192766
-16.4749 81.7756 -9.00964 -0.108587 0.994029 -0.010715
-18.2238 81.5612 -8.87092 -0.130876 0.991395 0.0028533
-19.6678 81.3346 -8.76204 -0.156616 0.98765 0.00441729
-20.9075 81.0899 -8.67359 -0.213526 0.976893 0.00934392
-22.0949 80.8073 -8.59795 -0.246082 0.969232 0.00580783
-23.6582 80.3938 -8.5016 -0.271151 0.962446 0.0132017
-25.0257 79.9883 -8.4169 -0.30337 0.952809 0.011032
-26.4367 79.532 -8.33271 -0.31066 0.950382 0.0162684
-27.6018 79.133 -8.26628 -0.331995 0.943021 0.0221735
-28.7161 78.7274 -8.20333 -0.349157 0.936713 0.0256435
-29.8244 78.3027 -8.13608 -0.358691 0.933006 0.0289882
-31.0275 77.8315 -8.05868 -0.366761 0.929769 0.0318759
-32.1608 77.3727 -7.98258 -0.380653 0.923874 0.0394911
-33.1643 76.9496 -7.91165 -0.39033 0.919618 0.0441035
-33.4904 76.7678 -6.94145 -0.395432 0.917567 0.0412951
-32.1684 77.3296 -7.03084 -0.38204 0.923338 0.0386381
-30.9234 77.8421 -7.115 -0.367392 0.929613 0.0290247
-29.5286 78.3904 -7.20225 -0.359093 0.932989 0.0241632
-28.3071 78.8549 -7.27039 -0.346528 0.937807 0.0208701
-27.1835 79.2616 -7.33212 -0.330737 0.943573 0.0168145
-25.9558 79.6751 -7.39946 -0.310462 0.950519 0.0112381
-24.8076 80.0454 -7.46646 -0.29976 0.953978 0.00837928
-23.6125 80.3991 -7.538 -0.265102 0.964173 0.00955943
-22.4035 80.7171 -7.60405 -0.246024 0.969219 0.00927427
-21.0729 81.0396 -7.68001 -0.229957 0.973137 0.0111165
-19.7032 81.3258 -7.77033 -0.177363 0.984132 0.00511594
-18.3179 81.5517 -7.87005 -0.163263 0.986573 -0.00443392
-17.1437 81.7083 -7.95925 -0.127822 0.991717 -0.0126381
-15.7914 81.8432 -8.06803 -0.0932957 0.99556 -0.0125372
-14.3284 81.9367 -8.1888 -0.0543367 0.998465 -0.0107592
-13.1218 81.9492 -8.25447 -0.000636161 0.999972 -0.00744224
-11.8446 81.9073 -8.28013 0.0731555 0.99726 -0.0110231
-10.1962 81.7755 -8.25302 0.0906868 0.99587 0.00424788
-8.94804 81.6339 -8.19986 0.17394 0.984174 0.0338465
-7.29771 81.3318 -8.09419 0.191926 0.981352 -0.0106091
-6.13242 81.085 -8.02029 0.231399 0.972835 -0.00678307
-4.8008 80.7342 -7.92196 0.269235 0.962995 -0.0123717
-3.55184 80.3697 -7.8429 0.301196 0.953413 -0.0168713
-2.43705 79.9967 -7.77742 0.329715 0.943907 -0.0180902
-0.952916 79.4599 -7.69999 0.344917 0.938507 -0.0153592
0.280231 78.9846 -7.6415 0.362425 0.931816 -0.0191752
1.68427 78.4094 -7.59304 0.393869 0.919051 -0.0145612
2.86951 77.8893 -7.55242 0.416719 0.908905 -0.0154106
4.30178 77.2316 -7.52587 0.417412 0.908611 -0.0138786
5.52728 76.6514 -7.50284 0.432448 0.901556 -0.0136168
6.61097 76.1176 -7.47852 0.446492 0.894747 -0.00856813
7.80654 75.5114 -7.49266 0.452581 0.891586 -0.0156396
8.918 74.9356 -7.53002 0.462395 0.88647 -0.0190274
10.1926 74.2619 -7.54214 0.46827 0.883395 -0.0183193
11.2739 73.6801 -7.56086 0.479335 0.877433 -0.0186654
12.4057 73.0591 -7.55826 0.481408 0.876351 -0.0159692
13.5476 72.4247 -7.56352 0.489973 0.87153 -0.0190301
15.0363 71.5799 -7.6027 0.495154 0.868555 -0.0208524
16.3218 70.8396 -7.66426 0.501746 0.864794 -0.0195538
17.3322 70.2504 -7.76372 0.502682 0.864297 -0.0173477
18.103 69.7981 -7.86973 0.504667 0.863184 -0.01497
18.0945 69.8198 -6.94335 0.50573 0.862546 -0.0158711
16.9702 70.482 -6.79259 0.505278 0.862752 -0.0187856
15.8598 71.1291 -6.726 0.501801 0.864752 -0.0200198
14.6637 71.814 -6.67857 0.493252 0.869614 -0.0217809
13.5534 72.4402 -6.64594 0.48856 0.872368 -0.0168351
12.2862 73.1426 -6.64779 0.480698 0.876707 -0.0177142
11.2482 73.7102 -6.64981 0.479241 0.87753 -0.0164233
10.0196 74.3718 -6.62148 0.470336 0.882328 -0.0167547
8.83616 74.9952 -6.59478 0.461961 0.886785 -0.0143039
7.65832 75.6035 -6.56664 0.456775 0.889468 -0.0142575
6.55835 76.1544 -6.54862 0.441269 0.897273 -0.0135348
5.1474 76.8469 -6.57406 0.43156 0.902016 -0.0110703
4.0108 77.3784 -6.5838 0.418994 0.907934 -0.0100202
2.91594 77.88 -6.59561 0.416657 0.909011 -0.00979916
1.73701 78.4013 -6.60647 0.397425 0.917595 -0.00858408
0.510313 78.9108 -6.64039 0.374647 0.927144 -0.00654929
-0.742818 79.3957 -6.6818 0.350493 0.936473 -0.0131357
-1.9275 79.8349 -6.73707 0.339574 0.940527 -0.00996413
-3.04083 80.2228 -6.79802 0.313195 0.949629 -0.0106194
-4.22859 80.5945 -6.86837 0.282124 0.959262 -0.0148879
-5.44069 80.9211 -6.94607 0.239461 0.970647 -0.0224351
-6.66373 81.2221 -7.03165 0.216262 0.9761 -0.0214258
-7.81604 81.4489 -7.11534 0.17942 0.983668 -0.0143285
-9.11581 81.6653 -7.20251 0.167261 0.985741 -0.0184068
-10.5569 81.8168 -7.26683 0.0928219 0.995594 -0.0132605
-11.7701 81.9105 -7.27941 0.0714128 0.997447 0.000734586
-13.5546 81.9622 -7.23151 0.00706792 0.99976 -0.0207584
-14.9476 81.9162 -7.13883 -0.0570287 0.998202 -0.0184673
-16.3864 81.7957 -7.02452 -0.110212 0.993898 0.00442474
-17.7096 81.6394 -6.92014 -0.126724 0.991937 -0.0012191
-19.0483 81.434 -6.82593 -0.163555 0.986533 -0.00167254
-20.3616 81.1891 -6.7415 -0.205723 0.978588 0.00658383
-21.5959 80.9085 -6.67457 -0.226679 0.973966 0.00256853
-22.8542 80.599 -6.60932 -0.264045 0.964477 0.00801811
-24.1566 80.2309 -6.53896 -0.271562 0.962366 0.0103046
-25.3439 79.861 -6.47244 -0.307631 0.951409 0.0135797
-26.585 79.4535 -6.40445 -0.329721 0.943923 0.0171358
-27.84 79.0078 -6.33819 -0.344919 0.938404 0.0207135
-29.0295 78.5588 -6.27261 -0.360061 0.932617 0.0241253
-30.1279 78.1294 -6.21021 -0.370157 0.928521 0.0288477
-31.5155 77.5619 -6.12484 -0.383877 0.922821 0.0322484
-32.6918 77.0701 -6.05345 -0.386138 0.921618 0.0389554
-33.8718 76.5592 -5.96944 -0.395899 0.917333 0.0420048
-34.0443 76.4842 -5.95721 -0.399479 0.915778 0.042039
-34.1561 76.3935 -5.00471 -0.406405 0.912956 0.0366831
-33.0416 76.8815 -5.08357 -0.397469 0.916971 0.0343839
-31.7275 77.4422 -5.1613 -0.389051 0.92077 0.0286602
-30.5716 77.9239 -5.22664 -0.373795 0.92712 0.0269582
-29.4823 78.3601 -5.28777 -0.365964 0.930386 0.021252
-28.3333 78.8047 -5.3524 -0.359482 0.932948 0.0195294
-27.1112 79.2523 -5.41823 -0.336174 0.941602 0.0193195
-25.9378 79.6558 -5.47726 -0.306377 0.951839 0.0116412
-24.5308 80.1035 -5.55239 -0.299389 0.953869 0.0223595
-23.3794 80.4474 -5.61107 -0.275074 0.961382 0.00893769
-22.1265 80.7878 -5.67222 -0.2409 0.970537 0.00494309
-20.9814 81.0499 -5.73235 -0.218909 0.975734 -0.00472912
-19.7804 81.3069 -5.79495 -0.185654 0.982553 -0.0110741
-18.6042 81.5104 -5.86796 -0.160524 0.986995 -0.00852497
-17.4407 81.676 -5.9472 -0.134821 0.990854 -0.00557204
-15.6588 81.8832 -6.08263 -0.0894059 0.995973 -0.00659985
-14.2245 81.957 -6.18711 -0.0177899 0.999819 -0.0067452
-12.7996 81.9543 -6.25763 0.0449746 0.998988 0.000427494
-11.2556 81.8695 -6.27074 0.0651978 0.997846 -0.00720831
-9.91728 81.758 -6.23499 0.108045 0.994128 0.00603111
-8.66197 81.6045 -6.16119 0.167719 0.985778 -0.0106352
-7.30218 81.3673 -6.06615 0.189945 0.981628 -0.0181124
-6.03742 81.0914 -5.96893 0.238645 0.970825 -0.0233776
-4.85846 80.7822 -5.88719 0.280298 0.959887 0.00702556
-3.56109 80.393 -5.80883 0.298171 0.954507 -0.00322932
-2.25088 79.9566 -5.73599 0.333167 0.942804 -0.0109671
-0.992196 79.4998 -5.6807 0.353709 0.935315 -0.00873102
0.410588 78.9573 -5.64787 0.374909 0.927059 -0.00208981
1.63757 78.4489 -5.63749 0.384146 0.92327 -0.00226194
2.89351 77.8996 -5.64008 0.410039 0.912045 -0.00653632
3.95984 77.412 -5.64192 0.413347 0.91051 -0.0107362
5.03739 76.9109 -5.64397 0.431555 0.902019 -0.0110708
6.27616 76.3087 -5.63153 0.439146 0.898258 -0.0168493
7.41761 75.7421 -5.64043 0.455618 0.89007 -0.0136717
8.48421 75.1932 -5.66408 0.461846 0.886853 -0.0137599
9.62138 74.6003 -5.69565 0.464297 0.885595 -0.0122403
11.0367 73.8423 -5.75033 0.477517 0.878493 -0.015095
12.127 73.2467 -5.74857 0.479722 0.877269 -0.0162886
13.8247 72.306 -5.75469 0.488915 0.872013 -0.0235537
14.8682 71.7203 -5.78844 0.494388 0.868972 -0.0216212
15.9927 71.0726 -5.82209 0.499052 0.866422 -0.0161103
17.1611 70.3895 -5.88511 0.505615 0.86256 -0.0185593
18.3682 69.677 -6.03679 0.507516 0.861423 -0.0194579
18.2668 69.7587 -5.08794 0.508042 0.861087 -0.0205658
17.2549 70.3557 -4.97956 0.505153 0.862772 -0.0210957
15.9227 71.1332 -4.93455 0.501067 0.86517 -0.0203189
14.7837 71.7909 -4.884 0.494072 0.869151 -0.0216688
13.4516 72.5354 -4.8201 0.484979 0.874368 -0.016618
12.3862 73.1232 -4.85019 0.479327 0.877456 -0.0177933
11.3596 73.6849 -4.85119 0.478382 0.877941 -0.0192184
10.0561 74.3836 -4.79295 0.465479 0.884952 -0.0137104
8.84084 75.0208 -4.75753 0.462505 0.886527 -0.0126253
7.76114 75.5793 -4.74309 0.454639 0.890589 -0.0124428
6.56485 76.1845 -4.72128 0.445507 0.895154 -0.0149032
5.47121 76.7141 -4.71043 0.435388 0.900145 -0.0132672
4.10692 77.3601 -4.70806 0.416757 0.908898 -0.0147677
3.01157 77.8537 -4.69262 0.405974 0.913825 -0.0104369
1.78181 78.397 -4.67566 0.39299 0.919492 -0.00966432
0.585686 78.892 -4.66221 0.375474 0.92664 -0.0189282
-0.964997 79.5002 -4.66845 0.354463 0.935019 -0.0097688
-2.23778 79.9648 -4.71162 0.333471 0.942548 -0.0200148
-3.39626 80.355 -4.7755 0.294659 0.955478 -0.0154269
-5.20257 80.8888 -4.90445 0.272861 0.962025 -0.00739633
-6.55081 81.2289 -5.00877 0.212116 0.977224 -0.00632733
-7.84762 81.4779 -5.09904 0.167228 0.985858 -0.0109377
-9.18826 81.6716 -5.18474 0.113048 0.993508 -0.0126985
-10.4625 81.8052 -5.25005 0.0976647 0.995216 0.00266101
-12.0569 81.915 -5.26275 0.0509958 0.998552 -0.0171121
-13.7322 81.9625 -5.2162 -0.00511044 0.999953 0.00822058
-14.9884 81.9328 -5.13814 -0.054759 0.998329 -0.018463
-16.1784 81.8359 -5.04555 -0.108099 0.994091 -0.00987982
-17.4334 81.6816 -4.95476 -0.128515 0.991669 -0.00870364
-18.6731 81.5028 -4.88034 -0.148372 0.98858 -0.0263527
-19.9407 81.2768 -4.81107 -0.199711 0.97985 -0.00293736
-21.0964 81.0249 -4.74959 -0.223904 0.974611 -0.0010731
-22.4785 80.6829 -4.68164 -0.258232 0.966064 0.00606854
-23.8283 80.3058 -4.62266 -0.284207 0.958761 0.00198895
-25.1892 79.8862 -4.54935 -0.30357 0.952756 0.0100525
-26.4187 79.4756 -4.49056 -0.323754 0.946045 0.0135341
-27.8034 78.9814 -4.4176 -0.341257 0.939836 0.015904
-29.0091 78.5232 -4.35328 -0.359902 0.932744 0.0214232
-30.2466 78.0293 -4.28871 -0.375382 0.926631 0.0210581
-31.5111 77.5072 -4.22225 -0.390779 0.920119 0.0259447
-32.6617 77.0126 -4.15712 -0.397435 0.917155 0.0295245
-34.0633 76.3978 -4.06451 -0.406141 0.913176 0.0340423
-34.612 76.1506 -4.02653 -0.406994 0.912664 0.0374117
-34.861 76.0004 -3.06204 -0.413831 0.909647 0.0358656
-33.7802 76.4898 -3.13361 -0.406705 0.913028 0.0311637
-32.6982 76.9662 -3.20132 -0.398416 0.916707 0.0302334
-31.5345 77.4701 -3.2664 -0.389577 0.920678 0.0241349
-30.4367 77.9282 -3.32305 -0.378745 0.925232 0.0223157
-29.2013 78.4251 -3.38459 -0.364315 0.930993 0.022936
-28.0199 78.8852 -3.44234 -0.354161 0.935016 0.0177176
-26.6764 79.3734 -3.50964 -0.331987 0.943161 0.0152148
-25.3537 79.8224 -3.57665 -0.309225 0.950967 0.00636701
-24.0745 80.2207 -3.64208 -0.29394 0.955735 0.0129935
-22.8291 80.584 -3.70173 -0.264894 0.964278 -0.000385195
-21.6957 80.8827 -3.74947 -0.232932 0.972483 -0.00433133
-20.1476 81.2331 -3.8269 -0.204538 0.978854 0.00305212
-18.8782 81.4762 -3.89372 -0.170566 0.985343 0.00243226
-17.4762 81.6882 -3.97048 -0.134191 0.990911 -0.00939005
-16.2544 81.8217 -4.04794 -0.068582 0.997645 -8.22646e-05
-14.8776 81.9271 -4.15001 -0.0338478 0.99929 0.0165608
-13.6801 81.9546 -4.22441 -0.0127645 0.999818 0.0141811
-12.1466 81.9345 -4.26931 0.0196821 0.999776 0.00777184
-10.6989 81.8258 -4.24881 0.0941844 0.995555 -8.01469e-05
-9.44465 81.7131 -4.19504 0.094412 0.995304 -0.0213554
-8.13414 81.5293 -4.11558 0.17749 0.983987 0.016345
-6.49091 81.2064 -4.00533 0.202481 0.979001 0.023656
-5.24005 80.8975 -3.90764 0.246804 0.969064 -0.00178777
-3.93963 80.5328 -3.80921 0.287935 0.957626 -0.00671982
-2.80473 80.1753 -3.73986 0.317928 0.948108 -0.00362728
-1.58085 79.7403 -3.68278 0.347059 0.937816 -0.00709777
-0.357277 79.2835 -3.66212 0.355257 0.934597 -0.0178849
0.835632 78.806 -3.69352 0.385426 0.922571 -0.0175788
2.02293 78.2984 -3.73444 0.402668 0.915237 -0.014123
3.4004 77.69 -3.76444 0.410468 0.91182 -0.00996618
4.79289 77.048 -3.76878 0.427796 0.903822 -0.00977379
5.90429 76.5167 -3.78662 0.436576 0.899598 -0.0111369
7.25742 75.8478 -3.83726 0.446279 0.894826 -0.0110674
8.50925 75.2083 -3.8518 0.45912 0.888283 -0.0127401
9.58734 74.6433 -3.87136 0.464398 0.885542 -0.0122351
10.9194 73.9382 -3.90559 0.471442 0.8818 -0.0130703
12.091 73.3038 -3.93866 0.480411 0.876847 -0.0185855
13.2369 72.6716 -3.93284 0.485465 0.874042 -0.0193372
14.2703 72.0972 -3.93483 0.486549 0.87351 -0.0158375
15.4993 71.3994 -4.03197 0.498185 0.866863 -0.0189886
16.7117 70.6974 -4.03147 0.503191 0.863923 -0.0208743
17.8587 70.0245 -4.10248 0.506982 0.861642 -0.0233041
18.1773 69.8618 -3.19953 0.506846 0.861543 -0.0291689
16.9358 70.5904 -3.13136 0.505013 0.862782 -0.0238573
15.7057 71.3005 -3.12574 0.498178 0.866866 -0.0189937
13.9906 72.2706 -3.04214 0.486972 0.873198 -0.019595
12.5144 73.0902 -3.017 0.481725 0.876152 -0.0172942
11.2779 73.7626 -3.0029 0.473488 0.880598 -0.0189016
10.0546 74.4159 -2.97751 0.467263 0.883966 -0.0164277
8.78428 75.0802 -2.96038 0.460621 0.887468 -0.0151556
7.29708 75.8386 -2.93358 0.453709 0.891048 -0.013449
6.2307 76.3735 -2.87706 0.433627 0.900901 -0.0185534
4.99331 76.9623 -2.841 0.426031 0.904623 -0.0124442
3.80511 77.5166 -2.84922 0.413034 0.910642 -0.0115995
2.22725 78.2264 -2.82643 0.40464 0.914273 -0.0192627
1.01453 78.7499 -2.72629 0.384493 0.922947 -0.0182774
-0.117341 79.2075 -2.68738 0.36886 0.929419 -0.011103
-1.29573 79.6439 -2.67693 0.339791 0.940416 -0.0126383
-2.48311 80.067 -2.72674 0.336036 0.941747 -0.013904
-3.60741 80.4399 -2.78712 0.300505 0.953779 -0.00148935
-5.1367 80.8701 -2.89087 0.251891 0.967756 0.000496924
-6.72946 81.2527 -3.00866 0.21175 0.977319 0.00308545
-8.1479 81.5295 -3.10424 0.18089 0.983503 -0.000768329
-9.57528 81.7421 -3.18673 0.103954 0.994467 -0.0151243
-11.3321 81.8803 -3.25339 0.0531367 0.99848 -0.0146078
-12.697 81.9362 -3.24793 0.0256245 0.999598 0.0121678
-14.2369 81.9278 -3.18554 -0.0271557 0.999582 0.00993979
-15.6239 81.8666 -3.10318 -0.0671246 0.997732 -0.00510824
-16.975 81.7642 -3.02286 -0.0966403 0.995281 -0.00876916
-18.5271 81.5327 -2.93755 -0.172848 0.984933 0.00546339
-19.7871 81.3017 -2.87365 -0.206209 0.978327 0.0187975
-20.9697 81.0486 -2.81721 -0.205964 0.978463 0.01372
-22.1731 80.7625 -2.76426 -0.256869 0.966152 0.0238401
-23.5227 80.3743 -2.69991 -0.290215 0.956893 0.0114617
-24.866 79.9565 -2.63427 -0.30144 0.95323 0.0220608
-26.1403 79.5402 -2.56969 -0.323441 0.946031 0.0202955
-27.5855 79.025 -2.50056 -0.340515 0.940064 0.0181668
-28.8638 78.537 -2.44158 -0.365468 0.930681 0.0163245
-30.0536 78.0598 -2.38519 -0.373895 0.927129 0.0251677
-31.2442 77.5682 -2.32504 -0.385094 0.92251 0.0260487
-32.3643 77.0887 -2.26656 -0.397945 0.917081 0.0245506
-33.7256 76.4791 -2.18418 -0.409691 0.911617 0.0332932
-35.0615 75.8715 -2.09827 -0.416356 0.908386 0.038499
-35.9541 75.4565 -2.04361 -0.427963 0.902501 0.0483723
-35.957 75.4066 -1.0993 -0.430262 0.901512 0.0463688
-34.7803 75.9611 -1.16556 -0.41868 0.907415 0.0361376
-33.5783 76.5122 -1.23848 -0.41086 0.911137 0.0320001
-32.1905 77.1344 -1.31802 -0.40447 0.914013 0.0313832
-30.9188 77.6775 -1.38067 -0.384144 0.922941 0.0247502
-29.8138 78.1327 -1.43519 -0.373424 0.927381 0.0227908
-28.4797 78.6662 -1.49868 -0.359861 0.932676 0.0248027
-27.1584 79.1544 -1.55646 -0.335841 0.941539 0.026747
-26.0446 79.5487 -1.60792 -0.32939 0.943922 0.0226556
-24.864 79.9391 -1.66246 -0.301363 0.953439 0.0116065
-23.6957 80.3101 -1.71468 -0.296647 0.954862 0.0154234
-22.5015 80.6483 -1.77775 -0.259681 0.965296 0.0277341
-21.3384 80.9456 -1.82997 -0.211936 0.976938 0.0259826
-20.0746 81.2184 -1.88862 -0.202557 0.978946 0.0252056
-18.7166 81.4891 -1.95345 -0.177283 0.983927 0.0213918
-17.375 81.7013 -2.02123 -0.134903 0.99069 0.0182989
-15.7364 81.8715 -2.10377 -0.0833259 0.9964 -0.0156224
-14.3337 81.9322 -2.17922 -0.0186687 0.999773 -0.0102391
-12.9853 81.9373 -2.23482 0.0187085 0.99982 0.00325987
-11.3298 81.8815 -2.23579 0.0472327 0.998858 0.00717365
-9.99127 81.803 -2.19965 0.0930899 0.99562 -0.00868829
-8.66783 81.6216 -2.12437 0.160345 0.987054 -0.00366437
-7.25342 81.359 -2.04093 0.187241 0.982266 0.00975121
-5.86808 81.0627 -1.94597 0.227218 0.973843 -0.00147947
-4.67564 80.7589 -1.86662 0.266127 0.963902 -0.00834704
-3.14952 80.2917 -1.77978 0.304702 0.952446 0.00183021
-1.99266 79.9066 -1.72144 0.337187 0.941357 -0.0123418
-0.679191 79.4281 -1.70482 0.349602 0.936742 -0.0170902
0.758702 78.8675 -1.75344 0.374566 0.92719 -0.00445006
1.91951 78.3811 -1.8626 0.404822 0.91431 -0.012509
3.36026 77.7344 -1.92085 0.414738 0.909814 -0.0151926
4.61332 77.1567 -1.92819 0.423131 0.905963 -0.0138234
5.83065 76.5824 -1.94627 0.429338 0.903019 -0.0150503
7.09922 75.9578 -2.01896 0.447393 0.894146 -0.0184763
8.18147 75.4069 -2.06551 0.452781 0.891433 -0.0183399
9.50567 74.7223 -2.05816 0.461034 0.887224 -0.0167569
10.5737 74.1589 -2.0988 0.469188 0.88292 -0.0177704
11.8366 73.4807 -2.10888 0.478072 0.878141 -0.0177638
12.9778 72.8524 -2.12313 0.483159 0.875381 -0.016281
14.0454 72.2608 -2.11659 0.485825 0.873875 -0.017801
15.3612 71.5176 -2.19004 0.494045 0.869152 -0.0222346
16.3982 70.9245 -2.2184 0.49904 0.866206 -0.0254233
17.5095 70.2829 -2.23926 0.501608 0.864619 -0.0286841
18.0034 69.9954 -2.26084 0.504292 0.863046 -0.0290159
18.0669 69.9899 -1.31939 0.50043 0.865313 -0.0283333
16.8745 70.6769 -1.3016 0.498334 0.866607 -0.0255914
15.6516 71.3758 -1.27445 0.494776 0.868722 -0.0227928
14.5909 71.9776 -1.22508 0.489124 0.87204 -0.0174259
13.5262 72.5671 -1.21769 0.483606 0.875081 -0.0189337
12.4345 73.1694 -1.21038 0.482494 0.875715 -0.0179702
11.1336 73.8773 -1.18693 0.472116 0.88137 -0.0171565
9.7357 74.6188 -1.17418 0.462167 0.88664 -0.0164561
8.30514 75.3609 -1.14173 0.458867 0.88836 -0.0160853
7.05721 75.9953 -1.09821 0.448531 0.893713 -0.00987217
5.89681 76.5651 -1.03821 0.432817 0.901398 -0.0123128
4.71294 77.1249 -0.998636 0.421914 0.906474 -0.0171319
3.31843 77.7666 -0.972461 0.40958 0.912222 -0.00971628
1.96511 78.3674 -0.898885 0.40034 0.916366 -0.000687473
0.666361 78.9121 -0.801721 0.380521 0.924738 -0.00798676
-0.45321 79.3576 -0.738163 0.352588 0.935691 -0.0127857
-2.10379 79.9541 -0.757679 0.337589 0.941277 -0.00557219
-3.2244 80.3241 -0.804102 0.296587 0.954991 -0.00528488
-4.34894 80.6611 -0.859079 0.276548 0.960983 0.00570015
-5.47477 80.9702 -0.92925 0.255627 0.966774 0.00174023
-7.04582 81.3131 -1.03618 0.203352 0.979084 -0.00657053
-8.40655 81.5762 -1.1253 0.189325 0.981911 -0.00268547
-9.67177 81.7731 -1.19136 0.128887 0.991525 0.0163151
-11.0545 81.8828 -1.23451 0.0475348 0.998792 -0.0124188
-12.2792 81.9231 -1.24713 0.0208042 0.999774 -0.00447257
-13.9532 81.9445 -1.19724 0.0130386 0.999913 -0.00220248
-15.3934 81.8921 -1.1397 -0.0770292 0.996775 0.0224887
-16.6165 81.774 -1.08146 -0.111975 0.993056 0.0360717
-17.9431 81.5945 -1.01559 -0.158249 0.987287 0.0149005
-19.3037 81.3488 -0.951197 -0.196374 0.980377 0.0172589
-20.6647 81.068 -0.888746 -0.212707 0.977094 0.0066041
-21.9408 80.763 -0.829072 -0.253373 0.967204 0.0178462
-23.3367 80.3955 -0.762348 -0.253719 0.967194 0.0127456
-24.7404 79.9666 -0.702704 -0.321298 0.946975 0.00229135
-26.1113 79.5022 -0.636664 -0.321671 0.946675 0.0182588
-27.2644 79.091 -0.586839 -0.334849 0.941976 0.0235897
-28.4055 78.669 -0.538109 -0.359635 0.932752 0.0252141
-29.5846 78.2016 -0.483623 -0.37336 0.927391 0.0234041
-30.8695 77.6716 -0.422745 -0.38559 0.922445 0.0203938
-31.968 77.1974 -0.369492 -0.402326 0.915168 0.0245376
-33.3494 76.5811 -0.295438 -0.409634 0.911644 0.033257
-34.5725 76.0228 -0.227055 -0.418921 0.907457 0.0320473
-35.8723 75.4055 -0.158409 -0.431011 0.901567 0.0374858
-36.1564 75.2696 -0.143291 -0.433339 0.900287 0.0412478
-36.2402 75.1926 0.808098 -0.439537 0.897524 0.0354548
-34.8363 75.8702 0.737192 -0.427942 0.90339 0.0274259
-33.7477 76.3738 0.680676 -0.415178 0.909295 0.0284491
-32.4537 76.9566 0.614908 -0.405771 0.913601 0.0261398
-31.2775 77.4706 0.557778 -0.395177 0.918187 0.027719
-30.1302 77.9548 0.505605 -0.377174 0.92599 0.0168033
-28.9593 78.4288 0.453755 -0.37229 0.927802 0.024152
-27.4589 79.0074 0.389472 -0.346043 0.938056 0.0174948
-26.3121 79.414 0.339788 -0.323925 0.945936 0.0166691
-25.0148 79.8497 0.27948 -0.314404 0.948957 0.025112
-23.8028 80.2413 0.22397 -0.278931 0.959576 0.0375754
-22.5097 80.6063 0.170861 -0.264961 0.964184 0.0120497
-21.3656 80.8953 0.117616 -0.223776 0.974456 0.0189816
-19.7315 81.251 0.0431587 -0.187658 0.982196 0.00867269
-18.5501 81.4731 -0.0105397 -0.177123 0.984101 0.0131439
-17.2537 81.6746 -0.0690125 -0.135724 0.990743 0.00264181
-15.8146 81.8391 -0.136372 -0.0974289 0.995235 -0.00386718
-14.263 81.9399 -0.197087 -0.0188065 0.999821 0.00221789
-12.8516 81.9398 -0.235719 0.0211873 0.999765 -0.00449129
-11.616 81.9046 -0.253356 0.0400637 0.999071 0.0158569
-10.3326 81.8305 -0.227949 0.0959741 0.99525 0.0163447
-8.69976 81.6286 -0.156456 0.15568 0.987733 0.0121087
-7.39765 81.3833 -0.0751628 0.189864 0.981782 0.00742756
-5.88971 81.0612 0.0240933 0.231825 0.972696 0.0109215
-4.6472 80.7432 0.101899 0.270946 0.962583 -0.00469248
-3.36519 80.368 0.154533 0.30191 0.953333 0.00247281
-2.08728 79.9512 0.206576 0.320604 0.947212 -0.00180387
-0.879158 79.5249 0.226824 0.337985 0.941148 -0.00249797
0.24356 79.0945 0.162704 0.374527 0.927114 -0.0137476
1.5472 78.5543 0.0768505 0.382423 0.923928 -0.0104902
2.66456 78.0658 0.00901293 0.402017 0.91562 -0.00478093
3.82857 77.549 -0.0188735 0.413914 0.910252 -0.0108241
5.05881 76.9778 -0.104799 0.430983 0.902305 -0.00994892
6.20808 76.4265 -0.134438 0.439111 0.898379 -0.00984901
7.36755 75.8542 -0.163879 0.445514 0.895199 -0.0116622
8.84552 75.1 -0.220811 0.459985 0.887747 -0.0178444
9.96822 74.5123 -0.263909 0.465545 0.884904 -0.0145945
11.2761 73.8165 -0.271583 0.473661 0.88062 -0.0123835
12.6912 73.0455 -0.292035 0.480272 0.87702 -0.0132247
14.1657 72.2336 -0.300709 0.483335 0.875226 -0.0191668
15.2532 71.624 -0.324347 0.490672 0.871083 -0.0213244
16.3723 70.9899 -0.361153 0.493231 0.869529 -0.0253409
17.7029 70.2329 -0.38864 0.497398 0.866913 -0.0325067
18.0142 70.0564 -0.374949 0.493943 0.868847 -0.033548
18.0816 70.0564 0.575687 0.492573 0.869562 -0.0351258
16.7332 70.8171 0.5693 0.491846 0.870144 -0.0306192
15.3851 71.5736 0.593536 0.48882 0.871989 -0.0262621
14.3 72.1792 0.609758 0.484207 0.874735 -0.0195484
13.0258 72.8801 0.625028 0.478443 0.877963 -0.016547
11.7831 73.5546 0.642346 0.475339 0.879701 -0.0133861
10.7545 74.1079 0.652301 0.471071 0.882006 -0.0125088
9.68161 74.6794 0.695656 0.467308 0.883992 -0.0134598
8.53235 75.2752 0.726521 0.454135 0.890886 -0.0091342
7.43939 75.8257 0.763132 0.444209 0.895906 -0.0055699
6.14943 76.4609 0.791494 0.440155 0.897913 -0.00385785
5.08037 76.9764 0.834158 0.431653 0.902013 -0.0068797
3.90356 77.5212 0.906664 0.41282 0.910807 -0.0033102
2.80168 78.011 0.948228 0.40383 0.914807 -0.00704123
1.6056 78.5359 1.01534 0.397174 0.917734 -0.00408641
0.412054 79.0262 1.10592 0.37363 0.927562 0.00536551
-0.780069 79.485 1.15733 0.343825 0.93898 0.0100457
-1.89799 79.8867 1.15499 0.324551 0.945841 -0.00712057
-3.39909 80.3793 1.10974 0.304566 0.952485 -0.00344798
-4.56661 80.7239 1.06114 0.262868 0.964825 0.00363286
-5.82233 81.0427 1.0004 0.228679 0.973502 -0.000609157
-7.25404 81.3486 0.906034 0.189333 0.981893 0.00632853
-8.81081 81.6283 0.821251 0.137263 0.990406 0.0159448
-9.98369 81.7811 0.767295 0.0978675 0.995108 0.0134559
-11.2738 81.8723 0.735054 0.0746304 0.997191 0.00637645
-12.722 81.944 0.750583 0.0132173 0.999912 0.00100635
-14.1455 81.9331 0.793669 -0.0236306 0.999693 0.00748258
-15.4476 81.8682 0.838029 -0.0833607 0.99642 0.0140469
-16.7287 81.7358 0.889767 -0.121286 0.992612 0.00346495
-17.8881 81.5694 0.938536 -0.160607 0.987016 0.00227681
-19.1025 81.3609 0.99009 -0.176155 0.984284 0.0124437
-20.4514 81.0879 1.0494 -0.212663 0.976908 0.0206355
-21.6461 80.8121 1.10278 -0.239048 0.970576 0.0289647
-22.8486 80.4931 1.15354 -0.283897 0.958489 0.02648
-24.0377 80.1413 1.20622 -0.28058 0.959411 0.0283887
-25.3816 79.7058 1.26663 -0.314173 0.949117 0.0217267
-26.5683 79.3112 1.31975 -0.319628 0.94737 0.0181335
-27.7233 78.8948 1.36662 -0.354864 0.934706 0.0199105
-28.8212 78.4629 1.41388 -0.370276 0.928729 0.0189121
-29.9327 78.0179 1.46245 -0.374191 0.927175 0.0180752
-31.2379 77.4656 1.51756 -0.398497 0.916957 0.019742
-32.4217 76.9446 1.57225 -0.405417 0.913814 0.0241216
-33.6198 76.4054 1.62707 -0.416861 0.908655 0.0239419
-34.7082 75.9025 1.6812 -0.427642 0.903573 0.026056
-36.0292 75.2652 1.74146 -0.439852 0.897699 0.0258323
-36.1765 75.1922 1.748 -0.44324 0.896058 0.0248657
-36.2973 75.1055 2.69755 -0.446921 0.894177 0.0266375
-35.0969 75.6909 2.64891 -0.430096 0.902424 0.0254599
-33.8926 76.2547 2.59459 -0.420194 0.907047 0.0265079
-32.7959 76.7519 2.54742 -0.41281 0.910545 0.0222598
-31.3683 77.387 2.48447 -0.404588 0.914292 0.0194534
-30.29 77.8555 2.44074 -0.386435 0.922246 0.0114481
-29.1938 78.2972 2.39543 -0.367512 0.929908 0.0143753
-27.8466 78.8271 2.33712 -0.354656 0.934744 0.0217449
-26.7368 79.2292 2.29253 -0.32729 0.944661 0.022287
-25.0066 79.8061 2.2208 -0.304214 0.952395 0.0199189
-23.8725 80.1635 2.17308 -0.290491 0.956681 0.0193893
-22.6843 80.5193 2.11992 -0.269337 0.962694 0.0260438
-21.1485 80.9142 2.0542 -0.233057 0.972252 0.0202703
-19.8937 81.1979 2.00047 -0.207814 0.978096 0.0119207
-18.4598 81.4729 1.94082 -0.162161 0.986758 0.00343444
-17.2396 81.6566 1.8915 -0.139865 0.98984 0.0255876
-15.8312 81.8156 1.83953 -0.0882567 0.995954 0.0169064
-14.6155 81.9106 1.79458 -0.0552733 0.997991 0.0309516
-13.2454 81.9336 1.74951 -0.00359952 0.999696 0.0243874
-12.0742 81.9132 1.72569 0.0359326 0.999218 0.016471
-10.7866 81.8322 1.73231 0.0789989 0.996874 0.00153379
-9.5736 81.7185 1.76108 0.112529 0.9936 -0.00984599
-8.37999 81.5579 1.80978 0.162435 0.986718 -0.00133055
-7.03888 81.3071 1.88507 0.193835 0.980999 -0.00830612
-5.87603 81.0559 1.95135 0.228679 0.973502 -0.000609157
-4.47341 80.6895 2.02007 0.253797 0.967213 0.00927379
-3.20002 80.3158 2.07073 0.295112 0.955429 0.00801874
-2.02482 79.9372 2.08652 0.318978 0.947725 0.00842399
-0.277805 79.2957 2.09767 0.349377 0.936978 -0.00273203
0.887523 78.8349 2.01772 0.380753 0.924677 -0.000183914
2.26088 78.2553 1.9348 0.392594 0.919711 -0.00113849
3.35049 77.7754 1.85272 0.411249 0.911498 -0.0067333
4.41912 77.2948 1.79705 0.409675 0.912175 -0.0101509
5.75636 76.6575 1.72118 0.436274 0.899768 -0.00910983
6.91233 76.0929 1.70345 0.43955 0.898194 -0.00654649
8.02213 75.5422 1.67754 0.451882 0.892059 -0.00570433
9.14921 74.9691 1.65927 0.457491 0.889145 -0.0110992
10.2539 74.3891 1.62254 0.469695 0.88274 -0.012489
11.3044 73.8279 1.58478 0.472354 0.881301 -0.0138022
12.4625 73.2034 1.55227 0.476262 0.879175 -0.0150623
13.5661 72.6045 1.54719 0.478054 0.878131 -0.0187139
14.6084 72.0315 1.53538 0.487315 0.87301 -0.0194367
15.8002 71.3682 1.5298 0.484717 0.874362 -0.0232533
17.2126 70.5775 1.50087 0.486535 0.873168 -0.0293464
18.0807 70.0942 1.5446 0.486435 0.873068 -0.0336511
18.1125 70.1168 2.54906 0.484509 0.874074 -0.035289
16.8307 70.8233 2.46979 0.48482 0.8741 -0.0299971
15.3888 71.6213 2.46911 0.484727 0.874356 -0.023259
14.1835 72.2852 2.46691 0.480491 0.876808 -0.018341
13.0384 72.9086 2.48336 0.475576 0.879533 -0.0157868
11.4055 73.7884 2.53055 0.473986 0.880415 -0.0143673
10.1859 74.4349 2.57439 0.467906 0.883749 -0.00718697
9.1101 74.9972 2.60389 0.458426 0.888721 -0.00445633
7.67377 75.7272 2.62181 0.450165 0.892893 -0.00967151
6.56714 76.2685 2.63757 0.438547 0.898686 -0.00640394
5.47323 76.8022 2.6829 0.437742 0.899078 -0.00634722
4.24374 77.3819 2.74838 0.423596 0.905826 -0.00669092
3.16575 77.8667 2.81607 0.408054 0.912908 -0.00959193
1.58057 78.5474 2.9166 0.389838 0.920854 -0.00735717
0.476013 79.0074 2.99882 0.37805 0.925774 -0.00463661
-0.872511 79.5201 3.0299 0.349378 0.936978 -0.00272057
-2.23869 80.0008 3.02737 0.318978 0.947725 0.00843612
-3.63158 80.4418 2.99496 0.294984 0.955487 0.00535156
-5.23045 80.8823 2.93237 0.250542 0.968104 -0.00176708
-6.48236 81.1896 2.86877 0.216137 0.976363 0.000806023
-7.73372 81.4327 2.80896 0.175537 0.984455 0.00595425
-9.12677 81.6714 2.74182 0.122831 0.992354 0.0121051
-10.6037 81.8162 2.70578 0.0895255 0.995953 0.00796515
-12.0996 81.9152 2.71204 0.0264663 0.999646 0.00254096
-13.6868 81.9234 2.75184 -0.00809361 0.999966 0.00127493
-14.8879 81.8657 2.79108 -0.056971 0.998 0.0273904
-16.1673 81.7638 2.83645 -0.0938406 0.995289 0.0243765
-17.531 81.5922 2.88503 -0.136333 0.990411 0.0223248
-18.7805 81.3984 2.93125 -0.167317 0.985322 0.033858
-20.1023 81.1329 2.98555 -0.197748 0.979852 0.0280168
-21.417 80.825 3.04072 -0.247051 0.968769 0.0212749
-22.8176 80.4486 3.10277 -0.255707 0.966428 0.0251145
-23.9796 80.1079 3.15035 -0.294845 0.95529 0.0220664
-25.2872 79.6937 3.20263 -0.307287 0.951529 0.0129679
-26.6887 79.2171 3.25944 -0.335502 0.941855 0.0186451
-27.8385 78.8029 3.30512 -0.343694 0.938711 0.0263802
-28.9875 78.3597 3.35201 -0.368286 0.929373 0.0251438
-30.1725 77.8809 3.39743 -0.38567 0.92238 0.0217486
-31.5329 77.2937 3.45129 -0.404749 0.914224 0.0193026
-32.735 76.757 3.50283 -0.414343 0.909844 0.0224409
-33.8061 76.2679 3.54542 -0.417709 0.908225 0.0254341
-35.0386 75.692 3.5951 -0.430088 0.902428 0.0254709
-36.1539 75.1481 3.64322 -0.437543 0.898918 0.0224154
-36.1871 75.1319 3.64447 -0.442395 0.896578 0.020849
-36.0343 75.1824 4.58276 -0.438338 0.898514 0.0230618
-34.9771 75.694 4.54342 -0.430709 0.90211 0.026201
-33.7594 76.2673 4.4987 -0.423113 0.905877 0.0190375
-32.361 76.9073 4.44506 -0.409493 0.912139 0.0178216
-30.741 77.6125 4.38056 -0.392271 0.919569 0.0227334
-29.513 78.1296 4.33339 -0.377835 0.925532 0.0251364
-28.3943 78.581 4.29031 -0.348625 0.935696 0.0541567
-27.1713 79.0285 4.24386 -0.331556 0.943352 0.0125691
-25.9691 79.4477 4.19746 -0.324067 0.94572 0.0243855
-24.6882 79.8726 4.14663 -0.303876 0.952594 0.0149373
-23.4236 80.2658 4.09748 -0.271645 0.962233 0.0177714
-22.2607 80.584 4.05183 -0.259505 0.965727 0.00532132
-20.8847 80.9304 3.99405 -0.238023 0.971149 0.0146549
-19.2994 81.2692 3.92861 -0.198204 0.979823 0.0257451
-18.0635 81.4946 3.8831 -0.134737 0.990585 0.024222
-16.8489 81.6621 3.8414 -0.126472 0.991508 0.0302824
-15.6827 81.7923 3.80208 -0.0768168 0.996789 0.0226218
-14.5176 81.8601 3.76536 -0.0481963 0.998419 0.0289379
-13.3004 81.9192 3.7295 -0.0271019 0.999585 0.00973094
-12.0344 81.9043 3.69584 0.0169138 0.999803 0.0103554
-10.7249 81.8228 3.67712 0.0841864 0.996444 0.0035378
-9.53589 81.7097 3.70012 0.108345 0.994062 0.0101113
-8.20882 81.5111 3.74439 0.156039 0.987748 0.00236786
-6.98741 81.2812 3.79698 0.193227 0.981039 0.0150088
-5.63216 80.9889 3.85497 0.24498 0.969527 0.00159845
-4.41247 80.6649 3.90417 0.276964 0.960873 0.00381835
-3.27126 80.3253 3.94323 0.294989 0.955486 0.00534932
-1.79301 79.8459 3.96724 0.319171 0.94769 0.00357531
-0.682401 79.4496 3.95993 0.338131 0.94109 0.00410105
0.737945 78.9027 3.91917 0.372494 0.928034 0.000747706
1.91739 78.412 3.83854 0.388073 0.921607 -0.006398
3.22804 77.8463 3.75716 0.401315 0.91593 -0.00418573
4.32456 77.3508 3.69717 0.422125 0.906516 -0.00627493
5.51402 76.7895 3.63892 0.433765 0.901008 -0.00564852
6.88041 76.1235 3.58586 0.43734 0.899265 -0.00755453
7.97511 75.5839 3.5714 0.446797 0.894628 -0.00370214
9.02821 75.0456 3.55514 0.456642 0.8896 -0.00951786
10.2424 74.4167 3.52709 0.464229 0.885665 -0.00943514
11.6284 73.6821 3.47525 0.46946 0.882884 -0.0111411
12.7083 73.1024 3.43703 0.472961 0.880953 -0.0151718
14.0674 72.3675 3.401 0.476457 0.87905 -0.016092
15.2999 71.6937 3.40802 0.48149 0.876187 -0.021533
16.4442 71.0661 3.42179 0.481692 0.87593 -0.0268245
17.8279 70.3128 3.50914 0.479101 0.877208 -0.031128
17.9353 70.2541 3.51731 0.481169 0.875764 -0.0388941
18.0638 70.2205 4.47669 0.475507 0.879202 -0.0299403
16.8993 70.8461 4.37176 0.474944 0.879594 -0.0272433
15.7507 71.4714 4.36104 0.479426 0.877302 -0.0221696
14.4877 72.1597 4.33986 0.478783 0.877712 -0.0197163
13.4058 72.7449 4.38074 0.475832 0.87936 -0.0175985
12.1452 73.4226 4.41307 0.47105 0.881944 -0.0169001
10.6952 74.1926 4.47739 0.464586 0.885418 -0.0139425
9.57276 74.7757 4.49294 0.45524 0.890321 -0.00923138
8.32872 75.4133 4.52344 0.455978 0.889962 -0.00713595
7.07495 76.0374 4.54689 0.440221 0.897862 -0.00703124
5.93805 76.5902 4.58355 0.43774 0.899072 -0.00732323
4.74594 77.1597 4.63175 0.426029 0.904702 -0.00372357
3.6829 77.6533 4.68262 0.400943 0.916079 -0.00653892
2.35427 78.2341 4.75629 0.395457 0.918467 -0.00569359
1.25799 78.6947 4.82651 0.372421 0.928062 -0.00191309
0.109813 79.1495 4.87659 0.372647 0.927934 0.00847908
-1.30101 79.6788 4.90365 0.333971 0.942557 -0.00710345
-2.78848 80.1782 4.88984 0.300676 0.953697 -0.0074629
-4.64136 80.7279 4.8379 0.274807 0.961499 -0.000183869
-5.96319 81.0695 4.78849 0.226453 0.973985 0.00855952
-7.36516 81.3546 4.73566 0.198329 0.980134 -0.00179155
-8.70738 81.5876 4.68806 0.156039 0.987748 0.00236782
-10.01 81.7516 4.66085 0.108345 0.994062 0.0101114
-11.532 81.8677 4.66247 0.0637217 0.997914 0.010379
-12.8193 81.9046 4.69197 0.00490176 0.999871 0.0153096
-14.2308 81.8677 4.74168 -0.0606108 0.998115 0.00968256
-15.96 81.7518 4.79278 -0.0979955 0.995125 0.0111308
-17.2269 81.5935 4.83363 -0.131805 0.99123 0.00951335
-18.6194 81.3817 4.88109 -0.18109 0.983176 0.0239172
-20.118 81.0803 4.93847 -0.203625 0.979015 0.0081342
-21.374 80.7952 4.98713 -0.239113 0.97094 0.0100353
-22.6209 80.4883 5.03647 -0.249838 0.968264 0.00671058
-24.0327 80.0727 5.08915 -0.29519 0.955385 0.0100967
-25.4991 79.596 5.14618 -0.318435 0.947867 0.0121634
-26.6808 79.1891 5.19104 -0.328595 0.944391 0.0122637
-27.9355 78.7304 5.23696 -0.353262 0.935241 0.0230345
-29.2892 78.1985 5.28655 -0.375613 0.926502 0.022581
-30.5621 77.6667 5.33345 -0.390473 0.920402 0.0197681
-31.7967 77.1356 5.381 -0.399232 0.916594 0.0216785
-32.9432 76.6222 5.42374 -0.415024 0.909697 0.0143994
-34.2179 76.0334 5.46843 -0.422932 0.905986 0.0178433
-35.5106 75.4197 5.5108 -0.432341 0.901543 0.0173414
