-32.0008 78.0273 -8.41196 -0.384992 0.922337 0.0328127
-30.8613 78.4945 -8.51479 -0.370172 0.928425 0.0316126
-29.6854 78.9573 -8.62187 -0.359869 0.932705 0.0235769
-28.4996 79.413 -8.73003 -0.354554 0.934781 0.021823
-27.2041 79.8806 -8.84524 -0.329402 0.943843 0.0255926
-25.7878 80.3601 -8.97246 -0.311961 0.950058 0.00832992
-24.3269 80.828 -9.10302 -0.287509 0.957697 0.0124371
-22.8037 81.2672 -9.23244 -0.268019 0.963413 0.00135145
-21.6247 81.5569 -9.33627 -0.223193 0.974676 -0.0138123
-19.7134 81.951 -9.51042 -0.186708 0.982403 -0.00486482
-18.4475 82.1724 -9.6269 -0.154049 0.988062 -0.00120292
-16.7248 82.3981 -9.78661 -0.121318 0.992557 -0.0106313
-15.4517 82.4945 -9.88328 -0.0648606 0.99775 -0.0169487
-14.248 82.5628 -9.94464 -0.0220074 0.999531 -0.0212987
-12.9848 82.5635 -9.98088 0.0295193 0.999524 -0.00895715
-11.4481 82.5088 -9.99305 0.0420471 0.999053 -0.0112226
-10.2145 82.4337 -9.98027 0.0868482 0.996163 -0.0108012
-8.75918 82.2515 -9.94418 0.144435 0.989473 -0.00901763
-7.32488 81.9893 -9.90347 0.216673 0.976242 -0.00200633
-5.83245 81.6466 -9.86844 0.236424 0.971649 -0.000974958
-4.24246 81.2118 -9.83162 0.286034 0.958207 -0.00483919
-3.08487 80.8675 -9.80523 0.305129 0.952302 0.00404094
-1.90764 80.4572 -9.77011 0.340837 0.940118 -0.00285797
-0.770961 80.0278 -9.73948 0.362015 0.932162 -0.00428685
0.616584 79.4805 -9.71739 0.367058 0.930172 -0.00693461
1.74855 79.003 -9.67397 0.404664 0.914356 -0.0141569
3.09781 78.404 -9.63833 0.411854 0.911136 -0.0144175
4.48385 77.7578 -9.60902 0.433377 0.901036 -0.0178357
5.95822 77.0414 -9.58491 0.445844 0.894932 -0.0178909
7.14601 76.4462 -9.56714 0.452134 0.891717 -0.020402
8.2294 75.8974 -9.54503 0.453685 0.891025 -0.0156587
9.36872 75.2999 -9.53587 0.468561 0.88326 -0.0173796
10.5697 74.6562 -9.52074 0.473178 0.880792 -0.0175318
12.1017 73.8232 -9.46597 0.481727 0.876043 -0.0220984
13.5169 73.0363 -9.4246 0.493757 0.869341 -0.021222
14.6338 72.4019 -9.41831 0.494117 0.869147 -0.0207797
15.7652 71.754 -9.43802 0.499846 0.865828 -0.0222621
17.1238 70.9621 -9.54142 0.503078 0.864048 -0.0182844
17.3394 70.8362 -9.56024 0.503251 0.863946 -0.0183279
17.5156 70.7523 -8.67781 0.503248 0.863948 -0.0183355
16.4568 71.3723 -8.55771 0.503799 0.863604 -0.0193276
14.9997 72.2128 -8.48992 0.495752 0.868251 -0.0192648
13.698 72.956 -8.50249 0.493667 0.869388 -0.021403
12.5106 73.6209 -8.52645 0.485348 0.874092 -0.0200326
11.2403 74.3173 -8.56927 0.477472 0.878397 -0.0209299
9.80518 75.0854 -8.59602 0.472158 0.88131 -0.0189294
8.49442 75.774 -8.60496 0.462955 0.886269 -0.0141152
7.30771 76.3859 -8.61332 0.454057 0.890766 -0.0191889
5.96874 77.057 -8.62723 0.442396 0.896655 -0.0172042
4.52809 77.7563 -8.64647 0.433413 0.900998 -0.0188478
3.38517 78.2854 -8.66409 0.418173 0.908275 -0.0129543
2.01927 78.8991 -8.6985 0.405549 0.913924 -0.016521
0.648935 79.477 -8.73957 0.374663 0.927103 -0.0103355
-0.70189 80.004 -8.76482 0.356548 0.934277 0.000398053
-2.27836 80.5841 -8.80181 0.327866 0.944724 -0.000471461
-3.6703 81.0396 -8.83575 0.293914 0.955825 -0.0035975
-5.08233 81.4636 -8.87372 0.279659 0.960038 -0.0108672
-6.83205 81.8801 -8.91714 0.216177 0.976352 0.00206364
-8.11219 82.1532 -8.94773 0.191468 0.981461 0.00867772
-9.91394 82.3965 -8.99172 0.105067 0.994457 0.00415252
-11.3777 82.5175 -9.00831 0.0493484 0.998781 -0.00132224
-12.7297 82.5666 -8.99821 0.0279386 0.999539 -0.0119216
-14.2633 82.5806 -8.9524 -0.00257784 0.999876 -0.015562
-15.5629 82.509 -8.87347 -0.0704384 0.997307 -0.0204335
-17.2511 82.3416 -8.73706 -0.126908 0.991844 -0.0118632
-18.5505 82.1645 -8.62145 -0.162591 0.986675 -0.0059729
-20.1415 81.8787 -8.48258 -0.189259 0.981813 -0.0149557
-21.3388 81.621 -8.37798 -0.224489 0.974475 0.0020502
-22.5102 81.3429 -8.27719 -0.237898 0.97129 -0.000815419
-23.9951 80.9147 -8.1533 -0.283768 0.958852 0.0088902
-25.1587 80.5553 -8.05157 -0.306423 0.951789 0.0142462
-26.3571 80.1553 -7.94609 -0.322033 0.946522 0.0197718
-27.6362 79.7064 -7.83316 -0.338024 0.940988 0.0167758
-29.0513 79.1799 -7.70643 -0.354564 0.934777 0.0218294
-30.4855 78.6135 -7.57511 -0.371062 0.928303 0.0238061
-31.6276 78.1484 -7.47211 -0.38339 0.922975 0.0335976
-32.7546 77.6629 -7.37311 -0.398446 0.916311 0.0401872
-33.8161 77.1906 -7.27869 -0.404009 0.913805 0.0416887
-34.2181 76.9663 -6.27256 -0.415656 0.908736 0.0377933
-32.8254 77.5923 -6.39532 -0.398607 0.91639 0.0366215
-31.5842 78.127 -6.504 -0.391437 0.9195 0.0360178
-30.2928 78.665 -6.61784 -0.376817 0.925853 0.028368
-28.9234 79.2086 -6.74332 -0.359126 0.933078 0.019858
-27.7249 79.6604 -6.85036 -0.336549 0.941557 0.0143514
-26.1415 80.2119 -6.98745 -0.318134 0.947995 0.00982746
-24.9317 80.6137 -7.09373 -0.301428 0.953289 0.019535
-23.4605 81.0694 -7.22079 -0.284507 0.958666 0.00398215
-22.2749 81.4017 -7.31596 -0.238336 0.971182 -0.00126411
-20.9343 81.7123 -7.43049 -0.218166 0.975907 0.00301194
-19.5509 81.9986 -7.54819 -0.191489 0.981436 0.0107787
-18.0976 82.2464 -7.66909 -0.152542 0.988248 -0.00986662
-16.5304 82.4374 -7.79464 -0.0901535 0.995916 -0.00493408
-15.0352 82.5618 -7.90645 -0.0660212 0.997768 -0.00996906
-13.7007 82.5979 -7.97643 0.0120391 0.999734 -0.0196781
-12.2173 82.5645 -8.01468 0.0395317 0.999154 -0.0113704
-10.5858 82.4634 -8.01768 0.0807361 0.996712 0.00681977
-9.04662 82.3049 -7.9936 0.124798 0.992181 -0.00145136
-7.7824 82.0775 -7.96199 0.178631 0.983915 0.00158013
-6.43044 81.802 -7.92884 0.205218 0.97841 -0.024483
-4.97601 81.4429 -7.89326 0.258183 0.966044 -0.00998496
-3.63593 81.0471 -7.855 0.300614 0.953581 -0.0177262
-2.42874 80.6458 -7.8269 0.332165 0.943061 -0.0174045
-1.25421 80.2209 -7.80081 0.347719 0.937456 -0.0163499
-0.0925171 79.7789 -7.77613 0.363041 0.931714 -0.0105161
1.17192 79.2698 -7.74851 0.3812 0.924038 -0.0289976
2.34135 78.7751 -7.72287 0.405783 0.91372 -0.0213382
3.4775 78.2567 -7.69669 0.418832 0.907965 -0.0133944
4.7485 77.6669 -7.68045 0.424299 0.905432 -0.0127791
6.06337 77.0277 -7.66712 0.44092 0.897398 -0.0162961
7.30733 76.4059 -7.66757 0.45552 0.890078 -0.016181
8.79159 75.6384 -7.66718 0.459529 0.887976 -0.0182425
9.99643 75.0057 -7.65496 0.469241 0.882843 -0.0200004
11.0637 74.4344 -7.63978 0.474687 0.879919 -0.020375
12.4226 73.6899 -7.60748 0.483646 0.87511 -0.0164133
13.5308 73.0726 -7.58049 0.493027 0.86979 -0.0197411
14.8432 72.3247 -7.57537 0.497675 0.867137 -0.0198331
16.0361 71.6365 -7.59689 0.501068 0.865189 -0.0194611
17.1348 70.9956 -7.70073 0.503864 0.863575 -0.0189721
17.8162 70.5945 -7.80157 0.506074 0.862299 -0.0181608
17.9002 70.5642 -6.87171 0.509465 0.860311 -0.0176376
16.8316 71.1947 -6.72499 0.504296 0.863291 -0.0203525
15.3933 72.0299 -6.65832 0.500237 0.865654 -0.0201448
14.1854 72.722 -6.65966 0.495056 0.868651 -0.0191107
13.1015 73.3337 -6.6699 0.490888 0.871058 -0.016941
11.8347 74.0316 -6.71336 0.481563 0.876248 -0.0169582
10.6595 74.6719 -6.7223 0.472138 0.88134 -0.0180116
9.04892 75.5254 -6.73667 0.461571 0.886913 -0.0183613
7.96691 76.085 -6.73316 0.459011 0.888204 -0.0200565
6.83817 76.6572 -6.71972 0.451834 0.892041 -0.0104381
5.58086 77.2821 -6.71456 0.440912 0.897402 -0.0162927
4.25513 77.9116 -6.72672 0.424295 0.905434 -0.0127818
2.77992 78.5956 -6.75016 0.412433 0.910962 -0.0068481
1.62055 79.1015 -6.77084 0.390824 0.920417 -0.00940158
0.389925 79.6067 -6.79657 0.36564 0.930634 -0.0150911
-0.807051 80.0684 -6.81776 0.353653 0.935309 -0.0112243
-1.98369 80.5095 -6.83956 0.342995 0.939291 -0.00928711
-3.42947 80.9979 -6.87262 0.301411 0.953419 -0.0119627
-4.98521 81.4555 -6.91284 0.267504 0.963362 -0.0193987
-6.35621 81.8036 -6.94534 0.245777 0.969025 -0.02418
-8.04167 82.1426 -6.98839 0.177299 0.983892 -0.0228495
-9.38663 82.3527 -7.01317 0.123309 0.992341 -0.0073561
-10.7671 82.4827 -7.0248 0.0813402 0.996642 -0.0093905
-11.9738 82.5592 -7.01732 0.057382 0.998314 -0.00870741
-13.2296 82.6036 -6.99321 0.0268043 0.999467 -0.0186158
-14.4587 82.5925 -6.94465 -0.0361741 0.99931 0.00841864
-15.8634 82.4971 -6.85372 -0.0928487 0.995664 0.00562372
-17.3928 82.344 -6.74156 -0.115777 0.993255 0.00640135
-18.6149 82.1629 -6.64351 -0.164507 0.986285 0.0133915
-19.8794 81.9258 -6.53616 -0.199864 0.979796 0.00740992
-21.3419 81.6139 -6.41333 -0.218621 0.975722 0.0130923
-22.6665 81.2934 -6.31042 -0.275144 0.961339 0.0111024
-24.2999 80.7962 -6.17137 -0.300602 0.953622 0.015581
-25.5609 80.3929 -6.05914 -0.308325 0.951105 0.018314
-27.0197 79.8958 -5.93215 -0.33551 0.941893 0.0164611
-28.2841 79.4319 -5.82374 -0.350373 0.936398 0.0199361
-29.6574 78.8937 -5.70172 -0.366555 0.930109 0.0231163
-30.8943 78.3893 -5.5947 -0.380298 0.924486 0.0264252
-32.2456 77.808 -5.47516 -0.396092 0.917809 0.0271605
-33.4448 77.2768 -5.36962 -0.410656 0.911309 0.029626
-34.6975 76.7052 -5.26077 -0.418614 0.907629 0.0311729
-35.137 76.4681 -4.25381 -0.418985 0.907549 0.0284019
-33.9317 77.0237 -4.35834 -0.412891 0.910342 0.0282603
-32.7401 77.5611 -4.46047 -0.406954 0.912999 0.0286701
-31.5654 78.0782 -4.56315 -0.39701 0.917528 0.0229421
-30.4323 78.5522 -4.66071 -0.377902 0.925536 0.0239387
-29.1407 79.0783 -4.77227 -0.365146 0.930751 0.0192463
-27.7841 79.5972 -4.88929 -0.346045 0.938085 0.0157843
-26.337 80.1205 -5.01412 -0.321196 0.946791 0.0204812
-25.0166 80.5507 -5.12477 -0.302519 0.953113 0.00757553
-23.5366 81.0157 -5.25344 -0.288581 0.957141 0.0245398
-22.107 81.4283 -5.36643 -0.26299 0.964531 0.0227406
-20.8878 81.7101 -5.46466 -0.210784 0.977532 0.00139295
-19.694 81.9547 -5.56165 -0.203292 0.979108 0.00445193
-18.2884 82.194 -5.68075 -0.152526 0.987935 0.0268432
-16.8118 82.3958 -5.79917 -0.115984 0.993251 -4.84929e-05
-15.5727 82.5323 -5.88972 -0.08643 0.996246 -0.0048155
-14.1717 82.5967 -5.96574 -0.012494 0.999801 0.0155676
-12.8946 82.5982 -6.01143 0.0282565 0.999591 0.00436966
-11.6656 82.5475 -6.03164 0.0576738 0.998334 -0.00179202
-10.1746 82.4454 -6.03561 0.0811563 0.996614 -0.0132309
-8.82674 82.288 -6.02131 0.129346 0.991599 0.00031344
-7.27844 82.0206 -5.99308 0.193007 0.981084 -0.0149117
-6.06263 81.7536 -5.95973 0.245585 0.969077 -0.024032
-4.79231 81.4219 -5.92576 0.267586 0.963336 -0.0195183
-3.47888 81.022 -5.89589 0.30086 0.953668 -0.000144852
-2.2286 80.6026 -5.86948 0.335466 0.942041 -0.00467643
-0.859261 80.0978 -5.84666 0.35663 0.93424 -0.00317534
0.383191 79.6154 -5.82949 0.369177 0.929355 -0.00289048
1.59233 79.1182 -5.80625 0.385329 0.922776 -0.00230639
2.96832 78.5167 -5.78618 0.406447 0.913642 -0.00763487
4.26047 77.9206 -5.77444 0.42349 0.905835 -0.0109281
5.41993 77.3732 -5.76743 0.434477 0.900612 -0.0112695
7.04521 76.569 -5.78026 0.445815 0.894923 -0.0190122
8.20004 75.9851 -5.79823 0.459838 0.887832 -0.017411
9.27858 75.4218 -5.8103 0.46377 0.885829 -0.0149876
10.3841 74.8383 -5.80824 0.472019 0.881397 -0.0183662
11.6274 74.1629 -5.81701 0.481566 0.876246 -0.0169666
12.9265 73.4496 -5.76333 0.485779 0.873936 -0.0159495
14.1119 72.7825 -5.73619 0.492231 0.870301 -0.0168722
15.2808 72.1153 -5.74959 0.498315 0.866772 -0.0196939
16.4366 71.4478 -5.76019 0.500184 0.865715 -0.018793
17.491 70.8272 -5.86761 0.508758 0.86069 -0.0194409
17.8102 70.6381 -5.9126 0.508876 0.860642 -0.0184364
17.9348 70.5858 -4.98648 0.508775 0.860632 -0.0214566
16.7506 71.2837 -4.86034 0.50259 0.864344 -0.0177011
15.232 72.1641 -4.83938 0.500411 0.865521 -0.0214942
14.0782 72.8199 -4.81061 0.488331 0.872453 -0.0189227
12.8381 73.5151 -4.8678 0.485777 0.873937 -0.0159583
11.6862 74.1494 -4.89993 0.483669 0.875044 -0.0190233
10.4298 74.83 -4.89092 0.469622 0.882762 -0.0136672
9.18237 75.489 -4.88405 0.465146 0.88508 -0.0165152
8.10316 76.0518 -4.86714 0.45742 0.889137 -0.0142178
7.00966 76.6039 -4.84301 0.447891 0.893901 -0.0182838
5.87547 77.1659 -4.8281 0.438074 0.898761 -0.0178836
4.49956 77.824 -4.82671 0.427705 0.903749 -0.0175187
3.24531 78.3999 -4.82796 0.413684 0.91039 -0.00749769
1.71583 79.0674 -4.84537 0.385821 0.922552 -0.00636453
0.515058 79.5616 -4.86185 0.370901 0.928667 0.00313849
-0.834477 80.0894 -4.87781 0.354311 0.935127 0.00107252
-2.22426 80.6059 -4.89222 0.339739 0.940519 -0.00103803
-3.86913 81.1475 -4.92843 0.300738 0.953678 -0.0073955
-5.05869 81.5047 -4.95735 0.277237 0.96078 -0.00647883
-6.30571 81.8274 -4.99493 0.222254 0.974965 -0.00683605
-7.51979 82.0774 -5.02031 0.179182 0.983811 0.00321814
-8.84569 82.2901 -5.04146 0.134227 0.990905 -0.00955516
-10.1337 82.4482 -5.0543 0.115221 0.993011 -0.0255663
-11.4774 82.5591 -5.04485 0.0521124 0.998341 -0.0245021
-12.707 82.6013 -5.0241 0.0216148 0.999701 -0.0114614
-14.29 82.6005 -4.96147 -0.0128204 0.999791 -0.0159332
-15.7843 82.5105 -4.88202 -0.0975923 0.995127 0.0141006
-17.2396 82.341 -4.76576 -0.126081 0.991986 0.00822532
-18.5035 82.1621 -4.66631 -0.163557 0.986531 0.00247709
-20.0995 81.8677 -4.54102 -0.200486 0.97966 0.0084144
-21.3253 81.6051 -4.44347 -0.219613 0.975554 0.00809404
-22.5322 81.295 -4.35257 -0.261738 0.965084 0.0102749
-23.9044 80.8946 -4.23409 -0.293292 0.955994 0.00745737
-25.5045 80.3798 -4.10372 -0.315389 0.948842 0.0151361
-27.0977 79.8232 -3.96883 -0.336316 0.941589 0.0173695
-28.4112 79.3434 -3.85412 -0.365558 0.930504 0.0229988
-29.7296 78.8176 -3.7465 -0.371651 0.927999 0.0263273
-31.0682 78.2623 -3.63378 -0.384385 0.922888 0.0229391
-32.2095 77.772 -3.53592 -0.401229 0.915654 0.0243544
-33.6597 77.118 -3.41101 -0.412533 0.910516 0.0278712
-34.9822 76.5097 -3.2965 -0.419179 0.907466 0.0282005
-35.4081 76.3118 -3.26034 -0.419082 0.907507 0.0283012
-35.8178 76.0856 -2.25434 -0.420442 0.906674 0.0342148
-34.6339 76.6418 -2.35335 -0.419119 0.907517 0.0274278
-33.1748 77.3101 -2.47863 -0.41158 0.911088 0.0228111
-31.8668 77.8935 -2.591 -0.395575 0.91807 0.0258342
-30.7394 78.3739 -2.68716 -0.384794 0.922623 0.0264535
-29.2779 78.9718 -2.80872 -0.374531 0.926938 0.0226259
-28.1113 79.4363 -2.90489 -0.357595 0.933555 0.024512
-26.9034 79.885 -3.00556 -0.334558 0.942312 0.010922
-25.6816 80.3142 -3.10642 -0.322038 0.946671 0.0102812
-24.5125 80.6955 -3.19936 -0.299037 0.954225 0.00553016
-23.2793 81.0708 -3.30026 -0.274611 0.961554 0.00186057
-22.0513 81.4081 -3.40427 -0.241003 0.970406 0.0151665
-20.5496 81.7634 -3.52248 -0.202233 0.979266 0.0118605
-19.2685 82.0183 -3.617 -0.174594 0.984557 0.012844
-17.737 82.2678 -3.73142 -0.132521 0.991179 0.00161738
-16.4723 82.4211 -3.82075 -0.0974551 0.995146 -0.0136692
-14.8366 82.5762 -3.93735 -0.0648056 0.997792 0.014559
-13.3554 82.6213 -4.0077 -0.000776949 0.999967 -0.00805085
-12.0741 82.6062 -4.04771 0.00990209 0.999625 -0.0255478
-10.844 82.5309 -4.0669 0.0929016 0.995541 -0.0163367
-9.49302 82.3848 -4.07256 0.128698 0.991676 -0.00405273
-8.1476 82.1858 -4.05918 0.164156 0.986432 0.00201018
-6.93141 81.9385 -4.0377 0.203082 0.978982 0.0187486
-5.40024 81.5838 -3.9992 0.253195 0.967268 0.0169074
-4.10827 81.2263 -3.96221 0.30184 0.953248 0.0145321
-2.64544 80.7502 -3.93139 0.314716 0.949186 -0.000315909
-1.26164 80.2542 -3.9189 0.341338 0.939881 -0.0106158
0.161762 79.7148 -3.91015 0.372309 0.927976 -0.0157025
1.45477 79.1899 -3.90042 0.387834 0.921576 -0.0167919
2.63064 78.6806 -3.8868 0.403886 0.914759 -0.00955692
3.77307 78.1718 -3.87564 0.412252 0.911011 -0.0103679
4.87066 77.6659 -3.87724 0.428414 0.903429 -0.016656
6.04294 77.1022 -3.88315 0.43785 0.898906 -0.0159696
7.39952 76.4258 -3.91623 0.448304 0.893758 -0.0148513
8.55675 75.8334 -3.95458 0.459367 0.888126 -0.0146492
9.65479 75.2595 -3.97883 0.468441 0.883322 -0.0174479
10.8736 74.6053 -3.9807 0.47573 0.879461 -0.0151359
12.3749 73.7881 -3.97435 0.483522 0.875157 -0.0175101
13.4457 73.1929 -3.93288 0.488015 0.87266 -0.0175071
14.5068 72.6001 -3.89025 0.492109 0.870389 -0.0158982
16.0088 71.737 -3.91559 0.501683 0.864809 -0.0204776
17.2095 71.0369 -3.95676 0.503492 0.863728 -0.0216986
17.8313 70.6698 -4.02834 0.507124 0.861622 -0.0208037
17.8208 70.7039 -3.05802 0.50572 0.862336 -0.0249901
16.6378 71.3939 -3.00018 0.498974 0.866317 -0.0228214
15.5218 72.0382 -3.01 0.497877 0.867066 -0.0177682
14.3689 72.6951 -2.98863 0.491325 0.870817 -0.0166711
12.7763 73.5826 -3.05108 0.485146 0.874292 -0.0156857
11.6603 74.1967 -3.08058 0.477101 0.878675 -0.0174383
10.3615 74.8976 -3.085 0.47254 0.881135 -0.0175547
9.26277 75.4835 -3.05006 0.464966 0.885181 -0.0161872
8.16168 76.0551 -2.99172 0.454586 0.890574 -0.0151742
7.06483 76.6109 -2.97563 0.449951 0.892877 -0.017745
5.79629 77.2376 -2.92865 0.438356 0.898723 -0.011894
4.22263 77.9787 -2.9274 0.422955 0.906065 -0.0124357
2.73198 78.6513 -2.93969 0.404174 0.914552 -0.0154188
1.45089 79.2077 -2.95583 0.384834 0.922925 -0.0106085
-0.04974 79.8152 -2.96293 0.369035 0.929322 -0.0131571
-1.36181 80.3006 -2.9628 0.341284 0.939842 -0.0149219
-2.9105 80.8359 -2.97014 0.307689 0.951473 -0.0052151
-4.11938 81.2209 -2.99422 0.296037 0.955176 -0.000724233
-5.58873 81.6285 -3.0339 0.259907 0.965633 -0.00066952
-6.82994 81.9193 -3.05788 0.21272 0.977105 0.00393251
-8.06188 82.1599 -3.08001 0.186371 0.982399 0.012576
-9.25999 82.3558 -3.08106 0.125296 0.992119 -0.000504403
-10.8956 82.5359 -3.08266 0.08157 0.996558 0.0147879
-12.516 82.6045 -3.04893 0.00772903 0.999519 0.0300289
-13.7987 82.6061 -3.00447 -0.0275509 0.999513 0.0146779
-15.3883 82.5192 -2.90338 -0.0786334 0.9969 0.00283741
-16.7994 82.4031 -2.79785 -0.0906236 0.99587 -0.0055896
-18.3134 82.1793 -2.69482 -0.162727 0.98662 0.0100064
-19.7244 81.9241 -2.59264 -0.195349 0.980695 0.00876813
-20.9192 81.674 -2.49751 -0.220699 0.975257 0.0128717
-22.3269 81.3213 -2.39128 -0.250553 0.967958 0.0167606
-23.7315 80.929 -2.27824 -0.287989 0.9576 0.00800673
-25.2283 80.448 -2.15986 -0.312616 0.949726 0.0170662
-26.373 80.0553 -2.06777 -0.335238 0.941939 0.0191637
-27.6218 79.5956 -1.96978 -0.349226 0.936803 0.0210202
-29.1001 79.0253 -1.8481 -0.370369 0.928713 0.0178799
-30.2483 78.5559 -1.75345 -0.383793 0.923243 0.0180311
-31.47 78.0379 -1.64929 -0.390517 0.920213 0.0265382
-32.9618 77.3786 -1.52338 -0.407673 0.912728 0.0270425
-34.1174 76.8511 -1.42544 -0.417745 0.908185 0.0262559
-35.2168 76.3375 -1.33238 -0.427972 0.903369 0.0276505
-36.4413 75.7496 -1.23253 -0.434388 0.900111 0.0332705
-36.5411 75.664 -0.254892 -0.436226 0.899138 0.0354619
-35.1111 76.356 -0.370783 -0.431154 0.901645 0.0338071
-33.9507 76.8994 -0.468673 -0.416543 0.908705 0.0273249
-32.7228 77.4604 -0.571872 -0.409599 0.911988 0.0225152
-31.4472 78.0226 -0.677947 -0.392732 0.919369 0.0228689
-30.3109 78.5103 -0.772923 -0.391602 0.91991 0.0203258
-29.0105 79.0405 -0.880898 -0.375259 0.926643 0.0226473
-27.8859 79.4766 -0.971532 -0.346939 0.937608 0.0229158
-26.6775 79.9209 -1.06647 -0.340226 0.940073 0.0225429
-25.5321 80.3295 -1.15741 -0.31778 0.948105 0.0106132
-24.3043 80.747 -1.25399 -0.305157 0.952275 0.00720093
-23.0195 81.1176 -1.35434 -0.25675 0.96628 0.0195414
-21.3228 81.5672 -1.47893 -0.242292 0.970187 -0.00562719
-19.9108 81.878 -1.58905 -0.195347 0.980695 0.00876117
-18.7197 82.1011 -1.66837 -0.179661 0.983694 0.00822568
-17.2817 82.3216 -1.77725 -0.146568 0.989117 0.0128876
-15.9853 82.4714 -1.86974 -0.0878811 0.996127 -0.00290887
-14.5768 82.5853 -1.95766 -0.057323 0.998334 -0.006564
-13.3295 82.597 -2.02264 0.0154625 0.999878 0.00235049
-11.9579 82.5773 -2.06474 0.0422873 0.99867 0.0294941
-10.4425 82.4765 -2.08988 0.0947869 0.995364 0.016327
-9.0441 82.3137 -2.09536 0.156694 0.987626 -0.00650261
-7.66099 82.071 -2.09744 0.186686 0.98233 0.013244
-6.3388 81.7975 -2.07667 0.218361 0.975789 0.0123954
-5.10521 81.5027 -2.05152 0.25954 0.965681 -0.00992991
-3.83254 81.1392 -2.02311 0.296872 0.954834 -0.0125934
-2.20955 80.6269 -2.0168 0.302857 0.952917 -0.0150769
-0.776119 80.1052 -2.02312 0.356549 0.934171 -0.0140247
0.482329 79.6109 -2.01051 0.380516 0.924669 -0.0139769
1.94532 79.0091 -2.0197 0.381894 0.924192 -0.00503355
3.078 78.5096 -1.99672 0.40827 0.912845 -0.00544535
4.44451 77.889 -1.98236 0.426197 0.904582 -0.00937244
5.89454 77.1978 -1.9905 0.431811 0.901922 -0.0087214
7.00822 76.6543 -2.02871 0.445105 0.895442 -0.0080168
8.17327 76.064 -2.05691 0.455216 0.890273 -0.0138758
9.49426 75.3781 -2.13436 0.464756 0.885311 -0.0150529
10.8043 74.6771 -2.17623 0.473987 0.880402 -0.015099
12.2137 73.9099 -2.16868 0.484118 0.874875 -0.0149501
13.4269 73.2372 -2.13212 0.487226 0.873146 -0.0150754
14.5149 72.6307 -2.09429 0.491192 0.870745 -0.0230924
15.692 71.9614 -2.09987 0.497605 0.867094 -0.0231677
16.8465 71.2969 -2.0883 0.500042 0.865714 -0.0223139
17.8049 70.7404 -2.11437 0.503256 0.863675 -0.0282509
17.8517 70.7441 -1.16446 0.502052 0.864402 -0.0274377
16.7527 71.378 -1.17483 0.497614 0.866959 -0.0276268
15.435 72.1301 -1.18563 0.495191 0.868633 -0.0162052
13.879 73.0042 -1.21688 0.485952 0.87378 -0.0189465
12.68 73.6685 -1.25208 0.483802 0.875004 -0.0174493
11.4302 74.3528 -1.25969 0.476151 0.87927 -0.0128384
10.122 75.0565 -1.23486 0.469647 0.882749 -0.0136498
8.97171 75.6635 -1.18029 0.461096 0.887303 -0.00921065
7.60348 76.3636 -1.10325 0.449256 0.893334 -0.0110679
6.47811 76.9213 -1.07155 0.438836 0.898499 -0.0110543
5.11856 77.5782 -1.05199 0.430418 0.902529 -0.0134448
3.83591 78.1783 -1.04292 0.413566 0.910457 -0.00560075
2.61984 78.7214 -1.07245 0.406276 0.913732 -0.0058844
1.20028 79.3289 -1.07069 0.383236 0.923554 -0.0133644
-0.29446 79.9272 -1.0623 0.360562 0.932692 -0.00894229
-1.4921 80.3822 -1.07321 0.347481 0.937674 -0.00492178
-2.90984 80.8636 -1.05981 0.305996 0.951965 -0.0113912
-4.15858 81.2441 -1.07246 0.283165 0.959069 0.00190982
-5.38381 81.5874 -1.09449 0.236029 0.971738 -0.00398089
-6.75204 81.8929 -1.11562 0.205167 0.978675 -0.0101271
-8.0687 82.1472 -1.12329 0.180857 0.983502 0.00393147
-9.3522 82.351 -1.12602 0.13166 0.991174 0.0154552
-10.7431 82.4995 -1.11344 0.087058 0.996199 0.00307246
-11.9969 82.5685 -1.07456 0.0229213 0.999707 0.00783087
-13.4812 82.5969 -1.01825 0.0169181 0.999844 0.00507159
-14.9337 82.5621 -0.943245 -0.0853041 0.996347 0.0040255
-16.1671 82.4464 -0.869566 -0.0965662 0.995157 0.0183466
-17.4596 82.282 -0.777726 -0.150252 0.988581 0.0114929
-18.8777 82.0618 -0.676568 -0.168762 0.985574 0.012775
-20.3567 81.7757 -0.572773 -0.201929 0.979303 0.0138215
-21.7418 81.4605 -0.469466 -0.245421 0.969322 0.0135677
-22.9261 81.1339 -0.382828 -0.267834 0.963349 0.0149297
-24.1167 80.7825 -0.292103 -0.309741 0.950633 0.0189017
-25.3571 80.3694 -0.195786 -0.318359 0.947596 0.0266528
-26.5239 79.9591 -0.101862 -0.336752 0.941524 0.0114087
-27.7204 79.5176 -0.00751824 -0.349668 0.936707 0.0176547
-29.0034 79.0195 0.0940111 -0.375527 0.926547 0.0221449
-30.4437 78.4287 0.213717 -0.380131 0.924569 0.0259387
-31.8868 77.8086 0.332878 -0.400664 0.915831 0.0268598
-33.1997 77.216 0.442315 -0.410606 0.911407 0.0272151
-34.6173 76.5625 0.55936 -0.419542 0.90731 0.0278146
-35.9345 75.9265 0.665892 -0.434898 0.899961 0.030551
-36.5743 75.6145 0.716149 -0.440276 0.897274 0.0324887
-36.4064 75.6673 1.67236 -0.441142 0.897071 0.025662
-35.2226 76.2435 1.57901 -0.434062 0.900614 0.0219907
-33.6443 76.9922 1.45328 -0.42301 0.905935 0.018542
-32.3551 77.5723 1.34612 -0.410703 0.911644 0.0151169
-31.1179 78.1201 1.24447 -0.402017 0.915318 0.023972
-29.5999 78.7559 1.12036 -0.380448 0.924641 0.0172695
-28.3351 79.2689 1.0183 -0.362357 0.931826 0.0199437
-26.8083 79.8433 0.896885 -0.342467 0.939388 0.0162982
-25.3957 80.3342 0.786309 -0.318006 0.947921 0.0178292
-24.1693 80.743 0.690709 -0.296521 0.954638 0.0272318
-22.8451 81.1415 0.589376 -0.28131 0.959378 0.0214036
-21.5789 81.4795 0.496367 -0.230324 0.97295 0.0178772
-20.3902 81.7474 0.410532 -0.207395 0.977785 0.0304099
-18.5702 82.0959 0.283148 -0.175797 0.984038 0.0276481
-17.2761 82.3004 0.192669 -0.145685 0.989163 0.0182291
-16.0138 82.4458 0.110305 -0.0948948 0.995412 0.0122818
-14.771 82.5508 0.033883 -0.0597376 0.998179 -0.00833549
-13.3289 82.5785 -0.03855 0.00676252 0.999977 -0.000914788
-12.0812 82.553 -0.0908786 0.044813 0.998823 0.0185458
-10.8203 82.4995 -0.132306 0.0605794 0.99747 0.0371855
-9.10875 82.2971 -0.143921 0.136282 0.990507 0.0179638
-7.89932 82.1101 -0.139828 0.179401 0.983752 0.00693704
-6.46889 81.8414 -0.14241 0.189464 0.981888 -0.000565246
-5.19099 81.5369 -0.148515 0.256803 0.966464 0.000429682
-3.90209 81.1698 -0.120123 0.278978 0.960258 -0.00867425
-2.74578 80.8158 -0.115773 0.309697 0.950835 0.00115576
-1.41988 80.3585 -0.126456 0.345683 0.938345 -0.00359974
0.178277 79.7575 -0.0992436 0.365769 0.930638 -0.0112318
1.46868 79.2285 -0.126252 0.396749 0.9178 -0.0152569
2.63436 78.7191 -0.12557 0.403066 0.915105 -0.0109843
3.93174 78.142 -0.105743 0.413543 0.910434 -0.00959698
5.12213 77.5871 -0.115037 0.432747 0.90147 -0.00910748
6.22481 77.0566 -0.133732 0.436291 0.899751 -0.00989269
8.01261 76.1687 -0.183919 0.445282 0.895358 -0.00766975
9.29489 75.5058 -0.275202 0.462614 0.886453 -0.0137926
10.3892 74.9279 -0.324946 0.470172 0.882462 -0.0140931
11.6073 74.2723 -0.340641 0.476922 0.878809 -0.0154854
12.7969 73.6225 -0.336157 0.482181 0.875934 -0.0154987
13.9238 72.9994 -0.308976 0.485469 0.874006 -0.0208356
15.3402 72.207 -0.269902 0.492864 0.869821 -0.0222805
16.6386 71.4697 -0.255355 0.495193 0.868404 -0.0256559
17.8473 70.7807 -0.229558 0.498935 0.866028 -0.0325474
17.8591 70.8098 0.72546 0.491499 0.870297 -0.0318103
16.7621 71.4304 0.683691 0.491182 0.870626 -0.027402
15.6301 72.0679 0.653141 0.491007 0.870723 -0.0274458
14.5142 72.6934 0.623363 0.486393 0.873486 -0.0210834
13.2881 73.3715 0.596948 0.480455 0.876819 -0.0187639
12.192 73.972 0.591532 0.479615 0.87729 -0.0182133
11.0897 74.5695 0.587125 0.476734 0.878907 -0.015701
10.0145 75.1434 0.624965 0.466577 0.884371 -0.0139179
8.69846 75.8293 0.701599 0.45902 0.888375 -0.00945912
7.39132 76.4876 0.766183 0.446132 0.894926 -0.0085282
6.23284 77.0595 0.806489 0.441587 0.897206 -0.00461035
4.85136 77.7229 0.833687 0.425421 0.904935 -0.0104619
3.52366 78.3326 0.833469 0.408039 0.912938 -0.00700201
2.31029 78.87 0.821214 0.402357 0.915482 -0.00103673
1.18393 79.349 0.82841 0.377579 0.925967 0.00448813
-0.220877 79.9123 0.839439 0.35452 0.935032 0.00549941
-1.63252 80.4351 0.821602 0.333017 0.942904 0.00561563
-2.88633 80.8567 0.825468 0.305787 0.952096 -0.00261
-4.11344 81.2368 0.817234 0.272929 0.961993 -0.00884333
-5.64108 81.6496 0.804247 0.246679 0.969097 0.00109854
-7.07207 81.9547 0.826723 0.179585 0.98374 -0.00235433
-8.4658 82.1938 0.829087 0.145869 0.989157 0.017041
-9.73877 82.3681 0.818728 0.132302 0.991106 0.0143415
-11.2604 82.4963 0.855248 0.076296 0.997085 0.00113709
-12.6311 82.5705 0.91486 0.050151 0.998736 0.00338204
-14.7486 82.5604 1.02507 -0.0331974 0.999432 0.00586756
-16.167 82.4262 1.10835 -0.0945055 0.995517 -0.00376446
-17.5838 82.2337 1.19863 -0.149927 0.988554 0.0168435
-19.2652 81.9539 1.31508 -0.177259 0.984164 -0.0011628
-20.698 81.6585 1.41406 -0.208037 0.978035 0.0129666
-21.9151 81.3702 1.50056 -0.241962 0.969968 0.0248433
-23.2297 80.9999 1.59886 -0.287953 0.957354 0.0235779
-24.5835 80.5823 1.70147 -0.302836 0.952896 0.016732
-26.0259 80.1025 1.81211 -0.328208 0.944418 0.0188205
-27.7264 79.4818 1.94632 -0.35215 0.93581 0.0157929
-28.9858 78.9902 2.04664 -0.377149 0.926092 0.0105962
-30.1465 78.5068 2.1404 -0.387577 0.921738 0.0135507
-31.2569 78.0354 2.23082 -0.396755 0.91778 0.0163032
-32.3737 77.5513 2.32201 -0.4045 0.914421 0.0146607
-33.5154 77.0316 2.41518 -0.419918 0.907328 0.0206288
-34.6693 76.4837 2.50573 -0.43051 0.90225 0.0246144
-35.9688 75.8541 2.6083 -0.438995 0.898115 0.025958
-36.5042 75.5912 2.64978 -0.441136 0.897074 0.0256629
-36.4066 75.6133 3.6122 -0.441893 0.896768 0.0231783
-35.0121 76.2925 3.50264 -0.431113 0.901973 0.0242157
-33.8113 76.8659 3.40762 -0.426011 0.904378 0.0248142
-32.5084 77.4683 3.3043 -0.410445 0.911607 0.0225163
-31.0831 78.0949 3.18986 -0.393257 0.919299 0.0154485
-29.9695 78.5671 3.09961 -0.384005 0.923204 0.0152902
-28.8194 79.039 3.00743 -0.377462 0.925713 0.0240401
-27.5258 79.5419 2.90534 -0.346478 0.937874 0.0185576
-26.2291 80.0121 2.80487 -0.328216 0.944415 0.018827
-24.8732 80.4737 2.70036 -0.306326 0.95178 0.0167048
-23.5719 80.8778 2.60537 -0.280134 0.959875 0.0128672
-22.1022 81.2937 2.49543 -0.245917 0.968822 0.0301578
-20.9041 81.5891 2.40883 -0.223643 0.974489 0.0188355
-19.6527 81.8625 2.32288 -0.200943 0.979117 0.0308441
-18.344 82.099 2.2327 -0.152473 0.988147 0.0178162
-17.0016 82.3033 2.14469 -0.132889 0.990891 0.0218274
-15.5803 82.4727 2.05821 -0.0911417 0.995426 0.0286291
-14.171 82.5586 1.96983 -0.0268541 0.999569 0.0119005
-12.8399 82.5652 1.89752 0.0169046 0.999777 0.0126308
-11.0984 82.484 1.82636 0.0781937 0.996938 -0.000380902
-9.69445 82.3453 1.79321 0.129072 0.991484 0.017322
-8.15118 82.1287 1.78503 0.150622 0.988588 -0.0025333
-6.84796 81.9153 1.77416 0.178585 0.983924 0.000418762
-5.50673 81.6155 1.76569 0.256868 0.966249 -0.0195439
-4.23159 81.2766 1.76983 0.254005 0.967184 -0.00609903
-3.02928 80.9121 1.77074 0.30135 0.9535 -0.00520012
-1.62476 80.4394 1.76573 0.343449 0.939167 -0.00293474
-0.152964 79.881 1.78689 0.353568 0.935407 -0.00165982
1.23467 79.3272 1.77902 0.376425 0.926446 0.00151484
2.38451 78.8386 1.77724 0.396762 0.917895 -0.00702988
3.85176 78.1933 1.78973 0.412563 0.910912 -0.00553498
4.9607 77.6824 1.77884 0.430704 0.90245 -0.00881667
6.06639 77.1474 1.75532 0.438367 0.898748 -0.00933065
7.2906 76.545 1.70716 0.444041 0.895983 -0.00640758
8.44933 75.9671 1.65616 0.45082 0.892572 -0.0087108
9.57795 75.3836 1.59647 0.460855 0.887391 -0.012204
10.948 74.6619 1.53964 0.46653 0.884378 -0.0149919
12.1176 74.032 1.54122 0.478823 0.877728 -0.0179218
13.1775 73.4523 1.54305 0.480084 0.87701 -0.0192876
14.2928 72.8406 1.54847 0.482173 0.875887 -0.0181873
15.6311 72.0934 1.58665 0.487213 0.872963 -0.0236382
16.6882 71.5019 1.61571 0.490973 0.870679 -0.0293939
17.7319 70.9169 1.67815 0.491433 0.870299 -0.0327748
17.8438 70.8912 2.66414 0.486025 0.873301 -0.0335368
16.6291 71.564 2.53988 0.485815 0.873689 -0.0255026
15.5748 72.1498 2.5066 0.486135 0.873577 -0.0231502
14.0961 72.9676 2.48227 0.482449 0.875768 -0.0165091
12.9435 73.6001 2.49351 0.479487 0.877373 -0.0175541
11.873 74.1832 2.49675 0.46939 0.882902 -0.0124958
10.789 74.759 2.5059 0.468575 0.883352 -0.0113013
9.70457 75.3289 2.54258 0.459446 0.888163 -0.00871645
8.42413 75.9885 2.59708 0.456646 0.889613 -0.00796599
6.54694 76.9192 2.67954 0.441599 0.897171 -0.00867638
5.36792 77.4959 2.71847 0.430185 0.902715 -0.00680997
4.14972 78.0619 2.73407 0.416382 0.909168 -0.0062764
2.4845 78.8027 2.73399 0.396762 0.917895 -0.00702974
1.341 79.2852 2.73246 0.387752 0.921761 -0.00212611
-0.109916 79.8679 2.73173 0.36507 0.93098 0.000684621
-1.29272 80.3173 2.72151 0.343442 0.93917 0.00256522
-2.55528 80.7576 2.72178 0.310221 0.950662 0.00196463
-3.87829 81.176 2.71455 0.279093 0.960263 0.00161433
-5.13624 81.5323 2.71742 0.25146 0.96785 0.00584485
-6.31353 81.8118 2.71916 0.193643 0.981036 0.0084367
-8.06737 82.1222 2.73803 0.158321 0.987387 0.000835425
-9.49215 82.3239 2.74991 0.125577 0.992071 -0.00506794
-10.9348 82.4748 2.78709 0.0818321 0.996626 0.00638115
-12.372 82.5455 2.85289 0.017522 0.999775 0.0119627
-13.685 82.5516 2.91609 -0.00751195 0.999949 0.00681851
-15.1957 82.4778 3.01163 -0.0565349 0.997725 0.0367196
-16.5345 82.3431 3.0976 -0.111575 0.993432 0.0253793
-17.9353 82.1428 3.18685 -0.139798 0.989982 0.0198234
-19.8117 81.8016 3.31353 -0.197531 0.979928 0.0268656
-21.1174 81.5123 3.40461 -0.241264 0.970211 0.0219651
-22.4555 81.1837 3.49873 -0.245533 0.969288 0.013944
-23.769 80.8088 3.59663 -0.296778 0.954883 0.0110532
-25.383 80.2807 3.716 -0.318247 0.947761 0.0216355
-26.8156 79.7785 3.82505 -0.343003 0.939031 0.0238878
-27.9626 79.3477 3.91337 -0.358254 0.933221 0.0274561
-29.1127 78.8942 4.00352 -0.377438 0.925769 0.022173
-30.3103 78.3983 4.09961 -0.384694 0.922753 0.0231921
-31.8699 77.7304 4.22379 -0.404149 0.914476 0.0199379
-33.3168 77.0703 4.33793 -0.414183 0.909945 0.0212607
-34.5133 76.507 4.43417 -0.428762 0.903096 0.0240919
-35.8542 75.8598 4.53917 -0.435727 0.899775 0.0234077
-36.6138 75.4838 4.59781 -0.442521 0.896556 0.0190584
-36.647 75.4484 5.57329 -0.444328 0.895743 0.0147609
-35.421 76.049 5.47611 -0.433689 0.900949 0.0142937
-34.1308 76.6664 5.37497 -0.426321 0.904448 0.0149598
-32.7502 77.3083 5.26465 -0.412276 0.910878 0.0181447
-31.5653 77.8375 5.16951 -0.396523 0.9177 0.0244108
-30.1262 78.454 5.05505 -0.384979 0.92273 0.018982
-28.9829 78.9263 4.9651 -0.376184 0.926392 0.0168275
-27.8255 79.3803 4.87526 -0.351666 0.935959 0.0176304
-26.6444 79.821 4.78499 -0.3455 0.938322 0.0135083
-25.3279 80.2904 4.68671 -0.320534 0.9472 0.0083605
-24.1179 80.6903 4.59589 -0.301326 0.953495 0.0071231
-22.6663 81.11 4.48813 -0.250083 0.967983 0.0216076
-21.4641 81.4116 4.40361 -0.23756 0.971235 0.016344
-20.2373 81.6926 4.31998 -0.200532 0.979423 0.0227306
-18.9409 81.9555 4.23198 -0.195305 0.980474 0.0229664
-17.7076 82.1567 4.15057 -0.137424 0.990344 0.0182407
-16.3204 82.3401 4.06015 -0.118216 0.992486 0.0315781
-15.0612 82.4499 3.97848 -0.0564588 0.997732 0.0366562
-13.6388 82.526 3.89197 -0.0480064 0.998828 0.00618618
-12.0271 82.5206 3.80656 0.0212084 0.999535 0.0219018
-10.7701 82.4523 3.74535 0.0738512 0.997268 0.00177498
-9.09809 82.2791 3.70159 0.125579 0.992068 -0.00559742
-7.70369 82.0574 3.68314 0.169436 0.985459 -0.0126886
-6.32711 81.8002 3.6706 0.203909 0.978877 0.0148724
-5.0711 81.5087 3.66369 0.244118 0.969717 0.00742267
-3.90092 81.1881 3.6669 0.274423 0.961528 0.0124513
-2.73245 80.8189 3.67128 0.307619 0.951375 -0.0160056
-1.26932 80.3121 3.67971 0.345631 0.938357 -0.00498735
0.40587 79.6723 3.68522 0.36506 0.930915 -0.0113777
2.23139 78.9202 3.68848 0.387491 0.921776 -0.0134444
3.58309 78.3336 3.68915 0.399459 0.916694 -0.0102549
4.68831 77.8211 3.68102 0.424439 0.905396 -0.010422
5.80898 77.2922 3.66142 0.43628 0.89978 -0.00750312
7.43936 76.4894 3.58429 0.441297 0.897313 -0.00930347
8.52239 75.9503 3.55551 0.451624 0.892146 -0.0105392
9.88127 75.2471 3.50078 0.462503 0.886514 -0.013521
11.1006 74.6073 3.46505 0.466516 0.884404 -0.0138715
12.2547 73.9937 3.45992 0.475591 0.879572 -0.0128888
13.4637 73.3339 3.4347 0.481106 0.876503 -0.0167342
14.5498 72.7373 3.42752 0.481422 0.876297 -0.018331
15.7262 72.0897 3.44449 0.482954 0.875331 -0.0234628
16.8002 71.4991 3.49844 0.482725 0.875415 -0.0249943
17.8057 70.9479 3.61936 0.480476 0.8765 -0.0298376
17.9753 70.8881 4.55536 0.478351 0.877635 -0.030613
16.7864 71.5339 4.43144 0.479455 0.877192 -0.0256325
15.5236 72.2253 4.38991 0.480676 0.876635 -0.0214599
14.3545 72.8638 4.37474 0.47891 0.877684 -0.0177858
12.9148 73.6496 4.39984 0.477101 0.878704 -0.0159189
11.6843 74.3116 4.43366 0.470932 0.882107 -0.0104887
10.5669 74.9041 4.45692 0.462429 0.886553 -0.0135683
9.31539 75.5533 4.48969 0.455585 0.89016 -0.00755756
7.85132 76.2969 4.54131 0.443547 0.896188 -0.010582
6.19957 77.1098 4.60614 0.441297 0.897313 -0.00930316
4.8059 77.7754 4.63287 0.426039 0.904693 -0.00458433
3.66244 78.3051 4.64303 0.407595 0.91314 -0.00648935
2.10103 78.9868 4.64328 0.391462 0.920174 -0.00604055
0.842322 79.5048 4.64252 0.37261 0.927968 -0.00611666
-0.572803 80.0569 4.63962 0.351409 0.936174 -0.00944923
-1.82618 80.5224 4.63534 0.344294 0.938844 -0.00580032
-3.10916 80.953 4.62357 0.300581 0.953734 -0.00651441
-4.2811 81.2955 4.61487 0.265318 0.963974 -0.0189755
-5.65925 81.6459 4.61448 0.23233 0.972558 0.0123868
-6.8766 81.9153 4.62319 0.190282 0.981729 -0.000531364
-8.23961 82.1571 4.63957 0.156238 0.987718 0.00188209
-9.45505 82.3248 4.66898 0.103653 0.994613 0.00117881
-10.7569 82.4497 4.70804 0.0865377 0.996222 0.00724456
-12.1468 82.5069 4.77885 0.0216893 0.999734 -0.00780145
-13.5746 82.5231 4.86506 -0.0156309 0.99975 0.0159744
-15.3409 82.4186 4.97249 -0.0692752 0.997501 0.0138518
-16.6441 82.2911 5.05825 -0.125379 0.992103 0.00347265
-17.961 82.1139 5.14344 -0.154458 0.98788 0.0153319
-19.3863 81.8496 5.2376 -0.196544 0.98042 0.0121447
-20.833 81.5507 5.33601 -0.216829 0.976134 0.0121441
-22.4713 81.138 5.44881 -0.255138 0.96673 0.0184013
-23.6377 80.8128 5.53331 -0.27645 0.96087 0.0174613
-24.9024 80.4265 5.62614 -0.322426 0.946551 0.00910487
-26.2155 79.9604 5.72504 -0.339545 0.940487 0.0138725
-27.4134 79.5171 5.81631 -0.351857 0.93588 0.0180435
-28.6823 79.0239 5.91438 -0.367094 0.930093 0.0129787
-29.8916 78.5344 6.00877 -0.384935 0.922835 0.0141764
-31.1639 77.9915 6.10823 -0.397924 0.917215 0.0193078
-32.4143 77.4401 6.20786 -0.405753 0.913786 0.0189742
-33.5254 76.9354 6.29719 -0.420286 0.907202 0.0185471
-34.7259 76.3705 6.39213 -0.428961 0.903261 0.0106033
-35.9125 75.7968 6.48667 -0.434024 0.900856 0.00906651
-36.6503 75.4347 6.54627 -0.440898 0.897515 0.0087528
-36.618 75.4424 7.5137 -0.438792 0.898584 0.00302231
-35.4884 75.9924 7.42234 -0.433456 0.901139 0.00809087
-34.2219 76.5943 7.32147 -0.423081 0.906016 0.0117412
-32.9382 77.1898 7.21865 -0.417431 0.908635 0.0115816
-31.4505 77.8493 7.10211 -0.398244 0.91716 0.0148154
-30.0051 78.4697 6.99124 -0.388149 0.921381 0.0199187
-28.703 79.0032 6.88992 -0.369176 0.929307 0.0098527
-27.4601 79.4827 6.79232 -0.349289 0.936912 0.0138907
-26.2578 79.9245 6.70088 -0.336895 0.941258 0.0231439
-25.0059 80.3686 6.60521 -0.328887 0.944112 0.0220436
-23.6626 80.7939 6.5065 -0.277436 0.960478 0.0226238
-22.3921 81.1446 6.41691 -0.260062 0.965452 0.0164474
-21.138 81.4642 6.33068 -0.225759 0.974182 -0.00167242
-19.7836 81.7609 6.2387 -0.200284 0.979735 0.00231601
-18.5106 81.9968 6.15395 -0.171012 0.985159 0.014717
-17.2778 82.2007 6.07431 -0.138183 0.99028 0.0158198
-15.9208 82.3557 5.98566 -0.0766909 0.996762 0.0241591
-14.5578 82.4523 5.89831 -0.056311 0.998146 0.0231141
-13.2334 82.5095 5.81485 -0.0212435 0.999456 0.0252403
-11.9906 82.5106 5.73816 0.0109193 0.999795 0.0170466
-10.5197 82.4245 5.66187 0.0840373 0.996452 0.00459219
-9.26739 82.2976 5.61966 0.116227 0.993208 0.00545394
-7.89954 82.092 5.58892 0.165267 0.986116 -0.0161982
-6.55471 81.8486 5.5705 0.209616 0.977767 -0.00569447
-5.28051 81.5513 5.56839 0.237047 0.971493 -0.00312979
-3.78502 81.1569 5.57516 0.269425 0.962991 0.007599
-2.61539 80.7945 5.58627 0.311382 0.950276 0.00417825
-1.30092 80.3314 5.5956 0.34496 0.93861 0.00383159
-0.0909369 79.8699 5.60054 0.361723 0.932267 0.00586729
1.31335 79.3206 5.60017 0.374918 0.927058 -0.000491186
2.80214 78.6882 5.60178 0.402094 0.915598 -0.000951869
3.9184 78.1914 5.59845 0.409326 0.912388 -0.000830651
5.19287 77.5994 5.58374 0.426629 0.904362 -0.010851
6.35632 77.0427 5.56595 0.435213 0.9003 -0.00701688
7.43987 76.5119 5.53235 0.443694 0.896125 -0.00977709
8.57607 75.9395 5.48945 0.454609 0.890662 -0.00722552
9.96452 75.2306 5.43704 0.454286 0.890805 -0.00955222
11.0964 74.6412 5.42104 0.467234 0.884012 -0.0146746
12.3278 73.984 5.38777 0.473027 0.880933 -0.0142263
13.6155 73.2861 5.33664 0.47577 0.879435 -0.015386
15.0946 72.4817 5.34031 0.479003 0.877594 -0.0196175
16.3202 71.8151 5.36201 0.477748 0.878244 -0.0210914
17.4847 71.1829 5.42589 0.476005 0.878997 -0.0279731
17.633 71.103 5.43995 0.476006 0.878997 -0.0279735
17.867 71.0053 6.39462 0.472007 0.881205 -0.026204
16.7611 71.5984 6.32031 0.476153 0.879087 -0.0220252
15.5339 72.2636 6.30337 0.477704 0.878296 -0.0198817
14.2882 72.9387 6.28803 0.476174 0.879224 -0.0149666
13.1944 73.5302 6.31681 0.474058 0.880429 -0.0107161
12.0915 74.1238 6.36145 0.472814 0.881103 -0.0102377
10.8931 74.7607 6.39236 0.465288 0.885096 -0.01054
9.76843 75.342 6.42319 0.455725 0.890072 -0.00930071
8.46285 76.0067 6.47296 0.452528 0.8917 -0.00951052
7.04164 76.7207 6.51995 0.447048 0.894437 -0.0114167
5.92754 77.2583 6.53281 0.434014 0.900868 -0.00829749
4.69934 77.8382 6.54986 0.419436 0.907769 -0.0053817
3.40134 78.4263 6.56115 0.405898 0.91389 -0.00719115
2.18888 78.9579 6.56119 0.393619 0.919272 -0.00177844
0.960598 79.4562 6.56061 0.36897 0.929421 -0.00612006
-0.549006 80.0421 6.55825 0.354363 0.935108 0.000496035
-1.88947 80.5377 6.54944 0.330083 0.943945 -0.00371184
-3.06464 80.9271 6.53933 0.293618 0.955863 0.0106809
-4.25143 81.2759 6.53029 0.267296 0.963363 0.0219909
-5.61782 81.6297 6.52565 0.23976 0.970809 0.00677486
-7.12647 81.9629 6.53223 0.191682 0.98145 -0.00370414
-8.51508 82.1873 6.55715 0.143907 0.989458 0.0162223
-10.051 82.3773 6.60813 0.101655 0.994706 0.0150702
-11.7979 82.4863 6.697 0.0186915 0.999617 0.0204231
-13.0514 82.4898 6.77485 -0.0174766 0.999751 0.0138566
-14.3063 82.4455 6.85626 -0.0621206 0.997985 0.0128909
-15.8649 82.3396 6.95519 -0.0817778 0.996648 -0.00225251
-17.2576 82.1841 7.04681 -0.149203 0.988806 -0.000954745
-18.5963 81.9745 7.13394 -0.161026 0.986937 0.00517549
-20.0112 81.7066 7.22985 -0.204805 0.978699 0.0142204
-21.7137 81.3099 7.34651 -0.25896 0.965756 0.0159613
-23.1125 80.9308 7.4415 -0.278095 0.960298 0.0221654
-24.3959 80.544 7.53146 -0.295123 0.955092 0.0264939
-25.5601 80.1516 7.62303 -0.332949 0.942672 0.0226603
-26.7806 79.7193 7.71314 -0.340129 0.940235 0.0164474
-28.0584 79.2434 7.81141 -0.353466 0.935292 0.0170338
-29.2433 78.7723 7.90331 -0.384615 0.922904 0.0179067
-30.6028 78.1979 8.00794 -0.390174 0.920574 0.0175646
-31.768 77.6954 8.0971 -0.39722 0.91757 0.0167602
-32.9386 77.177 8.18833 -0.411211 0.911455 0.0124156
-34.2418 76.5731 8.29295 -0.422604 0.90625 0.0107829
-35.3325 76.0569 8.37969 -0.432132 0.901765 0.00908286
-36.3407 75.5713 8.45961 -0.436748 0.899547 0.00821083
-35.5086 75.9645 9.36227 -0.428655 0.90346 0.0039866
-34.3865 76.4955 9.27333 -0.422861 0.906161 0.00777635
-33.2444 77.0215 9.182 -0.41182 0.91111 0.0168336
-31.6533 77.7259 9.05781 -0.395879 0.91813 0.0178257
-29.8994 78.4747 8.92408 -0.386111 0.922341 0.0143121
-28.5066 79.0467 8.8174 -0.362834 0.93152 0.0249514
-27.1708 79.5574 8.71456 -0.347509 0.937556 0.0150588
-25.9471 79.9997 8.62078 -0.33364 0.942601 0.013719
-24.7094 80.4227 8.52716 -0.30099 0.953431 0.0193665
-23.2416 80.8707 8.42586 -0.278094 0.960298 0.0221557
-21.8989 81.2428 8.33304 -0.257724 0.965759 0.0297822
-20.6351 81.5548 8.24304 -0.208258 0.977783 0.0238691
-19.4144 81.8091 8.16044 -0.197719 0.979976 0.0235248
-18.0211 82.062 8.06918 -0.158176 0.98739 0.00643605
-16.5262 82.2746 7.97155 -0.0997211 0.994946 0.0117641
-15.0358 82.3917 7.87491 -0.0568058 0.998357 0.00754021
-13.667 82.4574 7.78815 -0.0310782 0.999293 0.0211746
-12.2001 82.4697 7.69556 0.0095501 0.999599 0.0266639
-10.8584 82.4269 7.61548 0.0579846 0.997874 0.0297541
-9.5883 82.3064 7.55711 0.108261 0.994114 0.00422963
-8.34098 82.1579 7.51059 0.138659 0.990337 -0.00242932
-6.84431 81.8973 7.48663 0.186862 0.982216 0.0182752
-5.56264 81.6093 7.48263 0.237221 0.971424 0.0077916
-4.09914 81.2117 7.49051 0.266447 0.963582 0.0227163
-2.92719 80.8755 7.49975 0.28486 0.958423 0.016718
-1.7151 80.4797 7.50989 0.333331 0.942809 0.00102278
-0.283054 79.9416 7.51872 0.355101 0.934798 -0.00743514
1.26628 79.3381 7.52256 0.372622 0.927983 0.000710572
2.42437 78.8604 7.52355 0.394504 0.918883 -0.00448512
3.70386 78.2972 7.52359 0.404317 0.914618 -0.00132917
5.13895 77.6411 7.50944 0.423593 0.90584 -0.00473982
6.24784 77.1161 7.49349 0.432194 0.901768 -0.00477649
7.554 76.4744 7.47633 0.446999 0.894525 -0.00423684
9.08731 75.6983 7.42783 0.453351 0.891309 -0.00643356
10.2869 75.0842 7.38318 0.45974 0.888032 -0.00616865
11.6676 74.3602 7.34619 0.469449 0.882926 -0.0077288
12.7407 73.7864 7.30485 0.471079 0.882035 -0.00997208
13.9026 73.1624 7.25613 0.472964 0.880981 -0.0133194
15.1806 72.4734 7.25602 0.474405 0.880141 -0.017052
16.5933 71.7118 7.26226 0.474654 0.879921 -0.0210494
17.5154 71.2174 7.29773 0.472295 0.88113 -0.0233976
17.5799 71.2074 8.2398 0.471174 0.88182 -0.0197414
16.413 71.8284 8.20184 0.473666 0.880552 -0.0163842
14.9194 72.631 8.20654 0.472617 0.881173 -0.012945
13.7107 73.2781 8.23534 0.471197 0.881944 -0.012208
12.6473 73.8472 8.27918 0.471078 0.882035 -0.00997281
11.2137 74.6068 8.33839 0.464038 0.885789 -0.00684089
9.91403 75.2808 8.3813 0.45573 0.890104 -0.00513131
8.7585 75.8719 8.41641 0.453282 0.891352 -0.00510734
7.63959 76.4372 8.44455 0.444453 0.895799 -0.00247001
6.43786 77.0287 8.4603 0.44136 0.89733 -0.000691946
5.22646 77.6018 8.47666 0.423715 0.905794 0.00158578
4.12348 78.1134 8.48655 0.421064 0.907028 0.00225454
3.00421 78.6092 8.48916 0.400777 0.916158 -0.00563862
1.59829 79.2047 8.48687 0.37204 0.928215 -0.00177376
0.418424 79.6739 8.48327 0.364305 0.931274 0.00311724
-0.751515 80.1252 8.47627 0.350261 0.936645 0.00363011
-1.92684 80.5416 8.46873 0.318681 0.947834 0.0072846
-3.14425 80.9259 8.45918 0.282402 0.959268 0.00737618
-4.69872 81.3584 8.44631 0.255888 0.966635 0.0117936
-6.00892 81.6941 8.44068 0.228793 0.9732 0.0231411
-7.59791 82.0304 8.45226 0.193405 0.981095 0.00693342
-8.80053 82.2167 8.48782 0.114225 0.993372 -0.0128085
-10.4726 82.3949 8.5664 0.0811281 0.996694 0.00449055
-11.8407 82.4493 8.64801 0.024566 0.9995 0.0199008
-13.3986 82.447 8.74234 -0.0143245 0.999576 0.0253421
-14.7373 82.404 8.82576 -0.0411887 0.999057 0.0137008
-16.2195 82.3059 8.92108 -0.0823199 0.996478 0.0159439
-17.5358 82.1382 9.00729 -0.142735 0.989694 0.0115282
-18.7693 81.9199 9.08746 -0.195379 0.980524 0.0200044
-19.9757 81.6741 9.16858 -0.20395 0.978737 0.0218858
-21.5454 81.3153 9.27618 -0.242301 0.970175 0.00716919
-22.8925 80.9546 9.37112 -0.267295 0.963591 0.00677718
-24.3009 80.5325 9.47169 -0.2942 0.955566 0.0184474
-25.7167 80.0638 9.57354 -0.331897 0.943107 0.0198605
-26.9126 79.6319 9.66312 -0.347127 0.937636 0.018469
-28.1446 79.1647 9.75797 -0.356649 0.934157 0.0123503
-29.2988 78.7081 9.84745 -0.380802 0.924423 0.0207685
-30.506 78.2021 9.94126 -0.389136 0.921019 0.0172436
-31.8221 77.6378 10.0414 -0.396751 0.917824 0.0137244
-33.1848 77.0353 10.1456 -0.409557 0.91218 0.0138046
-34.4502 76.4556 10.2465 -0.422669 0.906188 0.0132392
-35.0891 76.1611 10.2982 -0.422088 0.906553 0.00203655
-34.8397 76.2719 11.2468 -0.418021 0.90843 0.00374306
-33.6572 76.8123 11.1519 -0.409669 0.912209 0.00675054
-32.4664 77.344 11.061 -0.399418 0.916674 0.0131933
-31.3143 77.8431 10.9728 -0.39446 0.9188 0.0144324
-30.142 78.3431 10.8839 -0.384501 0.923011 0.0144867
-28.9443 78.836 10.7901 -0.37979 0.924924 0.0166168
-27.6782 79.3329 10.6931 -0.349824 0.936737 0.0120804
-26.5484 79.7481 10.6069 -0.339812 0.940291 0.0195191
-25.2414 80.2032 10.5086 -0.312469 0.949568 0.0261634
-23.9193 80.6222 10.4137 -0.29195 0.955859 0.0331418
-22.6206 81.0146 10.3201 -0.284271 0.95847 0.0229026
-21.0869 81.4115 10.2121 -0.21856 0.975593 0.021201
-19.5046 81.7611 10.1052 -0.208903 0.977809 0.0158001
-18.0079 82.041 10.0052 -0.167857 0.98554 0.0231246
-16.514 82.2519 9.90875 -0.0970429 0.99494 0.0260263
-15.0244 82.3836 9.81322 -0.0608656 0.998018 0.0159782
-13.6201 82.4384 9.72783 -0.0340662 0.999391 0.00750137
-12.2425 82.4494 9.64366 0.0100659 0.999915 0.0082668
-10.9584 82.417 9.56586 0.0346744 0.999351 0.00971249
-9.51016 82.3113 9.49223 0.0811302 0.99668 0.00680601
-8.11769 82.1115 9.42758 0.169852 0.985405 0.0113258
-6.63571 81.8357 9.39686 0.214922 0.976611 0.00621449
-5.15747 81.4716 9.40432 0.254864 0.966975 0.00212814
-3.97251 81.1591 9.41558 0.268375 0.963283 0.00777829
-2.76102 80.8036 9.42467 0.282417 0.959225 0.0113262
-1.13936 80.2659 9.43566 0.335439 0.942037 0.00686695
0.134196 79.788 9.4431 0.363071 0.931759 0.00195113
1.61709 79.2002 9.45272 0.374095 0.927373 -0.00563241
2.934 78.6429 9.45608 0.400462 0.916313 0.000633515
4.12399 78.1115 9.45533 0.41513 0.90976 0.00192558
5.48295 77.4811 9.44324 0.424271 0.905533 -0.00190721
6.72188 76.8904 9.42694 0.44104 0.897485 -0.00230224
8.16288 76.1776 9.40356 0.447135 0.894467 0.000272142
9.60935 75.4433 9.36894 0.455787 0.890064 -0.00670774
10.7172 74.8747 9.3307 0.462168 0.88677 -0.00636541
12.087 74.1546 9.27346 0.46638 0.884521 -0.0106238
13.2258 73.5498 9.22474 0.470541 0.882327 -0.00950378
14.6141 72.8083 9.17024 0.470595 0.882303 -0.00904237
16.1026 72.0106 9.14099 0.471606 0.881722 -0.0124332
17.218 71.4173 9.14916 0.469707 0.882661 -0.0168927
16.8899 71.6055 10.0663 0.468731 0.883238 -0.0135185
15.0498 72.5859 10.1138 0.470315 0.882451 -0.00918557
13.8771 73.2116 10.1599 0.470708 0.882247 -0.00858143
12.2312 74.0867 10.2333 0.466562 0.884469 -0.00594449
10.83 74.8219 10.2937 0.461278 0.88725 -0.00306355
9.5921 75.4597 10.3439 0.455231 0.890357 -0.0053725
