-2.84241 81.4092 -12.3735 0.31792 0.947921 -0.0193126
-4.40652 81.9154 -12.3476 0.287853 0.957599 -0.012073
-5.68863 82.2644 -12.3325 0.240271 0.970673 -0.00791696
-7.07136 82.5836 -12.3186 0.206637 0.978212 -0.0200571
-8.62386 82.8743 -12.3072 0.168591 0.98538 -0.0245534
-10.1635 83.066 -12.2939 0.0975031 0.994884 -0.0264341
-11.4585 83.1541 -12.2796 0.0430458 0.998932 -0.0168141
-12.8953 83.2107 -12.2519 0.018444 0.99976 -0.0118625
-14.4527 83.1832 -12.197 -0.0269803 0.9996 -0.00845982
-15.718 83.1002 -12.1376 -0.092528 0.995681 -0.00759657
-17.1403 82.9598 -12.0775 -0.1265 0.991885 -0.0126884
-18.4109 82.7759 -12.0256 -0.161786 0.986683 -0.0168111
-19.6739 82.57 -11.9736 -0.1786 0.983911 -0.00453894
-20.9348 82.3206 -11.9389 -0.212723 0.977061 -0.0100228
-22.2884 81.9985 -11.8916 -0.240747 0.970584 -0.00280095
-23.8773 81.5744 -11.8277 -0.268012 0.963367 -0.00965106
-25.2961 81.1475 -11.7833 -0.297202 0.95452 0.0237202
-26.8871 80.6326 -11.7293 -0.317974 0.947956 0.0164585
-28.4014 80.1049 -11.6643 -0.339439 0.940412 0.0201597
-29.6898 79.6281 -11.6013 -0.354973 0.934586 0.0233036
-30.9114 79.1515 -11.5497 -0.362455 0.931289 0.0364296
-31.447 78.9423 -11.5303 -0.365353 0.930173 0.0359807
-32.3061 78.5619 -10.5592 -0.374242 0.92687 0.0292545
-30.9166 79.1229 -10.617 -0.368209 0.929453 0.0232158
-29.4509 79.6949 -10.6733 -0.353661 0.93505 0.024606
-28.1209 80.1874 -10.7308 -0.342202 0.939456 0.0178942
-26.7975 80.6534 -10.782 -0.3176 0.948195 0.00749988
-25.2245 81.1655 -10.831 -0.300703 0.953716 0.00198615
-23.8758 81.5767 -10.8711 -0.273174 0.961965 0.00040451
-22.6463 81.9089 -10.9088 -0.245926 0.96928 -0.00410401
-21.0718 82.2958 -10.9677 -0.234078 0.972213 -0.00302355
-19.7771 82.556 -11.0051 -0.190262 0.981713 -0.00634397
-18.3824 82.7971 -11.0525 -0.161323 0.986752 -0.017185
-16.724 83.0117 -11.1155 -0.116645 0.993014 -0.0178216
-14.8685 83.1693 -11.1932 -0.0752011 0.997163 -0.00329818
-13.5981 83.2146 -11.2411 -0.017557 0.999772 -0.0121445
-12.3139 83.2078 -11.2752 0.0430448 0.998931 -0.0168257
-10.4359 83.119 -11.3016 0.0619881 0.997818 -0.0227498
-9.17428 82.9675 -11.3194 0.126594 0.991831 -0.0156594
-7.86918 82.7723 -11.3283 0.164304 0.986304 -0.0144698
-6.51689 82.4761 -11.3472 0.238526 0.971113 -0.00673056
-5.10775 82.122 -11.3624 0.248244 0.968696 -0.00164167
-3.78168 81.7357 -11.3851 0.303237 0.952915 0.000565917
-2.53554 81.3133 -11.409 0.337441 0.941316 -0.00753173
-0.998579 80.7438 -11.4362 0.354032 0.935187 -0.00926531
0.212941 80.2684 -11.4552 0.373904 0.92733 -0.0159582
1.79203 79.6139 -11.4758 0.398403 0.917002 -0.0195517
3.26455 78.9548 -11.4953 0.413707 0.910348 -0.010577
4.45978 78.3968 -11.508 0.43645 0.899677 -0.00960888
5.8548 77.7084 -11.5202 0.446871 0.89446 -0.0157203
7.25374 76.9996 -11.5337 0.45642 0.889614 -0.0163614
8.42894 76.3911 -11.5475 0.460544 0.887456 -0.0179504
9.99092 75.5631 -11.5608 0.469005 0.88298 -0.0195117
11.1247 74.9535 -11.5701 0.477123 0.878611 -0.0199209
12.5183 74.1826 -11.5857 0.488681 0.872186 -0.0219698
13.742 73.4921 -11.6063 0.493542 0.869431 -0.022488
14.9507 72.8042 -11.6293 0.498147 0.866845 -0.0207071
16.0072 72.193 -11.6437 0.501824 0.864746 -0.0196981
16.4863 71.9376 -10.708 0.501045 0.865128 -0.0225273
15.1717 72.6999 -10.6753 0.500796 0.865308 -0.0210903
14.0463 73.3448 -10.6547 0.494132 0.869038 -0.024652
12.9544 73.9619 -10.6369 0.491224 0.870707 -0.0238245
11.7674 74.6222 -10.6225 0.481239 0.876371 -0.0195548
10.4705 75.3266 -10.6103 0.473533 0.880557 -0.019626
9.23969 75.9857 -10.5981 0.467448 0.883783 -0.0204859
7.87521 76.6981 -10.5801 0.458842 0.888294 -0.0199619
6.59139 77.353 -10.5646 0.4522 0.891776 -0.0158184
5.42464 77.935 -10.5522 0.439968 0.897834 -0.0179188
4.2032 78.5265 -10.5392 0.429544 0.903037 -0.00400536
2.96359 79.1023 -10.5243 0.412487 0.910914 -0.00945821
1.78019 79.6336 -10.5076 0.404786 0.914353 -0.0103036
0.268303 80.2628 -10.4841 0.371251 0.928436 -0.0133902
-1.16822 80.8212 -10.4597 0.352723 0.935614 -0.014609
-2.3641 81.2602 -10.4371 0.329748 0.943889 -0.0184104
-3.69865 81.7047 -10.4098 0.296757 0.954926 0.00721251
-5.07866 82.1158 -10.3845 0.270458 0.962726 -0.00340166
-6.48801 82.4749 -10.3671 0.23916 0.970965 -0.00550092
-7.94375 82.7956 -10.3501 0.173624 0.984809 0.00229979
-9.44964 83.0125 -10.334 0.122053 0.992523 0.000660629
-10.7117 83.1415 -10.3158 0.0791491 0.996863 -0.000502704
-12.334 83.2128 -10.2917 0.0232687 0.999729 0.000426607
-13.8417 83.2147 -10.2425 -0.0357566 0.999322 -0.00874805
-15.2475 83.1498 -10.1935 -0.0590739 0.99825 -0.00256445
-16.9671 83.0136 -10.1248 -0.10411 0.994221 -0.0261759
-18.4186 82.7983 -10.0776 -0.165834 0.986126 -0.00739735
-19.7893 82.5598 -10.0404 -0.185599 0.982625 -0.000973522
-21.286 82.2496 -9.98936 -0.220228 0.975371 -0.0123125
-22.5802 81.9309 -9.94863 -0.247693 0.968829 -0.00437392
-24.0948 81.5158 -9.90887 -0.273223 0.961946 -0.00299994
-25.3203 81.1399 -9.87355 -0.305441 0.951972 -0.0213426
-26.8493 80.6285 -9.8322 -0.319281 0.947617 0.00907257
-28.1434 80.1717 -9.77998 -0.339961 0.940433 0.00351047
-29.5606 79.6332 -9.72606 -0.356961 0.933871 0.0215383
-31.0162 79.0601 -9.68283 -0.373615 0.927235 0.0254555
-32.8359 78.2923 -9.61358 -0.394506 0.917601 0.0487279
-32.8476 78.2872 -9.61311 -0.394509 0.917599 0.0487261
-33.0171 78.1748 -8.66384 -0.403901 0.913939 0.0397403
-31.742 78.7302 -8.71384 -0.392 0.919411 0.0319196
-30.2987 79.3215 -8.76045 -0.371925 0.927869 0.0270338
-28.9128 79.8643 -8.80755 -0.358901 0.933249 0.0153951
-27.5653 80.3653 -8.85629 -0.341152 0.939778 0.0208074
-26.3611 80.7838 -8.89741 -0.318904 0.947753 0.00803787
-25.1288 81.1985 -8.91434 -0.305996 0.951948 0.0126777
-23.7845 81.6045 -8.95984 -0.271203 0.962498 0.00678154
-22.1947 82.0324 -8.99553 -0.248685 0.968581 -0.00253898
-20.7727 82.3689 -9.04015 -0.211835 0.977289 -0.00571659
-19.1225 82.6867 -9.07892 -0.185507 0.982642 -0.00115717
-17.8691 82.9051 -9.10984 -0.156416 0.98769 -0.00157157
-16.6264 83.068 -9.15844 -0.0851982 0.996116 -0.0222339
-15.1244 83.1792 -9.20757 -0.0583567 0.997955 -0.0260669
-13.7483 83.2403 -9.25943 0.00157279 0.99996 -0.00879141
-12.3343 83.2168 -9.30538 0.0255728 0.999657 -0.00572158
-11.0201 83.158 -9.32899 0.0396414 0.999203 0.00464907
-9.43007 83.01 -9.34999 0.12657 0.991941 -0.00571887
-7.94111 82.7869 -9.3651 0.166878 0.985907 0.0117518
-6.525 82.4865 -9.38168 0.231543 0.972804 -0.00630688
-4.9395 82.0802 -9.40174 0.270452 0.962727 -0.00340074
-3.63036 81.689 -9.428 0.291276 0.956585 -0.0101607
-2.29571 81.2513 -9.4592 0.336011 0.941761 -0.0135472
-1.11769 80.817 -9.48166 0.355591 0.93458 -0.0107247
0.266099 80.2768 -9.51012 0.368327 0.929593 -0.0138403
1.47331 79.7815 -9.53501 0.393978 0.919036 -0.0123954
2.89417 79.1535 -9.5556 0.408936 0.912227 -0.0247798
4.09579 78.5948 -9.57225 0.423564 0.905754 -0.014266
5.32045 78.0052 -9.58697 0.439655 0.897994 -0.017597
6.50425 77.4149 -9.60018 0.452715 0.8915 -0.0166316
7.66841 76.8225 -9.61531 0.45515 0.890177 -0.0205588
8.9782 76.1453 -9.63431 0.465332 0.884881 -0.0212499
10.1958 75.4958 -9.65078 0.473726 0.880428 -0.0207609
11.3621 74.8648 -9.66451 0.478222 0.877938 -0.0229998
12.4681 74.2564 -9.67452 0.484446 0.874548 -0.0218487
13.5652 73.643 -9.68809 0.49086 0.870928 -0.0232334
14.9339 72.861 -9.71119 0.499061 0.866296 -0.0216664
16.0742 72.2032 -9.73972 0.502773 0.864089 -0.0238585
16.7335 71.8177 -9.77653 0.506111 0.862251 -0.0193428
16.8236 71.7864 -8.83153 0.506694 0.861899 -0.0197893
15.4963 72.5609 -8.76235 0.499002 0.866424 -0.0174861
14.2752 73.2617 -8.73901 0.494889 0.868771 -0.0179418
12.9506 74.0107 -8.72146 0.489866 0.871615 -0.0178362
11.6539 74.7288 -8.71349 0.483681 0.875006 -0.020431
10.5358 75.3393 -8.6978 0.475641 0.879394 -0.0207701
9.34743 75.9728 -8.67939 0.462705 0.886322 -0.0183891
7.83468 76.7596 -8.65534 0.458351 0.888584 -0.0182339
6.47904 77.4492 -8.63697 0.450855 0.892364 -0.0204002
4.92883 78.217 -8.61716 0.439748 0.897914 -0.0192828
3.73799 78.7774 -8.60206 0.424952 0.9051 -0.0144779
2.48723 79.354 -8.58128 0.402069 0.915501 -0.0140758
1.1383 79.9394 -8.55788 0.385045 0.922718 -0.0182227
-0.248366 80.4937 -8.5267 0.359463 0.932958 -0.0193873
-1.48449 80.9692 -8.49806 0.352693 0.935662 -0.0120317
-2.79311 81.4348 -8.46857 0.315874 0.948778 -0.00664207
-4.22274 81.8822 -8.4294 0.291033 0.956391 -0.0248093
-5.64216 82.2731 -8.40086 0.244749 0.969366 -0.0206689
-6.99861 82.5951 -8.37797 0.21814 0.975891 0.00720439
-8.36287 82.8525 -8.363 0.166473 0.986022 -0.00690835
-9.96424 83.069 -8.34217 0.0946879 0.995505 0.00192774
-11.4811 83.1797 -8.32472 0.0539721 0.998518 0.00703675
-12.8215 83.2355 -8.30804 0.026111 0.999637 -0.00662323
-14.1587 83.2558 -8.26351 0.00736362 0.999773 -0.0200061
-15.5033 83.1737 -8.20849 -0.0850761 0.996333 -0.00913971
-16.8429 83.0438 -8.15952 -0.109641 0.993971 0.000479001
-18.1557 82.8613 -8.11637 -0.156415 0.98769 -0.00156195
-19.5363 82.6118 -8.09656 -0.183011 0.983109 -0.00208175
-20.9964 82.3161 -8.06346 -0.223783 0.974619 0.00626663
-22.3138 82.0011 -8.02769 -0.244788 0.969576 -0.00137371
-23.8814 81.5641 -7.98666 -0.276647 0.960947 0.00682644
-25.0872 81.1982 -7.95703 -0.312174 0.949914 0.0145214
-26.6374 80.6783 -7.93434 -0.329208 0.944135 0.0151931
-28.0162 80.1839 -7.89036 -0.341164 0.939887 0.0148311
-29.36 79.6731 -7.85007 -0.361656 0.932073 0.0210649
-30.5393 79.1996 -7.81339 -0.382211 0.923846 0.020568
-32.1763 78.5134 -7.76365 -0.391188 0.919756 0.031962
-33.8609 77.7557 -7.72236 -0.415726 0.908643 0.0392371
-34.3059 77.5127 -6.79713 -0.421039 0.906351 0.03541
-33.0906 78.0704 -6.81202 -0.411131 0.910875 0.0357452
-31.486 78.7749 -6.85098 -0.393132 0.919016 0.0292829
-30.1271 79.3514 -6.89168 -0.368527 0.92935 0.0222661
-28.8819 79.839 -6.91577 -0.358195 0.933448 0.0192339
-27.438 80.3801 -6.95395 -0.343064 0.939202 0.0143674
-26.2574 80.8025 -6.97935 -0.317925 0.948067 0.00958405
-24.8059 81.275 -7.0038 -0.297031 0.954741 0.0155386
-23.2473 81.7475 -7.03478 -0.278299 0.960427 0.0114202
-21.8877 82.111 -7.07434 -0.232296 0.972645 -0.000929913
-20.2766 82.4612 -7.10318 -0.200635 0.979655 0.00470481
-18.9817 82.7104 -7.11803 -0.179695 0.983711 0.00464896
-17.2482 82.9916 -7.15894 -0.12427 0.992229 0.00628784
-15.6871 83.1583 -7.21946 -0.0936339 0.995507 0.0140694
-14.3696 83.2487 -7.27621 -0.0288734 0.999301 0.0237295
-12.9233 83.2411 -7.31194 0.0358485 0.999311 -0.00957064
-11.5594 83.1805 -7.324 0.0574057 0.998349 0.00211685
-9.70092 83.044 -7.34613 0.086059 0.996207 -0.0128516
-8.2279 82.8367 -7.36906 0.166466 0.986023 -0.00690759
-6.97968 82.612 -7.39004 0.200563 0.979299 -0.0273321
-5.59328 82.2818 -7.4174 0.244712 0.969375 -0.0206923
-4.3422 81.9477 -7.44594 0.28132 0.959553 -0.0108278
-2.842 81.4654 -7.48804 0.312766 0.949678 -0.0169836
-1.41367 80.9498 -7.52821 0.349066 0.936996 -0.0138127
0.0849505 80.3834 -7.56426 0.358619 0.93344 -0.00907124
1.43794 79.8261 -7.59057 0.395439 0.918352 -0.0160488
3.0862 79.0985 -7.62462 0.41973 0.907608 -0.00860789
4.23445 78.5597 -7.64151 0.426311 0.90444 -0.0157151
5.73703 77.8379 -7.66295 0.444531 0.895566 -0.0188313
7.05811 77.1767 -7.68452 0.453366 0.891116 -0.0192826
8.32062 76.5274 -7.70284 0.460663 0.887372 -0.0189738
9.68631 75.8158 -7.72887 0.462869 0.886104 -0.0239078
11.0566 75.0769 -7.75138 0.478875 0.877645 -0.0204243
12.2148 74.4408 -7.76108 0.484394 0.874638 -0.0192639
13.3671 73.8003 -7.76945 0.488782 0.87209 -0.0234615
14.9988 72.8678 -7.7938 0.497645 0.867137 -0.0205663
16.1441 72.2056 -7.82693 0.503115 0.864012 -0.0189562
17.2935 71.5304 -7.9205 0.506829 0.861837 -0.0189762
17.4504 71.4377 -7.93645 0.506665 0.861939 -0.018767
17.597 71.3737 -6.9892 0.508545 0.8608 -0.0201408
16.1903 72.2003 -6.86764 0.502515 0.864308 -0.0212254
14.8304 72.9872 -6.83306 0.497612 0.867157 -0.0205181
13.7042 73.6331 -6.82202 0.495402 0.868446 -0.0194298
12.2597 74.4373 -6.80703 0.484521 0.874553 -0.0199113
11.1287 75.0582 -6.80103 0.478195 0.878047 -0.0190396
10.0266 75.6573 -6.78435 0.468182 0.883466 -0.0171148
8.64287 76.3806 -6.7524 0.461967 0.886701 -0.0186375
7.29179 77.077 -6.73111 0.454788 0.890453 -0.0161752
6.16744 77.6441 -6.70754 0.444927 0.895376 -0.0185067
4.98076 78.222 -6.68537 0.430138 0.902667 -0.0131517
3.67196 78.8383 -6.66431 0.422685 0.906171 -0.0138683
2.13333 79.5388 -6.639 0.406069 0.91379 -0.00976383
0.832578 80.0895 -6.6056 0.374346 0.927286 -0.00228659
-0.373862 80.5664 -6.5794 0.357699 0.933836 -0.00123797
-1.56602 81.023 -6.54966 0.353396 0.935425 -0.00960664
-2.83603 81.4774 -6.51207 0.312562 0.949865 -0.00784496
-4.08131 81.875 -6.47837 0.288965 0.95734 -0.00022144
-5.48258 82.2627 -6.43998 0.246273 0.969193 -0.00376424
-6.8688 82.6002 -6.41455 0.205531 0.978633 0.00593975
-8.24729 82.8478 -6.38544 0.150892 0.988501 -0.00983974
-9.74261 83.0464 -6.36268 0.0912946 0.995793 0.00778589
-11.2282 83.152 -6.33424 0.0507902 0.998691 0.0060217
-12.7112 83.2223 -6.31576 0.0366445 0.999042 0.023904
-14.1127 83.2357 -6.29558 -0.00802098 0.999402 0.0336352
-15.4547 83.1656 -6.24463 -0.0786904 0.99677 0.0160215
-16.8813 83.0195 -6.19588 -0.105122 0.994396 0.0111812
-18.2808 82.8318 -6.15161 -0.147032 0.989027 0.0143598
-19.6619 82.5834 -6.12321 -0.187438 0.98221 -0.0113938
-21.1766 82.2641 -6.10934 -0.211356 0.977372 0.00853583
-22.7077 81.8825 -6.08462 -0.255647 0.966739 0.00782366
-24.1248 81.4691 -6.05768 -0.292177 0.956227 0.0161898
-25.7273 80.9691 -6.03892 -0.308093 0.951247 0.0144195
-26.9661 80.5372 -5.99074 -0.340477 0.9401 0.0169675
-28.1674 80.0903 -5.9806 -0.351488 0.935902 0.0233077
-29.7772 79.466 -5.96603 -0.373374 0.927298 0.0266605
-30.9396 78.981 -5.9271 -0.390896 0.919852 0.0327431
-32.2229 78.4229 -5.9063 -0.404634 0.913873 0.0332844
-33.8867 77.669 -5.88324 -0.41778 0.907816 0.0364641
-34.5378 77.3692 -5.88043 -0.42104 0.90635 0.0354188
-35.062 77.0901 -4.9421 -0.426061 0.90421 0.0296092
-33.6515 77.747 -4.96669 -0.416909 0.908446 0.0302066
-32.4753 78.2798 -4.98131 -0.406072 0.913356 0.0297559
-30.932 78.9521 -4.99643 -0.392028 0.919397 0.0319814
-29.6646 79.4845 -5.03375 -0.373366 0.927301 0.026667
-27.8902 80.1747 -5.02809 -0.351682 0.935963 0.017106
-26.4786 80.6904 -5.05062 -0.331847 0.943203 0.0156796
-25.1086 81.1515 -5.08528 -0.299339 0.954075 0.0117415
-23.5024 81.6419 -5.11056 -0.283701 0.958796 0.0149827
-22.2257 82.0021 -5.11022 -0.255642 0.96674 0.00783242
-20.8063 82.3473 -5.12968 -0.224971 0.974365 0.00105236
-19.551 82.6127 -5.14607 -0.197385 0.980288 -0.0086236
-17.799 82.8965 -5.18814 -0.13285 0.991133 0.00241753
-16.5236 83.0534 -5.21249 -0.111468 0.993754 0.00529255
-15.2702 83.1675 -5.25784 -0.0748628 0.997192 0.00169772
-13.6916 83.221 -5.29476 -0.0095144 0.999954 -0.00128797
-12.2368 83.1903 -5.32323 0.0353009 0.999359 0.00601082
-10.8772 83.1329 -5.34524 0.0640179 0.997928 0.00645947
-9.43547 83.0059 -5.36461 0.10909 0.993938 0.0136407
-8.07266 82.8266 -5.38768 0.156929 0.987609 0.00118327
-6.73741 82.5643 -5.42633 0.219932 0.975446 -0.0116503
-5.43927 82.2542 -5.45882 0.255163 0.966895 -0.00228921
-4.20177 81.912 -5.49165 0.282657 0.959211 -0.00432941
-2.47139 81.3564 -5.54423 0.327343 0.944889 0.00559343
-0.935946 80.7865 -5.58841 0.360313 0.932832 2.48575e-05
0.300522 80.3041 -5.61627 0.371998 0.928233 0.000610175
1.63029 79.7595 -5.65149 0.390542 0.920584 -0.00132893
2.8399 79.2299 -5.6783 0.40997 0.912067 -0.00766631
4.05911 78.6716 -5.70138 0.423766 0.905687 -0.0123528
5.2751 78.096 -5.72784 0.429755 0.902852 -0.0129954
6.68775 77.4 -5.76157 0.447309 0.894286 -0.0129643
7.90442 76.7817 -5.78595 0.455231 0.890203 -0.0174091
9.13896 76.1429 -5.81295 0.46293 0.886177 -0.0196426
10.26 75.5486 -5.83699 0.472552 0.8812 -0.0134687
11.6231 74.8083 -5.85637 0.4799 0.877134 -0.0182387
12.9578 74.0719 -5.86171 0.484921 0.874332 -0.0198804
14.1696 73.3882 -5.87786 0.495461 0.868446 -0.0179087
15.3968 72.684 -5.88754 0.499662 0.865992 -0.019891
16.8936 71.8116 -5.95233 0.505808 0.862398 -0.0206965
17.4402 71.4887 -6.01383 0.511078 0.859325 -0.0189675
17.7187 71.3438 -5.08919 0.510801 0.859464 -0.0200849
16.2207 72.2269 -4.94996 0.502315 0.864447 -0.0202538
15.1301 72.8605 -4.93651 0.495297 0.868332 -0.0260894
14.014 73.4954 -4.92074 0.492535 0.870117 -0.0174972
12.7804 74.19 -4.91481 0.48617 0.8737 -0.0169357
11.5716 74.8561 -4.90521 0.479723 0.877228 -0.0183456
10.261 75.5645 -4.88808 0.471307 0.881788 -0.0178843
9.14742 76.1574 -4.86367 0.464688 0.885326 -0.0161914
7.7264 76.89 -4.8282 0.452447 0.891698 -0.0128779
6.42522 77.5499 -4.79723 0.449906 0.892947 -0.0151419
5.10018 78.1977 -4.7616 0.42585 0.904668 -0.015105
3.81907 78.7944 -4.72789 0.420604 0.907203 -0.0087148
2.4174 79.4286 -4.6971 0.402973 0.915163 -0.0094034
1.05937 79.9982 -4.6565 0.374071 0.927395 -0.00308001
-0.105455 80.4707 -4.62526 0.362324 0.932004 -0.0094551
-1.62406 81.0426 -4.58244 0.348487 0.937296 0.00580853
-2.8492 81.4759 -4.55133 0.317497 0.948251 -0.00403006
-4.35959 81.9605 -4.50156 0.29736 0.954746 -0.00604285
-5.74445 82.3309 -4.46034 0.252746 0.967512 0.00639244
-7.09614 82.6547 -4.42065 0.205404 0.978656 0.00647171
-8.44703 82.8901 -4.38323 0.12811 0.99176 -0.000864653
-10.0901 83.0675 -4.3524 0.082383 0.99659 -0.00465121
-11.4696 83.1658 -4.33791 0.0467915 0.998858 -0.00965168
-12.7592 83.2046 -4.31149 0.0155523 0.999809 -0.0118187
-14.0439 83.2188 -4.27861 -0.0335639 0.99937 -0.0115309
-15.3155 83.1624 -4.24164 -0.057955 0.99828 0.00884978
-16.9724 82.9972 -4.19449 -0.101509 0.994831 0.00253379
-18.3876 82.8156 -4.17883 -0.145463 0.989355 0.00411763
-19.7731 82.5677 -4.16242 -0.210512 0.977484 0.0144846
-20.9974 82.2976 -4.1485 -0.222026 0.974994 0.00954536
-22.6382 81.8713 -4.14397 -0.268275 0.963209 0.0160143
-24.133 81.4464 -4.13454 -0.291072 0.956662 0.00864207
-25.4924 81.0084 -4.11515 -0.314137 0.949294 0.0126168
-26.8466 80.5434 -4.09873 -0.331659 0.943155 0.0214783
-28.356 79.9829 -4.0894 -0.361062 0.932354 0.0187354
-29.8799 79.3687 -4.08966 -0.382087 0.9238 0.0245611
-31.4974 78.6834 -4.07236 -0.391976 0.919678 0.0234017
-33.0404 77.997 -4.04737 -0.413212 0.910279 0.0254641
-34.6244 77.2684 -4.04107 -0.422669 0.905919 0.0257201
-35.3054 76.9475 -4.04676 -0.42638 0.904179 0.0257151
-35.706 76.7333 -3.15787 -0.42626 0.904232 0.0258388
-34.5648 77.271 -3.15289 -0.422664 0.905922 0.0257198
-33.0159 77.9841 -3.13379 -0.418118 0.907988 0.0271029
-31.6507 78.5918 -3.14516 -0.401516 0.915507 0.0251416
-30.2661 79.1829 -3.14133 -0.385008 0.92253 0.0265854
-28.9387 79.7241 -3.14712 -0.373988 0.927091 0.0252162
-27.692 80.2135 -3.16064 -0.354044 0.934917 0.0241386
-26.4137 80.6768 -3.16562 -0.334529 0.942191 0.0191456
-24.6869 81.2599 -3.16028 -0.31218 0.949915 0.0143121
-23.2333 81.6966 -3.17888 -0.270238 0.962729 0.0111632
-21.7587 82.0936 -3.17041 -0.241403 0.970387 0.00860234
-20.1822 82.4637 -3.16102 -0.209697 0.977638 0.0158414
-18.839 82.7258 -3.16423 -0.172741 0.984791 0.0186239
-17.5505 82.9302 -3.17163 -0.138466 0.990298 -0.0116726
-16.3039 83.074 -3.20743 -0.0916883 0.995665 -0.0156622
-15.0531 83.181 -3.24457 -0.0657476 0.997825 -0.0046513
-13.501 83.2277 -3.29297 -0.000483994 0.999973 -0.0073825
-12.0613 83.2026 -3.32205 0.0341943 0.999373 -0.00917191
-10.6114 83.1146 -3.34246 0.0678429 0.997688 -0.00392369
-9.28699 82.9966 -3.36236 0.118951 0.992882 0.0060315
-7.89137 82.7966 -3.40403 0.146346 0.988909 0.0253264
-6.53099 82.528 -3.4399 0.226527 0.973955 0.00991679
-5.28949 82.2053 -3.48058 0.259934 0.965569 0.0105508
-4.03367 81.8558 -3.53519 0.304306 0.952483 0.0131872
-2.74069 81.4359 -3.56629 0.318945 0.947757 0.00557365
-1.18654 80.8807 -3.61011 0.345887 0.938265 -0.00452797
0.443658 80.261 -3.66012 0.36902 0.929209 -0.0198582
1.64555 79.7691 -3.69973 0.388609 0.921277 -0.0152038
2.94793 79.2048 -3.74086 0.40297 0.915165 -0.00940095
4.12772 78.6621 -3.76911 0.41889 0.907961 -0.0117721
5.3603 78.0839 -3.80745 0.436715 0.899579 -0.00619453
6.55366 77.4978 -3.84254 0.450803 0.892546 -0.0117543
7.78175 76.8755 -3.87624 0.452691 0.891579 -0.0125824
9.2778 76.1055 -3.9174 0.463971 0.885736 -0.0142737
10.7506 75.3198 -3.95562 0.473272 0.880764 -0.016393
11.8652 74.7155 -3.9721 0.479698 0.877232 -0.018814
13.2339 73.9553 -3.98353 0.489101 0.87207 -0.0165665
14.3306 73.3372 -3.97954 0.491642 0.870604 -0.0183411
15.4675 72.6869 -4.00008 0.498368 0.866806 -0.0166482
16.6475 72.0004 -4.01871 0.503669 0.863673 -0.0196771
17.6966 71.3817 -4.10573 0.511447 0.859018 -0.0225788
17.5237 71.5079 -3.13415 0.506315 0.862 -0.0245184
16.3379 72.2015 -3.08721 0.501791 0.864741 -0.0206892
15.2051 72.8572 -3.06808 0.497199 0.867463 -0.0173838
13.7171 73.702 -3.05414 0.490658 0.871199 -0.0163546
12.5256 74.3687 -3.04358 0.485708 0.874004 -0.0143368
11.1044 75.1483 -3.02096 0.474281 0.880135 -0.0204722
9.99885 75.7395 -2.99079 0.467581 0.88385 -0.0133097
8.88057 76.3259 -2.95786 0.459767 0.887923 -0.0144122
7.73 76.9174 -2.92233 0.454337 0.890719 -0.01407
6.33074 77.6203 -2.8775 0.440788 0.897578 -0.00772047
5.00391 78.2644 -2.83502 0.435304 0.900254 -0.00723353
3.85769 78.7989 -2.79655 0.418706 0.908054 -0.0110845
2.61819 79.3605 -2.75904 0.404519 0.914487 -0.00883211
1.14693 79.9879 -2.70514 0.381701 0.924277 -0.00409293
-0.433047 80.6082 -2.65263 0.345017 0.938586 -0.00441436
-1.71996 81.0811 -2.607 0.345159 0.938539 -0.00295882
-3.06419 81.5404 -2.56695 0.313461 0.949588 -0.00501994
-4.84374 82.0881 -2.51294 0.272376 0.96219 -0.00136543
-6.37258 82.4811 -2.4504 0.231226 0.97276 -0.0165013
-7.88618 82.7787 -2.40914 0.162232 0.986599 0.0174288
-9.36601 82.9972 -2.3666 0.144457 0.989483 0.00746682
-10.7817 83.1385 -2.33214 0.0797785 0.99676 -0.0102152
-12.267 83.219 -2.30393 0.0341943 0.999373 -0.0091719
-14.2714 83.2336 -2.26696 -0.00284077 0.999963 -0.00815123
-15.7729 83.132 -2.22744 -0.0827045 0.996558 0.00570645
-17.0316 83.0043 -2.16288 -0.137882 0.990366 0.0128085
-18.3213 82.8043 -2.15419 -0.157656 0.987389 0.0143871
-19.881 82.5098 -2.16445 -0.200633 0.979381 0.0236386
-21.2901 82.1947 -2.18794 -0.228396 0.973383 0.0190046
-22.5907 81.8629 -2.20294 -0.266058 0.963898 0.0106884
-23.8787 81.4951 -2.20555 -0.286288 0.958135 0.00399499
-25.4969 80.9773 -2.20401 -0.313739 0.949355 0.0171054
-26.7216 80.5518 -2.20906 -0.343262 0.938997 0.0213729
-28.0761 80.0425 -2.20245 -0.349835 0.936547 0.022255
-29.3408 79.5402 -2.20355 -0.383716 0.923263 0.018653
-30.9585 78.8621 -2.21918 -0.391797 0.919666 0.0266217
-32.318 78.274 -2.23116 -0.403182 0.914717 0.0271449
-33.6707 77.6594 -2.24572 -0.417192 0.908575 0.0210144
-34.8395 77.1179 -2.2735 -0.424239 0.905211 0.0247793
-36.0127 76.5609 -2.272 -0.429806 0.902493 0.027784
-36.0934 76.5226 -2.26894 -0.4279 0.90338 0.0283972
-36.3 76.3969 -1.38349 -0.432696 0.901013 0.0308348
-35.1008 76.9716 -1.39045 -0.425977 0.904421 0.0237938
-33.8889 77.5349 -1.34764 -0.422488 0.906011 0.0254532
-32.7178 78.0682 -1.32773 -0.409306 0.911963 0.0281442
-31.448 78.6293 -1.31148 -0.397095 0.917559 0.0199978
-30.0774 79.2156 -1.2768 -0.383497 0.923361 0.0183096
-28.7658 79.7545 -1.26147 -0.372435 0.927911 0.0165321
-27.0036 80.4241 -1.25664 -0.348005 0.937349 0.0163996
-25.7759 80.8662 -1.24553 -0.319718 0.947469 0.00910351
-24.5327 81.2894 -1.24566 -0.306974 0.95169 0.00735175
-23.1086 81.708 -1.23859 -0.266203 0.963838 0.0123415
-21.7612 82.0771 -1.21485 -0.262733 0.964752 0.0149972
-20.3568 82.4025 -1.17333 -0.210389 0.977615 0.00220136
-18.8295 82.7114 -1.14797 -0.175949 0.984373 0.0071448
-17.1658 82.9749 -1.16878 -0.136261 0.990659 0.00530859
-15.6847 83.1285 -1.2278 -0.0724317 0.997332 0.00905384
-14.0604 83.2203 -1.25033 -0.0177949 0.999692 0.0173201
-12.5952 83.2212 -1.287 0.0266649 0.999608 0.00851113
-11.2775 83.1662 -1.3169 0.0575988 0.99827 0.0118344
-9.94238 83.0708 -1.33921 0.113568 0.993516 -0.00527446
-8.61482 82.893 -1.39355 0.13799 0.990433 -0.000510667
-7.15329 82.6459 -1.43661 0.187491 0.982228 0.00864703
-5.34668 82.2231 -1.50464 0.262543 0.964779 -0.0165063
-4.07386 81.8694 -1.53991 0.292759 0.956185 0.00161165
-2.8787 81.4844 -1.57835 0.313454 0.94959 -0.00502765
-1.62634 81.0603 -1.62504 0.332843 0.942863 -0.0149646
-0.269347 80.5638 -1.67548 0.361638 0.932283 -0.00814573
1.06226 80.0297 -1.72323 0.382475 0.923859 -0.0140548
2.22603 79.5435 -1.77549 0.394157 0.919026 -0.00552615
3.61942 78.9186 -1.82146 0.413646 0.910416 -0.00624602
4.93112 78.3083 -1.86886 0.42981 0.902858 -0.0104702
6.49654 77.5472 -1.92733 0.440278 0.89783 -0.00744792
7.7748 76.9085 -1.974 0.452705 0.891607 -0.00975405
8.99637 76.2804 -2.01449 0.461167 0.887219 -0.0129514
10.4517 75.514 -2.05691 0.468118 0.883554 -0.0140325
11.6568 74.8661 -2.09339 0.481623 0.876232 -0.0160233
12.8291 74.2151 -2.1168 0.487287 0.873113 -0.015028
13.987 73.5664 -2.13044 0.490013 0.871581 -0.0152707
15.0797 72.9502 -2.14531 0.495519 0.868215 -0.025761
16.2154 72.2967 -2.16164 0.500408 0.865489 -0.0228198
17.4336 71.5873 -2.18123 0.502068 0.864482 -0.0244674
17.5607 71.5135 -2.18288 0.505282 0.862533 -0.0269623
17.697 71.462 -1.25603 0.503876 0.863378 -0.0261962
16.5592 72.1227 -1.24128 0.500175 0.865549 -0.0255058
15.3468 72.8196 -1.23078 0.498508 0.866726 -0.0166296
13.9893 73.5848 -1.21515 0.488917 0.872119 -0.0192168
12.8707 74.2079 -1.18753 0.486032 0.873786 -0.0164964
11.708 74.8509 -1.15954 0.480664 0.876831 -0.0113771
10.3958 75.5574 -1.11503 0.470856 0.882134 -0.0115389
9.14171 76.2178 -1.07294 0.462149 0.886734 -0.0110244
7.78647 76.9147 -1.02087 0.451288 0.892286 -0.0128442
6.41183 77.598 -0.965404 0.440089 0.897855 -0.0133191
4.86874 78.3492 -0.901446 0.42981 0.902858 -0.0104702
3.59549 78.9361 -0.852814 0.413644 0.910417 -0.00623697
2.18238 79.5686 -0.799236 0.408033 0.912962 -0.00299757
0.898481 80.1136 -0.740116 0.385087 0.922668 -0.0197875
-0.388029 80.6146 -0.690297 0.360609 0.932715 -0.00193546
-1.99369 81.2021 -0.626021 0.323318 0.946219 -0.0116505
-3.75092 81.7677 -0.557151 0.304056 0.952636 -0.00582536
-5.26048 82.2116 -0.510606 0.26585 0.964014 0.000972257
-6.60025 82.5255 -0.459146 0.195801 0.98062 0.0068799
-8.11405 82.8121 -0.411262 0.176069 0.984367 0.00461474
-9.77085 83.0528 -0.356835 0.116971 0.993134 -0.00131982
-11.2767 83.172 -0.306013 0.0543197 0.998489 -0.00830303
-12.5552 83.226 -0.270329 0.0299672 0.999528 -0.00682622
-14.2783 83.2122 -0.221535 -0.0418855 0.999086 0.00849017
-16.0505 83.0811 -0.19357 -0.0933922 0.995518 0.0148635
-17.6757 82.8867 -0.165896 -0.155438 0.987821 0.00702342
-18.9351 82.6853 -0.157565 -0.17594 0.984375 0.00714542
-20.202 82.4335 -0.171886 -0.210393 0.977614 0.00219341
-21.5434 82.123 -0.231615 -0.245097 0.969389 0.0145914
-22.8793 81.7578 -0.265264 -0.270243 0.962692 0.0138776
-24.5376 81.2648 -0.284285 -0.309976 0.950643 0.0139046
-26.0142 80.7635 -0.299783 -0.334209 0.942419 0.0122557
-27.249 80.3185 -0.314462 -0.3485 0.937213 0.0133838
-28.5395 79.8276 -0.319593 -0.356012 0.934319 0.0173939
-29.7426 79.3329 -0.344233 -0.381493 0.92411 0.0220097
-31.095 78.7615 -0.377217 -0.399239 0.916709 0.0159167
-32.2846 78.2435 -0.404095 -0.410081 0.911851 0.0190127
-33.523 77.6802 -0.430039 -0.417999 0.908134 0.023883
-34.9577 77.0152 -0.487313 -0.425975 0.904422 0.023803
-36.2634 76.3869 -0.499668 -0.436497 0.899279 0.0277009
-36.6375 76.2046 -0.491197 -0.437902 0.898577 0.0282924
-36.7638 76.1153 0.394453 -0.438862 0.898159 0.0266498
-35.6282 76.6677 0.400324 -0.434338 0.900433 0.023884
-34.4161 77.2436 0.425154 -0.423179 0.905696 0.0251861
-32.9149 77.9321 0.487956 -0.414787 0.90957 0.0251689
-31.6738 78.4898 0.522677 -0.405016 0.913968 0.0250084
-30.3669 79.0496 0.560654 -0.386136 0.922292 0.0166497
-29.036 79.6023 0.595883 -0.381625 0.92406 0.0218223
-27.6904 80.1331 0.621819 -0.356519 0.934106 0.0184609
-26.4981 80.5776 0.641794 -0.335992 0.941754 0.014447
-25.1826 81.0329 0.665435 -0.321901 0.946659 0.014712
-23.8912 81.4467 0.688052 -0.287873 0.957342 0.025019
-22.4842 81.8533 0.721375 -0.268282 0.963236 0.0141912
-21.0608 82.2197 0.769187 -0.23663 0.971589 0.00449425
-19.5694 82.5512 0.818845 -0.197985 0.980136 0.0116705
-18.2308 82.7891 0.825722 -0.164217 0.986325 0.0139637
-16.805 83.0005 0.815031 -0.126688 0.991817 0.0158052
-15.4331 83.1313 0.826137 -0.075869 0.997099 0.00618014
-14.0859 83.2109 0.79715 -0.0364737 0.999266 0.0116998
-12.7319 83.2226 0.752273 0.0129875 0.999796 0.0154376
-11.2289 83.1763 0.702032 0.0579221 0.998315 -0.00335933
-9.94373 83.0623 0.642641 0.108479 0.994037 0.011084
-8.69206 82.8851 0.602293 0.146632 0.989113 0.0124394
-7.41618 82.6742 0.564459 0.19066 0.98164 0.00568024
-6.05349 82.4098 0.512767 0.190652 0.981637 0.00630803
-4.21304 81.9082 0.445794 0.283601 0.958848 -0.0134815
-2.82833 81.4854 0.396337 0.305748 0.952091 -0.00631963
-0.944478 80.8373 0.313137 0.341797 0.939756 -0.00581348
0.231765 80.3948 0.270231 0.377115 0.926159 -0.00362135
1.49638 79.8745 0.206793 0.390085 0.920773 -0.00319583
3.05134 79.1886 0.136754 0.408508 0.912713 -0.00874394
4.5276 78.5179 0.0792114 0.423022 0.906086 -0.00778198
5.91222 77.8542 0.0170539 0.435947 0.899903 -0.0111253
7.31132 77.1628 -0.0447669 0.44712 0.894404 -0.0111564
8.62922 76.4983 -0.103204 0.458773 0.888454 -0.0132627
9.90446 75.8306 -0.158002 0.465138 0.885119 -0.0145662
11.0724 75.2067 -0.20059 0.472005 0.881465 -0.0151897
12.2109 74.5898 -0.238448 0.479773 0.877242 -0.0162825
13.711 73.7603 -0.300209 0.484785 0.874448 -0.0180255
14.8188 73.1405 -0.307994 0.48892 0.87209 -0.0203929
16.2528 72.3236 -0.312773 0.495976 0.868038 -0.0227607
17.5658 71.5701 -0.318241 0.497203 0.867234 -0.0263537
17.6006 71.5502 -0.318235 0.500123 0.865485 -0.0285033
17.727 71.5072 0.62265 0.495614 0.868052 -0.0292118
16.4728 72.2249 0.619624 0.494853 0.868567 -0.0266649
15.306 72.8889 0.616388 0.492489 0.870003 -0.0234621
14.206 73.5061 0.621083 0.486206 0.873614 -0.0200299
13.026 74.1601 0.666833 0.482558 0.875698 -0.0170765
11.7119 74.878 0.718125 0.474788 0.879981 -0.0145025
10.5098 75.5243 0.768096 0.471605 0.881688 -0.0146658
9.20453 76.2124 0.824447 0.461328 0.887167 -0.0105181
8.05733 76.7992 0.877666 0.449558 0.893207 -0.00890445
6.90157 77.3766 0.933734 0.44361 0.8962 -0.00594849
5.535 78.0466 1.00006 0.437966 0.898957 -0.00787486
4.1712 78.6906 1.0652 0.415176 0.909721 -0.0061088
2.90998 79.2567 1.1167 0.403336 0.915049 -0.00234166
1.64867 79.8096 1.17436 0.388967 0.921245 0.00347784
0.291963 80.3681 1.24153 0.37031 0.928902 0.00324153
-1.08929 80.8961 1.31054 0.339542 0.940554 -0.00825892
-2.28539 81.3186 1.36269 0.320994 0.946978 -0.0140024
-3.66318 81.7581 1.42848 0.285206 0.958396 -0.0115777
-4.95911 82.1292 1.47862 0.245388 0.969421 0.00255848
-6.43633 82.4783 1.5197 0.192059 0.981363 0.00635994
-7.85498 82.735 1.58252 0.167306 0.985902 0.002471
-9.19528 82.9467 1.62551 0.131589 0.990881 0.0289624
-10.6149 83.1131 1.68123 0.111194 0.993229 0.0336318
-11.9185 83.1958 1.73788 0.0342291 0.999226 0.0193763
-13.2782 83.2078 1.78626 -0.0158004 0.999825 0.00998568
-14.7341 83.167 1.82734 -0.0588115 0.998265 0.00291033
-16.1981 83.0454 1.83212 -0.103628 0.994446 0.018372
-17.8153 82.8404 1.81989 -0.146477 0.98914 0.0120693
-19.2314 82.6089 1.79926 -0.202249 0.979269 0.0112471
-20.7759 82.274 1.7491 -0.222709 0.97428 0.034332
-22.1219 81.9312 1.70017 -0.265328 0.96372 0.0290648
-23.7443 81.4672 1.65861 -0.28397 0.9587 0.0159927
-25.039 81.0618 1.62358 -0.311516 0.950087 0.0171306
-26.4714 80.5707 1.58637 -0.340248 0.940139 0.0192413
-27.6497 80.1327 1.55936 -0.357922 0.933622 0.0155532
-28.9719 79.611 1.52286 -0.382199 0.924015 0.0110085
-30.3669 79.0311 1.48301 -0.390662 0.920252 0.0228038
-31.6924 78.4585 1.43623 -0.406408 0.913428 0.0219707
-33.0686 77.8415 1.37274 -0.413306 0.910446 0.0163097
-34.4688 77.197 1.31903 -0.426543 0.904324 0.0161084
-35.761 76.5775 1.29804 -0.436793 0.899327 0.0205727
-36.8583 76.0415 1.28239 -0.445165 0.895102 0.0249213
-36.8297 76.0317 2.15177 -0.445408 0.894988 0.024649
-35.5759 76.6473 2.17651 -0.435441 0.899958 0.0216062
-34.3434 77.2378 2.21977 -0.430062 0.902546 0.0213949
-33.1716 77.7828 2.27031 -0.416835 0.908934 0.00940514
-31.9246 78.3399 2.33337 -0.401185 0.915864 0.0156017
-30.5498 78.9349 2.39798 -0.392417 0.91971 0.0119555
-29.2411 79.4866 2.44767 -0.384583 0.922952 0.015979
-28.0619 79.9586 2.48702 -0.358204 0.933507 0.0159601
-26.8392 80.4171 2.52072 -0.345252 0.938214 0.0235521
-25.4362 80.9112 2.56361 -0.317683 0.947814 0.0269275
-24.1901 81.3147 2.60984 -0.301218 0.953325 0.0209716
-22.9011 81.698 2.64624 -0.267313 0.963444 0.0178893
-21.4822 82.0789 2.68915 -0.252696 0.96712 0.0286881
-20.0433 82.4194 2.7433 -0.225975 0.973991 0.0166475
-18.7229 82.6845 2.78584 -0.162297 0.986331 0.0284638
-17.4616 82.8769 2.81327 -0.137859 0.990227 0.0210828
-15.7096 83.0753 2.83047 -0.0964083 0.995121 0.0209801
-14.2766 83.1703 2.82429 -0.0458416 0.99866 0.0240108
-12.992 83.1998 2.79462 0.0127406 0.999909 0.00433529
-11.5094 83.1596 2.73339 0.0599365 0.998156 0.00965259
-10.2277 83.048 2.68375 0.107554 0.994181 0.00601066
-8.61553 82.8584 2.62349 0.143586 0.989613 0.00703176
-7.08347 82.5984 2.55952 0.181895 0.983278 0.00888366
-5.68778 82.3064 2.51377 0.245545 0.969355 0.0076171
-4.2556 81.9331 2.44728 0.278249 0.960484 0.00700666
-2.82493 81.4994 2.37681 0.305806 0.95209 0.00256473
-1.50222 81.0485 2.31645 0.348656 0.937088 -0.017475
0.00290112 80.4797 2.23722 0.357411 0.933941 -0.003345
1.25337 79.9762 2.17336 0.381097 0.924508 -0.00706388
2.48736 79.4474 2.11375 0.396018 0.918221 -0.0063296
3.7281 78.8985 2.05914 0.40731 0.913277 -0.00485324
5.05774 78.2866 1.99358 0.422782 0.906217 -0.00510734
6.61167 77.5284 1.91268 0.443879 0.89604 -0.00913526
8.04111 76.8165 1.8401 0.447199 0.894372 -0.0106284
9.17911 76.2372 1.78349 0.459004 0.888393 -0.00860197
10.8224 75.3721 1.70755 0.47016 0.882505 -0.0115952
11.9559 74.7622 1.65672 0.474908 0.879911 -0.0148281
13.1258 74.1242 1.60665 0.48024 0.876945 -0.0183604
14.2663 73.4927 1.56426 0.483406 0.875201 -0.0184651
15.4885 72.8079 1.55407 0.490883 0.870998 -0.0198925
16.7956 72.0699 1.56148 0.495187 0.86834 -0.0278289
17.4795 71.6813 1.57498 0.492063 0.870007 -0.0310136
17.5124 71.696 2.53145 0.490329 0.871012 -0.0302403
16.3131 72.3689 2.49373 0.489298 0.87178 -0.0242039
15.0631 73.0694 2.49346 0.486299 0.873579 -0.0193228
13.8564 73.7386 2.5247 0.483997 0.874922 -0.0161061
12.5922 74.4319 2.58256 0.478831 0.877815 -0.012714
11.4236 75.0648 2.63898 0.471364 0.881847 -0.0127689
10.1738 75.728 2.69832 0.46328 0.886182 -0.00725561
9.01819 76.3296 2.75373 0.45921 0.888288 -0.00838293
7.63326 77.032 2.82451 0.447121 0.894413 -0.0104257
6.23791 77.7236 2.90257 0.443649 0.89615 -0.00955808
4.78774 78.4181 2.98128 0.422787 0.906215 -0.00510564
3.55193 78.9863 3.04405 0.40414 0.914628 -0.0112061
2.10228 79.6198 3.11389 0.393605 0.919212 -0.0111501
0.663732 80.2197 3.18636 0.369098 0.929347 -0.00902109
-0.580115 80.7032 3.24782 0.352657 0.935751 0.00203756
-2.15318 81.2762 3.32956 0.328673 0.944328 0.0148059
-3.74598 81.7806 3.41169 0.287513 0.957533 0.0215975
-4.97535 82.1235 3.48224 0.256863 0.966428 0.00617506
-6.227 82.4196 3.54256 0.207803 0.978059 0.0147774
-7.56476 82.6713 3.60019 0.178061 0.983967 -0.0101228
-9.01569 82.9094 3.66881 0.135472 0.990781 0.000898003
-10.2685 83.0505 3.71585 0.0987479 0.995112 -0.000118303
-12.0344 83.1679 3.77939 0.0659607 0.997369 0.0300638
-13.4938 83.1863 3.81484 -0.0502552 0.998642 0.0136969
-14.8485 83.1153 3.82716 -0.0588149 0.997776 0.0313739
-16.1794 83.0132 3.82618 -0.103334 0.994434 0.0205794
-17.5584 82.8461 3.79698 -0.126951 0.991849 0.0109488
-18.9533 82.622 3.74984 -0.197095 0.980277 0.014513
-20.2166 82.3624 3.70481 -0.210177 0.977582 0.0126031
-21.6821 81.9982 3.6508 -0.252689 0.967122 0.028679
-23.0748 81.6318 3.61001 -0.271643 0.962218 0.0186449
-24.5509 81.1734 3.55193 -0.312681 0.949589 0.0226226
-25.7691 80.7703 3.50345 -0.325948 0.945076 0.0242609
-27.0904 80.3015 3.45847 -0.345264 0.938229 0.0227813
-28.2634 79.8578 3.41897 -0.362627 0.931533 0.0273355
-29.4624 79.3746 3.37258 -0.381841 0.923955 0.0224591
-30.7228 78.8479 3.31316 -0.393791 0.919099 0.0136243
-31.9837 78.3004 3.25019 -0.406905 0.913264 0.0194218
-33.475 77.6285 3.17159 -0.416517 0.908955 0.0177402
-34.6062 77.0911 3.11424 -0.434368 0.900435 0.0232768
-35.8114 76.5096 3.06375 -0.442943 0.896222 0.0242391
-36.9967 75.9249 3.01422 -0.448274 0.893474 0.0274739
-36.851 75.9738 3.90733 -0.450656 0.892376 0.0239508
-35.5594 76.6088 3.97497 -0.436928 0.899209 0.0227232
-34.2654 77.2302 4.04484 -0.430443 0.902321 0.0231392
-32.5175 78.0438 4.14253 -0.415391 0.909409 0.0206241
-31.1762 78.6363 4.2218 -0.392738 0.919419 0.0206422
-29.8842 79.1795 4.2896 -0.385518 0.922433 0.0221886
-28.6791 79.6765 4.34477 -0.369526 0.929055 0.0175574
-27.1399 80.2584 4.40126 -0.349107 0.936985 0.013568
-25.9448 80.6936 4.4453 -0.332227 0.943137 0.0108364
-24.1731 81.2869 4.52777 -0.297306 0.954737 0.00928588
-22.845 81.6751 4.58321 -0.255773 0.96663 0.014403
-21.4622 82.0402 4.62656 -0.246527 0.969063 0.0119019
-19.9408 82.408 4.68474 -0.223722 0.974495 0.0175454
-18.4545 82.7074 4.74196 -0.196034 0.980587 0.0045499
-16.6648 82.9489 4.80578 -0.113669 0.993518 0.000871189
-15.3825 83.0671 4.83246 -0.0627506 0.997997 0.00805818
-14.095 83.1463 4.83425 -0.0598291 0.998161 0.00974286
-12.4666 83.1623 4.82078 0.00663403 0.999974 0.00275429
-10.6843 83.0912 4.78192 0.0710574 0.997471 -0.00175792
-9.06752 82.9153 4.70621 0.143707 0.989581 -0.00876464
-7.76572 82.7154 4.63725 0.184356 0.982859 -0.000447831
-6.14882 82.3958 4.55147 0.210052 0.977685 0.00309928
-4.89672 82.0976 4.47177 0.251153 0.967884 0.0110729
-3.33278 81.6489 4.38147 0.293989 0.955707 -0.0139202
-1.8009 81.1385 4.29633 0.328674 0.944328 0.0148059
-0.329214 80.6083 4.22231 0.354776 0.934951 0.00110273
1.29393 79.9674 4.13565 0.383115 0.923696 -0.00290938
2.80199 79.3248 4.05858 0.400551 0.916223 -0.00973068
3.95469 78.8162 3.99906 0.415104 0.90973 -0.00895921
5.12882 78.2663 3.93601 0.425831 0.904746 -0.0101707
6.89063 77.4108 3.83675 0.443349 0.896298 -0.00951611
8.0758 76.8218 3.76887 0.447904 0.893999 -0.0121511
9.21159 76.2422 3.71036 0.460925 0.88736 -0.0118322
10.4389 75.5999 3.6502 0.465114 0.885154 -0.0131115
11.9663 74.786 3.57315 0.474105 0.880385 -0.0120693
13.1766 74.1272 3.51132 0.479217 0.877591 -0.0136068
14.3895 73.4612 3.45924 0.483798 0.875005 -0.0174926
15.6368 72.7709 3.43653 0.486293 0.873582 -0.0193284
16.9006 72.0667 3.44143 0.488062 0.872434 -0.0255725
17.6989 71.6243 3.49293 0.486691 0.873082 -0.0293192
17.5656 71.7266 4.43538 0.483449 0.874955 -0.0270265
16.4018 72.369 4.39051 0.482028 0.875805 -0.0247792
15.1482 73.0618 4.39574 0.482077 0.875904 -0.0198715
13.8346 73.7845 4.43743 0.480306 0.876968 -0.0153008
12.4869 74.5197 4.51174 0.475581 0.879553 -0.0144626
10.966 75.3361 4.5951 0.47046 0.882337 -0.0122133
9.50339 76.1017 4.66581 0.45853 0.888644 -0.00782438
8.28472 76.7302 4.73121 0.452758 0.89158 -0.00980587
6.43856 77.6459 4.83897 0.440267 0.897808 -0.0102618
4.80504 78.4261 4.92742 0.426845 0.904312 -0.00492051
3.59391 78.9829 4.99482 0.411113 0.911579 -0.00315806
2.21808 79.5904 5.07257 0.390648 0.920511 -0.00735861
0.971862 80.1041 5.13788 0.382005 0.924151 -0.00417504
-0.440876 80.6524 5.21243 0.345625 0.938359 -0.00517217
-1.67875 81.0928 5.2764 0.331891 0.943318 0.000348378
-3.08108 81.5668 5.3559 0.302656 0.953095 0.00301106
-4.35193 81.9512 5.4284 0.273018 0.962006 0.00215253
-5.66449 82.2804 5.51953 0.230647 0.973001 -0.00839577
-7.47694 82.6622 5.64278 0.187092 0.982336 0.0035791
-8.84083 82.8909 5.72514 0.144596 0.989461 -0.00769463
-10.4926 83.083 5.80844 0.0940398 0.995472 -0.0138875
-11.8413 83.15 5.8419 0.0465615 0.998903 -0.00497856
-13.1541 83.164 5.84266 0.00663403 0.999974 0.00275429
-14.4601 83.113 5.835 -0.058591 0.998194 0.0132688
-15.9496 83.0179 5.81253 -0.069208 0.997563 0.00886307
-17.265 82.8756 5.7667 -0.117088 0.993121 0.000344893
-18.9642 82.5938 5.69155 -0.190599 0.981305 0.0267001
-20.4885 82.2697 5.63223 -0.219177 0.975647 0.00858988
-22.1236 81.8552 5.57166 -0.261027 0.965208 0.0154703
-23.4864 81.4729 5.51944 -0.28195 0.959255 0.0182847
-25.1444 80.9631 5.43693 -0.322666 0.946488 0.00691116
-26.6971 80.4056 5.36325 -0.339483 0.940507 0.0140899
-28.0397 79.9028 5.31098 -0.355844 0.934351 0.0190897
-29.6688 79.2518 5.23679 -0.384648 0.922916 0.0164849
-30.9144 78.7279 5.17337 -0.39543 0.918385 0.0142735
-32.1255 78.1998 5.09092 -0.405014 0.914015 0.0232602
-33.6415 77.5062 4.9943 -0.417108 0.908717 0.0159437
-34.8282 76.9394 4.91491 -0.432036 0.901626 0.0203939
-36.3416 76.2049 4.81894 -0.440017 0.897708 0.0224743
-36.6438 76.0543 4.80581 -0.448884 0.89334 0.0211225
-36.4362 76.1438 5.70006 -0.449085 0.89339 0.0133166
-34.9952 76.8457 5.80503 -0.434746 0.900459 0.0130131
-33.8194 77.4064 5.8874 -0.431096 0.902198 0.0139548
-32.6323 77.9519 5.98302 -0.414674 0.909796 0.0177719
-31.4528 78.4752 6.06843 -0.403802 0.914719 0.0153014
-30.2272 79.0025 6.13689 -0.387915 0.921621 0.0116508
-28.7731 79.5969 6.21815 -0.370224 0.928891 0.00976864
-27.5984 80.0526 6.27452 -0.356892 0.933998 0.0166082
-26.4218 80.4925 6.3248 -0.343999 0.93884 0.0156314
-25.0314 80.9863 6.40055 -0.319698 0.94731 0.0199111
-23.6429 81.4185 6.47222 -0.272675 0.962047 0.010699
-21.919 81.901 6.54419 -0.265181 0.964195 0.00258365
-20.6946 82.2121 6.59456 -0.219218 0.975575 0.0140531
-19.4691 82.4762 6.64508 -0.195814 0.980424 0.0206364
-18.0546 82.7375 6.70016 -0.151711 0.988112 0.0248647
-16.4838 82.9567 6.77854 -0.10725 0.99418 0.0102249
-14.8485 83.0751 6.81489 -0.0612839 0.998069 0.0101151
-13.3383 83.1471 6.83966 -0.0260978 0.999584 0.0123151
-11.9678 83.1542 6.84902 0.00811348 0.99996 0.00388794
-10.3062 83.0738 6.82615 0.0939544 0.995574 0.00225188
-8.98791 82.9178 6.7493 0.129533 0.99157 0.00331853
-7.52236 82.6707 6.65143 0.189683 0.981839 -0.00368233
-6.21823 82.4139 6.55892 0.199795 0.979768 -0.011674
-4.52893 81.9923 6.43862 0.261576 0.965153 0.00764285
-2.8219 81.4801 6.3316 0.304616 0.952462 0.00499574
-1.62049 81.0761 6.2613 0.337085 0.941466 -0.00399087
-0.249698 80.5868 6.18575 0.343789 0.939047 0.000258626
0.942214 80.1266 6.12549 0.381074 0.924467 -0.0119892
2.19029 79.6123 6.0572 0.390074 0.920711 -0.0115386
3.40057 79.0755 5.98607 0.408193 0.912885 -0.00439154
4.88901 78.3932 5.89823 0.423541 0.905819 -0.0102866
6.21718 77.7615 5.82523 0.434249 0.900736 -0.0101132
7.70615 77.0293 5.73952 0.448212 0.893902 -0.00678399
8.98324 76.3786 5.66595 0.456681 0.889587 -0.00880697
10.299 75.7015 5.59221 0.458873 0.888445 -0.0100746
11.558 75.0355 5.53015 0.472349 0.88128 -0.0152315
12.9482 74.2841 5.45382 0.477669 0.878412 -0.0149998
14.3519 73.5198 5.38628 0.477951 0.878246 -0.0157453
15.888 72.6764 5.34875 0.480272 0.876889 -0.0201226
17.1681 71.9744 5.35751 0.480012 0.876977 -0.022351
17.2241 71.9439 5.3591 0.480115 0.87687 -0.024257
17.4436 71.8493 6.32399 0.478149 0.877936 -0.0245169
16.2619 72.4943 6.31287 0.479312 0.877413 -0.0201603
15.0368 73.1642 6.33321 0.47809 0.878166 -0.0159529
13.8233 73.825 6.38183 0.476697 0.878961 -0.013662
12.7147 74.4259 6.44006 0.475997 0.879368 -0.0117629
11.4597 75.1008 6.50311 0.469368 0.882946 -0.00999271
9.98401 75.8746 6.58148 0.459748 0.888008 -0.0085762
8.78244 76.4924 6.65017 0.45536 0.890263 -0.00893213
7.23706 77.2769 6.74038 0.442717 0.89659 -0.0112746
6.04503 77.8553 6.80789 0.43552 0.900083 -0.0131284
4.83532 78.4268 6.87695 0.421841 0.906643 -0.00703257
3.29708 79.1311 6.96927 0.412384 0.910935 -0.0116762
2.14804 79.6402 7.03918 0.400807 0.916114 -0.00943401
0.779507 80.196 7.11734 0.353742 0.935335 0.00391529
-0.656464 80.7354 7.19899 0.343797 0.939044 0.000252766
-2.07463 81.2373 7.27745 0.318186 0.94802 0.00397093
-3.37187 81.6403 7.35797 0.287047 0.95777 0.0167753
-4.70944 82.0298 7.44966 0.278169 0.960407 0.0155106
-6.20625 82.4173 7.55516 0.225998 0.973996 0.0160287
-7.46093 82.6657 7.64425 0.17344 0.984844 -0.000512605
-8.79961 82.8768 7.74176 0.139955 0.989908 0.0222273
-10.0576 83.0443 7.83209 0.131439 0.991095 0.0213082
-11.3667 83.1323 7.84801 0.0323679 0.999475 0.00128322
-13.2091 83.1386 7.82907 -0.0181001 0.99946 0.0274167
-14.6176 83.0759 7.80039 -0.0581189 0.99804 0.023214
-16.4246 82.9445 7.75745 -0.0825602 0.996479 0.0146377
-17.9033 82.7386 7.68167 -0.155252 0.987673 0.0199659
-19.2232 82.5089 7.62715 -0.189344 0.981837 0.0120734
-20.4914 82.2446 7.57801 -0.225384 0.974119 0.0171799
-21.8121 81.917 7.52153 -0.252102 0.967449 0.0220557
-23.2112 81.5291 7.44883 -0.273221 0.961686 0.022581
-24.5217 81.13 7.39545 -0.301032 0.953328 0.0233305
-25.7515 80.713 7.30932 -0.336369 0.9415 0.020825
-26.9319 80.2887 7.25458 -0.345492 0.938228 0.0190702
-28.2315 79.7948 7.18727 -0.36104 0.932409 0.0162386
-29.4397 79.3177 7.11582 -0.378716 0.925418 0.0132598
-30.9944 78.6631 7.02171 -0.400494 0.916187 0.0143679
-32.5487 77.9735 6.92385 -0.411038 0.91154 0.0119587
-33.9593 77.3249 6.80184 -0.428156 0.903571 0.0155765
-35.1681 76.751 6.6996 -0.4393 0.898301 0.00833839
-36.3787 76.1604 6.59159 -0.441937 0.897029 0.00555839
-36.7133 75.9938 6.55744 -0.446129 0.894943 0.00668905
-36.3311 76.1784 7.4871 -0.441935 0.89703 0.00555077
-35.1003 76.7755 7.61832 -0.431904 0.901873 0.00913466
-33.8973 77.3436 7.7256 -0.425354 0.904971 0.0100972
-32.6898 77.8978 7.84165 -0.410568 0.911757 0.0115379
-31.1765 78.5678 7.94185 -0.396523 0.917868 0.0169725
-30.0034 79.0706 8.01369 -0.388416 0.921196 0.023057
-28.8386 79.5409 8.10359 -0.367065 0.929962 0.0208337
-27.5427 80.0388 8.17239 -0.353496 0.93519 0.0214451
-26.1911 80.5368 8.24324 -0.339778 0.940404 0.0137998
-25.0042 80.9549 8.32464 -0.310663 0.9504 0.0151373
-23.4699 81.4312 8.39911 -0.28505 0.958253 0.0223129
-22.1835 81.7948 8.46717 -0.263633 0.964322 0.0241155
-20.4932 82.2242 8.55581 -0.232779 0.972508 0.00652741
-18.8272 82.5908 8.6214 -0.182442 0.983208 -0.00418528
-17.4964 82.8013 8.67962 -0.139999 0.99014 0.00472691
-15.9812 82.9744 8.75247 -0.0931346 0.995634 0.00620369
-14.714 83.0494 8.77352 -0.0562821 0.998312 0.0143487
-13.3644 83.1014 8.8015 -0.0286744 0.999024 0.0336057
-12.047 83.1223 8.82689 0.00301452 0.999658 0.0259699
-10.5669 83.0773 8.82335 0.0401465 0.998729 0.0304672
-9.19628 82.91 8.76549 0.129197 0.991393 0.021185
-7.78393 82.7018 8.66807 0.173607 0.984438 0.0272499
-6.26526 82.4108 8.55502 0.201568 0.979309 0.0180113
-4.90008 82.068 8.45735 0.278305 0.960349 0.016601
-3.65081 81.7176 8.36788 0.266011 0.963956 0.0051814
-2.19969 81.2729 8.27754 0.290361 0.956885 0.00790935
-0.807696 80.7896 8.18955 0.333983 0.942578 0.00178048
0.710273 80.2238 8.09488 0.361039 0.932521 -0.00747087
1.92226 79.7388 8.02281 0.381081 0.924503 0.00846722
3.28995 79.1396 7.94322 0.410255 0.911969 -0.00171849
4.51965 78.5794 7.87131 0.419662 0.907679 -0.00152609
5.8971 77.9337 7.7925 0.430817 0.902423 -0.00538493
7.26991 77.2679 7.71104 0.443423 0.896306 -0.003532
8.51624 76.6377 7.63872 0.456243 0.889836 -0.00595125
9.70416 76.0268 7.56945 0.458393 0.888732 -0.00554166
10.8268 75.4437 7.50786 0.465555 0.884993 -0.00670278
12.0749 74.782 7.44493 0.47319 0.880918 -0.00857165
13.3447 74.0984 7.37906 0.475287 0.879723 -0.013749
14.5202 73.4625 7.32194 0.477469 0.878522 -0.0149413
15.6486 72.8487 7.28427 0.476085 0.879222 -0.017675
16.9054 72.1659 7.26221 0.477554 0.878337 -0.0216146
17.4135 71.891 7.27344 0.475981 0.879187 -0.0217529
16.891 72.1938 8.20977 0.4745 0.880103 -0.0163995
15.785 72.7934 8.23752 0.475267 0.879714 -0.0149511
14.4314 73.5261 8.29311 0.476396 0.879142 -0.0125079
13.1761 74.2026 8.35914 0.472417 0.881304 -0.0111674
11.8236 74.9261 8.43149 0.47131 0.881936 -0.00742516
10.1599 75.7976 8.52348 0.45852 0.888666 -0.00561992
8.79338 76.5015 8.59561 0.456328 0.889797 -0.00515575
7.53389 77.1378 8.66758 0.446134 0.894966 0.000481688
6.33201 77.7296 8.73887 0.432488 0.90164 0.000348559
5.1965 78.2708 8.80712 0.429506 0.903063 -0.00129259
3.99242 78.8249 8.87674 0.418422 0.908242 -0.00446262
2.73691 79.3825 8.94663 0.397364 0.917646 0.00526782
1.1517 80.0415 9.03938 0.36974 0.92912 0.00534249
-0.16357 80.5568 9.12299 0.354374 0.935007 0.0134629
-1.35299 80.9851 9.19976 0.330155 0.943919 -0.00382245
-2.8732 81.4827 9.30424 0.292229 0.95634 -0.00391157
