-34.2641 79.2724 -7.408 -0.43164 0.901614 0.0278962
-33.002 79.8769 -7.6453 -0.423773 0.905162 0.033149
-31.5225 80.5496 -7.90467 -0.39575 0.918196 0.0172587
-29.9882 81.2072 -8.1875 -0.390644 0.920312 0.0205669
-28.7164 81.7185 -8.39482 -0.365118 0.930781 0.0183026
-27.3691 82.2433 -8.61093 -0.350713 0.936355 0.0154742
-25.7926 82.807 -8.87462 -0.32517 0.945619 0.00828446
-24.544 83.2152 -9.07074 -0.305258 0.952127 0.0164997
-23.1631 83.6259 -9.27899 -0.264235 0.964452 0.00347701
-21.5201 84.0479 -9.52876 -0.232952 0.972412 0.0121997
-19.9554 84.4061 -9.7761 -0.205079 0.978736 0.00438869
-18.6412 84.6594 -9.95337 -0.180767 0.983455 -0.0118266
-17.2979 84.8659 -10.1764 -0.107193 0.994221 -0.00593615
-15.8501 84.9996 -10.4191 -0.087423 0.996121 -0.00997987
-14.3207 85.1103 -10.6607 -0.0479375 0.998849 -0.00146986
-12.81 85.143 -10.8396 0.00204644 0.999991 -0.00375724
-11.0884 85.1101 -10.896 0.0464209 0.998806 -0.0152166
-9.64079 84.9829 -10.8882 0.129121 0.991629 -0.000221032
-8.10977 84.7567 -10.8575 0.163611 0.986489 -0.00838651
-6.70414 84.4742 -10.8248 0.210459 0.9776 0.00219819
-5.36167 84.1296 -10.7999 0.2629 0.96481 0.00495562
-3.80688 83.6842 -10.7898 0.290142 0.956965 -0.00593294
-2.3864 83.2224 -10.7932 0.322407 0.946601 0.000203837
-0.875795 82.6627 -10.8144 0.352201 0.935889 -0.00812598
0.423054 82.1529 -10.8307 0.375811 0.926629 -0.0111166
1.79286 81.5811 -10.8526 0.392587 0.919495 -0.020099
3.1121 80.9919 -10.8822 0.408219 0.912743 -0.0160749
4.37787 80.4005 -10.9173 0.436457 0.899598 -0.0151113
5.66538 79.7676 -10.9465 0.443099 0.896389 -0.0122421
6.90576 79.1444 -10.9751 0.452233 0.891664 -0.0204895
8.1229 78.517 -11.0038 0.467991 0.883507 -0.0199854
9.38651 77.8458 -11.0356 0.470056 0.882425 -0.019345
10.6887 77.1378 -11.0683 0.478762 0.87761 -0.0242484
11.8523 76.4947 -11.1005 0.486898 0.873254 -0.0188972
13.1522 75.7648 -11.1374 0.493849 0.869302 -0.0206748
14.3302 75.0927 -11.1754 0.496908 0.867552 -0.0208854
15.2587 74.5571 -11.2038 0.499364 0.866111 -0.0220571
15.5396 74.4179 -10.2136 0.504517 0.863215 -0.0179775
14.2229 75.1774 -10.1706 0.498434 0.866738 -0.018126
12.8481 75.96 -10.1238 0.492718 0.869959 -0.0199976
11.6251 76.6432 -10.0888 0.487003 0.873198 -0.0187749
10.1749 77.4424 -10.0491 0.477603 0.878399 -0.0176318
8.76142 78.2029 -10.0113 0.469441 0.882685 -0.0221862
7.27664 78.9754 -9.97403 0.457118 0.889226 -0.0178759
5.77205 79.7306 -9.93955 0.442913 0.896451 -0.0142904
4.24218 80.4815 -9.90738 0.430587 0.902481 -0.0110953
2.9767 81.066 -9.86897 0.412302 0.910949 -0.0133724
1.57876 81.6904 -9.8352 0.388976 0.921131 -0.014681
-0.235253 82.4321 -9.8117 0.377001 0.926057 -0.0170023
-1.51828 82.915 -9.79414 0.346689 0.937922 -0.0104619
-3.07542 83.464 -9.77805 0.325572 0.94548 -0.00834563
-4.75491 83.9716 -9.77988 0.258529 0.965958 -0.00941028
-6.38885 84.3974 -9.7971 0.243221 0.96997 0.00101929
-7.70671 84.6792 -9.8308 0.204161 0.97884 0.0138228
-9.0578 84.9052 -9.85064 0.118787 0.99292 -0.000243777
-10.5086 85.0665 -9.88072 0.0729691 0.997284 0.01
-11.9151 85.1308 -9.85774 0.0210804 0.999726 0.0101772
-13.264 85.1368 -9.77348 -0.0159865 0.999828 0.00935881
-14.6474 85.0803 -9.58955 -0.0590198 0.998241 0.00568588
-16.524 84.9524 -9.28125 -0.0965906 0.99529 -0.00823135
-17.9406 84.7664 -9.05074 -0.161478 0.986836 0.00888541
-19.3211 84.5236 -8.84579 -0.18688 0.982304 0.0124594
-20.6823 84.2349 -8.65085 -0.225217 0.974201 -0.0144959
-22.3793 83.8271 -8.38697 -0.251959 0.967722 0.00547193
-23.7481 83.4435 -8.19081 -0.283719 0.958833 0.01192
-25.1921 82.997 -7.97138 -0.307082 0.951643 0.00873928
-26.7135 82.4684 -7.72134 -0.339629 0.94047 0.0129403
-28.0222 81.9752 -7.51819 -0.362543 0.931931 0.0081895
-29.2571 81.4882 -7.32548 -0.366883 0.930205 0.0107848
-30.5026 80.9739 -7.11193 -0.384371 0.923043 0.0158278
-31.8998 80.3554 -6.87138 -0.415051 0.909459 0.024849
-33.2997 79.7049 -6.63526 -0.424013 0.905209 0.028453
-34.4741 79.1371 -6.41559 -0.43645 0.899478 0.0212406
-35.1866 78.7581 -5.32721 -0.446201 0.89455 0.0261725
-33.9556 79.3681 -5.55488 -0.435726 0.899817 0.0217275
-32.458 80.074 -5.80776 -0.416027 0.909151 0.0191486
-31.201 80.648 -6.01775 -0.39781 0.91731 0.0170067
-29.8344 81.2379 -6.24227 -0.384072 0.923183 0.014918
-28.4322 81.8068 -6.474 -0.365713 0.930689 0.00847438
-26.8634 82.4012 -6.70877 -0.340324 0.940243 0.0110984
-25.6182 82.8413 -6.90311 -0.31837 0.947807 0.017384
-24.2185 83.2919 -7.11678 -0.289153 0.957228 0.0102555
-22.8546 83.6916 -7.3113 -0.250498 0.967973 0.016708
-21.4948 84.0504 -7.51247 -0.242771 0.970084 0.000155824
-20.0542 84.3787 -7.73844 -0.203391 0.979095 0.00223611
-18.1909 84.7273 -7.98976 -0.163158 0.98654 -0.0109253
-16.8583 84.9215 -8.19875 -0.113126 0.993512 -0.0116684
-15.3905 85.0399 -8.45297 -0.0654319 0.997857 -0.00102312
-13.881 85.1179 -8.67596 -0.0207969 0.999781 0.00243127
-12.261 85.1176 -8.79716 0.00969578 0.999936 0.00577238
-10.8321 85.0737 -8.84345 0.0636149 0.997951 0.00692391
-9.24005 84.9386 -8.83133 0.135664 0.990592 -0.0179502
-7.81236 84.6929 -8.81248 0.190412 0.981682 -0.00666588
-6.46213 84.4072 -8.78648 0.229331 0.97332 -0.00744446
-5.05081 84.0649 -8.76426 0.249388 0.968294 -0.0145388
-3.59975 83.6379 -8.76449 0.304398 0.952541 -0.00285119
-2.29552 83.2052 -8.77031 0.331019 0.943602 -0.00645177
-0.838558 82.6721 -8.78435 0.350362 0.936536 -0.0120895
0.549704 82.1288 -8.80203 0.375818 0.926591 -0.0138101
1.99861 81.5167 -8.83768 0.39977 0.916583 -0.00771301
3.37312 80.8988 -8.87034 0.417773 0.908491 -0.0104773
4.59453 80.322 -8.90424 0.43553 0.90002 -0.016632
5.89298 79.6885 -8.93199 0.44098 0.897395 -0.0147944
7.15698 79.0541 -8.96064 0.452396 0.891628 -0.0183688
8.59179 78.3113 -8.99685 0.466183 0.884577 -0.0140369
9.95138 77.5827 -9.03716 0.474989 0.879793 -0.0186994
11.3091 76.8422 -9.07168 0.484146 0.87475 -0.0203957
12.5699 76.1394 -9.10894 0.487111 0.873094 -0.0207321
14.193 75.217 -9.16245 0.498403 0.866717 -0.0199101
15.6148 74.3958 -9.21327 0.501614 0.864905 -0.0179885
15.6838 74.3557 -9.21611 0.502572 0.864334 -0.0186352
16.171 74.0935 -8.23007 0.505675 0.862486 -0.0202427
14.951 74.8037 -8.17794 0.500118 0.865696 -0.0212707
13.5646 75.602 -8.13203 0.495138 0.868577 -0.0203156
12.2707 76.3314 -8.09108 0.486818 0.873223 -0.022122
10.9523 77.0589 -8.05316 0.481356 0.876336 -0.0182157
9.394 77.9017 -8.01103 0.471181 0.881894 -0.0158507
8.00972 78.6345 -7.96732 0.46261 0.886365 -0.0187122
6.35013 79.4827 -7.92771 0.450695 0.892533 -0.0160788
4.94546 80.1704 -7.89888 0.432469 0.901487 -0.0170528
3.47276 80.8643 -7.86149 0.421073 0.906913 -0.0143465
2.08979 81.4857 -7.82868 0.404877 0.914294 -0.0118989
0.691395 82.0979 -7.79714 0.385116 0.922747 -0.0149615
-0.57212 82.5919 -7.7709 0.354806 0.934719 -0.0203075
-2.34807 83.2306 -7.75382 0.329513 0.944133 -0.00582246
-3.83795 83.7134 -7.74831 0.296438 0.955052 0.000561059
-5.18413 84.1087 -7.7452 0.250618 0.968086 -0.000456294
-6.51957 84.4244 -7.7669 0.216916 0.976186 -0.00303549
-8.08997 84.7521 -7.80138 0.187695 0.982227 0.000779368
-9.64484 84.9923 -7.80643 0.125538 0.992063 0.00713377
-11.3061 85.0967 -7.79849 0.0383058 0.999225 0.00901971
-12.723 85.1211 -7.74087 0.0216482 0.999585 -0.0190258
-14.1195 85.1221 -7.60688 -0.0277142 0.999496 -0.0154596
-15.6388 85.0381 -7.38687 -0.069588 0.997432 -0.0169198
-17.032 84.8972 -7.14661 -0.122783 0.992387 0.00962253
-18.3793 84.7053 -6.94048 -0.163915 0.98645 -0.00700459
-20.1071 84.3654 -6.72269 -0.201169 0.979542 0.00533543
-21.5166 84.0331 -6.49625 -0.253754 0.9671 0.0180485
-23.1071 83.6083 -6.26638 -0.263481 0.96464 0.00694662
-24.5625 83.1675 -6.05587 -0.305107 0.95217 0.0167674
-26.0092 82.6917 -5.85255 -0.314983 0.948978 0.0150251
-27.3353 82.2139 -5.64346 -0.354428 0.934946 0.0160266
-28.8298 81.6376 -5.42044 -0.366249 0.930414 0.0138217
-30.3964 80.9807 -5.16345 -0.391385 0.919941 0.0229413
-31.9163 80.302 -4.91289 -0.415851 0.909159 0.0223033
-33.2175 79.7001 -4.72751 -0.42501 0.904852 0.0246876
-34.7411 78.9539 -4.46985 -0.444012 0.895677 0.0248197
-35.4131 78.6179 -4.34114 -0.448087 0.893772 0.0197172
-36.0474 78.2768 -3.29456 -0.448087 0.893772 0.0197172
-34.7152 78.9456 -3.53723 -0.43989 0.897794 0.0215071
-33.1393 79.709 -3.79134 -0.431792 0.901642 0.0244457
-31.6177 80.4161 -3.99674 -0.415855 0.909158 0.0222968
-30.2647 81.0181 -4.20593 -0.389842 0.920786 0.0132452
-29.0091 81.5426 -4.40201 -0.376991 0.925976 0.0211386
-27.3277 82.1995 -4.65092 -0.346185 0.937993 0.0180094
-25.6964 82.7826 -4.90965 -0.324464 0.945589 0.0241917
-24.407 83.2034 -5.07924 -0.30278 0.952982 0.0121997
-23.1464 83.5871 -5.24848 -0.268411 0.963264 0.00885999
-21.8082 83.9453 -5.44658 -0.249586 0.968309 0.00917548
-20.2735 84.3212 -5.67329 -0.218862 0.975727 0.00746552
-18.9633 84.5912 -5.84013 -0.200107 0.979757 0.00574526
-17.5867 84.8228 -6.03955 -0.119511 0.992804 0.00753385
-16.1542 85.0022 -6.26334 -0.137124 0.990542 0.0048697
-14.4744 85.1102 -6.50592 -0.0490656 0.998697 -0.0140594
-13.0278 85.1436 -6.6647 0.0140435 0.999759 -0.0169005
-11.2129 85.0921 -6.75564 0.0489801 0.998743 -0.0106079
-9.55162 84.9611 -6.76848 0.1066 0.994299 -0.00251353
-8.18797 84.7636 -6.76178 0.198876 0.980024 0.00121356
-6.38969 84.4005 -6.73686 0.217048 0.976135 -0.007071
-4.94407 84.047 -6.72306 0.242337 0.970163 -0.00747702
-3.51883 83.6275 -6.72944 0.301378 0.953417 -0.0129338
-2.0515 83.1333 -6.74118 0.329511 0.944134 -0.0058111
-0.490594 82.5726 -6.76151 0.353501 0.935424 -0.00444034
1.16063 81.9061 -6.79565 0.398869 0.916998 -0.00421979
2.46854 81.3315 -6.8229 0.404904 0.914325 -0.00786832
3.70528 80.7742 -6.85096 0.419047 0.907811 -0.0166752
5.21004 80.0573 -6.88541 0.437111 0.899263 -0.0161095
6.68277 79.3318 -6.92007 0.451248 0.892288 -0.0140205
8.05186 78.6328 -6.95784 0.462169 0.886628 -0.0170258
9.37838 77.9285 -6.9988 0.472043 0.881426 -0.0162621
10.6143 77.2658 -7.02995 0.476941 0.878754 -0.0178327
12.0371 76.4824 -7.07172 0.48303 0.875424 -0.0177327
13.6793 75.5562 -7.12847 0.496326 0.867994 -0.0157323
15.0266 74.7843 -7.17151 0.499436 0.866024 -0.0237805
16.2 74.1008 -7.2251 0.504968 0.86287 -0.0214928
16.5752 73.9068 -6.23786 0.507929 0.861122 -0.0218295
15.3821 74.6068 -6.16881 0.50087 0.865206 -0.0234185
13.9364 75.4321 -6.11856 0.494072 0.869253 -0.0170946
12.7457 76.1069 -6.08458 0.489713 0.871741 -0.0157991
11.3579 76.8751 -6.04059 0.482596 0.875711 -0.0151841
10.185 77.517 -6.00597 0.475034 0.879814 -0.0164267
8.93419 78.1856 -5.97422 0.466316 0.884455 -0.0169867
7.32233 79.0231 -5.92483 0.452606 0.891601 -0.0140009
6.11474 79.6301 -5.89318 0.446153 0.894886 -0.0112784
4.78966 80.279 -5.86169 0.432463 0.901581 -0.0112636
3.33465 80.9526 -5.82598 0.409541 0.912274 -0.00569134
1.91389 81.5823 -5.79469 0.399513 0.916721 -0.00357816
0.555176 82.1654 -5.76614 0.380704 0.924692 -0.00289402
-0.707742 82.6564 -5.74234 0.347991 0.937498 0.000219016
-2.08313 83.1527 -5.72914 0.327942 0.944659 -0.0085268
-3.42094 83.6025 -5.71935 0.305602 0.952139 -0.00623394
-4.703 83.9877 -5.7047 0.278191 0.960526 -0.000123232
-6.16013 84.357 -5.69501 0.217048 0.976135 -0.00707109
-7.81629 84.6957 -5.71393 0.184108 0.982791 -0.0150521
-9.29371 84.9334 -5.71885 0.113834 0.993404 0.0137737
-11.0941 85.0966 -5.71497 0.0834748 0.996488 0.00657566
-12.6394 85.1527 -5.66206 0.0295567 0.999563 -0.000953219
-13.9594 85.1537 -5.53363 -0.0363743 0.999245 -0.0136749
-15.4348 85.0506 -5.34317 -0.0824261 0.99656 0.0086457
-17.1884 84.8772 -5.08017 -0.128024 0.99116 -0.0348166
-18.9518 84.589 -4.82622 -0.181564 0.983368 0.00456784
-20.5612 84.2431 -4.60752 -0.228011 0.973591 0.0114287
-22.1052 83.8548 -4.38786 -0.252132 0.967583 0.0145729
-23.7225 83.3965 -4.17151 -0.294737 0.955519 0.0106508
-25.2833 82.909 -3.97062 -0.318097 0.947987 0.0116171
-26.577 82.4591 -3.76759 -0.33298 0.942901 0.00794355
-28.0739 81.9009 -3.54266 -0.352642 0.935657 0.0137407
-29.3233 81.3911 -3.37221 -0.376779 0.926059 0.0212853
-31.0198 80.6634 -3.1298 -0.405294 0.913876 0.0238235
-32.3203 80.0702 -2.95069 -0.417839 0.908268 0.021435
-33.5955 79.4694 -2.78309 -0.433394 0.901044 0.0170018
-34.798 78.885 -2.56849 -0.442481 0.896613 0.0171828
-35.9687 78.2997 -2.3549 -0.446648 0.894598 0.0141727
-36.3688 78.0976 -2.26325 -0.448917 0.893472 0.0134426
-36.4167 78.0614 -1.3275 -0.447737 0.89409 0.0116164
-35.1858 78.6771 -1.56272 -0.441387 0.89722 0.0131595
-33.8326 79.3392 -1.778 -0.431728 0.901918 0.0124094
-32.1488 80.132 -2.02324 -0.420646 0.907187 0.008326
-30.5205 80.8599 -2.22526 -0.398285 0.917155 0.013957
-29.2878 81.3877 -2.39185 -0.383103 0.923547 0.0171124
-27.6404 82.0486 -2.60643 -0.358251 0.933424 0.0193853
-26.3652 82.521 -2.79459 -0.32782 0.944647 0.0132474
-24.8555 83.0352 -3.01649 -0.310588 0.95053 0.00525829
-23.5289 83.4491 -3.18978 -0.279769 0.959931 0.0161521
-21.9011 83.904 -3.41164 -0.26392 0.9645 0.00926198
-20.5105 84.2437 -3.59849 -0.216675 0.976243 0.000786818
-19.0227 84.5567 -3.79516 -0.203997 0.978714 0.022467
-17.6889 84.7947 -3.98551 -0.152834 0.988055 0.0197166
-16.1228 84.9957 -4.22276 -0.105972 0.994087 0.0236657
-14.4302 85.1282 -4.44764 -0.064112 0.997925 0.00598632
-12.9797 85.1777 -4.59631 0.00674683 0.999888 -0.0133775
-11.5497 85.1122 -4.65477 0.0472926 0.998877 0.00282401
-9.75239 84.9725 -4.67801 0.109492 0.993911 0.0123274
-8.34445 84.7843 -4.68272 0.165371 0.986172 -0.0108094
-6.87906 84.5314 -4.67345 0.192977 0.981143 -0.0108783
-5.54602 84.2109 -4.679 0.250148 0.968148 -0.0107485
-4.10962 83.8142 -4.69231 0.277099 0.960839 0.00226323
-2.7042 83.3769 -4.7045 0.306059 0.952006 -0.00338407
-1.21281 82.8487 -4.71877 0.349187 0.936975 -0.0120814
0.207957 82.3079 -4.74465 0.360222 0.932829 -0.00837578
1.57348 81.739 -4.77369 0.399623 0.916642 -0.00832677
3.048 81.0907 -4.80231 0.410206 0.911941 -0.00976071
4.3 80.5208 -4.83633 0.418824 0.908026 -0.00867248
5.78516 79.8159 -4.87482 0.43901 0.898334 -0.0163026
7.10059 79.1561 -4.90969 0.456616 0.88952 -0.0159987
8.4405 78.4625 -4.94546 0.461793 0.886849 -0.0157098
9.71325 77.7901 -4.98226 0.469614 0.882675 -0.0186471
10.9622 77.1137 -5.01709 0.479378 0.877395 -0.0193631
12.3883 76.3267 -5.05749 0.485555 0.874013 -0.0183714
13.6797 75.6 -5.0961 0.492885 0.869863 -0.0200602
14.9725 74.8644 -5.1369 0.497502 0.86726 -0.0187355
16.258 74.1165 -5.2113 0.504835 0.863016 -0.0185758
16.4202 74.0214 -5.2227 0.504829 0.863019 -0.0185743
16.714 73.8723 -4.23801 0.507277 0.86153 -0.0208644
15.4335 74.6214 -4.15278 0.499493 0.86614 -0.0175527
14.2193 75.3149 -4.09965 0.493599 0.869506 -0.0178585
13.0133 75.9984 -4.06399 0.489623 0.87174 -0.0184067
11.6238 76.7726 -4.02375 0.48417 0.874761 -0.0192985
10.0804 77.6137 -3.98225 0.472708 0.881005 -0.019408
8.84218 78.2711 -3.95019 0.462397 0.886615 -0.0101722
7.62785 78.901 -3.91458 0.459584 0.888024 -0.0139717
6.33031 79.558 -3.87892 0.445711 0.895115 -0.0104888
4.91274 80.2451 -3.83935 0.427262 0.904097 -0.0075415
3.35543 80.9611 -3.79384 0.411985 0.911153 -0.00821365
1.60192 81.7358 -3.7541 0.391935 0.919969 -0.00657669
0.310493 82.2752 -3.72937 0.374749 0.927104 -0.00645757
-1.21342 82.8598 -3.69825 0.350842 0.936387 -0.00946568
-2.52342 83.3192 -3.67965 0.306797 0.951775 -0.000387963
-4.08643 83.8038 -3.66698 0.276007 0.961138 0.00584132
-5.85935 84.2917 -3.65567 0.261359 0.96524 0.00160794
-7.23311 84.6058 -3.64373 0.190359 0.981466 0.0220737
-8.59986 84.8243 -3.63628 0.122145 0.992511 0.0017645
-9.92096 84.9708 -3.63818 0.0927877 0.995604 0.0127864
-11.6766 85.1185 -3.60927 0.0633035 0.997931 0.0111984
-13.2153 85.1849 -3.53047 -0.070792 0.99371 -0.0867677
-14.8524 85.0948 -3.35492 -0.069989 0.997548 5.66158e-05
-16.6281 84.9205 -3.10476 -0.128611 0.991599 0.0138395
-18.2091 84.6808 -2.88374 -0.166248 0.986077 0.00373991
-19.5781 84.4324 -2.69699 -0.196716 0.980458 -0.00235405
-21.0813 84.1016 -2.50011 -0.234793 0.972045 0.000676505
-22.4448 83.7492 -2.32658 -0.264805 0.964301 -0.00160217
-23.9276 83.3243 -2.13072 -0.289481 0.957135 0.00971555
-25.2522 82.8997 -1.95928 -0.320865 0.947093 0.00773121
-26.6221 82.4126 -1.753 -0.341869 0.939731 0.00558346
-28.0799 81.8586 -1.57598 -0.358231 0.933439 0.0190012
-29.5094 81.2769 -1.37222 -0.383348 0.923455 0.0166122
-31.061 80.6094 -1.18957 -0.398285 0.917156 0.0139447
-32.3661 80.0155 -1.03596 -0.412645 0.910648 0.0210742
-33.6062 79.4324 -0.856786 -0.429605 0.902801 0.0197447
-34.9657 78.7691 -0.653877 -0.437333 0.899219 0.0120429
-36.2757 78.1192 -0.425587 -0.446664 0.894599 0.0135538
-36.8648 77.8228 -0.316579 -0.448001 0.89392 0.014207
-36.782 77.8496 0.593129 -0.448931 0.893478 0.0125776
-35.2772 78.6038 0.326532 -0.444696 0.895558 0.0148565
-34.0219 79.2198 0.144215 -0.434132 0.900804 0.00904707
-32.447 79.9589 -0.0594028 -0.413282 0.910493 0.0141701
-30.8551 80.6827 -0.245322 -0.409298 0.912198 0.0192585
-29.5576 81.2406 -0.390914 -0.389788 0.920771 0.0157179
-28.2643 81.7656 -0.572344 -0.367158 0.930014 0.0163809
-26.9336 82.2801 -0.715266 -0.357566 0.933682 0.0196304
-25.3481 82.858 -0.936277 -0.327571 0.944797 0.00749088
-23.8299 83.3434 -1.13753 -0.285785 0.958243 0.00986929
-22.4985 83.732 -1.30967 -0.252731 0.967508 0.00743718
-21.1697 84.0826 -1.46724 -0.244354 0.969673 0.00512534
-19.7931 84.3961 -1.63915 -0.203961 0.978976 -0.0025221
-17.8329 84.7454 -1.90868 -0.146271 0.989241 0.00276169
-16.4898 84.9355 -2.09221 -0.123093 0.992393 -0.00225196
-15.1326 85.0626 -2.26293 -0.0820012 0.996612 -0.00636865
-13.7953 85.1456 -2.42705 -0.00443376 0.999835 0.0176264
-12.1027 85.1342 -2.56082 0.0386828 0.998799 0.0300544
-10.7206 85.0367 -2.58434 0.0699439 0.997543 -0.00408955
-9.07481 84.8806 -2.58713 0.0943028 0.99552 0.00691526
-7.10774 84.5484 -2.60443 0.203074 0.978717 0.0295708
-5.67945 84.2278 -2.61755 0.250189 0.968014 0.0188004
-4.04835 83.7963 -2.632 0.270598 0.962673 -0.00617135
-2.74188 83.3982 -2.64371 0.312446 0.949848 -0.0128653
-1.28048 82.8881 -2.67125 0.339209 0.940686 -0.00693459
0.111304 82.3562 -2.70197 0.364012 0.931377 -0.00563207
1.74159 81.6839 -2.73775 0.388595 0.921384 -0.00675063
3.55367 80.8798 -2.78348 0.413467 0.9105 -0.00595185
4.78623 80.3127 -2.82 0.423758 0.905736 -0.00848687
5.98687 79.7381 -2.85527 0.441348 0.897284 -0.00963217
7.41167 79.0248 -2.89991 0.453977 0.890984 -0.0072301
8.78367 78.3154 -2.94041 0.462306 0.886608 -0.0141375
9.96793 77.6938 -2.97111 0.46792 0.883647 -0.0147772
11.2786 76.9846 -3.00562 0.483151 0.875355 -0.0178722
12.8046 76.137 -3.04752 0.489204 0.871984 -0.0179785
14.2491 75.3186 -3.09424 0.493623 0.869502 -0.0173947
15.4984 74.6042 -3.14991 0.500609 0.86545 -0.0196768
16.5904 73.969 -3.22268 0.506468 0.862035 -0.019665
16.6278 73.9694 -2.22028 0.502419 0.864393 -0.0199954
15.4418 74.66 -2.13617 0.497315 0.867375 -0.0183892
14.2169 75.3573 -2.08655 0.492979 0.869843 -0.0185547
12.9725 76.0627 -2.04481 0.488107 0.872633 -0.0162471
11.6581 76.7936 -2.00646 0.480691 0.876806 -0.0121293
10.4634 77.4425 -1.97375 0.473649 0.880635 -0.0118286
9.12213 78.1535 -1.93766 0.465879 0.884776 -0.011337
7.88272 78.7951 -1.90156 0.45526 0.890304 -0.00983271
6.59588 79.4494 -1.8615 0.447633 0.894174 -0.00879
5.39535 80.0361 -1.82327 0.424736 0.905201 -0.0145122
3.87723 80.7469 -1.77627 0.418354 0.90815 -0.015619
2.55952 81.3409 -1.73894 0.399273 0.916713 -0.0147651
1.01189 82.0068 -1.70158 0.390648 0.920387 -0.0168051
-0.474574 82.595 -1.66261 0.356094 0.934434 -0.00552614
-1.9343 83.1314 -1.63393 0.339022 0.940754 -0.00682199
-3.29774 83.5967 -1.60645 0.289051 0.957144 -0.0180095
-4.7077 83.9827 -1.58872 0.242218 0.970118 -0.0141687
-6.1441 84.3435 -1.57893 0.214206 0.976436 -0.0262278
-7.65413 84.6485 -1.56916 0.181177 0.983313 0.016415
-9.12256 84.8637 -1.5512 0.118466 0.992869 0.0133046
-10.5953 85.022 -1.53609 0.0900739 0.995867 0.0116253
-12.3656 85.1187 -1.47973 0.0217253 0.999612 0.0174253
-13.926 85.1314 -1.36564 -0.0214703 0.999581 0.0194372
-15.355 85.0515 -1.18562 -0.0906195 0.995305 0.0339906
-16.6989 84.8937 -1.02472 -0.123904 0.9919 0.0279663
-18.0186 84.7116 -0.866205 -0.146726 0.989121 0.010527
-19.7248 84.3967 -0.62917 -0.216753 0.976088 0.0164425
-21.0378 84.1021 -0.464021 -0.227543 0.973457 0.0246253
-22.4912 83.7243 -0.29166 -0.271073 0.962451 0.0143936
-23.8998 83.3146 -0.120266 -0.288979 0.957293 0.00902986
-25.1684 82.9073 0.0507655 -0.314269 0.94925 0.0126198
-26.4996 82.426 0.226485 -0.343316 0.939097 0.0151945
-28.1971 81.7781 0.407304 -0.361988 0.932072 0.0143503
-29.4224 81.2839 0.562267 -0.382144 0.923964 0.0159835
-30.8828 80.6497 0.726976 -0.409291 0.912202 0.0191684
-32.1509 80.0798 0.863845 -0.411065 0.911494 0.014288
-33.5254 79.4429 1.02141 -0.426315 0.904478 0.0132696
-34.7399 78.8569 1.17443 -0.441855 0.897001 0.0123959
-36.1608 78.1493 1.38591 -0.444995 0.895446 0.0125233
-37.3414 77.557 1.54943 -0.449539 0.893201 0.0103526
-37.1112 77.6607 2.40876 -0.453341 0.891165 0.0175044
-35.7203 78.3554 2.2353 -0.443242 0.896312 0.0126889
-34.3395 79.0408 2.04957 -0.434822 0.900394 0.0148393
-32.8015 79.7656 1.88457 -0.415557 0.909368 0.0190259
-31.3794 80.4096 1.75051 -0.405022 0.914188 0.0147388
-30.0318 81.0054 1.60234 -0.400827 0.915995 0.0170533
-28.6001 81.6041 1.43561 -0.377674 0.92591 0.00721761
-27.0566 82.2074 1.26432 -0.350164 0.936635 0.0100554
-25.8026 82.6649 1.1357 -0.33165 0.943262 0.0162885
-24.5554 83.0955 0.978618 -0.298835 0.954053 0.0219148
-23.2785 83.4887 0.8151 -0.271699 0.962312 0.0116466
-21.4931 83.9761 0.61066 -0.234434 0.971999 0.0160595
-19.9577 84.3291 0.420116 -0.218337 0.975803 0.0117467
-18.4438 84.6409 0.223906 -0.165223 0.986159 0.0138243
-16.9293 84.8483 0.0433018 -0.124553 0.992213 0.000596877
-15.2657 85.0244 -0.142642 -0.101384 0.994846 -0.00191179
-13.8758 85.1151 -0.304494 -0.0413087 0.998687 0.0302857
-12.5151 85.1075 -0.400607 0.0165394 0.9997 0.0180757
-11.1173 85.0415 -0.460678 0.0718756 0.997202 0.0205434
-9.74283 84.9254 -0.501079 0.104646 0.994503 -0.00350637
-8.40874 84.7658 -0.529108 0.143264 0.989559 0.015767
-7.02702 84.5383 -0.549742 0.192945 0.981146 0.0111489
-5.65521 84.2327 -0.563496 0.243808 0.969799 0.00694945
-4.20978 83.8512 -0.582544 0.256488 0.96642 -0.0156961
-2.60872 83.3769 -0.59756 0.307983 0.951386 -0.00327009
-1.30288 82.9077 -0.623247 0.345435 0.938392 -0.00980842
-0.0543732 82.4385 -0.651222 0.363991 0.93138 -0.00640771
1.31429 81.8944 -0.691537 0.388761 0.921307 -0.00766807
2.82685 81.2428 -0.729163 0.393502 0.919055 -0.0222457
4.26845 80.5813 -0.774476 0.418915 0.907951 -0.0115882
5.47482 80.0166 -0.813734 0.428902 0.903286 -0.0108574
6.8402 79.3371 -0.856103 0.451151 0.892354 -0.0129171
8.11061 78.6898 -0.896183 0.456336 0.889742 -0.0107764
9.3703 78.0354 -0.933036 0.464519 0.885465 -0.0131538
10.6783 77.3411 -0.971438 0.473776 0.880536 -0.0139026
12.0448 76.5959 -1.01219 0.481266 0.876446 -0.0150385
13.512 75.7775 -1.05771 0.488666 0.872311 -0.0166967
14.7002 75.1054 -1.10242 0.493695 0.86942 -0.0193578
15.9583 74.3822 -1.16478 0.501646 0.864858 -0.0192612
16.7196 73.9388 -1.221 0.502569 0.864322 -0.0192648
16.3552 74.1763 -0.184289 0.50154 0.864818 -0.0234152
14.8532 75.0384 -0.107587 0.496987 0.867576 -0.0177683
13.5006 75.804 -0.0562208 0.48825 0.872502 -0.018774
12.2458 76.5026 -0.0139295 0.483764 0.875081 -0.0143186
10.9531 77.2092 0.0268708 0.476531 0.879077 -0.0118795
9.66941 77.8953 0.0651294 0.465544 0.884943 -0.0120386
8.43677 78.5374 0.104276 0.459835 0.887921 -0.0121613
7.13427 79.2004 0.143946 0.449924 0.893024 -0.00875741
5.92472 79.8087 0.18093 0.439461 0.898234 -0.00697562
4.3296 80.5652 0.23276 0.41879 0.908047 -0.00814111
2.80948 81.2632 0.282149 0.415779 0.909433 -0.0076255
1.24592 81.924 0.328297 0.380342 0.924844 -0.00175625
-0.0358492 82.4376 0.365871 0.364057 0.931296 -0.0122815
-1.30798 82.9204 0.399976 0.344607 0.938672 -0.0118673
-2.56719 83.3631 0.431181 0.319386 0.947625 -0.000189042
-4.05751 83.8276 0.454665 0.273301 0.961882 -0.00942717
-5.78529 84.2603 0.469045 0.218933 0.975736 0.00269612
-7.5323 84.6015 0.498309 0.171141 0.985206 0.00890867
-8.86587 84.8269 0.527204 0.129428 0.991569 -0.00620037
-10.7103 85.0212 0.587562 0.0779345 0.996954 -0.00298409
-12.3034 85.0973 0.652929 0.0339151 0.999408 0.0057563
-13.6973 85.1007 0.751772 -0.028161 0.99953 0.0121229
-15.286 85.0201 0.907824 -0.0797245 0.996789 0.00741101
-16.6165 84.8839 1.05397 -0.129325 0.991521 0.0126589
-18.2483 84.649 1.2326 -0.146207 0.988876 0.0273573
-19.6514 84.3837 1.40982 -0.207891 0.978008 0.0168047
-21.0193 84.0741 1.57468 -0.232249 0.972518 0.0164175
-22.4015 83.7236 1.72476 -0.259223 0.96563 0.01903
-23.6971 83.349 1.88451 -0.277673 0.960437 0.0214121
-24.9623 82.944 2.03374 -0.313346 0.949431 0.0198781
-26.2373 82.4911 2.1679 -0.340518 0.940106 0.0157634
-28.0282 81.8188 2.35083 -0.36438 0.931084 0.0176097
-29.5483 81.1981 2.52049 -0.378674 0.925298 0.0207272
-31.0908 80.5203 2.68631 -0.404328 0.914467 0.0163711
-32.7254 79.7847 2.82221 -0.41623 0.90915 0.0141319
-34.0199 79.1784 2.95446 -0.428096 0.903578 0.0167797
-35.6085 78.3974 3.14123 -0.442595 0.896604 0.0145333
-36.9376 77.7308 3.3039 -0.452428 0.891668 0.0153906
-37.4798 77.4547 3.36358 -0.454862 0.890417 0.0160653
-37.2793 77.5419 4.1955 -0.457391 0.889104 0.0169814
-35.4901 78.4415 4.03815 -0.442377 0.896748 0.012105
-33.8819 79.2258 3.87652 -0.429076 0.903105 0.0171607
-32.6767 79.7916 3.76444 -0.417849 0.908445 0.0113764
-31.4027 80.3665 3.65507 -0.405011 0.91421 0.0136594
-30.1118 80.9322 3.54415 -0.394477 0.918824 0.0122699
-28.4654 81.6234 3.3726 -0.373412 0.927571 0.0132517
-26.9868 82.198 3.22618 -0.347039 0.937732 0.0149048
-25.5588 82.7176 3.09439 -0.331179 0.943298 0.0225875
-23.997 83.2339 2.92906 -0.297199 0.954382 0.0287847
-22.5936 83.6475 2.77046 -0.27378 0.96161 0.0187276
-21.1225 84.0282 2.61141 -0.243853 0.969634 0.0185793
-19.6675 84.356 2.43243 -0.211447 0.977301 0.0131718
-18.2355 84.6385 2.25539 -0.171144 0.985234 0.00493746
-16.9242 84.8302 2.12918 -0.129501 0.991576 0.0024568
-15.5648 84.9857 1.99894 -0.0844893 0.996411 0.005248
-13.8655 85.0831 1.83696 -0.0145878 0.999891 0.00233563
-12.3577 85.0947 1.7099 0.0350098 0.999384 0.00225748
-10.8532 85.0368 1.6414 0.0614197 0.998092 -0.00625872
-9.29432 84.8867 1.59266 0.127918 0.991778 -0.00367942
-7.49198 84.601 1.54946 0.182446 0.983185 -0.00776724
-6.08622 84.3177 1.52083 0.203011 0.979168 -0.00404268
-4.59626 83.9703 1.49398 0.233122 0.972413 -0.00822115
-3.23681 83.5807 1.46334 0.300228 0.95385 0.00572627
-1.949 83.1664 1.43573 0.313668 0.949482 -0.00985095
-0.343827 82.5716 1.39553 0.356524 0.934232 -0.0100737
1.10967 81.9849 1.35106 0.383262 0.923613 -0.00703943
2.40665 81.438 1.30883 0.395838 0.918318 0.00210186
4.08875 80.685 1.25274 0.415425 0.90962 -0.00361614
5.48903 80.0286 1.20535 0.434492 0.900668 -0.00370583
6.8177 79.3682 1.1635 0.445116 0.895455 -0.00566199
8.33442 78.6028 1.11804 0.458065 0.888875 -0.00881354
9.65705 77.9136 1.07706 0.467747 0.883808 -0.00981665
10.9504 77.2227 1.03566 0.473947 0.880491 -0.0104414
12.2598 76.5093 0.989638 0.4803 0.877019 -0.0122144
13.5159 75.8156 0.945235 0.490482 0.871292 -0.0166598
14.8848 75.0401 0.892172 0.492257 0.87026 -0.0181954
16.1317 74.3273 0.827603 0.495693 0.868194 -0.0229709
16.6191 74.0483 0.802019 0.496244 0.86789 -0.0225416
16.6381 74.0641 1.79847 0.495507 0.868283 -0.0236168
15.4434 74.7451 1.86056 0.494097 0.869155 -0.020934
14.0804 75.5172 1.92385 0.491067 0.870926 -0.0184481
12.9084 76.1706 1.96692 0.482575 0.875745 -0.0138544
11.5553 76.909 2.019 0.476807 0.878937 -0.0111877
10.1878 77.6468 2.06789 0.469886 0.882639 -0.0125073
9.00962 78.2644 2.10794 0.462275 0.886691 -0.00899752
7.57642 78.9959 2.14956 0.445743 0.895159 -0.00170073
6.10598 79.7269 2.19981 0.443114 0.896448 -0.0056135
4.83875 80.3413 2.24377 0.429197 0.903161 -0.00947254
3.62425 80.9031 2.28631 0.409619 0.912206 -0.00963368
2.40475 81.4456 2.32697 0.402536 0.915344 -0.0104575
0.804482 82.1193 2.37949 0.38021 0.924872 -0.0072456
-0.456336 82.6213 2.41684 0.360529 0.932733 -0.00527861
-1.87572 83.1429 2.45196 0.320368 0.947293 0.000430772
-3.18496 83.5635 2.48062 0.29343 0.955977 0.0025409
-4.46412 83.9387 2.51743 0.258442 0.966011 0.00550047
-5.92721 84.2932 2.55796 0.219662 0.975562 -0.00521574
-7.42491 84.594 2.59823 0.188681 0.98201 -0.00744966
-9.07995 84.8617 2.6388 0.126913 0.991904 0.00444606
-10.8593 85.019 2.69313 0.0513789 0.998679 -0.000866412
-12.3408 85.088 2.76899 0.0425733 0.999074 0.00616889
-13.8259 85.0948 2.89297 -0.0193003 0.99971 0.0143829
-15.2684 85.006 3.02318 -0.0904703 0.995853 0.00955539
-17.1187 84.8021 3.20516 -0.129497 0.991577 0.00244515
-18.6754 84.5493 3.36756 -0.193161 0.981152 0.00540301
-20.3269 84.2044 3.55063 -0.219792 0.975496 0.00993909
-21.6791 83.8778 3.69891 -0.250793 0.967976 0.0111738
-23.2737 83.4441 3.8679 -0.282254 0.959293 0.0094446
-24.5791 83.0334 3.99466 -0.311766 0.95012 0.0086533
-25.9835 82.55 4.12721 -0.333821 0.942556 0.0123541
-27.2724 82.0783 4.23923 -0.349368 0.936937 0.00956178
-28.8858 81.435 4.38174 -0.380562 0.924648 0.0140742
-30.3653 80.8095 4.5107 -0.39179 0.919944 0.0142762
-31.8586 80.1479 4.6356 -0.408382 0.912661 0.0165835
-33.5945 79.3489 4.77345 -0.426313 0.904525 0.00958409
-34.9649 78.6892 4.8572 -0.44067 0.897569 0.0134127
-36.3972 77.9747 4.97676 -0.449718 0.893011 0.0168505
-37.2748 77.5279 5.04871 -0.456355 0.889713 0.0122901
-36.8777 77.7212 5.86659 -0.451655 0.892129 0.01065
-35.5812 78.3735 5.79094 -0.446046 0.89497 0.00850095
-34.2866 79.0061 5.74264 -0.439552 0.89804 0.0178237
-32.8876 79.6636 5.64808 -0.417612 0.90844 0.0183624
-31.6202 80.2404 5.55775 -0.409495 0.912247 0.0109474
-30.4096 80.7776 5.46251 -0.398587 0.917024 0.0139909
-28.6384 81.5159 5.32497 -0.37558 0.92656 0.0206398
-27.1508 82.1078 5.21668 -0.359325 0.932856 0.0257839
-25.6463 82.6539 5.08317 -0.335524 0.941905 0.0154111
-24.2312 83.1348 4.95642 -0.311683 0.949955 0.0209445
-22.9041 83.5394 4.84732 -0.271793 0.962293 0.0109849
-21.4405 83.9306 4.70077 -0.252765 0.967525 0.0023595
-19.9496 84.2834 4.54528 -0.218886 0.975734 0.00569429
-18.6165 84.5581 4.41093 -0.169421 0.985487 0.0105923
-16.9713 84.8079 4.24867 -0.104641 0.994464 0.00954777
-15.4511 84.9659 4.09946 -0.0972374 0.994945 0.025068
-14.0975 85.0698 3.98414 -0.0348513 0.999292 0.0141558
-12.3948 85.0835 3.83749 0.0193677 0.999691 0.0155644
-10.6494 84.9954 3.749 0.0820787 0.996428 0.0198376
-9.31173 84.8707 3.70045 0.104038 0.994471 0.0142958
-7.45431 84.6105 3.64129 0.173378 0.984844 -0.00467682
-6.11936 84.3405 3.5979 0.201131 0.979557 0.00386719
-4.59186 83.9679 3.54811 0.25899 0.965873 0.00374301
-3.20372 83.5644 3.50866 0.281222 0.959642 0.000964136
-1.56386 83.03 3.46137 0.320017 0.947333 0.0122121
-0.277245 82.5639 3.43311 0.365053 0.930945 -0.00882128
1.01779 82.0441 3.39279 0.382235 0.92401 -0.010142
2.4884 81.4167 3.3405 0.404393 0.914557 -0.00725823
3.87251 80.7988 3.29469 0.410615 0.911807 -0.00159684
5.41974 80.0725 3.24052 0.430229 0.902699 -0.00611832
6.62054 79.4817 3.19652 0.442212 0.896881 -0.00726437
8.07141 78.7526 3.14092 0.450049 0.892939 -0.0107927
9.50043 78.0196 3.09926 0.464083 0.885733 -0.0101465
10.8991 77.2772 3.05081 0.474318 0.880266 -0.0124003
12.2851 76.5241 2.99442 0.478348 0.878077 -0.0128452
13.5881 75.809 2.94271 0.483929 0.874972 -0.0154049
15.0637 74.9836 2.87388 0.491762 0.870518 -0.0191893
16.2658 74.3017 2.81213 0.49176 0.870468 -0.0213822
16.8171 73.9875 2.78556 0.494554 0.868835 -0.0232882
16.7039 74.0782 3.78743 0.491662 0.870523 -0.0214046
15.2769 74.8841 3.8578 0.489679 0.871738 -0.0169636
13.9461 75.6284 3.92836 0.485857 0.873907 -0.0151617
12.663 76.3335 3.98353 0.47776 0.878377 -0.0141039
11.2885 77.0798 4.04123 0.475851 0.879433 -0.0128049
10.0299 77.7543 4.09227 0.465235 0.88508 -0.0137969
8.55842 78.5175 4.13991 0.452715 0.891591 -0.010707
7.25781 79.1747 4.19084 0.445201 0.895388 -0.0087908
5.95279 79.8179 4.2384 0.442297 0.896849 -0.00589316
4.2911 80.6107 4.29649 0.423898 0.905705 -0.00291554
2.90624 81.2365 4.34374 0.405294 0.914179 -0.00359846
1.56717 81.8189 4.3887 0.380861 0.92463 -0.00199816
0.332379 82.3246 4.42772 0.3724 0.928072 0.000702485
-0.970686 82.8217 4.45924 0.333182 0.942862 -0.000297998
-2.22628 83.245 4.50038 0.305594 0.95214 0.00644632
-3.64988 83.7011 4.55145 0.291443 0.956563 -0.0069816
-5.02589 84.0864 4.59996 0.259464 0.965749 -0.00281213
-6.68766 84.4588 4.65783 0.189282 0.981895 0.0073896
-8.28438 84.7226 4.71668 0.141774 0.989655 0.0219738
-9.71071 84.8978 4.76551 0.087467 0.995998 0.0183578
-11.3192 85.0261 4.84454 0.0756089 0.996883 0.0225447
-12.6855 85.0645 4.93998 0.00281454 0.999994 0.00211672
-14.2332 85.0387 5.06035 -0.0667221 0.99771 0.0111043
-15.7379 84.9203 5.19245 -0.0838654 0.996209 0.0231223
-17.0941 84.7807 5.32516 -0.121817 0.992258 0.0241998
-18.4928 84.5688 5.45832 -0.176211 0.984215 0.0164667
-20.0632 84.2509 5.59558 -0.21575 0.976418 0.00777155
-21.5482 83.8957 5.73838 -0.249474 0.968343 0.00857502
-23.1905 83.441 5.87507 -0.273069 0.96176 0.0212378
-24.902 82.8885 6.00443 -0.316567 0.948371 0.0194401
-26.5218 82.3223 6.14108 -0.336948 0.94132 0.0195625
-27.7985 81.8345 6.22885 -0.360026 0.932737 0.0195759
-29.0427 81.3303 6.31254 -0.373917 0.927334 0.0153883
-30.4163 80.7601 6.40565 -0.401385 0.915802 0.0140108
-32.0342 80.0386 6.52756 -0.414727 0.909883 0.0106923
-33.6364 79.2969 6.63205 -0.424619 0.905302 0.0112899
-34.9888 78.6537 6.70468 -0.433959 0.900872 0.0104853
-36.2859 78.012 6.73355 -0.448892 0.893579 0.00343403
-36.6907 77.8085 6.74334 -0.451944 0.89204 0.00335097
-36.4979 77.8981 7.66906 -0.447359 0.894302 0.00972584
-35.2218 78.5295 7.64563 -0.435541 0.900124 0.00900375
-33.6732 79.2727 7.58269 -0.426698 0.904355 0.00838503
-32.3212 79.8959 7.49314 -0.414454 0.909987 0.0123245
-30.8051 80.5767 7.36731 -0.399753 0.916557 0.0110097
-29.3958 81.1748 7.28798 -0.376716 0.926252 0.0119043
-28.1661 81.6689 7.21233 -0.373917 0.927335 0.0153879
-26.8803 82.1643 7.13198 -0.356134 0.934245 0.0188392
-25.099 82.802 7.01208 -0.323203 0.946055 0.0227982
-23.5979 83.2964 6.89803 -0.298849 0.95419 0.0145122
-22.3223 83.6691 6.81458 -0.271248 0.962446 0.0110721
-20.8822 84.0464 6.7017 -0.231383 0.972682 0.0187689
-19.584 84.3428 6.58648 -0.196156 0.980287 0.0236519
-17.9445 84.6368 6.45638 -0.161468 0.986145 0.0380144
-16.6189 84.8141 6.35063 -0.0892799 0.995604 0.0283298
-14.9105 84.9666 6.18566 -0.0834242 0.996243 0.0232372
-13.2837 85.056 6.04431 -0.0271641 0.999595 -0.00853141
-11.774 85.0347 5.94037 0.04417 0.998954 -0.0118512
-10.4439 84.9572 5.85147 0.0837176 0.996489 0.000334725
-8.73148 84.7775 5.78486 0.138324 0.990347 0.00892206
-7.34934 84.5708 5.73362 0.162549 0.9867 -0.000975398
-5.85231 84.2736 5.66785 0.214595 0.976615 0.0131381
-4.13525 83.8425 5.60205 0.256973 0.966402 0.00558063
-2.78127 83.4306 5.54518 0.314388 0.949283 -0.0046265
-1.19466 82.8991 5.4864 0.321513 0.946895 -0.00435782
0.114013 82.4212 5.44607 0.342592 0.93946 0.00678087
1.83383 81.7119 5.39869 0.384582 0.923061 -0.0074794
3.1294 81.1434 5.35412 0.410063 0.912017 -0.00860079
4.59853 80.4687 5.30224 0.421502 0.906827 -0.000765888
6.2095 79.6995 5.24507 0.436366 0.89968 -0.0126938
7.66692 78.9799 5.18883 0.449187 0.893395 -0.00873626
9.14194 78.229 5.13327 0.458624 0.888591 -0.00842695
10.5574 77.4885 5.0792 0.466472 0.884484 -0.00957508
12.0017 76.7113 5.02336 0.476083 0.879271 -0.0151121
13.1757 76.0696 4.96503 0.48034 0.876963 -0.0145039
14.6211 75.2685 4.88907 0.48458 0.874614 -0.015227
15.8667 74.5727 4.82374 0.488907 0.872143 -0.0183394
16.5362 74.1967 4.79059 0.490231 0.871377 -0.0193601
16.646 74.1575 5.77794 0.487296 0.872994 -0.0206123
15.4794 74.8099 5.83863 0.486225 0.873642 -0.0182961
14.1931 75.5256 5.90929 0.48277 0.875611 -0.0154183
12.9583 76.203 5.98039 0.478708 0.877887 -0.0124254
11.6514 76.913 6.0417 0.473523 0.880729 -0.00958178
10.3337 77.6158 6.09819 0.467944 0.883729 -0.00711604
8.98862 78.3178 6.15207 0.458893 0.888455 -0.00810945
7.66457 78.9884 6.20011 0.450655 0.892683 -0.00522718
6.4574 79.5906 6.24862 0.441413 0.897289 -0.00515169
5.10913 80.2383 6.30112 0.427164 0.904148 -0.00692869
3.4868 80.9865 6.35874 0.416302 0.909176 -0.00955071
1.85904 81.7072 6.41554 0.395951 0.918259 -0.00491464
0.465938 82.278 6.45891 0.361848 0.932212 0.00684222
-0.889005 82.7806 6.49897 0.341258 0.939948 0.0063337
-2.58993 83.3643 6.56286 0.301371 0.953479 0.00733046
-3.8886 83.7579 6.62332 0.292644 0.956132 0.0130892
-5.43556 84.1772 6.68745 0.24638 0.969128 0.00936111
-6.81164 84.4751 6.7508 0.195218 0.980734 0.00714409
-8.43951 84.7417 6.82821 0.149936 0.988599 -0.0138037
-10.1147 84.9312 6.89372 0.08174 0.996639 -0.00547083
-11.7196 85.031 6.97828 0.0541895 0.998521 0.00445729
-13.2691 85.0545 7.09659 -0.00775587 0.99931 0.0363156
-14.7914 84.9595 7.2338 -0.0865864 0.996114 0.0161261
-16.4011 84.812 7.39638 -0.0933744 0.995521 0.0147979
-17.7901 84.6324 7.48796 -0.153707 0.987865 0.0223098
-19.1397 84.4078 7.58319 -0.204738 0.978765 0.0100605
-20.6898 84.093 7.73422 -0.204087 0.978764 0.0192368
-22.0452 83.7431 7.78961 -0.284554 0.95857 0.0131224
-23.7678 83.2289 7.90234 -0.297238 0.954773 0.0075767
-25.1056 82.7915 8.0054 -0.320355 0.947271 0.00704082
-26.4421 82.3163 8.07655 -0.347225 0.937665 0.0147842
-27.9314 81.744 8.16748 -0.36689 0.930077 0.0186569
-29.4672 81.1314 8.25612 -0.372932 0.927685 0.0179347
-30.858 80.5377 8.32355 -0.407627 0.912893 0.0215913
-32.0683 79.9987 8.39892 -0.409415 0.912242 0.0139244
-33.3103 79.4285 8.47647 -0.421882 0.906534 0.0145482
-34.583 78.8268 8.53622 -0.432036 0.90181 0.00920376
-36.1057 78.0825 8.58307 -0.441764 0.897051 0.0119581
-36.3238 77.9753 8.59141 -0.444576 0.895688 0.00973318
-35.7849 78.2292 9.47185 -0.440636 0.897619 0.0109261
-34.5305 78.8412 9.42982 -0.437997 0.89895 0.00689892
-33.225 79.4537 9.38903 -0.42191 0.906525 0.0142746
-31.8535 80.0808 9.33556 -0.409412 0.912243 0.0139359
-30.6284 80.6178 9.27351 -0.397198 0.917529 0.019351
-29.1596 81.2398 9.20696 -0.376679 0.926185 0.0171565
-27.518 81.8917 9.11689 -0.365389 0.930764 0.013012
-26.0971 82.4288 9.03105 -0.347376 0.937602 0.015274
-24.3552 83.0269 8.94975 -0.306214 0.951963 0.000199704
-22.5998 83.5699 8.83662 -0.276595 0.960804 0.0187249
-21.3046 83.9245 8.7671 -0.243802 0.969213 0.0344422
-19.69 84.288 8.6598 -0.212286 0.977208 0.000269977
-18.2842 84.554 8.55665 -0.153507 0.988144 -0.00258092
-16.6005 84.7785 8.45709 -0.101247 0.994856 -0.00337848
-14.8356 84.9453 8.30138 -0.0909925 0.995848 0.00252659
-13.3182 85.0093 8.16342 -0.0285291 0.999408 0.0192381
-11.9377 85.0163 8.05122 0.0178516 0.99966 0.0190089
-10.5925 84.9559 7.9674 0.0629131 0.997949 0.011797
-9.22925 84.8492 7.89552 0.111554 0.993757 -0.00187166
-7.76834 84.6378 7.82095 0.159425 0.987198 -0.00478763
-6.37945 84.3888 7.75514 0.215297 0.97652 0.00741722
-5.06362 84.0763 7.69578 0.238862 0.970962 0.0133296
-3.55834 83.648 7.63692 0.283495 0.958964 0.00439772
-2.2488 83.243 7.57667 0.320688 0.947139 0.00932388
-0.665891 82.6966 7.51217 0.33566 0.941977 -0.00337463
0.580769 82.2372 7.47083 0.358271 0.933613 0.00281723
2.0702 81.6213 7.42384 0.394884 0.918731 -0.000557148
3.47957 81.0005 7.37472 0.412147 0.9111 -0.00565366
4.80057 80.3927 7.32778 0.424103 0.905573 -0.0086055
6.21551 79.7129 7.27443 0.43845 0.898754 -0.00148501
7.62332 79.0148 7.21471 0.448268 0.893878 -0.00611523
8.83197 78.4067 7.17234 0.454274 0.890838 -0.00658829
10.1642 77.7154 7.11533 0.466052 0.884717 -0.00842801
11.4029 77.0588 7.05894 0.471202 0.881965 -0.0103291
12.8182 76.2941 6.98942 0.477981 0.878285 -0.0122552
14.1222 75.5801 6.91531 0.481519 0.876326 -0.0138656
15.4979 74.8224 6.83164 0.483734 0.87505 -0.0169924
16.5577 74.2303 6.77325 0.485291 0.874137 -0.0194111
15.9402 74.5928 7.80339 0.486112 0.873746 -0.0161822
14.4811 75.3971 7.89323 0.48008 0.877151 -0.0113916
12.8819 76.2734 7.98829 0.478964 0.877758 -0.0115841
11.6629 76.9313 8.05975 0.470931 0.882121 -0.0092845
10.2429 77.6819 8.12345 0.464516 0.885538 -0.00689817
9.03423 78.3091 8.17535 0.45463 0.89067 -0.00425766
7.38321 79.1393 8.24128 0.445308 0.895376 -0.00129742
6.14136 79.7522 8.29741 0.437832 0.899053 -0.00275474
4.59471 80.4915 8.34569 0.423749 0.905746 0.00778078
3.13648 81.1546 8.39879 0.405494 0.914096 0.00162523
1.76277 81.7508 8.44422 0.392582 0.919717 0.000341589
-0.0359462 82.4681 8.50657 0.36109 0.9325 0.00764265
-1.63716 83.0319 8.56757 0.316046 0.948741 0.00229229
-3.45293 83.6093 8.66029 0.279575 0.960094 0.00755707
-5.06832 84.0689 8.72823 0.265204 0.964056 0.0162042
-6.52493 84.3977 8.79809 0.200974 0.979312 0.0236229
-8.26731 84.7261 8.88269 0.158254 0.987356 -0.00911297
-9.60205 84.8845 8.94228 0.0976074 0.995071 0.017498
-11.1415 84.9876 9.04835 0.0435882 0.999036 0.00513763
-12.6029 85.0075 9.16457 -0.00625201 0.99998 0.00077242
-14.3284 84.9556 9.31738 -0.0461615 0.998931 -0.00255843
-15.7143 84.8642 9.43317 -0.0882474 0.996098 0.000581065
-17.2234 84.7042 9.53145 -0.124283 0.992196 0.010012
-18.6166 84.4849 9.60755 -0.173337 0.984761 0.014166
-20.4393 84.1069 9.73744 -0.229527 0.972869 0.0290418
-21.7272 83.7781 9.81731 -0.250853 0.967667 0.0263506
-23.096 83.4104 9.87904 -0.267956 0.963035 0.0276244
-24.439 82.9897 9.93963 -0.318792 0.947544 0.0230678
-26.2346 82.3589 10.0224 -0.34401 0.93864 0.0247571
-27.6585 81.8234 10.0944 -0.354796 0.934705 0.0211451
-29.3413 81.1482 10.1666 -0.377062 0.926104 0.0124994
-30.7918 80.5311 10.2361 -0.395276 0.918497 0.0109851
-32.0079 79.9964 10.2868 -0.410986 0.911534 0.014026
-33.4745 79.3227 10.3462 -0.421207 0.906829 0.0156906
-34.7356 78.7267 10.3675 -0.434137 0.900688 0.0169111
-35.4037 78.4054 10.3711 -0.436706 0.8995 0.0136776
-35.1561 78.5073 11.3006 -0.432768 0.901356 0.0164105
-33.9589 79.078 11.2959 -0.427032 0.904054 0.0181758
-32.5984 79.7103 11.257 -0.418472 0.908108 0.0148865
-31.2978 80.2984 11.2032 -0.403922 0.914636 0.0169674
-29.758 80.9574 11.1585 -0.388489 0.921337 0.0146575
-28.3887 81.5227 11.0896 -0.366963 0.930069 0.0176108
-26.9386 82.0779 11.0481 -0.345903 0.938165 0.0140674
-25.4906 82.6055 10.9678 -0.34076 0.940105 0.00925444
-23.9637 83.1166 10.9191 -0.298431 0.954067 0.0263582
-22.2861 83.6114 10.8418 -0.27371 0.961555 0.0222617
-20.789 83.9921 10.7684 -0.23564 0.971502 0.0256327
-19.3959 84.3131 10.676 -0.21097 0.977312 0.0187919
-17.9683 84.58 10.5877 -0.170034 0.985224 0.0205642
-16.4983 84.788 10.5289 -0.141825 0.989884 0.00382611
-15.0424 84.9088 10.424 -0.0762599 0.997007 0.0126812
-13.1487 85.0032 10.262 -0.0116513 0.999931 0.00152758
-11.7747 84.991 10.1524 0.0122655 0.999789 0.0164937
-10.1876 84.9191 10.0218 0.0715234 0.997354 0.0130131
-8.55185 84.7513 9.92015 0.106327 0.994143 0.0193228
-7.21009 84.5345 9.85879 0.185088 0.982555 0.0181286
-5.70835 84.2232 9.7793 0.214773 0.976661 -0.00231374
-4.32861 83.8635 9.71961 0.269602 0.962948 -0.00681872
-3.03053 83.4863 9.66081 0.295986 0.95519 0.0020533
-1.50438 82.9863 9.58417 0.336794 0.941421 0.0172151
-0.222291 82.5257 9.52469 0.342759 0.939328 0.0134157
1.12218 82 9.47685 0.363734 0.931422 0.0122297
2.35081 81.4982 9.43718 0.406546 0.91363 0.000260121
3.69712 80.8997 9.39458 0.406744 0.913517 0.00686442
4.98542 80.3039 9.3436 0.425533 0.904943 0.000665231
6.20384 79.7282 9.30402 0.433794 0.901008 -0.00267685
7.40826 79.1348 9.25775 0.445875 0.895089 -0.00320633
8.63059 78.5218 9.19803 0.448585 0.893738 -0.00213604
10.0021 77.8137 9.14258 0.463545 0.886069 -0.00272547
11.4298 77.0645 9.08031 0.467364 0.884033 -0.00749872
12.5983 76.4371 9.01084 0.475055 0.879911 -0.00891294
14.0372 75.6528 8.92004 0.479536 0.877463 -0.0102205
15.3021 74.9591 8.83265 0.481155 0.876543 -0.0127382
15.9505 74.6023 8.78424 0.482651 0.875721 -0.0127095
15.919 74.6334 9.76903 0.480599 0.876871 -0.0110472
14.719 75.2916 9.86631 0.479094 0.877699 -0.0106576
13.1507 76.1473 9.97796 0.478249 0.878192 -0.00752694
11.6027 76.9796 10.0721 0.46876 0.883313 -0.00478509
10.0802 77.7774 10.1489 0.460905 0.887441 -0.00378897
8.61638 78.5306 10.2235 0.453586 0.891212 -0.000826697
7.30438 79.1901 10.2795 0.448576 0.893742 -0.00213752
6.07541 79.7921 10.3209 0.426909 0.90429 -0.00288379
4.46621 80.5478 10.3844 0.424538 0.905409 -0.000991833
2.90612 81.2553 10.4328 0.403582 0.914932 -0.00461811
1.64022 81.7861 10.4736 0.368602 0.929587 0.000732454
0.277171 82.3187 10.5221 0.361084 0.932481 0.0098513
-1.74432 83.0596 10.6235 0.338171 0.941057 0.00718685
-3.0795 83.4973 10.6786 0.301551 0.953375 0.0119624
-4.43031 83.8898 10.7404 0.260457 0.965369 0.0149738
-5.80995 84.2397 10.7969 0.2298 0.973108 0.0158783
-7.1544 84.5154 10.8807 0.180236 0.983604 0.00610835
-8.80834 84.7681 10.9794 0.118827 0.992833 0.0127667
-10.8614 84.9541 11.1324 0.064166 0.997922 0.0058932
-12.1954 84.9937 11.2431 0.00907203 0.999942 -0.00575594
-13.6415 84.9773 11.3474 -0.0445247 0.99888 0.0160083
-15.2695 84.8901 11.4666 -0.0820086 0.996631 0.00143304
-16.7834 84.7412 11.5684 -0.131151 0.991233 0.0159855
-18.1015 84.5309 11.6091 -0.179005 0.983576 0.0231274
-19.5552 84.257 11.6905 -0.202351 0.978774 0.0324877
-20.9543 83.9289 11.7845 -0.229583 0.973191 0.0138515
-22.6178 83.4961 11.8619 -0.277074 0.960671 0.0184771
-24.0711 83.0571 11.9223 -0.296382 0.95487 0.019517
-25.5227 82.5773 11.9563 -0.338587 0.940733 0.0194834
-26.9111 82.0729 12.0258 -0.348135 0.937226 0.0202295
-28.3955 81.5017 12.0729 -0.362571 0.931693 0.0221328
-29.84 80.9069 12.1117 -0.389599 0.920826 0.0170591
-31.1742 80.3347 12.1659 -0.402627 0.915207 0.0169574
-32.7388 79.6298 12.2084 -0.41432 0.909985 0.0163241
-34.2076 78.9434 12.2276 -0.42669 0.904271 0.0151405
-34.6907 78.7163 12.2273 -0.425418 0.904888 0.0140267
-33.9524 79.0492 13.1663 -0.423431 0.905829 0.0134357
-32.6161 79.6678 13.153 -0.416138 0.909133 0.0175198
-31.3056 80.2572 13.1331 -0.405883 0.913764 0.017125
-29.6978 80.9474 13.0615 -0.390791 0.920266 0.019801
-28.3623 81.4889 13.0536 -0.36789 0.929497 0.0263141
-27.028 82.0044 13.0094 -0.353956 0.934977 0.0230674
-25.5491 82.5478 12.9505 -0.337754 0.94104 0.019119
-24.1764 83.0042 12.9121 -0.304219 0.952381 0.0205231
-22.6332 83.4749 12.8625 -0.27869 0.960274 0.0143217
-21.2687 83.8336 12.797 -0.239417 0.970817 0.0139479
-19.7698 84.1741 12.714 -0.21292 0.976739 0.0254023
-18.4635 84.4433 12.6517 -0.19789 0.980018 0.0201227
-16.8096 84.7152 12.5588 -0.120585 0.992426 0.0234678
-15.4608 84.8632 12.4789 -0.0787212 0.996756 0.0167382
-13.925 84.9478 12.3997 -0.0467028 0.998771 0.0165834
-12.4594 84.995 12.3091 -0.00142714 0.999945 0.0103487
-11.1151 84.9565 12.2056 0.0454194 0.998932 0.00845233
-9.49643 84.8382 12.0651 0.0816952 0.996655 0.00224716
-7.98185 84.639 11.969 0.166276 0.985983 0.0137568
-6.38498 84.3431 11.8605 0.206505 0.978092 0.0262976
-5.00584 84.0185 11.7835 0.246685 0.969074 0.00656416
-3.62842 83.6436 11.7165 0.285269 0.958442 0.00342641
-2.32727 83.2505 11.6573 0.30948 0.950899 -0.00361553
-0.690341 82.6677 11.5869 0.345768 0.93831 0.00425799
1.03751 82.0151 11.5111 0.360989 0.93256 -0.00436227
2.63906 81.3696 11.4567 0.395563 0.918428 -0.00435379
4.10937 80.7149 11.4078 0.415046 0.909779 0.00620619
5.32119 80.1479 11.3674 0.431164 0.902272 -0.00164482
6.60873 79.5264 11.3232 0.441462 0.897262 0.00571399
8.03769 78.8206 11.2684 0.44796 0.894051 0.00214043
9.39884 78.1304 11.2044 0.456022 0.889968 -0.000766931
10.6411 77.49 11.1352 0.461184 0.887298 -0.00330014
12.2397 76.6454 11.0407 0.471488 0.881863 -0.00408164
13.5951 75.9148 10.9465 0.476227 0.879292 -0.0073118
14.7642 75.2781 10.8569 0.479308 0.877603 -0.00873015
15.6489 74.7941 10.7766 0.479614 0.877431 -0.00928107
15.0667 75.1206 11.821 0.479614 0.877465 -0.00507591
13.8838 75.764 11.9201 0.476168 0.87935 -0.00258483
12.6368 76.4361 12.0167 0.47147 0.881879 -0.00231049
11.311 77.1417 12.1065 0.468448 0.883488 -0.00227275
10.0004 77.8216 12.1895 0.456991 0.889471 0.000317091
8.43013 78.6235 12.2727 0.450288 0.892875 -0.00386554
6.70592 79.4772 12.3365 0.439847 0.898072 -0.000769143
5.44759 80.0894 12.3813 0.431164 0.902272 -0.0016445
4.1931 80.6735 12.4173 0.407676 0.91312 0.00331225
2.79597 81.2973 12.4639 0.401659 0.915706 0.0123292
1.35716 81.8939 12.5078 0.358976 0.933342 0.00295639
0.116655 82.3637 12.5554 0.350604 0.936503 0.0061884
