-37.7868 77.9694 -2.82515 -0.456971 0.889374 0.0137167
-38.1485 77.7667 -1.68123 -0.459001 0.888379 0.00915429
-38.4131 77.6241 -0.672093 -0.454829 0.890558 0.00227844
-38.7563 77.4402 0.650769 -0.450015 0.892901 0.0136741
-38.9423 77.3136 2.3434 -0.462089 0.886753 0.0119792
-38.974 77.2798 3.37726 -0.467609 0.883865 0.0111305
-38.9568 77.2702 4.42837 -0.468964 0.883014 0.0189496
-38.7333 77.3701 5.39837 -0.471189 0.881836 0.0186045
-38.5856 77.4363 6.66112 -0.465997 0.884786 -0.000255977
-38.2283 77.6158 8.00545 -0.455634 0.890152 0.00250896
-37.7782 77.8386 9.12847 -0.450284 0.892861 0.00560302
-37.4073 78.0154 10.3083 -0.448007 0.894011 0.00592077
-37.0028 78.2055 11.2136 -0.441391 0.897287 0.00702707
-36.4233 78.4798 12.2681 -0.438307 0.898761 0.0107671
-35.8073 78.7667 13.3538 -0.437764 0.89903 0.0104212
-35.0517 79.1168 14.217 -0.429204 0.903124 0.0122835
-34.449 79.3898 15.14 -0.426942 0.904216 0.0107137
-33.7504 79.7081 15.8247 -0.424572 0.90534 0.0090786
-33.0546 80.0296 16.447 -0.418322 0.908245 0.00791822
-31.9831 80.5101 17.1709 -0.409174 0.912425 0.00541588
-30.9067 80.9841 17.709 -0.397901 0.917387 0.00334918
-29.8777 81.4231 18.1561 -0.389743 0.920887 -0.00481485
-28.97 81.8016 18.4834 -0.380699 0.924688 -0.000262461
-27.8921 82.2379 18.5807 -0.371103 0.928585 -0.00340426
-26.6463 82.7076 18.7894 -0.345078 0.938563 -0.00239662
-25.6481 83.0695 18.8852 -0.329042 0.94429 -0.00389638
-24.6061 83.4235 18.7796 -0.308744 0.951118 -0.007198
-23.6159 83.7399 18.6281 -0.29671 0.95492 -0.00708753
-22.4433 84.0927 18.3232 -0.279097 0.960092 -0.0150296
-21.2548 84.4258 17.9513 -0.263153 0.964612 -0.0113824
-20.1344 84.7008 17.2672 -0.245897 0.969072 -0.0208438
-19.1496 84.9239 16.9691 -0.208643 0.977686 -0.0244687
-18.0816 85.1321 16.6546 -0.177552 0.983949 -0.0176552
-16.8692 85.3222 16.0322 -0.136587 0.990498 -0.0160429
-15.2721 85.5044 15.553 -0.0987643 0.995047 -0.00993133
-14.1678 85.5951 15.3182 -0.0565163 0.998236 -0.018198
-13.0692 85.6366 15.1234 -0.0349056 0.999386 -0.00291374
-12.0599 85.6381 14.9435 0.0158191 0.999435 -0.027358
-10.9407 85.5886 14.7383 0.0474404 0.99856 -0.0250592
-9.694 85.5001 14.6821 0.0887479 0.99569 -0.0269282
-8.01232 85.3016 14.7026 0.126592 0.991732 -0.0210262
-6.71622 85.0889 14.8481 0.181498 0.983171 -0.0208126
-5.40649 84.7854 14.9585 0.240422 0.970548 -0.0153131
-4.48533 84.5643 15.3547 0.271605 0.962061 -0.0213762
-3.59649 84.3092 15.7573 0.287372 0.957588 -0.0207745
-2.3693 83.9329 16.3185 0.317238 0.94809 -0.0214958
-1.08731 83.4927 16.7644 0.3453 0.938302 -0.0183295
0.335739 82.9606 17.1336 0.362276 0.93191 -0.0172138
1.64682 82.4356 17.4301 0.384191 0.923062 -0.0188128
2.65858 82.0102 17.702 0.396658 0.917876 -0.0129011
3.56625 81.612 17.8682 0.414116 0.910147 -0.011838
4.70078 81.0965 17.9415 0.415486 0.90953 -0.0111792
5.73616 80.6114 17.8631 0.424465 0.905342 -0.0135862
6.8643 80.0625 18.1359 0.441679 0.897167 -0.00343662
7.73617 79.6269 18.0702 0.450282 0.892885 -0.00156093
8.79396 79.0915 18.0239 0.455681 0.890126 -0.00563959
9.84166 78.555 17.9879 0.458248 0.888807 -0.00470402
10.8554 78.0255 17.7326 0.463921 0.885861 -0.00483519
11.9931 77.4252 17.236 0.465267 0.885163 -0.00371994
12.7529 77.0184 16.7556 0.472254 0.881462 -0.00091326
13.5618 76.5843 16.102 0.474466 0.880272 -0.00115753
14.604 76.0211 15.078 0.475046 0.879961 -6.85249e-05
15.189 75.7017 14.2254 0.478418 0.87813 -0.00184648
15.6286 75.4589 13.3785 0.479299 0.877633 -0.00577854
16.2321 75.1213 12.4917 0.482056 0.876108 -0.00751181
16.6212 74.9 11.6432 0.485028 0.87447 -0.00711362
16.8025 74.7902 10.6621 0.484493 0.874747 -0.0091538
17.0579 74.6333 9.5079 0.485022 0.874411 -0.0125717
17.425 74.4063 8.00071 0.485409 0.874142 -0.0157609
17.5012 74.3379 6.89591 0.488757 0.872162 -0.0212381
17.6332 74.2396 5.87964 0.490652 0.871084 -0.0217564
17.7377 74.1503 4.67353 0.490648 0.871074 -0.0222267
17.79 74.0846 3.41154 0.495126 0.868502 -0.0235292
17.808 74.0417 2.28429 0.498658 0.866443 -0.024744
17.8451 73.9845 1.11416 0.500294 0.865483 -0.0253427
17.8958 73.9177 -0.167471 0.506014 0.862131 -0.0260616
17.8997 73.8831 -1.27033 0.508472 0.860733 -0.0243988
17.8832 73.8556 -2.7024 0.509424 0.860241 -0.0217429
17.8073 73.865 -4.11168 0.509557 0.860166 -0.0215866
17.8184 73.8337 -5.1249 0.511553 0.858995 -0.021
17.6012 73.93 -6.46644 0.510704 0.859488 -0.0214933
17.3947 74.0283 -7.48068 0.509647 0.860144 -0.0201742
17.1709 74.1344 -8.59353 0.50788 0.861233 -0.0183256
16.8626 74.2917 -9.77514 0.508171 0.861075 -0.0176584
16.5082 74.4764 -10.8726 0.50551 0.862591 -0.0198949
16.0115 74.7378 -12.0356 0.501971 0.864618 -0.0214769
15.4405 75.0467 -12.9595 0.500643 0.865446 -0.018975
14.9755 75.292 -13.9005 0.498701 0.866469 -0.0229718
14.3898 75.5969 -15.041 0.498303 0.866673 -0.0239065
13.845 75.8855 -15.9521 0.497585 0.867096 -0.0235185
13.0608 76.3074 -16.8452 0.493358 0.869497 -0.0239502
12.1734 76.788 -17.6851 0.490124 0.871376 -0.0219527
11.3349 77.2409 -18.4307 0.488567 0.872254 -0.0217392
10.6298 77.6214 -19.0477 0.488764 0.872189 -0.019923
9.80906 78.0653 -19.564 0.483724 0.87502 -0.0186553
8.94775 78.5329 -20.0522 0.485681 0.874038 -0.0131028
7.87906 79.1131 -20.5301 0.481993 0.876161 -0.00500666
6.96737 79.6073 -20.6441 0.475527 0.879688 -0.00474886
5.75752 80.2516 -20.6621 0.465629 0.884864 0.0143201
4.52468 80.891 -20.5075 0.456333 0.889713 0.0131013
3.66478 81.3255 -20.2999 0.438414 0.898566 0.0192022
2.68685 81.7978 -20.1421 0.433573 0.900882 0.0201408
1.59939 82.3069 -19.8606 0.427979 0.903506 0.0225954
0.479901 82.8012 -19.5311 0.405429 0.91376 0.025878
-0.77572 83.3198 -18.954 0.389354 0.92052 0.0323375
-1.29171 83.5225 -18.632 0.369241 0.928767 0.0310257
-1.70983 83.7197 -19.5263 0.37491 0.926263 0.0379543
-2.57931 84.0302 -18.933 0.35284 0.934819 0.0402002
-3.36788 84.3049 -18.3586 0.351177 0.935005 0.0481001
-4.26154 84.5802 -17.7901 0.3147 0.94752 0.0554863
-5.07711 84.8206 -17.1503 0.305838 0.95074 0.0494126
-5.97942 85.0511 -16.5543 0.284862 0.956029 0.0697327
-7.10014 85.2779 -15.7356 0.233117 0.971024 0.0526186
-8.01935 85.4443 -15.3053 0.193716 0.978026 0.0770735
-9.30803 85.6113 -14.6944 0.147834 0.987957 0.0456761
-10.3078 85.7234 -14.4564 0.071365 0.995252 0.0460612
-11.2935 85.7501 -14.5157 0.0364915 0.998825 0.0280529
-12.2776 85.7824 -14.4643 -0.00648704 0.999555 0.0291321
-13.7541 85.7393 -14.8681 -0.0496898 0.998764 0.000225691
-14.974 85.6621 -15.2187 -0.078321 0.996921 0.00389969
-15.9312 85.5676 -15.5355 -0.0935566 0.995546 -0.0116669
-16.9296 85.4589 -15.8755 -0.112009 0.993695 -0.00481241
-18.2192 85.294 -16.1418 -0.128635 0.991688 -0.00284646
-19.3993 85.0857 -16.2622 -0.181509 0.983385 0.00214031
-20.5639 84.8692 -16.4097 -0.205151 0.978482 0.0220625
-22.0368 84.541 -16.5852 -0.234563 0.971954 0.0169213
-23.1971 84.2527 -16.4428 -0.251405 0.967602 0.0232655
-24.3017 83.9508 -16.5142 -0.272877 0.961789 0.0223709
-25.3197 83.6603 -16.3365 -0.279469 0.959428 0.0328064
-26.6114 83.2501 -16.1758 -0.305771 0.951351 0.0378198
-27.7797 82.8543 -15.9376 -0.326451 0.94417 0.0434912
-28.7616 82.4953 -15.6861 -0.343332 0.937994 0.0459481
-29.6946 82.1245 -15.4795 -0.36638 0.929421 0.04393
-30.7883 81.6705 -15.078 -0.369696 0.928159 0.0429645
-31.659 81.2953 -14.7184 -0.381982 0.923382 0.0381538
-32.428 80.9504 -14.1782 -0.393923 0.916892 0.0642987
-33.5171 80.4267 -13.4014 -0.398425 0.915362 0.0580582
-34.2587 80.0303 -12.6616 -0.43913 0.895753 0.0614271
-34.9945 79.6431 -11.7725 -0.437629 0.898743 0.0271863
-35.74 79.2615 -10.637 -0.423376 0.90506 0.0360649
-36.1582 79.0111 -9.68135 -0.474249 0.872467 0.0915977
-36.8647 78.5801 -8.17384 -0.452974 0.891034 0.0295381
-37.2334 78.3547 -7.08829 -0.454055 0.890281 0.0351153
-37.627 78.106 -6.07933 -0.468065 0.883041 0.0312254
-38.0277 77.8833 -4.98697 -0.45589 0.889972 0.00826016
-38.3312 77.7081 -3.9496 -0.458123 0.88877 0.0144955
-38.7067 77.4875 -2.7772 -0.470523 0.882174 0.0159626
-39.0293 77.31 -1.67358 -0.466105 0.88472 0.0021963
-39.3494 77.1465 -0.709413 -0.464103 0.885695 -0.0107365
-39.6281 77.0088 0.323658 -0.446555 0.894743 0.00477713
-39.7321 76.9193 1.5309 -0.464448 0.885228 0.025693
-39.8211 76.8481 2.57645 -0.465242 0.885038 0.0160135
-39.8973 76.7856 3.54672 -0.472998 0.880866 0.01864
-39.7203 76.8486 5.07884 -0.473041 0.88086 0.0178049
-39.658 76.8693 6.16176 -0.475169 0.879887 0.00367152
-39.2434 77.0913 7.41059 -0.462077 0.886807 -0.0074509
-38.9911 77.2228 8.48367 -0.457019 0.889456 -0.000666323
-38.5948 77.4239 9.49733 -0.451558 0.892238 0.0025409
-38.2286 77.6013 10.5624 -0.447436 0.8943 0.00205485
-37.6694 77.874 11.884 -0.436426 0.899723 0.00554558
-37.1055 78.1376 12.8905 -0.443516 0.896127 0.015798
-36.5392 78.4049 14.0104 -0.44086 0.897511 0.00824303
-35.803 78.7513 14.8498 -0.429589 0.902945 0.0119933
-35.2508 79.0037 15.6246 -0.43049 0.902522 0.0115284
-34.5532 79.3273 16.3833 -0.429773 0.90288 0.0101525
-33.7074 79.7212 17.1134 -0.420749 0.907177 0.000317961
-32.5569 80.2456 17.9452 -0.412321 0.911034 0.0029751
-31.5834 80.684 18.4767 -0.402791 0.915289 -0.00245937
-30.7206 81.0662 18.9161 -0.401648 0.915752 -0.0050992
-29.8042 81.4565 19.2586 -0.384049 0.92331 -0.00234992
-28.6996 81.9103 19.5407 -0.377358 0.926066 0.0013721
-27.7439 82.2998 19.5265 -0.352837 0.935632 -0.00996115
-26.1215 82.9093 19.8541 -0.346512 0.937988 -0.00958715
-24.9584 83.3175 19.7872 -0.315975 0.948485 -0.0231352
-23.8373 83.68 19.6954 -0.30529 0.952 -0.0222153
-22.9208 83.9611 19.4483 -0.281897 0.959278 -0.0162072
-21.8315 84.2851 19.1286 -0.281636 0.959253 -0.0197215
-20.5636 84.615 18.682 -0.249834 0.968087 -0.0186355
-19.4905 84.8681 18.0847 -0.226069 0.973629 -0.0306458
-18.3211 85.1127 17.7359 -0.191195 0.981134 -0.0265603
-17.3938 85.2751 17.3546 -0.161742 0.98598 -0.0319505
-16.4985 85.3887 16.9232 -0.138872 0.990029 -0.023597
-15.3915 85.5119 16.5984 -0.102926 0.994252 -0.0294949
-14.2734 85.6115 16.2572 -0.0646693 0.99719 -0.0305074
-13.1077 85.6541 16.0722 -0.0428726 0.998142 -0.0433025
-11.8974 85.662 15.8396 0.00143536 0.999477 -0.0323143
-10.6166 85.6127 15.6169 0.0423482 0.997783 -0.0513332
-9.54723 85.5293 15.6059 0.110301 0.992333 -0.053492
-8.09605 85.3453 15.6577 0.129334 0.99027 -0.0513717
-7.12185 85.1868 15.8061 0.181617 0.983014 -0.0264417
-6.14203 84.9965 15.7736 0.229658 0.972281 -0.0438861
-5.25821 84.7865 16.155 0.259037 0.965478 -0.0264487
-4.34268 84.5516 16.4894 0.263999 0.963803 -0.0369832
-3.44863 84.2944 16.8355 0.295544 0.954024 -0.0499232
-2.53538 84.0131 17.2707 0.324032 0.945562 -0.0302487
-1.59208 83.7007 17.5928 0.337615 0.94064 -0.0311199
-0.675387 83.3649 17.8786 0.352374 0.935357 -0.0306717
0.354506 82.9731 18.1072 0.366554 0.930046 -0.0255268
1.42024 82.5497 18.3438 0.387141 0.921609 -0.0275389
2.5103 82.0923 18.6343 0.399841 0.916324 -0.0215103
3.5902 81.6148 18.8782 0.415424 0.909459 -0.017519
4.69511 81.1112 19.0082 0.416758 0.908984 -0.00781195
5.66186 80.6589 19.0075 0.440173 0.897868 -0.00892668
6.88512 80.0583 19.1425 0.442377 0.896808 -0.0061102
7.95446 79.5228 19.0442 0.449902 0.893044 -0.00776346
9.11145 78.9354 18.9822 0.455549 0.890182 -0.00712608
10.0057 78.4759 18.9499 0.45936 0.888214 -0.00789071
10.9005 78.0073 18.7474 0.466636 0.884394 -0.00914976
11.816 77.5243 18.4252 0.46886 0.883247 -0.00490652
12.6282 77.0877 17.9931 0.47187 0.881665 -0.00235677
13.7553 76.4812 17.1943 0.473128 0.880993 -0.0008062
14.5168 76.0688 16.4552 0.476631 0.879103 -0.000293986
15.1515 75.7248 15.7909 0.47611 0.879384 -0.00183229
15.8304 75.3553 14.9213 0.475819 0.879535 -0.00342566
16.2861 75.1043 14.0818 0.476702 0.879056 -0.0034133
16.946 74.7334 13.1327 0.48062 0.876836 -0.0123256
17.374 74.4874 12.2766 0.485231 0.874358 -0.00705328
17.6091 74.348 11.2017 0.484132 0.874959 -0.00795393
17.7859 74.2384 10.0993 0.483344 0.875342 -0.0123742
18.1688 74.0176 8.98514 0.468173 0.883574 -0.0105006
18.3072 73.9034 7.5108 0.481967 0.875674 -0.0288468
18.4071 73.818 6.40398 0.488875 0.872073 -0.0221245
18.5412 73.7075 5.0452 0.48965 0.871558 -0.0250151
18.5851 73.6526 4.06239 0.491488 0.870394 -0.0290225
18.6849 73.5607 3.03109 0.498455 0.866456 -0.0281445
18.6348 73.55 1.89654 0.501143 0.864885 -0.0286886
18.7337 73.4619 0.923956 0.502711 0.863993 -0.028244
18.7081 73.4315 -0.417252 0.512228 0.858442 -0.0264542
18.6824 73.4147 -1.46208 0.511556 0.858877 -0.0253094
18.7521 73.3457 -2.43883 0.511628 0.85887 -0.02405
18.6391 73.3765 -3.78701 0.513506 0.857734 -0.0245655
18.6496 73.339 -5.07957 0.510761 0.859472 -0.0207339
18.5725 73.3542 -6.35298 0.51241 0.858488 -0.0208526
18.3579 73.4499 -7.68512 0.511193 0.859219 -0.0205656
18.0324 73.6189 -8.83479 0.511495 0.859102 -0.0177891
17.7401 73.7757 -9.77038 0.508991 0.86066 -0.0129112
17.3884 73.9655 -10.7413 0.50472 0.863168 -0.0141306
17.1571 74.0757 -11.762 0.505415 0.862664 -0.019157
16.6917 74.3271 -12.7208 0.504728 0.863062 -0.0193157
16.2812 74.5459 -13.6198 0.500152 0.865683 -0.0209056
15.7954 74.8036 -14.4609 0.499843 0.865779 -0.0241688
15.251 75.0948 -15.2893 0.500684 0.865289 -0.0242896
14.6766 75.399 -16.2568 0.499275 0.86614 -0.0229087
14.0715 75.7265 -17.0267 0.496514 0.867728 -0.0228649
13.1856 76.2081 -17.9361 0.493918 0.869211 -0.0227346
12.3902 76.642 -18.6999 0.490614 0.871146 -0.0200109
11.5417 77.1035 -19.4185 0.489605 0.871762 -0.01763
10.6428 77.5909 -20.1139 0.486369 0.873565 -0.0180979
9.8391 78.0298 -20.6165 0.487853 0.872844 -0.0115101
8.91956 78.5348 -21.118 0.485342 0.874274 -0.00917384
7.92871 79.081 -21.4979 0.482304 0.875981 -0.00338457
6.86639 79.6611 -21.6794 0.481737 0.87631 0.00325772
5.94924 80.1607 -21.663 0.47844 0.87795 0.0172777
4.88717 80.7175 -21.5406 0.459654 0.888027 0.0112794
3.98722 81.179 -21.375 0.454624 0.890526 0.0167704
3.1147 81.6125 -21.1937 0.441405 0.897054 0.0213707
2.23331 82.0354 -21.0197 0.431768 0.90157 0.0273629
1.21745 82.5006 -20.7294 0.412575 0.910626 0.0233037
0.322226 82.9 -20.479 0.406767 0.912979 0.0302487
-0.796627 83.364 -20.0276 0.380675 0.924127 0.0326998
-1.60727 83.6799 -19.5876 0.37936 0.924607 0.0344545
7.61819 79.2709 -19.0266 0.473766 0.880572 -0.0117874
6.42008 79.9086 -18.9883 0.469537 0.882828 -0.0122294
4.97617 80.6606 -18.9418 0.46011 0.887794 -0.0109785
4.10396 81.096 -18.9191 0.446745 0.894635 0.00687991
9.30217 78.373 -18.1097 0.47863 0.87779 -0.0199578
8.09035 79.0318 -18.0682 0.473508 0.880655 -0.0153821
6.90808 79.6626 -18.0302 0.467967 0.883615 -0.0152271
5.56625 80.3657 -17.9868 0.45803 0.888886 -0.00947422
4.45151 80.9267 -17.9571 0.443708 0.896156 -0.00530635
3.39227 81.4469 -17.9284 0.431295 0.902211 0.000268073
2.31205 81.954 -17.8972 0.413285 0.910587 0.00519548
1.13123 82.4912 -17.8729 0.40871 0.912625 0.00848697
0.576458 82.7314 -17.8605 0.393877 0.91907 0.0130873
-1.46092 83.554 -16.8551 0.346753 0.937853 0.0139461
-0.150921 83.0301 -16.8747 0.381556 0.924316 0.00735962
1.18312 82.4637 -16.9026 0.394766 0.918768 0.00502182
2.41231 81.9083 -16.9298 0.413301 0.910592 -0.00213717
3.84863 81.2318 -16.9696 0.434985 0.900393 -0.00896165
5.05499 80.6363 -16.9985 0.447174 0.894403 -0.00888774
6.18459 80.0607 -17.0315 0.456677 0.889534 -0.0132559
7.54912 79.3404 -17.0738 0.466404 0.884396 -0.0176127
8.58391 78.7866 -17.1099 0.477584 0.878378 -0.0191171
9.91628 78.0576 -17.1561 0.482016 0.875963 -0.018689
10.5248 77.7233 -17.1772 0.483642 0.875017 -0.0208651
11.5623 77.1691 -16.237 0.490095 0.871358 -0.0232932
10.527 77.7454 -16.199 0.484854 0.87431 -0.0223385
9.50021 78.3094 -16.1635 0.47673 0.878834 -0.0194747
8.47501 78.8662 -16.1317 0.477096 0.878651 -0.0187386
7.39454 79.4407 -16.0943 0.466834 0.884246 -0.0132269
6.0607 80.1381 -16.0513 0.453629 0.891095 -0.0130985
4.64754 80.8499 -16.0149 0.447812 0.894035 -0.0128491
3.36878 81.4716 -15.9803 0.427347 0.904062 -0.00674699
2.2041 82.0088 -15.9527 0.413562 0.910452 -0.00653302
0.807784 82.622 -15.9214 0.395929 0.918281 -1.73501e-05
-0.727798 83.2529 -15.8943 0.37085 0.928602 0.0130041
-1.94862 83.7214 -15.8814 0.344805 0.938606 0.0113632
-2.60489 83.9596 -15.8766 0.317628 0.948001 0.0201564
-3.81023 84.3406 -14.9061 0.293541 0.955876 0.0116513
-2.53167 83.9145 -14.9083 0.329061 0.944096 0.0200596
-1.39322 83.5096 -14.9144 0.350323 0.936628 0.0011587
-0.246098 83.055 -14.9303 0.369269 0.929315 0.00365995
1.02663 82.5288 -14.9523 0.393531 0.91931 -0.00142698
2.16393 82.0326 -14.9767 0.407785 0.913021 -0.0101753
3.57335 81.3849 -15.0115 0.430638 0.902459 -0.010878
5.05041 80.6599 -15.0496 0.446117 0.894919 -0.0100351
6.16589 80.0969 -15.0797 0.456753 0.889473 -0.0146398
7.33228 79.4886 -15.1181 0.466261 0.8845 -0.0161474
8.49362 78.8744 -15.1522 0.471427 0.881769 -0.0154758
9.74793 78.1967 -15.1923 0.476586 0.878904 -0.0198508
10.9569 77.5309 -15.2366 0.484412 0.874582 -0.0212607
12.2981 76.7835 -15.2888 0.487874 0.872568 -0.0245842
12.5665 76.6335 -15.2997 0.491049 0.870747 -0.0259091
13.0417 76.3875 -14.3442 0.495491 0.868386 -0.0198762
11.8787 77.0431 -14.2946 0.486423 0.873471 -0.0209995
10.7149 77.6894 -14.2478 0.482172 0.875825 -0.0209767
9.23445 78.4951 -14.1953 0.47373 0.880432 -0.0204871
8.07478 79.1134 -14.1596 0.466095 0.884545 -0.0183176
7.02484 79.668 -14.1278 0.464084 0.885662 -0.0151473
5.9447 80.2238 -14.097 0.451791 0.891926 -0.0187722
4.85338 80.7724 -14.068 0.445212 0.895324 -0.0134373
3.80581 81.2864 -14.0409 0.431319 0.90211 -0.012739
2.49433 81.8949 -14.0091 0.406781 0.913496 -0.00732919
1.16962 82.4695 -13.9805 0.392983 0.919543 -0.0022324
0.00882227 82.9534 -13.9618 0.37454 0.927191 -0.00606285
-1.17145 83.4206 -13.9436 0.365785 0.930698 -0.00181599
-2.43297 83.8774 -13.9328 0.323222 0.946321 -0.00199227
-3.667 84.2854 -13.9406 0.306687 0.951751 0.010614
-4.90889 84.6668 -13.9491 0.280052 0.959965 0.00617933
-5.49344 84.8285 -13.951 0.266808 0.963724 0.00709924
-7.21618 85.2268 -12.9877 0.176591 0.984213 0.0118284
-5.97814 84.9559 -12.9922 0.262748 0.964757 0.0144003
-4.52472 84.5411 -12.9864 0.291856 0.95646 0.00214982
-3.28859 84.1589 -12.9654 0.313305 0.949641 -0.00474847
-2.00872 83.7302 -12.9574 0.330406 0.943796 -0.0089297
-0.786632 83.2762 -12.9773 0.363541 0.931557 -0.00626547
0.424438 82.7897 -12.9941 0.376161 0.926547 -0.00379684
1.62251 82.2849 -13.0151 0.398665 0.917021 -0.0117515
2.75363 81.7845 -13.0384 0.413949 0.910253 -0.00925896
4.03654 81.1884 -13.0695 0.42725 0.904059 -0.011639
5.53938 80.4462 -13.1079 0.448856 0.893472 -0.0153431
6.76385 79.8224 -13.1394 0.461659 0.886805 -0.021155
7.98005 79.1859 -13.174 0.464719 0.885216 -0.0207001
9.40424 78.4264 -13.2189 0.474969 0.879789 -0.0193718
10.6358 77.757 -13.2625 0.481997 0.875904 -0.021706
11.7127 77.1593 -13.3055 0.486434 0.873465 -0.0209965
13.1721 76.338 -13.3722 0.494029 0.869116 -0.0239283
13.2585 76.2886 -13.3759 0.494904 0.868562 -0.0258686
14.2077 75.7711 -12.441 0.497351 0.867308 -0.0204461
13.1428 76.3798 -12.3874 0.49283 0.869824 -0.0229194
12.123 76.9545 -12.3398 0.486965 0.873129 -0.0225952
11.035 77.5599 -12.2929 0.484075 0.874734 -0.022603
9.92611 78.1676 -12.2512 0.475266 0.879571 -0.0218448
8.59285 78.8844 -12.2073 0.47053 0.882204 -0.0178293
7.42108 79.502 -12.1743 0.462993 0.88618 -0.017972
6.1276 80.1681 -12.1397 0.452231 0.891768 -0.0153638
4.69424 80.8807 -12.1048 0.438816 0.898489 -0.0125912
3.49769 81.4524 -12.0768 0.421276 0.906813 -0.0147216
2.04513 82.1163 -12.0421 0.413523 0.910443 -0.00958472
0.840354 82.6287 -12.0217 0.374546 0.927161 -0.00939421
-0.636678 83.2218 -12.0054 0.37093 0.928617 -0.00899083
-1.75516 83.6383 -11.9908 0.340865 0.940112 -0.000584394
-2.9872 84.0651 -11.9863 0.312692 0.949833 -0.00644839
-4.14678 84.4284 -12.0049 0.287664 0.957731 0.000993025
-5.35174 84.7751 -12.0256 0.248541 0.968621 7.99977e-05
-6.85286 85.1329 -12.0253 0.205068 0.978558 0.0192584
-8.24783 85.3977 -12.0182 0.178803 0.983873 0.00494123
-9.63884 85.6038 -11.9285 0.121725 0.992547 -0.00570832
-10.8362 85.7229 -11.7418 0.0740338 0.997108 -0.0171927
-12.1186 85.7779 -11.5029 0.0154473 0.999861 -0.00635018
-13.5584 85.7752 -11.2438 -0.0189112 0.999821 -0.00015531
-14.8708 85.6978 -10.9952 -0.0707875 0.997464 -0.00741003
-16.0816 85.5961 -10.7667 -0.0917336 0.995752 -0.00792922
-17.4652 85.4614 -10.4957 -0.109083 0.994024 -0.00424859
-18.6547 85.2747 -10.2656 -0.175807 0.984365 -0.0108415
-19.8475 85.0484 -10.0586 -0.192458 0.981285 -0.006345
-21.2055 84.7469 -9.80934 -0.233627 0.972326 -0.000724577
-22.3508 84.4587 -9.57286 -0.24462 0.969619 0.000666973
-23.5114 84.14 -9.3475 -0.279152 0.960247 0.000922041
-24.7476 83.7617 -9.11641 -0.308526 0.951102 0.0147358
-25.8482 83.3947 -8.90657 -0.327749 0.944719 0.0093191
-27.0172 82.978 -8.68971 -0.341594 0.939726 0.0151019
-28.2897 82.4919 -8.45324 -0.361702 0.932123 0.0178448
-29.5042 82.0083 -8.22398 -0.370314 0.928754 0.0168432
-30.6007 81.5507 -8.01084 -0.391753 0.92004 0.00740058
-31.7013 81.067 -7.79131 -0.402472 0.915069 0.0258064
-33.0842 80.4336 -7.49352 -0.423375 0.905581 0.0260075
-34.159 79.9068 -7.27602 -0.4402 0.897582 0.0238914
-34.7497 79.6122 -7.14792 -0.442174 0.896596 0.0244648
-35.1939 79.3643 -6.09638 -0.450297 0.892561 0.0238267
-33.9686 79.9766 -6.36369 -0.441235 0.897176 0.0196507
-32.7934 80.5438 -6.59544 -0.423381 0.905578 0.0260038
-31.2407 81.2551 -6.90991 -0.407003 0.913311 0.01454
-29.9835 81.8013 -7.15904 -0.385899 0.922446 0.0132574
-28.7767 82.2868 -7.39265 -0.367472 0.93001 0.00681815
-27.6787 82.7188 -7.59194 -0.365131 0.930928 0.00719709
-26.2437 83.2458 -7.84857 -0.341683 0.93974 0.0119377
-24.5842 83.7983 -8.16055 -0.305706 0.952044 0.0125282
-23.1827 84.224 -8.42688 -0.274779 0.961456 0.00995787
-21.8206 84.5915 -8.68855 -0.251322 0.967903 0.000916461
-20.391 84.9332 -8.96566 -0.225861 0.974134 0.00700041
-18.8408 85.2445 -9.23596 -0.174598 0.984599 0.00897103
-17.5425 85.4561 -9.482 -0.134811 0.990845 0.00715762
-16.3787 85.5767 -9.70295 -0.092793 0.995635 -0.0100336
-14.8691 85.6998 -9.98685 -0.0665959 0.997738 0.00914033
-13.6217 85.763 -10.2263 -0.0330788 0.999423 0.00767712
-12.3531 85.7812 -10.4513 0.00838024 0.999964 -0.00110652
-11.167 85.7652 -10.676 0.0454916 0.998877 0.0132309
-9.66908 85.6093 -10.9124 0.136408 0.990652 -0.00103163
-8.13689 85.3773 -11.0438 0.181518 0.983367 -0.00630334
-6.92556 85.1437 -11.0627 0.19383 0.981028 -0.00362795
-4.9224 84.6505 -11.0472 0.266758 0.963733 0.00769294
-3.54027 84.2359 -11.0236 0.301228 0.953512 0.00873083
-2.40867 83.8829 -11.0077 0.321745 0.946694 -0.0158306
-1.02647 83.3768 -11.0248 0.358312 0.933581 -0.00622091
0.104082 82.935 -11.0354 0.372331 0.928017 -0.0123818
1.28826 82.4519 -11.048 0.388409 0.921434 -0.00985766
2.60477 81.8728 -11.078 0.410697 0.911683 -0.0127294
3.70185 81.3734 -11.0974 0.417784 0.908464 -0.0122672
4.97465 80.7588 -11.1281 0.440738 0.897527 -0.0139766
6.01764 80.2376 -11.1526 0.450853 0.892515 -0.0122128
7.14029 79.6647 -11.1814 0.455087 0.890352 -0.0129773
8.17602 79.127 -11.2099 0.460682 0.887388 -0.0177533
9.40117 78.4736 -11.2471 0.472031 0.881382 -0.0188
10.4283 77.9203 -11.28 0.474461 0.880043 -0.0202943
11.6076 77.2685 -11.327 0.486805 0.873145 -0.0252523
12.905 76.5396 -11.3902 0.490227 0.871343 -0.0209693
14.2474 75.7723 -11.4604 0.497498 0.867194 -0.021686
14.2991 75.7426 -11.4632 0.498284 0.866751 -0.0213472
15.1775 75.2585 -10.5332 0.501272 0.865073 -0.0193903
14.1247 75.8673 -10.4717 0.497586 0.86715 -0.0214361
13.0062 76.5056 -10.4105 0.490964 0.870955 -0.019785
11.7681 77.2044 -10.3469 0.490719 0.871002 -0.023453
10.5726 77.8645 -10.2986 0.47548 0.879503 -0.0198218
9.50583 78.4395 -10.2647 0.474015 0.880267 -0.0209867
8.26705 79.0998 -10.2266 0.463852 0.885744 -0.0172934
7.03226 79.7427 -10.1917 0.456533 0.889458 -0.0210384
5.83775 80.3429 -10.1628 0.445818 0.894994 -0.0152405
4.72659 80.8957 -10.1392 0.442558 0.896662 -0.01184
3.66142 81.4009 -10.1081 0.420888 0.907085 -0.00702605
2.54249 81.9127 -10.0908 0.413997 0.910218 -0.0104151
1.04897 82.557 -10.0664 0.380603 0.924628 -0.0143288
-0.0975723 83.029 -10.0532 0.364557 0.931127 -0.0100062
-1.30547 83.4904 -10.0441 0.357535 0.933874 -0.00693499
-2.41003 83.8901 -10.0341 0.310074 0.950712 0.000801198
-3.66691 84.289 -10.046 0.289592 0.957056 -0.0134282
-4.9479 84.6567 -10.0734 0.264501 0.964353 -0.00794528
-6.30395 85.0281 -10.0865 0.261667 0.965157 0.00165738
-7.53145 85.2756 -10.068 0.172445 0.985018 0.0018019
-8.70289 85.4795 -10.028 0.134982 0.99084 -0.00412333
-10.1385 85.663 -9.85281 0.110753 0.993827 -0.00642912
-11.5676 85.77 -9.58906 0.0463923 0.998862 0.011066
-12.807 85.7797 -9.3757 0.00193704 0.999981 0.00587146
-14.211 85.7409 -9.11854 -0.0490094 0.998699 -0.0141082
-15.5828 85.6518 -8.84625 -0.0723344 0.99738 -0.000751917
-16.83 85.534 -8.61153 -0.11104 0.993812 0.00289426
-18.2003 85.3453 -8.36082 -0.166447 0.986043 -0.00389551
-19.3653 85.1385 -8.14881 -0.186066 0.982521 -0.00566029
-20.6508 84.875 -7.91065 -0.215122 0.976565 0.00658747
-22.2407 84.4808 -7.62173 -0.251201 0.967904 0.00779123
-23.48 84.1333 -7.38068 -0.286669 0.95794 0.0131337
-24.8098 83.7142 -7.13905 -0.296155 0.955061 0.0122861
-25.9231 83.3429 -6.93682 -0.322811 0.946358 0.0141595
-27.0494 82.9393 -6.73435 -0.342271 0.939537 0.0109713
-28.2101 82.5027 -6.5262 -0.364635 0.931127 0.00654264
-29.6167 81.9431 -6.26017 -0.380805 0.924605 0.00961399
-30.8185 81.4258 -6.02341 -0.40379 0.914683 0.0175848
-31.9218 80.9276 -5.80807 -0.418815 0.90792 0.0165941
-33.3917 80.2387 -5.51533 -0.422614 0.906089 0.0200148
-34.4257 79.7279 -5.30881 -0.444458 0.895509 0.0227996
-35.521 79.1708 -5.06366 -0.452763 0.891328 0.023249
-35.8301 78.9916 -4.06213 -0.453365 0.891152 0.0175758
-34.7657 79.5321 -4.284 -0.447159 0.894254 0.0189125
-33.3401 80.2381 -4.57555 -0.437131 0.899022 0.0260124
-32.0035 80.8694 -4.81649 -0.420946 0.906816 0.0221409
-30.7446 81.441 -5.0655 -0.395888 0.918026 0.0223688
-29.596 81.9378 -5.28896 -0.385356 0.922508 0.0219083
-28.0708 82.5418 -5.57598 -0.356892 0.934017 0.0155156
-26.9177 82.976 -5.78638 -0.340206 0.940261 0.0129988
-25.3167 83.5315 -6.06527 -0.32028 0.947233 0.0130851
-24.1593 83.9132 -6.26561 -0.302625 0.953044 0.0112367
-22.7861 84.3203 -6.52763 -0.261248 0.965228 0.00916714
-21.6248 84.631 -6.74182 -0.258307 0.965998 0.0111944
-20.0427 85.0052 -7.02807 -0.222927 0.974834 -0.00122054
-18.598 85.2931 -7.28707 -0.176201 0.984286 -0.0115624
-17.4667 85.4738 -7.49794 -0.157798 0.987432 -0.00881352
-16.1562 85.6205 -7.73928 -0.104419 0.994419 -0.0150596
-15.0088 85.7003 -7.95817 -0.0709555 0.997447 -0.00811131
-13.5054 85.7684 -8.25312 -0.00775061 0.999923 0.0096662
-12.3555 85.7734 -8.45769 0.00193669 0.999981 0.00583417
-10.9209 85.7335 -8.72376 0.0676537 0.997645 0.0113026
-9.58422 85.6072 -8.92629 0.124172 0.992239 -0.00658266
-8.18432 85.3881 -9.05632 0.174052 0.984732 -0.00283186
-6.97399 85.1647 -9.09374 0.196076 0.980519 0.0117026
-5.76913 84.8884 -9.10128 0.251775 0.967783 0.00232133
-4.61892 84.5751 -9.0837 0.264202 0.964395 -0.0118363
-3.30798 84.1873 -9.05343 0.295884 0.955203 -0.00629949
-1.79749 83.6693 -9.05609 0.344624 0.938696 -0.00917227
-0.422373 83.1613 -9.06439 0.35028 0.936575 -0.0114294
1.15262 82.5296 -9.07884 0.384681 0.92302 -0.00743134
2.37749 81.9984 -9.10119 0.40311 0.915125 -0.00697593
3.46402 81.5038 -9.11942 0.420026 0.907448 -0.0108029
4.90486 80.8173 -9.15739 0.440029 0.897946 -0.00820782
6.20285 80.1782 -9.18407 0.445728 0.894998 -0.0174757
7.317 79.6133 -9.21171 0.458872 0.88839 -0.0141182
8.55576 78.9656 -9.24706 0.465959 0.884622 -0.0180621
9.74335 78.3339 -9.28413 0.474376 0.880138 -0.0180146
10.9252 77.6941 -9.32403 0.476887 0.878765 -0.0187118
12.0016 77.097 -9.37163 0.488641 0.872206 -0.0220478
13.132 76.4588 -9.42845 0.493303 0.869611 -0.0207263
14.4601 75.6964 -9.50891 0.499099 0.866361 -0.0178727
15.5596 75.0582 -9.57625 0.501961 0.864673 -0.0193942
15.2224 75.2765 -8.56845 0.502996 0.864087 -0.018653
13.4346 76.3098 -8.4544 0.4991 0.866175 -0.0252898
12.3518 76.9242 -8.39895 0.490145 0.871344 -0.0227455
11.1153 77.6152 -8.34607 0.479784 0.877188 -0.018685
9.83065 78.3062 -8.29174 0.472207 0.881257 -0.0201739
8.74802 78.8845 -8.25691 0.467021 0.884036 -0.0192991
7.37256 79.605 -8.219 0.456099 0.889711 -0.0196841
6.03034 80.2816 -8.19111 0.442691 0.896455 -0.0198101
4.70547 80.9306 -8.16445 0.431983 0.901836 -0.00908173
3.25035 81.6144 -8.13019 0.421979 0.906512 -0.0129912
2.00181 82.1715 -8.10661 0.40311 0.915125 -0.00697598
0.246019 82.918 -8.08096 0.383106 0.92355 -0.0168928
-0.883635 83.3474 -8.06956 0.346527 0.93795 -0.0129891
-2.0498 83.7716 -8.07154 0.343217 0.93919 -0.0111484
-3.50945 84.2562 -8.07361 0.293282 0.95596 -0.0112323
-4.90432 84.6681 -8.09932 0.263598 0.964518 -0.014874
-6.41727 85.0519 -8.11358 0.220378 0.975363 -0.0100035
-7.70572 85.3121 -8.08551 0.167686 0.985773 -0.0115251
-9.28218 85.5639 -7.96454 0.140189 0.990116 0.0042087
-10.4838 85.7018 -7.79639 0.0710272 0.99743 -0.00945429
-11.9889 85.7586 -7.51999 0.0094665 0.999875 0.0126271
-13.2032 85.7823 -7.30749 -0.0043327 0.99978 -0.0205104
-14.6166 85.7388 -7.04304 -0.047384 0.998866 -0.0047003
-15.9354 85.6526 -6.79008 -0.0761024 0.9971 0.000585224
-17.4958 85.475 -6.49332 -0.135168 0.990786 0.00853847
-18.6306 85.292 -6.28204 -0.164806 0.986326 -0.000586937
-19.7898 85.0666 -6.07801 -0.208168 0.978086 -0.00361473
-21.1005 84.7659 -5.84479 -0.229941 0.973204 -0.000925595
-22.5758 84.3709 -5.58006 -0.26551 0.964108 0.000413133
-23.8595 84.0006 -5.32532 -0.299018 0.954224 0.0066449
-25.1259 83.5827 -5.12664 -0.311827 0.950064 0.0119586
-26.5828 83.0809 -4.87975 -0.337603 0.941002 0.0232031
-27.6615 82.6832 -4.67797 -0.349247 0.936863 0.0177382
-28.7329 82.2713 -4.47968 -0.367008 0.930056 0.0173469
-29.8525 81.8071 -4.26396 -0.384528 0.922899 0.0198755
-31.1792 81.2271 -4.01111 -0.413419 0.910171 0.0259589
-32.296 80.709 -3.80987 -0.420949 0.906807 0.0224353
-33.3953 80.1866 -3.61607 -0.435405 0.900025 0.0194468
-34.8314 79.4784 -3.31961 -0.439942 0.897853 0.0176352
-36.2272 78.7696 -3.04034 -0.451426 0.892208 0.0133833
-36.2879 78.7386 -3.02646 -0.453048 0.891381 0.0136587
-36.4052 78.6637 -2.03647 -0.454201 0.890799 0.0134111
-34.8815 79.4352 -2.363 -0.444424 0.895647 0.0174363
-33.8333 79.956 -2.57496 -0.438166 0.898797 0.0132298
-32.6198 80.5355 -2.79728 -0.418548 0.907975 0.019982
-31.3554 81.118 -3.01139 -0.409818 0.911681 0.0297833
-30.263 81.6067 -3.2138 -0.39371 0.918755 0.0296804
-29.1354 82.0829 -3.42772 -0.379547 0.925102 0.0114042
-27.9593 82.5538 -3.64711 -0.35492 0.934791 0.0140807
-26.4945 83.093 -3.92122 -0.333858 0.94256 0.0109326
-25.171 83.5565 -4.14994 -0.310272 0.950615 0.0079219
-23.809 83.9973 -4.36376 -0.308029 0.951112 0.0224556
-22.2653 84.4536 -4.63534 -0.270566 0.9626 0.0139553
-21.0167 84.791 -4.86487 -0.254488 0.967076 0.000656678
-19.4108 85.1403 -5.15652 -0.193336 0.981123 0.00431369
-18.2035 85.3595 -5.36011 -0.160332 0.987039 0.00695039
-16.5638 85.5941 -5.67674 -0.109465 0.993957 0.00817718
-15.3947 85.6918 -5.89871 -0.0651252 0.997876 0.00155439
-14.0999 85.7691 -6.13521 -0.0466883 0.998887 -0.00675845
-12.8827 85.7902 -6.36116 0.0120059 0.999883 -0.00948078
-11.7214 85.7644 -6.56378 0.0400606 0.999197 -0.000625548
-10.4231 85.7051 -6.80427 0.0721651 0.997375 -0.0059958
-9.23965 85.5629 -6.9744 0.134108 0.990934 -0.00812016
-8.04231 85.3809 -7.0705 0.167555 0.9858 -0.0111475
-6.384 85.0545 -7.11688 0.207478 0.97823 -0.00425688
-5.00967 84.7047 -7.10382 0.269351 0.96303 -0.00481095
-3.6736 84.3171 -7.08009 0.29211 0.956339 -0.00937544
-2.43262 83.9137 -7.07964 0.333113 0.942862 -0.0068523
-1.15464 83.4567 -7.07973 0.339306 0.940659 -0.00567359
-0.0591034 83.0509 -7.08652 0.358755 0.933423 -0.00398613
1.03548 82.6069 -7.10257 0.399014 0.916862 -0.0123066
2.40295 82.0076 -7.12624 0.406418 0.913581 -0.0139648
3.60051 81.4681 -7.15098 0.422764 0.906086 -0.016724
4.87619 80.8674 -7.17533 0.42958 0.9028 -0.0203339
6.11782 80.2605 -7.19392 0.440894 0.897392 -0.0173226
7.64556 79.4868 -7.23135 0.453178 0.891166 -0.0212913
8.78358 78.888 -7.26726 0.468865 0.883071 -0.0187402
9.96057 78.2589 -7.31083 0.474318 0.880171 -0.017908
11.2815 77.5453 -7.36039 0.475955 0.879361 -0.0138423
12.3108 76.9709 -7.40222 0.488113 0.872563 -0.0195057
13.4593 76.3198 -7.46342 0.495137 0.868585 -0.019983
14.684 75.613 -7.54439 0.500196 0.865696 -0.0193481
15.8196 74.9515 -7.6374 0.502953 0.864057 -0.0210589
16.1706 74.7711 -6.68669 0.505622 0.862453 -0.0228113
14.8707 75.528 -6.56678 0.49887 0.866436 -0.0204235
13.6417 76.2369 -6.48472 0.497794 0.867099 -0.0184835
12.5152 76.8751 -6.424 0.488379 0.872436 -0.0185079
11.3538 77.5199 -6.37315 0.478161 0.878184 -0.0124472
10.173 78.1615 -6.32883 0.47625 0.87917 -0.0156645
9.0848 78.7468 -6.29042 0.469588 0.882726 -0.0167782
7.94191 79.3504 -6.25228 0.462725 0.886396 -0.0137171
6.71901 79.9765 -6.21751 0.450103 0.89289 -0.0124334
5.28205 80.6868 -6.18772 0.438503 0.89856 -0.0174438
4.05994 81.2704 -6.1663 0.420366 0.907277 -0.0118529
2.59475 81.9344 -6.13966 0.406884 0.913428 -0.00972781
1.47644 82.4272 -6.12203 0.400524 0.916242 -0.00898419
0.371582 82.8826 -6.10587 0.371714 0.928311 -0.00827139
-0.924016 83.3827 -6.08801 0.344849 0.938621 -0.00834563
-2.42384 83.919 -6.08413 0.330054 0.94391 -0.00995114
-3.80946 84.3748 -6.08089 0.28405 0.958802 -0.00368424
-5.34506 84.8 -6.09666 0.249773 0.968304 -0.0011113
-6.80262 85.1446 -6.10312 0.21076 0.977538 0.000192467
-8.08518 85.3959 -6.06817 0.17421 0.984672 -0.0084413
-9.23852 85.5707 -5.97066 0.133806 0.991007 0.000791818
-10.5094 85.6959 -5.78626 0.0758222 0.997074 0.00974847
-12.0306 85.7721 -5.52136 0.0375962 0.99926 0.00817454
-13.4951 85.7906 -5.25512 -0.0317385 0.999485 0.00471992
-14.7166 85.7335 -5.014 -0.0608401 0.998102 0.00957688
-16.085 85.6314 -4.76834 -0.0760002 0.997072 -0.00840967
-17.504 85.4736 -4.49544 -0.147778 0.989008 -0.00493613
-18.788 85.2591 -4.27863 -0.176512 0.984287 0.00483556
-19.9283 85.0339 -4.06496 -0.201219 0.979534 0.00490358
-21.1309 84.7552 -3.84877 -0.256451 0.966491 0.0112747
-22.6854 84.3242 -3.58014 -0.275595 0.961206 0.0114139
-23.8029 83.9881 -3.39342 -0.292142 0.956195 0.0185711
-25.0478 83.5831 -3.19449 -0.317832 0.948035 0.0145932
-26.3348 83.138 -2.97838 -0.335144 0.942094 0.0117549
-27.69 82.6425 -2.73169 -0.348577 0.937081 0.0193476
-29.0351 82.1118 -2.4785 -0.380854 0.924538 0.0134344
-30.1443 81.6361 -2.26028 -0.400868 0.915931 0.0193753
-31.6626 80.9587 -1.99612 -0.408893 0.912457 0.0151665
-33.0225 80.3283 -1.78089 -0.418881 0.907845 0.0188738
-34.1416 79.7926 -1.54527 -0.433115 0.901215 0.0149243
-35.1805 79.2734 -1.35289 -0.448023 0.893939 0.0121836
-36.2152 78.7493 -1.14104 -0.452777 0.891559 0.0107893
-36.7243 78.4893 -1.02472 -0.453687 0.891102 0.0103143
-36.8012 78.4385 -0.0556107 -0.45298 0.891455 0.0108343
-35.7707 78.9633 -0.28888 -0.450662 0.892606 0.0125724
-34.3224 79.6866 -0.561691 -0.439479 0.898171 0.0121098
-32.8603 80.3847 -0.850516 -0.420321 0.907275 0.0135092
-31.3657 81.0765 -1.09008 -0.415141 0.90961 0.0163639
-29.7583 81.7878 -1.35835 -0.402158 0.915421 0.0165316
-28.5398 82.2985 -1.60248 -0.375501 0.926599 0.0203213
-27.4192 82.7276 -1.81099 -0.346322 0.938082 0.00793879
-26.1623 83.1884 -2.03726 -0.336833 0.94151 0.0101108
-25.0357 83.5796 -2.2296 -0.314733 0.949133 0.00944305
-23.6782 84.0116 -2.44654 -0.288473 0.957443 0.0092694
-22.1647 84.4617 -2.6951 -0.280584 0.959732 0.0136513
-20.9309 84.7925 -2.89555 -0.250998 0.967854 0.0160871
-19.6879 85.0785 -3.11179 -0.207016 0.978316 0.00651362
-18.1382 85.3743 -3.39988 -0.15811 0.987419 0.00233285
-16.7678 85.5564 -3.63776 -0.112066 0.993668 0.00805142
-15.549 85.6737 -3.86468 -0.068767 0.997628 0.00303894
-14.2184 85.7582 -4.10486 -0.0549636 0.998483 -0.00341381
-12.8705 85.7959 -4.38607 -0.0215181 0.999641 0.015955
-11.3411 85.7331 -4.65161 0.0474907 0.998808 0.0112353
-9.9166 85.6316 -4.8877 0.0930223 0.995436 0.0213102
-8.69301 85.487 -5.02301 0.133171 0.990838 0.0224635
-7.5282 85.2953 -5.06988 0.19156 0.981479 0.00188432
-5.95094 84.9518 -5.0751 0.234807 0.972041 0.00154038
-4.74955 84.6405 -5.07014 0.258388 0.966041 -0.000185683
-3.50911 84.2872 -5.08304 0.300684 0.953723 -0.000890023
-2.11509 83.8206 -5.08594 0.330044 0.943931 -0.00807561
-0.57415 83.2582 -5.09924 0.351076 0.936297 -0.00969321
0.58181 82.8068 -5.11543 0.375184 0.926933 -0.00571229
2.17593 82.1267 -5.14133 0.402255 0.915506 -0.0063439
3.28643 81.6348 -5.15974 0.409832 0.912102 -0.0103551
4.47601 81.0878 -5.18209 0.423041 0.906011 -0.0134602
5.61705 80.5407 -5.20431 0.435838 0.899888 -0.0157006
6.80709 79.9474 -5.23401 0.452143 0.891829 -0.0144067
8.07249 79.2961 -5.27234 0.460459 0.887561 -0.0145686
9.15577 78.7274 -5.3053 0.46999 0.882518 -0.0165012
10.3494 78.0847 -5.34573 0.475584 0.879501 -0.0172856
11.4615 77.4794 -5.38548 0.480295 0.87697 -0.0154809
12.7088 76.7846 -5.44536 0.49186 0.870586 -0.0123879
13.7323 76.2037 -5.49775 0.496181 0.86803 -0.018122
14.8017 75.5918 -5.56645 0.497497 0.867226 -0.0203719
15.898 74.9554 -5.66954 0.503849 0.86359 -0.0186949
16.3573 74.6846 -5.72307 0.508044 0.861125 -0.0188481
16.4254 74.6673 -4.75139 0.508456 0.860805 -0.02208
15.4192 75.2585 -4.62962 0.501072 0.86514 -0.0214208
14.2379 75.9374 -4.53201 0.495717 0.868261 -0.0197029
13.1676 76.5451 -4.4729 0.491884 0.870475 -0.0179952
12.0379 77.1809 -4.42214 0.485181 0.874251 -0.0168881
10.5444 77.9982 -4.36262 0.476352 0.879042 -0.0193672
9.49434 78.5644 -4.32839 0.47163 0.881614 -0.0179611
8.27495 79.2071 -4.29051 0.460231 0.88768 -0.0145618
7.18803 79.7683 -4.2577 0.453869 0.890972 -0.0131208
6.05509 80.3401 -4.22875 0.448742 0.893599 -0.010545
4.97603 80.8711 -4.20282 0.431142 0.902125 -0.0169654
3.68048 81.4713 -4.17621 0.407609 0.913059 -0.0133406
2.28651 82.0878 -4.14896 0.399528 0.916694 -0.00707562
1.05479 82.6128 -4.12668 0.3854 0.922737 -0.00484185
-0.0833845 83.0756 -4.10448 0.363412 0.931597 -0.00761745
-1.27566 83.531 -4.08919 0.347319 0.937739 -0.0037855
-2.66139 84.0079 -4.07366 0.307068 0.951686 -0.00174656
-3.99132 84.4238 -4.06349 0.280668 0.959785 0.00621936
-5.14685 84.7485 -4.04543 0.259877 0.965635 -0.00364974
-6.28149 85.037 -4.03556 0.232061 0.972616 -0.0128588
-7.53365 85.2933 -4.0187 0.190974 0.98159 0.00322254
-8.72965 85.4757 -3.96185 0.139897 0.990165 0.00149073
-10.089 85.6293 -3.86091 0.0898363 0.99586 0.0138529
-11.2454 85.7175 -3.6745 0.0610203 0.997958 0.0188812
-12.6099 85.7852 -3.44797 0.0375002 0.999042 0.0225521
-13.9516 85.76 -3.16542 -0.0433011 0.998505 0.0333441
-15.2543 85.6913 -2.90816 -0.0715206 0.997438 -0.00151005
-16.6191 85.5653 -2.65635 -0.111999 0.993676 0.00795957
-17.9685 85.3815 -2.42203 -0.153075 0.987901 0.0248931
-19.166 85.1685 -2.20977 -0.194318 0.980774 0.0179734
-20.7773 84.8191 -1.93475 -0.235701 0.971734 0.0133064
-22.2675 84.4204 -1.70878 -0.262601 0.96469 0.0203431
-23.4509 84.0742 -1.52111 -0.292014 0.95638 0.00811559
-24.5536 83.7296 -1.34523 -0.312227 0.950007 0.00131679
-25.9818 83.2483 -1.10216 -0.33336 0.942796 0.00282394
-27.1099 82.8374 -0.899543 -0.348447 0.937312 0.00555809
-28.24 82.4066 -0.683507 -0.365989 0.93052 0.013569
-29.4324 81.9084 -0.447014 -0.390869 0.920143 0.0236282
-30.9595 81.2422 -0.197299 -0.406899 0.913336 0.0158222
-32.1878 80.6806 0.0110443 -0.418047 0.908313 0.0142951
-33.5141 80.0644 0.239827 -0.426463 0.904389 0.0144872
-34.8516 79.4094 0.492413 -0.444072 0.895905 0.0124307
-36.0151 78.8264 0.715762 -0.450702 0.892609 0.0108204
-37.3328 78.1568 0.95796 -0.45306 0.891429 0.00953115
-37.5185 78.0524 1.89301 -0.45408 0.890893 0.0109905
-36.3617 78.6398 1.71591 -0.450413 0.89277 0.00945154
-35.2697 79.1913 1.52354 -0.446614 0.894663 0.0106898
-34.2064 79.7184 1.31835 -0.435843 0.899947 0.0116863
-33.0272 80.2773 1.11169 -0.418611 0.908053 0.0142987
-31.5395 80.9581 0.868917 -0.410081 0.911898 0.01661
-30.3992 81.4729 0.665776 -0.397377 0.917543 0.0143421
-29.0066 82.0685 0.430691 -0.389355 0.921015 0.0116099
-27.5621 82.6583 0.167439 -0.3597 0.932862 0.0195915
-26.4565 83.0689 -0.041295 -0.343844 0.938891 0.0159429
-25.2765 83.4859 -0.263148 -0.317153 0.948356 0.00581442
-23.9805 83.9011 -0.481533 -0.293626 0.955879 0.0089413
-22.5553 84.3293 -0.703568 -0.269224 0.963015 0.010954
-21.1729 84.7053 -0.902418 -0.248349 0.968522 0.0169933
-20.0002 84.9763 -1.08681 -0.216027 0.976129 0.0224722
-18.809 85.2257 -1.27708 -0.174454 0.984609 0.0105119
-17.5883 85.4231 -1.47946 -0.145417 0.98915 0.0208623
-16.2719 85.5954 -1.72253 -0.108491 0.994035 0.0111041
-14.8504 85.7217 -1.99207 -0.0761909 0.997093 -2.99871e-05
-13.6244 85.7622 -2.24327 0.00782744 0.999962 -0.00390162
-11.6358 85.7194 -2.61112 0.0483782 0.9987 0.016033
-10.0696 85.6203 -2.83093 0.0913263 0.995812 0.00416702
-8.59217 85.4552 -2.92809 0.139344 0.990244 -0.000577826
-7.38275 85.265 -2.96772 0.185913 0.982564 -0.00226232
-5.95566 84.9687 -2.99516 0.235158 0.971946 0.00463068
-4.57932 84.5957 -3.02523 0.281559 0.959539 -0.0030308
-3.32375 84.2296 -3.04478 0.296204 0.955071 -0.0100731
-2.09071 83.8257 -3.0578 0.318206 0.948014 -0.00384058
-0.84433 83.3735 -3.08216 0.340785 0.940099 -0.00886386
0.314407 82.9236 -3.1087 0.367854 0.929879 -0.00293985
1.45279 82.4532 -3.13181 0.386899 0.922093 -0.00736553
2.66283 81.9326 -3.16014 0.398761 0.917017 -0.00831504
4.05119 81.3187 -3.19463 0.404463 0.914483 -0.0114293
5.16866 80.7911 -3.22262 0.440823 0.897519 -0.0115744
6.32786 80.2145 -3.25087 0.447777 0.894066 -0.0118788
7.36999 79.6884 -3.27745 0.452199 0.891851 -0.0108777
8.43769 79.139 -3.30967 0.461523 0.887013 -0.0142741
9.72952 78.4571 -3.3489 0.473936 0.880411 -0.0161383
10.7593 77.9016 -3.38244 0.474869 0.879913 -0.0158828
12.1382 77.1441 -3.43811 0.486726 0.873381 -0.0174432
13.3206 76.4781 -3.494 0.491599 0.870663 -0.0166259
14.3552 75.8904 -3.55723 0.49519 0.868627 -0.0165247
15.4645 75.2542 -3.65243 0.500126 0.865746 -0.0189075
16.4053 74.7035 -3.76808 0.50541 0.86264 -0.0203101
16.5537 74.6376 -2.80509 0.507391 0.861473 -0.0204572
15.3953 75.3122 -2.67456 0.497126 0.867525 -0.0163018
14.3874 75.8902 -2.58208 0.494555 0.868977 -0.0171459
13.1494 76.5938 -2.50657 0.491549 0.870682 -0.0170777
12.1236 77.1708 -2.45448 0.48485 0.87443 -0.0170792
10.8363 77.877 -2.40139 0.475123 0.879814 -0.0136372
9.78067 78.4427 -2.36633 0.469 0.883126 -0.0112718
8.72516 79.0004 -2.33405 0.46245 0.886609 -0.00801509
7.40295 79.6829 -2.29481 0.456235 0.889795 -0.0107217
6.22449 80.2795 -2.26311 0.447711 0.894083 -0.0130993
5.10811 80.8336 -2.23571 0.442649 0.896634 -0.0105038
3.77611 81.454 -2.19577 0.413136 0.91064 -0.00730914
2.54767 81.9933 -2.16117 0.398116 0.917244 -0.0129079
1.44979 82.4641 -2.13361 0.389726 0.920786 -0.0163111
0.107924 83.0127 -2.09309 0.368916 0.929414 -0.009484
-1.16857 83.5073 -2.0576 0.351628 0.936107 -0.00782157
-2.51207 83.9762 -2.02478 0.313563 0.949491 -0.0120818
-3.95971 84.4242 -1.99859 0.28244 0.959211 -0.0119153
-5.32467 84.8044 -1.97178 0.245591 0.969347 -0.00717024
-6.76174 85.1468 -1.94321 0.223749 0.974462 -0.0189577
-7.97308 85.3636 -1.91738 0.170343 0.985354 -0.00783276
-9.13217 85.5355 -1.86612 0.0890124 0.99603 0.00130265
-10.4207 85.6495 -1.7788 0.0883268 0.996087 0.00292844
-11.91 85.717 -1.55386 0.0375749 0.999055 0.0218239
-13.2327 85.7534 -1.31376 0.0174005 0.999751 0.0139655
-14.4982 85.7349 -1.06185 -0.0437677 0.998654 0.0278299
-15.7701 85.6202 -0.817488 -0.100199 0.994043 0.0428683
-16.9437 85.4956 -0.603161 -0.124241 0.99222 0.0079542
-18.3363 85.2928 -0.359141 -0.162488 0.986707 0.00266188
-19.5039 85.0639 -0.179353 -0.217757 0.975868 0.0162101
-21.0901 84.6977 0.0468109 -0.234903 0.971608 0.0282654
-22.6823 84.2778 0.274169 -0.276254 0.961058 0.00712732
-23.8256 83.9387 0.454831 -0.293035 0.95602 0.0125318
-25.0632 83.5461 0.669316 -0.314227 0.949276 0.0116494
-26.309 83.1092 0.904078 -0.34553 0.938315 0.0132073
-27.4692 82.6703 1.12726 -0.370604 0.928614 0.0181564
-28.7607 82.1573 1.33671 -0.377104 0.926078 0.0131412
-29.8284 81.7066 1.5259 -0.395374 0.918405 0.0145395
-30.9454 81.2097 1.73378 -0.406217 0.913642 0.0157037
-32.1854 80.6524 1.93802 -0.413082 0.910583 0.0142021
-33.3958 80.0907 2.12412 -0.423279 0.905886 0.0143382
-34.548 79.5378 2.33302 -0.439776 0.898028 0.0119558
-35.808 78.9081 2.55263 -0.447936 0.893989 0.0117141
-37.0802 78.2653 2.7419 -0.451905 0.892012 0.0098059
-37.6199 77.9911 2.81112 -0.454681 0.89061 0.00894616
-37.7078 77.9342 3.7489 -0.455597 0.890076 0.0139915
-36.6778 78.4593 3.60301 -0.451741 0.89209 0.0102479
-35.437 79.0816 3.4264 -0.447956 0.893961 0.0130309
-34.3101 79.6402 3.24335 -0.439769 0.89797 0.0159311
-33.0873 80.2196 3.03117 -0.420202 0.907349 0.0121836
-31.6185 80.8913 2.80252 -0.406833 0.91339 0.014323
-30.5122 81.3862 2.61527 -0.404736 0.914298 0.0157439
-29.2412 81.937 2.38185 -0.382186 0.92378 0.0237564
-28.145 82.3873 2.18714 -0.36605 0.930458 0.0159965
-26.9122 82.8717 1.98428 -0.360104 0.932727 0.0185674
-25.7702 83.2905 1.77929 -0.325615 0.945457 0.00926537
-24.5554 83.7005 1.55612 -0.310022 0.950624 0.0141477
-23.2288 84.1103 1.31701 -0.291754 0.956444 0.00965748
-21.7323 84.5277 1.09489 -0.261964 0.964865 0.020256
-20.4431 84.8403 0.921046 -0.221231 0.975174 0.00964732
-19.1293 85.1399 0.747161 -0.195503 0.980612 0.0133539
-17.7585 85.3829 0.529648 -0.148418 0.988865 0.0108569
-16.4735 85.5417 0.314771 -0.105929 0.994327 0.00961569
-15.0929 85.6617 0.064009 -0.0693457 0.997454 0.0166511
-13.3777 85.7301 -0.2643 0.00323113 0.999739 0.0226134
-12.0289 85.7111 -0.505349 0.0315988 0.999486 0.00533554
-10.8155 85.6646 -0.696307 0.0457233 0.998953 -0.00156253
-9.4796 85.5648 -0.815874 0.0872965 0.996182 0.000916883
-8.31215 85.4223 -0.873199 0.185992 0.982354 0.0196809
-6.84577 85.1702 -0.931799 0.180247 0.983535 -0.013055
-5.61659 84.9002 -0.954539 0.244216 0.969711 0.00432603
-4.39711 84.5639 -0.973515 0.280568 0.959818 -0.00557855
-3.17305 84.2042 -0.999808 0.282363 0.959243 -0.0111219
-1.85306 83.7709 -1.0306 0.330028 0.943936 -0.00811685
-0.752707 83.3618 -1.06328 0.363366 0.93162 -0.007059
0.462104 82.8817 -1.10289 0.370183 0.928917 -0.00887288
1.69613 82.3752 -1.1399 0.396746 0.917857 -0.0114939
3.03584 81.7949 -1.17804 0.39533 0.918409 -0.0154638
4.1696 81.2753 -1.21363 0.419351 0.907798 -0.00692937
5.41381 80.6954 -1.25215 0.434388 0.900688 -0.00829069
6.7575 80.0268 -1.29037 0.447714 0.894081 -0.0131019
7.92836 79.4252 -1.32486 0.458073 0.888827 -0.0125079
8.96435 78.8876 -1.35925 0.460206 0.887716 -0.013066
10.2623 78.2017 -1.40141 0.466388 0.88447 -0.0139583
11.3563 77.6104 -1.44125 0.478583 0.877948 -0.0128926
12.3876 77.0408 -1.4899 0.485129 0.874345 -0.0130734
13.8642 76.2087 -1.56828 0.491128 0.870933 -0.0164257
14.9562 75.5853 -1.65439 0.495209 0.868588 -0.0179889
16.0876 74.9325 -1.76688 0.503057 0.864094 -0.0166129
16.6148 74.6248 -1.82636 0.503993 0.863471 -0.0202094
16.647 74.629 -0.843077 0.503994 0.863471 -0.0202078
15.6294 75.2207 -0.735741 0.500941 0.865288 -0.0183045
14.2834 75.9916 -0.621731 0.492432 0.870153 -0.018543
13.1319 76.6405 -0.552705 0.489497 0.871862 -0.0157942
11.8669 77.3456 -0.48856 0.48189 0.876104 -0.0149464
10.8166 77.9187 -0.445963 0.47424 0.880274 -0.0146189
9.55942 78.5893 -0.400279 0.465006 0.885193 -0.0142232
8.27176 79.2607 -0.355049 0.458963 0.888311 -0.0159901
6.90288 79.9637 -0.310921 0.452955 0.891481 -0.00965577
5.78072 80.5244 -0.275958 0.436889 0.899501 -0.00510129
4.68173 81.0483 -0.24136 0.420447 0.907259 -0.0102964
3.3492 81.6648 -0.197001 0.4175 0.908633 -0.00888553
2.21112 82.1665 -0.162586 0.389128 0.921077 -0.0140113
1.12467 82.6212 -0.127082 0.381115 0.924527 0.000922323
-0.161453 83.1372 -0.0807004 0.366426 0.930439 -0.00388926
-1.48878 83.6425 -0.0415777 0.343174 0.93927 -0.00186372
-2.85237 84.1101 -0.00555637 0.29664 0.954985 0.00302471
-4.24849 84.5298 0.0230104 0.276003 0.961077 -0.0124299
-5.41353 84.8457 0.0402611 0.242463 0.970152 0.00420812
-6.9656 85.1824 0.0912109 0.197018 0.980181 0.0207109
-8.38814 85.4224 0.164401 0.160208 0.987059 -0.00694051
-9.68859 85.5808 0.23809 0.0756244 0.997127 -0.00434777
-11.0315 85.6767 0.368887 0.0585635 0.998265 -0.00607745
-12.2018 85.7213 0.55537 0.0311552 0.999456 -0.0108287
-13.5879 85.7369 0.794762 -0.0284567 0.99959 0.00311146
