-36.3085 79.3612 -4.88469 -0.459721 0.887854 0.0192989
-36.6899 79.1433 -3.88519 -0.459776 0.887898 0.0155901
-37.0837 78.9194 -2.64101 -0.460525 0.887548 0.0132374
-37.4121 78.7306 -1.28748 -0.460334 0.887712 0.00736029
-37.8135 78.5128 0.27832 -0.459838 0.88799 0.00461769
-38.0232 78.3956 1.59304 -0.458335 0.888739 0.00847244
-38.0917 78.3507 2.71214 -0.460538 0.887612 0.00702874
-38.1489 78.3084 3.84673 -0.462937 0.88631 0.0119577
-38.1242 78.3033 5.1226 -0.461745 0.886945 0.0104964
-37.857 78.4311 6.34794 -0.459641 0.88805 0.00967097
-37.5235 78.5909 7.52026 -0.455488 0.890193 0.00893514
-37.1477 78.7694 8.63099 -0.453273 0.891315 0.0100202
-36.7321 78.9643 9.74752 -0.448091 0.893897 0.0127677
-36.3312 79.1492 10.7389 -0.443835 0.895991 0.0144012
-35.5952 79.4908 12.0718 -0.438019 0.89884 0.0149633
-34.8613 79.8308 13.1792 -0.437113 0.89929 0.0144547
-34.2024 80.1346 14.1433 -0.434743 0.90041 0.0161307
-33.3862 80.505 15.0753 -0.427896 0.903705 0.0148817
-32.5506 80.883 15.6956 -0.416507 0.909012 0.0148243
-31.5028 81.3466 16.4347 -0.404728 0.914387 0.00957182
-30.0243 81.9855 17.0865 -0.394501 0.918883 0.00476116
-28.854 82.4745 17.3969 -0.380733 0.924673 0.00477949
-27.4585 83.0308 17.7128 -0.358598 0.933465 0.00523077
-25.9619 83.5876 17.7479 -0.341458 0.939896 0.00141841
-24.5194 84.0906 17.488 -0.322414 0.946594 -0.00297176
-23.4418 84.4395 17.1987 -0.299107 0.954218 0.00166097
-22.3063 84.7815 16.9466 -0.278315 0.960486 0.000699735
-21.0646 85.1272 16.4507 -0.250526 0.968103 0.00360839
-20.0502 85.3811 16.0085 -0.233116 0.972446 0.00227701
-19.0264 85.6036 15.5008 -0.193913 0.981019 -0.00041576
-17.7701 85.8164 15.01 -0.158664 0.987255 -0.0124082
-16.6649 85.9847 14.768 -0.126501 0.991962 -0.00288217
-15.3228 86.1403 14.3436 -0.108661 0.993861 -0.0208368
-14.2712 86.2234 14.0533 -0.0699329 0.99755 0.00176364
-12.9759 86.2864 13.8546 -0.0355382 0.999364 0.00296541
-11.7183 86.2677 13.7149 0.0609284 0.997957 -0.0192356
-10.3326 86.1928 13.6209 0.0675438 0.99741 0.00695225
-9.11297 86.0728 13.6279 0.103612 0.994599 0.00614706
-7.93896 85.9147 13.6787 0.147362 0.989079 0.00261788
-6.72202 85.6992 13.7769 0.195361 0.980729 0.00237406
-5.51399 85.4443 13.9884 0.229409 0.973306 -0.00439926
-4.42162 85.1833 14.2524 0.252664 0.967321 -0.00309137
-3.11976 84.8141 14.6525 0.290744 0.956627 -0.00643525
-1.98571 84.4527 15.1124 0.320641 0.947091 -0.00847654
-1.03456 84.1173 15.4931 0.340284 0.940312 -0.00443953
-0.0860206 83.7673 15.8975 0.350855 0.93643 -0.000596105
0.90595 83.3829 16.1222 0.371266 0.928525 -0.00159864
2.14581 82.8701 16.384 0.392216 0.919872 -0.00153127
3.40786 82.3238 16.642 0.406026 0.913828 -0.00776556
4.71909 81.7265 16.8049 0.42364 0.90583 -0.000255246
5.67979 81.276 16.8861 0.427393 0.904058 -0.000898782
6.81152 80.7251 16.9791 0.440228 0.897882 0.00269241
7.85403 80.21 16.9883 0.450444 0.892801 -0.000291265
9.11499 79.5711 17.0243 0.454585 0.890702 -0.00124139
10.0708 79.082 16.8642 0.460144 0.887842 -0.00156863
11.0136 78.5885 16.5478 0.467635 0.883921 -0.000996568
12.0385 78.0449 15.9418 0.469262 0.883059 -0.000213464
12.8978 77.5838 15.2545 0.472989 0.881069 -4.87879e-05
13.841 77.0732 13.9857 0.476352 0.879252 -0.00136664
14.4509 76.7395 13.1313 0.478314 0.878179 -0.00364973
14.9629 76.454 12.2426 0.481147 0.876631 -0.00395231
15.3004 76.2614 11.2088 0.482863 0.875664 -0.00746146
15.7109 76.0238 10.0387 0.483684 0.875198 -0.00882763
15.9379 75.8848 8.91877 0.484296 0.874832 -0.0112136
16.1642 75.7332 7.45279 0.487266 0.873102 -0.0161561
16.3837 75.5839 6.0829 0.489487 0.871772 -0.0203412
16.4917 75.4943 4.85705 0.491907 0.870432 -0.0193622
16.5783 75.4101 3.39377 0.494775 0.86875 -0.02171
16.6457 75.3384 2.07947 0.498948 0.866361 -0.021692
16.6642 75.2898 0.594372 0.501008 0.865179 -0.0213665
16.6973 75.2402 -0.623127 0.50178 0.864752 -0.0204641
16.6793 75.2203 -1.9021 0.503502 0.863766 -0.0198291
16.7838 75.1277 -3.32775 0.509982 0.859963 -0.019562
16.6815 75.1622 -4.43797 0.508076 0.86108 -0.0200023
16.4827 75.253 -5.52641 0.510055 0.85989 -0.0208151
16.3263 75.317 -6.66477 0.50652 0.861971 -0.0210305
16.1285 75.408 -7.7135 0.505754 0.862436 -0.0204201
15.7853 75.5864 -8.69754 0.505605 0.862538 -0.0198076
15.4642 75.7458 -9.89758 0.503722 0.863597 -0.0215664
15.0797 75.9434 -10.946 0.504404 0.863184 -0.0221281
14.6 76.1956 -12.0182 0.502201 0.864453 -0.0227047
13.9525 76.5406 -13.1326 0.499896 0.86578 -0.0230124
13.3913 76.8354 -14.0706 0.497184 0.867333 -0.0231778
12.883 77.1053 -14.9894 0.497799 0.866996 -0.0225672
11.9127 77.6166 -16.2904 0.490887 0.870936 -0.0223875
11.2299 77.9817 -17.0173 0.489073 0.872005 -0.0203693
10.3536 78.4512 -17.8846 0.484844 0.874408 -0.0183754
9.50264 78.9091 -18.4601 0.483143 0.875399 -0.0157903
8.50438 79.4453 -19.0577 0.478633 0.877846 -0.017242
7.30876 80.0902 -19.4615 0.474004 0.880444 -0.0117729
6.18788 80.6905 -19.4736 0.468414 0.883502 -0.0034388
5.24899 81.1814 -19.3802 0.457116 0.889406 -0.00122665
5.04936 81.2866 -20.3878 0.459321 0.888196 0.0115114
6.11591 80.7262 -20.5043 0.472798 0.881084 0.0123898
7.06443 80.2185 -20.5283 0.478977 0.877815 -0.00407719
7.98623 79.7146 -20.4013 0.483271 0.875446 -0.00653888
8.93435 79.1976 -19.9184 0.481715 0.876236 -0.0126802
10.0115 78.6115 -19.2764 0.485187 0.874213 -0.0185822
10.8044 78.1813 -18.7183 0.488796 0.872167 -0.0199216
11.5867 77.7584 -17.9729 0.490691 0.871071 -0.021328
12.4569 77.286 -17.1768 0.49225 0.870199 -0.0210742
13.1567 76.9164 -16.1376 0.495588 0.868205 -0.0247623
13.7746 76.5856 -15.289 0.497657 0.867077 -0.0226647
14.3334 76.2917 -14.2089 0.497184 0.867333 -0.0231777
14.9598 75.9574 -13.1935 0.499888 0.865784 -0.0230115
15.4346 75.7036 -12.2539 0.505979 0.862285 -0.0211927
15.9164 75.4468 -11.243 0.505138 0.862725 -0.0232731
16.2814 75.2588 -10.2601 0.506047 0.862239 -0.0214323
16.5132 75.1492 -9.14919 0.506403 0.862062 -0.0201257
16.8841 74.9529 -8.18213 0.508446 0.860849 -0.0205263
17.1966 74.8025 -6.68317 0.509593 0.860184 -0.0199884
17.3248 74.7559 -5.42743 0.509898 0.859965 -0.0215042
17.5586 74.6437 -4.30978 0.512729 0.858289 -0.0212089
17.6199 74.6345 -3.1676 0.511608 0.858951 -0.0214038
17.5214 74.7203 -2.1035 0.507646 0.861293 -0.0216545
17.5726 74.7229 -0.831225 0.505198 0.862688 -0.0233127
17.5263 74.7807 0.313502 0.503017 0.86395 -0.0237594
17.5235 74.8119 1.37547 0.503067 0.863902 -0.0244458
17.4114 74.9148 2.70052 0.498625 0.866474 -0.0244035
17.4363 74.9363 3.99425 0.496508 0.867654 -0.025548
17.2944 75.0589 5.54789 0.490349 0.871231 -0.0226094
17.1052 75.2065 7.13362 0.485183 0.874143 -0.0210839
16.8622 75.3673 8.48112 0.482394 0.875803 -0.0162281
16.7121 75.4661 9.69191 0.484333 0.874812 -0.011195
16.3998 75.6499 10.7784 0.484132 0.874955 -0.00834596
16.0225 75.8678 11.7451 0.485064 0.874449 -0.00706164
15.6872 76.0607 12.8565 0.480782 0.87682 -0.00597249
14.9728 76.4585 13.9822 0.476691 0.879065 -0.00318051
14.3082 76.8221 15.0014 0.476098 0.87939 -0.00195382
13.5385 77.24 15.9666 0.475106 0.879926 -0.00209591
12.4999 77.8005 16.7746 0.471277 0.88198 -0.00127148
11.4472 78.3609 17.4055 0.468567 0.883423 -0.00277964
10.504 78.8601 17.7751 0.462643 0.886526 -0.00269816
9.38351 79.4372 18.02 0.4546 0.890682 -0.00488251
8.39977 79.9393 17.9917 0.452071 0.891943 -0.00729601
7.25012 80.515 18.0025 0.442651 0.896684 -0.00430143
6.08066 81.089 17.9578 0.435976 0.899926 -0.00622759
4.73971 81.7237 17.7924 0.42506 0.905106 -0.0103602
3.64168 82.2301 17.7013 0.4072 0.913301 -0.00829716
2.31909 82.8078 17.4262 0.394497 0.918787 -0.0142033
1.06924 83.3307 17.1931 0.379156 0.925258 -0.0117759
-0.0659754 83.7726 16.9154 0.355698 0.93451 -0.0130676
-1.06984 84.1463 16.581 0.350445 0.936461 -0.0151488
-2.14837 84.5193 16.1471 0.316632 0.948349 -0.0191062
-3.23805 84.8572 15.6339 0.283506 0.958597 -0.0266232
-4.32275 85.1713 15.3181 0.27075 0.962255 -0.0235325
-5.46307 85.4551 14.9901 0.245192 0.968783 -0.0366129
-6.55333 85.6852 14.7811 0.204498 0.978528 -0.025289
-7.79521 85.9127 14.6526 0.160744 0.986799 -0.0197083
-8.92702 86.0683 14.575 0.118987 0.992693 -0.020068
-10.4456 86.212 14.6367 0.0677566 0.997406 -0.0225912
-11.8894 86.2888 14.6892 0.0267859 0.999499 -0.0110385
-13.2177 86.284 14.8374 -0.0382899 0.999107 -0.0178837
-14.4772 86.2322 15.0124 -0.0578599 0.997878 -0.0298608
-15.7354 86.112 15.5334 -0.102461 0.994707 -0.00776056
-16.8183 85.9779 15.8507 -0.129188 0.991378 -0.0219075
-18.0096 85.7964 16.0834 -0.162221 0.986426 -0.0254424
-19.0381 85.617 16.5592 -0.205082 0.978706 -0.00549893
-20.3392 85.3162 17.1973 -0.236706 0.971507 -0.0120428
-21.5426 85.0071 17.7356 -0.269297 0.962892 -0.0115656
-22.6459 84.6863 18.1233 -0.279414 0.960015 -0.0157358
-23.8507 84.3135 18.3329 -0.306975 0.951653 -0.000102625
-25.0251 83.9243 18.6271 -0.330981 0.943553 -0.00958011
-26.0655 83.552 18.7799 -0.341004 0.940008 -0.00944126
-27.5955 82.9795 18.6978 -0.351688 0.936083 -0.00799478
-28.8374 82.4796 18.4399 -0.37939 0.925219 -0.00231333
-30.37 81.8332 18.0476 -0.389265 0.921125 0.00130914
-31.364 81.3984 17.6058 -0.402826 0.915268 0.00405044
-32.5784 80.8567 16.8615 -0.415084 0.909731 0.00975827
-33.3932 80.4863 16.2724 -0.427943 0.903774 0.00764162
-34.2228 80.1017 15.6363 -0.433582 0.901035 0.011974
-34.9578 79.761 14.7022 -0.433216 0.901194 0.0131753
-35.623 79.4524 13.7635 -0.43596 0.89988 0.0124528
-36.1681 79.1979 12.8788 -0.444726 0.895457 0.0193517
-36.7252 78.9354 11.978 -0.445029 0.895387 0.015199
-37.1996 78.7126 11.0219 -0.447393 0.894271 0.0109217
-37.6813 78.4858 9.75231 -0.451646 0.892155 0.00866906
-38.0564 78.306 8.71989 -0.460378 0.887696 0.00690944
-38.5125 78.0821 7.27455 -0.460686 0.887521 0.00868917
-38.8352 77.9188 6.16026 -0.469265 0.883006 0.00951634
-39.0232 77.8319 4.95795 -0.468144 0.8836 0.00953879
-39.015 77.8521 3.80877 -0.469501 0.882849 0.0120621
-38.9781 77.891 2.47159 -0.467881 0.883671 0.0145702
-38.8817 77.9554 1.22673 -0.460321 0.887671 0.0116246
-38.6302 78.0924 -0.16225 -0.458395 0.88874 0.00120325
-38.3192 78.2565 -1.18388 -0.4702 0.88256 -0.000963136
-38.0707 78.3999 -2.39415 -0.464639 0.885429 0.0112223
-37.7502 78.5865 -3.62177 -0.463872 0.885784 0.0145082
-37.3506 78.8134 -4.63738 -0.46425 0.885535 0.017286
-36.9119 79.0682 -5.82818 -0.462629 0.886326 0.0200158
-36.6397 79.2366 -6.86181 -0.457414 0.888941 0.023285
-36.2681 79.4529 -7.85849 -0.45148 0.891936 0.024656
-35.5954 79.8184 -8.86423 -0.44835 0.893547 0.023504
-35.0956 80.0972 -10.1025 -0.448113 0.893822 0.0166257
-34.5064 80.4078 -10.9506 -0.456026 0.889723 0.0200654
-33.7686 80.8056 -11.9355 -0.444791 0.895091 0.0291135
-32.9186 81.2331 -12.6354 -0.416872 0.908287 0.0351043
-31.9305 81.7138 -13.3472 -0.409585 0.911417 0.0385444
-31.0073 82.1363 -13.8362 -0.390709 0.91998 0.0309352
-30.0579 82.531 -14.1422 -0.368368 0.929165 0.0309474
-28.7788 83.0459 -14.5535 -0.355982 0.933853 0.0343864
-27.4953 83.5153 -14.7252 -0.320021 0.946656 0.0378075
-26.1672 83.9648 -14.9249 -0.30605 0.951909 0.0142404
-25.0778 84.2992 -14.9073 -0.281858 0.959411 0.00926363
-23.8287 84.6668 -14.9708 -0.28191 0.959398 0.00911698
-22.7056 84.9742 -14.9454 -0.261989 0.965068 0.00242586
-21.6136 85.257 -15.0093 -0.240905 0.970548 0.00150353
-20.522 85.513 -14.8296 -0.207918 0.978102 -0.00926106
-19.1439 85.7727 -14.7017 -0.169131 0.985593 -0.00101079
-17.8142 85.984 -14.3306 -0.138409 0.990355 -0.00632589
-16.6171 86.1495 -13.9745 -0.120603 0.992628 -0.0037305
-15.105 86.2966 -13.6004 -0.0815467 0.996653 -0.000189955
-13.9809 86.3809 -13.3143 -0.0581757 0.998306 -0.00115303
-12.9433 86.4216 -13.0887 -0.0285605 0.999553 0.00879642
-11.8854 86.4184 -12.9333 0.0306697 0.999505 0.00698217
-10.8236 86.3658 -13.0139 0.0690009 0.997529 0.0131866
-9.78447 86.2669 -13.2162 0.119196 0.992676 0.01765
-8.59141 86.1127 -13.6133 0.153358 0.987702 0.0304479
-7.6102 85.961 -13.9787 0.196522 0.979716 0.0389703
-6.5357 85.7572 -14.6624 0.227148 0.973094 0.0383941
-5.53362 85.5262 -15.3155 0.278686 0.959773 0.034189
-4.68231 85.309 -15.9301 0.292417 0.955048 0.045431
-3.44433 84.9383 -16.8098 0.314322 0.94872 0.0336548
-2.40536 84.587 -17.6123 0.347235 0.93716 0.0339995
-1.49817 84.2588 -18.158 0.368009 0.929481 0.0235596
-0.64519 83.9278 -18.717 0.384808 0.922563 0.0255797
0.258416 83.5509 -19.1543 0.395834 0.917924 0.0270175
1.466 83.0255 -19.5869 0.416741 0.908833 0.0172456
2.54885 82.52 -19.8699 0.431993 0.901714 0.0169578
3.64783 81.9934 -20.0387 0.444781 0.895605 0.00783836
4.80508 81.4122 -20.3249 0.459844 0.887961 0.00681691
4.95081 81.3374 -20.3695 0.45932 0.888196 0.0115177
4.90187 81.3771 -21.4473 0.459828 0.887915 0.0128223
5.96622 80.8206 -21.5075 0.47743 0.87861 0.00655723
7.03398 80.2316 -21.6169 0.484937 0.874549 0.000529802
8.00687 79.6961 -21.4121 0.484225 0.874916 -0.00558459
9.02954 79.13 -21.0239 0.486402 0.873658 -0.0116402
9.91562 78.6428 -20.4959 0.489158 0.872108 -0.0120817
10.7126 78.2061 -19.9068 0.487973 0.872652 -0.0189902
11.5226 77.7651 -19.3023 0.488957 0.872126 -0.0178426
12.4438 77.2633 -18.4392 0.491248 0.870788 -0.0200826
13.2594 76.8172 -17.722 0.493405 0.869594 -0.0188997
13.8083 76.527 -16.7838 0.496978 0.86746 -0.0229391
14.5454 76.1261 -15.8949 0.498735 0.866461 -0.0225579
15.0087 75.8848 -14.9266 0.498706 0.866474 -0.0226912
15.8092 75.4615 -13.4407 0.499949 0.865834 -0.0191088
16.377 75.1489 -12.3063 0.507872 0.861237 -0.0174249
16.8693 74.882 -11.4327 0.50833 0.860854 -0.0230541
17.1983 74.726 -10.0745 0.504814 0.862971 -0.02077
17.5346 74.5508 -9.01671 0.5085 0.860857 -0.0187279
17.8603 74.3799 -7.98099 0.510879 0.859454 -0.0184481
18.061 74.2887 -6.68175 0.5116 0.859011 -0.0191177
18.1743 74.2457 -5.61396 0.512298 0.858603 -0.0187653
18.4099 74.1304 -4.48325 0.513913 0.857581 -0.0211781
18.4461 74.1437 -3.08084 0.515708 0.856473 -0.0223225
18.3174 74.2543 -1.86878 0.512373 0.858439 -0.0235999
18.4805 74.1928 -0.63276 0.509539 0.860069 -0.0255405
18.4042 74.2702 0.454714 0.505927 0.862199 -0.0255187
18.404 74.3062 1.61816 0.505632 0.862324 -0.0270927
18.229 74.4441 2.68994 0.499031 0.866204 -0.0256681
18.3149 74.4453 4.28026 0.490404 0.871039 -0.0281872
18.1691 74.564 5.48617 0.490003 0.871391 -0.0239629
18.0873 74.6508 6.78895 0.482942 0.875186 -0.028104
17.8531 74.8114 7.92207 0.477874 0.877875 -0.0306897
17.7456 74.8898 8.99575 0.479821 0.877262 -0.0132584
17.5158 75.0262 10.1089 0.483353 0.8754 -0.00642317
17.1592 75.232 11.2898 0.48665 0.873578 -0.00531999
16.7985 75.4417 12.3936 0.487232 0.87324 -0.0073616
16.4466 75.6525 13.4889 0.482268 0.875924 -0.0125779
15.8678 75.9753 14.4844 0.476476 0.879182 -0.00318406
15.238 76.3184 15.331 0.477897 0.878416 -0.000557794
14.7076 76.608 16.207 0.476937 0.878935 -0.00205347
13.8393 77.0802 16.9331 0.474111 0.88046 -0.00196637
12.9312 77.5694 17.6441 0.474514 0.880244 -0.00216761
12.0925 78.0206 18.2007 0.469862 0.882728 -0.00438136
11.1521 78.5239 18.6281 0.464225 0.885669 -0.00921451
10.0624 79.0934 18.8952 0.456556 0.88967 -0.00660041
8.91003 79.6873 19.0305 0.45592 0.889925 -0.0122791
7.96683 80.1667 18.9702 0.452071 0.891943 -0.00729602
6.62636 80.8318 19.0706 0.443294 0.896305 -0.0113385
5.52148 81.3658 18.8623 0.432076 0.901683 -0.0166772
4.43085 81.8796 18.7828 0.423574 0.905763 -0.0133517
3.26625 82.4143 18.6226 0.410599 0.911649 -0.0167024
2.2836 82.8421 18.4135 0.396341 0.917842 -0.0219104
1.17046 83.3096 18.2172 0.383694 0.923211 -0.0213464
-0.322009 83.8943 17.8823 0.359312 0.932856 -0.0259584
-1.48278 84.3196 17.5486 0.347592 0.937294 -0.0256713
-2.85803 84.7699 16.9866 0.305014 0.952103 -0.0215897
-3.83839 85.0609 16.4874 0.294635 0.954434 -0.0473813
-4.89875 85.3502 16.1968 0.262354 0.964303 -0.0359247
-5.94047 85.5918 15.869 0.215255 0.975043 -0.0543725
-7.31846 85.8672 15.6536 0.174051 0.983915 -0.0390897
-8.50283 86.0537 15.5412 0.129223 0.990399 -0.0435892
-9.83365 86.1968 15.6069 0.0781169 0.994467 -0.0702337
-10.9444 86.2731 15.6022 0.0440533 0.997487 -0.0533226
-12.0063 86.3096 15.6673 0.022302 0.998276 -0.0531213
-13.3683 86.3088 15.8982 -0.00374753 0.99973 -0.0229522
-15.0263 86.1971 16.3375 -0.106008 0.994219 -0.0170812
-16.0779 86.0935 16.5954 -0.131397 0.99095 -0.0274509
-17.1566 85.9577 16.8716 -0.140516 0.989677 -0.0268113
-18.2109 85.7914 17.2602 -0.197671 0.980112 -0.0174065
-19.4058 85.5549 17.8661 -0.203738 0.978934 -0.0133788
-20.485 85.2966 18.3401 -0.24902 0.968342 -0.0153437
-21.6657 84.9869 18.8769 -0.278399 0.959986 -0.0303498
-22.693 84.6864 19.1887 -0.290484 0.956766 -0.0147907
-23.6804 84.3769 19.396 -0.309443 0.950758 -0.0174273
-24.6756 84.0562 19.6429 -0.320921 0.946827 -0.0199562
-25.7783 83.6652 19.7899 -0.34434 0.938711 -0.0158686
-26.9598 83.2283 19.823 -0.350304 0.93658 -0.010234
-28.2953 82.707 19.6153 -0.369156 0.929302 -0.0110047
-29.2548 82.3061 19.4162 -0.383595 0.923501 0.000511054
-30.4161 81.8154 19.0774 -0.398944 0.91691 -0.00508826
-31.4457 81.3581 18.6927 -0.404915 0.914348 0.00339743
-32.316 80.9713 18.1997 -0.407845 0.91305 -0.00178228
-33.1855 80.5711 17.6633 -0.41534 0.909626 0.00859244
-33.9931 80.1982 17.0647 -0.423682 0.905806 0.00314649
-35.1375 79.655 16.0258 -0.435114 0.900266 0.01406
-35.808 79.3446 15.1174 -0.434922 0.900402 0.010958
-36.5326 78.9996 14.1335 -0.451344 0.892302 0.00786821
-37.0074 78.7728 13.2174 -0.449029 0.893342 0.0168164
-37.8691 78.3714 11.7524 -0.44444 0.895704 0.0124893
-38.3312 78.1477 10.6498 -0.452594 0.891674 0.00879434
-38.7102 77.9628 9.58109 -0.457209 0.889345 0.00510181
-39.0763 77.7809 8.44453 -0.460563 0.887609 0.00392998
-39.4892 77.5643 7.15623 -0.468738 0.883335 0.00203291
-39.807 77.3991 5.83324 -0.48028 0.876961 0.0155487
-39.9393 77.3564 4.21835 -0.470285 0.882372 0.0153085
-39.9437 77.3725 2.83104 -0.472014 0.881452 0.0156625
-39.8916 77.4284 1.46745 -0.463784 0.88574 0.0191988
-39.7199 77.5294 0.215449 -0.456951 0.889489 -0.00225181
-39.3981 77.6857 -0.857839 -0.479169 0.877646 -0.0115962
-39.0813 77.8537 -1.9526 -0.48465 0.874699 0.00404973
-38.8216 78.0166 -3.12658 -0.471 0.88187 0.0195707
-38.4046 78.2565 -4.37949 -0.464592 0.885384 0.0157964
-37.9829 78.4963 -5.50624 -0.473177 0.880844 0.0147586
-37.5341 78.7733 -6.85116 -0.459621 0.887662 0.028335
-37.1439 79.0143 -8.18693 -0.456625 0.889304 0.025161
-36.5522 79.3467 -9.22276 -0.450403 0.892485 0.0246502
-36.1012 79.5986 -10.2056 -0.437385 0.898913 0.025486
-35.5207 79.8988 -11.2222 -0.44914 0.893436 0.00679158
-34.9059 80.228 -12.1071 -0.463993 0.885549 0.0226525
-34.0156 80.7294 -12.9852 -0.42105 0.90505 0.0600133
-33.1637 81.1746 -13.7079 -0.431763 0.899494 0.0587169
-32.29 81.6059 -14.312 -0.403556 0.91245 0.0676541
-31.2316 82.0698 -14.7698 -0.387961 0.921206 0.0294049
-30.0939 82.5538 -15.1685 -0.365057 0.930221 0.0377123
-28.3919 83.228 -15.5752 -0.34592 0.937384 0.0379385
-27.2013 83.6541 -15.7916 -0.30749 0.950884 0.0356187
-26.1471 83.9957 -15.9318 -0.303955 0.952393 0.0236511
-24.9446 84.3649 -15.9204 -0.277762 0.960199 0.0287686
-23.738 84.7149 -16.0776 -0.277607 0.960509 0.018892
-22.5641 85.0294 -15.9341 -0.261017 0.964819 0.0306481
-21.3613 85.3274 -15.9891 -0.243704 0.969816 0.0080624
-20.3798 85.5502 -15.805 -0.204531 0.978821 0.00862969
-19.3273 85.7476 -15.8179 -0.180375 0.983432 0.016913
-18.2049 85.9251 -15.4811 -0.137221 0.990487 0.0066481
-17.0362 86.0917 -15.1244 -0.135087 0.99082 0.00234944
-15.7992 86.2376 -14.8345 -0.103805 0.994594 0.00288234
-14.717 86.3342 -14.5282 -0.0827717 0.996428 0.0167451
-13.5513 86.4049 -14.1942 -0.0582183 0.998303 -0.00109472
-12.0153 86.4298 -13.9884 0.018665 0.999589 0.0158601
-10.8835 86.3869 -13.9743 0.0726017 0.997164 0.0198331
-9.76292 86.3074 -14.1669 0.124263 0.989615 0.0722487
-8.54964 86.1668 -14.6783 0.160828 0.98438 0.0716194
-7.53705 86.0092 -15.1042 0.206223 0.974605 0.0872785
-6.41468 85.7939 -15.8868 0.240578 0.96864 0.0621264
-5.31666 85.5386 -16.6548 0.291047 0.954163 0.0697484
-4.45693 85.3007 -17.2595 0.329866 0.942454 0.0544845
-3.54434 85.0271 -17.9643 0.341157 0.937629 0.0616686
-2.59432 84.6922 -18.6117 0.357814 0.932901 0.0407547
-1.67983 84.3621 -19.1934 0.378895 0.924847 0.0331124
-0.578779 83.9328 -19.8063 0.385668 0.922045 0.0322513
0.777171 83.3566 -20.4412 0.414388 0.90971 0.026654
1.79199 82.8962 -20.6533 0.431688 0.901614 0.0271514
2.88285 82.3838 -21.0391 0.433502 0.900966 0.0183479
3.97746 81.8531 -21.2367 0.452271 0.891667 0.0169063
4.55878 81.5538 -21.3728 0.459989 0.88784 0.0122855
5.31426 81.1486 -18.8416 0.457238 0.889343 -0.00141888
7.04971 80.2364 -18.8906 0.472738 0.88116 -0.00872922
7.51899 79.9845 -18.9034 0.473375 0.880801 -0.0102578
8.87189 79.2664 -17.9658 0.481123 0.876447 -0.0190056
7.46843 80.0244 -17.9233 0.470407 0.882347 -0.0134916
6.01745 80.7922 -17.8851 0.459846 0.887964 -0.007897
4.40358 81.6147 -17.8415 0.44145 0.897286 -0.000172442
2.80329 82.3846 -17.801 0.427711 0.903912 -0.00260469
1.29096 83.0751 -17.7667 0.405818 0.913953 -0.000824253
0.735535 83.3173 -17.756 0.400059 0.916394 0.0132485
-0.934834 84.0082 -16.7546 0.379151 0.925299 0.00812147
0.59457 83.373 -16.7822 0.393584 0.919288 0.00106178
2.17882 82.6805 -16.8097 0.412385 0.911007 0.00213045
3.70033 81.959 -16.8486 0.434343 0.900719 -0.00714969
5.64958 80.9915 -16.896 0.453554 0.891222 -0.00351391
7.14105 80.2129 -16.934 0.466946 0.884127 -0.0167555
8.5683 79.4535 -16.977 0.480356 0.876892 -0.017869
10.1605 78.5767 -17.0246 0.483792 0.874946 -0.0203698
10.5562 78.3577 -17.0363 0.483792 0.874946 -0.0203698
11.405 77.9067 -16.0788 0.488237 0.872429 -0.0221921
9.86679 78.7626 -16.0326 0.481748 0.876084 -0.0198611
8.37562 79.5732 -15.9939 0.46982 0.882665 -0.0131183
6.75499 80.4336 -15.9445 0.463248 0.886156 -0.0113522
5.01591 81.3208 -15.9029 0.449827 0.893043 -0.0113754
3.51436 82.0565 -15.8695 0.431111 0.902286 -0.0048677
1.98112 82.7656 -15.8302 0.40351 0.91497 0.00302266
0.430495 83.4359 -15.8065 0.385975 0.922499 0.00444996
-1.05991 84.051 -15.7817 0.3634 0.931577 0.010218
-2.35704 84.5289 -15.7721 0.328841 0.944314 0.011597
-3.60877 84.9396 -14.8116 0.293222 0.95597 0.0119056
-1.80172 84.3203 -14.8036 0.342414 0.939549 0.000173029
-0.220737 83.707 -14.8261 0.381476 0.924378 0.000759884
1.83617 82.8265 -14.8556 0.405491 0.914047 -0.00972201
3.57503 82.0354 -14.8925 0.424775 0.905257 -0.00877767
5.24029 81.2181 -14.9285 0.446941 0.894474 -0.0126383
6.92785 80.3577 -14.971 0.463322 0.88608 -0.0139848
8.79702 79.3647 -15.0218 0.473944 0.880431 -0.014778
10.3865 78.4978 -15.0651 0.483025 0.875387 -0.0196042
12.0684 77.5594 -15.118 0.488954 0.87204 -0.021707
12.2047 77.4826 -15.1228 0.490192 0.871325 -0.0224724
12.762 77.1927 -14.159 0.489846 0.871566 -0.0205754
11.2955 78.0165 -14.1097 0.487921 0.872614 -0.0218626
9.49148 79.0088 -14.0562 0.476917 0.878699 -0.020927
7.70263 79.9649 -14.0121 0.468417 0.883369 -0.0156447
6.14427 80.7757 -13.9713 0.453616 0.891009 -0.0183349
4.51467 81.5944 -13.933 0.439841 0.89797 -0.0137932
2.98562 82.3175 -13.8989 0.419799 0.907577 -0.00855006
1.35998 83.044 -13.8711 0.400844 0.916144 -0.00224545
-0.193952 83.6998 -13.8501 0.374511 0.927212 -0.00438299
-1.87516 84.3447 -13.8349 0.335472 0.942041 -0.00423393
-3.49027 84.8927 -13.8446 0.304095 0.95258 0.0108592
-4.72228 85.2688 -13.8699 0.264974 0.964174 0.0125335
-6.47329 85.7069 -12.9496 0.210673 0.97738 0.0185672
-4.75143 85.2694 -12.9049 0.277286 0.960755 0.00795849
-3.13732 84.7725 -12.8756 0.312231 0.949998 -0.00388098
-1.11828 84.0674 -12.8681 0.343914 0.93882 0.0184211
0.392585 83.464 -12.8808 0.383916 0.923364 -0.00280647
1.94051 82.793 -12.9016 0.401988 0.91558 -0.01092
3.47907 82.1011 -12.9312 0.426149 0.904599 -0.00989854
5.19699 81.2709 -12.969 0.441476 0.89719 -0.0122415
6.84633 80.435 -13.0065 0.461074 0.887174 -0.0182418
8.52852 79.5487 -13.0483 0.466807 0.884126 -0.0203085
9.96735 78.7716 -13.0861 0.478147 0.878052 -0.0200265
11.3846 77.9904 -13.1267 0.487052 0.873127 -0.0207087
12.8311 77.18 -13.1738 0.492023 0.870272 -0.0232241
13.334 76.8927 -13.1893 0.495263 0.868443 -0.0228376
13.8586 76.618 -12.221 0.497383 0.867193 -0.0242182
12.2867 77.5105 -12.1691 0.488924 0.872071 -0.0211316
10.8945 78.2884 -12.1252 0.486986 0.873143 -0.0215937
9.14647 79.239 -12.0781 0.473769 0.880478 -0.0173529
7.43419 80.148 -12.0378 0.461828 0.886838 -0.0152907
5.92422 80.922 -12.0015 0.449734 0.893037 -0.0149353
4.23951 81.7558 -11.9643 0.430203 0.902616 -0.0144622
2.58752 82.5133 -11.9326 0.409884 0.912112 -0.00683506
0.660018 83.3559 -11.9085 0.386855 0.922051 -0.0128927
-0.947276 84.0043 -11.8993 0.355249 0.934754 -0.00572852
-2.89632 84.6966 -11.9059 0.313 0.94975 -0.00250828
-4.69006 85.2416 -11.9343 0.282104 0.959324 0.0106924
-6.24886 85.638 -11.9699 0.207494 0.977949 0.0237046
-8.15219 86.0126 -12.0326 0.186117 0.982416 0.0148309
-8.33528 86.0485 -12.0387 0.170971 0.985266 0.00448221
-31.2916 81.9392 -11.818 -0.401411 0.915439 0.0290004
-30.2927 82.3716 -12.0255 -0.391277 0.919841 0.0281852
-29.1163 82.8481 -12.2725 -0.36406 0.931011 0.0260593
-28.1457 83.2225 -12.4745 -0.355879 0.934252 0.0228927
-27.0814 83.6199 -12.7028 -0.326297 0.945245 0.00645867
-26.0285 83.9828 -12.9435 -0.31652 0.948573 0.00496087
-24.7359 84.3883 -13.2132 -0.281947 0.95943 -0.0006058
-23.7151 84.6829 -13.375 -0.270606 0.96268 0.00433525
-23.3813 84.7775 -13.4198 -0.271937 0.962298 0.00581315
-19.3945 85.7395 -12.9865 -0.177277 0.984136 -0.00700469
-21.398 85.3081 -12.6879 -0.234256 0.972173 0.00206375
-22.8247 84.9293 -12.4718 -0.27129 0.962496 -0.00194914
-24.3092 84.5138 -12.285 -0.277124 0.960826 0.0040565
-25.8044 84.0518 -11.9987 -0.31163 0.950148 0.0102372
-27.2162 83.5552 -11.6707 -0.345912 0.938253 0.00514065
-28.6933 82.9918 -11.3788 -0.358237 0.933514 0.0147758
-30.6085 82.2042 -10.9978 -0.392861 0.9191 0.0302653
-32.1586 81.5158 -10.7054 -0.409557 0.911889 0.0268651
-32.9148 81.1714 -10.5426 -0.420026 0.907156 0.0254008
-33.7097 80.7655 -9.36515 -0.440004 0.89779 0.0192254
-32.0072 81.5664 -9.78919 -0.410792 0.91161 0.0147173
-30.6467 82.1636 -10.0553 -0.391142 0.920209 0.0149525
-29.2616 82.749 -10.3077 -0.369603 0.929004 0.0185524
-27.8605 83.2946 -10.5664 -0.354935 0.93469 0.0193943
-26.5001 83.8023 -10.8455 -0.325655 0.945344 0.0165154
-24.7531 84.3703 -11.192 -0.300736 0.953634 0.0118521
-23.277 84.8039 -11.4179 -0.271285 0.962497 -0.00195627
-21.8195 85.2055 -11.6355 -0.255322 0.966783 -0.011879
-20.2659 85.5718 -11.8501 -0.211673 0.977231 -0.0146054
-18.7547 85.8641 -12.026 -0.150816 0.988293 -0.0230418
-17.1685 86.0829 -12.1783 -0.127587 0.991827 -0.00107112
-16.1883 86.2035 -12.2634 -0.0977482 0.995208 -0.00244015
-34.348 80.4253 -8.27954 -0.444502 0.895516 0.0216512
-33.3488 80.9214 -8.51937 -0.435367 0.900032 0.0199402
-32.3378 81.4003 -8.76712 -0.414528 0.909893 0.0161498
-30.9547 82.0232 -9.03505 -0.408158 0.912766 0.0162957
-29.698 82.555 -9.28091 -0.38021 0.924807 0.0131494
-28.6549 82.9728 -9.46202 -0.36908 0.929204 0.0189858
-27.5183 83.4183 -9.66398 -0.351942 0.935991 0.00755186
-26.36 83.8373 -9.88968 -0.324729 0.945755 0.009889
-25.2672 84.2049 -10.0974 -0.307287 0.951615 0.00202745
-24.0151 84.5888 -10.3117 -0.284148 0.95878 -0.000113063
-22.8345 84.9384 -10.4906 -0.276826 0.960871 -0.00967371
-21.5874 85.2744 -10.6685 -0.245019 0.969501 -0.0058335
-20.4279 85.5407 -10.8302 -0.20329 0.979118 -0.000879412
-18.8891 85.8475 -10.9959 -0.195133 0.980775 0.00179197
-17.6284 86.0369 -11.1283 -0.131129 0.991245 -0.0154482
-16.2983 86.1983 -11.2295 -0.113087 0.993569 -0.00561602
-15.1033 86.3114 -11.2553 -0.0853862 0.996317 -0.0078012
-13.7561 86.4175 -11.2354 -0.0581958 0.998133 -0.0185343
-12.5056 86.4198 -11.2094 0.0267486 0.999509 0.0163426
-11.2612 86.3796 -11.1694 0.0390019 0.999108 0.0161972
-9.6595 86.2364 -11.1103 0.134869 0.99075 0.0149661
-8.50042 86.0727 -11.0639 0.170979 0.985264 0.00447321
-7.39729 85.8587 -11.026 0.1925 0.981294 -0.0025553
-6.22844 85.6225 -10.9932 0.235603 0.97176 0.0131474
-5.07257 85.3451 -10.9679 0.249035 0.968488 -0.00357044
-3.91749 85.0152 -10.9477 0.288995 0.957324 0.00356371
-2.50961 84.5732 -10.9331 0.302948 0.952876 -0.015788
-1.25739 84.1281 -10.9289 0.345799 0.938207 -0.0138114
-0.147434 83.6965 -10.9304 0.37411 0.927318 -0.0110852
1.22395 83.1329 -10.9387 0.386859 0.922049 -0.012896
2.46041 82.5881 -10.949 0.407636 0.913023 -0.0148897
3.74612 82.0003 -10.9716 0.417012 0.90882 -0.0121459
5.21065 81.2963 -11.0009 0.438332 0.898633 -0.0179857
6.30946 80.7431 -11.0272 0.453894 0.890955 -0.0134079
7.58634 80.0862 -11.0564 0.460025 0.887648 -0.0214135
8.62676 79.5407 -11.0801 0.469122 0.882932 -0.0188373
9.74775 78.9361 -11.1078 0.475571 0.87948 -0.018644
10.9039 78.3075 -11.1375 0.479922 0.877076 -0.0203313
11.9962 77.7005 -11.1708 0.488338 0.872313 -0.0244241
13.2806 76.9762 -11.214 0.49298 0.869755 -0.0222993
14.4542 76.3002 -11.2551 0.502431 0.864339 -0.0219224
14.7402 76.158 -10.2798 0.500201 0.865665 -0.0205707
13.7839 76.7104 -10.2481 0.499021 0.866398 -0.0182496
12.7847 77.28 -10.2101 0.492106 0.870332 -0.0188008
11.8262 77.8224 -10.1763 0.487518 0.872839 -0.0218859
10.3443 78.6347 -10.1354 0.477658 0.878288 -0.0212911
9.24703 79.2297 -10.1089 0.473927 0.880296 -0.0217395
8.26352 79.7521 -10.0869 0.464662 0.885281 -0.0191696
7.26622 80.276 -10.065 0.460029 0.887646 -0.0214118
6.03402 80.9001 -10.0391 0.449846 0.89294 -0.0172175
4.9493 81.4422 -10.0121 0.43061 0.902372 -0.0173269
3.84726 81.9668 -9.9892 0.42405 0.905585 -0.00985564
2.69803 82.4954 -9.97316 0.417879 0.908405 -0.013291
1.3589 83.0854 -9.96477 0.400868 0.916104 -0.00767592
0.189948 83.572 -9.95977 0.374115 0.927316 -0.0110875
-0.890366 83.9978 -9.95628 0.356926 0.934085 -0.00945846
-1.92386 84.387 -9.9589 0.332223 0.943183 -0.00580701
-3.06252 84.765 -9.96716 0.302948 0.952876 -0.0157879
-4.23179 85.1125 -9.9791 0.26573 0.963957 -0.0131713
-5.78432 85.5158 -10.0063 0.225511 0.974204 -0.00843331
-6.89898 85.7605 -10.0303 0.195614 0.980671 -0.00439471
-8.08001 85.9897 -10.0646 0.166922 0.985854 0.0151283
-9.21935 86.1627 -10.1023 0.127838 0.99178 0.00551457
-10.3273 86.2874 -10.1405 0.107399 0.993233 0.0442093
-11.6514 86.3785 -10.1847 0.0309106 0.999345 0.0188227
-12.9043 86.4127 -10.2157 0.0145406 0.999863 0.00786766
-14.0661 86.386 -10.233 -0.0441687 0.999014 0.00448127
-15.3912 86.2932 -10.2301 -0.0847755 0.996382 -0.00594572
-16.6193 86.1745 -10.1975 -0.102583 0.994638 -0.0130777
-18.0487 85.9893 -10.0728 -0.134452 0.990918 -0.00207615
-19.2496 85.784 -9.94088 -0.175538 0.984441 -0.00784873
-20.3269 85.5748 -9.81593 -0.197985 0.980114 -0.0133805
-21.7084 85.2409 -9.63908 -0.256863 0.966434 0.0052673
-22.8746 84.9253 -9.48107 -0.271319 0.962406 0.0126881
-23.9714 84.6022 -9.32065 -0.284011 0.958821 -0.000672456
-25.0619 84.2661 -9.13618 -0.305057 0.952257 0.0121364
-26.1404 83.9027 -8.95065 -0.324922 0.945652 0.0129637
-27.2481 83.5097 -8.75217 -0.349887 0.936737 0.0101115
-28.4742 83.0323 -8.53206 -0.367481 0.929944 0.0127025
-29.4856 82.6251 -8.35584 -0.37362 0.927452 0.0154902
-30.6517 82.1384 -8.13715 -0.39 0.920691 0.015091
-32.1432 81.4717 -7.84964 -0.40882 0.912527 0.0127054
-33.3184 80.9154 -7.58985 -0.430318 0.90242 0.0215673
-34.3142 80.4201 -7.36918 -0.443325 0.896083 0.0223208
-34.816 80.1683 -7.2539 -0.44434 0.895599 0.02155
-35.3751 79.8662 -6.20004 -0.449483 0.893115 0.0176357
-34.16 80.4769 -6.48102 -0.444266 0.895695 0.0189528
-33.0498 81.0231 -6.70862 -0.430986 0.902114 0.0210097
-31.9994 81.5216 -6.93637 -0.423291 0.905784 0.0195175
-30.8119 82.0569 -7.15106 -0.398499 0.917079 0.0127929
-29.3869 82.6565 -7.419 -0.375159 0.926945 0.00544779
-28.2559 83.1066 -7.60359 -0.359914 0.932976 0.00422866
-27.1468 83.5307 -7.79439 -0.341885 0.93963 0.0144847
-26.0635 83.9133 -7.97905 -0.322152 0.946662 0.00707677
-24.8841 84.3063 -8.17314 -0.308582 0.951074 0.0153469
-23.6634 84.6831 -8.36281 -0.278065 0.960478 0.012699
-22.4928 85.0169 -8.52445 -0.264898 0.964184 0.0133453
-21.0339 85.4086 -8.71398 -0.241 0.969913 0.0344735
-19.7969 85.6819 -8.86128 -0.183754 0.982941 0.00783788
-18.5716 85.9068 -8.9942 -0.175958 0.984395 0.00232587
-17.3151 86.0975 -9.11441 -0.137255 0.990475 -0.0110048
-15.817 86.262 -9.20075 -0.0883866 0.996069 -0.00585528
-14.5262 86.3623 -9.22675 -0.0591067 0.998252 -0.000494672
-13.3541 86.4134 -9.208 -0.0141163 0.9999 -1.34344e-05
-11.7419 86.3789 -9.16989 0.0444487 0.998974 0.00868541
-10.4343 86.2911 -9.14075 0.0872642 0.996107 0.0124438
-9.29133 86.1657 -9.10723 0.127707 0.991786 0.00718176
-8.18969 85.9987 -9.07901 0.165924 0.986134 0.00308066
-6.96049 85.7773 -9.04749 0.190008 0.981781 0.00188152
-5.82502 85.5368 -9.02571 0.224186 0.974454 -0.0134447
-4.61922 85.2308 -9.00687 0.264904 0.964219 -0.0103679
-3.5005 84.9065 -8.99538 0.293149 0.956061 -0.00333075
-2.20804 84.489 -8.98766 0.315016 0.949057 -0.00746447
-1.08643 84.0791 -8.98306 0.350925 0.936387 -0.00557924
-0.0444669 83.6764 -8.98463 0.364338 0.931175 -0.013107
1.48439 83.0394 -8.98978 0.396169 0.91815 -0.00715955
2.63334 82.5365 -8.99517 0.405081 0.914245 -0.00811646
3.77789 82.0157 -9.009 0.421416 0.906719 -0.0163962
4.84611 81.5097 -9.03021 0.43468 0.900352 -0.0204679
6.05063 80.9104 -9.05727 0.449669 0.893038 -0.0167918
7.04804 80.407 -9.07644 0.456594 0.889519 -0.0166514
8.16081 79.8276 -9.09771 0.465624 0.884759 -0.0198926
9.19772 79.2757 -9.12011 0.469147 0.882933 -0.0181845
10.2176 78.727 -9.14289 0.476014 0.879269 -0.0172197
11.2844 78.1453 -9.17077 0.479022 0.877566 -0.0204229
12.3779 77.5337 -9.21231 0.492604 0.869968 -0.0222977
13.4551 76.922 -9.25025 0.495997 0.868038 -0.022297
14.6592 76.2285 -9.28468 0.500195 0.865668 -0.0205654
15.0707 75.9892 -9.29753 0.502076 0.864584 -0.0203414
15.1606 75.9594 -8.30997 0.503179 0.863934 -0.0207355
13.9353 76.6699 -8.27147 0.498979 0.866344 -0.0216461
12.9379 77.2418 -8.24135 0.493276 0.869563 -0.0232059
11.9281 77.8144 -8.21198 0.487312 0.873047 -0.0177822
10.8742 78.3926 -8.17373 0.474451 0.880045 -0.0204095
9.49076 79.1402 -8.13583 0.472586 0.881107 -0.0177001
8.21017 79.8239 -8.10814 0.465623 0.884759 -0.019892
6.86737 80.5192 -8.08717 0.454108 0.890754 -0.0185259
5.76775 81.0722 -8.06908 0.448929 0.893351 -0.0196397
4.76997 81.5688 -8.04892 0.4392 0.898253 -0.0156511
3.62029 82.1042 -8.03029 0.406853 0.913335 -0.0170067
2.47897 82.6119 -8.01912 0.407756 0.913018 -0.0115144
1.28554 83.1308 -8.01305 0.39538 0.918335 -0.0183369
0.0898315 83.634 -8.00924 0.367151 0.930143 -0.00591007
-1.08078 84.0808 -8.00928 0.351516 0.936178 -0.00265491
-2.2055 84.4989 -8.01353 0.330687 0.943708 -0.0078449
-3.67946 84.9708 -8.01992 0.285092 0.958306 -0.0192698
-4.82519 85.2986 -8.03079 0.260041 0.965574 -0.00678328
-6.33508 85.6663 -8.04908 0.203776 0.978956 -0.0109865
-7.46167 85.881 -8.06792 0.174853 0.984377 -0.0206916
-8.7273 86.0858 -8.09445 0.146767 0.989157 0.00521735
-9.92911 86.2446 -8.11992 0.105214 0.99445 9.00353e-05
-11.2111 86.3342 -8.14565 0.0434607 0.999054 0.00157929
-12.341 86.3918 -8.16805 0.0505424 0.998516 0.0202878
-13.9152 86.3865 -8.19548 -0.0441717 0.999024 0.000315395
-15.0336 86.3275 -8.20102 -0.0714751 0.99743 0.00490345
-16.5702 86.1928 -8.12897 -0.111696 0.993673 -0.0117293
-17.715 86.0539 -8.04366 -0.140499 0.990042 -0.00882636
-19.2022 85.7905 -7.89886 -0.187799 0.982186 -0.00645537
-20.3313 85.5695 -7.77801 -0.213758 0.976803 0.0127595
-21.4289 85.3048 -7.64883 -0.249385 0.968399 0.00336423
-22.4983 85.0139 -7.51448 -0.27474 0.961517 0.00155437
-23.6336 84.6834 -7.35906 -0.283413 0.958997 0.00112305
-24.7287 84.346 -7.19837 -0.30436 0.952535 0.00649045
-26.1045 83.8905 -6.9845 -0.325058 0.945635 0.0105656
-27.2795 83.4716 -6.80042 -0.346965 0.937851 0.00719556
-28.3647 83.0602 -6.63139 -0.359914 0.932976 0.00422866
-29.7237 82.5144 -6.40414 -0.387573 0.921814 0.00679445
-31.073 81.9262 -6.16035 -0.404356 0.914492 0.0141432
-32.1534 81.4289 -5.95686 -0.42373 0.905599 0.01853
-33.2492 80.9059 -5.74257 -0.433694 0.901004 0.0100761
-34.2735 80.4046 -5.53454 -0.443517 0.896167 0.0132997
-35.3431 79.8647 -5.28124 -0.449787 0.893038 0.013245
-35.6505 79.7074 -5.20207 -0.456227 0.889666 0.0187566
-35.826 79.5965 -4.21471 -0.459747 0.887878 0.0174433
-34.7878 80.13 -4.47466 -0.450549 0.892593 0.0168264
-33.8101 80.6212 -4.70429 -0.442287 0.896682 0.0185166
-32.6327 81.1875 -4.93336 -0.425412 0.904872 0.0152029
-31.5427 81.6954 -5.12216 -0.409661 0.912069 0.0175492
-30.3182 82.2454 -5.33459 -0.40085 0.916009 0.0157025
-29.2855 82.6862 -5.51631 -0.37543 0.926772 0.0120403
-28.2008 83.1139 -5.68582 -0.357817 0.933687 0.0139842
-26.9126 83.6002 -5.88704 -0.345117 0.938421 0.0161207
-25.6639 84.031 -6.06186 -0.324506 0.945813 0.0115724
-24.2651 84.4883 -6.26206 -0.305569 0.952131 0.00859102
-23.078 84.8466 -6.42978 -0.276592 0.960987 0.000344553
-21.7159 85.2227 -6.59954 -0.25649 0.966485 0.0109194
-20.5737 85.5028 -6.72814 -0.220087 0.975451 0.00757639
-19.4776 85.7371 -6.84525 -0.192821 0.981201 0.00801475
-18.0722 85.9941 -6.97727 -0.159216 0.987243 0.00138618
-16.7702 86.177 -7.08206 -0.10187 0.994768 -0.00771868
-14.9727 86.3164 -7.14658 -0.061562 0.998084 0.00624889
-13.7921 86.3916 -7.16777 -0.0537824 0.998526 0.0072739
-12.4382 86.3914 -7.15249 0.0196916 0.999804 -0.00197181
-11.2315 86.3523 -7.12997 0.0586851 0.998221 -0.0105106
-10.0459 86.2561 -7.11739 0.0798723 0.9968 -0.00307899
-8.85239 86.113 -7.10011 0.119702 0.99267 -0.0166548
-7.50499 85.9064 -7.07841 0.160964 0.986926 -0.00823059
-6.26368 85.6533 -7.06407 0.215099 0.976572 0.0062247
-4.81458 85.2994 -7.0508 0.260984 0.965337 0.00351697
-3.65075 84.9712 -7.04051 0.292228 0.956343 -0.00333419
-2.13292 84.4782 -7.03545 0.332779 0.943003 -0.00175558
-0.853009 84.0003 -7.03261 0.35346 0.935412 -0.00843366
0.377485 83.5225 -7.03356 0.373456 0.927642 -0.00341273
1.58597 83.0188 -7.03864 0.398006 0.917273 -0.014207
2.6819 82.5382 -7.04644 0.405107 0.914155 -0.0144152
3.77839 82.0439 -7.05795 0.417967 0.908405 -0.0101713
4.90439 81.5153 -7.0742 0.434058 0.900828 -0.010141
5.97298 80.9906 -7.08792 0.448278 0.893739 -0.0166755
6.99379 80.4731 -7.10167 0.458325 0.888577 -0.0192016
8.11215 79.8944 -7.12218 0.467444 0.883879 -0.0159183
9.31282 79.2555 -7.14868 0.472246 0.881288 -0.0177608
10.3546 78.6938 -7.17568 0.478837 0.877776 -0.0149534
11.5399 78.0498 -7.21043 0.478585 0.877956 -0.0122133
12.7689 77.3594 -7.24745 0.492935 0.869911 -0.0163994
14.2532 76.5102 -7.29288 0.49987 0.865815 -0.0222293
15.496 75.7879 -7.33364 0.505643 0.862502 -0.020362
15.5486 75.757 -7.33563 0.505643 0.862502 -0.020362
15.8853 75.5844 -6.35824 0.507342 0.861476 -0.0215442
14.7714 76.2347 -6.32258 0.500281 0.865611 -0.020874
13.5749 76.9226 -6.28649 0.494149 0.869214 -0.0168532
12.2897 77.649 -6.24607 0.490752 0.871122 -0.0175747
11.0644 78.323 -6.21091 0.48062 0.876782 -0.0160369
10.0488 78.8775 -6.18462 0.478861 0.877763 -0.0150045
8.90302 79.4935 -6.15699 0.467958 0.883606 -0.0159803
7.85985 80.0429 -6.13521 0.463523 0.886021 -0.0106511
6.73286 80.6218 -6.11602 0.453128 0.891386 -0.0103495
5.65562 81.1601 -6.10262 0.439105 0.898399 -0.00811372
4.47382 81.7302 -6.08859 0.42156 0.906781 -0.005985
3.04074 82.3888 -6.07477 0.409697 0.912117 -0.0137805
1.90986 82.8905 -6.06534 0.40101 0.916032 -0.00879137
0.862266 83.331 -6.05969 0.37699 0.926127 -0.0129186
-0.189226 83.7506 -6.05575 0.363143 0.931687 -0.00933726
-1.32912 84.1875 -6.0546 0.353498 0.935427 -0.00395812
-2.80341 84.7038 -6.05671 0.320279 0.947248 -0.0119766
-4.00678 85.0786 -6.05934 0.274388 0.961617 0.00195343
-5.42175 85.46 -6.07328 0.260611 0.965439 0.00292143
-6.64837 85.75 -6.08185 0.220972 0.975155 -0.0155988
-7.8485 85.9644 -6.09493 0.169443 0.985482 -0.0107079
-9.30802 86.1785 -6.10786 0.110246 0.993759 -0.0170045
-10.5041 86.3127 -6.12 0.0957101 0.995331 -0.0124923
-11.7091 86.3865 -6.12881 0.0187905 0.999474 -0.0264145
-12.9921 86.4211 -6.13784 -0.0016301 0.999667 -0.0257471
-14.5161 86.3493 -6.128 -0.0680101 0.997501 -0.0191403
-15.6858 86.2693 -6.10416 -0.0782404 0.996903 0.00798143
-16.8612 86.1633 -6.04914 -0.130711 0.991403 0.00595988
-18.182 85.9723 -5.93754 -0.166064 0.986071 0.00935353
-19.4255 85.7419 -5.82094 -0.201028 0.979529 0.0105445
-20.5014 85.5098 -5.70948 -0.218955 0.975682 0.0101445
-21.9177 85.165 -5.55432 -0.245055 0.969508 -0.00139396
-23.1081 84.8374 -5.41885 -0.266474 0.963841 0.00134291
-24.2326 84.4914 -5.2667 -0.301869 0.953319 0.00763991
-25.4144 84.1046 -5.10307 -0.308454 0.951201 0.00847374
-26.635 83.6839 -4.93079 -0.341736 0.939674 0.0151451
-27.7894 83.2556 -4.76712 -0.354817 0.93492 0.00539214
-28.8453 82.8489 -4.60991 -0.368147 0.929598 0.0177504
-29.8556 82.4303 -4.45144 -0.384314 0.922986 0.0200054
-31.0324 81.908 -4.25742 -0.409649 0.912074 0.0175508
-32.0283 81.4519 -4.0875 -0.419862 0.907411 0.0179336
-33.1313 80.9309 -3.89549 -0.42883 0.903189 0.0188036
-34.2083 80.4027 -3.66745 -0.439352 0.898138 0.0178265
-35.2969 79.8514 -3.4096 -0.452505 0.891633 0.015191
-36.2571 79.3551 -3.19506 -0.458269 0.888686 0.0150543
-36.3485 79.2934 -2.26733 -0.457189 0.889258 0.0140949
-35.0609 79.9549 -2.54149 -0.449711 0.893005 0.0173765
-33.9981 80.4897 -2.771 -0.442456 0.8967 0.0127099
-32.7933 81.07 -2.99804 -0.426301 0.904362 0.0199082
-31.5862 81.6362 -3.19947 -0.41336 0.910273 0.0231592
-30.5813 82.0881 -3.36399 -0.404853 0.914096 0.0228664
-29.4433 82.5786 -3.54157 -0.37938 0.924821 0.0278862
-28.29 83.0504 -3.70861 -0.366653 0.930129 0.020616
-27.1574 83.4789 -3.86848 -0.341718 0.939651 0.0168677
-26.0702 83.8711 -4.01667 -0.333229 0.942709 0.016058
-24.9944 84.2374 -4.16078 -0.309601 0.950858 0.00412984
-23.9331 84.576 -4.29839 -0.296343 0.955054 0.00727815
-22.635 84.9621 -4.45389 -0.268991 0.963113 0.00757603
-21.4354 85.2868 -4.58556 -0.242321 0.970195 0.00140455
-20.2345 85.5622 -4.71006 -0.21205 0.977252 0.00368142
-19.0612 85.8077 -4.82912 -0.202662 0.979216 0.00800749
-17.8445 86.0169 -4.94236 -0.169929 0.985445 0.00461558
-16.6937 86.1817 -5.03556 -0.110509 0.993693 -0.0190226
-15.5716 86.2754 -5.08847 -0.0831827 0.996534 0.000541832
-14.4223 86.3674 -5.11372 -0.0710394 0.997438 0.00835888
-13.275 86.4182 -5.12087 -0.0285838 0.999575 -0.00573152
-12.0105 86.4067 -5.12603 0.0358242 0.999322 0.00848982
-10.6683 86.3224 -5.12006 0.0852017 0.996332 0.00800978
-9.35506 86.1949 -5.11174 0.116129 0.993226 0.00392416
-8.14652 86.0264 -5.10452 0.155569 0.98781 -0.0053943
-6.84032 85.7863 -5.09231 0.183209 0.983018 0.0104771
-5.60173 85.4994 -5.08456 0.229816 0.973208 0.00716289
-4.41666 85.1888 -5.07683 0.271898 0.962279 0.00953453
-3.01276 84.7735 -5.0756 0.303636 0.952788 0.000954248
-1.83784 84.3748 -5.07543 0.333829 0.942612 -0.00644466
-0.428759 83.8538 -5.0777 0.357508 0.933879 -0.00759994
0.721709 83.4013 -5.08173 0.376377 0.926438 -0.00724324
2.04497 82.8402 -5.09032 0.400689 0.91618 -0.00787416
3.22276 82.3211 -5.09972 0.408876 0.912544 -0.00916626
4.29556 81.8258 -5.10908 0.425883 0.90468 -0.0133115
5.31236 81.3399 -5.11869 0.438679 0.898514 -0.0152667
6.56175 80.7225 -5.13361 0.451075 0.892407 -0.0118871
7.57784 80.2018 -5.14971 0.458808 0.888418 -0.0144362
8.57005 79.6849 -5.16926 0.463622 0.885916 -0.0144061
9.56776 79.1546 -5.1909 0.473705 0.880559 -0.014783
10.5975 78.5964 -5.21464 0.479121 0.877598 -0.0163013
11.7606 77.9589 -5.24286 0.483333 0.875308 -0.0150134
12.9983 77.268 -5.28152 0.491278 0.870862 -0.0156719
14.0036 76.6953 -5.3134 0.496226 0.868036 -0.0165217
15.1375 76.0464 -5.3465 0.49838 0.866743 -0.0193284
15.9426 75.5749 -5.36862 0.504691 0.862979 -0.0235299
15.9036 75.6227 -4.37854 0.506247 0.86215 -0.0203011
14.8661 76.2204 -4.34819 0.49625 0.868026 -0.0163321
13.6222 76.9324 -4.3113 0.496229 0.868034 -0.0165199
12.4144 77.6156 -4.27449 0.487882 0.872747 -0.0168295
11.4363 78.1576 -4.24753 0.481597 0.876193 -0.0187169
10.086 78.8935 -4.2184 0.475591 0.879498 -0.0171925
8.8877 79.5338 -4.1941 0.463725 0.885878 -0.0134083
7.8563 80.0738 -4.17325 0.461089 0.88724 -0.0142083
6.66946 80.6802 -4.15652 0.451419 0.892247 -0.0107437
5.55183 81.2398 -4.14335 0.441908 0.896989 -0.0112944
4.34325 81.8194 -4.13234 0.427586 0.903819 -0.0167821
2.95826 82.4495 -4.12046 0.409479 0.91228 -0.00854414
1.8559 82.9315 -4.11107 0.393569 0.91927 -0.00682276
0.62317 83.4484 -4.10332 0.386608 0.922228 -0.00543783
-0.412879 83.8559 -4.0975 0.356419 0.934292 -0.00796173
-1.56503 84.2839 -4.09488 0.33222 0.943198 -0.00279118
-3.10986 84.7988 -4.09247 0.296129 0.955116 0.0078503
-4.26878 85.1388 -4.0927 0.28164 0.959518 0.00208366
-5.53039 85.4797 -4.09187 0.230349 0.973108 0.00103856
-7.0236 85.8132 -4.09936 0.191296 0.981503 0.00763603
-8.73179 86.093 -4.11146 0.139724 0.990024 0.0181748
-10.1962 86.2809 -4.11925 0.104284 0.994333 0.0206559
-11.4745 86.3721 -4.12372 0.0455492 0.998867 0.0138114
-12.6213 86.429 -4.12288 0.00572648 0.999974 0.00432559
-13.9989 86.3869 -4.10846 -0.0456715 0.998955 0.00164345
-15.5071 86.2838 -4.07646 -0.0770143 0.99703 -0.000354194
-16.8858 86.1506 -4.00283 -0.122347 0.992212 -0.0233797
-18.2884 85.9419 -3.88264 -0.17416 0.984698 -0.00622102
-19.3946 85.7329 -3.77163 -0.205791 0.978594 -0.00187308
-20.84 85.4237 -3.62986 -0.212311 0.977158 0.00930695
-21.9588 85.1484 -3.51684 -0.249623 0.968324 0.00607786
-23.2082 84.7888 -3.37828 -0.278092 0.960453 0.013923
-24.5926 84.3626 -3.2076 -0.291895 0.956377 0.0118693
-25.8154 83.9517 -3.05286 -0.326538 0.945112 0.0116824
-27.2548 83.4266 -2.86306 -0.342829 0.939279 0.0149539
-28.3605 82.9978 -2.71358 -0.372629 0.927844 0.0159111
-29.4848 82.5393 -2.55465 -0.377611 0.925814 0.0166795
-30.8483 81.9477 -2.34842 -0.393722 0.918992 0.0209208
-32.0337 81.4054 -2.1669 -0.41569 0.909392 0.0144122
-33.2923 80.8156 -1.96225 -0.424429 0.905285 0.0178577
-34.2964 80.3284 -1.77193 -0.44118 0.897301 0.0145006
-35.5168 79.7117 -1.54116 -0.450238 0.892849 0.0103315
-36.7431 79.0787 -1.2826 -0.459035 0.888374 0.0088325
-36.7707 79.0643 -1.27663 -0.461667 0.887005 0.00925984
-37.0794 78.8965 -0.317973 -0.458995 0.888422 0.00546431
-35.8867 79.5109 -0.556672 -0.456276 0.889791 0.00916478
-34.7661 80.0805 -0.758465 -0.44966 0.893128 0.0113008
-33.7472 80.582 -0.940015 -0.424802 0.905162 0.0150194
-32.4708 81.183 -1.14529 -0.422325 0.906255 0.0185437
-31.149 81.7921 -1.34444 -0.407114 0.91314 0.0208384
-30.1522 82.2324 -1.48448 -0.391764 0.919981 0.0124951
-29.1322 82.6676 -1.62656 -0.381402 0.92431 0.0135489
-28.0473 83.1074 -1.77164 -0.37375 0.927378 0.0167469
-26.9254 83.5309 -1.91306 -0.350505 0.936492 0.0113357
-25.8618 83.9195 -2.04548 -0.340653 0.940062 0.0154821
-24.6284 84.3356 -2.19856 -0.310673 0.950388 0.0156284
-23.171 84.7876 -2.37196 -0.284196 0.958749 0.00576928
-21.987 85.1317 -2.50293 -0.265796 0.96397 0.0107312
-20.7967 85.4306 -2.61845 -0.221499 0.975157 -0.00252026
-19.5623 85.7001 -2.7402 -0.202468 0.979266 0.00665147
-17.9209 86.0031 -2.87909 -0.163914 0.986459 -0.00555762
-16.8343 86.1815 -2.96346 -0.107161 0.99412 -0.0155811
-15.6115 86.284 -3.0398 -0.0721198 0.997341 -0.010457
-14.4429 86.3667 -3.09164 -0.0365709 0.999278 -0.0102913
-13.2088 86.4199 -3.11679 -0.0304123 0.998709 0.0406928
-11.9579 86.3823 -3.12618 0.0502369 0.998322 0.0287971
-10.8597 86.3173 -3.12368 0.0742691 0.997235 -0.00237908
-9.7631 86.2205 -3.11703 0.0956784 0.9953 0.0149402
-8.44643 86.0486 -3.10874 0.148439 0.988914 -0.00374826
-7.09164 85.8138 -3.1048 0.195903 0.980506 0.0151331
-5.63404 85.5014 -3.10381 0.233392 0.972382 0.000524391
-4.50615 85.2053 -3.10491 0.278492 0.960436 0.00228564
-2.95076 84.7476 -3.10716 0.297965 0.95456 -0.00567445
-1.76605 84.3576 -3.11007 0.320712 0.947177 -0.000222798
-0.317781 83.828 -3.11696 0.350527 0.93655 -0.00237068
0.835409 83.3683 -3.12472 0.379475 0.925181 -0.00623525
2.03428 82.8626 -3.13388 0.396146 0.918151 -0.00818876
3.10458 82.3933 -3.14291 0.405727 0.913958 -0.0081611
4.15262 81.9223 -3.15319 0.409244 0.91237 -0.010031
5.31177 81.3712 -3.16384 0.442447 0.8967 -0.0130419
6.63096 80.7116 -3.17829 0.449775 0.893052 -0.0126894
7.67087 80.1827 -3.19154 0.454742 0.890548 -0.0115647
8.95226 79.5163 -3.21385 0.464356 0.885482 -0.0172083
10.1878 78.8567 -3.23674 0.476674 0.878909 -0.0173627
11.4354 78.1787 -3.26153 0.480991 0.876552 -0.0174794
12.5544 77.5562 -3.28987 0.487729 0.872837 -0.0165985
13.862 76.815 -3.32812 0.494003 0.869307 -0.0163365
