8.57678 83.3679 -19.1721 0.479485 0.877522 -0.0069952
9.50238 82.8623 -18.6005 0.486071 0.873892 -0.00586196
10.358 82.3894 -17.8746 0.488569 0.87248 -0.00885167
10.9717 82.0497 -17.0838 0.494714 0.868867 -0.0180975
11.6112 81.7045 -16.2271 0.494847 0.868752 -0.0199279
12.1805 81.4016 -15.4042 0.491663 0.870551 -0.0201991
12.7322 81.1093 -14.4241 0.494738 0.868857 -0.0178619
13.3707 80.7703 -13.3759 0.492898 0.869887 -0.0185627
13.8541 80.5131 -12.494 0.495661 0.868346 -0.0171895
14.139 80.3721 -11.4754 0.496355 0.867901 -0.0195078
14.6373 80.1067 -10.4527 0.498626 0.866653 -0.0168081
14.9965 79.9189 -9.43663 0.49956 0.866123 -0.0164507
15.3204 79.7515 -8.28465 0.50266 0.864323 -0.0166921
15.5587 79.6326 -7.21955 0.502433 0.864455 -0.0166551
15.7892 79.5234 -5.92219 0.504612 0.863176 -0.0171231
15.9377 79.4632 -4.62898 0.504054 0.863492 -0.0176258
16.0699 79.4079 -3.53737 0.503667 0.863722 -0.0174595
16.0563 79.4377 -2.46091 0.503549 0.863757 -0.0189581
16.1185 79.4349 -0.982562 0.501811 0.864759 -0.0194001
16.1859 79.4203 0.142669 0.499652 0.866022 -0.0187502
16.1661 79.455 1.32382 0.501418 0.86502 -0.0178096
16.2139 79.4487 2.41182 0.50023 0.865726 -0.0169833
16.1378 79.5153 3.51639 0.502071 0.864654 -0.0172521
16.0094 79.6183 4.73277 0.49489 0.868744 -0.0191568
15.9102 79.6979 5.8228 0.493684 0.869402 -0.0202969
15.7934 79.7904 7.04058 0.490964 0.871003 -0.0175836
15.4772 79.9909 8.24849 0.487795 0.872811 -0.0160147
15.2478 80.1389 9.71642 0.485475 0.874174 -0.011561
14.8784 80.3583 10.671 0.477953 0.87831 -0.0112723
14.4827 80.5885 12.0647 0.478019 0.878313 -0.00749495
14.071 80.8239 13.1409 0.480557 0.876913 -0.00943742
13.4494 81.1699 14.0982 0.476567 0.879053 -0.0122282
12.9927 81.4232 15.0522 0.472614 0.881254 -0.00526154
12.4457 81.7206 15.9111 0.469354 0.882999 -0.00425442
11.4413 82.2615 16.9861 0.465211 0.885139 -0.00949809
10.5061 82.7546 17.5467 0.462976 0.886274 -0.0127148
9.67037 83.188 17.9517 0.461509 0.887135 0.000486831
8.58711 83.7445 18.1125 0.451693 0.892173 -0.000704113
7.3429 84.3799 18.2927 0.453125 0.891379 -0.00988754
6.27195 84.9157 18.1914 0.443081 0.896395 -0.0124438
5.03178 85.5108 18.1678 0.428372 0.903462 -0.0154623
3.95745 86.0088 17.9449 0.417875 0.908275 -0.0204119
2.91946 86.4696 17.7766 0.403109 0.914994 -0.017019
1.70737 86.9924 17.4721 0.392595 0.919321 -0.0267981
0.805542 87.354 17.0432 0.38024 0.924362 -0.0311285
-0.163694 87.7155 16.7454 0.353622 0.934855 -0.0315952
-1.15222 88.0679 16.2714 0.34368 0.938475 -0.0338832
-2.5117 88.5189 15.9609 0.311822 0.949731 -0.027528
-3.58859 88.8485 15.4811 0.294873 0.954755 -0.03863
-4.67755 89.14 15.4645 0.255649 0.966604 -0.0178702
-5.88365 89.4349 15.3287 0.222058 0.974083 -0.0430501
-7.00882 89.6494 15.3176 0.17626 0.983815 -0.0321912
-8.03314 89.8162 15.3037 0.143286 0.988708 -0.043892
-9.37527 89.9737 15.1854 0.0999559 0.994402 -0.0342567
-10.4838 90.0558 15.241 0.0518015 0.997647 -0.0449167
-11.8345 90.1189 15.2263 0.041516 0.997717 -0.053267
-12.8879 90.1244 15.302 -0.0163863 0.998559 -0.0504328
-13.9893 90.1053 15.4531 -0.0251284 0.998574 -0.0470933
-15.1083 90.0316 15.5551 -0.101994 0.994098 -0.0360319
-16.3907 89.8934 15.6638 -0.109541 0.993371 -0.0348069
-17.7497 89.6953 16.1031 -0.159776 0.985849 -0.050721
-18.7573 89.522 16.4348 -0.204058 0.977658 -0.050446
-19.7523 89.3162 16.6658 -0.226416 0.972775 -0.0494477
-20.6972 89.0944 17.0334 -0.272629 0.961399 -0.0372195
-21.634 88.8524 17.5946 -0.277828 0.959709 -0.0413715
-22.8649 88.4862 18.089 -0.311173 0.950047 -0.0241439
-23.8758 88.1658 18.5439 -0.333869 0.941732 -0.0408864
-24.9224 87.8043 18.9182 -0.344805 0.9382 -0.0296432
-25.912 87.4457 19.1783 -0.341642 0.939033 -0.0375628
-26.9591 87.0407 19.6568 -0.374882 0.926749 -0.02449
-27.9086 86.665 19.6763 -0.382002 0.924054 -0.0140831
-29.6682 85.9077 19.6357 -0.399459 0.916741 -0.00423147
-30.6818 85.4578 19.4761 -0.416903 0.908941 -0.00426431
-31.8197 84.9304 19.2631 -0.425453 0.904977 -0.0008549
-32.9427 84.3983 18.756 -0.431136 0.902273 0.000159354
-33.7625 84.0045 18.261 -0.437637 0.89912 0.00719244
-34.6395 83.5777 17.7745 -0.441658 0.897115 0.011051
-35.5573 83.1329 17.234 -0.443897 0.896012 0.0105381
-36.3314 82.7588 15.9909 -0.449857 0.893067 0.0071241
-37.0837 82.3866 15.2527 -0.454039 0.890949 0.00769356
-37.6521 82.105 14.3198 -0.454396 0.890763 0.00806123
-38.2714 81.8007 13.2044 -0.457116 0.889372 0.00717578
-38.7214 81.5765 12.125 -0.4599 0.887928 0.00866643
-39.3213 81.2715 10.5311 -0.466712 0.884362 0.00913606
-39.7069 81.0783 9.37409 -0.466658 0.884419 0.00574776
-39.831 81.0187 8.26693 -0.472129 0.881482 0.00912924
-40.1748 80.8458 7.15786 -0.470992 0.882083 0.00975664
-40.3223 80.7791 6.09397 -0.47141 0.881802 0.0135691
-40.5037 80.6896 5.05595 -0.470929 0.882159 0.00387569
-40.6027 80.639 3.94796 -0.472656 0.881245 0.00197787
-40.5778 80.6534 2.73556 -0.478892 0.877871 0.00215238
-40.4076 80.7509 1.49288 -0.479225 0.877684 0.00374808
-40.2988 80.8143 0.405357 -0.483011 0.8756 0.00502774
-40.1667 80.8971 -0.841112 -0.483359 0.875376 0.0089662
-39.9203 81.0484 -2.08899 -0.482621 0.875664 0.0169194
-39.7475 81.1625 -3.19034 -0.479607 0.877281 0.018381
-39.3762 81.3927 -4.44421 -0.475821 0.879343 0.0187297
-39.2095 81.5094 -5.68605 -0.476342 0.879057 0.0188686
-38.9313 81.6841 -6.86516 -0.473909 0.880423 0.016281
-38.4186 81.979 -7.89268 -0.473877 0.880441 0.0162613
-37.8477 82.305 -8.93211 -0.4664 0.88399 0.0301761
-37.5022 82.5325 -9.89899 -0.46375 0.885006 0.0401857
-36.8798 82.8766 -10.7271 -0.448396 0.89357 0.0217671
-36.2331 83.215 -11.5344 -0.461309 0.887235 0.00264304
-35.3588 83.7056 -12.4105 -0.467214 0.883161 0.0375545
-34.4368 84.1818 -12.9327 -0.426379 0.903568 0.0419252
-33.5754 84.5941 -13.5243 -0.407326 0.912739 0.0308623
-32.28 85.183 -14.017 -0.406306 0.913402 0.0247503
-31.2515 85.6445 -14.149 -0.400136 0.915862 0.0329823
-30.1819 86.1057 -14.2809 -0.387684 0.921264 0.0312146
-29.124 86.5459 -14.2933 -0.371045 0.927574 0.0439509
-27.7735 87.0749 -14.2712 -0.357808 0.933522 0.022594
-26.5786 87.5236 -14.0477 -0.35284 0.935315 0.0262709
-25.4183 87.9244 -13.9696 -0.31558 0.948435 0.028468
-24.3029 88.2826 -13.7229 -0.310441 0.950341 0.0218643
-23.4032 88.5469 -13.5485 -0.274155 0.961214 0.0291336
-38.2082 81.9128 4.98746 -0.468604 0.883345 0.0105926
-38.1406 81.9618 3.7992 -0.472683 0.881152 0.0119012
-38.0738 82.0117 2.76159 -0.474262 0.880338 0.00892906
-38.0578 82.0259 1.64545 -0.471366 0.881924 0.00501494
-37.9838 82.0755 0.0801466 -0.472253 0.881423 0.00836188
-37.9748 82.0814 -0.0517089 -0.471691 0.881731 0.00758849
-37.4602 82.2721 8.68705 -0.461665 0.886998 0.0100161
-37.4076 82.3142 7.0999 -0.460711 0.887499 0.00951412
-37.3498 82.3586 5.69231 -0.464987 0.885258 0.0103077
-37.2803 82.4103 4.37142 -0.465343 0.885058 0.0113246
-37.1822 82.4815 2.79242 -0.460522 0.887601 0.00918057
-37.1468 82.5108 1.4469 -0.461535 0.887092 0.00727816
-37.0594 82.5666 -0.0551243 -0.463878 0.885864 0.00788754
-36.9747 82.6282 -1.42287 -0.461871 0.88682 0.0150316
-36.8855 82.7035 -3.15536 -0.463835 0.885772 0.016247
-36.7759 82.7959 -5.01869 -0.45957 0.887975 0.0172282
-36.7406 82.8267 -5.68688 -0.462815 0.886285 0.0173724
-35.7147 83.3899 -7.63843 -0.455823 0.889855 0.0195874
-35.7805 83.3276 -6.13298 -0.454958 0.890303 0.0193162
-35.8499 83.2669 -4.64642 -0.450675 0.892534 0.016607
-35.9597 83.1834 -3.01528 -0.452952 0.891405 0.0152416
-36.0529 83.1075 -1.50045 -0.457077 0.889324 0.0135538
-36.1391 83.0464 -0.105091 -0.454426 0.890745 0.0083671
-36.2249 82.9885 1.32949 -0.459066 0.888347 0.00992411
-36.2822 82.9468 2.79476 -0.45879 0.888478 0.0109381
-36.3732 82.8872 4.2132 -0.457608 0.889078 0.0116165
-36.472 82.8134 6.04024 -0.460535 0.88759 0.00952376
-36.5319 82.7623 7.63969 -0.457051 0.889374 0.0108447
-36.6069 82.7029 9.35048 -0.456199 0.889786 0.0128119
-36.686 82.6404 10.8961 -0.454159 0.890825 0.0130836
-36.699 82.6303 11.132 -0.453804 0.891026 0.0116347
-35.8623 83.042 12.1189 -0.451876 0.892005 0.0116473
-35.8118 83.0894 10.714 -0.455156 0.890311 0.0133776
-35.7431 83.1445 9.38794 -0.455187 0.890294 0.0134753
-35.6571 83.2083 7.74108 -0.443229 0.896319 0.0126771
-35.5904 83.264 6.17385 -0.450943 0.892473 0.0119016
-35.4971 83.3314 4.73939 -0.455479 0.890183 0.0106001
-35.4008 83.3964 3.19661 -0.44449 0.895748 0.00799264
-35.3343 83.4397 1.65949 -0.45121 0.892338 0.0119237
-35.2285 83.5094 0.0385287 -0.452181 0.891885 0.00853129
-35.1422 83.5706 -1.31533 -0.45003 0.892925 0.0125706
-35.0217 83.6502 -2.81045 -0.445782 0.895047 0.0130126
-34.8927 83.7398 -4.37863 -0.444565 0.895523 0.0200097
-34.8314 83.8031 -5.82905 -0.445138 0.895224 0.0206502
-34.7705 83.8587 -7.21521 -0.439796 0.898003 0.0130245
-34.6827 83.9273 -8.80447 -0.440191 0.897778 0.0150623
-34.6481 83.9608 -9.59436 -0.440038 0.897767 0.0195079
-33.6168 84.4787 -10.4139 -0.432019 0.901527 0.0246797
-33.6828 84.4161 -9.07586 -0.429713 0.902815 0.0164791
-33.7679 84.3529 -7.60295 -0.430975 0.902262 0.0135907
-33.8392 84.2951 -6.19519 -0.431236 0.902079 0.0169987
-33.9594 84.1971 -4.3311 -0.438323 0.898632 0.0182688
-34.0914 84.1112 -2.64458 -0.442173 0.896866 0.0106716
-34.221 84.0291 -1.08487 -0.437997 0.89891 0.0109764
-34.3388 83.9545 0.424932 -0.450903 0.892524 0.00931122
-34.4164 83.8964 1.80122 -0.442773 0.896589 0.00893236
-34.504 83.8381 3.42597 -0.44318 0.896409 0.0064682
-34.6015 83.7723 4.84455 -0.442937 0.896423 0.0152747
-34.7064 83.704 6.40526 -0.436738 0.899509 0.0119843
-34.7773 83.6403 7.95601 -0.443156 0.896343 0.0134687
-34.8594 83.5882 9.31843 -0.445019 0.895436 0.0123618
-34.9516 83.518 10.9212 -0.441711 0.897071 0.0124693
-35.0246 83.4576 12.4898 -0.444302 0.895816 0.0104297
-35.0789 83.4181 13.402 -0.447722 0.894087 0.012345
-34.2508 83.8041 14.8202 -0.435644 0.900004 0.0143914
-34.1985 83.8551 13.1996 -0.438517 0.898628 0.0130541
-34.127 83.9082 11.7663 -0.432917 0.901324 0.014046
-34.0415 83.9752 10.2526 -0.437189 0.899243 0.015107
-33.947 84.0426 8.68849 -0.438511 0.898665 0.0104121
-33.8485 84.1103 7.14962 -0.436501 0.899619 0.0123723
-33.7548 84.1768 5.69255 -0.428086 0.903612 0.0150606
-33.6614 84.241 4.32909 -0.430298 0.902615 0.0113568
-33.5628 84.3025 2.90459 -0.428161 0.903677 0.00672368
-33.4489 84.3756 1.30907 -0.423818 0.905512 0.0206608
-33.3647 84.4344 -0.0739636 -0.43709 0.899369 0.00938059
-33.2459 84.5094 -1.50279 -0.434409 0.900681 0.00794563
-33.0996 84.5922 -3.1009 -0.429342 0.903082 0.0103791
-32.98 84.6776 -4.78665 -0.423719 0.905664 0.0153194
-32.8099 84.7956 -6.65797 -0.418292 0.908082 0.0204808
-32.7306 84.8486 -8.19148 -0.415939 0.90934 0.00975987
-32.6361 84.9195 -9.70124 -0.419168 0.907661 0.0211946
-32.5681 84.9773 -10.955 -0.414851 0.909695 0.0188011
-31.5126 85.459 -11.4257 -0.399956 0.916404 0.0154297
-31.6223 85.3815 -9.73425 -0.405672 0.913897 0.0149392
-31.7203 85.3096 -8.33041 -0.414086 0.910127 0.0142327
-31.8238 85.2499 -6.85173 -0.408985 0.912503 0.00834965
-31.9025 85.1876 -5.50333 -0.418296 0.90808 0.0204826
-32.0397 85.1038 -4.16039 -0.416403 0.909093 0.0125523
-32.1893 85.0133 -2.5736 -0.420635 0.907141 0.012705
-32.3276 84.9336 -1.16255 -0.416995 0.908894 0.00517773
-32.4445 84.8666 0.345806 -0.422845 0.906101 0.0134981
-32.5581 84.7848 1.86019 -0.419104 0.907905 0.00780667
-32.6985 84.7062 3.50706 -0.424326 0.905474 0.00796132
-32.8106 84.6355 5.00195 -0.426325 0.904447 0.0149252
-32.9242 84.5584 6.54165 -0.428878 0.903302 0.0104361
-33.0619 84.4707 8.37333 -0.43173 0.901946 0.01011
-33.1372 84.417 9.71149 -0.427038 0.904122 0.0142488
-33.2463 84.3398 11.3216 -0.43483 0.900369 0.0160936
-33.3152 84.2859 12.6789 -0.431323 0.902139 0.0102646
-33.3681 84.2347 14.4032 -0.428929 0.903196 0.0160096
-33.4042 84.2042 15.1563 -0.429752 0.902863 0.0122857
-32.585 84.5891 15.7625 -0.427633 0.903895 0.0101909
-32.5111 84.6452 14.1379 -0.426671 0.904309 0.0132989
-32.4292 84.7081 12.4867 -0.426491 0.904394 0.0132789
-32.3563 84.7668 11.0227 -0.425245 0.904977 0.0135041
-32.2565 84.8374 9.52219 -0.427805 0.903715 0.0167602
-32.1241 84.9208 7.70463 -0.42214 0.906498 0.00772512
-31.9951 85.0023 6.02986 -0.42581 0.904707 0.0137931
-31.8665 85.0826 4.47848 -0.41031 0.911869 0.0118517
-31.7294 85.1602 2.93029 -0.406021 0.913823 0.00863866
-31.5793 85.2473 1.32669 -0.411414 0.911318 0.0154507
-31.4683 85.3199 -0.111382 -0.412491 0.910926 0.00807942
-31.3276 85.3935 -1.55081 -0.407607 0.913057 0.0135337
-31.1779 85.4812 -2.96356 -0.407412 0.913143 0.0136339
-31.0371 85.5605 -4.29053 -0.407357 0.913217 0.00973351
-30.9008 85.6475 -5.81204 -0.409582 0.912042 0.0205543
-30.7742 85.7242 -7.48341 -0.401085 0.916029 0.00469119
-30.6063 85.8196 -9.40221 -0.396186 0.918107 0.0108028
-30.4965 85.888 -10.8012 -0.393743 0.919058 0.0172856
-30.4626 85.9112 -11.4385 -0.386924 0.921947 0.0174183
-29.3862 86.3606 -11.3105 -0.386918 0.92195 0.0174248
-29.4924 86.3035 -9.86261 -0.391768 0.920021 0.00888657
-29.6635 86.2044 -8.14735 -0.380056 0.924888 0.0117869
-29.8269 86.1238 -6.60472 -0.391704 0.920085 0.00353862
-29.9651 86.0453 -5.25947 -0.388988 0.921053 0.0187237
-30.1218 85.9537 -3.68187 -0.395744 0.91827 0.0129533
-30.2681 85.8712 -2.25797 -0.403357 0.915015 0.00716599
-30.4188 85.7911 -0.929308 -0.400634 0.916171 0.0111194
-30.5794 85.7059 0.681008 -0.39715 0.917704 0.00952289
-30.7139 85.6208 2.03112 -0.40683 0.913453 0.00958506
-30.88 85.5319 3.66153 -0.407088 0.913371 0.00571849
-31.0066 85.4647 5.02772 -0.412259 0.911043 0.00649099
-31.1765 85.365 6.89916 -0.412831 0.910685 0.0149288
-31.292 85.2944 8.49996 -0.403327 0.914985 0.0113785
-31.3903 85.2262 9.95966 -0.410892 0.911514 0.0176203
-31.4875 85.157 11.2962 -0.410938 0.911571 0.0129742
-31.5613 85.1085 12.6804 -0.411281 0.911413 0.013178
-31.6531 85.0425 14.1358 -0.416173 0.909183 0.0136732
-31.742 84.987 15.6836 -0.414339 0.910116 0.00344894
-31.7754 84.9645 16.4401 -0.427866 0.903805 0.00817675
-30.9356 85.35 16.6036 -0.41397 0.910277 0.00502612
-30.8523 85.3968 15.0492 -0.41244 0.91095 0.00797948
-30.7733 85.4487 13.7277 -0.413181 0.910562 0.0125757
-30.6853 85.5057 12.3428 -0.408289 0.912797 0.010101
-30.5915 85.5646 10.8337 -0.40843 0.912728 0.0106046
-30.4407 85.6638 8.89873 -0.401625 0.915685 0.0148
-30.3198 85.7417 7.26858 -0.399956 0.91643 0.0138493
-30.1509 85.837 5.61779 -0.395751 0.918327 0.00755409
-30.0079 85.9103 4.16152 -0.398677 0.917058 0.00790577
-29.8178 86.0091 2.38101 -0.392097 0.919766 0.0170635
-29.6466 86.1027 0.813358 -0.393068 0.919443 0.0110647
-29.4833 86.1858 -0.619306 -0.382542 0.92385 0.0127958
-29.3136 86.2732 -2.03758 -0.380549 0.924717 0.00898961
-29.153 86.357 -3.50376 -0.380986 0.924461 0.0148571
-28.9488 86.4698 -5.33392 -0.378788 0.925407 0.0119249
-28.7776 86.5576 -6.68566 -0.369247 0.929315 0.00541518
-28.6083 86.638 -8.04675 -0.374083 0.927369 0.00696192
-28.4785 86.7108 -9.40766 -0.369381 0.929159 0.0148763
-28.355 86.776 -10.7332 -0.3664 0.930443 0.00510528
-28.2825 86.8088 -11.3526 -0.365261 0.930703 0.0193931
-27.1706 87.2407 -11.3789 -0.357101 0.933957 0.0142859
-27.3534 87.1563 -9.82525 -0.358838 0.933361 0.00855635
-27.518 87.0774 -8.44687 -0.370935 0.928616 0.00896925
-27.6904 86.9869 -6.88179 -0.360984 0.932523 0.00956038
-27.8953 86.8951 -5.43976 -0.36155 0.932328 0.00682247
-28.0986 86.7947 -3.99385 -0.373236 0.927666 0.0114074
-28.2637 86.7105 -2.52845 -0.378899 0.925383 0.0101043
-28.4295 86.6239 -1.21552 -0.375969 0.926605 0.00708365
-28.613 86.5366 0.21659 -0.376166 0.926493 0.0104249
-28.8053 86.4425 1.67512 -0.380522 0.924682 0.0128575
-28.9819 86.3501 3.26501 -0.384241 0.923154 0.0120394
-29.1613 86.2599 4.87028 -0.380107 0.924918 0.00676043
-29.332 86.1774 6.38957 -0.382337 0.923983 0.00858344
-29.4693 86.1048 7.73158 -0.393573 0.919149 0.0162978
-29.5878 86.0294 9.17854 -0.393943 0.919006 0.01537
-29.7066 85.9604 10.5043 -0.397714 0.917469 0.00868267
-29.8403 85.8781 12.4617 -0.39881 0.916906 0.0152903
-29.928 85.8208 13.8092 -0.397829 0.917433 0.00694377
-30.0101 85.7737 15.1903 -0.407173 0.913231 0.0148067
-30.092 85.7287 16.7353 -0.395788 0.918327 0.00528391
-29.2488 86.0913 16.8837 -0.395788 0.918327 0.00527749
-29.1684 86.1339 15.424 -0.388113 0.921527 0.0125247
-29.0826 86.189 13.8231 -0.391636 0.920078 0.00877409
-28.9571 86.2612 12.2411 -0.392822 0.919534 0.0121887
-28.8315 86.3332 10.7649 -0.391252 0.920237 0.00929387
-28.6959 86.4087 9.20318 -0.372646 0.927863 0.014304
-28.5316 86.4978 7.57759 -0.365744 0.930594 0.015037
-28.3934 86.5674 6.24739 -0.374041 0.927393 0.00596977
-28.2216 86.6468 4.68089 -0.37746 0.926014 0.00467019
-28.053 86.7326 3.32131 -0.366342 0.930351 0.0155307
-27.8433 86.8326 1.70336 -0.375968 0.926576 0.0102829
-27.6383 86.9298 0.210157 -0.371815 0.928285 0.00640706
-27.4217 87.0272 -1.32521 -0.356978 0.934045 0.0112171
-27.2635 87.1107 -2.64111 -0.361152 0.932468 0.00853013
-27.0035 87.2221 -4.4036 -0.349297 0.936921 0.0130715
-26.7808 87.326 -5.89627 -0.350732 0.9364 0.0119526
-26.5942 87.412 -7.4736 -0.331522 0.943422 0.0069097
-26.3418 87.5206 -8.91924 -0.345086 0.9385 0.0115465
-26.1374 87.618 -10.6551 -0.341257 0.939851 0.0149839
-26.0658 87.6457 -11.281 -0.321534 0.946865 0.00792093
-24.9805 88.0112 -10.9134 -0.321529 0.946867 0.00792363
-25.1737 87.9352 -9.58758 -0.305882 0.952042 0.00723901
-25.3881 87.8379 -8.06347 -0.318157 0.947935 0.0139736
-25.7103 87.7103 -6.14825 -0.325597 0.94548 0.00734017
-25.9676 87.6022 -4.31248 -0.341722 0.939692 0.0143179
-26.2501 87.4893 -2.58131 -0.348149 0.937408 0.00767046
-26.4675 87.3926 -1.03572 -0.350863 0.936395 0.00770697
-26.7156 87.2823 0.580835 -0.343758 0.939017 0.00880857
-26.9142 87.1902 1.96206 -0.354543 0.934929 0.0144047
-27.1159 87.094 3.37727 -0.353394 0.935397 0.0120779
-27.3155 87.0031 4.92311 -0.359641 0.93306 0.00758588
-27.4772 86.933 6.26 -0.357952 0.933657 0.0124692
-27.6499 86.8442 7.74904 -0.370065 0.928963 0.00892754
-27.8133 86.7622 9.33913 -0.37252 0.927971 0.00995572
-27.9611 86.6837 10.7995 -0.37269 0.927904 0.00982675
-28.0962 86.6142 12.4152 -0.376083 0.9265 0.0126277
-28.1956 86.5543 13.75 -0.364283 0.931232 0.0102562
-28.2963 86.5005 15.1555 -0.380417 0.924771 0.00899806
-28.387 86.4485 16.7516 -0.37843 0.925596 0.00796839
-28.3908 86.4462 16.839 -0.378774 0.925479 0.00434087
-27.5329 86.794 16.8948 -0.369281 0.929318 -9.33404e-05
-27.4431 86.8381 15.4509 -0.363224 0.931674 0.00726092
-27.3104 86.8976 13.7322 -0.356267 0.934348 0.00825219
-27.1928 86.9678 12.1283 -0.356949 0.933973 0.0167845
-27.0521 87.0438 10.6321 -0.357277 0.933935 0.0108759
-26.8994 87.1153 9.16928 -0.354618 0.934983 0.00732603
-26.74 87.1924 7.70799 -0.351356 0.93617 0.0115872
-26.5729 87.2698 6.38407 -0.350241 0.9366 0.0105401
-26.3585 87.3608 4.75505 -0.339352 0.940645 0.00516656
-26.1705 87.4422 3.42674 -0.339145 0.940653 0.0123977
-25.9351 87.548 1.89921 -0.339254 0.940565 0.015636
-25.6861 87.6611 0.363897 -0.343542 0.939094 0.00897413
-25.4683 87.7568 -1.02793 -0.3413 0.939867 0.0127955
-25.2396 87.8537 -2.48934 -0.327088 0.944993 0.00100415
-24.9863 87.952 -3.90687 -0.324094 0.946007 0.0058243
-24.7807 88.0251 -5.24131 -0.310991 0.950313 -0.0137888
-24.4809 88.1225 -6.84378 -0.309577 0.950864 0.00440015
-24.2766 88.2061 -8.16214 -0.308976 0.950983 0.0128863
-24.0664 88.2914 -9.63461 -0.298324 0.9544 0.0111636
-23.8529 88.365 -10.7264 -0.292387 0.956218 0.0124856
-22.7476 88.6926 -10.2704 -0.26156 0.965131 0.0103749
-23.0278 88.5949 -8.76066 -0.290627 0.956793 0.00912377
-23.2841 88.5095 -7.27025 -0.290006 0.957024 -0.00107959
-23.6617 88.3883 -5.39093 -0.284872 0.95856 0.00318114
-23.9514 88.3002 -3.93568 -0.282331 0.959311 0.00329966
-24.1969 88.2107 -2.55875 -0.290005 0.9569 0.0154589
-24.4352 88.1103 -1.20128 -0.308613 0.951152 0.00825715
-24.6923 88.0012 0.357593 -0.317693 0.948098 0.0134696
-25.0097 87.869 2.19695 -0.326754 0.945079 0.00762169
-25.2794 87.756 3.8064 -0.3373 0.941337 0.0106834
-25.4698 87.6793 5.13232 -0.33849 0.940959 0.00460702
-25.6809 87.5903 6.67429 -0.33325 0.942835 0.00236898
-25.8537 87.5165 7.99524 -0.340082 0.940299 0.0134715
-26.0391 87.4355 9.50751 -0.339614 0.94054 0.00678271
-26.2058 87.3587 11.0172 -0.332967 0.942854 0.0126537
-26.3361 87.284 12.3742 -0.339956 0.940338 0.0139396
-26.4542 87.224 13.7353 -0.356259 0.934351 0.00825352
-26.5585 87.1777 15.0906 -0.349076 0.937087 0.00365909
-26.6416 87.144 16.5114 -0.353039 0.935606 0.00201943
-26.6463 87.142 16.5965 -0.353045 0.935604 0.0020229
-25.7733 87.4647 16.1789 -0.341713 0.939798 -0.0033604
-25.6531 87.5141 14.4201 -0.33034 0.94386 -0.00200419
-25.4905 87.5859 12.6623 -0.334079 0.942474 0.0115544
-25.3443 87.6569 11.3176 -0.331466 0.943361 0.0141242
-25.1513 87.7471 9.71242 -0.327407 0.94482 0.0109507
-24.9482 87.8317 8.09267 -0.319275 0.947615 0.00941767
-24.7408 87.9147 6.59226 -0.325544 0.945479 0.00951737
-24.4747 88.0222 4.8573 -0.31913 0.947672 0.00856744
-24.2618 88.1098 3.44404 -0.312258 0.949912 0.0127417
-23.9447 88.2297 1.71502 -0.292255 0.956311 0.00744693
-23.6642 88.3322 0.198304 -0.295173 0.955357 0.012876
-23.4196 88.4208 -1.16128 -0.289699 0.957032 0.0128303
-23.1339 88.5315 -2.71962 -0.279383 0.960119 0.0108122
-22.803 88.6408 -4.31291 -0.288234 0.957544 0.00550519
-22.5204 88.7285 -5.61334 -0.275564 0.96128 -0.00227366
-22.2286 88.82 -6.97077 -0.281917 0.959421 0.00584662
-21.8307 88.936 -8.84969 -0.269713 0.962941 -0.000703441
-21.6064 88.998 -9.9121 -0.254863 0.966946 0.0077339
-20.4135 89.2885 -9.6458 -0.205242 0.978698 0.00499244
-20.7958 89.201 -8.26186 -0.219996 0.975465 0.00832378
-21.1876 89.0886 -6.63906 -0.240085 0.970717 0.00822474
-21.5154 88.9899 -5.20154 -0.236518 0.971522 0.0143138
-21.8513 88.8882 -3.68585 -0.254612 0.967025 -0.00596645
-22.1914 88.787 -2.13124 -0.268898 0.963124 0.00925244
-22.4665 88.6952 -0.79239 -0.264988 0.964218 0.00804737
-22.8129 88.5829 0.980166 -0.289806 0.957023 0.0108936
-23.0838 88.4902 2.39254 -0.278154 0.960527 0.00433457
-23.3742 88.3889 3.94585 -0.29804 0.954316 0.0212739
-23.5997 88.2978 5.25225 -0.300191 0.953839 0.0087362
-23.8528 88.2056 6.82731 -0.307449 0.951559 0.00310986
-24.0925 88.1108 8.47443 -0.31462 0.949113 0.0141087
-24.2638 88.0375 9.84037 -0.307283 0.951546 0.0117384
-24.441 87.9593 11.3024 -0.30805 0.951334 0.00826074
-24.6233 87.8827 12.7669 -0.324525 0.945817 0.0106695
-24.7882 87.8142 14.3383 -0.3238 0.946122 0.00275885
-24.9282 87.7627 16.0086 -0.319698 0.947516 -0.00263952
-24.0829 88.0475 15.8305 -0.319692 0.947518 -0.00264754
-23.9063 88.1037 14.0226 -0.31057 0.950525 0.00699587
-23.744 88.1756 12.7097 -0.311974 0.950049 0.00890954
-23.5588 88.2447 11.3402 -0.309592 0.950811 0.010515
-23.3892 88.3172 10.0152 -0.291051 0.956625 0.0125558
-23.2139 88.3867 8.60972 -0.2966 0.954938 0.0110907
-22.9993 88.4726 7.23869 -0.287681 0.957627 0.0137786
-22.7229 88.5541 5.63829 -0.279835 0.960031 0.00581053
-22.454 88.6459 4.2555 -0.263689 0.964607 -0.00114512
-22.1516 88.753 2.70958 -0.25222 0.967512 0.0174986
-21.8515 88.8557 1.23453 -0.263403 0.964669 0.00569903
-21.5372 88.9481 -0.242598 -0.263611 0.964624 0.00321109
-21.1579 89.048 -1.94006 -0.238875 0.971048 -0.002316
-20.8177 89.1431 -3.33402 -0.227482 0.973723 0.0107789
-20.5024 89.2292 -4.64405 -0.238056 0.971166 0.0128971
-20.114 89.3272 -6.11988 -0.207801 0.978163 0.0039637
-19.7393 89.4273 -7.61159 -0.198169 0.980086 0.0126682
-19.2891 89.5198 -9.10227 -0.18446 0.982831 0.00412434
-19.0614 89.5751 -9.87461 -0.177372 0.9839 0.021889
-17.8424 89.7852 -9.59812 -0.152141 0.988312 0.00962722
-18.352 89.6852 -8.03455 -0.159871 0.987138 -0.000686435
-18.8085 89.604 -6.42861 -0.193499 0.9811 -0.00123404
-19.2679 89.5038 -4.78564 -0.210446 0.97759 0.0055628
-19.7459 89.3885 -3.19757 -0.213681 0.976882 0.00652948
-20.1186 89.295 -1.7791 -0.22246 0.97494 -0.00200051
-20.4475 89.2205 -0.439329 -0.231713 0.972777 -0.00370187
-20.7538 89.1429 0.892552 -0.230613 0.972966 0.0124363
-21.0603 89.0455 2.27462 -0.241605 0.970206 0.0180797
-21.4234 88.9129 3.97923 -0.239734 0.970777 0.0108992
-21.7184 88.8472 5.31839 -0.237358 0.971369 -0.0101613
-22.0737 88.7436 7.22491 -0.267627 0.963466 0.0104815
-22.3084 88.6542 8.69 -0.276205 0.960911 0.0190106
-22.5646 88.551 10.4188 -0.279863 0.959917 0.015351
-22.7675 88.4766 11.8806 -0.282635 0.959194 0.00803823
-22.953 88.408 13.2142 -0.285273 0.9584 0.00943271
-23.1343 88.3512 14.7451 -0.294413 0.955663 -0.0054102
-23.1716 88.3417 15.0867 -0.294411 0.955664 -0.00541514
-22.3112 88.6056 14.8919 -0.295644 0.95527 -0.0073846
-22.0888 88.6608 13.2139 -0.266919 0.963688 0.00768804
-21.7889 88.7596 11.1294 -0.259239 0.965756 0.0105226
-21.5327 88.8534 9.59999 -0.245093 0.96927 0.0211068
-21.2573 88.9505 8.02625 -0.243791 0.96955 0.0232043
-20.9856 89.0355 6.55892 -0.217972 0.975947 0.00399236
-20.5936 89.121 4.65462 -0.240795 0.97057 -0.00325869
-20.2602 89.2123 3.15374 -0.218012 0.97586 0.0129679
-19.9143 89.321 1.6953 -0.2192 0.975265 0.0284614
-19.5926 89.4124 0.391515 -0.212597 0.977136 -0.00265858
-19.2049 89.4805 -1.11819 -0.197076 0.980254 -0.0161974
-18.8296 89.5674 -2.44381 -0.175354 0.984426 0.0125195
-18.4338 89.6637 -3.71916 -0.205523 0.978615 0.00849125
-18.0092 89.7561 -5.15132 -0.166707 0.986003 -0.00251662
-17.5902 89.8194 -6.51525 -0.154653 0.987964 0.00304361
-17.1386 89.8822 -7.83371 -0.136309 0.990639 -0.0074182
-16.7278 89.9437 -9.10039 -0.117009 0.993131 0.000208037
-16.5587 89.9581 -9.55635 -0.104495 0.994522 0.00266002
-15.2857 90.0809 -9.41394 -0.0702517 0.997529 -0.000546732
-15.7684 90.0507 -8.15563 -0.084462 0.996396 -0.007777
-16.3506 89.9908 -6.52701 -0.11686 0.993139 -0.00425175
-16.9055 89.9173 -4.98511 -0.119094 0.992776 0.0145528
-17.3983 89.8199 -3.4243 -0.149168 0.988386 0.0290184
-17.879 89.7307 -1.89326 -0.149901 0.988623 0.0124104
-18.2884 89.656 -0.524723 -0.166855 0.985951 0.00773338
-18.6535 89.5821 0.818064 -0.181753 0.983336 0.00397845
-18.9992 89.4962 2.13138 -0.184113 0.982585 0.0250823
-19.3806 89.3875 3.66815 -0.198848 0.979734 0.024088
-19.7701 89.2982 5.33979 -0.212856 0.977075 -0.00416336
-20.0451 89.2442 6.65798 -0.209247 0.977662 0.019801
-20.369 89.153 8.27559 -0.220018 0.975389 0.0144618
-20.6403 89.0691 9.69545 -0.23066 0.972869 0.0179167
-20.8848 88.9946 11.0133 -0.245772 0.969304 0.00681734
-21.093 88.9368 12.3805 -0.246448 0.969155 0.00108408
-21.297 88.8812 13.827 -0.270986 0.962581 -0.00201467
-21.386 88.8604 14.4519 -0.263826 0.96444 -0.0158381
-20.4747 89.0918 14.181 -0.244781 0.969536 -0.00910558
-20.2135 89.1572 12.223 -0.235405 0.971855 0.00907045
-19.9626 89.2113 10.7813 -0.220952 0.975098 -0.0190954
-19.7039 89.2955 9.45446 -0.230087 0.972991 0.0186796
-19.3653 89.3764 7.87674 -0.207975 0.978134 0.00112945
-19.0628 89.4491 6.52497 -0.197179 0.980325 0.00908876
-18.7507 89.5088 5.18351 -0.19487 0.980803 -0.00715738
-18.4071 89.578 3.7807 -0.176134 0.984343 0.00678953
-17.97 89.6833 2.13207 -0.170876 0.985116 0.0186644
-17.5808 89.7601 0.748025 -0.146774 0.989168 -0.00211935
-17.0575 89.8561 -0.986854 -0.138128 0.990407 0.00371056
-16.598 89.9243 -2.40776 -0.108616 0.994075 0.0042559
-15.9992 90.014 -4.17763 -0.0931521 0.995602 0.00997556
-15.5169 90.0651 -5.53333 -0.0616766 0.998071 -0.00706438
-14.8967 90.1145 -7.1473 -0.0683112 0.997576 0.0132714
-14.1871 90.1416 -8.74388 -0.0341645 0.999416 -5.68496e-05
-13.9062 90.1512 -9.42579 -0.0363018 0.999338 0.00252403
-12.2935 90.164 -9.57672 0.00330389 0.999867 0.0159937
-13.1937 90.1579 -7.96104 -0.00651595 0.999924 0.0105108
-13.7643 90.1566 -6.74893 -0.0223515 0.999732 -0.00602241
-14.3062 90.1294 -5.48486 -0.0433634 0.999029 0.00776642
-14.8477 90.1008 -4.13549 -0.0402626 0.999117 0.0120058
-15.3996 90.0544 -2.55204 -0.0976701 0.995218 0.00113138
-15.8808 89.9932 -1.17442 -0.100444 0.994942 0.000872186
-16.4296 89.9285 0.494553 -0.108366 0.994103 0.00400822
-16.8226 89.8669 1.75876 -0.136702 0.990597 0.00547676
-17.2541 89.7883 3.27554 -0.166796 0.985957 0.00827536
-17.6353 89.7129 4.70536 -0.166888 0.985958 0.00594706
-18.036 89.6409 6.23679 -0.174342 0.98468 0.00318722
-18.3776 89.5734 7.65406 -0.185438 0.982646 -0.00452217
-18.7111 89.5007 9.14735 -0.194482 0.980734 0.0183533
-19.0716 89.4128 10.7802 -0.189315 0.981902 0.00524348
-19.3356 89.3601 12.1946 -0.211177 0.977448 -0.000234531
-19.5669 89.2965 13.7324 -0.202717 0.979137 0.0139824
-19.5955 89.2873 13.9608 -0.20649 0.978447 -0.00197897
-18.7273 89.4701 13.7477 -0.20649 0.978447 -0.00197897
-18.442 89.528 12.2044 -0.17887 0.983795 0.0123815
-18.1324 89.5947 10.7442 -0.18874 0.982018 0.00414446
-17.8242 89.6635 9.34342 -0.178619 0.983846 0.011924
-17.4894 89.7286 7.9137 -0.153189 0.988191 0.00346232
-17.1025 89.7913 6.41853 -0.129781 0.99151 0.00803281
-16.6831 89.8488 4.88996 -0.123994 0.992281 -0.00188989
-16.2894 89.9202 3.45223 -0.133003 0.990797 0.0251366
-15.8338 89.98 2.0082 -0.0983908 0.995052 -0.0138328
-15.4183 90.024 0.738613 -0.0987571 0.9951 0.00481657
-14.8556 90.0752 -0.893965 -0.0709893 0.997165 0.0249649
-14.3783 90.138 -2.24209 -0.0410602 0.999143 0.00528503
-13.9014 90.1411 -3.51088 -0.0340403 0.999418 0.00232605
-13.2651 90.1631 -4.98484 -0.0251484 0.999496 0.0193684
-12.6907 90.1651 -6.25583 0.0124548 0.99992 -0.0021982
-11.8672 90.1493 -7.8679 0.0358715 0.999346 0.004514
-11.1487 90.127 -9.1536 0.0370899 0.999233 0.0125576
-10.7606 90.1272 -9.83515 0.0612843 0.997936 0.0191972
-9.31508 89.9976 -9.87482 0.113268 0.993274 0.0240121
-10.0693 90.0578 -8.66413 0.0814387 0.996678 0.000283955
-10.8543 90.1046 -7.25671 0.0437279 0.998927 0.0152647
-11.4902 90.1286 -6.03083 0.0432848 0.999054 -0.00410947
-12.1271 90.1501 -4.66765 0.0460308 0.998902 0.00868601
-12.6971 90.1569 -3.38735 -0.00447082 0.999943 0.00973455
-13.295 90.1472 -1.98266 -0.00345844 0.999994 2.07597e-05
-13.9758 90.1119 -0.211169 -0.0561322 0.998165 0.0226924
-14.4492 90.0885 1.11981 -0.0586397 0.998277 -0.0020181
-14.9312 90.0584 2.52054 -0.0536691 0.998464 0.0137874
-15.3737 90.0098 3.86665 -0.0808692 0.996637 0.0132137
-15.8349 89.9526 5.47573 -0.0774578 0.996881 0.0151303
-16.2561 89.8891 6.9804 -0.0952617 0.995426 0.00729448
-16.65 89.8371 8.42034 -0.0904571 0.995858 0.00915938
-17.0411 89.7656 10.0019 -0.120251 0.992628 0.0151783
-17.3733 89.7 11.3849 -0.138176 0.990348 0.0108459
-17.711 89.6438 12.9053 -0.152133 0.988359 0.00101571
-17.7315 89.64 13.0094 -0.156595 0.987646 0.00576265
-16.8433 89.7714 12.9511 -0.136978 0.990566 -0.00395712
-16.5412 89.8008 11.6533 -0.11338 0.993465 0.0131121
-16.2071 89.8487 10.3587 -0.102981 0.994553 0.0161013
-15.7869 89.9131 8.76817 -0.0894148 0.995985 0.00445331
-15.421 89.9618 7.45418 -0.0894229 0.995925 0.0117372
-15.0278 90.0041 6.09123 -0.0715242 0.9974 0.00883923
-14.6174 90.0531 4.77001 -0.0475351 0.998647 0.0211048
-14.1534 90.1006 3.37857 -0.0550747 0.99848 -0.00224859
-13.712 90.1102 2.12495 -0.0124032 0.999906 -0.00580528
-13.2192 90.1305 0.772227 -0.0254739 0.99949 0.0192778
-12.6858 90.1531 -0.568152 -0.00396043 0.999884 0.0147209
-12.118 90.1528 -1.91435 0.0334126 0.999441 -0.000905339
-11.4232 90.1133 -3.49664 0.0533151 0.998481 -0.0139171
-10.6859 90.0811 -5.03995 0.0679151 0.997651 0.00894986
-9.96914 90.0525 -6.44605 0.0939246 0.995508 0.0119227
-9.26414 89.9741 -7.68661 0.116326 0.9932 0.00469977
-8.55612 89.8994 -8.82175 0.110753 0.993828 0.00627171
-7.83316 89.7952 -9.98449 0.166346 0.986019 0.00975479
-7.28904 89.7133 -10.7768 0.163413 0.986483 0.012107
-5.05196 89.2394 -11.8831 0.25144 0.967693 0.018653
-6.04579 89.4463 -10.5367 0.229216 0.973247 0.0158431
-6.84837 89.6077 -9.42092 0.211097 0.977459 0.0035057
-7.75431 89.7805 -7.98204 0.171526 0.985159 0.00631172
-8.52221 89.8777 -6.63777 0.131023 0.99134 0.00878727
-9.43626 89.9796 -5.02622 0.115232 0.993339 0.00021243
-10.0476 90.04 -3.81196 0.0755694 0.997095 0.00957208
-10.6408 90.0796 -2.56935 0.0641189 0.997783 -0.017823
-11.2649 90.1296 -1.21031 0.0324586 0.999424 -0.00993618
-11.8372 90.1265 0.143065 0.0352223 0.999228 0.0174201
-12.4111 90.1265 1.56547 0.0306357 0.999531 0.000152604
-12.8957 90.1299 2.86043 0.00995062 0.999938 0.00493951
-13.4123 90.1204 4.27011 -0.0190302 0.999703 0.0151936
-13.8801 90.0735 5.66415 -0.0369461 0.999305 0.00500929
-14.3196 90.0588 6.97314 -0.080512 0.996718 -0.00837587
-14.8412 89.9981 8.78925 -0.0877174 0.996082 0.011254
-15.2458 89.9524 10.1749 -0.0950454 0.995318 0.0175621
-15.6204 89.9025 11.5691 -0.0882347 0.996081 0.00613621
-15.9715 89.8831 12.9897 -0.0863096 0.996217 -0.010106
-15.03 89.9578 12.7127 -0.0828144 0.996512 -0.0102583
-14.656 89.9859 11.42 -0.0489157 0.9988 0.00244388
-14.2612 90.016 10.0279 -0.0592599 0.998207 0.00842308
-13.8287 90.0432 8.5819 -0.041145 0.99906 0.0136456
-13.4043 90.0953 7.293 -0.0427857 0.998434 0.0360407
-12.8748 90.1002 5.76031 0.00589282 0.999935 0.00974769
-12.3993 90.1125 4.4158 0.00601876 0.999904 0.0124794
-11.7315 90.1094 2.65026 0.0250628 0.999685 0.000884149
-11.1825 90.0862 1.29245 0.0380947 0.999155 0.0154358
-10.6401 90.0762 0.0472275 0.0732201 0.997164 0.0173861
-9.98297 90.0327 -1.41255 0.0789938 0.996838 -0.00860703
-9.39339 89.9735 -2.65718 0.0907418 0.995834 -0.00901781
-8.77011 89.8994 -3.88374 0.133964 0.990974 0.00497391
-7.93323 89.7857 -5.42139 0.145243 0.989377 0.0061736
-7.28654 89.6857 -6.57696 0.182766 0.983081 -0.0121513
-6.58663 89.534 -7.71637 0.206877 0.978366 -0.00161098
-5.81159 89.3742 -8.88027 0.241428 0.970408 0.00450809
-5.01715 89.1921 -10.0184 0.232703 0.972299 0.0219971
-4.16366 88.9737 -11.2632 0.275874 0.961046 0.0168849
-3.33496 88.7331 -12.3822 0.309843 0.950635 0.0170632
-2.39338 88.4338 -13.5939 0.344492 0.938686 0.0139117
-2.11922 88.3385 -13.9417 0.341957 0.939511 0.0195998
0.208566 87.4522 -15.2348 0.386475 0.92226 0.00857042
-0.744041 87.8191 -13.9932 0.358174 0.933627 0.00726774
-1.55132 88.1176 -12.9235 0.340368 0.94024 0.00993619
-2.49101 88.4478 -11.7288 0.330619 0.943728 0.00822533
-3.41636 88.7389 -10.4345 0.306862 0.95175 0.00271723
-4.2103 88.9631 -9.26866 0.261024 0.96532 0.00478623
-4.92841 89.1535 -8.17569 0.237029 0.9715 -0.00240431
-5.77779 89.3711 -6.8908 0.221964 0.975015 -0.00876081
-6.72075 89.5637 -5.32645 0.208653 0.977864 0.0156801
-7.42146 89.6963 -4.0892 0.194269 0.98092 0.0075022
-8.30641 89.8181 -2.38261 0.157298 0.987551 0.000925163
-8.89757 89.918 -1.17747 0.124732 0.99217 -0.00631024
-9.54253 89.9807 0.175964 0.109052 0.993941 0.0137322
-10.1603 90.0166 1.54306 0.095593 0.995418 0.00229614
-10.8152 90.076 3.1022 0.0620869 0.998012 0.0108468
-11.351 90.0819 4.44761 0.0473633 0.998874 0.00289374
-11.9274 90.0941 5.94241 0.0171747 0.999847 0.00322352
-12.5115 90.095 7.60434 0.00647155 0.999979 0.000511785
-13.0092 90.0703 8.99209 -0.0254327 0.999613 0.0113043
-13.4815 90.0492 10.5305 -0.0293014 0.999571 0.000177453
-13.8859 90.0275 11.9119 -0.0502436 0.99872 -0.00575817
-14.1765 90.0127 12.8842 -0.0569604 0.998373 0.00274156
-13.1566 90.0539 12.5194 -0.0284505 0.999569 -0.00720779
-12.7711 90.0548 11.2409 0.00393149 0.999991 0.00149809
-12.3635 90.0713 9.97408 -0.00199902 0.999942 0.0105909
-11.8824 90.0847 8.6167 0.00195867 0.999932 0.0114947
-11.2093 90.0689 6.75598 0.0346727 0.999394 0.00297234
-10.6556 90.0394 5.36468 0.0544937 0.998432 0.0128195
-10.14 90.0242 4.12682 0.0718614 0.997409 0.00330423
-9.48981 89.9648 2.60277 0.106604 0.994291 -0.00456171
-8.75216 89.8861 0.966197 0.107811 0.994132 0.00889518
-8.14706 89.8151 -0.279875 0.145093 0.989418 -0.000184915
-7.2831 89.6653 -1.97378 0.182729 0.983158 -0.00319372
-6.60662 89.5311 -3.26679 0.203348 0.979094 0.00503795
-5.95805 89.392 -4.44237 0.220058 0.975406 0.0125445
-5.23319 89.2237 -5.65956 0.251627 0.967797 0.00732531
-4.47351 89.0398 -6.83084 0.255884 0.966639 0.0115153
-3.71636 88.8265 -8.03142 0.277858 0.960618 -0.00269498
-2.99316 88.5962 -9.12952 0.305357 0.952075 -0.0176069
-1.89292 88.228 -10.707 0.338561 0.940944 0.000231181
-0.969762 87.8953 -11.9073 0.358189 0.933648 -0.00157929
-0.0472747 87.5378 -13.1785 0.373607 0.927587 -0.000110836
0.893263 87.1575 -14.4332 0.390448 0.920623 0.00204814
1.89667 86.7305 -15.7709 0.414408 0.910047 0.00901458
2.19799 86.5973 -16.1713 0.414412 0.910045 0.00901115
3.97624 85.7635 -16.8421 0.439364 0.898305 0.00273091
3.11256 86.1688 -15.7075 0.425298 0.905051 0.00194663
2.10051 86.6351 -14.3665 0.414357 0.910114 0.000679993
1.31738 86.9744 -13.2858 0.395157 0.918613 -0.000938936
0.462284 87.3343 -12.1067 0.380524 0.92475 -0.00628205
-0.316923 87.6471 -10.997 0.35784 0.933767 -0.00541882
-1.10846 87.9461 -9.88842 0.336933 0.941511 -0.00582455
-1.90725 88.2411 -8.78193 0.335653 0.941909 -0.0119956
-2.79143 88.5449 -7.46025 0.301034 0.953603 0.00448865
-3.60936 88.7962 -6.18921 0.275591 0.961243 0.00782332
-4.38953 89.0073 -4.9192 0.254005 0.967198 -0.00299059
-5.18065 89.2201 -3.55441 0.225025 0.974313 -0.00882655
-5.88221 89.3879 -2.26844 0.201377 0.979385 -0.0159087
-6.51179 89.534 -1.1097 0.181268 0.983017 -0.0286162
-7.35828 89.7003 0.473615 0.153058 0.988206 -0.00463915
-7.96488 89.7746 1.72614 0.131805 0.99127 -0.00324121
-8.73182 89.887 3.43062 0.130272 0.991472 0.00340028
-9.43168 89.9568 5.02566 0.0931258 0.995638 0.0057183
-10.1401 90.0155 6.66222 0.0692189 0.997595 -0.00354178
-10.6214 90.0473 7.89421 0.0641948 0.997935 0.00210225
-11.1123 90.062 9.2231 0.0303225 0.999539 -0.00122837
-11.6437 90.0619 10.6758 0.00215558 0.999856 0.0168522
-12.0729 90.0565 11.966 0.0329643 0.999429 0.0074677
-12.3316 90.0661 12.7523 0.014295 0.999898 0.000687172
-11.4141 90.0385 12.7481 0.0342687 0.999395 -0.00602286
-10.9485 90.0232 11.4358 0.0332995 0.99942 0.00712916
-10.4503 90.0137 10.0756 0.059318 0.998215 0.00689803
-9.90477 89.9928 8.69667 0.0758008 0.997047 0.0123012
-9.37547 89.9536 7.37316 0.119994 0.992771 -0.0026749
-8.76039 89.8798 5.92368 0.111265 0.993756 0.00835231
-8.06698 89.7827 4.4346 0.144771 0.989327 -0.0165467
-7.42828 89.6825 3.01699 0.185117 0.982636 0.0125844
-6.82504 89.5896 1.75535 0.179179 0.983638 0.0187634
-6.1983 89.4774 0.51808 0.188801 0.982013 -0.00228359
-5.46777 89.3227 -0.83604 0.214989 0.97656 -0.0104701
-4.72412 89.1301 -2.17108 0.243425 0.96988 -0.00882933
-4.07539 88.9424 -3.30838 0.269517 0.962958 -0.00857549
-3.32035 88.712 -4.60004 0.302068 0.953269 -0.00571548
-2.38832 88.4206 -6.10246 0.308937 0.951063 0.00602445
-1.46764 88.1007 -7.49756 0.33868 0.940842 -0.0106092
-0.593524 87.762 -8.77281 0.354786 0.934926 -0.00635788
0.245501 87.4372 -9.97604 0.361959 0.932189 -0.0031725
1.03923 87.1097 -11.1233 0.384831 0.922919 -0.011223
1.81044 86.7646 -12.2173 0.40122 0.915982 -0.000734935
2.58822 86.414 -13.2971 0.413042 0.910706 -0.00319433
3.41926 86.0304 -14.4251 0.429833 0.902898 -0.00441238
4.45145 85.5269 -15.8275 0.440892 0.897558 -0.0020778
5.34787 85.0856 -17.0343 0.445784 0.895121 0.00583734
5.40801 85.0564 -17.1155 0.448078 0.89397 0.00656433
6.68725 84.3973 -17.2142 0.464826 0.885401 -0.0010772
5.76497 84.8767 -15.9293 0.457986 0.888955 -0.00289825
4.8753 85.3187 -14.7291 0.443855 0.896078 -0.00603974
4.04532 85.7366 -13.562 0.429833 0.902898 -0.00441247
3.0736 86.197 -12.208 0.422768 0.906234 -0.00286475
2.32384 86.549 -11.1565 0.40583 0.913894 -0.00994135
1.49599 86.9248 -9.98456 0.392442 0.919764 -0.0048291
0.627159 87.2862 -8.68897 0.37036 0.928888 -0.000858174
-0.292899 87.6685 -7.33469 0.364688 0.931053 -0.0119227
-1.09288 87.9744 -6.13357 0.344245 0.938876 0.00258694
-1.81342 88.224 -5.0108 0.330635 0.943759 -3.42636e-05
-2.54192 88.4763 -3.79748 0.29865 0.954217 -0.0167017
-3.26956 88.7173 -2.54868 0.288832 0.95734 -0.00869988
-3.96961 88.9313 -1.34797 0.283007 0.959118 0.000542638
-4.67024 89.1359 -0.144891 0.266246 0.963901 -0.00299079
-5.30154 89.2849 1.05312 0.211734 0.977218 0.0146419
-5.98986 89.4073 2.37245 0.210162 0.977405 0.022592
-6.72286 89.5491 3.90979 0.173957 0.98475 0.00243729
-7.44242 89.6973 5.49661 0.162987 0.986607 -0.00640874
-8.03626 89.7849 6.71882 0.126546 0.991961 -0.000478307
-8.73439 89.8697 8.35907 0.124086 0.992257 0.00539457
-9.27763 89.9182 9.62999 0.108996 0.993776 0.0229971
-9.86927 89.9483 11.135 0.0942435 0.995524 0.00706265
-10.4169 89.9921 12.519 0.0549625 0.998435 -0.0102912
-9.49147 89.9247 12.5738 0.0971504 0.995158 -0.0149056
-8.92141 89.851 11.1865 0.114646 0.993406 0.000610169
-8.3311 89.7937 9.78096 0.151398 0.988452 0.00636509
-7.63288 89.7102 8.22354 0.148776 0.988788 0.0128167
-6.94257 89.6153 6.73936 0.185046 0.982728 0.00205109
-6.32824 89.4944 5.43847 0.192528 0.981278 -0.00517393
-5.63 89.3315 3.96572 0.214732 0.976659 -0.00528797
-5.04562 89.2048 2.76026 0.227715 0.973724 0.0026592
-4.37259 89.0502 1.51867 0.259841 0.965592 0.0107009
-3.6831 88.8487 0.227033 0.279075 0.960269 0.000887853
-2.97197 88.6318 -1.01181 0.290806 0.956746 0.00835217
-2.2376 88.3911 -2.23713 0.323847 0.946026 -0.0125391
-1.56639 88.1535 -3.37036 0.319184 0.947667 -0.00699926
-0.890396 87.9082 -4.48648 0.331928 0.943273 -0.00768659
-0.187852 87.6388 -5.58891 0.358327 0.933554 -0.00890733
0.65823 87.3018 -6.84907 0.374736 0.927053 -0.0121007
1.41382 86.9743 -7.98065 0.388747 0.92128 -0.0108978
2.21609 86.6173 -9.18511 0.399438 0.91673 -0.00746231
2.97367 86.2629 -10.2694 0.418617 0.908086 -0.0117783
3.81916 85.8578 -11.4653 0.421165 0.906899 -0.0123847
4.66846 85.4445 -12.6864 0.434462 0.900646 -0.00884738
5.60595 84.9669 -14.008 0.443139 0.896376 -0.0117399
6.3503 84.5756 -15.058 0.460611 0.887575 -0.0068565
7.18045 84.1386 -16.2227 0.466006 0.884772 -0.00407279
7.49552 83.9691 -16.6695 0.471664 0.881762 -0.00543763
8.39877 83.4881 -16.2298 0.476171 0.879325 -0.00695282
7.55673 83.9499 -15.034 0.465813 0.884784 -0.013229
6.7384 84.3926 -13.8625 0.456807 0.889497 -0.011038
5.83244 84.8724 -12.5806 0.448828 0.893536 -0.0121462
5.02062 85.2911 -11.4175 0.438624 0.898572 -0.0133309
4.03992 85.7747 -10.0002 0.42485 0.905183 -0.0120882
3.03672 86.2567 -8.55044 0.414633 0.909895 -0.0130345
2.221 86.6388 -7.31787 0.392094 0.919805 -0.0148905
1.42606 86.9983 -6.13235 0.377594 0.925837 -0.0157893
0.536873 87.3689 -4.77997 0.368773 0.929515 -0.00281964
-0.162336 87.6419 -3.66249 0.348381 0.937345 -0.00393725
-0.851394 87.9076 -2.53263 0.351833 0.93604 -0.00655379
-1.6549 88.1933 -1.19597 0.329655 0.944093 -0.00386684
-2.55052 88.4965 0.331079 0.302683 0.953069 0.0065885
-3.19609 88.6893 1.49937 0.296125 0.955146 -0.00231223
-3.88751 88.8942 2.75463 0.276139 0.961113 -0.00300675
-4.58991 89.0842 4.12539 0.263574 0.964636 0.00236021
-5.21316 89.243 5.37799 0.23803 0.971247 0.00451263
-5.85007 89.3852 6.70291 0.205998 0.978536 0.00564541
-6.47679 89.5164 8.01417 0.206024 0.978544 -0.00234081
-7.15727 89.6223 9.36606 0.155242 0.987783 0.0136098
-7.69089 89.6975 10.5982 0.152771 0.988256 -0.00325711
-8.28739 89.7905 11.9969 0.116393 0.993059 -0.0168962
-8.30361 89.793 12.0354 0.116398 0.993059 -0.0168937
-7.61606 89.6921 12.7001 0.148211 0.988937 -0.00604283
-7.06217 89.5975 11.4151 0.158717 0.987322 -0.00193055
-6.49579 89.501 10.1945 0.173789 0.98476 0.00673377
-5.90023 89.3898 9.01688 0.234357 0.972097 0.0102022
-5.27774 89.2428 7.74774 0.253038 0.967389 0.0113828
-4.65161 89.0974 6.44309 0.250654 0.967968 0.0145111
-4.04744 88.9397 5.26696 0.264939 0.964178 -0.0129874
-3.43235 88.7613 4.05878 0.293606 0.955925 -0.00138628
-2.58754 88.4949 2.49243 0.303921 0.952677 0.00625621
-1.82452 88.2491 1.12344 0.321077 0.947045 -0.00388318
-1.14263 88.0129 -0.0584501 0.329666 0.944095 0.00221581
-0.302584 87.7047 -1.46013 0.354216 0.935163 -0.0011412
0.662473 87.3235 -3.00725 0.36685 0.930268 -0.0047019
1.50112 86.9787 -4.35453 0.383095 0.923692 -0.00556921
2.28336 86.6383 -5.58011 0.39342 0.919348 -0.00447119
3.00429 86.2999 -6.66186 0.415603 0.909462 -0.0123395
3.85996 85.8865 -7.94086 0.423789 0.905667 -0.0130859
4.59251 85.5277 -9.02241 0.425136 0.905057 -0.0114828
5.43861 85.1041 -10.2533 0.436078 0.899773 -0.0156364
6.21324 84.7006 -11.3703 0.447642 0.894038 -0.0176592
7.15543 84.1938 -12.7183 0.456684 0.889544 -0.0123129
7.93316 83.77 -13.8341 0.462829 0.886321 -0.0149633
8.87618 83.2426 -15.2023 0.475993 0.879357 -0.0127143
9.13126 83.0989 -15.5682 0.476482 0.879086 -0.0131297
9.58172 82.8711 -14.4978 0.480421 0.876821 -0.0195177
8.67999 83.3814 -13.1834 0.473612 0.880572 -0.016856
7.85886 83.8375 -11.9957 0.463545 0.885978 -0.0129894
7.10335 84.2563 -10.9085 0.462274 0.886538 -0.0187885
6.25702 84.7091 -9.6633 0.446512 0.89467 -0.0139088
5.50805 85.0936 -8.56868 0.435901 0.899935 -0.0103584
4.73906 85.4802 -7.42863 0.435527 0.900065 -0.0141161
4.02196 85.8336 -6.35885 0.421745 0.906637 -0.0118537
3.30319 86.1758 -5.2774 0.41799 0.90843 -0.00621586
2.5807 86.512 -4.14661 0.410552 0.911826 -0.00453966
1.88448 86.8175 -3.03268 0.394585 0.918846 -0.00496843
1.03304 87.1839 -1.68502 0.374431 0.927193 -0.0106945
0.264814 87.4898 -0.428622 0.355051 0.934847 0.000495288
-0.41439 87.7566 0.730517 0.343568 0.939125 -0.00242257
-1.10911 88.0078 1.92556 0.333605 0.942708 -0.00303314
-1.80534 88.2424 3.16206 0.315433 0.948943 -0.00302586
-2.48265 88.4694 4.41181 0.294077 0.955782 -2.8307e-05
-3.27606 88.7158 5.91339 0.296129 0.955145 -0.00221663
-3.8909 88.8827 7.09 0.268931 0.962994 0.0178714
-4.53445 89.0473 8.36696 0.252566 0.967573 0.00358051
-5.15237 89.2054 9.64578 0.244207 0.969723 -0.000788468
-5.85252 89.3804 11.0527 0.242712 0.970094 -0.00296456
-6.62925 89.5277 12.663 0.166338 0.986048 -0.00639697
-5.51282 89.2971 12.4593 0.222924 0.974789 -0.00953872
-4.88257 89.1388 11.2227 0.244205 0.969723 -0.000795543
-4.07703 88.9286 9.56396 0.249435 0.968385 -0.00344659
-3.481 88.7577 8.38785 0.2836 0.958942 0.00120807
-2.84289 88.5737 7.17308 0.294688 0.955478 0.0148419
-2.1442 88.3629 5.86551 0.297014 0.95486 0.00498341
-1.31135 88.0876 4.3556 0.338122 0.941077 -0.00685887
-0.66403 87.8523 3.19287 0.335723 0.941959 0.00176312
0.0759931 87.5789 1.91009 0.355183 0.934771 -0.00698539
0.771374 87.3042 0.720594 0.355997 0.934444 -0.00893998
1.59232 86.9614 -0.654709 0.380653 0.924718 -3.87902e-05
2.45267 86.5847 -2.03604 0.401142 0.915956 -0.0104257
3.42015 86.1393 -3.57144 0.407773 0.913066 -0.00564441
4.22524 85.7561 -4.82534 0.421996 0.906474 -0.0149472
5.09348 85.3292 -6.13029 0.42963 0.90287 -0.0156447
6.16919 84.7762 -7.73644 0.448161 0.893866 -0.0124836
6.90441 84.3925 -8.83013 0.458787 0.888461 -0.0123414
7.95229 83.8193 -10.386 0.469078 0.883031 -0.0149215
8.71353 83.3954 -11.4966 0.471905 0.881517 -0.0152514
9.62047 82.8815 -12.8246 0.474824 0.879914 -0.0171463
10.2542 82.5164 -13.7464 0.485797 0.873915 -0.0165624
10.7784 82.2443 -12.7774 0.48533 0.874135 -0.0185184
10.0372 82.6763 -11.6883 0.479701 0.877277 -0.0165168
9.32282 83.0815 -10.6453 0.473104 0.880894 -0.0141091
8.61985 83.4782 -9.58499 0.471504 0.881736 -0.0150238
7.76409 83.9558 -8.31042 0.463906 0.885761 -0.0147779
6.84727 84.4513 -6.92319 0.448675 0.89353 -0.0171517
6.0586 84.8673 -5.75262 0.444267 0.895832 -0.0105781
5.35007 85.2271 -4.68783 0.435376 0.900189 -0.0103373
4.61591 85.5893 -3.56128 0.427026 0.904187 -0.00975367
3.79599 85.9826 -2.26101 0.419866 0.907545 -0.00863594
2.93157 86.3842 -0.891059 0.405208 0.914181 -0.00891852
2.09461 86.7571 0.481989 0.387251 0.921971 -0.00263428
1.23671 87.1256 1.92654 0.382791 0.923725 -0.0142591
0.556131 87.4099 3.09165 0.349802 0.936801 -0.00647969
-0.201365 87.689 4.38844 0.33898 0.940783 -0.00449832
-0.990667 87.975 5.79634 0.338829 0.940845 0.00255078
-1.71698 88.2147 7.11269 0.313255 0.949531 0.0161993
-2.41323 88.4405 8.41362 0.302988 0.952994 -0.000459682
-3.14601 88.6609 9.79887 0.281837 0.959462 -0.00120073
-3.98584 88.9038 11.4717 0.254273 0.967114 -0.00588051
-4.65426 89.0901 12.7806 0.237115 0.971455 -0.00725113
-3.69306 88.8343 12.8975 0.274701 0.961466 -0.011065
-2.96578 88.6097 11.4753 0.297141 0.954817 -0.00558546
-2.26922 88.3867 10.1681 0.312939 0.949773 -6.45857e-05
-1.58297 88.1608 8.88462 0.318862 0.947801 -0.000175005
-0.892134 87.9371 7.59812 0.331667 0.943367 0.007479
-0.255436 87.7077 6.45725 0.339694 0.940536 0.000768451
0.634566 87.3725 4.86423 0.366323 0.930459 0.00728224
1.33517 87.0953 3.7196 0.385172 0.922843 0.00166273
2.03552 86.7993 2.54219 0.392991 0.919492 -0.0096637
2.74559 86.4812 1.36032 0.392954 0.919485 -0.0115754
