-27.3412 87.5094 17.413 -0.376885 0.92626 1.49377e-06
-28.3764 87.0873 17.6026 -0.384102 0.923269 0.000711797
-29.4195 86.6444 17.7035 -0.400101 0.916457 0.00214988
-30.5096 86.17 17.465 -0.409368 0.912326 0.00642648
-31.5036 85.7164 17.3221 -0.422387 0.906374 0.00717943
-32.4208 85.2859 16.9648 -0.428992 0.90329 0.00577727
-33.4119 84.8166 16.3949 -0.432454 0.901617 0.00837965
-34.269 84.4084 15.7897 -0.437911 0.898986 0.00743921
-35.0571 84.0303 15.0071 -0.444861 0.895552 0.00919629
-35.8199 83.6642 13.9688 -0.448799 0.893542 0.0118679
-36.4484 83.359 12.9832 -0.454608 0.890598 0.0126177
-37.1002 83.0375 11.9596 -0.457469 0.889149 0.011661
-37.5025 82.842 10.9793 -0.463625 0.885972 0.0101799
-37.885 82.6544 9.80143 -0.461531 0.887062 0.0103265
-38.1689 82.5204 8.72673 -0.464115 0.885703 0.0113298
-38.4836 82.3703 7.49881 -0.466157 0.884655 0.0086031
-38.7089 82.2605 6.22054 -0.468243 0.883575 0.0066047
-38.8699 82.1836 5.06468 -0.469302 0.883 0.00798262
-38.9246 82.1634 4.01127 -0.471369 0.881915 0.00608542
-38.919 82.1789 2.56317 -0.475642 0.879622 0.0054476
-38.8111 82.2433 1.30922 -0.475325 0.8798 0.00428052
-38.623 82.3558 0.00591122 -0.474556 0.880174 0.00952768
-38.4879 82.4398 -1.03876 -0.472515 0.881225 0.0130896
-38.3074 82.5518 -2.1424 -0.469753 0.882702 0.0129942
-38.0382 82.7183 -3.47997 -0.471079 0.881952 0.0156304
-37.7917 82.8672 -4.48255 -0.467972 0.883543 0.0187946
-37.5131 83.037 -5.58723 -0.461794 0.886821 0.0170401
-37.1861 83.228 -6.57829 -0.466343 0.88445 0.0164728
-36.656 83.5249 -7.73195 -0.459676 0.887929 0.0166994
-36.039 83.8669 -8.79461 -0.452228 0.891722 0.0179365
-35.2212 84.2998 -9.93675 -0.441512 0.897029 0.0201662
-34.1981 84.8208 -10.8308 -0.433854 0.900709 0.0222239
-33.2233 85.2986 -11.447 -0.422567 0.906175 0.0162205
-32.0384 85.8487 -11.8945 -0.410884 0.911575 0.0143469
-30.8289 86.3827 -11.9833 -0.395172 0.918442 0.017422
-29.5275 86.9421 -12.1505 -0.385155 0.922641 0.0192379
-28.3156 87.4338 -12.1002 -0.370804 0.928457 0.0217381
-27.1525 87.8862 -11.9776 -0.362272 0.931834 0.0210689
-26.069 88.2698 -11.7298 -0.330532 0.943665 0.0136769
-24.8401 88.683 -11.5614 -0.31942 0.94757 0.00707835
-23.7165 89.0344 -11.2899 -0.295634 0.955255 0.00895299
-22.8383 89.2904 -11.0925 -0.279289 0.960205 0.00202163
-22.895 89.286 -12.1503 -0.272659 0.96202 0.011329
-24.129 88.9232 -12.4148 -0.291151 0.956563 0.01477
-25.1661 88.5971 -12.593 -0.313966 0.949066 0.0264376
-26.1805 88.2554 -12.7915 -0.330167 0.943657 0.0223708
-27.5958 87.7399 -13.0495 -0.360096 0.932582 0.0235887
-28.7442 87.2874 -13.0835 -0.37384 0.927016 0.0288254
-30.0458 86.7471 -13.1164 -0.393058 0.919106 0.0267933
-31.1576 86.2595 -12.9419 -0.396624 0.917655 0.0237076
-32.2375 85.7801 -12.9083 -0.408657 0.912404 0.0225335
-33.2718 85.3008 -12.5402 -0.417168 0.908505 0.0241541
-34.4985 84.7047 -11.8003 -0.426882 0.903691 0.0333716
-35.3862 84.248 -11.1313 -0.443889 0.895835 0.0210065
-36.1621 83.8407 -10.2498 -0.446647 0.894361 0.0248458
-36.7214 83.5355 -9.39266 -0.450238 0.892461 0.0278742
-37.3258 83.194 -8.47497 -0.464828 0.885149 0.0211463
-37.7617 82.9426 -7.49791 -0.464121 0.885535 0.0204794
-38.2032 82.6861 -6.34009 -0.470942 0.881974 0.018291
-38.5001 82.5038 -5.26709 -0.47146 0.881647 0.0205791
-38.8455 82.2904 -3.84315 -0.473971 0.88035 0.0183064
-39.1657 82.0912 -2.30975 -0.475649 0.879502 0.0153188
-39.3218 81.9916 -1.20865 -0.476827 0.878945 0.00954074
-39.4987 81.8821 -0.12875 -0.481454 0.876434 0.00803518
-39.6227 81.805 0.928844 -0.480047 0.877228 0.00496723
-39.7956 81.7034 2.47563 -0.479882 0.87732 0.00477458
-39.7328 81.7316 3.60034 -0.477508 0.878623 0.00246733
-39.8235 81.6774 4.70195 -0.472251 0.881446 0.00555139
-39.6316 81.7718 5.94139 -0.471166 0.882021 0.00649283
-39.4774 81.8445 7.07014 -0.471552 0.8818 0.00816534
-39.2199 81.9738 8.09528 -0.471369 0.88191 0.00673347
-38.8889 82.1324 9.44407 -0.465579 0.884934 0.0112299
-38.4943 82.3252 10.6881 -0.464371 0.885584 0.00999879
-38.0675 82.5339 11.9972 -0.462651 0.886482 0.0100879
-37.3534 82.8892 13.24 -0.459139 0.88827 0.0129452
-36.8177 83.1556 14.1075 -0.455707 0.890062 0.0104908
-36.1162 83.4974 15.2343 -0.452772 0.891551 0.0115429
-35.3492 83.8734 16.0762 -0.448451 0.893769 0.00826133
-34.4913 84.2883 16.8337 -0.440502 0.897675 0.0117485
-33.6888 84.6748 17.4273 -0.435687 0.900081 0.00413979
-32.8032 85.0984 17.8708 -0.43114 0.902274 0.00396151
-31.7548 85.5931 18.2909 -0.425079 0.905153 0.00246514
-30.7392 86.0607 18.4486 -0.411648 0.911343 -0.000727018
-29.7802 86.4879 18.6113 -0.400526 0.916275 -0.00431339
-28.7442 86.9346 18.6131 -0.394204 0.918977 -0.00919184
-27.4526 87.4686 18.4905 -0.374529 0.927151 -0.0109106
-26.1232 87.9872 18.1304 -0.358946 0.932952 -0.0275299
-24.7201 88.4922 17.5902 -0.335931 0.941421 -0.0296147
-23.2588 88.9756 17.1006 -0.305866 0.95164 -0.0287643
-22.3046 89.2691 16.6839 -0.280092 0.95985 -0.0153662
-21.0897 89.6145 16.0503 -0.263681 0.964203 -0.0203124
-20.1148 89.8556 15.6535 -0.238808 0.970705 -0.0226988
-19.1477 90.0605 15.2354 -0.19229 0.980887 -0.0256393
-18.0647 90.2565 14.9876 -0.185421 0.982556 -0.0142064
-16.9124 90.4301 14.8055 -0.138898 0.989907 -0.0281248
-15.9052 90.5503 14.5305 -0.112637 0.993316 -0.0252401
-14.7931 90.6524 14.4259 -0.0709383 0.996747 -0.0382386
-13.4129 90.7116 14.3697 -0.0230959 0.999396 -0.0259803
-12.0946 90.7084 14.1924 0.00745602 0.999518 -0.0301381
-10.8521 90.6674 14.1577 0.044474 0.998527 -0.0299371
-9.80135 90.5995 14.1089 0.0788132 0.99617 -0.0378583
-8.55321 90.4778 14.2002 0.11219 0.993135 -0.0331154
-7.34571 90.2951 14.16 0.160198 0.986272 -0.0400611
-6.09604 90.0658 14.1873 0.190099 0.98106 -0.0372076
-5.06873 89.837 14.2508 0.230499 0.972801 -0.0229933
-4.00556 89.5722 14.2949 0.258297 0.965769 -0.023885
-2.74302 89.2134 14.5134 0.29905 0.953979 -0.0207651
-1.34372 88.7562 14.8627 0.32635 0.945048 -0.019481
-0.3116 88.3988 15.1841 0.343924 0.93872 -0.0228077
0.640347 88.0473 15.5366 0.361169 0.932142 -0.0258355
1.54253 87.6987 16.0823 0.379667 0.924776 -0.0253593
2.53337 87.2819 16.3373 0.397208 0.917654 -0.0103062
3.8075 86.7137 16.6326 0.409205 0.91232 -0.0149698
4.99443 86.1669 16.9481 0.423729 0.905749 -0.00769576
6.14258 85.615 16.9891 0.440233 0.897876 -0.003617
7.48344 84.9504 16.9424 0.448061 0.893986 -0.0055836
8.45879 84.4591 16.866 0.453531 0.891228 -0.00435828
9.38438 83.9881 16.6708 0.457304 0.889291 -0.0031567
10.3296 83.493 16.0394 0.463161 0.886254 -0.0057994
11.2987 82.9795 15.1328 0.467063 0.8842 -0.00505748
12.0419 82.5755 14.0195 0.471764 0.881701 -0.0061523
12.5077 82.3174 12.9837 0.473411 0.88082 -0.00620147
12.8158 82.1448 11.9232 0.477171 0.878795 -0.0051797
13.2735 81.8909 10.969 0.477765 0.878465 -0.00614922
13.7175 81.6397 9.92756 0.480093 0.877155 -0.0101554
14.0661 81.4334 8.83654 0.482184 0.875994 -0.0115052
14.3919 81.2372 7.58735 0.482552 0.875792 -0.0114651
14.6185 81.0867 6.26948 0.489806 0.87165 -0.0176827
14.7386 80.9927 4.94604 0.492802 0.87 -0.0156953
14.7526 80.9635 3.83055 0.49269 0.870028 -0.0175292
14.9255 80.8442 2.70103 0.493393 0.869661 -0.0158831
14.835 80.8721 1.41867 0.493832 0.869434 -0.0146594
14.7655 80.8877 0.176412 0.498328 0.866816 -0.0172723
14.927 80.7735 -0.874968 0.498421 0.86673 -0.0188571
14.8395 80.7974 -2.13061 0.4979 0.867062 -0.0172569
15.0199 80.6665 -3.4258 0.501844 0.86481 -0.0156882
14.6989 80.8342 -4.54848 0.499199 0.866358 -0.0147919
14.3865 80.9845 -6.16927 0.497994 0.867006 -0.0173701
14.057 81.1435 -7.70639 0.498318 0.866836 -0.0165766
13.7107 81.3232 -8.74356 0.496357 0.867959 -0.0166509
13.3816 81.4871 -10.0467 0.494838 0.86882 -0.0168282
12.908 81.7329 -11.207 0.493212 0.869742 -0.0170452
12.2524 82.0822 -12.2883 0.492871 0.869918 -0.0179321
11.6293 82.4031 -13.7211 0.490432 0.871317 -0.016835
11.0648 82.7031 -14.5893 0.487557 0.872922 -0.0171787
10.4393 83.0341 -15.6015 0.485397 0.874165 -0.01502
9.4154 83.5879 -16.6339 0.481541 0.876342 -0.0107959
8.61019 84.0216 -17.5267 0.478853 0.877871 -0.00626566
7.69059 84.5164 -18.0721 0.472066 0.88156 -0.00187738
6.59463 85.103 -18.3616 0.468286 0.883564 0.00140545
5.39835 85.7271 -18.3584 0.459275 0.888199 0.0116198
4.32693 86.2708 -18.0617 0.454323 0.890805 0.00718943
3.20789 86.8122 -17.8617 0.429509 0.902833 0.0197301
2.30428 87.2297 -17.519 0.426807 0.904028 0.0238518
1.39169 87.6373 -17.1847 0.408697 0.912399 0.0218742
0.324658 88.0871 -16.6649 0.392587 0.919288 0.0280057
-0.637676 88.4774 -16.1846 0.374816 0.926659 0.028484
-1.71248 88.8878 -15.7162 0.354001 0.934655 0.0332213
-2.62514 89.1977 -15.1127 0.334265 0.94201 0.0294034
-3.73618 89.5419 -14.3909 0.303729 0.952146 0.0339562
-4.68708 89.8131 -13.6576 0.277563 0.959877 0.0390498
-5.61894 90.0288 -13.109 0.234248 0.971169 0.0436596
-6.56861 90.22 -12.443 0.214848 0.975646 0.0439973
-7.6554 90.4134 -11.9652 0.167237 0.984305 0.0563507
-8.83135 90.596 -11.5238 0.153574 0.987102 0.0442906
-10.1087 90.733 -11.3201 0.0783585 0.99616 0.0390577
-11.4461 90.8189 -11.0042 0.045479 0.998433 0.0304485
-12.5074 90.8268 -10.8382 -0.0146995 0.999044 0.0411684
-13.9518 90.7878 -10.8289 -0.0446017 0.998487 0.0321672
-15.0202 90.7303 -10.7192 -0.0758878 0.996592 0.0278979
-16.1301 90.6342 -10.7452 -0.0943952 0.995325 0.0135003
-17.2709 90.5084 -10.6791 -0.125351 0.991854 0.0117966
-18.2788 90.3607 -10.9153 -0.170348 0.985088 0.0186524
-19.3933 90.1476 -11.2254 -0.204948 0.978584 0.014881
-20.514 89.8969 -11.333 -0.222215 0.974911 0.0129612
-21.4732 89.6643 -11.6453 -0.249952 0.968213 0.00808004
-22.2614 89.4609 -11.9919 -0.260294 0.965455 0.00893833
-22.2077 89.493 -13.0139 -0.256561 0.965859 0.0331162
-23.3874 89.1712 -13.2114 -0.279189 0.959432 0.0378139
-24.5302 88.8284 -13.4387 -0.297468 0.954334 0.0275561
-25.8437 88.3989 -13.7124 -0.330933 0.942767 0.040907
-26.9073 88.0216 -13.9158 -0.353852 0.934867 0.0284866
-28.0551 87.5897 -14.032 -0.361625 0.931779 0.0308513
-29.2059 87.1299 -14.1441 -0.388629 0.920957 0.0283898
-30.5159 86.5738 -14.022 -0.393332 0.918773 0.0331332
-31.5915 86.0959 -13.9402 -0.409673 0.911872 0.0256451
-32.6342 85.624 -13.8675 -0.411511 0.911137 0.0220806
-33.6818 85.1399 -13.415 -0.414312 0.909433 0.0357306
-34.6178 84.6887 -12.8941 -0.429067 0.902584 0.0351672
-35.4324 84.2653 -12.2798 -0.456165 0.889339 0.0313432
-36.5235 83.6805 -11.4323 -0.454605 0.890683 0.00420504
-37.2469 83.3021 -10.414 -0.447221 0.894145 0.0222937
-37.8615 82.9491 -9.55586 -0.46576 0.884118 0.0374454
-38.3626 82.6458 -8.45945 -0.473252 0.88072 0.0190944
-38.8889 82.3348 -7.06652 -0.471132 0.881881 0.0179027
-39.2084 82.1409 -6.0241 -0.474112 0.880243 0.0197469
-39.4537 81.986 -4.95582 -0.474667 0.879965 0.0187689
-39.7769 81.7856 -3.699 -0.475072 0.879713 0.0201774
-40.0713 81.597 -2.243 -0.479714 0.877297 0.0149578
-40.2862 81.4569 -0.841498 -0.484453 0.874773 0.0088071
-40.5489 81.3016 0.455108 -0.480491 0.876979 0.00601832
-40.6666 81.2289 1.9852 -0.480071 0.877221 0.00400503
-40.665 81.2262 3.0363 -0.479105 0.877753 0.00274714
-40.6931 81.2078 4.1621 -0.479164 0.877723 0.00222475
-40.62 81.2469 5.45776 -0.471232 0.881994 0.00516354
-40.4763 81.3136 6.78811 -0.470079 0.882584 0.00828639
-40.1008 81.5024 8.08469 -0.472208 0.881461 0.00686694
-39.8381 81.6316 9.09556 -0.472349 0.881373 0.00738972
-39.5473 81.776 10.2434 -0.467172 0.884102 0.0106385
-39.1154 81.9887 11.4941 -0.468215 0.883548 0.0108555
-38.7892 82.1503 12.5759 -0.464679 0.885424 0.00984939
-38.2119 82.4416 13.6269 -0.458185 0.8888 0.0100295
-37.6819 82.7042 14.5896 -0.459235 0.88825 0.0106985
-37.1506 82.9715 15.4562 -0.455725 0.890077 0.00667199
-36.3122 83.3872 16.4141 -0.449972 0.893011 0.00721689
-35.53 83.7705 17.215 -0.443872 0.896021 0.0111384
-34.5602 84.2428 18.0474 -0.442494 0.896761 0.00443401
-33.567 84.7266 18.6274 -0.440037 0.897969 0.00324921
-32.3572 85.3078 19.1147 -0.429547 0.903044 -0.00135676
-31.2901 85.8076 19.4234 -0.42503 0.905174 0.00299922
-30.2284 86.295 19.555 -0.414332 0.910081 -0.00812059
-28.9072 86.8753 19.6081 -0.397389 0.917606 -0.00789336
-27.8827 87.3117 19.5291 -0.379034 0.925207 -0.0180542
-26.6993 87.7917 19.3904 -0.37573 0.926622 -0.014126
-25.6237 88.2059 19.0784 -0.354566 0.934603 -0.0282879
-24.463 88.6167 18.6294 -0.33738 0.940951 -0.0279287
-22.9596 89.1036 18.0515 -0.310954 0.949779 -0.0350301
-21.7791 89.4421 17.4797 -0.281045 0.958675 -0.0417098
-20.8266 89.7116 17.0107 -0.272489 0.961624 -0.029437
-19.6548 89.9842 16.5752 -0.207134 0.977652 -0.0358007
-18.6871 90.1722 16.198 -0.204305 0.97847 -0.0270942
-17.6295 90.3597 15.8479 -0.161147 0.986344 -0.0302598
-16.3736 90.5348 15.6245 -0.141829 0.989258 -0.0354008
-14.9439 90.6858 15.576 -0.0917875 0.995032 -0.0317393
-13.5917 90.7415 15.3516 -0.0211685 0.999024 -0.0387634
-12.5126 90.7511 15.1911 0.0118407 0.998243 -0.0580545
-11.3908 90.724 15.2198 0.0524835 0.997691 -0.0430856
-9.78026 90.637 15.1421 0.0511052 0.998101 -0.033151
-8.26056 90.4693 15.1924 0.128259 0.991167 -0.0318296
-7.1303 90.2992 15.2085 0.164794 0.985573 -0.0385093
-5.94423 90.0702 15.1985 0.211658 0.976376 -0.0408312
-4.86482 89.8235 15.2057 0.236969 0.970556 -0.0391234
-3.77576 89.5376 15.2772 0.267778 0.962979 -0.030412
-2.49553 89.1576 15.5995 0.309341 0.95065 -0.0239499
-1.4547 88.8188 15.8413 0.330308 0.94334 -0.0317235
-0.310428 88.4227 16.3015 0.347352 0.937542 -0.0190204
0.62111 88.0863 16.6885 0.357996 0.933323 -0.0242105
1.70207 87.6515 17.0675 0.397135 0.917651 -0.0141364
2.71961 87.2151 17.4323 0.40378 0.914729 -0.0138692
3.69725 86.7792 17.6558 0.421908 0.906494 -0.0162022
4.79374 86.2723 17.917 0.42692 0.904075 -0.0196914
5.80043 85.7947 18.0048 0.436334 0.899592 -0.018611
7.02596 85.1924 17.8931 0.446672 0.89458 -0.0138988
7.97254 84.7146 17.9642 0.454993 0.890458 -0.00800357
8.9478 84.2166 17.8325 0.454098 0.890927 -0.00655181
9.92783 83.7135 17.6163 0.457359 0.889262 -0.00595177
10.7973 83.2566 16.9371 0.467045 0.884163 -0.0111554
11.7312 82.7568 16.2151 0.468527 0.883434 -0.00527654
12.23 82.4854 15.3583 0.469817 0.882734 -0.00720862
12.9862 82.0711 14.2609 0.471397 0.881856 -0.0107359
13.4151 81.8289 13.2791 0.478088 0.878278 -0.00774998
13.8073 81.6063 11.9444 0.477585 0.878573 -0.00474258
14.3137 81.3262 11.0596 0.477146 0.878801 -0.00619921
14.8233 81.0271 9.53307 0.482858 0.875586 -0.0138062
15.1112 80.8467 8.31641 0.487157 0.873187 -0.0148967
15.3322 80.7038 7.26314 0.488451 0.872448 -0.015678
15.5289 80.5714 6.19041 0.489464 0.871814 -0.0189971
15.6286 80.4917 5.15051 0.493593 0.869477 -0.0193886
15.6845 80.4385 4.08454 0.494668 0.86893 -0.0162174
15.8272 80.3374 3.01649 0.49434 0.869106 -0.0168115
15.8305 80.3024 1.38387 0.496102 0.868076 -0.0180494
15.7562 80.3175 0.0746714 0.497301 0.867391 -0.0180051
15.8327 80.2412 -1.37592 0.498978 0.866411 -0.0187673
15.7514 80.2594 -2.61474 0.501028 0.865192 -0.0203214
15.7424 80.2445 -3.62561 0.500521 0.86566 -0.0101644
15.5605 80.3314 -4.90895 0.50026 0.86577 -0.0134358
15.3087 80.4578 -6.03253 0.498519 0.866731 -0.0159552
15.0835 80.5664 -7.07488 0.49833 0.866767 -0.0193984
14.8975 80.6516 -8.12641 0.500059 0.865844 -0.0159759
14.5333 80.8437 -9.1013 0.498907 0.866501 -0.0163549
14.2053 81.0066 -10.4348 0.498316 0.866823 -0.0172809
13.8047 81.2169 -11.4333 0.496348 0.867948 -0.0174268
13.2903 81.4929 -12.3477 0.499445 0.866215 -0.0150325
12.8637 81.715 -13.2912 0.492744 0.87002 -0.0162743
12.3945 81.9641 -14.24 0.492174 0.870375 -0.0145451
11.8063 82.2799 -15.0553 0.488868 0.87221 -0.0159014
11.2194 82.5898 -16.0467 0.489994 0.871546 -0.0177067
10.4833 82.99 -17.0286 0.488675 0.872378 -0.0123391
9.74922 83.3921 -17.7362 0.485006 0.874475 -0.0078257
8.79393 83.9134 -18.5719 0.483361 0.875403 -0.00565477
7.99167 84.352 -19.1472 0.479866 0.877342 0.000125907
7.08869 84.8388 -19.3055 0.477778 0.878415 0.00610123
6.06753 85.3934 -19.4322 0.473646 0.880245 0.0287766
5.04887 85.9217 -19.3081 0.458086 0.888599 0.0234182
4.08779 86.4065 -19.0615 0.441982 0.896886 0.0157199
2.97492 86.9468 -18.9424 0.435837 0.899551 0.0292441
1.72299 87.5179 -18.446 0.415788 0.90884 0.0336309
0.801844 87.9234 -18.0173 0.411265 0.910978 0.0307815
-0.255242 88.3623 -17.5458 0.386146 0.921555 0.0391962
-1.17367 88.7221 -17.1188 0.377152 0.92564 0.0305263
-2.04573 89.05 -16.5861 0.355649 0.933651 0.0406192
-3.25436 89.4545 -15.7955 0.341555 0.938633 0.0480514
-4.25983 89.7485 -15.1572 0.308697 0.949284 0.0596363
-5.11441 89.9805 -14.505 0.303948 0.950528 0.0641279
-6.02207 90.19 -13.9779 0.237188 0.968232 0.0765445
-7.1427 90.3871 -13.285 0.215122 0.973476 0.0778881
-8.28502 90.5694 -12.8362 0.165853 0.984602 0.0552507
-9.29703 90.7074 -12.4685 0.159886 0.986431 0.0372891
-10.3178 90.7962 -12.2815 0.0684207 0.996214 0.0508326
-11.3482 90.844 -12.0769 0.055992 0.997691 0.0384485
-12.484 90.8683 -11.8544 -0.00878555 0.998946 0.0444485
-13.7828 90.8268 -11.8764 -0.034764 0.998778 0.0343914
-15.2572 90.7399 -11.7086 -0.075884 0.996592 0.0279068
-16.446 90.6325 -11.7575 -0.0912498 0.995305 0.0322776
-17.7215 90.4698 -11.7151 -0.152594 0.987656 0.0353719
-19.1074 90.2316 -12.1878 -0.209443 0.976898 0.0424679
-20.3353 89.9531 -12.343 -0.222643 0.974722 0.01861
-21.4781 89.6726 -12.7747 -0.250216 0.968154 0.00829956
-21.6713 89.6233 -12.8459 -0.247186 0.96875 0.0179159
11.7574 82.3984 -10.492 0.491982 0.870454 -0.0162423
11.0769 82.7608 -11.516 0.488161 0.872574 -0.0177175
10.1542 83.2416 -12.9122 0.482541 0.875695 -0.017684
9.27932 83.6934 -14.2553 0.478918 0.877748 -0.0140109
8.48159 84.109 -15.4579 0.472423 0.881271 -0.0133207
8.26912 84.2159 -15.7866 0.469303 0.882986 -0.00947205
6.63827 85.0775 -16.6014 0.4662 0.884679 0.000178824
7.40508 84.6794 -15.42 0.46814 0.883643 -0.00449185
8.15437 84.3016 -14.2584 0.466328 0.884485 -0.0149576
8.92955 83.9043 -13.0852 0.477003 0.87872 -0.0178674
9.68332 83.5205 -11.9253 0.477479 0.878312 -0.0241255
10.4976 83.0986 -10.692 0.485539 0.874056 -0.0166496
11.2784 82.6872 -9.51712 0.490246 0.871433 -0.0162198
12.1968 82.1948 -8.14963 0.492388 0.870207 -0.0171086
12.6041 81.9772 -7.52839 0.494939 0.868752 -0.0174696
13.1444 81.7172 -4.97518 0.495378 0.868574 -0.0133814
12.3869 82.1269 -6.12859 0.490809 0.871124 -0.015794
11.6513 82.5203 -7.24986 0.490374 0.871354 -0.0166191
10.9345 82.9027 -8.34184 0.490242 0.871431 -0.0164321
10.1324 83.3219 -9.5138 0.481039 0.876485 -0.0193777
9.30627 83.7436 -10.7928 0.478184 0.878089 -0.0173098
8.35163 84.2264 -12.2641 0.467451 0.883924 -0.0129618
7.58858 84.6142 -13.4248 0.465078 0.885162 -0.0137819
6.79684 85.0067 -14.6594 0.460683 0.887451 -0.0142179
5.87721 85.4698 -16.0867 0.455469 0.890227 -0.00659839
5.53771 85.6454 -16.6063 0.456884 0.889525 0.00135589
4.42166 86.208 -16.6324 0.444411 0.895809 0.00500798
5.17704 85.8301 -15.4698 0.44726 0.894402 -0.00202461
5.94883 85.4471 -14.274 0.449549 0.89319 -0.010865
6.78708 85.0383 -12.964 0.461182 0.887218 -0.0124391
7.71642 84.5756 -11.5318 0.461523 0.886994 -0.0153951
8.43909 84.2133 -10.4101 0.469949 0.882529 -0.0170252
9.17185 83.8438 -9.2702 0.472765 0.881009 -0.0177814
9.97546 83.4347 -8.06299 0.476564 0.879064 -0.0115688
10.6851 83.0631 -6.98164 0.480344 0.876965 -0.014218
11.3734 82.7013 -5.93412 0.486539 0.873498 -0.0167566
12.0672 82.3307 -4.86877 0.489763 0.871669 -0.018029
12.8201 81.9228 -3.74371 0.493729 0.869503 -0.0140148
13.2455 81.6897 -3.11129 0.49574 0.868326 -0.0158623
13.4501 81.6164 -1.0126 0.492613 0.870053 -0.0184208
12.6725 82.0333 -2.22198 0.493718 0.869478 -0.0158291
11.9186 82.4406 -3.3777 0.491051 0.871002 -0.0149982
11.2063 82.822 -4.44599 0.486921 0.873313 -0.0152209
10.4407 83.2207 -5.61658 0.480859 0.876624 -0.017449
9.63308 83.6378 -6.84605 0.47776 0.878365 -0.014855
8.85826 84.0359 -8.02366 0.470061 0.882519 -0.0142054
8.15672 84.3874 -9.11302 0.468767 0.883165 -0.0166516
7.4762 84.7272 -10.1743 0.46527 0.885016 -0.016461
6.47933 85.2138 -11.7344 0.453313 0.891268 -0.0122471
5.80132 85.5414 -12.792 0.450814 0.892486 -0.0153486
5.07688 85.8882 -13.911 0.44268 0.896643 -0.00808864
4.25334 86.285 -15.1886 0.438645 0.898658 0.00210003
3.57764 86.6103 -16.2264 0.427291 0.904092 0.006362
2.72681 87.0099 -15.8744 0.425764 0.904823 0.00454702
3.6167 86.5941 -14.4827 0.432767 0.901506 -0.000636853
4.45248 86.2031 -13.1711 0.44002 0.897936 -0.00963372
5.30779 85.7969 -11.8441 0.439352 0.898231 -0.0123006
6.26779 85.3417 -10.3344 0.449096 0.893335 -0.0162578
6.93443 85.0255 -9.27831 0.448746 0.893519 -0.0158713
7.60441 84.6936 -8.21971 0.462686 0.886414 -0.0138432
8.34896 84.3224 -7.06557 0.467818 0.88363 -0.0185381
9.104 83.9409 -5.91959 0.472459 0.881203 -0.0162408
9.83495 83.5683 -4.78356 0.474402 0.880117 -0.0183639
10.6288 83.1569 -3.58486 0.48014 0.87702 -0.0173677
11.532 82.6775 -2.21058 0.48738 0.873072 -0.0143468
12.2262 82.305 -1.14124 0.489898 0.8716 -0.0176811
13.0436 81.8685 0.105023 0.488463 0.872494 -0.0125785
13.3827 81.6852 0.613474 0.494887 0.868918 -0.00831173
13.4239 81.6894 2.4493 0.491746 0.870598 -0.015636
12.6425 82.1084 1.24197 0.486535 0.873549 -0.0139645
11.8139 82.5532 -0.00821611 0.486789 0.873446 -0.0113194
11.0309 82.9729 -1.21175 0.485918 0.873927 -0.0116677
10.3326 83.3422 -2.28345 0.481688 0.876217 -0.0148794
9.5683 83.7374 -3.43592 0.470419 0.882303 -0.0157407
8.79364 84.1291 -4.63133 0.469647 0.882744 -0.0139658
8.05851 84.4957 -5.77752 0.462837 0.886371 -0.0113382
7.34893 84.8494 -6.85983 0.454746 0.890476 -0.0160631
6.46352 85.2767 -8.25942 0.448672 0.893642 -0.00984211
5.77334 85.6043 -9.36664 0.437428 0.899194 -0.0102849
5.0883 85.9234 -10.4488 0.439057 0.898364 -0.0130644
4.33278 86.2736 -11.6412 0.434661 0.900505 -0.0126852
3.51473 86.6518 -12.934 0.425751 0.904822 -0.00574177
2.80482 86.9715 -14.0524 0.417611 0.908579 -0.00921194
2.02758 87.3263 -15.2751 0.411292 0.911503 0.00084281
1.89525 87.3862 -15.483 0.412993 0.910715 0.00594867
1.00494 87.7704 -15.1988 0.391452 0.920084 0.0145264
1.66254 87.4823 -14.1255 0.400697 0.91621 0.000990882
2.55957 87.0951 -12.7064 0.414205 0.910147 -0.00811252
3.25408 86.7843 -11.6156 0.422046 0.906525 -0.00944937
4.1517 86.3773 -10.1682 0.421726 0.90671 -0.00499089
4.84154 86.0609 -9.08142 0.437429 0.899194 -0.0102845
5.52592 85.7401 -7.97734 0.437753 0.899038 -0.0101564
6.34174 85.3627 -6.66737 0.451921 0.891916 -0.0158839
7.05586 85.0179 -5.5539 0.457986 0.888914 -0.00892104
7.74047 84.6796 -4.4832 0.456906 0.889406 -0.0138968
8.44585 84.3334 -3.39654 0.459852 0.887902 -0.0128702
9.26138 83.9222 -2.17264 0.470696 0.88219 -0.0136467
10.0606 83.5059 -0.92056 0.477143 0.878773 -0.00960782
10.7615 83.1402 0.150683 0.485599 0.874116 -0.0106888
11.4577 82.7678 1.21142 0.485334 0.874232 -0.013009
12.2378 82.352 2.40609 0.483978 0.875007 -0.0112597
13.0259 81.9314 3.61691 0.488777 0.872273 -0.0153964
13.2924 81.7908 4.01659 0.487946 0.872679 -0.0184279
13.0777 81.9346 5.43107 0.483729 0.875133 -0.0122022
12.2466 82.3726 4.18833 0.47874 0.877847 -0.0138782
11.5218 82.7568 3.09215 0.482792 0.875659 -0.0115597
10.7864 83.1456 1.95219 0.481966 0.876131 -0.0101255
9.94818 83.5866 0.684281 0.475456 0.87967 -0.0110533
9.23787 83.954 -0.400415 0.469653 0.882799 -0.00960484
8.45284 84.3562 -1.60744 0.46264 0.886464 -0.0120573
7.56993 84.7908 -2.97312 0.454134 0.890819 -0.0143004
6.86978 85.1312 -4.053 0.452295 0.891816 -0.00963654
6.19421 85.4559 -5.12092 0.442581 0.896647 -0.0121012
5.44128 85.8063 -6.31164 0.430135 0.90266 -0.0137763
4.74747 86.1229 -7.43331 0.421442 0.906794 -0.0105901
4.04198 86.4427 -8.55127 0.42251 0.906323 -0.00800399
3.3731 86.7409 -9.65684 0.419958 0.907523 -0.00609297
2.64453 87.0714 -10.8559 0.40576 0.913966 -0.00490724
1.86351 87.4044 -12.0607 0.395866 0.918245 -0.0107548
1.05499 87.739 -13.3581 0.382754 0.923849 0.00175508
0.380192 88.0246 -14.4736 0.381092 0.924411 0.0152738
0.230123 88.0907 -14.7287 0.379227 0.925208 0.0133225
-0.561793 88.4052 -14.2552 0.359236 0.933015 0.0208154
0.365829 88.0214 -12.7345 0.366401 0.930456 0.00138157
1.129 87.7207 -11.491 0.387646 0.921736 -0.0115232
1.91466 87.3985 -10.2783 0.40576 0.913966 -0.00490729
2.57015 87.1092 -9.17605 0.402262 0.91552 -0.00295563
3.25152 86.8078 -8.03732 0.414863 0.909853 -0.00746748
4.06936 86.4484 -6.70738 0.420368 0.907245 -0.0140637
4.74288 86.1499 -5.62436 0.422881 0.90613 -0.0100481
5.43212 85.839 -4.52018 0.434612 0.900569 -0.00934557
6.13209 85.5115 -3.42452 0.445202 0.895392 -0.00823624
6.87895 85.1514 -2.24659 0.449486 0.893241 -0.00912912
7.57229 84.819 -1.17015 0.445781 0.894962 -0.0179826
8.38717 84.4107 0.0837766 0.46248 0.886578 -0.00953879
9.17281 84.0109 1.26264 0.472772 0.88111 -0.0114608
10.0501 83.5508 2.59975 0.475341 0.879764 -0.00812181
10.7831 83.1645 3.72728 0.476722 0.879013 -0.00856039
11.5449 82.7657 4.88821 0.478263 0.878121 -0.0129443
12.2476 82.3979 5.9394 0.478789 0.877848 -0.0120415
13.0512 81.9698 7.12091 0.483381 0.875366 -0.00882351
13.1049 81.941 7.20026 0.482641 0.87576 -0.0101244
12.6963 82.1798 8.32792 0.478821 0.877863 -0.00927237
11.956 82.5726 7.25439 0.479154 0.877683 -0.00916235
11.1443 82.9995 6.06504 0.47687 0.878898 -0.0115589
10.3759 83.3979 4.92161 0.475743 0.879489 -0.0129479
9.63077 83.7834 3.76829 0.470639 0.882285 -0.00846489
8.96113 84.1326 2.71538 0.469565 0.882881 -0.00547571
8.14354 84.5538 1.45966 0.459585 0.888083 -0.00955803
7.41896 84.9133 0.379467 0.451909 0.892035 -0.00725098
6.53171 85.3416 -0.982769 0.443968 0.895988 -0.00988852
5.80553 85.6879 -2.12516 0.441307 0.897312 -0.008919
5.12648 86.0038 -3.19935 0.428792 0.903347 -0.010067
4.4355 86.3137 -4.28941 0.421197 0.906827 -0.016041
3.74805 86.6132 -5.40497 0.418117 0.908318 -0.0117124
2.91864 86.9699 -6.7456 0.407605 0.913042 -0.0145509
2.08319 87.3278 -8.14414 0.392506 0.919745 0.00293597
1.3259 87.6477 -9.40116 0.377535 0.92599 0.00323515
0.643155 87.9232 -10.5047 0.363483 0.931579 -0.00635855
-0.136314 88.2266 -11.7826 0.368348 0.929686 -0.00202157
-0.854456 88.5047 -12.9601 0.358621 0.933456 0.00713923
-1.46208 88.7359 -14.0137 0.35123 0.936146 0.0163705
-2.07295 88.9575 -13.2718 0.342705 0.939341 0.013866
-1.27971 88.6593 -11.9046 0.340253 0.940334 -0.000256744
-0.613412 88.4118 -10.781 0.350431 0.936571 0.00580388
0.0415313 88.1599 -9.70765 0.362608 0.931941 -0.000867765
0.899088 87.8245 -8.26893 0.380621 0.924718 -0.005006
1.65248 87.5178 -7.00269 0.389059 0.921137 -0.0117707
2.3028 87.2555 -5.91755 0.405 0.914255 -0.0105739
3.07369 86.9363 -4.67547 0.410891 0.911544 -0.0160268
3.93473 86.5645 -3.26034 0.419845 0.90745 -0.016281
4.65483 86.2433 -2.12343 0.430524 0.902499 -0.011991
5.34332 85.9262 -1.01825 0.436558 0.899625 -0.00955091
6.14015 85.5469 0.212266 0.438293 0.898804 -0.00719126
7.10823 85.0794 1.6766 0.449246 0.893399 -0.00405905
7.81233 84.732 2.75114 0.454661 0.890658 -0.00353658
8.47562 84.3948 3.79436 0.461894 0.886903 -0.00760952
9.35845 83.9442 5.16421 0.469689 0.882752 -0.0118851
10.219 83.5034 6.46099 0.470546 0.882289 -0.0123259
10.9634 83.1142 7.5487 0.475708 0.87956 -0.00873777
11.8213 82.6618 8.81034 0.478667 0.877953 -0.00873303
12.3027 82.4062 9.51087 0.478799 0.877885 -0.00837932
11.8642 82.6536 10.6147 0.476513 0.879151 -0.00525786
11.1011 83.0587 9.50518 0.475659 0.879594 -0.00787821
10.4074 83.4221 8.48043 0.46788 0.883775 -0.00537846
9.66471 83.8086 7.38832 0.466926 0.884254 -0.0086269
8.9321 84.1784 6.31127 0.463715 0.885942 -0.00865265
8.02598 84.6404 4.93394 0.454613 0.890641 -0.00926617
7.26976 85.0097 3.75963 0.447429 0.894311 -0.00397832
6.5348 85.3701 2.62246 0.445259 0.8954 -0.0016131
5.61314 85.8113 1.19537 0.436982 0.899434 -0.00810355
4.86777 86.1576 0.0532143 0.430067 0.902746 -0.00961362
4.05409 86.5301 -1.21842 0.420645 0.907203 -0.00635546
3.18361 86.913 -2.62946 0.412553 0.910857 -0.0118146
2.43289 87.2334 -3.87355 0.405414 0.914037 -0.0132868
1.71217 87.5203 -5.05305 0.388989 0.921077 -0.0174657
0.874305 87.8494 -6.43768 0.364174 0.931249 -0.0123409
0.236137 88.0902 -7.53093 0.369202 0.929344 -0.0029932
-0.613618 88.4171 -8.97546 0.35244 0.935824 -0.00440178
-1.29127 88.6599 -10.1094 0.337019 0.941496 0.00179282
-2.12695 88.9636 -11.5607 0.337777 0.941221 0.00304875
-2.76811 89.1868 -12.6836 0.310004 0.950654 0.0124026
-2.84954 89.2154 -12.821 0.308581 0.95108 0.014976
-3.77482 89.5014 -12.5884 0.286408 0.958023 0.0127681
-2.87521 89.2052 -11.0185 0.309415 0.950873 0.0101425
-1.96539 88.8999 -9.43738 0.321752 0.946816 0.00381742
-1.21603 88.6394 -8.14648 0.342705 0.939439 -0.00286453
-0.488647 88.3799 -6.88135 0.353106 0.935573 -0.00440358
0.200882 88.1249 -5.69825 0.365133 0.930719 -0.0209991
1.09306 87.7932 -4.21707 0.37695 0.926218 -0.00537393
1.78622 87.5132 -3.04841 0.388115 0.921563 -0.00935534
2.68409 87.145 -1.53389 0.405057 0.914199 -0.0130242
3.40345 86.8405 -0.418506 0.411533 0.911379 -0.00528287
4.10249 86.5235 0.684768 0.420611 0.907215 -0.00688714
4.81804 86.1958 1.79395 0.426897 0.904268 -0.00757274
5.67098 85.794 3.12754 0.439769 0.898105 -0.00324516
6.47526 85.4091 4.37789 0.440908 0.897523 -0.00723381
7.2607 85.0285 5.5845 0.446301 0.894842 -0.00851036
8.05444 84.6366 6.76874 0.455399 0.890229 -0.0101792
8.88773 84.219 7.99863 0.458319 0.888766 -0.00613624
9.66707 83.8171 9.14029 0.465008 0.885296 -0.00422684
10.3681 83.4532 10.1709 0.46949 0.882927 -0.00438037
11.114 83.0606 11.2554 0.473284 0.880908 -0.00168044
11.3923 82.9119 11.6598 0.473214 0.880945 -0.00212383
10.897 83.1795 12.6616 0.471745 0.881728 -0.00361694
10.0892 83.6057 11.4968 0.466687 0.884418 -0.00277425
9.30515 84.0122 10.3783 0.464652 0.885489 -0.002804
8.51715 84.4159 9.22632 0.456542 0.889698 -0.00272063
7.77826 84.7881 8.13434 0.447427 0.894282 -0.00826647
7.05064 85.1423 7.05357 0.447109 0.894463 -0.0054149
6.33156 85.4893 5.99603 0.439968 0.898009 -0.00268673
5.59163 85.8441 4.8594 0.438364 0.898762 -0.00797598
4.80928 86.2094 3.63876 0.4239 0.905707 0.00163969
3.88959 86.6338 2.19975 0.420056 0.90749 -0.00380476
2.99387 87.0324 0.783084 0.412758 0.910819 -0.00623736
2.28878 87.3387 -0.340248 0.401162 0.915997 -0.00430903
1.48974 87.657 -1.59146 0.371512 0.928327 -0.0137076
0.83935 87.9061 -2.70797 0.375642 0.926708 -0.0102399
0.177397 88.1607 -3.83834 0.350106 0.936669 -0.0088154
-0.493078 88.3978 -5.0046 0.350999 0.9363 -0.0119264
-1.35905 88.7102 -6.50525 0.354189 0.935145 -0.00730396
-2.01364 88.925 -7.65408 0.300371 0.9538 -0.00660778
-2.65532 89.1247 -8.7862 0.307265 0.951619 -0.00293764
-3.3093 89.3335 -9.93694 0.298806 0.954312 -0.00169833
-4.13324 89.5951 -11.3608 0.26941 0.962952 0.0119323
-4.23754 89.6249 -11.5485 0.250271 0.968068 0.0144622
-5.13824 89.8519 -11.309 0.244622 0.96939 0.0210401
-4.4484 89.6697 -10.0481 0.250896 0.967998 -0.00558642
-3.79083 89.4782 -8.90988 0.281762 0.959397 0.0129354
-3.10828 89.2722 -7.69092 0.302358 0.953194 -0.000389408
-2.45859 89.0769 -6.5223 0.315649 0.948875 -0.00130234
-1.81728 88.8633 -5.3731 0.325944 0.945388 -0.00131982
-0.995642 88.5871 -3.90952 0.32738 0.944824 -0.0114205
-0.31813 88.3547 -2.72143 0.349848 0.936799 -0.00383377
0.324785 88.1116 -1.61972 0.357084 0.934058 -0.00515415
1.11313 87.8212 -0.341377 0.361075 0.932509 -0.0071674
1.91055 87.5008 0.949041 0.384322 0.923193 0.00344061
2.59654 87.2101 2.04255 0.396619 0.917982 0.00169453
3.28873 86.911 3.14036 0.409401 0.912353 0.00186129
4.08586 86.5473 4.39151 0.418641 0.908148 0.00279597
4.86226 86.1897 5.60759 0.422343 0.906385 -0.00963584
5.74571 85.7792 6.94129 0.435218 0.900322 -0.00224224
6.51324 85.4134 8.06996 0.439739 0.898101 -0.00658682
7.29695 85.034 9.21588 0.443328 0.896359 -0.00105273
8.05747 84.6538 10.3122 0.451004 0.892522 0.000582458
8.99113 84.1776 11.6762 0.454991 0.890495 -0.00149922
9.85573 83.7285 12.9127 0.4628 0.886462 -0.000832798
10.338 83.4774 13.6045 0.462785 0.88647 -0.000862041
9.72166 83.8023 14.4757 0.463441 0.88612 -0.00376019
8.96661 84.1904 13.3888 0.456383 0.889783 0.00102842
8.24644 84.5571 12.3659 0.453093 0.891463 -0.000653849
7.48809 84.9376 11.2683 0.445678 0.895189 -0.00293518
6.61967 85.3667 10.0186 0.438508 0.898726 0.00164814
5.55819 85.8748 8.47867 0.4311 0.902275 -0.00728434
4.84428 86.2088 7.42001 0.413345 0.910574 -0.00108545
4.1103 86.5423 6.31714 0.415638 0.909522 -0.00376484
3.18806 86.9596 4.88073 0.419347 0.907825 -0.000966164
2.51216 87.2495 3.82921 0.387193 0.921989 0.00427619
1.74058 87.5781 2.60022 0.381487 0.924373 0.0014445
1.04346 87.8549 1.47576 0.378717 0.925494 -0.00588199
0.276515 88.1404 0.211171 0.349785 0.936812 -0.00583481
-0.473549 88.4166 -1.03231 0.348028 0.937484 0.000264163
-1.34459 88.7139 -2.50819 0.320377 0.947287 -0.00241153
-2.15752 88.9819 -3.98175 0.309094 0.951003 -0.00734293
-2.80882 89.1788 -5.18595 0.300461 0.95379 -0.0027312
-3.50257 89.3956 -6.44655 0.289021 0.95732 0.0022589
-4.179 89.5868 -7.67966 0.279092 0.960207 -0.0105331
-4.82949 89.7635 -8.82649 0.26053 0.965428 0.00851211
-5.64641 89.9565 -10.3462 0.217779 0.975976 0.00665134
-5.99422 90.0455 -11.0512 0.209274 0.977583 0.0231699
-6.76896 90.2111 -10.684 0.218709 0.975752 0.00863017
-6.06309 90.044 -9.28589 0.221245 0.975205 -0.00513402
-5.48809 89.9232 -8.13914 0.228592 0.973515 -0.0037673
-4.78081 89.7524 -6.82665 0.25388 0.967129 0.0144009
-3.86663 89.4933 -5.0975 0.272513 0.962103 -0.00972293
-3.08436 89.2773 -3.63166 0.292948 0.956111 -0.00568384
-2.3857 89.0666 -2.3506 0.320726 0.947139 -0.00792939
-1.71355 88.8433 -1.17183 0.324126 0.946012 -0.00167956
-0.997708 88.5969 0.0546898 0.322501 0.946566 0.00247639
-0.351624 88.3759 1.14581 0.328986 0.944325 -0.00427185
0.431291 88.0945 2.43599 0.350463 0.93656 -0.00551976
1.24026 87.7809 3.75075 0.372609 0.927959 0.00741629
2.1561 87.3963 5.18852 0.389211 0.921147 -0.00151131
2.95655 87.0528 6.42591 0.400342 0.916363 0.00248772
3.85107 86.6572 7.76651 0.405623 0.914029 -0.00470062
4.76668 86.2585 9.13064 0.420988 0.907011 -0.0100241
5.65933 85.8349 10.4345 0.435535 0.900167 0.00304773
6.63409 85.3619 11.8056 0.438466 0.898738 -0.00420945
7.35977 85.003 12.8449 0.447046 0.894502 0.00409442
8.30124 84.5325 14.1644 0.449744 0.893154 -0.00244316
8.80221 84.2796 14.8851 0.452739 0.891641 -0.00184069
7.6875 84.842 15.0506 0.446707 0.894675 -0.00309767
6.89633 85.2324 13.939 0.440764 0.897623 7.78366e-06
6.13102 85.608 12.8448 0.438961 0.898502 0.00265729
5.33311 85.9881 11.7476 0.430989 0.902357 2.31058e-05
4.4959 86.3825 10.542 0.414209 0.910181 0.00103325
3.38697 86.8681 8.94218 0.40213 0.915567 -0.00526794
2.58295 87.2104 7.74168 0.396193 0.918166 0.00173674
1.88157 87.5156 6.67968 0.389569 0.920994 -0.00242647
1.13585 87.8125 5.49527 0.380958 0.924589 -0.00268037
0.43856 88.0945 4.4144 0.350212 0.936668 0.00207297
-0.365236 88.3842 3.12912 0.33674 0.941589 0.00403086
-1.06499 88.6278 1.95283 0.320185 0.947353 -0.00199188
-1.74514 88.8483 0.799065 0.31904 0.947741 0.000955447
-2.39005 89.0633 -0.328804 0.285512 0.958374 0.0014946
-3.16603 89.3024 -1.71016 0.279071 0.960254 0.00561002
-3.9261 89.5209 -3.11924 0.271648 0.962396 -0.000851668
-4.78083 89.7376 -4.75746 0.254872 0.966975 -0.00015665
-5.40815 89.9072 -5.99505 0.25665 0.96644 0.0111535
-6.05085 90.0592 -7.24124 0.216918 0.97601 -0.0187264
-6.66046 90.1834 -8.45335 0.192793 0.981239 0.000235757
-7.25727 90.2968 -9.69081 0.172923 0.984935 0.000160533
-7.51516 90.3476 -10.2486 0.172381 0.984974 0.0105237
-8.21872 90.4656 -9.65526 0.172913 0.984937 0.000157956
-7.52955 90.3551 -8.14712 0.174057 0.984734 -0.00151414
-6.90592 90.2453 -6.8615 0.194126 0.980939 -0.00862954
-6.29507 90.1085 -5.65814 0.215505 0.976453 0.00989012
-5.69202 89.955 -4.43882 0.225187 0.974271 0.00935579
-4.99029 89.7915 -3.02208 0.225535 0.974235 0.000889914
-4.38003 89.6385 -1.85009 0.261484 0.965182 0.00709197
-3.6182 89.4296 -0.447648 0.266288 0.963888 -0.00315819
-2.98138 89.2416 0.699793 0.29153 0.956536 0.00704376
-2.23391 89.0081 2.02128 0.299297 0.954155 0.0031084
-1.58712 88.8006 3.1284 0.314606 0.949201 -0.00640261
-0.761067 88.5285 4.50845 0.344535 0.938738 -0.00811409
0.110774 88.2136 5.89227 0.361142 0.932488 -0.00660752
1.05121 87.8474 7.34321 0.36389 0.931431 0.00448745
1.85738 87.5177 8.56708 0.380881 0.924614 -0.00436633
2.7054 87.169 9.82208 0.388398 0.921393 -0.013496
3.51171 86.8282 10.9521 0.413443 0.91053 -0.000875928
4.35277 86.4475 12.1431 0.417856 0.908512 0.00120965
5.29603 86.0085 13.4486 0.421153 0.906989 0.000214813
6.08511 85.6302 14.5354 0.431734 0.901994 -0.00369196
6.49511 85.433 15.0936 0.438334 0.898807 -0.00301148
5.32467 85.9954 15.2393 0.428457 0.903543 -0.00593421
4.49103 86.3838 14.1074 0.421009 0.907054 -0.00225877
3.69727 86.7468 13.0247 0.404176 0.914681 -0.000457231
2.79281 87.1466 11.7668 0.394041 0.919093 -0.00064203
1.8868 87.5219 10.5061 0.380728 0.924684 -0.00251486
1.14233 87.8164 9.43568 0.365372 0.930827 -0.00805014
0.237758 88.1565 8.0574 0.352274 0.935895 0.00187811
-0.521371 88.4502 6.88894 0.344813 0.938656 -0.00540753
-1.33195 88.7434 5.62372 0.342319 0.939584 -0.000879325
-2.30026 89.0433 3.99791 0.303587 0.952729 -0.0119258
-3.09311 89.2766 2.63541 0.299899 0.953971 0.000714921
-3.84976 89.5018 1.30289 0.291005 0.956722 1.22801e-06
-4.70806 89.7311 -0.325007 0.267765 0.963457 -0.00728463
-5.4449 89.8963 -1.72345 0.227256 0.973829 -0.00340595
-6.07585 90.0309 -2.98217 0.206324 0.978478 0.00342941
-6.77358 90.1925 -4.45961 0.19535 0.980642 0.0134138
-7.36548 90.3222 -5.67387 0.176763 0.984158 0.0136858
-8.02623 90.4334 -7.0133 0.144184 0.989403 -0.0170935
-8.55582 90.5156 -8.17849 0.134955 0.990847 0.0029277
-9.06646 90.5764 -9.37547 0.114335 0.993441 0.00159656
-9.16391 90.5909 -9.59919 0.119684 0.99253 0.0236728
-10.0662 90.6844 -9.48244 0.0894144 0.995747 0.0222142
-9.44876 90.6217 -7.98543 0.118009 0.993012 0.000836457
-8.90403 90.5553 -6.71003 0.124435 0.992228 0.00038051
-8.28722 90.475 -5.3949 0.132389 0.991195 -0.00250765
-7.7201 90.3778 -4.23119 0.150456 0.988502 0.0150322
-7.11681 90.2375 -2.87262 0.168616 0.985671 0.00468536
-6.54451 90.132 -1.685 0.199211 0.979955 -0.00165793
-5.9025 90.0144 -0.382528 0.228506 0.973496 -0.00951162
-5.15921 89.8446 1.05011 0.238004 0.971264 0.0007429
-4.39069 89.6485 2.47806 0.243763 0.969832 -0.00228908
-3.63879 89.4508 3.80594 0.275713 0.961215 -0.00689465
-2.90205 89.2345 5.10285 0.29537 0.955373 -0.00447863
-2.20352 89.0253 6.26257 0.303069 0.952938 -0.00763504
-1.31122 88.7256 7.67129 0.326637 0.945114 0.0082079
-0.28582 88.3575 9.20154 0.329395 0.944171 0.0063806
0.418753 88.0992 10.2431 0.351632 0.936132 -0.00336962
1.37196 87.7356 11.6185 0.358308 0.933603 -0.000844237
2.15137 87.4145 12.6985 0.383114 0.9237 0.00136197
3.08849 87.0184 13.9885 0.404412 0.914566 -0.00441061
3.77381 86.7105 14.9233 0.414147 0.910206 -0.00265763
2.21564 87.3953 14.5463 0.389383 0.921064 -0.00464129
1.33275 87.7496 13.3791 0.374415 0.927256 -0.00301047
0.462579 88.0873 12.1692 0.35394 0.935266 -0.00177739
-0.272648 88.3536 11.1489 0.33789 0.941185 -0.00117697
-1.19563 88.6707 9.82925 0.329515 0.94415 -0.000407771
-2.20782 89.0183 8.28348 0.303551 0.952739 0.0120581
-2.91526 89.2562 7.15082 0.302427 0.953167 0.00316388
-3.63227 89.4616 5.98389 0.272852 0.962048 -0.00389846
-4.28905 89.6315 4.87214 0.259158 0.965819 -0.0055953
-4.93502 89.7998 3.69036 0.236627 0.971583 -0.0059002
-5.69599 89.9639 2.26486 0.211561 0.977222 0.0167318
-6.42434 90.1346 0.860949 0.195734 0.980604 -0.0102391
-7.01101 90.2345 -0.326295 0.190543 0.981581 -0.0138417
-7.56764 90.3305 -1.49146 0.157709 0.987454 -0.00796379
-8.33824 90.4507 -3.18096 0.148724 0.988698 0.0188842
-8.95098 90.5607 -4.57785 0.130718 0.991348 0.011913
-9.59084 90.6405 -6.04608 0.127961 0.991776 -0.00259954
-10.1719 90.6939 -7.35336 0.0763449 0.99706 -0.00659934
-10.8049 90.7425 -9.0158 0.07994 0.9968 -5.93241e-05
-10.8919 90.7521 -9.24454 0.0568127 0.998189 0.0197837
-11.9466 90.7886 -9.40732 0.031342 0.999187 0.0253717
-11.4083 90.7697 -8.08444 0.0266164 0.999617 -0.00758501
-10.8163 90.7488 -6.51279 0.0763388 0.99706 -0.00660409
-10.2452 90.7011 -5.15335 0.0871829 0.996192 -0.000596591
-9.54417 90.6114 -3.48435 0.109847 0.993924 0.00696307
-9.01962 90.5441 -2.28114 0.151013 0.988531 0.0011537
-8.41567 90.4705 -0.915107 0.151642 0.988379 -0.0105345
-7.74839 90.3689 0.505468 0.151479 0.988448 -0.00491956
-7.1556 90.2757 1.71883 0.173816 0.984757 0.00649682
-6.55868 90.1413 2.88942 0.207885 0.97815 -0.0026367
-5.9277 90.0192 4.1427 0.211432 0.977348 -0.00929863
-5.13178 89.8576 5.55511 0.228051 0.973634 -0.00538657
-4.43767 89.6873 6.7009 0.254436 0.967066 0.00673785
-3.54925 89.4331 8.15096 0.271658 0.962201 0.0192892
-2.61126 89.1357 9.69009 0.309859 0.950774 -0.0040371
-1.88393 88.9053 10.7809 0.317075 0.948399 -0.00180931
-1.10807 88.6546 11.8602 0.321464 0.946888 -0.00805967
-0.322854 88.3851 12.9043 0.329746 0.944065 -0.00286569
0.226986 88.1825 13.6526 0.352161 0.935897 -0.00894543
-1.47487 88.785 13.2318 0.326392 0.945233 0.00154184
-2.27044 89.0416 12.1543 0.308995 0.950991 -0.0117912
-3.0053 89.2724 11.1236 0.292116 0.956383 0.000550423
-3.78529 89.4915 9.90605 0.247249 0.968951 0.00108517
-4.53589 89.6822 8.69419 0.243877 0.969798 -0.00391236
-5.20819 89.8566 7.58206 0.235493 0.971513 0.0265646
-5.93468 90.0368 6.34812 0.192603 0.981257 0.00622744
-6.66058 90.1738 5.08616 0.177991 0.983936 -0.0137379
-7.40721 90.2916 3.62815 0.169318 0.985561 0.000901541
-7.98519 90.4053 2.43505 0.150854 0.98851 0.00953148
-8.57102 90.4807 1.212 0.128505 0.991667 0.0091073
-9.12731 90.5555 -0.0507212 0.11574 0.99319 0.0133746
-9.7141 90.6312 -1.3749 0.0944443 0.995525 -0.00334414
-10.2779 90.6853 -2.7034 0.0946322 0.995495 0.00579342
-10.8793 90.7322 -4.14455 0.0504103 0.998612 0.0152525
-11.464 90.774 -5.62033 0.034346 0.99937 0.00898845
-11.9089 90.7829 -6.8221 0.0230879 0.999726 -0.00388681
-12.3542 90.7953 -8.02563 0.0303886 0.999536 -0.00229848
-12.7773 90.7869 -9.20846 -0.00306502 0.999988 0.00378446
-13.6421 90.782 -9.15812 -0.0490177 0.998788 0.00434618
-13.2435 90.7812 -7.92717 -0.019548 0.999801 -0.0038684
-12.7321 90.7971 -6.42818 0.00988122 0.999896 -0.0104921
-12.2604 90.7974 -5.08673 0.0348752 0.999366 0.0071496
-11.5493 90.7624 -3.18255 0.049347 0.998764 -0.00599395
-11.0501 90.7429 -1.98379 0.0476474 0.998849 -0.00550737
-10.525 90.7038 -0.725066 0.0804834 0.996589 0.0182681
-9.95487 90.6327 0.64546 0.0822471 0.99654 0.0119794
-9.28397 90.5608 2.17907 0.10286 0.994597 -0.0140064
-8.74543 90.512 3.3408 0.129517 0.991573 0.00300446
-8.05891 90.4055 4.76488 0.144882 0.989363 -0.0130438
-7.46379 90.3156 5.91373 0.159356 0.987215 0.00353346
-6.83627 90.2064 7.04103 0.177512 0.984041 0.0123833
-5.8843 89.9981 8.64956 0.190095 0.981711 0.0103678
-5.19948 89.8327 9.75383 0.224824 0.97438 -0.00612663
-4.38919 89.6431 11.0351 0.240282 0.970699 0.00262834
-3.64345 89.4571 12.1683 0.264704 0.964317 -0.00494834
-3.21102 89.3318 12.7671 0.278846 0.960282 -0.0101479
-4.74585 89.734 12.589 0.234585 0.972054 -0.00893446
-5.59827 89.9333 11.3571 0.234176 0.972194 8.36779e-05
-6.48456 90.1033 9.92857 0.184549 0.98282 -0.0027228
-7.13979 90.2394 8.82166 0.167846 0.985793 0.00631115
-7.91564 90.378 7.40581 0.135345 0.990696 0.0142731
-8.536 90.4786 6.21551 0.143114 0.985748 0.0884229
-9.15665 90.5522 5.01742 0.115298 0.993165 0.0181791
-9.90397 90.6309 3.39437 0.0903242 0.995912 0.000639359
-10.4257 90.6696 2.19789 0.0757627 0.997123 -0.00217798
-10.9492 90.7048 0.96719 0.0363238 0.999239 0.0141784
-11.52 90.7537 -0.460413 0.036442 0.999058 0.0235761
-12.069 90.7904 -1.82359 0.022371 0.999741 -0.00425188
-12.5599 90.7829 -3.17614 -0.0156038 0.99976 0.0153475
-13.0236 90.7896 -4.4829 -0.0271866 0.999568 0.0111244
-13.5077 90.7949 -5.86717 -0.0434204 0.999053 0.00286236
-13.9818 90.7695 -7.34556 -0.0331131 0.999444 -0.00380124
-14.4441 90.7456 -8.81983 -0.0455805 0.99896 -0.000685462
-14.5411 90.7412 -9.16795 -0.0453722 0.99897 -9.53164e-05
-15.2898 90.6916 -8.62467 -0.0805867 0.996719 -0.00752178
-14.9002 90.7244 -7.32732 -0.054266 0.998466 -0.0109948
-14.5145 90.7444 -6.05428 -0.0526349 0.998525 0.0133346
-14.0986 90.7583 -4.76774 -0.0537704 0.998553 -0.000314982
-13.6516 90.7696 -3.4194 -0.0206647 0.999742 0.00948029
-13.2122 90.7885 -2.1818 -0.000175337 0.999908 -0.0135673
-12.7802 90.7825 -0.919865 -0.0171961 0.999794 0.0107787
-12.1585 90.7521 0.718202 0.0252644 0.999452 0.0213914
-11.5892 90.7268 2.13595 0.0222161 0.999735 -0.00606425
-11.027 90.708 3.49074 0.0450699 0.998783 0.0200495
-10.4914 90.6722 4.72162 0.0505223 0.998714 0.00413494
-9.88504 90.6284 6.03014 0.100949 0.994863 -0.00760329
-9.3117 90.5595 7.18124 0.128544 0.991668 0.00839969
-8.67943 90.4667 8.46149 0.127739 0.991772 0.00845158
-8.04289 90.3683 9.61784 0.139028 0.990258 0.00775541
-7.37141 90.2676 10.7666 0.156545 0.987663 0.00398391
-6.5966 90.138 11.9675 0.174357 0.984682 -0.00090428
-6.22462 90.0686 12.5459 0.215477 0.976497 -0.00489593
-7.845 90.3443 12.2596 0.139372 0.99024 9.18415e-05
-8.54394 90.4332 11.1139 0.11438 0.993396 0.0090213
-9.33863 90.5383 9.71181 0.108159 0.993935 0.01987
-10.0254 90.6243 8.35674 0.0638332 0.997838 0.0156145
-10.6833 90.6911 6.95408 0.0435452 0.999039 0.00490337
-11.3026 90.7105 5.5834 0.035809 0.999356 -0.00228383
-11.8776 90.7353 4.23583 0.0362809 0.999315 0.00731381
-12.5543 90.7491 2.56103 -0.00659155 0.99994 -0.00875045
-13.0912 90.7464 1.16111 -0.0286925 0.999505 0.012873
-13.5468 90.7557 -0.0934428 -0.0500465 0.998714 0.00804729
-14.0179 90.7487 -1.4858 -0.0424049 0.999062 0.00874294
-14.4429 90.731 -2.74952 -0.0598854 0.998153 -0.0101803
-14.8793 90.7127 -4.11417 -0.05173 0.998611 0.0100057
-15.2733 90.6897 -5.43023 -0.0684024 0.99764 -0.00595496
-15.711 90.6583 -6.90697 -0.0980171 0.995142 0.00919162
-16.1254 90.6266 -8.38566 -0.0912449 0.995821 -0.0039169
-16.3168 90.6044 -9.14925 -0.108924 0.99404 -0.00440108
-17.1684 90.5019 -8.99345 -0.127259 0.991809 0.0109616
-16.8311 90.536 -7.60693 -0.128609 0.99169 0.0033327
-16.4213 90.5932 -6.05886 -0.116678 0.993145 -0.00697754
-15.9555 90.6313 -4.4362 -0.0925487 0.995621 0.0131854
-15.5106 90.6499 -2.92873 -0.0802854 0.996761 0.00457748
-14.9603 90.6915 -1.1656 -0.0833001 0.996461 0.0112447
-14.4783 90.7081 0.295854 -0.0497198 0.998758 0.00315394
-14.0567 90.718 1.52243 -0.0275427 0.999608 0.00511123
-13.4492 90.7486 3.1785 -0.00658365 0.99994 -0.00875904
-12.9596 90.7368 4.43617 -0.00292265 0.999934 0.0110882
-12.4659 90.7274 5.65383 -0.00545432 0.99997 0.00541872
-11.8857 90.7189 7.03769 0.0246721 0.999694 0.00173308
-11.3169 90.7165 8.38862 0.013959 0.99989 -0.00506341
-10.749 90.6721 9.53916 0.0727678 0.997162 0.0193046
-10.115 90.6023 10.7502 0.0936426 0.995417 0.0193776
-9.42137 90.5331 11.9325 0.0908012 0.995774 -0.0137281
-9.02579 90.5107 12.6727 0.103522 0.994444 -0.0190811
-10.4893 90.619 12.5391 0.0535135 0.998522 0.00951416
-11.2234 90.6628 11.267 0.0370177 0.998883 0.0293629
-11.8146 90.711 10.0134 0.0168977 0.999644 0.0206683
-12.3285 90.7278 8.83602 -0.0226392 0.999732 0.00485077
-12.881 90.719 7.56754 -0.0109877 0.999907 -0.00805505
-13.383 90.6994 6.33055 -0.0463926 0.998922 0.00150971
-13.9698 90.6972 4.8302 -0.0571506 0.998222 0.0169179
-14.522 90.689 3.31633 -0.0638118 0.997961 -0.00109094
-14.9622 90.6652 2.06876 -0.0498467 0.99873 0.0072707
-15.5421 90.6271 0.270782 -0.0893381 0.996001 0.000179435
-15.9196 90.609 -0.956708 -0.0925287 0.995702 0.0040432
-16.3054 90.5716 -2.24628 -0.0989489 0.994981 0.0148644
-16.6919 90.5431 -3.57834 -0.116751 0.993009 0.0173975
-17.0426 90.5115 -4.86011 -0.132147 0.991141 0.0132874
-17.4612 90.4593 -6.46114 -0.132931 0.991098 -0.00734705
-17.8005 90.4055 -7.84837 -0.154733 0.987944 -0.00488042
-18.0902 90.3652 -9.04443 -0.152542 0.988269 0.00749255
-19.0392 90.195 -9.42329 -0.183046 0.983071 0.00814905
-18.7367 90.253 -7.99255 -0.192185 0.981345 0.00524216
-18.4271 90.2966 -6.62907 -0.172729 0.984911 0.0107379
-18.1218 90.3498 -5.36223 -0.171837 0.985116 -0.00423415
-17.7792 90.3998 -4.02559 -0.155896 0.987708 0.0113728
-17.381 90.4392 -2.50772 -0.146861 0.989121 0.00846546
-17.0189 90.4833 -1.22261 -0.144784 0.989461 0.00193604
-16.5196 90.5296 0.486543 -0.121026 0.992617 0.00802957
-16.0862 90.5647 1.91665 -0.105921 0.994374 -0.000472186
-15.6673 90.6053 3.21344 -0.0761639 0.996938 0.0176982
