-36.3589 84.3071 -8.63168 -0.451582 0.89203 0.018881
-35.4735 84.7739 -9.78741 -0.443535 0.896043 0.0195787
-34.7221 85.1609 -10.4896 -0.442489 0.896526 0.0210824
-33.7589 85.6426 -11.2034 -0.43134 0.90198 0.0194325
-32.447 86.2627 -11.6359 -0.417541 0.908491 0.0174298
-31.1252 86.8614 -11.9998 -0.401556 0.91566 0.0179084
-30.1746 87.2798 -12.058 -0.397631 0.917308 0.0202708
-29.0186 87.7693 -11.992 -0.388821 0.921122 0.0188026
-28.0305 88.1628 -11.8381 -0.375689 0.926547 0.0171515
-26.7448 88.6544 -11.6789 -0.343174 0.939168 0.0139695
-25.5842 89.0588 -11.4057 -0.32457 0.945828 0.00794213
-24.4181 89.4427 -11.0754 -0.308958 0.951023 0.00998099
-23.6649 89.6803 -10.7911 -0.297703 0.954592 0.00933592
-23.3642 89.782 -11.6931 -0.292792 0.956029 0.016781
-21.99 90.1671 -11.5754 -0.255106 0.966851 0.00896153
-20.7267 90.4774 -11.1471 -0.223776 0.974588 0.00784067
-19.591 90.722 -10.8526 -0.19459 0.980675 0.0185622
-18.5319 90.9296 -10.6539 -0.163737 0.986255 0.0221894
-17.4554 91.1006 -10.5768 -0.139235 0.990002 0.0154062
-16.3394 91.2401 -10.4981 -0.126259 0.991828 0.0183508
-14.954 91.3721 -10.3693 -0.078109 0.996586 0.0218066
-13.9031 91.4354 -10.5235 -0.0340261 0.999198 0.020174
-12.7577 91.4533 -10.668 -0.00310378 0.999894 0.0142091
-11.581 91.4495 -10.806 0.0324977 0.999006 0.0305238
-10.5183 91.3981 -11.0503 0.0858246 0.995986 0.0185748
-9.30799 91.2876 -11.2447 0.117271 0.991853 0.0391066
-8.24288 91.1429 -11.5744 0.162287 0.98549 0.0471635
-6.93401 90.9296 -12.0476 0.179537 0.982561 0.0483696
-5.69136 90.6782 -12.6912 0.222887 0.973986 0.0408895
-4.65817 90.4312 -13.2544 0.26129 0.964298 0.0430879
-3.69237 90.168 -14.0085 0.301976 0.952417 0.0413807
-2.56621 89.8162 -14.5842 0.330226 0.942561 0.0457183
-1.62227 89.4898 -15.323 0.355801 0.934009 0.0317894
-0.736819 89.161 -15.7869 0.378624 0.925235 0.022535
0.360041 88.7224 -16.2992 0.395159 0.918209 0.026901
1.43212 88.2675 -16.7473 0.404201 0.914323 0.0251413
2.33084 87.8694 -17.0856 0.417408 0.908561 0.016969
3.34779 87.3988 -17.4233 0.428563 0.903378 0.0155605
4.29814 86.943 -17.5923 0.444898 0.895544 0.00818117
5.61388 86.2829 -17.7707 0.457118 0.889346 0.0103527
6.94264 85.589 -17.7743 0.466604 0.884439 0.00695516
8.0279 85.0017 -17.2495 0.475128 0.879897 -0.0058863
8.82586 84.5715 -16.6266 0.4785 0.878052 -0.00791266
9.67956 84.1134 -15.7337 0.482053 0.876059 -0.0120735
10.4439 83.7069 -14.6598 0.483782 0.87509 -0.0130999
11.2218 83.2967 -13.4074 0.488286 0.872511 -0.0173432
11.9224 82.9234 -12.3851 0.490356 0.87138 -0.0157553
12.4561 82.6484 -10.9156 0.493905 0.869373 -0.0157526
12.9643 82.3826 -9.69957 0.493687 0.869482 -0.0165573
13.4252 82.1432 -8.50077 0.494336 0.869124 -0.0159624
13.7082 82.0023 -7.44994 0.494635 0.86892 -0.0176921
14.0457 81.8385 -6.01754 0.496466 0.867877 -0.0176105
14.1104 81.8217 -4.9118 0.494681 0.868968 -0.0135903
14.3652 81.6923 -3.87368 0.495097 0.86874 -0.0130233
14.4409 81.6681 -2.78968 0.49656 0.867847 -0.0164041
14.3489 81.7459 -1.50401 0.49809 0.866926 -0.018506
14.5182 81.6773 -0.122462 0.496421 0.867916 -0.016996
14.5488 81.6834 1.14981 0.493602 0.869515 -0.0173567
14.3683 81.8112 2.48211 0.492518 0.870163 -0.0155681
14.4451 81.7902 3.72972 0.489875 0.871667 -0.0148109
14.413 81.8308 5.01204 0.489685 0.871753 -0.01598
14.1792 81.9824 6.18005 0.489775 0.871733 -0.0142368
13.9477 82.1268 7.25448 0.485622 0.874087 -0.0119539
13.6309 82.316 8.23164 0.482753 0.875677 -0.0118139
13.4741 82.4174 9.25894 0.482679 0.875693 -0.0135311
13.1447 82.6094 10.2381 0.477682 0.878464 -0.0109479
12.7559 82.83 11.2608 0.476525 0.879135 -0.00676394
12.3264 83.0694 12.3502 0.473469 0.880799 -0.00446949
11.7021 83.4086 13.2925 0.470931 0.88216 -0.00418717
11.1083 83.729 14.4592 0.465221 0.885184 -0.00445077
10.5273 84.0393 15.2936 0.46364 0.886006 -0.00499675
9.58951 84.534 16.1636 0.462286 0.886697 -0.00781923
8.35025 85.1685 16.6154 0.453093 0.891429 -0.00760635
7.37036 85.6604 16.6984 0.44776 0.894126 -0.00706884
6.0034 86.335 16.7088 0.436931 0.899443 -0.00831961
4.77888 86.9158 16.6294 0.424844 0.905194 -0.0114711
3.78734 87.3744 16.3299 0.418762 0.908003 -0.0128805
2.76987 87.819 16.0097 0.395346 0.918388 -0.0162829
1.80041 88.2189 15.6329 0.38056 0.924583 -0.017594
0.859553 88.5966 15.3291 0.371745 0.928189 -0.0153697
-0.117208 88.9682 15.0103 0.340613 0.940151 -0.00995695
-1.25177 89.3667 14.6513 0.328998 0.944214 -0.0148696
-2.30794 89.7169 14.4174 0.303682 0.95266 -0.0147159
-3.29771 90.01 14.254 0.270766 0.962419 -0.0193884
-4.4129 90.3088 14.1027 0.243342 0.969452 -0.0254276
-5.62635 90.5923 14.1488 0.227371 0.973528 -0.0233461
-6.96439 90.8687 14.1203 0.178552 0.983307 -0.0287392
-8.29984 91.058 14.0102 0.124886 0.992083 -0.013246
-9.68151 91.1953 14.0254 0.086871 0.995703 -0.032082
-10.895 91.2856 14.1209 0.0424242 0.998613 -0.0311787
-12.3296 91.3282 14.2164 -0.000233312 0.999765 -0.0193573
-13.4394 91.3232 14.2685 -0.00501425 0.999929 -0.0108436
-14.9584 91.2528 14.3877 -0.0676414 0.997514 -0.0197761
-16.006 91.1451 14.4714 -0.108144 0.993636 -0.0314883
-17.036 91.029 14.687 -0.137933 0.989995 -0.0275712
-18.2593 90.8388 14.8729 -0.171693 0.984813 -0.0257435
-19.4828 90.6174 15.3063 -0.208902 0.977572 -0.0266908
-20.4813 90.3935 15.7964 -0.239295 0.9704 -0.0325747
-21.6635 90.0984 16.217 -0.262266 0.964711 -0.0234417
-22.9727 89.7199 16.6756 -0.289909 0.956699 -0.0260816
-24.3337 89.2755 17.306 -0.32965 0.943771 -0.0207681
-25.2381 88.9551 17.7303 -0.341813 0.939471 -0.0235331
-26.4165 88.5165 18.2108 -0.363552 0.931197 -0.0265005
-27.6267 88.0351 18.4823 -0.376939 0.926164 -0.0117169
-28.9371 87.4894 18.6522 -0.396656 0.917915 -0.00980771
-30.0084 87.0229 18.6915 -0.404746 0.914425 -0.00279709
-31.0376 86.5603 18.641 -0.414475 0.91006 -0.000451184
-32.0346 86.099 18.3122 -0.427944 0.903801 0.00280828
-33.2228 85.5309 17.8321 -0.436031 0.899927 0.00277049
-34.4009 84.9587 17.2012 -0.444005 0.89595 0.011595
-35.039 84.6519 16.4168 -0.446211 0.894867 0.0103847
-35.9974 84.1769 15.7124 -0.450859 0.892538 0.0100041
-36.6047 83.8771 14.9293 -0.455123 0.890358 0.011193
-37.0973 83.6359 13.9984 -0.46022 0.887759 0.00902449
-37.6048 83.3837 13.109 -0.459542 0.888077 0.0118535
-38.1265 83.121 12.2126 -0.465085 0.885181 0.0122911
-38.395 82.993 11.1992 -0.466317 0.88454 0.0117231
-38.9236 82.7321 9.8394 -0.467176 0.88409 0.0114474
-39.3018 82.5491 8.70937 -0.467899 0.883673 0.0138738
-39.6173 82.3951 7.60628 -0.472459 0.88129 0.0104722
-39.729 82.3468 6.53625 -0.474562 0.880202 0.00586915
-39.8375 82.2949 5.27105 -0.474291 0.880359 0.00395882
-39.9407 82.2451 3.92297 -0.478518 0.878068 0.00416272
-39.9935 82.223 2.56207 -0.480472 0.876996 0.00482801
-39.9289 82.2638 1.34753 -0.480674 0.876893 0.0034693
-39.6054 82.4526 -0.128299 -0.481669 0.876301 0.00896911
-39.5113 82.5158 -1.24906 -0.480067 0.877125 0.0136129
-39.3925 82.5979 -2.27472 -0.476632 0.878996 0.013228
-39.1574 82.7464 -3.62699 -0.475677 0.879511 0.0138493
-38.7308 83.0036 -5.18478 -0.472747 0.881073 0.0148338
-38.4787 83.1613 -6.2747 -0.470978 0.881954 0.0183703
-37.9988 83.4348 -7.40105 -0.464744 0.885289 0.0166285
-37.5909 83.6676 -8.35035 -0.462062 0.886497 0.024933
-36.9586 84.0173 -9.33917 -0.452232 0.891638 0.0213943
-36.1504 84.452 -10.4681 -0.445487 0.8951 0.0183549
-35.3203 84.8798 -11.1598 -0.445529 0.895032 0.0205359
-34.5681 85.2706 -11.9264 -0.432198 0.901294 0.0295803
-33.6634 85.7117 -12.2534 -0.423464 0.905571 0.024635
-32.6819 86.1742 -12.5533 -0.414205 0.909901 0.0224791
-31.7642 86.5972 -12.9037 -0.413576 0.910089 0.0259542
-30.4151 87.1993 -12.9948 -0.403794 0.914257 0.0329361
-29.0205 87.793 -12.9804 -0.38828 0.921103 0.0284365
-27.9833 88.2092 -12.8567 -0.372603 0.927657 0.0249017
-26.8492 88.6414 -12.6812 -0.342668 0.939342 0.0146686
-25.6606 89.0553 -12.3712 -0.322143 0.946348 0.0253485
-24.4781 89.4414 -12.1479 -0.304064 0.952387 0.0218303
-23.7558 89.6643 -11.8213 -0.292792 0.956029 0.016781
-23.5317 89.7547 -12.9014 -0.281452 0.958753 0.0379471
-22.4614 90.0596 -12.6808 -0.265629 0.963701 0.0268457
-21.4754 90.3095 -12.4411 -0.249275 0.968348 0.0126743
-20.4258 90.5603 -12.0945 -0.230472 0.97287 0.0183601
-19.3771 90.8004 -11.8958 -0.225044 0.973841 0.0294707
-18.3681 90.9824 -11.6144 -0.161655 0.986203 0.0356621
-17.2675 91.1598 -11.4829 -0.143795 0.988335 0.044894
-15.8486 91.3182 -11.4276 -0.0940421 0.994568 0.0434665
-14.6594 91.42 -11.3959 -0.0847214 0.995208 0.0487748
-13.0599 91.4896 -11.6301 -0.022015 0.999083 0.0336033
-11.8294 91.489 -11.8372 0.0320383 0.999024 0.0304201
-10.3788 91.4175 -12.0561 0.0721032 0.995873 0.0516002
-9.21341 91.3199 -12.2532 0.125804 0.990515 0.049701
-7.94578 91.1561 -12.7048 0.165192 0.98383 0.0654212
-6.99429 90.9987 -13.0754 0.211189 0.975527 0.0584963
-5.51651 90.7021 -13.772 0.242611 0.966911 0.075868
-4.4731 90.4456 -14.6095 0.308105 0.950284 0.0450724
-3.56214 90.1832 -15.2085 0.313988 0.947673 0.0576816
-2.68824 89.9051 -15.7721 0.347083 0.937201 0.0344634
-1.67337 89.5518 -16.3861 0.358644 0.932439 0.0439546
-0.752697 89.1995 -16.8107 0.373069 0.927109 0.0352582
0.285533 88.7856 -17.2735 0.395129 0.917854 0.0376394
1.18092 88.4049 -17.6231 0.404232 0.914106 0.0317118
2.33015 87.8993 -18.0541 0.417886 0.907939 0.0318886
3.26401 87.4621 -18.3815 0.432481 0.901311 0.0244791
4.21438 87.0013 -18.5624 0.442997 0.896332 0.018521
5.27866 86.4684 -18.782 0.458434 0.888651 0.011714
6.32786 85.9245 -18.8018 0.465089 0.885141 0.0146692
7.56793 85.2455 -18.6204 0.483681 0.875168 0.0115627
8.45395 84.7625 -18.1661 0.481467 0.876454 -0.00421378
9.26666 84.3218 -17.5258 0.481016 0.876648 -0.0104201
10.1311 83.8557 -16.6684 0.48132 0.876507 -0.00815548
10.7361 83.5286 -15.8713 0.485651 0.874102 -0.00942371
11.4014 83.171 -14.9398 0.487208 0.873196 -0.0125223
11.9638 82.8739 -13.9021 0.486493 0.873559 -0.0148015
12.6148 82.5234 -12.9689 0.491723 0.870625 -0.0148619
13.0176 82.3116 -11.9973 0.492413 0.870248 -0.0141012
13.3467 82.1428 -10.8645 0.49617 0.868045 -0.0176905
13.8735 81.8605 -9.91496 0.495821 0.868265 -0.0166695
14.2732 81.6557 -8.64189 0.495987 0.868193 -0.0153873
14.5561 81.5165 -7.49994 0.496907 0.867626 -0.0175837
14.8849 81.3553 -6.26029 0.4928 0.869961 -0.0177671
14.9993 81.3143 -4.99768 0.49511 0.868715 -0.0141778
15.2114 81.2061 -3.88799 0.498369 0.866886 -0.011318
15.2781 81.1921 -2.48739 0.500934 0.865312 -0.0170827
15.2486 81.2363 -1.07062 0.499506 0.866105 -0.0188447
15.291 81.2499 0.641581 0.496942 0.867523 -0.0212477
15.2682 81.2981 2.20364 0.491551 0.870666 -0.0178524
15.323 81.2875 3.28602 0.491091 0.870966 -0.0157427
15.2639 81.3397 4.38001 0.493147 0.869797 -0.0160203
15.1952 81.3988 5.40323 0.488672 0.872277 -0.0182229
15.0409 81.505 6.42062 0.486755 0.87339 -0.0160758
14.5901 81.7832 8.01147 0.485341 0.874213 -0.0138936
14.3186 81.9522 9.16794 0.481549 0.876258 -0.0163784
14.1044 82.0906 10.365 0.478328 0.878036 -0.0159591
13.4874 82.4379 11.7725 0.475553 0.879656 -0.00744924
12.9161 82.7585 13.1458 0.473853 0.880572 -0.00725321
12.325 83.0806 14.0961 0.470471 0.882402 -0.0049152
11.8012 83.3676 15.2768 0.469992 0.882641 -0.00708644
11.0773 83.7559 16.0356 0.465412 0.885036 -0.0101717
9.97264 84.3473 17.1287 0.45823 0.88873 -0.0135421
9.05494 84.8193 17.4689 0.453096 0.89138 -0.0119928
7.9909 85.362 17.6495 0.454317 0.890752 -0.0123544
6.56669 86.0728 17.8272 0.443027 0.896418 -0.0127448
5.66067 86.5142 17.8042 0.42777 0.903573 -0.0232063
4.29032 87.1575 17.6115 0.422617 0.906184 -0.0150175
3.32336 87.5986 17.2269 0.408016 0.912824 -0.0166012
2.02726 88.155 16.7257 0.39959 0.9165 -0.0188853
1.06225 88.5451 16.4398 0.381672 0.923629 -0.0350605
0.0507181 88.9289 16.0269 0.348511 0.936883 -0.0280607
-1.20438 89.3734 15.6541 0.330163 0.943505 -0.027703
-2.26673 89.7251 15.4175 0.312869 0.949465 -0.0250919
-3.77787 90.1679 15.156 0.269723 0.962419 -0.0311322
-4.99552 90.4848 15.1258 0.229149 0.972251 -0.0471064
-6.17002 90.735 15.1388 0.197399 0.979972 -0.0262519
-7.32809 90.9599 15.1265 0.145123 0.988426 -0.0441897
-9.00531 91.1811 15.2361 0.1249 0.991629 -0.0327571
-10.2718 91.2865 15.1097 0.0757508 0.995963 -0.0478696
-11.629 91.357 15.1487 0.0467792 0.997868 -0.0455103
-13.3258 91.3663 15.2351 -0.00719362 0.998015 -0.0625584
-14.5668 91.312 15.3184 -0.0733195 0.996254 -0.0458499
-15.9502 91.1883 15.4142 -0.113826 0.991997 -0.0546395
-16.9404 91.0733 15.6661 -0.14843 0.98786 -0.0458124
-18.0129 90.9199 15.8226 -0.161135 0.985689 -0.0480081
-19.2441 90.6952 16.2347 -0.210727 0.977122 -0.0287575
-20.2938 90.4776 16.7149 -0.240375 0.969705 -0.0435072
-21.3083 90.2197 17.0362 -0.261326 0.964666 -0.0335781
-22.4455 89.9031 17.4975 -0.284555 0.957611 -0.0420458
-23.6429 89.5285 18.1415 -0.324319 0.945271 -0.0357903
-24.6465 89.1912 18.5209 -0.341124 0.939635 -0.0268392
-25.5723 88.863 18.9555 -0.355124 0.934382 -0.0285869
-26.497 88.5119 19.2723 -0.366452 0.930119 -0.0242319
-27.5335 88.0944 19.4708 -0.37873 0.925296 -0.0194745
-28.5971 87.6461 19.5829 -0.398624 0.917049 -0.0106468
-29.8166 87.1165 19.6264 -0.403423 0.914961 -0.00921409
-30.7648 86.6885 19.6584 -0.412853 0.910786 -0.0046537
-31.7443 86.2351 19.5328 -0.428396 0.903591 0.000632885
-32.6865 85.7879 19.0215 -0.43406 0.900871 0.000903449
-33.603 85.3416 18.8653 -0.440972 0.897516 0.0028791
-34.6145 84.8446 18.3373 -0.444419 0.895813 0.00327384
-35.5039 84.408 17.4096 -0.447302 0.894312 0.0112818
-36.8595 83.734 16.2031 -0.453469 0.891233 0.00835114
-37.4973 83.4175 15.2009 -0.462214 0.886746 0.00625387
-38.0462 83.1407 14.2207 -0.461549 0.887044 0.0112148
-38.6566 82.8306 13.3223 -0.464592 0.88548 0.00889081
-39.0454 82.6359 12.2325 -0.468048 0.883637 0.0105425
-39.5052 82.4083 11.0183 -0.469904 0.882631 0.0123607
-39.8744 82.2332 9.50049 -0.471138 0.882008 0.0084808
-40.2708 82.0334 8.47139 -0.474095 0.880396 0.0116477
-40.5728 81.885 7.30483 -0.475114 0.879855 0.0110261
-40.6568 81.849 6.27908 -0.474248 0.880383 0.00383974
-40.82 81.7669 4.97198 -0.47585 0.879519 0.000875202
-40.8182 81.7675 3.81676 -0.478378 0.878144 0.00403893
-40.7984 81.7832 2.32297 -0.47964 0.877461 0.00287791
-40.8159 81.7783 1.16651 -0.480498 0.87699 0.00306877
-40.6205 81.8904 0.13288 -0.48363 0.875259 0.0048373
-40.3307 82.0593 -0.942238 -0.485401 0.87425 0.00847728
-40.3402 82.0759 -2.02262 -0.484064 0.874835 0.0185935
-40.1352 82.208 -3.16673 -0.479071 0.877644 0.0152329
-39.9622 82.3223 -4.18784 -0.476256 0.87914 0.0171356
-39.5726 82.5562 -5.35187 -0.47386 0.880423 0.0176724
-39.3282 82.7125 -6.46508 -0.471863 0.881442 0.0199566
-38.9379 82.9407 -7.42306 -0.468068 0.883526 0.0169893
-38.4787 83.2058 -8.5304 -0.466563 0.884211 0.0221397
-37.7762 83.6207 -9.73537 -0.452642 0.890751 0.0381973
-37.2102 83.9277 -10.5753 -0.440661 0.896787 0.0388504
-36.5127 84.2909 -11.4407 -0.448074 0.893856 0.0158601
-35.8349 84.6473 -12.1246 -0.453054 0.890772 0.0355974
-34.9345 85.1234 -12.8363 -0.437809 0.898059 0.0425913
-33.772 85.6909 -13.3099 -0.423227 0.905456 0.0320629
-32.8434 86.1272 -13.6324 -0.414661 0.909726 0.0210153
-31.6239 86.6926 -13.8355 -0.415341 0.909022 0.0339731
-30.6726 87.1214 -13.9257 -0.39704 0.916864 0.0401578
-29.4125 87.6589 -13.9774 -0.392369 0.919214 0.0330438
-28.2094 88.1478 -13.8569 -0.373474 0.92696 0.0355221
-26.702 88.7166 -13.6404 -0.34276 0.939152 0.0225465
-25.7679 89.0495 -13.3346 -0.320778 0.946477 0.0358215
-24.1101 89.5796 -13.1931 -0.297793 0.954187 0.0290795
-23.6794 89.7101 -12.9839 -0.300511 0.953541 0.0212541
-38.4554 83.019 6.73334 -0.462574 0.88654 0.00847653
-38.4178 83.0464 5.66507 -0.463224 0.886229 0.00458093
-38.3792 83.0782 4.61704 -0.466466 0.884488 0.00952973
-38.3309 83.1164 3.42074 -0.466117 0.884675 0.00924809
-38.2954 83.1459 2.21428 -0.470234 0.882528 0.00497592
-38.2691 83.1663 1.08236 -0.476207 0.879317 0.00538697
-38.2102 83.2067 -0.0817907 -0.470886 0.882157 0.00811388
-38.1637 83.2441 -1.24435 -0.470501 0.882328 0.0112643
-38.1446 83.2615 -1.86811 -0.468349 0.88346 0.0121701
-37.6684 83.4006 9.21447 -0.463006 0.886275 0.0118707
-37.6087 83.4548 7.27746 -0.461917 0.886877 0.00899018
-37.5255 83.5164 5.64322 -0.463057 0.886255 0.0114415
-37.4665 83.5639 4.20775 -0.466363 0.884544 0.00938588
-37.392 83.6181 2.74954 -0.466127 0.884658 0.0102492
-37.3553 83.6492 1.10581 -0.467195 0.884142 0.00474264
-37.2757 83.7047 -0.357419 -0.466361 0.884534 0.0103749
-37.1943 83.7681 -2.00935 -0.467317 0.884024 0.0107569
-37.1495 83.8141 -3.41349 -0.463579 0.885945 0.0139784
-37.0885 83.8684 -5.02654 -0.461484 0.887044 0.0136186
-37.0532 83.9056 -6.12624 -0.458123 0.888754 0.0154868
-35.9847 84.4908 -8.35679 -0.451583 0.892029 0.0188849
-36.0718 84.4204 -6.73666 -0.451788 0.892039 0.0124228
-36.1329 84.3648 -5.101 -0.458199 0.888754 0.0130715
-36.1945 84.3131 -3.65198 -0.456094 0.889854 0.0117562
-36.2641 84.2594 -2.26159 -0.4645 0.885483 0.0126234
-36.329 84.202 -0.575906 -0.457096 0.889353 0.0106731
-36.4248 84.1348 1.01092 -0.455364 0.890268 0.00814323
-36.4987 84.0806 2.8761 -0.459485 0.88816 0.00680949
-36.5687 84.0314 4.29845 -0.460298 0.887669 0.0129862
-36.6412 83.9778 5.69946 -0.462102 0.886769 0.0101057
-36.7203 83.9204 7.032 -0.462754 0.886432 0.00985466
-36.7891 83.867 8.53294 -0.459883 0.887913 0.0108902
-36.8282 83.8253 10.1638 -0.458005 0.888868 0.0120669
-36.8681 83.785 11.5614 -0.457643 0.889041 0.0129916
-36.0446 84.1896 12.832 -0.453201 0.891325 0.0121654
-35.9829 84.2417 11.4169 -0.453124 0.891334 0.0142128
-35.9449 84.2853 9.87051 -0.459108 0.888258 0.0147779
-35.9026 84.325 8.4145 -0.450319 0.892814 0.00976294
-35.8318 84.3743 7.08661 -0.454938 0.890474 0.00940815
-35.7496 84.4352 5.65206 -0.455391 0.890196 0.0130877
-35.656 84.5018 4.12312 -0.450783 0.892588 0.00904073
-35.5859 84.5493 2.7388 -0.449211 0.893404 0.00629267
-35.5267 84.591 1.36163 -0.454778 0.890548 0.0100691
-35.4055 84.673 -0.262625 -0.457009 0.889396 0.0108777
-35.3399 84.7308 -1.96743 -0.455074 0.890402 0.00958429
-35.2521 84.7934 -3.48467 -0.455715 0.89004 0.0123692
-35.1812 84.8464 -4.89031 -0.450498 0.892705 0.0114195
-35.108 84.9062 -6.57423 -0.446737 0.894595 0.0112453
-35.0282 84.9601 -7.93163 -0.442623 0.896623 0.0123272
-34.9315 85.0386 -9.62268 -0.443535 0.896043 0.0195787
-33.9325 85.544 -10.4252 -0.429426 0.902857 0.0210257
-33.9863 85.4905 -9.02272 -0.4393 0.89818 0.0170043
-34.0503 85.4367 -7.62705 -0.433487 0.901123 0.00811407
-34.1586 85.3709 -6.2123 -0.44257 0.896681 0.00978126
-34.2412 85.3056 -4.45988 -0.445162 0.895405 0.00901711
-34.3323 85.2447 -2.92471 -0.438619 0.898621 0.00970392
-34.4382 85.178 -1.4738 -0.435786 0.899997 0.00980668
-34.5199 85.1139 0.331229 -0.438648 0.898578 0.0120603
-34.6178 85.0423 1.68861 -0.44695 0.894475 0.0122198
-34.7039 84.9856 3.34941 -0.445841 0.895095 0.00561292
-34.7988 84.9226 4.84627 -0.447956 0.893992 0.0106265
-34.8986 84.8573 6.32168 -0.445185 0.895345 0.0129303
-34.982 84.7958 7.79845 -0.447593 0.894198 0.00838131
-35.0504 84.7446 9.34635 -0.450324 0.892812 0.00976824
-35.0868 84.703 10.8719 -0.443006 0.896422 0.0131653
-35.1429 84.6524 12.2382 -0.447011 0.894404 0.0149505
-35.2323 84.5843 13.8241 -0.44757 0.89418 0.0111288
-35.2475 84.5729 14.1339 -0.447691 0.894118 0.011239
-34.4156 84.9754 14.924 -0.442178 0.896863 0.0107664
-34.3474 85.0322 13.2235 -0.440217 0.897819 0.0114055
-34.2477 85.1025 11.7398 -0.440594 0.89761 0.0131676
-34.1946 85.1504 10.3828 -0.4421 0.89685 0.0143987
-34.1467 85.1965 8.93864 -0.440583 0.897632 0.0119912
-34.0664 85.2533 7.38294 -0.435664 0.900073 0.00812303
-33.9646 85.3165 6.01803 -0.431562 0.902013 0.0112555
-33.8742 85.3826 4.55013 -0.435024 0.900363 0.0100914
-33.7721 85.4462 3.03145 -0.433298 0.90123 0.00611367
-33.6816 85.4992 1.6913 -0.431745 0.901908 0.0125525
-33.5858 85.5711 0.155677 -0.434942 0.900388 0.011239
-33.4851 85.636 -1.51379 -0.43319 0.901241 0.0105791
-33.3593 85.7151 -3.1092 -0.425564 0.904872 0.0100847
-33.2673 85.7779 -4.55969 -0.435238 0.900214 0.0135304
-33.1496 85.856 -6.14375 -0.432073 0.901776 0.0106273
-33.0474 85.9214 -7.80305 -0.433817 0.900904 0.0132478
-32.9762 85.9776 -9.40017 -0.425089 0.905048 0.013665
-32.9235 86.0291 -10.8771 -0.418001 0.90832 0.0151482
-31.8832 86.5125 -11.1574 -0.408132 0.912774 0.0164888
-31.9698 86.4462 -9.40853 -0.410935 0.911618 0.00924805
-32.0544 86.3884 -7.99472 -0.419923 0.907462 0.0132766
-32.126 86.3389 -6.51101 -0.41931 0.907688 0.0168047
-32.241 86.2628 -5.06655 -0.416948 0.908874 0.0101376
-32.3701 86.1843 -3.4237 -0.426146 0.904592 0.0106374
-32.4902 86.1101 -1.88922 -0.420695 0.907133 0.0112235
-32.5961 86.0503 -0.47874 -0.422527 0.906327 0.00648771
-32.7178 85.9674 1.22102 -0.430052 0.90265 0.0166685
-32.8171 85.9045 2.61664 -0.425404 0.904977 0.00691607
-32.921 85.845 3.99222 -0.428672 0.903426 0.0078752
-33.0151 85.7783 5.45079 -0.429656 0.902876 0.0145031
-33.1573 85.6922 7.16911 -0.426932 0.90426 0.00647507
-33.2467 85.6379 8.57101 -0.435902 0.899933 0.0104794
-33.3134 85.5825 10.0912 -0.426235 0.90457 0.00877727
-33.3727 85.5329 11.5001 -0.432736 0.901431 0.0127327
-33.4832 85.4581 12.9896 -0.439657 0.898054 0.0141799
-33.5494 85.4048 14.5697 -0.435282 0.900171 0.0148751
-33.5894 85.37 15.8175 -0.437592 0.899123 0.00953531
-32.7601 85.7644 16.3345 -0.43235 0.901667 0.00838236
-32.694 85.814 14.8565 -0.434748 0.900499 0.00980053
-32.6627 85.8513 13.4446 -0.424991 0.905118 0.0120049
-32.5347 85.9267 11.8522 -0.430301 0.902616 0.0112405
-32.4439 85.9872 10.2485 -0.419857 0.907545 0.00902059
-32.3442 86.0623 8.45421 -0.418728 0.908045 0.0110065
-32.2372 86.1279 6.74373 -0.415595 0.909489 0.0104843
-32.111 86.2041 5.35133 -0.417363 0.90869 0.00950275
-32.0086 86.2674 4.0232 -0.41281 0.910748 0.0111891
-31.8477 86.361 2.21971 -0.411109 0.911504 0.0122455
-31.7514 86.4302 0.663294 -0.409046 0.912501 0.00484614
-31.6044 86.508 -0.870338 -0.40895 0.912504 0.00985247
-31.4583 86.5937 -2.5606 -0.417523 0.908639 0.00702172
-31.3056 86.68 -4.28463 -0.414758 0.909886 0.00908867
-31.1993 86.7443 -5.61993 -0.41313 0.91061 0.0106155
-31.0875 86.8115 -6.99617 -0.40381 0.914794 0.00942373
-30.9889 86.8769 -8.71556 -0.403451 0.914919 0.0122989
-30.8688 86.9497 -10.3335 -0.399798 0.916549 0.00997801
-30.8082 86.9847 -11.1972 -0.401858 0.915604 0.0134059
-29.7278 87.4525 -11.2992 -0.394065 0.918949 0.015645
-29.8298 87.395 -9.93681 -0.397515 0.917552 0.00890806
-29.9351 87.3391 -8.61306 -0.391406 0.920166 0.00979649
-30.0478 87.2727 -7.21309 -0.399789 0.91657 0.00822111
-30.1741 87.2037 -5.83075 -0.402479 0.915386 0.00894286
-30.2971 87.1326 -4.42927 -0.400287 0.916295 0.0131627
-30.4323 87.0525 -2.9458 -0.402915 0.915172 0.010967
-30.6125 86.9547 -1.06119 -0.406718 0.9135 0.0098755
-30.7894 86.8616 0.512264 -0.395306 0.918471 0.0119917
-30.8979 86.7948 1.90226 -0.410741 0.911555 0.0189445
-31.0223 86.7192 3.3241 -0.407377 0.913212 0.00941528
-31.1948 86.6242 5.22392 -0.400494 0.916271 0.0071668
-31.3152 86.5539 6.56073 -0.417143 0.908733 0.0140398
-31.4402 86.4754 8.08767 -0.410883 0.911591 0.0133062
-31.5296 86.4207 9.47981 -0.407616 0.913066 0.0126374
-31.6306 86.3502 11.1551 -0.411487 0.911287 0.0153303
-31.7516 86.2769 13.1384 -0.414204 0.910161 0.00656628
-31.8218 86.2317 14.4955 -0.427553 0.903898 0.0128838
-31.9071 86.1734 16.2411 -0.423034 0.906068 0.00912011
-31.9201 86.1631 16.7117 -0.423968 0.905646 0.00750198
-31.0623 86.5558 17.0854 -0.416236 0.909218 0.00841709
-31.006 86.5952 15.3242 -0.410961 0.911628 0.00674341
-30.9191 86.6474 13.7362 -0.410668 0.911747 0.00830953
-30.8397 86.6971 12.1553 -0.406009 0.913829 0.00853738
-30.7382 86.7578 10.7188 -0.409143 0.912397 0.0115848
-30.6394 86.82 9.29865 -0.406335 0.913646 0.0119493
-30.5437 86.8776 7.94076 -0.402489 0.915386 0.00837839
-30.4243 86.9467 6.58205 -0.399159 0.916821 0.0105554
-30.2707 87.0285 5.18053 -0.40169 0.915729 0.0091959
-30.0957 87.1249 3.35272 -0.400365 0.916331 0.0067072
-29.9533 87.2043 1.84228 -0.391815 0.91999 0.00999844
-29.8076 87.2843 0.432097 -0.394457 0.918807 0.0140288
-29.6594 87.3672 -0.902351 -0.398788 0.916943 0.0135725
-29.5133 87.4435 -2.23728 -0.393641 0.919248 0.00548097
-29.3843 87.5167 -3.697 -0.395548 0.918422 0.0064771
-29.227 87.6034 -5.12339 -0.388786 0.921226 0.0137379
-29.0953 87.6766 -6.54162 -0.377793 0.925873 0.00556865
-28.9464 87.7509 -8.10584 -0.381765 0.924137 0.0150819
-28.7929 87.8286 -9.58024 -0.384629 0.923068 0.00261928
-28.6342 87.91 -11.2486 -0.378595 0.925518 0.0090885
-27.538 88.353 -11.3384 -0.359968 0.932922 0.0089147
-27.7064 88.2674 -9.84125 -0.369515 0.92917 0.0101093
-27.8668 88.1892 -8.35635 -0.357707 0.933778 0.0101985
-28.0285 88.1102 -6.93691 -0.359537 0.933043 0.0127987
-28.2076 88.0237 -5.30407 -0.362596 0.931903 0.00895334
-28.3908 87.9401 -3.76923 -0.354909 0.934848 0.00998
-28.5099 87.8735 -2.42732 -0.367718 0.929896 0.00878127
-28.6832 87.7831 -0.97184 -0.388797 0.921236 0.0126828
-28.8417 87.6922 0.362991 -0.38535 0.922663 0.014071
-29.0145 87.6042 1.8565 -0.38827 0.921511 0.00801983
-29.1789 87.5133 3.43744 -0.394071 0.918954 0.0152213
-29.3218 87.4359 4.87627 -0.386273 0.922313 0.0114649
-29.521 87.3325 6.64491 -0.384999 0.922869 0.00946998
-29.6667 87.2528 8.31898 -0.389795 0.920861 0.0087186
-29.7883 87.1883 9.81743 -0.392547 0.919687 0.00904625
-29.9048 87.1171 11.3754 -0.403375 0.914996 0.00838318
-30.0232 87.0496 13.1357 -0.400335 0.916315 0.00991966
-30.1041 87.0019 14.4902 -0.399844 0.916556 0.00700987
-30.1716 86.9606 16.0239 -0.402397 0.915423 0.00877503
-30.2061 86.9385 16.9691 -0.401456 0.915855 0.00658049
-29.3786 87.2971 17.2708 -0.393567 0.919289 0.0036759
-29.3163 87.333 15.8538 -0.396779 0.917851 0.0107877
-29.2451 87.3756 14.4325 -0.388428 0.921457 0.00641594
-29.1473 87.4223 12.9869 -0.386984 0.922085 0.00176358
-29.0315 87.4919 11.384 -0.392516 0.919677 0.011239
-28.8652 87.5844 9.54728 -0.379742 0.925045 0.00937301
-28.7221 87.6555 7.84541 -0.375736 0.926679 0.00940986
-28.5856 87.7246 6.42535 -0.379748 0.925035 0.010102
-28.3749 87.8311 4.66706 -0.378483 0.925546 0.0107756
-28.2325 87.914 3.27222 -0.374307 0.927248 0.0102422
-28.0136 88.0232 1.49927 -0.384121 0.923244 0.00848407
-27.8428 88.1025 0.0886335 -0.374415 0.927203 0.0103575
-27.6343 88.2085 -1.61691 -0.351799 0.936027 0.00950935
-27.4647 88.2825 -2.98898 -0.354555 0.934997 0.0085055
-27.2923 88.3629 -4.33465 -0.353652 0.935354 0.00659591
-27.1118 88.4458 -5.77555 -0.34798 0.937353 0.0167061
-26.9567 88.5246 -7.09558 -0.341763 0.939742 0.00913223
-26.748 88.6195 -8.90844 -0.328513 0.94442 0.0122416
-26.5293 88.7133 -10.5854 -0.337981 0.941137 0.00539287
-26.4935 88.7363 -11.1233 -0.340288 0.940151 0.0179035
-25.4434 89.0955 -10.3277 -0.316595 0.948456 0.0141233
-25.692 88.9834 -8.44529 -0.326928 0.945001 0.00959308
-25.9163 88.8919 -6.91393 -0.32919 0.944238 0.00693686
-26.1101 88.8045 -5.33898 -0.33124 0.943524 0.00649226
-26.2938 88.7316 -4.01942 -0.344003 0.938959 0.00415066
-26.5471 88.6233 -2.20504 -0.351851 0.936005 0.00973097
-26.7357 88.5379 -0.871177 -0.349889 0.936725 0.0111313
-26.9782 88.4436 0.802785 -0.340516 0.940232 0.00346356
-27.1392 88.3656 2.22216 -0.351469 0.935877 0.0245553
-27.3159 88.2709 3.58049 -0.360024 0.932767 0.0181321
-27.5255 88.1651 5.33067 -0.363609 0.931523 0.00734363
-27.6991 88.084 6.82955 -0.379742 0.925037 0.0101153
-27.8524 88.004 8.25715 -0.366879 0.930155 0.0145388
-28.0433 87.9056 10.144 -0.369092 0.929356 0.0082652
-28.1675 87.8454 11.5417 -0.368764 0.92951 0.00490019
-28.2862 87.7806 13.1048 -0.368893 0.929427 0.00919657
-28.4092 87.7217 14.9506 -0.37553 0.926784 0.00693924
-28.4993 87.6702 16.5796 -0.380731 0.924679 0.00358298
-28.5183 87.6627 17.0358 -0.380473 0.924792 -0.000568482
-27.6753 88.0095 16.985 -0.380037 0.924971 -9.79826e-05
-27.5966 88.0416 15.5603 -0.370457 0.928846 -0.00242809
-27.4742 88.0966 13.8193 -0.365436 0.930794 0.00888201
-27.3359 88.1642 12.0661 -0.357303 0.93397 0.00593791
-27.1777 88.2425 10.3093 -0.348144 0.93739 0.0098024
-27.0093 88.325 8.71557 -0.352328 0.935803 0.0117513
-26.8125 88.4225 6.99708 -0.354404 0.934984 0.0142665
-26.5999 88.5192 5.28932 -0.339116 0.940722 0.00650396
-26.4097 88.6016 3.91136 -0.34394 0.938912 0.0122649
-26.1955 88.7117 2.40195 -0.328594 0.944363 0.0143159
-26.0069 88.7938 0.984547 -0.337514 0.941271 -0.00963778
-25.7521 88.8935 -0.725265 -0.329504 0.943992 0.0175159
-25.4862 89.0067 -2.4444 -0.327692 0.944782 0.00228091
-25.2792 89.0866 -3.76546 -0.321485 0.946898 0.00562856
-25.0623 89.171 -5.15489 -0.331233 0.943526 0.00650086
-24.8502 89.2541 -6.54515 -0.317815 0.948124 0.00743118
-24.5934 89.3559 -8.12145 -0.325975 0.945296 0.0124329
-24.3882 89.4376 -9.77989 -0.299713 0.954009 0.00626229
-24.3418 89.4551 -10.0396 -0.303117 0.952885 0.0114111
-23.1485 89.8279 -10.1139 -0.269278 0.963012 0.00983556
-23.4077 89.7386 -8.70539 -0.299713 0.954009 0.00626229
-23.6312 89.6593 -7.2266 -0.310312 0.950591 0.00907898
-23.8588 89.5799 -5.87036 -0.302033 0.953273 0.00681254
-24.1289 89.4811 -4.36191 -0.318365 0.947926 0.00893313
-24.4048 89.3719 -2.6746 -0.308667 0.951161 0.00426195
-24.6554 89.2757 -1.20444 -0.314644 0.949167 0.00900659
-24.8791 89.1862 0.132597 -0.323731 0.946072 0.0121098
-25.1355 89.0861 1.75717 -0.320713 0.947166 0.00446995
-25.3469 88.9947 3.18474 -0.328849 0.944263 0.0150163
-25.5527 88.9004 4.52733 -0.322392 0.94649 0.0148471
-25.7696 88.8088 6.04961 -0.322185 0.946643 0.00802698
-25.9474 88.7321 7.43603 -0.339427 0.940487 0.0165436
-26.1374 88.64 8.98725 -0.339605 0.940521 0.00938759
-26.3227 88.5577 10.6626 -0.348149 0.937409 0.00753875
-26.4762 88.4881 12.1343 -0.346983 0.937818 0.0100422
-26.5843 88.4384 13.4917 -0.350637 0.936511 0.00120447
-26.6952 88.3955 14.8589 -0.354055 0.935224 -0.00104681
-26.8035 88.3537 16.4548 -0.359982 0.932958 0.00173264
-26.813 88.3504 16.6159 -0.361461 0.932367 -0.00618746
-25.9462 88.6791 16.3612 -0.348139 0.937428 -0.00530619
-25.8488 88.7116 14.9793 -0.341536 0.939853 -0.00545255
-25.72 88.7601 13.3321 -0.343927 0.938985 0.00471397
-25.5987 88.813 11.9832 -0.333604 0.94268 0.00794418
-25.4132 88.8815 10.4237 -0.326236 0.945289 -2.36028e-05
-25.2368 88.9657 9.00678 -0.332046 0.943217 0.00932994
-25.0282 89.0484 7.42847 -0.319228 0.947635 0.00902332
-24.7354 89.1686 5.38269 -0.316415 0.948543 0.0121654
-24.4912 89.2687 3.83748 -0.300194 0.953687 0.0191152
-24.2724 89.3673 2.47893 -0.304641 0.952285 0.0186524
-23.9686 89.4716 0.725267 -0.297843 0.954544 0.0115978
-23.6914 89.5734 -0.838932 -0.293552 0.955894 0.00970427
-23.4107 89.6773 -2.4325 -0.282153 0.959307 0.0109526
-23.163 89.7708 -3.79873 -0.290049 0.956913 0.0137095
-22.8906 89.8646 -5.25409 -0.289137 0.957255 0.00795604
-22.6504 89.9436 -6.6002 -0.271408 0.962441 0.00667114
-22.3885 90.0317 -7.92343 -0.253601 0.967283 0.00704475
-22.0153 90.1414 -9.63664 -0.261768 0.965064 0.0113417
-21.9993 90.1463 -9.71545 -0.252078 0.967653 0.0102141
-20.8507 90.4354 -9.4011 -0.218604 0.975799 0.00542071
-21.1598 90.3507 -8.08335 -0.247694 0.968832 0.00354393
-21.4826 90.2548 -6.64458 -0.247192 0.968798 0.0180865
-21.8225 90.1546 -5.05099 -0.252048 0.967684 0.0077279
-22.1398 90.053 -3.54875 -0.263767 0.964451 0.0161487
-22.4207 89.9621 -2.15796 -0.279074 0.960256 0.0050556
-22.6867 89.8746 -0.747067 -0.273496 0.961693 0.0186178
-22.9352 89.7895 0.590858 -0.264911 0.964148 0.0155085
-23.2277 89.6758 2.1387 -0.269924 0.962837 0.00928253
-23.4709 89.5968 3.47655 -0.267199 0.963554 0.0129615
-23.7097 89.508 4.83001 -0.302564 0.953129 0.000979324
-23.964 89.4105 6.44086 -0.305835 0.952019 0.0111723
-24.198 89.3256 8.04387 -0.292996 0.95609 0.00665455
-24.4177 89.2361 9.59855 -0.319585 0.947461 0.0135636
-24.6034 89.1581 11.0901 -0.312659 0.949865 -0.000978495
-24.7766 89.1037 12.4861 -0.337886 0.941187 -0.000159756
-24.941 89.0419 14.0484 -0.341402 0.939911 0.00348201
-25.0387 89.0053 15.5616 -0.335407 0.942035 -0.00845065
-25.0695 88.9984 16.0175 -0.334589 0.942335 -0.00741885
-24.2004 89.2975 15.6311 -0.315992 0.948713 -0.00960624
-24.0798 89.3349 14.1935 -0.317565 0.948114 0.015274
-23.924 89.3921 12.7344 -0.303694 0.952747 0.00651654
-23.7507 89.439 11.3176 -0.314354 0.949298 -0.00374
-23.4675 89.5469 9.241 -0.294878 0.955535 -0.000294225
-23.2077 89.638 7.53886 -0.299028 0.954137 0.0143341
-22.9658 89.7261 6.07643 -0.284888 0.958561 0.000708015
-22.6831 89.8135 4.46516 -0.276535 0.961002 0.00190334
-22.3061 89.9337 2.52602 -0.253761 0.967105 0.0176816
-21.9615 90.0465 0.810615 -0.257119 0.966343 0.00843108
-21.6301 90.1614 -0.83254 -0.248819 0.968482 0.0114937
-21.3587 90.2465 -2.15055 -0.252242 0.967589 0.012057
-21.0326 90.3476 -3.5879 -0.255987 0.966632 0.00964514
-20.6506 90.4506 -5.22079 -0.222472 0.97489 -0.00977528
-20.2759 90.5346 -6.58164 -0.208461 0.977812 0.0206753
-19.8316 90.642 -8.3632 -0.2032 0.979137 0.000303653
-19.6458 90.6952 -9.24776 -0.198068 0.980141 0.00967238
-18.3286 90.9383 -9.06964 -0.161501 0.986842 0.00776728
-18.7504 90.8586 -7.6761 -0.17752 0.984066 0.0100033
-19.1268 90.7755 -6.38792 -0.202667 0.979144 0.014275
-19.5377 90.6971 -5.02563 -0.185921 0.98256 -0.00313946
-19.9627 90.5993 -3.38982 -0.212859 0.976959 0.0155862
-20.3136 90.4947 -1.98846 -0.225365 0.974184 0.0132689
-20.6331 90.4119 -0.597774 -0.236583 0.971584 0.00724474
-20.9418 90.3173 0.820126 -0.240542 0.97055 0.0131173
-21.2965 90.2004 2.42384 -0.253049 0.967312 0.0165488
-21.5658 90.1223 3.76885 -0.257214 0.966354 -0.000524609
-21.8386 90.0465 5.1186 -0.262042 0.96501 0.00950051
-22.0853 89.981 6.44395 -0.270131 0.962822 -0.00168638
-22.3651 89.8861 8.068 -0.286085 0.957921 0.0232918
-22.5693 89.8211 9.37634 -0.287558 0.957737 0.0070445
-22.8209 89.726 11.0674 -0.291402 0.956592 0.00398224
-23.035 89.6636 12.615 -0.279503 0.96013 0.00540855
-23.2157 89.605 14.2832 -0.286073 0.958205 0.00216389
-23.2814 89.5888 14.8427 -0.291137 0.956547 -0.0160566
-22.4417 89.8452 14.8922 -0.291147 0.956544 -0.0160472
-22.2356 89.893 13.1579 -0.281282 0.959624 0.00184612
-22.0465 89.9419 11.8387 -0.252508 0.967545 -0.00981226
-21.8346 89.9921 10.5081 -0.248575 0.968573 0.00875252
-21.5807 90.0869 8.99939 -0.257303 0.966282 0.00974345
-21.3173 90.1722 7.49332 -0.240001 0.970749 0.00683744
-20.9707 90.2653 5.61803 -0.235314 0.971885 0.00815419
-20.5823 90.3736 3.74105 -0.223799 0.974635 -0.000236596
-20.1515 90.4913 1.86436 -0.221376 0.9749 0.023727
-19.8237 90.5932 0.426491 -0.223906 0.974592 0.00601705
-19.49 90.6674 -0.912391 -0.20549 0.978653 0.00351125
-19.1269 90.761 -2.2831 -0.200311 0.979633 0.0139417
-18.7652 90.8451 -3.60021 -0.193927 0.980976 0.00885088
-18.3602 90.9141 -5.02079 -0.159322 0.987226 0.000856625
-17.8743 91.0043 -6.51173 -0.177012 0.984149 0.0108657
-17.3783 91.0806 -8.06162 -0.138425 0.990362 0.00457409
-17.0499 91.1367 -9.07862 -0.139384 0.990174 0.0112983
-15.7467 91.2863 -8.8823 -0.0980928 0.995176 0.00146385
-16.2498 91.2312 -7.61474 -0.112459 0.993626 0.00783418
-16.7472 91.1713 -6.25497 -0.128037 0.991768 -0.00169224
-17.2275 91.0968 -4.86007 -0.159331 0.987225 0.000854205
-17.6797 91.0365 -3.50018 -0.140913 0.990016 -0.0033473
-18.091 90.9493 -2.07776 -0.165953 0.985992 0.0167302
-18.4802 90.8665 -0.67863 -0.169147 0.985508 0.0127666
-18.867 90.7838 0.795056 -0.183896 0.982945 -0.00117628
-19.2433 90.687 2.29686 -0.223898 0.974516 0.0136928
-19.5565 90.6077 3.6094 -0.192775 0.981192 0.0099987
-20.0004 90.5003 5.52945 -0.20629 0.978481 0.00434549
-20.2484 90.4346 6.83527 -0.228632 0.973441 0.0118139
-20.5393 90.3422 8.38555 -0.225778 0.974127 0.0100046
-20.8276 90.2586 9.87464 -0.2299 0.973092 0.015448
-21.1128 90.1843 11.6783 -0.25074 0.968048 -0.00363961
-21.3427 90.14 13.1505 -0.261566 0.965088 -0.0137021
-21.5001 90.109 14.4312 -0.276454 0.961014 -0.00502121
-20.5628 90.3423 13.7587 -0.240254 0.970649 -0.0108564
-20.3123 90.3761 12.0846 -0.223745 0.974501 -0.016904
-20.0997 90.4221 10.7742 -0.231749 0.972767 0.0041788
-19.8483 90.4934 9.44414 -0.203909 0.978962 0.00742768
-19.4714 90.5824 7.68803 -0.200668 0.979482 0.0186089
-19.1772 90.6749 6.3083 -0.197993 0.980197 -0.00364111
-18.8029 90.7522 4.65805 -0.187877 0.982169 0.00672463
-18.4444 90.8335 3.1499 -0.188626 0.981957 0.0134321
-18.0656 90.92 1.7184 -0.179968 0.983464 0.0202358
-17.6959 90.9908 0.349798 -0.160368 0.987057 -0.000530025
-17.2855 91.0563 -1.06918 -0.116764 0.99301 0.0172508
-16.8703 91.1324 -2.44824 -0.11526 0.993261 0.0121422
-16.4259 91.1873 -3.75904 -0.0910117 0.995724 0.0158061
-15.9306 91.2512 -5.13947 -0.102138 0.994521 0.0222828
-15.3412 91.3082 -6.73427 -0.0850738 0.996288 0.0131327
-14.8256 91.3597 -7.95909 -0.0708135 0.997488 0.00158657
-14.4024 91.3956 -8.90137 -0.0649004 0.997855 0.00859552
-12.9473 91.432 -9.04079 0.00428777 0.999951 0.00894211
-13.595 91.4158 -7.7447 -0.033834 0.999389 0.00879214
-14.2115 91.3915 -6.38335 -0.0515497 0.998657 0.00518725
-14.6847 91.3465 -5.14076 -0.0646112 0.997875 0.0084073
-15.2962 91.2742 -3.56094 -0.0803635 0.996643 0.0156589
-15.7912 91.2313 -2.18843 -0.082857 0.996561 0.000439201
-16.2318 91.1765 -0.856747 -0.119004 0.992856 0.00863008
-16.6539 91.1258 0.500403 -0.119361 0.99285 -0.00108837
-17.0713 91.0679 1.91165 -0.135587 0.99076 -0.00331703
-17.4549 91.0008 3.29586 -0.159222 0.987083 0.0177806
-17.803 90.9328 4.64049 -0.153562 0.988133 0.00352219
-18.1787 90.8551 6.18362 -0.154321 0.987861 0.0177543
-18.5784 90.7654 7.87527 -0.172693 0.984911 0.0112498
-18.8756 90.6952 9.2536 -0.189788 0.981751 0.0120582
-19.1705 90.6308 10.6691 -0.20393 0.978968 -0.00579187
-19.4907 90.5678 12.3743 -0.192012 0.981375 -0.00586585
-19.6805 90.5478 13.6103 -0.196916 0.980372 -0.00970865
-18.7666 90.7248 13.4731 -0.170276 0.985381 -0.00542337
-18.5041 90.7553 12.0003 -0.183521 0.982899 -0.0151739
-18.1421 90.8375 10.1901 -0.171288 0.985218 0.00251041
-17.8124 90.8961 8.655 -0.176174 0.984359 -0.0004196
-17.4657 90.9559 7.17224 -0.163733 0.986502 -0.00210573
-17.1051 91.0297 5.76854 -0.154087 0.98791 0.017047
-16.6531 91.1059 4.10113 -0.138387 0.990371 -0.00381728
-16.2131 91.1877 2.5746 -0.117996 0.992949 -0.0113509
-15.7934 91.22 1.2338 -0.10469 0.994498 0.0037707
-15.2282 91.2671 -0.468725 -0.0832945 0.996503 0.00659019
-14.7406 91.3095 -1.85244 -0.053928 0.998544 -0.00159036
-14.1409 91.3498 -3.43563 -0.0628936 0.997786 0.021605
-13.6491 91.3935 -4.66564 -0.0287069 0.999076 0.0319751
-13.0009 91.4114 -6.17409 0.00709405 0.999906 0.0117017
-12.3834 91.4256 -7.46087 0.0102245 0.999835 0.0149835
-11.5367 91.4115 -8.94193 0.0501885 0.998605 0.0163872
-11.2672 91.412 -9.4159 0.0369287 0.998511 0.0401384
-9.99431 91.3025 -9.26271 0.0984454 0.994968 0.0186301
-10.6933 91.3544 -8.08511 0.0881086 0.996018 0.0136077
-11.4937 91.3824 -6.59779 0.0500535 0.998655 0.013511
-12.142 91.3893 -5.24043 0.0428411 0.999025 0.0106611
-12.7258 91.3847 -3.94759 0.0192286 0.99978 0.00834177
-13.236 91.3663 -2.68539 -0.0266042 0.999561 0.0130737
-13.8029 91.3572 -1.22828 -0.0272579 0.999613 -0.00546643
-14.3121 91.3283 0.163652 -0.0530367 0.998592 0.00101587
-14.7902 91.3017 1.56551 -0.0604041 0.998159 -0.00554504
-15.2334 91.2718 2.86449 -0.0719528 0.997387 0.006458
-15.6679 91.2235 4.20228 -0.0933101 0.995496 0.0167855
-16.0991 91.1617 5.68421 -0.0994687 0.99504 -0.00147862
-16.501 91.0893 7.14299 -0.12595 0.991965 0.0119266
-16.8833 91.0249 8.62289 -0.124519 0.992156 0.0110484
-17.2162 90.9661 10.0908 -0.111726 0.993707 -0.00803903
-17.5398 90.9091 11.6408 -0.128608 0.991695 7.85196e-05
-17.8455 90.8713 13.0596 -0.151113 0.988253 -0.0228082
-16.9314 91.004 12.7538 -0.150732 0.988536 -0.00878739
-16.5658 91.0429 11.2091 -0.117987 0.992969 0.00955495
-16.2255 91.0866 9.7581 -0.122605 0.992155 0.0244103
-15.7594 91.1584 7.97343 -0.0989155 0.995042 0.010383
-15.3856 91.2238 6.63948 -0.0897769 0.99581 0.0174219
-14.9178 91.279 5.10665 -0.0887044 0.996038 0.00626922
-14.4885 91.3273 3.80148 -0.0459378 0.998812 0.0162309
-13.9115 91.3688 2.16556 -0.0688155 0.997625 -0.00304264
-13.4041 91.3757 0.762046 -0.0527312 0.998608 0.00126631
-12.8877 91.3823 -0.58374 -0.00282606 0.999949 0.00970989
-12.3231 91.3832 -1.98349 0.0107534 0.999935 -0.00376523
-11.7424 91.3669 -3.30624 0.0208755 0.999782 -0.000781403
-11.1818 91.3487 -4.50807 0.0372733 0.999303 0.00211968
-10.456 91.3102 -5.9751 0.0690822 0.997559 0.0101504
-9.79795 91.2702 -7.21941 0.0849325 0.996382 0.00305548
-8.92936 91.1809 -8.67072 0.12207 0.992466 0.0105089
-8.26858 91.1083 -9.73433 0.154589 0.987883 0.0137958
-6.043 90.688 -10.8112 0.216198 0.976101 0.0220362
-6.82309 90.8512 -9.74027 0.173835 0.984678 0.0138297
-7.55719 90.9812 -8.61576 0.157955 0.9874 0.00952202
-8.33005 91.092 -7.33649 0.138999 0.990232 0.0109329
-9.27065 91.2051 -5.74854 0.118524 0.992941 -0.00439143
-10.262 91.3004 -3.89092 0.0931761 0.99565 0.000401366
-11.0049 91.3452 -2.29477 0.0530053 0.998592 -0.0022633
-11.5801 91.3747 -0.964054 0.030419 0.999536 -0.00164397
-12.0992 91.3758 0.314522 -0.000819739 0.999999 0.00145587
-12.6981 91.3875 1.86996 0.0022211 0.99996 -0.00869649
-13.2379 91.3823 3.29331 -0.00760217 0.999808 0.0180627
-13.7079 91.3496 4.59025 -0.0468597 0.998737 0.0181134
-14.2938 91.3048 6.35847 -0.0528685 0.998564 0.00866852
-14.7809 91.251 7.96481 -0.0780713 0.996732 0.0207335
-15.1734 91.2011 9.36794 -0.0911774 0.99577 0.0113302
-15.5947 91.1423 10.915 -0.0930362 0.995647 0.00563742
-15.9821 91.1095 12.4631 -0.101133 0.994854 -0.00611495
-16.0669 91.1038 12.817 -0.101462 0.994749 -0.0133958
-15.1523 91.1871 12.6988 -0.0748013 0.997063 -0.0164661
-14.7899 91.2155 11.2713 -0.0925429 0.995695 0.00514576
-14.3057 91.2711 9.70309 -0.0845371 0.996366 0.0103763
-13.9006 91.3051 8.35633 -0.0347507 0.999293 0.0143446
-13.4898 91.3404 6.98363 -0.0272669 0.999604 0.0069815
-13.057 91.3489 5.71911 -0.0155881 0.999878 1.6711e-05
-12.5581 91.3675 4.35816 -0.000351755 0.999849 0.0173859
-12.029 91.3879 3.00943 0.0344449 0.999405 0.0016502
-11.5246 91.3677 1.72343 0.039511 0.999186 -0.00818602
-10.9496 91.33 0.305521 0.0537276 0.998486 0.0118002
-10.2775 91.2955 -1.24423 0.0849553 0.996383 0.00170593
-9.63308 91.236 -2.64321 0.103022 0.994679 0.000692693
-8.91137 91.1578 -4.03229 0.119086 0.992843 0.00896257
-7.95996 91.0384 -5.70974 0.139838 0.990172 -0.00226336
-7.25615 90.9254 -6.89155 0.149971 0.988678 -0.00499775
-6.51224 90.7822 -8.06493 0.189535 0.981874 0.000177368
-5.77552 90.6149 -9.22348 0.228608 0.973371 -0.0169299
-4.80144 90.3828 -10.5734 0.247421 0.968892 0.00553887
-3.79115 90.1362 -11.925 0.285593 0.95824 0.0145632
-3.35371 90.0154 -12.4921 0.284778 0.958463 0.015815
-0.87961 89.1694 -13.9169 0.359275 0.933077 0.0169871
-1.69437 89.4538 -12.9062 0.345851 0.938089 0.0193693
-2.5317 89.7344 -11.8027 0.314891 0.948991 0.0161347
-3.56505 90.0475 -10.4124 0.294368 0.955692 -0.00121761
-4.39905 90.2827 -9.22708 0.26653 0.963801 0.00707138
-5.29693 90.5168 -7.9075 0.246112 0.969083 -0.0175207
-6.10415 90.6997 -6.64443 0.205226 0.978647 0.0115062
-7.08859 90.8865 -4.97016 0.175175 0.984512 0.00705796
-7.91594 91.0119 -3.532 0.144964 0.989314 0.0156011
-8.53404 91.09 -2.32898 0.153314 0.988137 0.00900521
-9.15691 91.1824 -1.03808 0.123373 0.992356 0.00287755
-9.8403 91.2414 0.457682 0.0817968 0.996555 0.0136919
-10.5162 91.3268 2.0237 0.0927876 0.995541 -0.0170114
-11.056 91.3531 3.33012 0.0409006 0.999066 0.0139555
-11.6776 91.3401 4.85717 0.0249323 0.999125 0.0335829
-12.2767 91.347 6.46148 0.0184057 0.999821 -0.00436379
-12.9189 91.3369 8.26953 -0.0286632 0.999384 0.0202268
-13.3783 91.3049 9.76218 -0.0286667 0.999578 0.00479065
-13.7929 91.2845 11.0893 -0.046358 0.99892 0.00297693
-14.1841 91.2614 12.4186 -0.0661983 0.997806 -0.000194509
-14.2627 91.2544 12.7272 -0.0748012 0.997062 -0.0164726
-13.3348 91.2949 12.6916 -0.0357069 0.99923 -0.0162473
-12.9464 91.2997 11.4177 -0.00191153 0.9998 0.0198925
-12.4721 91.3257 9.88276 0.00428516 0.999888 0.0143576
-12.0411 91.3326 8.58832 0.0161708 0.999869 0.000470591
-11.4834 91.3224 7.10125 0.0344368 0.999397 0.00446663
-10.9802 91.2964 5.80083 0.0471447 0.998849 0.00888348
-10.4665 91.3015 4.53969 0.0469039 0.998795 0.0144694
-9.86437 91.2742 3.12464 0.101332 0.994837 0.00551358
-9.32358 91.2133 1.88257 0.0927873 0.995541 -0.0170138
-8.74618 91.1311 0.638206 0.114581 0.993412 0.00211663
-8.0928 91.0455 -0.747745 0.161404 0.986861 -0.00739449
-7.47258 90.9312 -2.00567 0.159017 0.987169 -0.0145488
-6.56679 90.7804 -3.64655 0.181298 0.98337 0.0106647
-5.69149 90.6171 -5.16649 0.213305 0.976711 -0.023148
-4.84435 90.4025 -6.59598 0.269548 0.96297 0.00569679
-4.10787 90.2022 -7.74709 0.282278 0.959299 -0.00803384
-3.34006 89.9793 -8.87666 0.292307 0.956323 0.0016471
-2.45243 89.6977 -10.1063 0.303992 0.952634 0.00877221
-1.55382 89.403 -11.3203 0.334826 0.942226 0.0101295
-0.65796 89.0677 -12.5117 0.35584 0.934541 0.00339891
0.179547 88.7421 -13.5966 0.372447 0.927929 0.0151868
1.15047 88.3518 -14.9026 0.39076 0.920455 0.00829282
1.19612 88.333 -14.9625 0.392876 0.9195 0.0129815
3.08646 87.503 -15.7989 0.426757 0.904332 0.00786191
2.31787 87.8431 -14.7563 0.408015 0.912946 0.00733352
1.35357 88.2534 -13.4694 0.385251 0.922804 0.00371381
0.46225 88.6244 -12.2602 0.377761 0.925897 -0.00323315
-0.485779 89.0006 -10.9941 0.371193 0.928554 0.00191589
-1.50888 89.3652 -9.59708 0.335194 0.94205 0.0136879
-2.51973 89.7234 -8.13766 0.300714 0.95371 -0.00288423
-3.26237 89.9536 -7.02939 0.295791 0.955252 0.000765876
-4.01831 90.1734 -5.83116 0.263408 0.964618 -0.0113618
-4.8241 90.412 -4.52449 0.257825 0.966074 -0.0150634
-5.49414 90.5588 -3.36207 0.234646 0.971969 0.0147423
-6.14741 90.6842 -2.18974 0.199228 0.979953 0.00102372
-6.81707 90.825 -0.903443 0.199842 0.979806 -0.0065695
-7.45664 90.9513 0.384957 0.159652 0.987116 -0.010645
-8.17751 91.064 1.87221 0.132121 0.991209 -0.00699979
-8.75476 91.1465 3.11597 0.121606 0.992577 -0.00167548
-9.34269 91.2135 4.49233 0.101333 0.994837 0.00552159
-9.9241 91.2487 5.78609 0.0461768 0.998591 0.0261452
-10.5557 91.2828 7.34575 0.0635918 0.997958 -0.00595688
-11.1073 91.3174 8.83154 0.0273046 0.999581 -0.00960816
-11.5728 91.319 10.0792 0.00469199 0.999869 0.0155148
-12.0481 91.2925 11.5701 0.0222487 0.999664 0.0132948
-12.3178 91.2931 12.3505 0.0151741 0.999875 -0.00445262
-11.4791 91.2832 12.6129 0.0258773 0.999626 -0.00889995
-10.9622 91.2797 11.0467 0.040066 0.999021 0.018774
-10.4443 91.2632 9.7172 0.0753455 0.997142 0.00548983
-9.96014 91.2376 8.45353 0.0895945 0.995957 0.00651636
-9.38759 91.1793 7.06151 0.104654 0.99446 0.00988508
-8.71217 91.1224 5.54257 0.146724 0.988929 0.0221583
-8.11019 91.0569 4.16098 0.139969 0.990147 0.00421323
-7.46297 90.9519 2.76856 0.162276 0.986677 -0.0116447
-6.77297 90.8381 1.37055 0.178807 0.983881 0.00261671
-6.17946 90.7141 0.188082 0.1928 0.981066 -0.0184008
-5.39962 90.5251 -1.32214 0.230162 0.973122 -0.00766339
-4.64098 90.3456 -2.67692 0.233073 0.972456 0.00236769
-3.93183 90.1651 -3.8747 0.269112 0.963108 -0.000767723
-3.22494 89.9504 -5.02679 0.290423 0.956885 -0.00512157
-2.37914 89.6803 -6.37139 0.295372 0.95538 -0.00214239
-1.66438 89.4391 -7.46475 0.337097 0.941429 -0.00877235
-0.835729 89.1325 -8.67913 0.333638 0.942668 -0.0079075
-0.0862068 88.8399 -9.74205 0.366152 0.930553 -0.00214193
0.726617 88.5177 -10.8522 0.375681 0.926733 -0.00550497
1.50568 88.192 -11.948 0.398638 0.917108 -0.000782886
2.51409 87.7502 -13.3212 0.407156 0.913359 -0.000288514
3.28465 87.4022 -14.3663 0.420487 0.907286 0.00476005
4.13936 87.0026 -15.5364 0.434536 0.900632 0.00643615
4.44875 86.8546 -15.9538 0.439775 0.898076 0.00755252
5.69932 86.2346 -15.9754 0.450789 0.89263 -0.000414865
4.7825 86.6858 -14.7218 0.43793 0.899009 0.0010127
3.92908 87.1016 -13.5505 0.430371 0.902652 0.000569996
3.1313 87.4777 -12.4416 0.417776 0.90855 0.000519137
2.31509 87.8424 -11.3135 0.401219 0.915982 -0.000903314
1.49894 88.2063 -10.1617 0.380765 0.924644 0.00718369
0.677515 88.5462 -8.97655 0.37289 0.927866 -0.0042707
-0.141587 88.8752 -7.80613 0.362005 0.932133 -0.00894043
-0.952836 89.1902 -6.63036 0.33858 0.940911 -0.00706997
-1.64767 89.4561 -5.48143 0.317834 0.948119 -0.00720359
-2.49337 89.7404 -4.17047 0.303088 0.95277 -0.0191603
-3.16868 89.9509 -3.04615 0.270651 0.962676 0.00138592
-3.84196 90.1338 -1.90416 0.264637 0.964317 0.00775558
