-27.6176 88.6787 17.2254 -0.376663 0.926278 -0.00341191
-28.8962 88.1424 17.4968 -0.39344 0.919321 0.00156521
-29.852 87.7257 17.5732 -0.404658 0.914428 -0.0031928
-31.045 87.1914 17.5606 -0.412143 0.911099 0.00371118
-31.9396 86.7799 17.2936 -0.424571 0.905369 0.00377323
-33.2463 86.1605 16.6724 -0.434787 0.900492 0.00577447
-34.0855 85.7524 16.1487 -0.442696 0.896641 0.00737366
-35.0129 85.2969 15.4806 -0.446601 0.894711 0.00629071
-35.8213 84.9014 14.5089 -0.451998 0.891966 0.00976434
-36.4275 84.6063 13.5963 -0.452642 0.891576 0.0140728
-36.9723 84.3391 12.7729 -0.454694 0.890556 0.012721
-37.5302 84.0658 11.5775 -0.458937 0.888384 0.0121468
-37.9178 83.879 10.5639 -0.460813 0.887447 0.00947406
-38.2654 83.7121 9.15417 -0.463807 0.885885 0.00951211
-38.5078 83.5964 8.17108 -0.464159 0.88569 0.0104636
-38.7482 83.4829 7.12363 -0.464269 0.885631 0.0106287
-38.944 83.392 5.96493 -0.466947 0.884226 0.0101914
-39.0642 83.3379 4.64328 -0.473343 0.880861 0.00529366
-39.1538 83.298 3.33429 -0.472894 0.881098 0.00603396
-39.0867 83.3439 2.19406 -0.476068 0.879369 0.00816101
-38.9406 83.4326 0.973468 -0.476995 0.878881 0.00659336
-38.7347 83.5549 -0.375516 -0.473886 0.880562 0.0064824
-38.6223 83.6289 -1.51938 -0.471733 0.881682 0.010079
-38.3862 83.7727 -2.88982 -0.469178 0.883 0.0135484
-38.2107 83.8846 -4.03994 -0.467758 0.883694 0.0169502
-37.9369 84.0489 -5.01553 -0.465257 0.885019 0.0163711
-37.6924 84.1946 -5.99473 -0.46369 0.885822 0.0176585
-37.2004 84.4655 -6.86601 -0.457871 0.888904 0.014306
-36.6444 84.7694 -8.05633 -0.452975 0.891329 0.0186156
-35.8863 85.1723 -9.20762 -0.445157 0.895285 0.0171519
-35.0622 85.5973 -10.0083 -0.440776 0.897448 0.017419
-34.1796 86.0464 -10.8419 -0.434357 0.900572 0.015977
-33.2608 86.491 -11.1356 -0.430567 0.902342 0.0197941
-32.3373 86.9308 -11.533 -0.421451 0.90665 0.0189594
-31.3533 87.3806 -11.7081 -0.406693 0.913397 0.0175313
-30.3492 87.8261 -11.6323 -0.399317 0.916686 0.0148924
-29.2988 88.2722 -11.64 -0.381219 0.924306 0.0181903
-28.3772 88.6383 -11.4325 -0.369181 0.929296 0.0106875
-27.1684 89.1068 -11.3005 -0.352676 0.935707 0.00846583
-26.1116 89.4932 -11.0594 -0.333059 0.942798 0.013773
-24.9503 89.886 -10.8269 -0.317142 0.948217 0.0174998
-23.9648 90.2061 -10.6201 -0.309732 0.950694 0.0157143
-23.6488 90.3198 -11.5528 -0.298868 0.954088 0.0198595
-24.7885 89.9585 -11.8417 -0.314722 0.948826 0.0260396
-25.9991 89.5549 -12.0328 -0.326574 0.944541 0.0345336
-27.2879 89.0862 -12.2922 -0.35557 0.934223 0.0281603
-28.225 88.7241 -12.3802 -0.370364 0.92841 0.029768
-29.2662 88.3098 -12.6971 -0.38461 0.922877 0.0192631
-30.5478 87.763 -12.7042 -0.395553 0.918213 0.020577
-31.5781 87.3017 -12.7364 -0.409405 0.91205 0.0235103
-32.5559 86.8529 -12.51 -0.413386 0.910347 0.0195204
-33.7291 86.2883 -12.0557 -0.430549 0.902285 0.0225561
-34.8728 85.7211 -11.5242 -0.444457 0.895502 0.0229469
-35.7362 85.2784 -10.6491 -0.442607 0.896553 0.0170484
-36.5317 84.8676 -9.95182 -0.44647 0.89458 0.0197675
-37.1209 84.5472 -9.13674 -0.455291 0.890052 0.0221421
-37.6594 84.2546 -8.29503 -0.46103 0.88713 0.0212523
-38.2535 83.9178 -7.12838 -0.462875 0.886254 0.0166055
-38.7041 83.6659 -6.18654 -0.468078 0.883522 0.0167049
-38.8577 83.5596 -4.94795 -0.471459 0.881721 0.0171436
-39.1277 83.3955 -3.98131 -0.472318 0.881259 0.0172854
-39.326 83.2677 -2.76107 -0.474053 0.880404 0.0127652
-39.5149 83.1491 -1.76374 -0.476196 0.879205 0.0153445
-39.6203 83.0731 -0.243563 -0.481412 0.876439 0.00943162
-39.8119 82.9592 0.850767 -0.481262 0.876557 0.00557847
-39.9354 82.883 2.04497 -0.478786 0.877901 0.00730917
-40.004 82.8399 3.04467 -0.476967 0.878908 0.00473254
-39.9635 82.8551 4.30532 -0.474208 0.880396 0.00539922
-39.9097 82.8787 5.45255 -0.473342 0.880861 0.00529249
-39.7529 82.9565 6.605 -0.473038 0.881003 0.00780106
-39.5222 83.0642 7.85641 -0.469568 0.882833 0.010552
-39.2092 83.2183 8.87009 -0.470288 0.882449 0.0106289
-38.9738 83.3284 10.0598 -0.468028 0.883642 0.0112844
-38.5481 83.5374 11.3547 -0.466078 0.88466 0.0121188
-37.941 83.8357 12.8267 -0.462045 0.886782 0.0113731
-37.3892 84.109 13.8879 -0.457337 0.889219 0.0113528
-36.5487 84.5229 15.1616 -0.454177 0.890827 0.01223
-35.8383 84.8787 16.0163 -0.452838 0.891565 0.00668136
-34.9993 85.2941 16.795 -0.44705 0.894484 0.00672801
-34.1202 85.7268 17.2607 -0.441485 0.897235 0.00757503
-33.3007 86.1259 17.8494 -0.438014 0.898954 0.00427519
-32.304 86.6039 18.2408 -0.429085 0.903261 0.00239984
-31.2744 87.0844 18.5714 -0.41381 0.91036 0.0024656
-30.3142 87.5201 18.6512 -0.411873 0.911237 -0.00276265
-29.3578 87.9437 18.5583 -0.39964 0.916646 -0.00601887
-27.994 88.5249 18.3365 -0.384284 0.923137 -0.0119844
-26.885 88.9755 18.0856 -0.370292 0.928869 -0.0093208
-25.5172 89.4956 17.5235 -0.346462 0.937932 -0.013067
-24.3455 89.9095 17.0813 -0.32851 0.944357 -0.0145499
-23.4072 90.2198 16.5355 -0.32198 0.946661 -0.0125891
-22.3665 90.5296 16.0743 -0.284858 0.958269 -0.0240185
-21.4333 90.7818 15.7407 -0.25488 0.966345 -0.0337561
-20.3624 91.0466 15.3205 -0.251897 0.967405 -0.0259928
-19.1614 91.3057 14.9877 -0.19643 0.980003 -0.0254589
-17.8018 91.5427 14.6584 -0.164097 0.986092 -0.0225242
-16.634 91.6971 14.2171 -0.13023 0.990725 -0.038776
-15.2146 91.8492 14.1684 -0.104236 0.994067 -0.0310748
-13.7865 91.9354 14.0619 -0.0404295 0.998728 -0.0247283
-12.4235 91.9683 14.041 -0.0207148 0.999607 -0.0180298
-11.2689 91.9548 13.9953 0.0365821 0.999321 -0.00441815
-10.1976 91.8774 13.9854 0.0819772 0.996461 -0.018593
-8.95525 91.768 13.9274 0.0918827 0.995679 -0.0134827
-7.67777 91.5998 13.8654 0.150243 0.988225 -0.0213532
-6.55769 91.4087 13.8764 0.182263 0.982956 -0.0148667
-5.41542 91.1706 13.8371 0.204065 0.978864 -0.0134873
-4.39239 90.9387 13.7782 0.26406 0.964235 -0.0211774
-3.02204 90.558 13.9943 0.273738 0.961617 -0.0181924
-1.96778 90.2335 14.1886 0.313712 0.949395 -0.0152732
-0.995797 89.9065 14.4551 0.335571 0.941893 -0.0151286
0.162815 89.4925 14.7385 0.350735 0.93622 -0.0218646
1.26626 89.0638 15.0163 0.371912 0.928056 -0.0188757
2.20295 88.6867 15.3586 0.378035 0.925682 -0.0142368
3.30537 88.2222 15.673 0.401925 0.915637 -0.0080432
4.47527 87.7087 16.1026 0.41034 0.911878 -0.00831437
5.62861 87.1672 16.2315 0.429451 0.903031 -0.00922764
6.91235 86.543 16.184 0.438109 0.898875 -0.00920154
8.08016 85.9581 15.9456 0.449826 0.893097 -0.00511299
9.03454 85.4706 15.6031 0.458017 0.888906 -0.0081756
9.86617 85.0391 15.031 0.459664 0.888072 -0.00456575
10.6369 84.6314 14.023 0.462429 0.886653 -0.002298
11.1918 84.3359 13.1145 0.465994 0.884783 -0.00297755
11.5687 84.1302 11.8974 0.471022 0.882097 -0.00640282
12.1021 83.8365 10.8606 0.472694 0.881184 -0.00833764
12.6079 83.5481 9.48506 0.475603 0.879607 -0.00950227
13.0393 83.2999 8.42884 0.479886 0.877264 -0.0108323
13.3369 83.1188 7.22446 0.482872 0.87561 -0.0118901
13.6014 82.9544 6.05026 0.48586 0.873931 -0.0135812
13.6509 82.9099 4.99282 0.485706 0.873995 -0.0148757
13.7719 82.8251 3.87659 0.489665 0.871791 -0.0144261
13.978 82.6897 2.67242 0.490739 0.871175 -0.0150493
13.9295 82.6941 1.42587 0.492409 0.870204 -0.0166281
13.921 82.6791 0.238264 0.495299 0.868587 -0.0152687
13.9308 82.6497 -0.983496 0.495621 0.868376 -0.0167389
13.8304 82.6839 -2.11799 0.496507 0.867858 -0.0174115
13.6698 82.7554 -3.2044 0.494824 0.868841 -0.0162217
13.6189 82.7622 -4.53404 0.496047 0.868194 -0.0133157
13.4371 82.847 -5.63392 0.494413 0.869062 -0.0169484
13.1487 82.987 -6.85518 0.493638 0.869494 -0.0173948
12.8731 83.1208 -8.01 0.493774 0.869448 -0.0157571
12.5455 83.2892 -8.9808 0.493423 0.869653 -0.0153884
12.2077 83.4561 -10.3833 0.491891 0.870539 -0.0143423
11.5755 83.7936 -11.3202 0.486484 0.87355 -0.015627
10.9722 84.1123 -12.26 0.482191 0.875934 -0.0152308
10.543 84.332 -13.2612 0.482871 0.875576 -0.0142011
9.93132 84.6547 -14.2335 0.481209 0.876538 -0.0108482
9.19846 85.0473 -15.1399 0.478334 0.878111 -0.0101599
8.43644 85.4514 -15.8759 0.477002 0.878887 -0.00524433
7.65548 85.8692 -16.4828 0.470216 0.882551 -0.00121303
6.7035 86.3723 -16.8232 0.470026 0.882637 0.00518032
5.81752 86.8359 -16.9832 0.453311 0.891312 0.00592488
4.92191 87.2854 -16.9742 0.447321 0.89434 0.00778586
3.98257 87.7442 -16.822 0.430568 0.902429 0.0152392
2.79076 88.3049 -16.5648 0.420221 0.907299 0.0149353
1.87645 88.7141 -16.2416 0.406881 0.913111 0.0260022
0.965938 89.104 -15.9019 0.398632 0.916658 0.028827
0.0372049 89.4863 -15.4248 0.375624 0.926423 0.0235624
-1.09936 89.9267 -14.9102 0.360498 0.932331 0.0282896
-1.91392 90.2226 -14.343 0.336965 0.941104 0.0278905
-3.36207 90.691 -13.4734 0.30912 0.950402 0.034365
-4.6568 91.0467 -12.6506 0.260025 0.964945 0.0356067
-5.66206 91.2905 -12.1718 0.227723 0.97319 0.0323167
-6.6249 91.4849 -11.7647 0.19314 0.980731 0.029383
-7.62965 91.6605 -11.3988 0.175759 0.983479 0.0433396
-8.70704 91.8196 -11.0799 0.148236 0.988232 0.0377411
-9.74981 91.9398 -10.8348 0.0981571 0.994583 0.0276491
-10.8346 92.0167 -10.6142 0.0544285 0.997833 0.0296174
-12.2056 92.0496 -10.3698 0.0146852 0.99961 0.0235358
-13.2633 92.0584 -10.1734 -0.00276733 0.999634 0.0222525
-14.4306 92.0193 -10.1453 -0.055724 0.998273 0.00543353
-15.9648 91.8934 -10.058 -0.0998055 0.994734 0.0232911
-16.9855 91.7753 -10.0977 -0.124325 0.992089 0.0173974
-18.1083 91.6171 -10.2588 -0.161166 0.986594 0.0252148
-19.4618 91.3696 -10.2184 -0.190773 0.981119 0.0318119
-20.8347 91.0698 -10.7798 -0.230768 0.972977 0.00782268
-22.1894 90.7277 -11.1722 -0.261888 0.964711 0.0273217
-23.1788 90.4639 -11.4039 -0.284099 0.958508 0.0175324
-23.47 90.3746 -11.4956 -0.298868 0.954088 0.0198595
-23.0914 90.5083 -12.4114 -0.276734 0.960534 0.027352
-21.9202 90.826 -12.1596 -0.252312 0.967373 0.0228787
-20.7285 91.1145 -11.7947 -0.231316 0.972658 0.0207236
-19.7004 91.3546 -11.3569 -0.224416 0.973727 0.0349602
-18.7108 91.5455 -11.2918 -0.161463 0.986338 0.0326562
-17.3704 91.7616 -11.1208 -0.145838 0.9879 0.0479396
-16.1678 91.9021 -11.057 -0.104529 0.993512 0.0447967
-14.8953 92.0191 -11.1795 -0.0762939 0.996277 0.0401482
-13.8769 92.0628 -11.16 -0.0404722 0.998472 0.0367408
-12.338 92.0939 -11.3623 0.0130764 0.99828 0.0571429
-11.3608 92.0717 -11.5841 0.0431802 0.997932 0.0476077
-10.2499 92.0139 -11.7665 0.0756854 0.9956 0.0548414
-9.22927 91.9264 -11.9977 0.126074 0.989861 0.0654285
-8.21552 91.8048 -12.3052 0.161223 0.984869 0.0632837
-7.13237 91.6311 -12.6408 0.192884 0.979339 0.0607505
-6.15965 91.4499 -13.056 0.242461 0.96915 0.0442888
-5.06107 91.2053 -13.5564 0.268868 0.960364 0.0731177
-4.24915 91.015 -14.1103 0.311066 0.948666 0.057188
-3.24099 90.7189 -14.6751 0.312096 0.948132 0.0603469
-2.31892 90.4054 -15.3329 0.345512 0.937732 0.0357846
-1.52021 90.1225 -15.8434 0.359988 0.931786 0.0467305
-0.124118 89.5868 -16.4211 0.37277 0.927157 0.0372908
0.98678 89.1296 -16.9918 0.403035 0.914603 0.0325373
1.91964 88.727 -17.3041 0.414715 0.909357 0.0320483
3.22367 88.1266 -17.7015 0.431958 0.901582 0.023501
4.35826 87.5778 -17.9019 0.448533 0.893575 0.0182414
5.36715 87.0757 -18.005 0.451478 0.892149 0.0144312
6.27837 86.6069 -17.9384 0.457142 0.889286 0.0138325
7.15212 86.1433 -17.7638 0.468682 0.883244 0.0147319
8.06251 85.6434 -17.3949 0.4791 0.877714 -0.00904905
8.79538 85.2504 -16.8255 0.476045 0.879386 -0.00757919
9.54224 84.85 -16.0777 0.478733 0.877945 -0.00452534
10.255 84.4651 -15.3686 0.480322 0.87706 -0.00753693
10.8159 84.1641 -14.5617 0.482681 0.875738 -0.0101016
11.5499 83.772 -13.4693 0.485674 0.874048 -0.0126779
12.1016 83.4801 -12.5383 0.485985 0.873837 -0.0150724
12.6176 83.2069 -11.5059 0.493291 0.869763 -0.0128449
13.1028 82.9491 -10.3581 0.495922 0.868221 -0.0159191
13.378 82.811 -9.3498 0.493615 0.869541 -0.0155619
13.7383 82.6259 -8.22817 0.494035 0.869314 -0.0149415
13.9828 82.5062 -7.12087 0.495924 0.8682 -0.0169929
14.2375 82.3835 -6.03486 0.49489 0.868786 -0.0171608
14.53 82.243 -4.60041 0.491446 0.870834 -0.0113408
14.5606 82.2393 -3.55222 0.49685 0.867723 -0.0140308
14.6484 82.2089 -2.43794 0.500395 0.865663 -0.015255
14.7823 82.1599 -1.04356 0.498684 0.866594 -0.0181245
14.8001 82.1767 0.247325 0.497157 0.86749 -0.0171732
14.8288 82.1853 1.49908 0.494618 0.868944 -0.0169883
14.8073 82.2259 2.87117 0.490135 0.871492 -0.0163928
14.6803 82.3163 3.89276 0.488286 0.872556 -0.0149472
14.5654 82.3995 4.9718 0.488286 0.872537 -0.015964
14.431 82.4996 6.35514 0.48636 0.873625 -0.0151066
14.1942 82.6488 7.41736 0.482638 0.875695 -0.0147691
13.9576 82.7957 8.45886 0.48227 0.875911 -0.0139529
13.5391 83.0456 9.64692 0.477908 0.878283 -0.0149031
13.2755 83.2033 10.7832 0.474381 0.880267 -0.00963653
12.4996 83.6337 11.9701 0.472692 0.881186 -0.00833557
12.1914 83.8047 13.0579 0.469807 0.882759 -0.00427178
11.6116 84.1199 14.2459 0.467994 0.883706 -0.00590531
11.0073 84.4432 15.1337 0.463447 0.886108 -0.00539098
10.0822 84.9391 16.1495 0.459543 0.888039 -0.0130752
9.20647 85.3933 16.7134 0.454351 0.89073 -0.0128042
8.27954 85.8677 16.9469 0.453524 0.891187 -0.0100965
7.33083 86.3498 17.2963 0.442645 0.896622 -0.010475
6.19655 86.9063 17.3344 0.437136 0.899186 -0.0183525
4.94877 87.5007 17.218 0.433648 0.900772 -0.0232655
3.95051 87.9597 16.9609 0.407573 0.912944 -0.0204144
2.88436 88.4273 16.558 0.408492 0.912303 -0.0289253
1.76927 88.8915 16.2644 0.382133 0.923326 -0.0379917
0.812938 89.27 15.8736 0.381574 0.923123 -0.0473907
-0.433109 89.7312 15.6314 0.341072 0.938992 -0.0443254
-1.41095 90.068 15.317 0.325389 0.944205 -0.0509288
-2.48009 90.4166 15.1465 0.274769 0.960294 -0.048356
-3.44866 90.7051 15.036 0.283147 0.958852 -0.0189796
-4.55321 91.0117 14.812 0.270025 0.962406 -0.0293552
-5.60916 91.2419 14.9018 0.20443 0.978326 -0.0329381
-6.69603 91.4662 14.7911 0.184277 0.981867 -0.0387319
-7.72355 91.6355 14.8601 0.140035 0.989362 -0.0372585
-8.82745 91.7788 14.9194 0.109315 0.992956 -0.0424548
-10.1222 91.893 14.9657 0.0737212 0.99673 -0.0330568
-11.2326 91.9692 14.9545 0.0349894 0.998878 -0.025908
-12.7721 91.9981 15.013 -0.00507615 0.998737 -0.0423352
-13.788 91.9749 15.1059 -0.045092 0.997306 -0.0531376
-15.5042 91.8592 15.1613 -0.0887321 0.994456 -0.0525733
-16.489 91.7574 15.2477 -0.15034 0.987722 -0.0424258
-18.1014 91.5315 15.7156 -0.164745 0.984892 -0.0508995
-19.3502 91.2975 16.0217 -0.213805 0.976298 -0.0335835
-20.4817 91.0539 16.4585 -0.251502 0.966693 -0.0474532
-21.4766 90.8076 16.8769 -0.261899 0.964487 -0.0342678
-22.6582 90.4842 17.2668 -0.288831 0.956539 -0.0401179
-23.4935 90.2131 17.7772 -0.324185 0.945803 -0.0189703
-24.8676 89.7496 18.3117 -0.345942 0.937751 -0.0307642
-25.8002 89.4115 18.6834 -0.363857 0.931056 -0.0272641
-26.8001 89.0284 19.1437 -0.368245 0.929463 -0.022031
-27.7944 88.6275 19.3087 -0.383433 0.923382 -0.0172277
-28.8883 88.1601 19.5295 -0.401031 0.916001 -0.0107097
-29.8588 87.7354 19.5901 -0.407521 0.913076 -0.0126759
-31.1236 87.1583 19.6189 -0.416041 0.909304 -0.00845962
-32.302 86.6023 19.2537 -0.431662 0.901987 -0.00497326
-33.4257 86.0634 18.9619 -0.4359 0.899989 -0.00347806
-34.2228 85.6701 18.4566 -0.4435 0.896264 0.00426613
-35.0092 85.2817 17.9767 -0.445443 0.895305 0.00311166
-35.7986 84.8883 17.4438 -0.44911 0.893468 0.00388801
-36.5762 84.4969 16.6682 -0.456713 0.889574 0.00846663
-37.3134 84.1281 15.7522 -0.454196 0.890867 0.00786484
-38.0086 83.7799 14.7193 -0.459995 0.887862 0.0103087
-38.5147 83.529 13.6292 -0.460818 0.887453 0.00864375
-39.0362 83.2626 12.6193 -0.467282 0.884047 0.010183
-39.4025 83.0829 11.5898 -0.468933 0.883161 0.0112107
-39.7404 82.9152 10.5987 -0.470452 0.882362 0.0105531
-39.9917 82.7932 9.54012 -0.471636 0.881749 0.00876074
-40.3957 82.5941 8.14941 -0.473492 0.880729 0.0110091
-40.6104 82.4902 7.1847 -0.472126 0.881476 0.00984429
-40.8271 82.3841 5.44452 -0.474642 0.88017 0.00404243
-40.8707 82.3637 4.34452 -0.477762 0.878483 0.000842496
-40.7849 82.4164 2.71943 -0.479616 0.877475 0.00247993
-40.8124 82.4077 1.46374 -0.480685 0.876878 0.00517687
-40.66 82.496 0.447317 -0.484041 0.875035 0.00427771
-40.4941 82.5976 -0.58515 -0.485911 0.87395 0.010094
-40.3736 82.6894 -2.09994 -0.479498 0.877376 0.0168249
-40.1818 82.8133 -3.23326 -0.47724 0.878624 0.0161703
-39.8293 83.0335 -4.75084 -0.475717 0.879426 0.0173945
-39.5776 83.2083 -6.57719 -0.474999 0.879759 0.0200002
-39.0265 83.5242 -7.73553 -0.467462 0.883803 0.0192921
-38.2775 83.9488 -9.00057 -0.465629 0.884271 0.0337723
-37.783 84.2342 -9.87512 -0.447808 0.893555 0.0320605
-37.1437 84.5805 -10.7644 -0.44861 0.893515 0.0194762
-36.4671 84.9313 -11.4155 -0.443977 0.895881 0.0167831
-35.7095 85.3118 -12.0816 -0.446998 0.894409 0.0112062
-34.8781 85.7431 -12.7452 -0.444006 0.895875 0.0163272
-33.4867 86.4391 -13.2673 -0.42748 0.903566 0.0287897
-32.5111 86.8998 -13.5786 -0.415949 0.909107 0.0226
-31.2981 87.4557 -13.7599 -0.409673 0.911442 0.0379637
-30.2774 87.9077 -13.7565 -0.400661 0.915712 0.0307011
-29.1363 88.3894 -13.7214 -0.381016 0.924174 0.0270144
-28.1378 88.7894 -13.4175 -0.373362 0.927253 0.0283291
-26.6314 89.3576 -13.2491 -0.347202 0.937469 0.0245677
-25.6453 89.7118 -13.0177 -0.335767 0.941425 0.0303714
-24.7019 90.0187 -12.8377 -0.306199 0.951337 0.0334945
-23.6402 90.3458 -12.5907 -0.300836 0.953309 0.0264711
-23.3574 90.4324 -12.4976 -0.29084 0.956403 0.0243107
11.0351 84.1295 -9.39842 0.484199 0.87479 -0.0171571
10.3582 84.4838 -10.4389 0.479719 0.87723 -0.0183523
9.67054 84.839 -11.5294 0.477705 0.878378 -0.0157861
9.01177 85.1809 -12.565 0.478138 0.878199 -0.0122592
8.3189 85.5421 -13.6171 0.472592 0.881244 -0.00815858
7.77678 85.8202 -14.4444 0.465824 0.884841 -0.00802654
6.06861 86.7027 -15.3519 0.452995 0.891513 0.00076258
6.87374 86.297 -14.1314 0.453708 0.891123 -0.00705613
7.65201 85.9037 -12.9308 0.462065 0.886763 -0.0121441
8.38928 85.5265 -11.8185 0.467248 0.884045 -0.0119616
9.05189 85.188 -10.7554 0.475834 0.879374 -0.0168293
9.79655 84.8076 -9.56696 0.476172 0.879187 -0.0170193
10.4832 84.4543 -8.525 0.482001 0.875939 -0.0201493
11.2543 84.0489 -7.3753 0.493414 0.869626 -0.0171282
11.8199 83.7455 -6.52158 0.489466 0.871868 -0.0164109
12.3392 83.4973 -3.9752 0.49113 0.870975 -0.0139249
11.679 83.8509 -5.00232 0.48682 0.873412 -0.0125929
10.9625 84.2307 -6.09361 0.481665 0.876257 -0.0131763
10.2238 84.6236 -7.23385 0.477301 0.878664 -0.0115518
9.47833 85.0045 -8.32779 0.473613 0.880594 -0.0156516
8.71923 85.3869 -9.52531 0.4685 0.883317 -0.0160769
7.89457 85.8035 -10.8281 0.464748 0.885364 -0.0118014
7.13079 86.1852 -12.0128 0.458141 0.888769 -0.0140399
6.44065 86.5258 -13.0936 0.44663 0.89469 -0.00724544
5.72627 86.8763 -14.1818 0.447333 0.89435 -0.00560208
5.00797 87.2319 -15.2962 0.442298 0.896862 0.00321613
4.96102 87.2557 -15.37 0.443312 0.896344 0.00641669
4.09916 87.6762 -15.0122 0.429764 0.902941 -1.53972e-05
4.79893 87.338 -13.9207 0.44081 0.897576 -0.00665538
5.51687 86.9899 -12.7978 0.445825 0.895095 -0.00667052
6.33866 86.5943 -11.5138 0.446441 0.894734 -0.0119179
7.13584 86.209 -10.2815 0.458283 0.888709 -0.0131674
7.94781 85.8037 -8.99026 0.461561 0.886999 -0.0139252
8.63937 85.4559 -7.89111 0.464906 0.88521 -0.0162929
9.51605 85.0157 -6.57914 0.466949 0.884199 -0.0122573
10.4433 84.5324 -5.13337 0.478096 0.878163 -0.0159458
11.1408 84.1671 -4.07602 0.482803 0.875598 -0.0151355
12.0543 83.6808 -2.66383 0.490837 0.871089 -0.0168289
12.5321 83.4258 -1.93115 0.492411 0.870196 -0.0170389
12.5581 83.4417 -0.172723 0.487681 0.872913 -0.0137965
11.8581 83.8162 -1.21772 0.486361 0.873681 -0.0116208
11.1103 84.2146 -2.36588 0.483929 0.875 -0.0137249
10.2148 84.6806 -3.70838 0.471535 0.881717 -0.015168
9.37079 85.1114 -5.04899 0.471 0.882025 -0.0138243
8.47897 85.5643 -6.41678 0.465691 0.8849 -0.00918695
7.58433 86.0115 -7.78973 0.454012 0.890909 -0.0124374
6.77744 86.4021 -9.08804 0.448766 0.893554 -0.0130525
5.98891 86.7829 -10.3275 0.445775 0.895093 -0.00968287
5.22128 87.1495 -11.5391 0.440979 0.897456 -0.0105148
4.49517 87.4946 -12.6764 0.44077 0.897608 -0.004603
3.84085 87.8056 -13.704 0.428091 0.903729 -0.00354385
2.97491 88.2049 -15.0557 0.411703 0.911299 0.00589477
2.26754 88.5214 -14.4549 0.407645 0.913116 0.00673517
2.94665 88.2166 -13.3841 0.41004 0.912067 -0.00143822
3.60578 87.9195 -12.3446 0.422001 0.906595 0.00104006
4.28681 87.6071 -11.2659 0.429222 0.903147 -0.00974808
4.99918 87.2709 -10.1461 0.436608 0.899637 -0.00510609
5.90602 86.8423 -8.69278 0.446536 0.894684 -0.0121138
6.6193 86.5032 -7.55747 0.451575 0.892142 -0.0127877
7.29447 86.177 -6.50346 0.457135 0.889338 -0.0102799
8.03252 85.8083 -5.35265 0.455858 0.889986 -0.0108864
8.7478 85.4558 -4.22755 0.467721 0.883743 -0.0153283
9.62669 85.0116 -2.85993 0.470544 0.882181 -0.0186037
10.4781 84.5741 -1.57905 0.482831 0.875625 -0.0124595
11.2497 84.1671 -0.395153 0.482292 0.875888 -0.0146799
12.0432 83.7464 0.797002 0.487208 0.873155 -0.01513
12.5853 83.4542 1.60597 0.488666 0.872387 -0.0121138
12.5186 83.5174 3.29258 0.48786 0.872814 -0.0137494
11.7757 83.9134 2.15073 0.486086 0.873801 -0.0138643
10.9737 84.3376 0.939349 0.476013 0.879355 -0.0121269
10.2479 84.7167 -0.176946 0.47759 0.878485 -0.013099
9.47566 85.1201 -1.35369 0.472359 0.881375 -0.00745625
8.6627 85.5298 -2.56492 0.4692 0.882888 -0.0189817
7.83475 85.9326 -3.86364 0.457029 0.88933 -0.014711
7.03768 86.3205 -5.13829 0.455858 0.889986 -0.0108864
6.27847 86.6887 -6.32391 0.444822 0.895558 -0.0104813
5.48019 87.0667 -7.59485 0.438172 0.898836 -0.0100052
4.70734 87.4252 -8.8339 0.43436 0.900682 -0.0101829
4.00619 87.7453 -9.96623 0.421099 0.907012 -0.00213524
3.35184 88.0427 -11.002 0.419232 0.907856 -0.00646036
2.64996 88.353 -12.1282 0.40105 0.916048 0.00378163
1.92708 88.6679 -13.2799 0.391471 0.92019 0.00103355
1.40893 88.8911 -14.1034 0.391979 0.919959 0.00524751
0.431708 89.2977 -13.9361 0.381728 0.924136 0.0160049
1.09698 89.0198 -12.8606 0.380982 0.924578 -0.0027712
1.9705 88.6497 -11.4561 0.401652 0.915792 -0.000797209
2.69039 88.3388 -10.2954 0.402999 0.915151 -0.00953908
3.52536 87.9725 -8.97031 0.418565 0.908182 -0.00293907
4.35517 87.6052 -7.59374 0.415827 0.909367 -0.011798
5.18714 87.2242 -6.27422 0.44021 0.89781 -0.0123025
6.0428 86.822 -4.91396 0.445768 0.895042 -0.0138059
6.84549 86.4387 -3.61438 0.451528 0.892158 -0.013291
7.56164 86.0939 -2.50029 0.454188 0.890765 -0.0158175
8.23866 85.7679 -1.46712 0.458194 0.888805 -0.00916321
9.04826 85.3563 -0.242481 0.465996 0.884752 -0.00787168
9.72137 85.0094 0.800162 0.47115 0.881971 -0.0120461
10.5684 84.571 2.08354 0.474549 0.880155 -0.0114543
11.3335 84.1738 3.26214 0.483652 0.875127 -0.0152563
12.125 83.7516 4.43444 0.48582 0.874015 -0.00871205
12.0294 83.8225 6.06778 0.477995 0.878285 -0.0116875
11.3413 84.187 5.03239 0.478003 0.878325 -0.00764106
10.6074 84.5737 3.93554 0.471735 0.881685 -0.00991886
9.91729 84.9306 2.87274 0.472219 0.88141 -0.0112399
9.21689 85.2895 1.81948 0.460301 0.887724 -0.00831868
8.36369 85.7198 0.513495 0.459026 0.888405 -0.00564261
7.61404 86.0944 -0.643909 0.452661 0.891656 -0.00694261
6.89919 86.4407 -1.74574 0.447113 0.894359 -0.0145686
6.19887 86.7747 -2.84236 0.442672 0.896591 -0.0129047
5.16458 87.26 -4.49404 0.43331 0.901159 -0.0124359
4.48235 87.5688 -5.60225 0.422122 0.906536 -0.00238323
3.59364 87.9605 -7.02187 0.408028 0.912926 -0.00886622
2.83281 88.2916 -8.27942 0.413522 0.910474 -0.00603852
2.05137 88.6276 -9.54499 0.397031 0.91777 -0.00798058
1.3231 88.9238 -10.7159 0.39006 0.92076 -0.00731712
0.578694 89.2353 -11.9564 0.383745 0.923437 0.00185719
-0.127175 89.5165 -13.1113 0.371767 0.928319 -0.00371941
-0.305464 89.5867 -13.4012 0.369765 0.929092 0.0079305
-0.97098 89.8489 -12.7535 0.345313 0.9384 0.0128261
-0.338121 89.602 -11.6871 0.357698 0.93381 0.00717258
0.369417 89.3159 -10.4932 0.373048 0.927811 0.00156012
1.06057 89.0412 -9.34141 0.375173 0.926935 -0.00608944
1.73688 88.7677 -8.23705 0.386712 0.9222 -0.00120955
2.58948 88.4081 -6.83947 0.39925 0.916833 -0.00400038
3.33572 88.0868 -5.6159 0.403175 0.915068 -0.00999584
4.08719 87.7614 -4.4179 0.418466 0.908195 -0.00824442
4.7951 87.4467 -3.24279 0.415951 0.909332 -0.0100247
5.62138 87.0682 -1.93995 0.433823 0.900882 -0.0144507
6.42888 86.689 -0.672728 0.443675 0.896144 -0.00879039
7.2844 86.2729 0.66978 0.45027 0.892852 -0.00856893
8.02549 85.9041 1.80965 0.455262 0.890309 -0.00929841
8.71207 85.5608 2.84717 0.461992 0.886834 -0.00942492
9.44115 85.1943 3.95724 0.461389 0.887127 -0.0112599
10.241 84.7819 5.17196 0.470605 0.882307 -0.0080876
11.152 84.3062 6.53796 0.475864 0.879443 -0.0115377
11.6994 84.0189 7.35503 0.478861 0.877827 -0.0106259
11.4517 84.1685 8.74072 0.476698 0.879028 -0.0082646
10.5401 84.6457 7.39931 0.471879 0.881619 -0.00880394
9.81545 85.0183 6.30932 0.466714 0.884355 -0.00974931
8.89461 85.4897 4.93029 0.461489 0.88712 -0.00677799
8.11502 85.8783 3.74838 0.455985 0.889953 -0.00787049
7.34627 86.2653 2.57508 0.453594 0.891104 -0.0136481
6.57601 86.633 1.41587 0.445283 0.895239 -0.0164341
5.6923 87.0549 0.00111714 0.427069 0.904179 -0.00854938
5.02967 87.3572 -1.03456 0.42002 0.907484 -0.00749056
4.34806 87.6645 -2.10735 0.418015 0.908397 -0.00880724
3.67674 87.9588 -3.19599 0.416945 0.908895 -0.00818801
2.94892 88.2744 -4.43012 0.40313 0.915066 -0.0118709
2.26456 88.5571 -5.52814 0.392142 0.919869 -0.00810297
1.5668 88.8453 -6.67139 0.392531 0.919714 -0.00673142
0.813992 89.1446 -7.93314 0.375376 0.926873 5.25884e-05
0.152744 89.4042 -9.05372 0.365792 0.930696 0.000143855
-0.539123 89.6693 -10.2196 0.348461 0.937322 0.0014531
-1.32371 89.9676 -11.5413 0.350255 0.936631 0.00657196
-1.89817 90.183 -12.4986 0.328334 0.944431 0.0156893
-2.72189 90.4636 -12.1204 0.319088 0.947644 0.01238
-2.04175 90.2142 -10.9827 0.325558 0.945471 0.00984733
-1.32626 89.96 -9.74339 0.3329 0.942953 0.0040826
-0.617422 89.6981 -8.53484 0.344167 0.938904 -0.00283055
0.0429097 89.4483 -7.39643 0.355934 0.934495 0.00551568
0.858395 89.1352 -5.98338 0.368924 0.929445 -0.00520686
1.50659 88.8858 -4.91428 0.39056 0.920496 -0.0122396
2.1931 88.6108 -3.78859 0.390297 0.920672 -0.00556949
2.99621 88.2737 -2.43848 0.400252 0.916366 -0.00847851
3.8 87.9268 -1.13229 0.414204 0.910123 -0.0105013
4.58144 87.5768 0.103402 0.421773 0.906642 -0.0103963
5.35786 87.2268 1.33534 0.433542 0.901 -0.0154745
6.03072 86.9176 2.38679 0.439619 0.898097 -0.0125455
6.80803 86.5425 3.55365 0.447451 0.894302 -0.00348851
7.47874 86.2134 4.58156 0.454018 0.890937 -0.00990665
8.21447 85.8486 5.69086 0.457777 0.889042 -0.00670228
8.92016 85.4939 6.75311 0.461183 0.887223 -0.0120595
9.67 85.1131 7.86955 0.467173 0.884108 -0.0101302
10.5301 84.6655 9.1282 0.469619 0.882851 -0.00564036
10.854 84.4963 9.61533 0.471058 0.882087 -0.00524621
10.469 84.7081 10.792 0.468581 0.883403 -0.00554467
9.78282 85.0649 9.78982 0.466223 0.884651 -0.0053736
9.10491 85.4144 8.77684 0.46623 0.884662 -0.00182029
8.19722 85.8742 7.4556 0.45271 0.89161 -0.00921391
7.49457 86.2222 6.39721 0.45496 0.890481 -0.00745142
6.81866 86.5522 5.38424 0.443787 0.896098 -0.00779226
5.90478 86.9911 3.9981 0.437682 0.899114 -0.00529246
5.13648 87.3532 2.8385 0.424665 0.905281 -0.011237
4.25032 87.7453 1.45698 0.417468 0.908585 -0.0139179
3.49934 88.0728 0.249841 0.399598 0.916663 -0.00709801
2.79909 88.3713 -0.879094 0.40021 0.916411 -0.00480835
2.1284 88.6501 -1.98023 0.388495 0.921429 -0.00632938
1.46866 88.9182 -3.08823 0.384727 0.923002 -0.00717436
0.647841 89.2398 -4.45612 0.369616 0.92913 -0.0100886
-0.221782 89.553 -5.93707 0.351157 0.936272 -0.00916118
-0.870076 89.7881 -7.08433 0.337644 0.941274 6.09622e-05
-1.68216 90.0855 -8.51445 0.342333 0.939572 0.00364313
-2.41637 90.3378 -9.77466 0.319142 0.94769 -0.00571648
-3.17592 90.5893 -11.1066 0.285005 0.958349 0.0184305
-3.41171 90.6739 -11.4971 0.277855 0.960244 0.0269938
-4.22692 90.891 -11.1226 0.263444 0.964486 0.0190837
-3.58809 90.6949 -9.96974 0.26362 0.964547 0.0123594
-2.95786 90.5119 -8.82537 0.285427 0.9579 -0.0309637
-2.28419 90.2912 -7.65814 0.293337 0.955996 0.0050811
-1.55913 90.0338 -6.36201 0.334295 0.942421 -0.00942813
-0.786707 89.7689 -4.9481 0.34474 0.938594 -0.0140221
-0.0445309 89.5233 -3.71534 0.353983 0.935175 -0.0119885
0.588023 89.281 -2.6541 0.370677 0.928735 -0.00701101
1.24432 89.021 -1.54131 0.380235 0.924855 -0.0081025
1.92994 88.743 -0.39231 0.387194 0.921994 -0.00266057
2.58446 88.4748 0.676584 0.399501 0.916706 -0.00694902
3.24414 88.1962 1.73129 0.398981 0.916924 -0.00801969
3.96735 87.8921 2.88488 0.402487 0.91527 -0.0168668
4.72586 87.5547 4.02424 0.416015 0.90935 -0.00377009
5.38507 87.2486 5.06523 0.435529 0.900154 -0.00616228
6.22445 86.8534 6.29095 0.436754 0.899562 -0.00591179
6.92807 86.5125 7.34086 0.443787 0.896114 -0.00573413
7.66546 86.1482 8.42331 0.445498 0.895283 -0.00087428
8.40463 85.7783 9.51934 0.453937 0.891034 0.000176773
9.14981 85.3957 10.6213 0.458154 0.888867 -0.00305198
9.98796 84.9639 11.8161 0.461113 0.887335 -0.00336904
10.0474 84.9333 11.9005 0.461104 0.88734 -0.00336992
9.5919 85.1722 12.9697 0.46131 0.887236 -0.00226246
8.83014 85.5635 11.8986 0.459545 0.888153 -0.00162994
7.96146 86.0015 10.6575 0.449725 0.893164 -0.00253679
7.01581 86.4722 9.27331 0.441269 0.897372 0.0021725
6.2353 86.854 8.11283 0.434129 0.900851 -0.0001836
5.528 87.1897 7.06885 0.429972 0.90283 -0.0045934
4.72398 87.5702 5.88853 0.431354 0.902182 -0.00139113
3.87265 87.9473 4.56871 0.416006 0.909354 -0.00377185
3.02474 88.3076 3.27379 0.39586 0.918234 -0.0118642
2.34148 88.5933 2.17428 0.393986 0.919065 -0.00968132
1.53836 88.9141 0.893758 0.384973 0.922835 -0.0130953
0.774727 89.2201 -0.360436 0.378488 0.925596 -0.0042578
-0.0820582 89.5391 -1.83646 0.353543 0.935385 -0.00792108
-0.716296 89.7731 -2.92647 0.334798 0.942252 -0.00847138
-1.40252 90.0009 -4.08099 0.309484 0.950711 -0.0191856
-2.46777 90.3401 -6.01306 0.307879 0.951392 0.00800722
-3.11135 90.544 -7.16353 0.296136 0.955142 0.00275251
-3.78442 90.7371 -8.38045 0.265867 0.96397 0.00875577
-4.45648 90.9288 -9.63686 0.258607 0.965979 0.00258078
-4.96744 91.08 -10.6255 0.243815 0.969477 0.0258398
-5.89427 91.2944 -10.4343 0.200028 0.979275 0.0317813
-5.03421 91.073 -8.79514 0.206588 0.978355 0.011932
-4.33679 90.8812 -7.47217 0.265872 0.963969 0.00875922
-3.69997 90.7097 -6.24964 0.2628 0.964812 0.00863357
-3.10082 90.5343 -5.14656 0.282714 0.959157 -0.00951265
-2.40094 90.3277 -3.84897 0.299078 0.95404 -0.0189917
-1.74245 90.1396 -2.71922 0.334798 0.942252 -0.00847142
-0.997515 89.8883 -1.43235 0.340366 0.940262 -0.00765347
-0.354347 89.6544 -0.329751 0.353263 0.935485 -0.00855563
0.309712 89.4141 0.79697 0.35452 0.93501 -0.00848736
1.13067 89.0955 2.1301 0.375258 0.926918 -0.00232139
1.8049 88.8249 3.22355 0.380301 0.924845 -0.00563787
2.7001 88.4618 4.64024 0.391546 0.920139 -0.00593355
3.64033 88.0613 6.0726 0.404508 0.914486 -0.00943956
4.40979 87.7159 7.21212 0.421522 0.906818 -0.000727708
5.15462 87.3705 8.33152 0.421209 0.906963 -0.0013663
5.90124 87.0149 9.44234 0.43562 0.900129 0.00160201
6.61703 86.6678 10.4805 0.440554 0.897724 -0.00211463
7.32322 86.3255 11.4924 0.442627 0.896694 -0.00456225
8.03362 85.9729 12.4984 0.447785 0.894141 0.000339896
8.75303 85.6045 13.521 0.455973 0.889993 -0.000896993
8.87414 85.5428 13.6928 0.455459 0.890256 -0.0014268
8.07036 85.9538 14.2863 0.45154 0.892248 -0.00225243
7.3617 86.308 13.2842 0.446442 0.894812 -0.000777092
6.65879 86.657 12.2958 0.444987 0.895537 -0.000552465
5.78046 87.0797 11.0572 0.440393 0.897795 -0.00429553
5.08167 87.4092 10.057 0.42203 0.906571 -0.00433038
4.19431 87.8171 8.74979 0.421215 0.90696 -0.0013706
3.49264 88.1378 7.67587 0.407464 0.913215 -0.00327809
2.60313 88.5218 6.35073 0.398753 0.917047 -0.0045039
1.84666 88.8251 5.19023 0.378573 0.925501 -0.0114492
1.14893 89.0981 4.10078 0.364296 0.93128 -0.00254506
0.435214 89.3719 2.92745 0.360135 0.9329 -0.000702826
-0.241386 89.6316 1.82189 0.356558 0.934266 -0.00368698
-0.993813 89.8893 0.567482 0.329433 0.944178 -0.00157322
-1.63999 90.1158 -0.555157 0.323387 0.946265 -0.00209514
-2.36204 90.3511 -1.80607 0.289341 0.957194 -0.00783185
-3.01944 90.5358 -2.97484 0.301315 0.953426 -0.0137463
-3.83276 90.7578 -4.44775 0.284592 0.958401 -0.0217949
-4.43546 90.9048 -5.57466 0.244482 0.969465 -0.0191201
-5.08877 91.0606 -6.87448 0.230739 0.973008 0.00391834
-5.65834 91.2096 -7.99738 0.210699 0.977535 0.00559878
-6.3271 91.3526 -9.33495 0.206587 0.978355 0.011932
-6.52715 91.4039 -9.71664 0.201366 0.979128 0.0275699
-7.53829 91.5912 -9.77726 0.171304 0.984843 0.0271731
-6.92743 91.4718 -8.47269 0.191214 0.981525 0.00672121
-6.3752 91.3489 -7.34314 0.20266 0.979249 0.000177617
-5.61418 91.1835 -5.80401 0.234104 0.972114 -0.0137563
-4.99691 91.0612 -4.58479 0.254328 0.966846 -0.0229532
-4.33133 90.9193 -3.31889 0.269112 0.963042 -0.0113184
-3.72653 90.7548 -2.22012 0.287599 0.957561 0.0190675
-3.11018 90.5753 -1.09381 0.287471 0.957786 0.00266316
-2.42115 90.366 0.112301 0.300144 0.953886 0.0039475
-1.75821 90.1612 1.26456 0.309669 0.950836 -0.00402263
-0.890297 89.8641 2.70631 0.332968 0.942914 0.006674
-0.175372 89.6028 3.89578 0.328695 0.944408 0.00731931
0.652296 89.2884 5.23931 0.350375 0.936601 0.00394651
1.36205 89.0218 6.31727 0.354712 0.934948 -0.00723093
2.18658 88.6947 7.57027 0.371171 0.928563 0.00193758
2.95847 88.3711 8.73586 0.382227 0.924059 0.00424681
3.76843 88.0144 9.94835 0.411901 0.911226 -0.00217777
4.55576 87.6577 11.0884 0.420905 0.907104 0.000986939
5.42466 87.252 12.2965 0.422314 0.906449 -0.000970408
6.22859 86.8677 13.4244 0.436382 0.899727 0.00788088
6.77305 86.6022 14.1746 0.443514 0.896268 -0.000177336
5.55428 87.1933 14.2288 0.435032 0.900415 0.000313946
4.66206 87.6056 12.9759 0.42035 0.907361 -0.00125379
3.75571 88.0205 11.6986 0.403157 0.915129 0.00199949
3.03212 88.3327 10.6761 0.391281 0.920266 0.00312199
2.12421 88.7123 9.38594 0.380887 0.924621 0.00113689
1.43055 88.99 8.34629 0.365403 0.930848 -0.00179467
0.711959 89.2707 7.25711 0.352081 0.935968 -0.00141892
-0.104683 89.5687 5.99974 0.349432 0.936961 -0.00145736
-0.786561 89.8099 4.90166 0.326562 0.945164 -0.00483935
-1.51023 90.0661 3.69591 0.309608 0.950847 0.00573056
-2.21575 90.3035 2.48974 0.294824 0.955462 0.0131135
-2.9103 90.5193 1.32464 0.27307 0.961959 0.00827225
-3.52121 90.7008 0.228107 0.266491 0.963826 -0.00461868
-4.16329 90.874 -0.921052 0.251778 0.967766 -0.00601915
-4.79104 91.0282 -2.07755 0.231509 0.972765 0.0115265
-5.46148 91.1887 -3.37027 0.226783 0.973945 -0.000991789
-6.2759 91.3388 -4.96969 0.197118 0.980326 -0.0103152
-6.97632 91.4877 -6.41236 0.179016 0.983846 0.000380766
-7.5913 91.5861 -7.72416 0.159802 0.987091 0.0107443
-8.13046 91.6803 -8.88295 0.147587 0.988863 0.0191975
-8.42873 91.7378 -9.55514 0.144296 0.989405 0.0159918
-9.35188 91.8621 -9.35758 0.0927298 0.995504 0.0192903
-8.7292 91.7689 -7.98862 0.126986 0.991807 0.0138743
-8.08896 91.6608 -6.57453 0.154486 0.987993 0.00195021
-7.48361 91.5736 -5.26241 0.147109 0.989116 -0.00307178
-6.92054 91.4711 -4.08805 0.182559 0.98315 -0.00942816
-6.19914 91.3466 -2.63068 0.189381 0.9819 -0.00254537
-5.59252 91.2073 -1.46064 0.223641 0.974643 0.00745211
-4.94476 91.0614 -0.227864 0.224457 0.974473 -0.00470887
-4.23277 90.8875 1.06636 0.244665 0.969599 0.00401159
-3.5742 90.7009 2.24358 0.271318 0.962477 0.0048896
-2.78694 90.4688 3.59031 0.278057 0.960562 -0.0024343
-2.01935 90.2271 4.9013 0.314401 0.94929 -0.00104967
-1.17549 89.9442 6.29821 0.317042 0.948397 -0.00528545
-0.344805 89.66 7.58254 0.338625 0.940908 -0.00507458
0.534875 89.3412 8.91549 0.349689 0.936858 -0.00382611
1.23928 89.0756 9.96235 0.373974 0.927436 0.00257543
1.97906 88.7752 11.0177 0.376445 0.926438 0.000917538
3.01382 88.3357 12.4442 0.390929 0.920418 0.00210346
3.81264 87.9843 13.5509 0.397939 0.917406 -0.00337388
4.4802 87.6932 14.4599 0.410791 0.911715 -0.0052224
2.82395 88.4141 13.9485 0.39744 0.917625 -0.00254929
2.05867 88.7333 12.9294 0.376708 0.926328 0.0026962
1.32628 89.0363 11.9185 0.375448 0.926827 0.00546326
0.566099 89.3342 10.8256 0.354822 0.934932 -0.00188238
-0.256482 89.6349 9.64935 0.336823 0.941567 0.00149446
-0.953696 89.8692 8.59681 0.318836 0.94781 0.000176369
-1.70572 90.1249 7.4385 0.308069 0.951361 -0.00221654
-2.42925 90.3623 6.29154 0.313678 0.949526 0.0026398
-3.10361 90.5626 5.16378 0.270695 0.962652 -0.00507695
-3.74286 90.742 4.06352 0.264853 0.964287 0.00181566
-4.51872 90.953 2.71169 0.249323 0.968389 0.00775313
-5.14587 91.1158 1.56828 0.236012 0.97175 0.000528749
-5.82995 91.2692 0.293348 0.226971 0.973874 -0.00730356
-6.47263 91.401 -0.940856 0.187246 0.982313 -0.00054515
-7.06235 91.5073 -2.13041 0.154704 0.987943 0.00601293
-7.76419 91.6207 -3.60609 0.163623 0.986513 0.0044899
-8.47259 91.7179 -5.11641 0.125639 0.992075 0.00129659
-9.02849 91.7873 -6.3582 0.122323 0.99249 0.000112255
-9.61641 91.8712 -7.67657 0.0835975 0.996445 0.0104351
-10.1593 91.9312 -8.91717 0.0960946 0.995282 0.0133804
-10.2197 91.939 -9.06324 0.0960893 0.995283 0.0133897
-11.1093 91.9858 -8.87358 0.0541545 0.998458 0.0121742
-10.6058 91.9546 -7.67786 0.06638 0.997782 0.00498662
-9.97837 91.8848 -6.17362 0.0759943 0.997041 0.011619
-9.44164 91.8217 -4.96298 0.11359 0.993419 -0.0146782
-8.91888 91.7873 -3.80218 0.133832 0.990911 -0.0136077
-8.39708 91.7169 -2.63303 0.148721 0.988815 0.0112576
-7.86692 91.6374 -1.48166 0.162981 0.986626 -0.00234085
-7.17944 91.526 -0.061315 0.157581 0.987441 -0.0113681
-6.52829 91.415 1.19525 0.182019 0.983281 0.00521759
-5.72341 91.2387 2.72727 0.209504 0.977798 0.00432911
-5.08777 91.0923 3.88485 0.233101 0.972453 0.000150233
-4.29774 90.8876 5.29111 0.252274 0.967654 -0.00188281
-3.55614 90.6893 6.57159 0.269782 0.962917 0.00293371
-2.71501 90.4469 7.89215 0.268355 0.96332 -0.000518069
-1.91838 90.187 9.10057 0.302583 0.953108 0.00536958
-1.15511 89.9454 10.2483 0.309188 0.951 -0.00140422
-0.289671 89.6497 11.4843 0.336304 0.941748 -0.00308345
0.460708 89.3738 12.5365 0.361337 0.932433 0.00206732
0.852764 89.2198 13.0845 0.364356 0.931249 0.00438328
-0.713966 89.7981 12.7855 0.330191 0.943913 -0.00121136
-1.58317 90.0863 11.5538 0.302864 0.953034 0.000433006
-2.33934 90.3226 10.4928 0.296077 0.955163 -0.00132693
-3.04826 90.5443 9.45681 0.286524 0.958073 7.97403e-05
-3.91984 90.7826 8.05967 0.269279 0.963059 -0.00235576
-4.70452 90.9958 6.7694 0.255139 0.966902 -0.00214234
-5.3649 91.1526 5.63147 0.213118 0.977021 0.00313572
-6.18269 91.3345 4.14016 0.213253 0.976997 -0.00103652
-6.9166 91.4833 2.74789 0.187563 0.982243 0.00430127
-7.58128 91.6093 1.43909 0.182852 0.98312 0.00641829
-8.19368 91.691 0.207531 0.157576 0.987442 -0.0113578
-8.77599 91.7712 -1.05374 0.127986 0.991775 0.000907735
-9.43945 91.8487 -2.56542 0.11465 0.993388 -0.00594279
-10.0205 91.9068 -3.9094 0.0899048 0.99585 -0.0141283
-10.5258 91.9259 -5.07729 0.0852819 0.996051 -0.0246699
-11.0284 91.9626 -6.33149 0.048882 0.998735 0.0117475
-11.5035 91.9981 -7.60159 0.0463081 0.9989 0.00736342
-11.9997 92.0224 -8.85272 0.0151611 0.999869 -0.0056984
-12.7526 92.0351 -8.63808 0.00841728 0.999964 -0.000797977
-12.3733 92.0263 -7.38703 0.00865946 0.999866 0.0138809
-11.8444 91.9973 -5.98173 0.0467494 0.998813 0.0137004
-11.3688 91.9703 -4.6334 0.0415862 0.999122 -0.00503075
-10.8894 91.9747 -3.46496 0.0445774 0.998865 -0.016767
-10.3952 91.943 -2.28657 0.0467771 0.998905 0.000502966
-9.88458 91.8922 -1.07177 0.0908418 0.995819 -0.00957043
-9.3763 91.8466 0.0827766 0.0983646 0.995144 0.00359862
-8.67117 91.7636 1.5768 0.115977 0.993237 -0.00545236
-8.10045 91.6824 2.76632 0.151687 0.988421 0.00397563
-7.19409 91.5302 4.55545 0.169521 0.985467 0.0108767
-6.47133 91.3836 5.89799 0.168082 0.985712 0.010974
-5.80823 91.2502 7.04819 0.217141 0.976139 0.00121138
-5.09238 91.0741 8.22515 0.219698 0.975561 0.00362347
-4.43961 90.9099 9.32982 0.230751 0.973013 -0.000851664
-3.77152 90.7453 10.3934 0.260713 0.965415 0.00131512
-3.07025 90.5443 11.4604 0.278509 0.960424 -0.00432396
-2.16721 90.2776 12.6279 0.303298 0.95287 -0.00704077
-3.80407 90.7599 12.3311 0.275977 0.961149 -0.00537814
-4.54293 90.9472 11.2408 0.227279 0.973828 -0.00186995
-5.4193 91.1424 9.92323 0.206828 0.978377 -0.00115538
-6.11214 91.2885 8.79071 0.206036 0.978544 0.000556296
-6.88883 91.4477 7.46197 0.173871 0.984749 -0.0061671
-7.56941 91.5711 6.23541 0.15359 0.988122 0.00506626
-8.27999 91.6967 4.87313 0.147173 0.98889 0.0209022
-9.01074 91.7999 3.33797 0.115012 0.993361 0.00240512
-9.6107 91.8691 2.06319 0.0989577 0.995086 -0.00335597
-10.1727 91.9104 0.786769 0.087893 0.996115 -0.00549997
-10.8594 91.9706 -0.78497 0.0736605 0.997278 0.00331437
-11.3664 91.9876 -2.02016 0.0452587 0.998974 0.00143378
-11.924 91.9919 -3.43197 0.0165 0.999853 -0.00476105
-12.4628 92.0123 -5.01457 0.0142617 0.999838 0.0110153
-12.8964 92.0184 -6.19555 0.00861832 0.999947 0.00556308
-13.4864 92.0255 -7.93552 -0.0270454 0.999626 0.00409662
-13.7074 92.0227 -8.73025 -0.0270453 0.999626 0.00409664
-14.4747 91.9929 -8.17892 -0.0665428 0.997781 0.00226447
-14.1078 92.0024 -6.95053 -0.0303362 0.999539 -0.00119967
-13.7139 92.023 -5.75393 0.00861832 0.999947 0.00556308
-13.2396 92.0135 -4.36747 -0.0311059 0.999203 0.0250355
-12.829 92.0079 -3.17706 0.016285 0.999855 -0.00492159
-12.3388 92.0091 -1.82055 0.0130752 0.999888 -0.00721872
-11.8829 92.0127 -0.627704 0.0249183 0.999669 -0.00642479
-11.314 91.9929 0.741933 0.0683654 0.997453 0.0203181
-10.6083 91.9516 2.40853 0.0566733 0.998323 0.011775
-9.99637 91.8945 3.79078 0.0770543 0.996985 0.00914348
-9.34437 91.8232 5.18997 0.0979625 0.995076 0.0150854
-8.78049 91.7374 6.33651 0.12337 0.992296 0.0113679
-8.01553 91.6219 7.76753 0.132504 0.991173 0.00422694
-7.34655 91.5201 9.03079 0.143269 0.989683 0.00155252
-6.63693 91.3776 10.2038 0.184781 0.982695 -0.0129069
-5.82129 91.23 11.4331 0.195932 0.980535 -0.0126968
-5.4 91.1402 12.0308 0.212609 0.977109 -0.00748832
-6.73367 91.4182 12.1735 0.191233 0.981482 -0.0110961
-7.43675 91.5359 11.1203 0.169926 0.98494 -0.0319189
-8.18874 91.6378 9.88701 0.131447 0.991253 -0.0118257
-8.82989 91.7217 8.68062 0.126769 0.991907 0.00710323
-9.50263 91.8079 7.37981 0.102508 0.994732 0.000834391
-10.0673 91.8651 6.21292 0.052545 0.998618 -0.00108573
-10.6799 91.9136 4.88554 0.0446874 0.998801 0.0199666
-11.2781 91.9663 3.5509 0.0394993 0.999094 0.0158127
-11.9151 92.0035 2.02759 0.0318052 0.999418 0.012321
-12.4198 92.0183 0.773355 0.00323908 0.999907 0.013275
-12.8842 92.0262 -0.461152 0.00461861 0.999987 -0.00228752
-13.4173 91.9989 -1.8974 -0.0249789 0.999595 -0.013609
-13.9775 91.9838 -3.54348 -0.0219065 0.999716 0.00940415
-14.4835 91.9711 -5.13576 -0.0651524 0.997846 0.00765625
-14.862 91.9599 -6.39705 -0.080561 0.996666 0.0129411
-15.2489 91.9401 -7.67306 -0.0665309 0.997782 0.00226043
-15.4726 91.9251 -8.45072 -0.0981293 0.99516 0.00516515
-16.2751 91.8407 -8.13367 -0.106879 0.994172 0.0141358
-15.897 91.8807 -6.78221 -0.095266 0.995452 -0.000149092
-15.5593 91.8964 -5.53422 -0.083134 0.996538 -0.000233952
-15.1608 91.9168 -4.18091 -0.0647984 0.997756 0.0168444
-14.7782 91.9278 -2.95087 -0.0573679 0.998352 0.00147853
-14.3695 91.9539 -1.69652 -0.0600566 0.998184 -0.00459605
-13.9473 92.0014 -0.430687 -0.0449402 0.998867 -0.015684
-13.3995 92.011 1.06245 -0.0152385 0.999787 0.013887
-12.927 92.0026 2.32545 -0.00994408 0.999909 0.00915311
-12.4004 91.9821 3.63877 0.00261761 0.999759 0.0217815
-11.8944 91.948 4.85637 0.0235516 0.999498 0.0211771
-11.2787 91.9208 6.25749 0.0456183 0.998913 -0.00958285
-10.6683 91.8923 7.56086 0.0395031 0.999148 0.0119695
-10.123 91.8601 8.69603 0.0712039 0.997408 0.0104005
-9.40085 91.7823 10.085 0.105321 0.994338 0.0140911
-8.7679 91.7137 11.1889 0.11038 0.993836 -0.0103008
-8.24505 91.6609 12.03 0.132715 0.991154 -4.43062e-05
-9.5056 91.7936 12.34 0.094661 0.995296 -0.02062
-10.1316 91.8436 11.2171 0.0857523 0.996316 -4.64989e-05
-10.731 91.8981 10.0607 0.0576947 0.998312 0.00661863
-11.3207 91.9258 8.87089 0.0074039 0.999972 -0.000701618
-11.9637 91.9392 7.49609 0.0311762 0.999498 0.00562744
-12.5654 91.9521 6.12564 0.0190544 0.999815 0.00261145
-13.0941 91.9575 4.82633 -0.00776612 0.999737 0.0215564
-13.564 91.978 3.62055 -0.00756285 0.999804 0.0182984
-14.0445 91.9813 2.33265 -0.0589695 0.997898 0.0268749
-14.6378 91.9661 0.664513 -0.0906748 0.995879 0.00163461
-15.0364 91.9215 -0.559032 -0.103086 0.99467 -0.00229242
-15.4271 91.8805 -1.80241 -0.0979179 0.995184 0.00464036
-15.825 91.8462 -3.13311 -0.082623 0.996558 0.00674748
-16.1835 91.8329 -4.36226 -0.0929349 0.99556 0.0149451
-16.5853 91.8081 -5.83686 -0.110809 0.993838 -0.00280845
-16.915 91.7665 -7.07059 -0.107691 0.994119 -0.0114239
-17.3092 91.7162 -8.51397 -0.130391 0.99144 0.00672346
-18.2011 91.5729 -8.45014 -0.16145 0.986838 0.00923443
-17.8878 91.6242 -7.12098 -0.175292 0.984516 0.00127723
-17.5176 91.6801 -5.73537 -0.141465 0.989884 0.0108507
-17.0801 91.7252 -4.14204 -0.130537 0.991334 0.0147472
-16.6073 91.7768 -2.46323 -0.0996599 0.995004 0.00591645
-16.2153 91.7967 -1.0783 -0.124474 0.991969 0.0224538
-15.6993 91.8531 0.627468 -0.105379 0.994422 -0.00441497
-15.2636 91.9017 1.98169 -0.0768004 0.99684 0.0202814
-14.8561 91.918 3.1747 -0.0754909 0.997145 -0.00196057
-14.3824 91.9267 4.47904 -0.0493676 0.998595 0.0192458
-13.7583 91.9375 6.14436 -0.0475524 0.998861 0.00382403
-13.1483 91.9448 7.62463 -0.0367168 0.999139 0.0193351
-12.4925 91.9319 9.06725 -0.0312739 0.999454 0.0106584
-11.8213 91.9243 10.5071 -0.00321715 0.999962 0.00814885
-11.188 91.9107 11.8188 0.0189085 0.999717 -0.0144315
-10.9355 91.9018 12.3307 0.0703272 0.997509 -0.00554878
-12.1959 91.9414 12.4835 0.00378444 0.999821 -0.0185351
-12.9744 91.912 11.0384 -0.00487759 0.999978 -0.00439397
-13.5183 91.901 9.83287 -0.0319781 0.999485 -0.00251905
-14.0837 91.8944 8.48142 -0.0369121 0.999148 0.0184529
-14.5843 91.883 7.11984 -0.0589102 0.998202 0.0111025
-15.0335 91.8717 5.91903 -0.0756424 0.997025 0.0148076
-15.6083 91.8431 4.28351 -0.0885246 0.996002 0.0119528
-16.0993 91.8088 2.75829 -0.0989421 0.994954 0.0166345
-16.5264 91.7637 1.36592 -0.139997 0.990056 -0.0138048
-16.8918 91.7069 0.0737099 -0.131165 0.991357 -0.00264678
-17.2791 91.6678 -1.27948 -0.124307 0.991997 0.0221137
-17.6255 91.6514 -2.55622 -0.148431 0.988728 0.0196261
-18.0229 91.6001 -4.09034 -0.170992 0.985267 0.00315345
-18.44 91.5202 -5.67831 -0.176955 0.98416 -0.0107621
-18.7474 91.4709 -6.93064 -0.175351 0.984505 0.0016128
-19.0257 91.4233 -8.17279 -0.204458 0.978852 0.00672379
-19.0814 91.4172 -8.49878 -0.199688 0.979791 0.0115807
-19.9842 91.2341 -8.81602 -0.204268 0.978778 0.0163739
-19.7639 91.2708 -7.57841 -0.204634 0.978834 -0.00292559
-19.4027 91.3309 -5.85777 -0.212137 0.977236 -0.00268575
-19.1103 91.4018 -4.57202 -0.19368 0.981063 -0.00185078
-18.7631 91.4561 -3.11131 -0.196817 0.980348 0.0134164
-18.4092 91.5025 -1.72583 -0.167668 0.985752 0.0134496
-18.0745 91.5375 -0.481416 -0.154609 0.987942 0.00820191
-17.722 91.5885 0.812067 -0.159581 0.98718 0.00309814
-17.3762 91.6379 2.07292 -0.159062 0.987239 0.00759603
-17.0118 91.6869 3.33511 -0.157574 0.987502 0.00315516
-16.5417 91.7444 4.87819 -0.144888 0.989379 0.0116618
-16.0661 91.7763 6.30071 -0.131962 0.991124 0.0160846
-15.5534 91.7946 7.82282 -0.097763 0.995041 0.0183317
-15.0024 91.8185 9.4417 -0.0713155 0.997424 0.00776436
-14.3773 91.8591 11.0123 -0.0484149 0.998827 -0.00114683
-13.9121 91.888 12.083 -0.0598687 0.998181 -0.00704313
-15.1882 91.8055 12.3554 -0.082376 0.996515 -0.013087
-15.6915 91.7638 11.1038 -0.0800125 0.996794 -0.000490248
-16.141 91.7157 9.83887 -0.0992011 0.995063 -0.00285561
-16.5757 91.6688 8.48862 -0.109992 0.993862 0.0118543
-16.9944 91.644 7.09566 -0.13385 0.99095 0.0100791
-17.3971 91.606 5.78263 -0.144281 0.989424 0.0149129
-17.7601 91.5638 4.50996 -0.156924 0.987603 0.00381126
-18.1628 91.499 3.04284 -0.167138 0.985931 0.00224881
-18.5264 91.4508 1.7101 -0.178956 0.983805 0.0101152
-18.9254 91.3869 0.167445 -0.204175 0.978886 0.00974556
-19.2874 91.3235 -1.29541 -0.208722 0.977944 0.00780172
-19.6038 91.2777 -2.55965 -0.218138 0.975816 0.0141308
-19.8995 91.2298 -3.89778 -0.208584 0.977956 0.00977604
-20.1627 91.1812 -5.19506 -0.21928 0.975549 -0.0148496
-20.5183 91.1069 -6.99534 -0.217259 0.976054 0.0108122
-20.7631 91.0647 -8.40878 -0.215597 0.976445 0.00857816
