-20.6126 92.9677 -8.54054 -0.222703 0.974667 0.017098
-19.3753 93.2188 -8.37437 -0.202403 0.978996 0.0244615
-17.895 93.4657 -8.3195 -0.149569 0.988468 0.019385
-16.5806 93.6313 -8.38082 -0.11984 0.992699 0.0134023
-15.408 93.7565 -8.33686 -0.0918308 0.995618 0.00974952
-14.2368 93.8474 -8.35309 -0.055264 0.998157 0.0130212
-13.2406 93.8851 -8.49378 -0.0251363 0.999391 0.0186064
-12.2284 93.8878 -8.59091 0.0166819 0.999618 0.0150552
-11.1633 93.8464 -8.69941 0.0469524 0.998826 0.0118926
-10.2465 93.7813 -8.90202 0.0850466 0.995622 0.0387675
-9.26172 93.6858 -9.08493 0.132184 0.990947 0.0234949
-8.11654 93.5354 -9.25649 0.135318 0.990709 0.0135067
-7.08465 93.3925 -9.4528 0.156061 0.987709 0.00335608
-5.69893 93.1212 -9.80339 0.221717 0.975034 0.00499738
-4.54628 92.8524 -10.1436 0.247741 0.968385 0.0188636
-3.29508 92.5099 -10.5868 0.285518 0.957966 0.0231608
-2.44412 92.2546 -10.9726 0.303005 0.952705 0.0216931
-1.37246 91.9063 -11.4709 0.325403 0.945408 0.0177851
-0.320914 91.5233 -12.084 0.359048 0.933277 0.00891702
0.738214 91.1139 -12.557 0.371861 0.928172 0.014695
1.85626 90.6468 -12.8534 0.395797 0.91827 0.0111569
2.79655 90.2384 -13.0637 0.402921 0.91518 0.00997797
3.67284 89.8415 -13.2181 0.424313 0.905492 0.00653315
4.56817 89.4185 -13.4288 0.434014 0.900894 0.0046711
5.48739 88.9678 -13.2927 0.444655 0.895702 0.000604613
6.29472 88.5638 -12.9403 0.452615 0.891706 -0.000883877
7.15426 88.13 -12.4418 0.45609 0.889889 -0.00769654
7.86479 87.7667 -11.6945 0.463345 0.886154 -0.00625706
8.50894 87.4454 -10.6683 0.459924 0.887894 -0.0107414
9.05783 87.1658 -9.67202 0.465148 0.885141 -0.011971
9.66899 86.858 -8.52864 0.470885 0.882059 -0.0152633
10.0755 86.659 -7.5236 0.472666 0.881073 -0.0172204
10.4756 86.4632 -6.47025 0.479249 0.877542 -0.0153905
10.6878 86.3626 -5.48788 0.482101 0.876019 -0.01256
10.8392 86.2917 -4.52246 0.482982 0.875556 -0.0114133
11.079 86.1746 -3.53024 0.482901 0.875574 -0.0133405
11.2279 86.1097 -2.42155 0.482548 0.875753 -0.0143187
11.2677 86.1066 -1.3062 0.482473 0.87578 -0.0151201
11.3527 86.0763 -0.24325 0.482343 0.875895 -0.0123714
11.4769 86.0274 1.13106 0.482308 0.875912 -0.0125304
11.3158 86.1339 2.42397 0.481023 0.876612 -0.0129508
11.2617 86.1794 3.63839 0.47483 0.879992 -0.0122688
11.0819 86.2904 4.75651 0.475554 0.879638 -0.00922742
10.7321 86.4893 5.82464 0.470282 0.882493 -0.0063039
10.4719 86.636 6.85315 0.469938 0.882669 -0.00725823
10.0886 86.8471 7.90887 0.469131 0.883113 -0.00522824
9.72512 87.0418 8.93216 0.46313 0.886285 -0.00297966
9.11548 87.3647 10.2092 0.459257 0.888285 -0.00573812
8.5446 87.6642 11.2671 0.452707 0.891632 -0.00702437
8.01005 87.9392 12.1256 0.447431 0.894307 -0.00459854
7.32983 88.2782 12.7367 0.44241 0.896806 -0.0017166
6.58754 88.6462 13.1414 0.44026 0.897853 -0.00492347
5.67012 89.0853 13.2571 0.42606 0.904625 -0.0109304
4.64056 89.5615 13.1329 0.411317 0.911491 -0.00159249
3.48064 90.0742 12.9739 0.401656 0.91578 -0.0044735
2.41057 90.5179 12.7005 0.377413 0.92603 -0.00531566
1.48521 90.8907 12.5376 0.365843 0.930655 -0.00640328
0.598015 91.2357 12.3638 0.333304 0.942773 -0.00936141
-0.357304 91.5727 12.2851 0.336612 0.941612 -0.00341269
-1.2273 91.8799 12.2918 0.325834 0.945427 -0.000942314
-2.18526 92.1917 12.2238 0.296978 0.954793 -0.013186
-3.22452 92.4981 12.088 0.267807 0.963303 -0.0160665
-4.19939 92.7614 12.1083 0.253508 0.967173 -0.0158133
-5.32886 93.0263 12.2818 0.216425 0.976204 -0.00336083
-6.25547 93.2218 12.3191 0.200044 0.979693 -0.0114833
-7.84916 93.4704 12.4692 0.129984 0.991473 -0.00925782
-8.81247 93.5898 12.5653 0.0900029 0.99584 -0.0138261
-10.1787 93.7066 12.5885 0.0747872 0.99709 -0.0147626
-11.4221 93.7816 12.6 0.0443096 0.998782 -0.0216838
-12.4421 93.8123 12.6675 0.00633557 0.999793 -0.0193138
-13.7022 93.8018 12.748 -0.0392624 0.998906 -0.0242395
-14.6925 93.7422 12.757 -0.076051 0.997021 -0.0128308
-15.6195 93.6681 12.8553 -0.106424 0.994198 -0.0153937
-16.64 93.5632 12.997 -0.124648 0.991887 -0.0144783
-17.6591 93.4141 13.0936 -0.145027 0.989385 -0.00911025
-18.6144 93.2502 13.2542 -0.180365 0.983599 -0.00113958
-19.5589 93.0709 13.4397 -0.213173 0.976994 -0.00621951
-20.7077 92.8241 13.8367 -0.228372 0.97336 -0.0113828
-21.5185 92.6227 14.2248 -0.251182 0.967572 -0.0267006
-22.4053 92.3772 14.4707 -0.276716 0.960767 -0.0181031
-23.3213 92.1053 14.6184 -0.294754 0.955535 -0.00854
-24.2766 91.8055 15.0928 -0.326128 0.945271 -0.00891115
-25.3922 91.4264 15.6991 -0.328213 0.944433 -0.0179327
-26.1995 91.1408 16.1029 -0.347705 0.937528 -0.00838718
-27.0537 90.8132 16.4588 -0.362644 0.931923 -0.00286717
-27.9969 90.4365 16.7602 -0.378839 0.925458 0.00281366
-29.3147 89.8811 17.0886 -0.39813 0.91732 -0.00259816
-30.181 89.504 17.2901 -0.413361 0.910554 -0.00485053
-31.0191 89.1239 17.4164 -0.414978 0.909821 -0.00385103
-31.8685 88.7257 17.3818 -0.425885 0.904775 -0.00201449
-32.8713 88.2531 17.124 -0.429058 0.903265 0.00084269
-33.6685 87.8642 16.772 -0.442931 0.896548 0.00247067
-34.6121 87.3957 16.3355 -0.443445 0.896263 0.00631024
-35.397 87.0082 15.5413 -0.45208 0.891942 0.00794285
-36.1638 86.6261 14.8013 -0.453688 0.891126 0.00779728
-36.732 86.3438 13.989 -0.457041 0.889407 0.00832706
-37.1311 86.1492 13.0917 -0.457779 0.888992 0.0112338
-37.7967 85.8157 12.0673 -0.46094 0.887383 0.00932437
-38.1285 85.6507 11.2196 -0.462949 0.886355 0.00724054
-38.2508 85.5994 10.101 -0.467107 0.884129 0.0112754
-38.4842 85.4875 9.15897 -0.468041 0.883636 0.0112114
-38.8044 85.3357 7.66584 -0.471975 0.881547 0.0106963
-39.1174 85.185 6.44699 -0.47206 0.881476 0.0126309
-39.3326 85.0816 5.53963 -0.471549 0.881775 0.0106571
-39.4044 85.0548 4.24672 -0.474043 0.880481 0.00598609
-39.3704 85.0804 3.17978 -0.474425 0.880278 0.00559182
-39.3922 85.0822 1.8042 -0.476212 0.879282 0.00922745
-39.1844 85.2021 0.760684 -0.47102 0.882096 0.00691468
-39.085 85.2649 -0.140626 -0.470578 0.882286 0.0113082
-38.9916 85.3272 -1.2719 -0.474359 0.880273 0.0101195
-38.8845 85.3959 -2.23307 -0.471441 0.881841 0.00972928
-38.6702 85.5231 -3.43038 -0.469526 0.882855 0.0105911
-38.4034 85.6824 -4.60273 -0.466525 0.884386 0.0146902
-37.945 85.947 -5.97296 -0.462991 0.886258 0.0136456
-37.6066 86.1372 -6.88386 -0.462519 0.886505 0.0135606
-36.9629 86.4898 -7.93415 -0.46014 0.887708 0.0156737
-36.3072 86.8382 -8.73511 -0.455363 0.890228 0.0116906
-35.5571 87.2213 -9.43014 -0.444027 0.895957 0.0096205
-34.7708 87.6181 -10.1006 -0.441961 0.896936 0.0132497
-33.6517 88.1736 -10.5716 -0.434837 0.900394 0.0130337
-32.6737 88.6412 -10.9514 -0.425318 0.904943 0.0135238
-31.7715 89.0585 -11.0343 -0.411017 0.91149 0.0158444
-30.9284 89.4381 -11.0987 -0.40324 0.91492 0.0175943
-29.9152 89.8793 -10.9587 -0.393456 0.919124 0.0181926
-28.8521 90.319 -10.7777 -0.379405 0.925005 0.0197663
-27.8586 90.7155 -10.5846 -0.365663 0.930443 0.0220619
-26.9286 91.0672 -10.4039 -0.358637 0.933178 0.0235351
-25.8209 91.457 -10.1062 -0.33712 0.941272 0.0188993
-24.824 91.7964 -9.73078 -0.321602 0.946674 0.0184375
-23.5572 92.1879 -9.37578 -0.291453 0.956348 0.0202819
-22.6237 92.4663 -9.13713 -0.277243 0.960698 0.00528015
-21.8637 92.6741 -8.87273 -0.245645 0.969097 0.0189342
-21.7628 92.7171 -9.76084 -0.245631 0.969101 0.0189476
-20.5539 93.0017 -9.49264 -0.217673 0.975661 0.0216223
-19.5772 93.2021 -9.35674 -0.204198 0.978626 0.0243585
-18.6123 93.3747 -9.23125 -0.163262 0.986214 0.026971
-17.6966 93.5182 -9.30014 -0.13222 0.990859 0.0267527
-16.5299 93.6619 -9.29433 -0.106313 0.993902 0.0277427
-15.1119 93.799 -9.32652 -0.0850428 0.995943 0.0275773
-13.9886 93.8757 -9.44025 -0.0455853 0.998758 0.019177
-13.0345 93.9035 -9.56914 -0.0100024 0.999834 0.0152462
-12.0726 93.9004 -9.56846 0.0191156 0.999354 0.0304348
-10.9962 93.8582 -9.70585 0.0673991 0.997426 0.0235672
-10.0676 93.7925 -9.93744 0.105923 0.994281 0.0135974
-8.92727 93.6651 -10.0836 0.137283 0.990061 0.0305267
-7.49241 93.4697 -10.3533 0.149517 0.98835 0.0273995
-6.48439 93.3072 -10.5271 0.198613 0.979363 0.0266926
-5.25211 93.0386 -10.9419 0.228504 0.972873 0.0356932
-4.31864 92.8176 -11.1867 0.265421 0.963371 0.0352506
-3.3866 92.5628 -11.5533 0.284347 0.958105 0.0327557
-2.28796 92.2307 -12.0441 0.317562 0.947818 0.0268973
-1.29105 91.893 -12.5658 0.343977 0.938768 0.0195215
-0.113804 91.4635 -13.2618 0.367985 0.92969 0.0130427
1.18582 90.9369 -13.6618 0.382729 0.923812 0.00945761
2.17215 90.5213 -13.9762 0.402864 0.915148 0.0143278
3.01343 90.1514 -14.1258 0.413169 0.910642 0.00464582
3.99544 89.6952 -14.3127 0.429439 0.903091 0.00288072
4.93812 89.242 -14.4 0.444603 0.895725 0.0020414
5.85068 88.7889 -14.2149 0.447781 0.894129 0.00302218
6.80216 88.3057 -13.7743 0.457168 0.88937 0.00122532
7.60985 87.8892 -13.3598 0.460905 0.887439 -0.00383935
8.30296 87.5308 -12.6541 0.463337 0.886158 -0.0062504
8.88414 87.2309 -11.8192 0.464184 0.885673 -0.00986011
9.33829 86.9989 -11.0047 0.4714 0.881847 -0.0111814
10.0185 86.6485 -9.72336 0.476494 0.879081 -0.0126624
10.5079 86.399 -8.81449 0.477009 0.878771 -0.0149475
10.9247 86.1942 -7.70704 0.478777 0.877763 -0.0174547
11.3265 85.9939 -6.62344 0.484181 0.874875 -0.0126877
11.5083 85.9075 -5.5128 0.484731 0.874577 -0.0122717
11.6768 85.8288 -4.48673 0.486642 0.873495 -0.0136052
11.9577 85.6897 -3.44818 0.487084 0.873238 -0.0142892
12.0926 85.6329 -2.31584 0.486797 0.873403 -0.0140025
12.1136 85.6376 -1.29388 0.486795 0.873403 -0.01406
12.2021 85.6042 -0.317048 0.48672 0.87344 -0.0143481
12.3072 85.5627 0.727451 0.486731 0.873438 -0.0140915
12.1956 85.6451 2.11088 0.484261 0.874813 -0.0138913
12.0951 85.7165 3.17208 0.481937 0.876104 -0.0133813
12.0978 85.732 4.19894 0.482178 0.875976 -0.0128674
11.8523 85.8778 5.127 0.475511 0.879657 -0.0096361
11.5455 86.0538 6.01955 0.474791 0.880036 -0.0104257
11.3148 86.1889 7.03555 0.468997 0.883157 -0.00869708
10.9267 86.4057 8.09889 0.467547 0.883927 -0.00831451
10.5801 86.5969 9.17584 0.465853 0.884837 -0.00670204
10.1891 86.806 10.0206 0.461771 0.886976 -0.00644583
9.58731 87.1271 11.2704 0.459842 0.887981 -0.00590498
9.1462 87.3595 12.0342 0.45699 0.88946 -0.00467559
8.6604 87.6119 12.828 0.452358 0.891831 -0.00298754
7.63056 88.1341 13.7307 0.447572 0.894214 -0.00745951
6.79389 88.551 14.142 0.439591 0.898165 -0.00753347
5.96276 88.9564 14.2285 0.423918 0.905688 -0.004728
5.07479 89.3727 14.1155 0.419288 0.907741 -0.0113497
3.95959 89.8779 14.0129 0.408515 0.912623 -0.0136099
3.12924 90.2355 13.8374 0.392788 0.919574 -0.0100421
2.06235 90.6717 13.6258 0.379143 0.925203 -0.0157773
1.07532 91.0609 13.43 0.362072 0.931976 -0.0179872
-0.131203 91.5056 13.2772 0.336293 0.941599 -0.0173027
-1.28179 91.9076 13.2985 0.319653 0.947404 -0.0157641
-2.1865 92.2028 13.193 0.301909 0.953255 -0.0124739
-3.13402 92.4867 13.1219 0.270078 0.962488 -0.0259657
-4.01132 92.726 13.0659 0.246666 0.969018 -0.0126357
-5.13262 92.9916 13.2493 0.212701 0.97707 -0.00960048
-6.22055 93.2271 13.2366 0.188841 0.981734 -0.0126861
-7.39461 93.4135 13.3688 0.154411 0.987995 0.0047854
-8.52522 93.5681 13.468 0.110299 0.993871 -0.00732863
-9.57133 93.6781 13.538 0.0921563 0.995351 -0.0279865
-10.5159 93.7519 13.6147 0.0705756 0.99706 -0.029842
-11.5307 93.8069 13.6467 0.0411033 0.998991 -0.0181228
-12.4459 93.8342 13.6728 0.0126643 0.999737 -0.0191307
-13.4205 93.8221 13.6873 -0.027673 0.999604 -0.00500475
-14.6789 93.7578 13.7126 -0.0721372 0.997191 -0.0201377
-15.5835 93.6899 13.8551 -0.0904021 0.995772 -0.0162692
-16.9092 93.537 13.9912 -0.141849 0.989579 -0.022658
-18.1691 93.3518 14.143 -0.16614 0.985875 -0.0211442
-19.3145 93.1417 14.3796 -0.194307 0.980691 -0.0221374
-20.5165 92.8851 14.7981 -0.220637 0.975154 -0.0198706
-21.5695 92.629 15.1941 -0.250739 0.967921 -0.0161167
-22.9176 92.245 15.514 -0.298828 0.954126 -0.018568
-23.844 91.969 15.9303 -0.314029 0.949139 -0.0228154
-24.6192 91.713 16.3944 -0.333184 0.942552 -0.0241624
-25.8594 91.2814 16.965 -0.344943 0.938264 -0.0259867
-26.8895 90.8906 17.433 -0.368923 0.929359 -0.0128097
-27.8302 90.5164 17.716 -0.376546 0.926309 -0.0116637
-28.73 90.1417 17.9827 -0.392829 0.919588 -0.00663013
-29.5658 89.7784 18.1389 -0.40001 0.916479 -0.00721058
-30.8244 89.2157 18.4033 -0.415659 0.909518 -0.00196909
-31.7592 88.7799 18.4226 -0.42778 0.903883 -0.000406706
-32.5895 88.3852 18.2348 -0.433043 0.901366 -0.00365594
-33.515 87.9361 17.8319 -0.441343 0.897336 0.00215586
-34.5055 87.4451 17.5549 -0.447889 0.894081 0.0038341
-35.5486 86.922 16.6957 -0.452556 0.891731 0.00301484
-36.2133 86.5911 15.9447 -0.453528 0.891214 0.00672143
-36.9472 86.2188 15.3444 -0.458023 0.888887 0.00977508
-37.3957 85.9925 14.5963 -0.461209 0.887232 0.00981869
-37.8214 85.7836 13.6229 -0.464475 0.885506 0.0118974
-38.3197 85.5317 12.8962 -0.46516 0.885154 0.0113866
-38.8066 85.2845 11.9456 -0.468322 0.883517 0.00847053
-38.9998 85.192 10.9565 -0.470917 0.882142 0.00792309
-39.0691 85.1646 10.0664 -0.470783 0.882176 0.0113703
-39.5335 84.9295 8.99436 -0.471427 0.88185 0.00984525
-39.6604 84.8739 7.94319 -0.472007 0.881531 0.0106506
-39.8961 84.7595 7.03962 -0.473722 0.880588 0.0121629
-40.1278 84.6465 6.10618 -0.475535 0.879622 0.011464
-40.2477 84.5946 4.95297 -0.476287 0.879247 0.00870054
-40.2332 84.6114 3.76879 -0.474801 0.880078 0.0052009
-40.2772 84.5962 2.53733 -0.474582 0.880183 0.00698077
-40.1887 84.6533 1.5584 -0.476251 0.879265 0.00886708
-40.0296 84.7478 0.598942 -0.477219 0.878759 0.0067262
-39.9598 84.7962 -0.595991 -0.475282 0.879782 0.00924143
-39.8369 84.8762 -1.64562 -0.476179 0.879275 0.011076
-39.6786 84.9772 -2.9265 -0.472175 0.881434 0.0111852
-39.4451 85.1214 -4.14963 -0.472031 0.881443 0.0156366
-39.2292 85.254 -5.04738 -0.469394 0.88281 0.0176268
-38.8432 85.4752 -5.98328 -0.467818 0.883666 0.0167161
-38.5747 85.6322 -6.85696 -0.464384 0.885513 0.0144079
-38.1556 85.8655 -7.66427 -0.462833 0.886267 0.0177961
-37.6713 86.1324 -8.49358 -0.460104 0.887731 0.0154113
-36.9053 86.5413 -9.48023 -0.455009 0.890425 0.0104936
-36.1774 86.9181 -10.1839 -0.448204 0.893888 0.00880935
-35.4251 87.3013 -10.8541 -0.447484 0.894251 0.00855955
-34.7209 87.6612 -11.2496 -0.438418 0.898622 0.0163748
-33.6778 88.1779 -11.5845 -0.4366 0.899447 0.0186986
-32.6002 88.6975 -11.9975 -0.422348 0.906183 0.0212704
-31.3729 89.2614 -12.013 -0.412126 0.910799 0.0244494
-30.359 89.7116 -12.0597 -0.399466 0.916424 0.024309
-29.5101 90.0714 -11.8631 -0.382118 0.923686 0.0281034
-28.6559 90.421 -11.7398 -0.378415 0.925211 0.0277565
-27.5059 90.8736 -11.4826 -0.359709 0.932707 0.0258172
-26.513 91.2401 -11.273 -0.340025 0.9401 0.0244059
-25.4022 91.6234 -10.974 -0.326001 0.945074 0.0236382
-24.307 91.98 -10.5643 -0.304344 0.952397 0.0177181
-23.1761 92.3219 -10.2687 -0.295793 0.955023 0.0205433
-22.2804 92.5751 -9.9748 -0.270484 0.962588 0.0161912
-21.9068 92.6774 -9.81636 -0.273714 0.961725 0.0115435
-21.4505 92.8199 -10.6062 -0.252929 0.967033 0.0258687
-22.3041 92.5937 -11.0406 -0.265552 0.963891 0.0198961
-23.194 92.3434 -11.3196 -0.295231 0.955107 0.0246907
-24.1298 92.0611 -11.5279 -0.306501 0.95121 0.035446
-24.9572 91.8025 -11.8029 -0.3189 0.947201 0.0321099
-26.4021 91.3102 -12.2291 -0.336366 0.941263 0.0293101
-27.4313 90.9329 -12.5064 -0.362527 0.931504 0.029563
-28.2971 90.5953 -12.7679 -0.372089 0.927948 0.0214839
-29.1425 90.2543 -12.858 -0.381465 0.923751 0.0341883
-30.2459 89.7877 -13.0027 -0.396643 0.917518 0.0288841
-31.2561 89.3418 -12.9841 -0.410099 0.911442 0.0330537
-32.2932 88.8657 -12.9808 -0.419242 0.907481 0.0267255
-33.1111 88.4834 -12.9669 -0.433308 0.90082 0.0277078
-33.8971 88.0932 -12.5729 -0.436609 0.899315 0.024024
-34.9151 87.5854 -12.1995 -0.452387 0.891481 0.0197612
-35.7246 87.1646 -11.9075 -0.457319 0.889288 0.00516063
-36.3848 86.8249 -11.2888 -0.448575 0.893724 0.00482762
-36.9863 86.5169 -10.6533 -0.448491 0.893745 0.00869297
-37.8533 86.0714 -9.82564 -0.454776 0.890242 0.0237608
-38.4136 85.7555 -8.96644 -0.46037 0.887598 0.0151352
-39.02 85.419 -7.97307 -0.463949 0.885699 0.0169835
-39.4237 85.1894 -7.1606 -0.466048 0.884564 0.0185972
-39.751 84.9987 -6.17933 -0.468296 0.883405 0.0171819
-40.2755 84.6943 -5.0428 -0.475173 0.879708 0.0180246
-40.3934 84.6114 -4.06302 -0.475986 0.879309 0.0158902
-40.5802 84.4897 -2.90785 -0.476881 0.878848 0.0145092
-40.7784 84.3635 -1.67197 -0.47859 0.877955 0.0120313
-40.863 84.3047 -0.463344 -0.478426 0.878085 0.0086422
-40.89 84.2805 0.538733 -0.479322 0.877594 0.00889963
-41.101 84.1496 2.46632 -0.478411 0.878112 0.00643775
-41.0693 84.1613 3.41701 -0.477307 0.878725 0.00417403
-41.1393 84.1102 4.95747 -0.477495 0.878592 0.00859954
-41.0241 84.1619 6.07096 -0.477611 0.878528 0.00876822
-40.8823 84.2263 7.04996 -0.477549 0.878544 0.00983556
-40.5787 84.3755 8.2903 -0.473829 0.880564 0.00942612
-40.3751 84.474 9.35372 -0.474084 0.880425 0.00973537
-40.0572 84.6348 10.2513 -0.473317 0.880824 0.0109414
-39.7841 84.7675 11.5251 -0.471798 0.881683 0.00648802
-39.54 84.8874 12.7054 -0.469183 0.883038 0.0104338
-38.7156 85.3112 13.8628 -0.468913 0.883215 0.00681381
-38.3584 85.4882 14.7288 -0.463998 0.885802 0.00771011
-37.6419 85.856 15.8263 -0.460138 0.887838 0.003191
-37.0569 86.1542 16.548 -0.459764 0.888024 0.0054628
-36.4194 86.4775 17.1598 -0.456348 0.88979 0.00294851
-35.7947 86.7919 17.8191 -0.453704 0.891135 -0.000434649
-35.0474 87.1732 18.3087 -0.446446 0.894809 -0.00166116
-34.1643 87.6144 18.6742 -0.447437 0.894313 -0.000307257
-33.2204 88.08 19.0126 -0.440551 0.897727 -6.81173e-05
-32.2541 88.5545 19.3851 -0.430152 0.902623 -0.0155146
-31.2357 89.0344 19.3809 -0.417033 0.908855 -0.00800167
-29.9448 89.6248 19.1304 -0.410656 0.911629 -0.0137522
-29.0979 89.9956 19.0393 -0.400943 0.915998 -0.0137528
-28.0841 90.4306 18.8044 -0.395071 0.918468 -0.01831
-26.9626 90.8786 18.4932 -0.374636 0.926944 -0.0205455
-25.8508 91.3083 18.0329 -0.360976 0.932134 -0.0286841
-24.8845 91.6563 17.5551 -0.342452 0.938745 -0.0385354
-23.5617 92.0942 16.9539 -0.315486 0.948201 -0.037131
-22.7501 92.3405 16.5208 -0.300579 0.952151 -0.0553215
-21.4406 92.6912 16.134 -0.25827 0.965178 -0.0413896
-20.1457 92.9975 15.639 -0.223098 0.973791 -0.0438484
-19.1266 93.2156 15.3336 -0.205328 0.977706 -0.0438113
-18.0221 93.4106 15.1385 -0.160981 0.98592 -0.0452353
-17.0571 93.5506 14.9751 -0.139995 0.989395 -0.0387119
-15.6682 93.7054 14.8812 -0.0969885 0.994878 -0.02833
-14.368 93.8083 14.6524 -0.0774248 0.996485 -0.0319893
-13.3771 93.8419 14.7387 -0.0282279 0.99944 -0.0179812
-12.3761 93.8544 14.6495 0.0175883 0.999563 -0.0237377
-11.1788 93.816 14.633 0.0361723 0.999057 -0.0240079
-10.1712 93.7549 14.5639 0.080488 0.996316 -0.0296103
-9.00536 93.6452 14.4197 0.108721 0.993395 -0.0366339
-8.0758 93.5413 14.3298 0.13184 0.990292 -0.0366298
-6.33609 93.2688 14.2029 0.149731 0.988287 -0.0294845
-5.09828 93.0116 14.1898 0.213556 0.976273 -0.0358353
-4.08532 92.7637 14.0909 0.240621 0.970447 -0.0175131
-3.14423 92.52 14.2485 0.285995 0.957871 -0.0192152
-1.96839 92.1486 14.275 0.302461 0.953071 -0.0131218
-1.07073 91.8547 14.2805 0.319069 0.947453 -0.022966
-0.0746952 91.5125 14.3166 0.330731 0.943324 -0.027522
0.871657 91.1602 14.4296 0.362689 0.931721 -0.0187916
1.79459 90.804 14.6095 0.371762 0.928015 -0.0226064
3.06498 90.283 14.8886 0.392742 0.919265 -0.0265647
3.91815 89.9143 14.9059 0.406711 0.913238 -0.0215203
4.9083 89.4594 15.0521 0.428033 0.903581 -0.0172769
5.92956 88.9812 15.1965 0.425477 0.904881 -0.0126072
6.74695 88.5856 15.1689 0.438616 0.898544 -0.0153601
7.67148 88.1238 14.9058 0.444824 0.895502 -0.0143844
8.43034 87.7394 14.4301 0.45177 0.892094 -0.00765796
9.32459 87.2772 13.6222 0.454698 0.890624 -0.00625042
9.7546 87.0527 12.8757 0.45649 0.889707 -0.00611552
10.4185 86.6973 11.5447 0.462606 0.886519 -0.00894367
10.9034 86.4366 10.517 0.463585 0.886035 -0.00564421
11.381 86.1775 9.47592 0.465856 0.884834 -0.00681119
11.6532 86.0257 8.59492 0.467514 0.88393 -0.00996211
12.1265 85.7586 7.43609 0.472607 0.881193 -0.0117867
12.4085 85.5938 6.38921 0.473903 0.880489 -0.0124347
12.7247 85.4097 5.48396 0.478507 0.877918 -0.0170533
12.9395 85.2752 4.58862 0.482208 0.875917 -0.0156796
12.9489 85.2461 3.24787 0.483516 0.875187 -0.0160747
13.1016 85.1434 2.15449 0.485837 0.873938 -0.0139359
13.1133 85.1184 1.01048 0.486198 0.873732 -0.0142457
13.112 85.1025 0.0223348 0.486842 0.873366 -0.014725
13.0137 85.1409 -0.97417 0.486877 0.873355 -0.0142125
12.9719 85.1425 -2.2823 0.4875 0.872999 -0.0147276
12.829 85.1988 -3.70499 0.487657 0.872923 -0.0140357
12.5062 85.363 -4.68154 0.490012 0.871614 -0.0130461
12.3715 85.4244 -5.71388 0.485996 0.873902 -0.0101036
12.1443 85.5373 -6.89884 0.484902 0.874504 -0.0105273
11.8225 85.6999 -7.88051 0.480074 0.87704 -0.0181816
11.3579 85.9314 -8.92718 0.482409 0.875782 -0.0164249
10.9133 86.1598 -9.96515 0.479817 0.877304 -0.0105538
10.2798 86.491 -11.0864 0.477876 0.87838 -0.00858726
9.86528 86.7068 -11.9712 0.47141 0.88187 -0.00880961
9.12079 87.0927 -13.179 0.469774 0.882759 -0.0063372
8.44663 87.4482 -13.9239 0.465797 0.884889 -0.0022021
7.58236 87.901 -14.5426 0.463478 0.886107 -0.00168122
6.69054 88.3638 -14.9754 0.454046 0.890957 0.00476972
5.92202 88.7595 -15.3403 0.449767 0.893095 0.00781284
4.99983 89.2227 -15.3411 0.453302 0.891201 0.0166846
3.9889 89.7136 -15.4469 0.433483 0.901099 0.0106452
2.94959 90.1968 -15.1892 0.414958 0.909666 0.0178366
2.07993 90.581 -15.1124 0.406777 0.913277 0.0204158
1.05462 91.0178 -14.6688 0.389652 0.920461 0.02942
-0.00658239 91.4474 -14.3046 0.379653 0.924573 0.0320145
-0.905243 91.7881 -13.8982 0.350386 0.935677 0.0416949
-1.66113 92.0559 -13.4617 0.348189 0.936946 0.0299518
-2.60035 92.3734 -12.8798 0.333284 0.941552 0.0490133
-3.84092 92.7328 -12.3946 0.294893 0.954163 0.0511003
-4.82374 92.9818 -12.0061 0.247119 0.967413 0.0536421
-6.07278 93.2618 -11.6723 0.23172 0.970923 0.060118
-6.99042 93.4282 -11.3488 0.186972 0.979651 0.0729796
-8.04493 93.5839 -11.2446 0.147645 0.987329 0.0581569
-9.07603 93.7145 -11.0169 0.107417 0.992473 0.0587066
-9.99235 93.8101 -10.9135 0.0947577 0.994174 0.0483936
-10.918 93.8832 -10.7957 0.0875726 0.995769 0.0278411
-12.1037 93.9284 -10.5469 0.0084865 0.999331 0.0355731
-13.0499 93.943 -10.6208 -0.00605272 0.9991 0.0339427
-14.0956 93.8926 -10.384 -0.0477096 0.998058 0.040055
-15.0072 93.8394 -10.3195 -0.0800978 0.996018 0.0372559
-16.0289 93.7428 -10.2324 -0.0870013 0.995126 0.046195
-17.3042 93.6045 -10.2336 -0.124646 0.990834 0.0520643
-18.2772 93.4695 -10.1932 -0.149881 0.987553 0.0451675
-19.4664 93.2586 -10.3833 -0.206731 0.977723 0.0363411
-20.7076 92.995 -10.48 -0.220154 0.974889 0.0319447
-21.2552 92.8696 -10.6475 -0.240304 0.970176 0.0318322
-38.4764 85.6104 -2.02026 -0.469256 0.882997 0.0107251
-38.5262 85.5662 -0.395229 -0.469259 0.883004 0.0100148
-38.5847 85.5196 1.10101 -0.470805 0.882213 0.00660369
-38.632 85.4832 2.56565 -0.470086 0.882555 0.0107816
-38.6787 85.4422 4.13282 -0.467203 0.884097 0.00970494
-38.6996 85.4187 5.51332 -0.465174 0.885165 0.00979506
-38.7009 85.4106 6.17413 -0.465016 0.885236 0.0107902
-37.9686 85.7542 9.66006 -0.467732 0.883792 0.0117501
-37.9143 85.8043 7.85522 -0.46622 0.884621 0.00919018
-37.841 85.8597 6.39239 -0.465018 0.885235 0.0107878
-37.7989 85.8974 5.02017 -0.465895 0.884798 0.00863376
-37.7735 85.9238 3.65119 -0.464263 0.885637 0.0103768
-37.7184 85.9686 2.17947 -0.46254 0.886538 0.0103278
-37.664 86.0114 0.760802 -0.46614 0.884684 0.00688556
-37.6012 86.0603 -0.834849 -0.465843 0.884816 0.00952343
-37.5412 86.1121 -2.43775 -0.469267 0.882998 0.0100915
-37.5078 86.1461 -3.79257 -0.466606 0.884407 0.0101831
-37.4559 86.1914 -5.27682 -0.463061 0.886212 0.0142496
-37.4394 86.2099 -5.89407 -0.462991 0.886258 0.0136456
-36.451 86.7504 -7.85498 -0.45292 0.891445 0.013762
-36.4923 86.7066 -6.36817 -0.457762 0.889023 0.00964261
-36.5325 86.6657 -4.79418 -0.463001 0.886285 0.0113708
-36.596 86.6193 -3.4082 -0.464153 0.88574 0.00514161
-36.6355 86.5839 -2.03241 -0.463164 0.886194 0.0118055
-36.7034 86.5282 -0.565537 -0.464959 0.885255 0.0116669
-36.7589 86.4833 0.878713 -0.460063 0.887844 0.00867941
-36.8354 86.4246 2.5451 -0.461925 0.886848 0.0112049
-36.8945 86.3744 4.16423 -0.456056 0.889869 0.0120894
-36.9505 86.3248 5.89916 -0.458291 0.888754 0.00922527
-37.0548 86.2595 7.64094 -0.462172 0.886761 0.00721259
-37.1028 86.2135 9.31579 -0.461396 0.887119 0.0115267
-37.1113 86.1908 10.6985 -0.461694 0.886935 0.0136166
-37.1443 86.152 12.2391 -0.459822 0.887939 0.0113298
-36.3214 86.5569 13.7605 -0.457038 0.889408 0.00832413
-36.2853 86.5914 12.3814 -0.454391 0.89074 0.0105218
-36.2405 86.6343 10.9413 -0.455717 0.89003 0.012961
-36.2231 86.6653 9.53805 -0.45207 0.891894 0.0125516
-36.1858 86.7031 7.86897 -0.455667 0.890125 0.00666252
-36.1203 86.7483 6.45618 -0.456258 0.889824 0.00655485
-36.0378 86.8021 4.99501 -0.452819 0.891534 0.0110076
-35.9796 86.8494 3.48304 -0.453485 0.891208 0.0100051
-35.8954 86.9128 1.80151 -0.450558 0.892686 0.0104379
-35.8305 86.962 0.359482 -0.452672 0.891602 0.0115845
-35.7811 87.0053 -0.993902 -0.45133 0.892299 0.010223
-35.6768 87.086 -2.91826 -0.45044 0.892726 0.0120469
-35.6155 87.1324 -4.36267 -0.452545 0.89171 0.00752014
-35.5796 87.1652 -5.78325 -0.455003 0.890431 0.0102313
-35.5353 87.2059 -7.27985 -0.447697 0.894031 0.0165964
-35.4833 87.248 -8.66272 -0.446016 0.894948 0.0117578
-34.4957 87.7454 -9.53853 -0.441522 0.897155 0.0130915
-34.56 87.694 -7.78306 -0.436071 0.899838 0.011588
-34.6176 87.6476 -6.36998 -0.43943 0.898168 0.013977
-34.6745 87.6079 -4.87763 -0.437757 0.899075 0.00574841
-34.7313 87.5628 -3.32346 -0.437877 0.898965 0.0112147
-34.8135 87.4994 -1.7355 -0.438243 0.898723 0.0154816
-34.9073 87.4312 -0.101502 -0.439696 0.898088 0.0103068
-34.9759 87.3797 1.47043 -0.444365 0.89574 0.0137606
-35.0574 87.3189 2.87581 -0.445194 0.89534 0.0129945
-35.1362 87.2627 4.62018 -0.448674 0.893651 0.00894737
-35.2294 87.2006 6.37219 -0.450785 0.892607 0.00675254
-35.3027 87.1524 7.76945 -0.451604 0.892182 0.00808261
-35.3351 87.1184 9.20806 -0.445811 0.895011 0.0144542
-35.3637 87.0814 10.8068 -0.447978 0.893973 0.0112924
-35.4299 87.0302 12.1638 -0.454385 0.890743 0.0105148
-35.4772 86.9895 13.6092 -0.455108 0.890363 0.011417
-35.4995 86.9664 14.5523 -0.453685 0.891114 0.00926394
-34.6492 87.392 14.995 -0.451659 0.892145 0.00905973
-34.6322 87.4199 13.4089 -0.441921 0.897032 0.0062806
-34.5818 87.4544 12.0357 -0.441775 0.897063 0.0106079
-34.492 87.5198 10.681 -0.44798 0.893972 0.0112933
-34.4693 87.5486 9.24969 -0.44402 0.89593 0.0125037
-34.4152 87.5951 7.6708 -0.440695 0.897621 0.00803732
-34.3338 87.6477 6.08032 -0.44263 0.896695 0.00421707
-34.2457 87.7096 4.64413 -0.446229 0.89483 0.012651
-34.1448 87.772 2.73569 -0.437749 0.899024 0.0114945
-34.067 87.8281 1.33882 -0.430996 0.90227 0.0123081
-34.0025 87.8733 -0.0263052 -0.439825 0.898022 0.0105228
-33.8894 87.9462 -1.53494 -0.427728 0.903842 0.0109137
-33.7635 88.036 -3.66056 -0.426931 0.904186 0.0133126
-33.6915 88.0854 -5.05194 -0.43571 0.900047 0.0085437
-33.6218 88.1346 -6.57085 -0.436535 0.899634 0.00976734
-33.5534 88.1854 -8.07226 -0.435817 0.899966 0.0111625
-33.5264 88.2165 -9.43917 -0.429643 0.902926 0.011501
-33.5212 88.2265 -10.0269 -0.429688 0.902878 0.0133782
-32.5127 88.7068 -10.4501 -0.418703 0.90793 0.0187252
-32.5731 88.6594 -9.00624 -0.425087 0.90508 0.0114633
-32.6133 88.6222 -7.5338 -0.422423 0.906287 0.0142102
-32.6898 88.5643 -5.84851 -0.424631 0.905333 0.00775668
-32.7637 88.5174 -4.36874 -0.425054 0.905141 0.00704301
-32.8453 88.4584 -2.905 -0.427303 0.904008 0.0135029
-32.9568 88.3864 -1.42076 -0.427973 0.903721 0.0113044
-33.0701 88.3155 0.135822 -0.428475 0.903515 0.00838359
-33.1892 88.2432 1.87184 -0.428709 0.903406 0.00811098
-33.2808 88.1873 3.38188 -0.427582 0.903957 0.00595581
-33.3706 88.1274 5.00817 -0.433342 0.901162 0.011061
-33.4617 88.0703 6.49163 -0.430064 0.902785 0.00498156
-33.5366 88.0229 7.86514 -0.432204 0.901711 0.0107691
-33.5787 87.9849 9.3491 -0.43334 0.901161 0.0112226
-33.6708 87.9176 10.9918 -0.438201 0.898796 0.012071
-33.7519 87.8601 12.506 -0.442136 0.896925 0.00643624
-33.8012 87.8206 14.2179 -0.43841 0.898725 0.00951113
-33.8404 87.7799 16.0013 -0.443447 0.896278 0.00630835
-33.0034 88.191 16.3737 -0.43134 0.902189 0.000902783
-32.9725 88.2154 14.9393 -0.432929 0.901413 0.00519016
-32.9053 88.2596 13.0995 -0.430219 0.902695 0.00737397
-32.8624 88.2949 11.6875 -0.432576 0.901594 0.00260357
-32.7462 88.3703 9.87898 -0.424611 0.905321 0.00997974
-32.6765 88.4255 8.47264 -0.421326 0.90684 0.0112264
-32.5966 88.4765 6.9338 -0.425939 0.904714 0.00831642
-32.503 88.5354 5.5185 -0.419853 0.907492 0.0134702
-32.3873 88.6087 3.53499 -0.4246 0.905364 0.00558129
-32.2647 88.6817 1.86714 -0.419531 0.907717 0.00653987
-32.1307 88.7578 0.0568935 -0.419287 0.907841 0.00475024
-31.9989 88.8399 -1.56983 -0.423156 0.905954 0.0136173
-31.8889 88.9102 -3.03189 -0.42566 0.90479 0.0130181
-31.7896 88.9747 -4.5966 -0.423645 0.9058 0.00712548
-31.6847 89.0367 -6.29679 -0.421004 0.907049 0.00406567
-31.6224 89.0796 -7.74055 -0.414323 0.910051 0.0119611
-31.5611 89.1243 -9.09277 -0.415928 0.909319 0.011953
-31.4946 89.1724 -10.4053 -0.408215 0.912718 0.0174921
-30.4571 89.6307 -10.3115 -0.403243 0.914924 0.0175939
-30.5566 89.5642 -8.65783 -0.39691 0.917813 0.00907104
-30.6589 89.4961 -6.92135 -0.400603 0.91623 0.00625191
-30.751 89.4548 -5.52717 -0.410169 0.911988 0.00626532
-30.8808 89.3774 -3.55211 -0.410617 0.911747 0.010576
-31.0121 89.2965 -2.03565 -0.412495 0.910846 0.0143692
-31.1238 89.2249 -0.643387 -0.413585 0.910392 0.0115329
-31.267 89.145 0.993384 -0.414301 0.910118 0.00631596
-31.4381 89.0562 2.90983 -0.41953 0.907718 0.00654004
-31.5283 89.0018 4.28828 -0.407622 0.913063 0.0126505
-31.6136 88.9451 5.72458 -0.417121 0.908796 0.0100264
-31.7282 88.8721 7.22518 -0.411451 0.911341 0.0128476
-31.8474 88.7989 9.17488 -0.412092 0.911005 0.0158304
-31.9489 88.729 10.6769 -0.411181 0.911459 0.0131029
-32.045 88.6692 12.3071 -0.420943 0.907018 0.0111464
-32.1127 88.6259 14.291 -0.41919 0.907886 0.00483836
-32.1329 88.6057 15.7493 -0.419532 0.907739 0.00160618
-32.1607 88.5906 16.4222 -0.426542 0.904459 0.00409387
-31.3388 88.9744 16.5603 -0.418754 0.908096 -0.00278207
-31.29 89.0012 14.9801 -0.419972 0.907514 0.00648925
-31.2431 89.0321 13.3767 -0.420397 0.90732 0.00609219
-31.1987 89.0637 11.8837 -0.413716 0.910394 0.00467764
-31.0731 89.1284 10.3825 -0.413417 0.9105 0.00874695
-30.9404 89.2118 8.64817 -0.404876 0.914303 0.0112055
-30.8298 89.2773 7.12254 -0.404261 0.914564 0.0120536
-30.7007 89.354 5.51777 -0.405792 0.913887 0.0119375
-30.6095 89.4161 4.04552 -0.400898 0.916079 0.00897253
-30.4574 89.4955 2.35579 -0.405093 0.914256 0.00600073
-30.323 89.5692 0.924982 -0.405101 0.914166 0.0139068
-30.1869 89.646 -0.549256 -0.395209 0.918522 0.0112786
-30.072 89.7121 -1.91531 -0.399804 0.916539 0.0106432
-29.9261 89.7981 -3.37532 -0.396858 0.917731 0.016553
-29.8255 89.8521 -4.72654 -0.392428 0.919779 0.00262826
-29.7061 89.9078 -6.19951 -0.394634 0.918818 0.0061162
-29.5759 89.9809 -7.82105 -0.386408 0.922239 0.0128247
-29.467 90.0435 -9.46952 -0.39079 0.920449 0.0075086
-29.4168 90.0706 -10.178 -0.388325 0.921417 0.0139132
-28.3877 90.4864 -9.92844 -0.373983 0.927169 0.0222303
-28.5238 90.4115 -8.42698 -0.367296 0.930063 0.00871807
-28.6342 90.3588 -7.05922 -0.367987 0.929831 0.000929449
-28.753 90.3026 -5.44881 -0.380182 0.924911 -0.000785868
-28.9186 90.2176 -3.80315 -0.37373 0.92748 0.0103462
-29.0748 90.1329 -2.27016 -0.375237 0.926825 0.0138881
-29.2259 90.0593 -0.772775 -0.376099 0.926546 0.00784503
-29.3778 89.9815 0.803894 -0.388147 0.921525 0.0115306
-29.5286 89.9001 2.43443 -0.392239 0.919812 0.00975299
-29.6749 89.82 3.9967 -0.396592 0.917986 0.00407463
-29.8052 89.7498 5.49828 -0.388296 0.921413 0.014989
-29.92 89.6816 6.90856 -0.403553 0.914866 0.0128188
-30.0524 89.6056 8.4023 -0.402562 0.915345 0.00937162
-30.2104 89.5144 10.2128 -0.406777 0.913497 0.00742805
-30.3261 89.459 11.6987 -0.409653 0.912234 0.00364416
-30.3906 89.4194 13.3877 -0.409834 0.912065 0.013146
-30.4543 89.3795 14.9667 -0.411456 0.911423 0.00349867
-30.5014 89.358 16.6191 -0.413248 0.910619 0.000342771
-29.6549 89.7337 16.5406 -0.39798 0.917394 0.000368673
-29.6118 89.7532 14.8727 -0.397429 0.917625 0.00367848
-29.5298 89.7953 13.3957 -0.387046 0.922034 0.00694284
-29.4569 89.8397 11.6093 -0.399955 0.916515 0.00596787
-29.3451 89.8951 10.073 -0.389678 0.920934 0.00557374
-29.1687 89.9866 8.23887 -0.389193 0.921129 0.00712501
-29.0135 90.067 6.63323 -0.38916 0.92108 0.0129052
-28.8809 90.14 5.19615 -0.382847 0.923772 0.00855545
-28.7078 90.2247 3.54733 -0.371113 0.928553 0.00803878
-28.5594 90.3037 2.09166 -0.369972 0.928911 0.0156765
-28.4164 90.3771 0.61429 -0.366572 0.930375 0.00528234
-28.2551 90.4515 -0.823693 -0.373584 0.927577 0.00602144
-28.0845 90.5297 -2.31884 -0.373422 0.927645 0.0056094
-27.9041 90.6218 -3.84237 -0.369669 0.929064 0.013589
-27.7649 90.701 -5.20722 -0.364776 0.931039 0.0102555
-27.6395 90.755 -6.55421 -0.368252 0.929717 -0.00413044
-27.4826 90.8159 -8.15963 -0.362108 0.932136 0.000791163
-27.3233 90.9037 -9.85285 -0.361147 0.932337 0.0178952
-27.3112 90.9109 -9.98513 -0.359255 0.933027 0.0198945
-26.2112 91.3069 -9.59501 -0.33712 0.941272 0.0188993
-26.4216 91.2088 -7.84389 -0.339934 0.940437 0.00481138
-26.5997 91.1389 -6.40232 -0.342964 0.939348 -0.000261051
-26.807 91.0513 -4.67923 -0.343935 0.938876 0.0148842
-26.9601 90.9742 -3.21884 -0.351283 0.936153 0.0147673
-27.1757 90.8787 -1.60972 -0.352017 0.935971 0.00652088
-27.3647 90.7959 -0.140992 -0.366846 0.93028 0.00193039
-27.5271 90.7211 1.31057 -0.359757 0.932972 0.0117568
-27.7332 90.6187 3.05746 -0.364176 0.931322 0.00396737
-27.9031 90.5365 4.50954 -0.365865 0.930569 0.0135487
-28.049 90.4709 5.90013 -0.376182 0.926524 0.00641562
-28.2142 90.3838 7.54965 -0.371239 0.928433 0.0139062
-28.3803 90.3049 9.15087 -0.371479 0.928431 0.00426339
-28.5221 90.2425 10.5563 -0.390102 0.920769 0.00231811
-28.6369 90.1844 12.3005 -0.3819 0.924152 0.00976345
-28.6954 90.147 13.6824 -0.388017 0.921651 -0.00141762
-28.7862 90.1086 15.2501 -0.392008 0.919955 0.00344783
-28.8294 90.0902 16.4708 -0.392871 0.919586 -0.00360755
-27.9893 90.4416 16.0848 -0.373431 0.927656 -0.00163883
-27.9182 90.4659 14.6752 -0.38013 0.924933 -0.000766093
-27.7638 90.5352 12.5707 -0.366982 0.930193 0.00810221
-27.6877 90.5842 11.0396 -0.362589 0.931855 0.0132823
-27.5125 90.6506 9.22642 -0.369993 0.92902 0.00516936
-27.3112 90.7415 7.47778 -0.352215 0.935816 0.0138697
-27.1342 90.8302 5.79605 -0.361284 0.932444 0.00477093
-26.9486 90.9082 4.22654 -0.341273 0.939953 0.00453828
-26.7736 90.9932 2.77177 -0.338237 0.940932 0.0155922
-26.5518 91.0955 1.17652 -0.329047 0.944259 0.0101318
-26.3859 91.1647 -0.203916 -0.333691 0.94268 0.00205068
-26.1818 91.242 -1.58395 -0.331715 0.943309 0.0115161
-25.9744 91.3377 -2.97581 -0.33605 0.941748 0.0134458
-25.8041 91.4113 -4.35343 -0.339139 0.940729 0.00354502
-25.6068 91.487 -5.7222 -0.335316 0.942078 0.00730714
-25.3176 91.5925 -7.58 -0.321411 0.946871 0.0114014
-25.103 91.684 -8.8999 -0.317788 0.94801 0.0169618
-23.9959 92.0458 -8.86723 -0.299419 0.954101 0.0063828
-24.2359 91.9542 -7.28046 -0.302823 0.952967 0.0123374
-24.5685 91.826 -5.47665 -0.306687 0.951741 0.0114763
-24.8018 91.7431 -4.09164 -0.307522 0.951535 0.00327015
-25.0146 91.6591 -2.63342 -0.311339 0.950221 0.0121821
-25.2234 91.5728 -1.23448 -0.311029 0.950344 0.0103809
-25.4676 91.4767 0.317308 -0.313206 0.949654 0.00764797
-25.6938 91.3849 1.83924 -0.324002 0.946036 0.00624714
-25.8827 91.3035 3.2032 -0.326896 0.944934 0.0154603
-26.0596 91.2261 4.54258 -0.337774 0.941188 0.00858896
-26.2595 91.1494 6.0824 -0.333778 0.94265 0.00185082
-26.4259 91.0741 7.5289 -0.342203 0.939578 0.00956054
-26.6147 90.9906 9.11222 -0.349863 0.936801 7.6146e-05
-26.7707 90.9327 10.5564 -0.352542 0.935795 0.00118261
-26.8967 90.8674 12.3107 -0.346593 0.938007 0.00411094
-27.0376 90.8102 13.8865 -0.364456 0.931214 0.00358177
-27.1285 90.7805 15.4949 -0.365818 0.930684 -0.00185338
-27.1446 90.774 15.7907 -0.368044 0.929804 -0.00293203
-26.2691 91.1062 15.3255 -0.353385 0.935456 -0.00638956
-26.1764 91.1338 13.869 -0.34851 0.93729 -0.00529354
-26.0534 91.1811 12.4339 -0.349737 0.93681 0.00838719
-25.9287 91.2434 10.965 -0.345454 0.938399 0.00833947
-25.7429 91.3115 9.25871 -0.339459 0.940621 0.000248312
-25.5581 91.3774 7.84644 -0.329111 0.944256 0.00818736
-25.3895 91.4503 6.43938 -0.317052 0.948383 0.00689273
-25.1575 91.5362 4.80896 -0.324183 0.945966 0.00731852
-24.9743 91.6042 3.46808 -0.313626 0.949538 0.00415
-24.7317 91.7034 1.81751 -0.306561 0.951821 0.00753321
-24.4241 91.8154 0.0762864 -0.299407 0.954047 0.0122826
-24.1898 91.9108 -1.26861 -0.305986 0.951939 0.0135597
-23.946 92.0006 -2.84315 -0.292261 0.956336 0.00216189
-23.6586 92.1063 -4.51204 -0.296428 0.955018 0.00836744
-23.3494 92.2197 -6.00974 -0.286401 0.958018 0.0132281
-23.0258 92.3354 -7.78483 -0.274337 0.961529 0.0142137
-22.8721 92.3916 -8.65132 -0.291902 0.956438 0.00440418
-21.8708 92.6563 -8.0304 -0.242372 0.970012 0.0182318
-22.2124 92.5418 -6.31822 -0.2434 0.969813 0.0147713
-22.4693 92.4553 -4.86709 -0.277351 0.960752 0.00574946
-22.7783 92.3569 -3.39613 -0.282545 0.95921 0.00913942
-23.0707 92.263 -1.86434 -0.286426 0.957888 0.0202861
-23.3418 92.1593 -0.341545 -0.273652 0.961601 0.0209174
-23.6412 92.0456 1.26339 -0.282672 0.959135 0.0124798
-23.8887 91.9644 2.61459 -0.288954 0.957332 -0.00448905
-24.1002 91.887 4.06963 -0.300838 0.953644 0.0077311
-24.343 91.8009 5.60089 -0.305411 0.95221 0.00439174
-24.5265 91.7352 6.95797 -0.31732 0.948293 0.00702521
-24.7525 91.6473 8.59135 -0.321827 0.946756 0.00893465
-24.9377 91.5889 10.0451 -0.314459 0.949269 -0.00209979
-25.0951 91.5271 11.5393 -0.319432 0.947544 0.0110918
-25.2906 91.4455 13.6014 -0.329393 0.944189 -0.00283598
-25.3993 91.4131 14.9156 -0.329155 0.944262 -0.00520969
-24.483 91.72 13.9715 -0.323114 0.946276 -0.012625
-24.3527 91.7631 12.5001 -0.301963 0.953318 -0.0017813
-24.1647 91.8356 10.9934 -0.296376 0.955034 0.00846593
-23.9891 91.89 9.57396 -0.296932 0.954883 -0.00540523
-23.7635 91.9737 7.90642 -0.306526 0.951802 0.0106791
-23.5074 92.0532 6.22682 -0.283361 0.958942 0.0117004
-23.2902 92.1292 4.88821 -0.275969 0.96114 0.00718383
-23.0314 92.2178 3.36093 -0.274562 0.961531 0.00861364
-22.7452 92.3018 1.72305 -0.267969 0.963425 0.00236822
-22.4524 92.3991 0.246796 -0.263749 0.964423 0.0180432
-22.1078 92.5208 -1.48109 -0.24905 0.968349 0.0165611
-21.7641 92.6338 -3.11132 -0.244037 0.969596 0.0181767
-21.4521 92.7312 -4.48288 -0.244448 0.96961 0.0100773
-21.1246 92.8107 -5.99481 -0.241811 0.970309 0.00519626
-20.8036 92.899 -7.36639 -0.210368 0.977474 0.0170325
-20.6382 92.9498 -8.00554 -0.212705 0.976857 0.0225391
-19.4672 93.1883 -7.76218 -0.194332 0.980732 0.0200029
-19.9195 93.0835 -6.09033 -0.1907 0.981648 -0.00104642
-20.3142 92.9951 -4.60525 -0.20483 0.978645 0.0173015
-20.6832 92.899 -3.10313 -0.219986 0.9754 0.0142038
-21.02 92.7959 -1.65583 -0.228059 0.973541 0.0144158
-21.4085 92.6802 0.0750459 -0.251623 0.967809 0.00569112
-21.7391 92.5839 1.62311 -0.264437 0.964395 0.00398581
-21.9988 92.5098 2.95379 -0.26481 0.9643 0.000887918
-22.2962 92.4175 4.60337 -0.277255 0.960784 0.00488973
-22.567 92.3246 6.15014 -0.267618 0.963427 0.0137567
-22.8148 92.2545 7.62122 -0.276426 0.961027 0.00388511
-23.0276 92.1817 8.96963 -0.274826 0.961461 0.00801338
-23.2349 92.1152 10.5065 -0.269484 0.963002 0.00249789
-23.4415 92.0462 12.0604 -0.27626 0.961083 -0.000965191
-23.6179 92.0019 13.5283 -0.285455 0.958343 -0.00966465
-23.6531 91.9957 13.8086 -0.291807 0.956405 -0.0117333
-22.834 92.2442 13.8951 -0.288855 0.957257 -0.0149267
-22.624 92.2859 12.2819 -0.279115 0.960217 -0.00883561
-22.4018 92.3477 10.7087 -0.269397 0.963025 0.00282977
-22.1983 92.4146 9.32029 -0.259056 0.965832 0.00770313
-21.9564 92.4851 7.9148 -0.24661 0.969093 0.00650186
-21.6936 92.5611 6.49281 -0.247625 0.968792 0.0111682
-21.383 92.6639 4.77626 -0.261475 0.965091 0.0151459
-21.1013 92.7503 3.34364 -0.250917 0.967961 0.00962829
-20.8015 92.823 1.93935 -0.243684 0.969839 -0.005549
-20.4926 92.8949 0.602877 -0.217773 0.975998 0.00149517
-20.1343 92.991 -0.93605 -0.209552 0.97766 0.0164129
-19.8112 93.0769 -2.25367 -0.194467 0.980784 0.0156782
-19.4377 93.1701 -3.69023 -0.192789 0.981178 0.0110362
-19.0434 93.2542 -5.12503 -0.153494 0.988148 0.00164584
-18.6289 93.3234 -6.53109 -0.160792 0.986969 0.00618657
-18.2195 93.4039 -7.7947 -0.162502 0.986584 0.0156883
-16.9293 93.581 -7.81213 -0.12253 0.992384 0.0126717
-17.4279 93.5039 -6.37605 -0.139272 0.990251 0.00229538
-17.9002 93.4287 -5.02255 -0.135649 0.990756 0.00167248
-18.3292 93.367 -3.53733 -0.149957 0.988626 -0.0114585
-18.7486 93.2844 -2.04905 -0.193594 0.980973 0.0145883
-19.1543 93.1928 -0.594196 -0.167409 0.985852 0.00837328
-19.5328 93.103 0.902196 -0.196103 0.980583 0.000606128
-19.8698 93.0386 2.28684 -0.202275 0.979316 -0.00498566
-20.1793 92.9895 3.66113 -0.228534 0.973464 0.0118587
-20.4653 92.8851 5.02735 -0.225748 0.974046 0.0165332
-20.7841 92.7923 6.59643 -0.247636 0.968789 0.0111671
-21.0789 92.7052 8.11342 -0.235494 0.971831 0.00929039
-21.3327 92.6316 9.50959 -0.24625 0.969202 0.00297061
-21.5604 92.5803 10.8807 -0.257003 0.966404 -0.00352521
-21.7784 92.5264 12.4013 -0.269998 0.962825 -0.00835235
-21.9685 92.4904 13.7103 -0.272862 0.961941 -0.0146684
-21.0383 92.7333 13.3716 -0.244326 0.969568 -0.015564
-20.8536 92.7674 11.9879 -0.240368 0.970667 -0.00532077
-20.6026 92.817 10.3452 -0.234787 0.972019 -0.00736223
-20.2992 92.8889 8.77051 -0.232334 0.972588 0.00968352
-20.0099 92.9635 7.34008 -0.196711 0.98046 -0.00169751
-19.6985 93.0355 5.89954 -0.201584 0.979432 0.00874367
-19.3769 93.127 4.4998 -0.175092 0.984057 0.0312266
-19.0151 93.2055 2.99818 -0.15245 0.988271 0.00892645
-18.5964 93.2848 1.33022 -0.147719 0.989009 0.00640952
-18.2036 93.354 -0.109582 -0.166394 0.986058 -0.00154963
-17.7794 93.4459 -1.58698 -0.16429 0.986374 0.00860667
-17.3325 93.5108 -3.04285 -0.115664 0.993285 0.00263073
-16.8515 93.5752 -4.47447 -0.126753 0.991934 6.59574e-05
-16.4012 93.6341 -5.74839 -0.122238 0.992498 0.00220375
-15.8935 93.6944 -7.11619 -0.116579 0.993163 0.00603721
-15.826 93.7052 -7.3136 -0.111634 0.993696 0.0103394
-14.1468 93.8427 -7.79975 -0.0349094 0.999326 0.0113323
-14.9115 93.7856 -6.34136 -0.087791 0.996137 0.00194724
-15.4726 93.7216 -4.91571 -0.0985117 0.995068 0.0116074
-16.0392 93.6533 -3.45022 -0.0941785 0.995532 0.00684901
-16.4941 93.6071 -2.12742 -0.11256 0.993644 0.00130755
-16.924 93.5484 -0.766774 -0.128329 0.991539 0.0195585
-17.3484 93.4663 0.641761 -0.14008 0.990137 -0.00238785
-17.7438 93.407 2.0531 -0.143512 0.989588 0.0109554
-18.1095 93.3433 3.38646 -0.153336 0.98815 0.00689771
-18.4417 93.2875 4.6981 -0.175429 0.984014 0.0306835
-18.7811 93.2153 6.05261 -0.166245 0.985985 0.0140132
-19.192 93.1286 7.88169 -0.197582 0.980281 -0.00337327
-19.5119 93.0668 9.34523 -0.204401 0.978869 -0.00604034
-19.8209 93.0091 10.811 -0.224957 0.97434 -0.00745513
-20.0737 92.9532 12.506 -0.211838 0.977303 -0.00183807
-20.1414 92.9408 12.9683 -0.213174 0.976994 -0.00621991
-19.2766 93.1282 12.7883 -0.18037 0.983598 -0.00114039
-18.9638 93.1904 11.0623 -0.16591 0.986123 0.00594132
-18.6656 93.235 9.73262 -0.150668 0.988581 0.00263212
-18.288 93.2922 8.01976 -0.143468 0.989655 0.000791853
-17.8667 93.3655 6.33343 -0.166251 0.985984 0.0140319
-17.4569 93.4344 4.7283 -0.138879 0.990265 0.00936162
-17.0548 93.4972 3.26733 -0.138943 0.990295 -0.00338881
-16.5831 93.5617 1.64667 -0.12218 0.992507 0.00115325
-16.1316 93.6213 0.17656 -0.0887241 0.995866 0.0194557
-15.6624 93.6845 -1.24591 -0.0747574 0.997132 0.0117935
-15.1763 93.7337 -2.60958 -0.0693997 0.997583 0.00346776
-14.6189 93.767 -4.08231 -0.0729112 0.997323 -0.00548676
-14.0444 93.8284 -5.44331 -0.040868 0.999102 0.0111719
-13.328 93.8659 -6.94855 -0.0257203 0.999663 0.00360824
-12.8021 93.877 -8.0259 0.00307745 0.999834 0.0179747
-11.499 93.8532 -8.05826 0.0350561 0.999192 0.0196698
-12.2898 93.8707 -6.46599 0.0375713 0.999294 0.000923039
-12.9986 93.8356 -4.97924 -0.00240914 0.99948 0.032169
-13.6313 93.819 -3.52272 -0.01525 0.999875 0.00413223
-14.2283 93.7895 -2.05445 -0.0647262 0.99787 0.00808146
-14.8361 93.733 -0.39701 -0.0660882 0.997712 0.0142727
-15.3364 93.6928 1.07464 -0.0844212 0.996358 -0.012032
-15.8356 93.6382 2.63326 -0.103401 0.994489 0.0173117
-16.3064 93.5824 4.18042 -0.115245 0.99327 -0.011529
-16.7093 93.5298 5.5691 -0.138361 0.990316 0.0114624
-17.0877 93.4699 7.00226 -0.132523 0.991151 0.00755486
-17.4368 93.417 8.41041 -0.146298 0.989207 -0.00818879
-17.7686 93.3714 9.85138 -0.152886 0.988228 -0.0055569
-18.0772 93.3389 11.2755 -0.154102 0.98804 -0.00542026
-18.4149 93.2854 12.6918 -0.174731 0.984596 -0.00635639
-17.4699 93.4365 12.487 -0.14356 0.989598 -0.00931805
-17.1155 93.4705 11.0003 -0.140406 0.990045 -0.00981175
-16.7964 93.5139 9.643 -0.142469 0.989791 0.00410487
-16.4717 93.5514 8.29756 -0.107238 0.994222 -0.00481902
-16.1026 93.5987 6.88729 -0.110311 0.993823 0.0121705
-15.7009 93.6528 5.50846 -0.108101 0.994138 0.0016855
-15.2438 93.6881 4.02355 -0.0945257 0.995446 -0.012349
-14.649 93.7476 2.23331 -0.0711683 0.997438 -0.00718541
-14.1933 93.7727 0.921489 -0.0639748 0.99794 -0.0047831
-13.67 93.7973 -0.506807 -0.0300528 0.999543 0.00335276
-13.0793 93.8271 -2.00212 -0.00978501 0.999947 -0.00322111
-12.4961 93.8285 -3.37792 0.0199462 0.999801 0.000166477
-11.6477 93.8444 -5.12463 0.0323631 0.999407 0.01178
-11.0446 93.8209 -6.36795 0.0799782 0.996775 -0.00658276
-10.2576 93.7653 -7.85787 0.081974 0.996449 0.0192471
-9.94986 93.7446 -8.37806 0.0913488 0.995715 0.0143836
-8.52246 93.5774 -8.40759 0.128287 0.991651 0.0130781
-9.26544 93.6491 -7.25244 0.11509 0.993353 0.00208394
-9.96909 93.7395 -5.98654 0.0971447 0.995239 -0.00793571
-10.7014 93.7948 -4.53581 0.0666191 0.997697 0.012755
-11.3508 93.8099 -3.18753 0.015202 0.999864 0.00639167
-12.0052 93.831 -1.77837 0.0176677 0.999749 -0.0137623
-12.5823 93.8341 -0.360857 -0.032264 0.999419 -0.0109532
-13.0817 93.8407 0.903528 -0.0177799 0.999835 -0.00362381
-13.6966 93.7985 2.54873 -0.0609085 0.998105 0.00869524
-14.3458 93.7646 4.40305 -0.0617214 0.99808 -0.0051111
-14.8265 93.7346 5.89126 -0.0662076 0.997805 -0.00136565
-15.2705 93.686 7.30713 -0.103677 0.994583 0.00742937
-15.6736 93.6397 8.75568 -0.106439 0.994319 -0.000889242
-16.0212 93.6007 10.1983 -0.110804 0.993842 -0.000823727
-16.394 93.5694 11.7672 -0.10734 0.994162 -0.0109547
-16.5731 93.5615 12.5024 -0.104716 0.994347 -0.0175752
-15.6265 93.6594 12.2546 -0.108143 0.994048 -0.0132039
-15.2785 93.6798 10.8072 -0.0714049 0.997447 -0.000327341
-14.8358 93.7143 9.11205 -0.0769684 0.997034 8.07095e-05
-14.3965 93.7557 7.6508 -0.0760375 0.99709 0.00555117
-13.9761 93.7877 6.36606 -0.060907 0.998141 -0.00219373
-13.4606 93.8155 4.85592 -0.0445576 0.998976 -0.00779652
-12.892 93.8243 3.28709 -0.0363775 0.999263 -0.0122331
-12.3935 93.8381 1.96482 0.0127466 0.999356 0.0335309
-11.8177 93.8385 0.546604 0.0402724 0.999165 0.00689801
-11.273 93.8253 -0.759782 0.0172787 0.99985 -0.00129598
-10.6477 93.7749 -2.14457 0.0590881 0.99825 0.00250915
-9.939 93.7337 -3.61238 0.111568 0.993496 0.0227566
-9.26322 93.6642 -4.94292 0.117687 0.993046 0.00311083
-8.38691 93.5466 -6.47947 0.143733 0.989605 -0.00483044
-7.64934 93.443 -7.66306 0.141928 0.989753 0.0156817
-6.88009 93.3499 -8.84862 0.158113 0.987175 0.0220482
-5.1228 92.9807 -9.47569 0.232885 0.972449 0.0103937
-5.93774 93.1524 -8.27602 0.183826 0.982443 0.0318407
-6.67594 93.2757 -7.09648 0.190363 0.981675 0.0087764
-7.40452 93.4008 -5.90281 0.15277 0.98822 -0.00910718
-8.24319 93.5303 -4.50789 0.142707 0.98976 0.0031405
-9.04196 93.6269 -2.96148 0.106 0.99436 0.00354776
-9.66127 93.6879 -1.69925 0.103147 0.994666 1.33229e-05
-10.2358 93.7532 -0.468262 0.0764048 0.997059 -0.00602198
-10.8631 93.7929 0.975065 0.0597685 0.99817 -0.00915986
-11.4155 93.815 2.28101 0.0143063 0.999865 0.00811522
-11.9628 93.8449 3.65907 0.0158666 0.999804 -0.0118583
-12.4442 93.8436 4.93369 -0.0102755 0.99993 0.00581494
