-18.6124 94.4856 12.8115 -0.181464 0.983355 -0.00893956
-17.5875 94.6564 12.7397 -0.149336 0.988698 -0.0131805
-16.6199 94.7856 12.5476 -0.105219 0.994289 -0.0178623
-15.5742 94.896 12.4085 -0.0890863 0.995737 -0.014571
-14.3806 94.9786 12.2854 -0.0483037 0.998499 -0.0118651
-13.1675 95.0079 12.1228 -0.0282216 0.999567 -0.00732685
-12.1865 95.0045 12.0691 0.0208061 0.999778 -0.00338908
-11.151 94.9843 12.0451 0.0422361 0.998531 -0.0326287
-9.97956 94.9211 11.8917 0.0478015 0.998467 -0.0182802
-8.8762 94.825 11.7962 0.091186 0.995742 -0.0135045
-7.80008 94.691 11.6668 0.140899 0.989973 -0.0100043
-6.71052 94.5166 11.6248 0.17344 0.984764 -0.00589024
-5.63128 94.3147 11.5123 0.207952 0.978067 -0.0118818
-4.65271 94.1021 11.4856 0.215781 0.976402 -0.00881982
-3.54982 93.8351 11.495 0.249039 0.968414 -0.0124133
-2.6085 93.5643 11.3656 0.283084 0.959087 -0.0036232
-1.6405 93.275 11.2168 0.295887 0.955222 0.00124553
-0.35225 92.845 11.1928 0.32753 0.944814 -0.00708879
0.848028 92.4189 11.1917 0.351117 0.936215 -0.0148046
2.01999 91.9623 11.2837 0.37958 0.925126 -0.0077984
3.47147 91.3589 11.3254 0.391225 0.920202 -0.0131162
4.59474 90.8693 11.2936 0.409603 0.912168 -0.0131923
5.56438 90.4261 10.998 0.416039 0.909265 -0.0122245
6.56887 89.9502 10.2764 0.434309 0.900759 -0.00299369
7.17095 89.654 9.41356 0.440701 0.897644 -0.00409061
7.69011 89.3936 8.42965 0.439618 0.89816 -0.00670381
8.12276 89.171 7.53946 0.448929 0.893521 -0.00746191
8.72108 88.8555 6.23105 0.455495 0.890214 -0.00645817
9.09177 88.6529 4.91455 0.46014 0.887787 -0.0102912
9.34255 88.5093 3.65378 0.462915 0.886347 -0.00961804
9.54523 88.3917 2.68074 0.464943 0.885295 -0.00895796
9.67559 88.3077 1.22912 0.464342 0.885598 -0.0101261
9.69491 88.2835 0.0819257 0.464548 0.885465 -0.0120849
9.65701 88.292 -0.920697 0.465508 0.885005 -0.00827836
9.53648 88.3434 -1.99623 0.463509 0.88602 -0.0112777
9.40493 88.3993 -3.09099 0.4649 0.885298 -0.0106372
9.17827 88.5046 -4.18193 0.466039 0.884695 -0.0110896
8.84382 88.6619 -5.39447 0.460987 0.887305 -0.0134582
8.45528 88.8503 -6.3527 0.456837 0.889475 -0.0115945
8.11162 89.0137 -7.33253 0.453478 0.891248 -0.00591561
7.58096 89.2756 -8.36335 0.453012 0.891471 -0.00770453
6.72027 89.6962 -9.45113 0.44708 0.894444 -0.00945902
5.7725 90.1524 -10.3447 0.437731 0.8991 -0.00319735
4.97896 90.5308 -10.7905 0.429354 0.903132 -0.00271084
3.52826 91.204 -10.9116 0.412963 0.910723 0.00676727
2.39625 91.7116 -10.7205 0.394075 0.919062 0.00121722
1.33299 92.16 -10.5479 0.376914 0.926147 0.0060412
0.408205 92.5209 -10.2804 0.355449 0.934668 0.00538304
-0.470686 92.8496 -9.98274 0.350082 0.936687 0.00688341
-1.63535 93.2482 -9.60969 0.32488 0.945672 0.0125074
-2.90958 93.6495 -9.20743 0.286691 0.95797 0.010126
-3.83641 93.9107 -8.9351 0.258007 0.966057 0.01287
-4.82916 94.1633 -8.67787 0.240689 0.970305 0.0240365
-5.99284 94.41 -8.46626 0.199053 0.979693 0.0240654
-7.26314 94.6362 -8.30171 0.172488 0.984679 0.0247072
-8.27715 94.7771 -8.20123 0.138096 0.990391 0.00742149
-9.30187 94.8944 -8.0979 0.101602 0.99479 0.00837608
-10.5522 94.9997 -7.99206 0.0672812 0.99771 0.00698315
-11.7032 95.0547 -7.88138 0.0287222 0.99946 0.0132707
-12.9079 95.0719 -7.62881 0.00413112 0.999862 0.0160624
-13.8775 95.056 -7.63485 -0.0467216 0.998572 0.0258965
-13.7999 95.0846 -8.59885 -0.0501318 0.998476 0.0225931
-12.4342 95.0971 -8.76962 0.0145523 0.99948 0.0231335
-11.4602 95.0729 -8.96309 0.0416426 0.99883 0.0210258
-10.2732 94.9979 -9.00594 0.0768063 0.99669 0.0266554
-8.99953 94.882 -9.10971 0.101888 0.994276 0.032173
-7.92722 94.7505 -9.24452 0.132424 0.990857 0.0258133
-6.85085 94.5877 -9.33223 0.167319 0.985689 0.0205472
-5.8465 94.399 -9.46633 0.211992 0.977034 0.0187885
-4.57246 94.1209 -9.7306 0.24779 0.968609 0.0159753
-3.29002 93.777 -10.0956 0.267196 0.963583 0.0106951
-2.15041 93.4354 -10.4542 0.300286 0.953792 0.0104399
-1.20108 93.1177 -10.7636 0.328896 0.944273 0.0132459
-0.286318 92.7966 -11.0883 0.354869 0.934802 0.0145383
0.727648 92.4096 -11.4526 0.369096 0.929309 0.0123827
1.67964 92.0198 -11.6066 0.390341 0.920569 0.0136652
2.61529 91.6168 -11.8191 0.40285 0.915189 0.0118586
3.87684 91.0492 -11.9692 0.417562 0.908648 0.00109157
4.86938 90.5882 -11.9378 0.432467 0.901639 0.00233456
5.79309 90.14 -11.5464 0.441926 0.897051 0.00127864
6.66783 89.7112 -10.9149 0.447656 0.894191 -0.00519945
7.30498 89.3957 -10.2282 0.448352 0.893846 -0.00445794
8.0495 89.0242 -9.41865 0.457686 0.889073 -0.00854715
8.5141 88.7943 -8.58114 0.458801 0.888477 -0.0104892
9.046 88.5302 -7.56946 0.46265 0.886497 -0.00881397
9.29446 88.411 -6.58115 0.462467 0.886581 -0.00991138
9.78352 88.1667 -5.50299 0.468243 0.883515 -0.0122412
10.0397 88.0468 -4.40615 0.469758 0.882706 -0.0124138
10.287 87.9279 -3.3979 0.470714 0.88222 -0.0107513
10.4421 87.861 -2.20441 0.470311 0.882409 -0.0127331
10.5821 87.8004 -1.17767 0.470048 0.882572 -0.0110591
10.7045 87.7491 -0.0810405 0.468934 0.883168 -0.0106028
10.6555 87.7868 0.918228 0.467566 0.883885 -0.0113381
10.4525 87.9105 2.29775 0.466074 0.884691 -0.00986581
10.2505 88.0322 3.59735 0.464203 0.885657 -0.0112581
10.0437 88.1537 4.72446 0.463352 0.88612 -0.00982127
9.86955 88.2568 5.69701 0.462661 0.886455 -0.0119271
9.4726 88.4738 6.72459 0.45777 0.889032 -0.0082736
9.00703 88.7242 7.76873 0.451505 0.892207 -0.0104771
8.48246 89.0013 8.79039 0.450082 0.89294 -0.00902469
8.06141 89.2167 9.6853 0.445328 0.895346 -0.00540197
7.60681 89.4472 10.561 0.439695 0.898121 -0.006869
6.90578 89.7965 11.3407 0.434547 0.900607 -0.0086839
5.87131 90.2966 11.9847 0.427326 0.90402 -0.0117981
4.81408 90.7826 12.2835 0.409965 0.912085 -0.00542138
3.90366 91.1849 12.3234 0.39897 0.91678 -0.0183489
2.88232 91.618 12.2955 0.381145 0.924373 -0.0162103
1.89303 92.0211 12.2636 0.370831 0.928636 -0.010674
0.97757 92.3834 12.151 0.35496 0.934716 -0.00732684
-0.14957 92.7804 12.1923 0.329749 0.94401 -0.0104817
-1.09005 93.1049 12.1616 0.299474 0.953912 -0.0183123
-2.15753 93.4443 12.2573 0.30188 0.953254 -0.0132308
-3.19485 93.7482 12.4175 0.275802 0.960983 -0.0210263
-4.30259 94.0411 12.4483 0.230459 0.972766 -0.0152998
-5.32888 94.2654 12.444 0.206169 0.978192 -0.0234735
-6.35618 94.4702 12.509 0.168678 0.985524 -0.0169333
-7.47543 94.6646 12.6144 0.169429 0.985372 -0.0183049
-8.71364 94.8273 12.8175 0.103611 0.994439 -0.0143175
-9.72988 94.9198 12.9419 0.0837022 0.996396 -0.0137185
-10.826 94.9976 13.0278 0.0635201 0.99794 -0.00896304
-12.0326 95.0269 13.0621 0.0146536 0.999577 -0.0248139
-13.0669 95.0349 13.1171 0.00193972 0.999747 -0.0224047
-14.6049 94.9889 13.3129 -0.0402231 0.998944 -0.0222091
-15.7512 94.8992 13.4338 -0.0992658 0.994538 -0.0310429
-17.0413 94.7591 13.5974 -0.137456 0.989944 -0.0287104
-18.2414 94.5716 13.7481 -0.176255 0.983812 -0.0301865
-19.3666 94.3655 13.947 -0.192581 0.980751 -0.0312121
-20.3357 94.162 14.1283 -0.222246 0.974262 -0.0376765
-21.4212 93.9038 14.4288 -0.252262 0.966904 -0.0382132
-22.68 93.5676 15.006 -0.286983 0.957338 -0.0338484
-24.0684 93.1524 15.5349 -0.310881 0.949663 -0.038645
-25.1951 92.774 15.9843 -0.340265 0.939741 -0.0332615
-26.2853 92.3856 16.5055 -0.354763 0.934649 -0.0229376
-27.5034 91.9124 16.9716 -0.377685 0.925749 -0.0185093
-28.3825 91.5597 17.4093 -0.386243 0.922192 -0.0194727
-29.5216 91.0812 17.6993 -0.396954 0.917763 -0.0117597
-30.7669 90.5263 17.9598 -0.413009 0.910701 -0.00691848
-32.0982 89.9076 18.0161 -0.425594 0.904895 -0.00587385
-33.0551 89.4455 17.8587 -0.435569 0.900119 -0.00778906
-34.1284 88.9188 17.4785 -0.439808 0.89809 -0.00183743
-35.0548 88.4583 17.01 -0.44935 0.893351 0.00303146
-36.1954 87.8819 16.1983 -0.454517 0.890725 0.00480757
-36.8671 87.5421 15.3477 -0.460651 0.887533 0.00928349
-37.5498 87.1942 14.4216 -0.464491 0.885537 0.00824829
-38.1627 86.8809 13.599 -0.466367 0.884548 0.00874722
-38.5461 86.6877 12.6881 -0.469383 0.882952 0.00870731
-38.7655 86.5844 11.6658 -0.47038 0.882354 0.0139248
-39.1345 86.4024 10.6321 -0.47116 0.881962 0.0122985
-39.4306 86.2608 9.30359 -0.471591 0.881743 0.011419
-39.6263 86.1725 7.87763 -0.472627 0.881209 0.00972579
-39.8665 86.0584 6.59439 -0.47378 0.880567 0.0116145
-40.0781 85.9566 5.58859 -0.47401 0.880464 0.0099176
-40.1449 85.9314 4.59449 -0.473456 0.880772 0.0089503
-40.1646 85.9317 3.53176 -0.472411 0.881338 0.00826465
-40.1715 85.9385 2.42474 -0.4752 0.879845 0.00753653
-40.1702 85.949 1.23574 -0.477049 0.878845 0.00738534
-40.1069 85.9921 -0.0108265 -0.476094 0.879379 0.00495475
-39.9331 86.1004 -1.49262 -0.475224 0.879789 0.0115403
-39.7477 86.2182 -2.77829 -0.474518 0.880167 0.011822
-39.6015 86.3108 -3.81203 -0.473455 0.880717 0.0133213
-39.3352 86.4702 -4.94313 -0.47095 0.882092 0.0109149
-38.9674 86.6783 -6.02179 -0.467236 0.884073 0.0101574
-38.4227 86.9816 -7.14078 -0.466991 0.884174 0.0124588
-37.7733 87.3381 -8.06692 -0.463183 0.886169 0.0128763
-37.167 87.6623 -8.84074 -0.459254 0.888258 0.00916147
-36.3555 88.0892 -9.83731 -0.456172 0.889859 0.00765011
-35.5558 88.5034 -10.4418 -0.449378 0.893275 0.0103934
-34.7169 88.9279 -10.8002 -0.448334 0.893778 0.0125186
-33.6435 89.4585 -11.1287 -0.435353 0.900144 0.0144348
-32.6561 89.9356 -11.3292 -0.424673 0.905184 0.0171473
-31.5696 90.4339 -11.4032 -0.403654 0.914759 0.0165911
-30.2286 91.0213 -11.3129 -0.400201 0.916249 0.0177899
-29.0167 91.5309 -11.1079 -0.382421 0.923744 0.0203346
-28.1033 91.8929 -10.9271 -0.368448 0.92933 0.0243465
-27.0144 92.3056 -10.4906 -0.348569 0.936939 0.0246939
-25.8813 92.7154 -10.2165 -0.341151 0.93971 0.0228774
-24.8756 93.0507 -9.92906 -0.316691 0.948342 0.0188375
-23.9697 93.3282 -9.5774 -0.289055 0.957133 0.0177113
-23.0632 93.5857 -9.29487 -0.277281 0.960657 0.015897
-22.1125 93.8435 -9.09947 -0.259225 0.965533 0.0233986
-21.1392 94.091 -8.88168 -0.246195 0.96894 0.0224834
-19.9768 94.3425 -8.63998 -0.202081 0.978983 0.027498
-18.7301 94.5706 -8.58038 -0.169877 0.985154 0.0247547
-17.7293 94.7204 -8.56336 -0.142313 0.989365 0.0297803
-16.6377 94.8616 -8.54076 -0.109727 0.993783 0.0188701
-15.4175 94.9778 -8.69419 -0.0826705 0.996185 0.0279425
-14.1643 95.0659 -8.6414 -0.053562 0.998378 0.0192995
-14.269 95.09 -9.6337 -0.0602115 0.997576 0.034873
-15.37 95.0168 -9.63587 -0.0727923 0.996693 0.0350611
-16.4347 94.9189 -9.56527 -0.115168 0.992564 0.03942
-17.4764 94.7952 -9.54017 -0.127201 0.991025 0.0410956
-18.9862 94.563 -9.56351 -0.173864 0.983333 0.0531769
-19.9447 94.3876 -9.65443 -0.205041 0.977257 0.0541066
-20.9948 94.1605 -9.85401 -0.253937 0.966467 0.0381766
-22.2055 93.8507 -10.0756 -0.256963 0.965351 0.0454668
-23.3239 93.5448 -10.3784 -0.277009 0.960123 0.0378021
-24.2832 93.2655 -10.8798 -0.308355 0.950961 0.0224333
-25.7082 92.8005 -11.1627 -0.319724 0.947176 0.0241002
-26.5731 92.4973 -11.5277 -0.353411 0.935048 0.0280554
-27.6991 92.0812 -11.8687 -0.361613 0.931842 0.0288628
-28.6512 91.7043 -11.9352 -0.37893 0.924917 0.0293978
-29.877 91.2004 -12.2648 -0.386604 0.921793 0.0288833
-30.8443 90.7802 -12.3913 -0.403308 0.9146 0.0291519
-31.7455 90.3806 -12.4282 -0.416959 0.908633 0.022804
-32.9802 89.8013 -12.2688 -0.429556 0.902817 0.0193654
-33.8791 89.3675 -12.1872 -0.434409 0.900493 0.0199779
-34.7175 88.952 -11.8752 -0.446896 0.894291 0.0229675
-35.6318 88.4809 -11.5083 -0.459531 0.888029 0.0153501
-36.4315 88.0622 -11.0603 -0.457032 0.8894 0.00937914
-37.6339 87.4314 -9.96876 -0.459284 0.88825 0.00840237
-38.2538 87.1011 -9.03553 -0.460232 0.887693 0.0137303
-38.9968 86.6944 -8.1559 -0.468838 0.883142 0.0157888
-39.4523 86.4367 -7.19194 -0.470246 0.882452 0.0121108
-39.9712 86.1441 -5.9388 -0.469427 0.882899 0.0113485
-40.2674 85.9679 -4.82969 -0.475003 0.879825 0.0165176
-40.5315 85.8045 -3.49372 -0.475153 0.879815 0.0123962
-40.7103 85.6936 -2.46592 -0.478353 0.878063 0.0135152
-40.8525 85.5962 -1.12478 -0.480441 0.876946 0.0117031
-41.058 85.4728 -0.116889 -0.480101 0.87718 0.0074185
-40.9965 85.4996 1.25851 -0.478031 0.878327 0.00509017
-41.1193 85.4238 2.41394 -0.478805 0.877896 0.00670083
-41.0948 85.4278 3.5552 -0.476472 0.879173 0.00536718
-40.9788 85.4764 5.05601 -0.476372 0.879189 0.00980248
-40.8471 85.5339 6.13203 -0.477264 0.878683 0.0116099
-40.6791 85.6134 7.20111 -0.474722 0.880101 0.00777464
-40.5081 85.6957 8.17326 -0.473682 0.880658 0.00815657
-40.2893 85.8013 9.28811 -0.472162 0.881458 0.00978933
-40.2648 85.8 10.5189 -0.471296 0.881899 0.0115297
-39.7611 86.0499 11.8864 -0.47257 0.88122 0.0111689
-39.5376 86.156 13.053 -0.469189 0.883086 0.00458656
-39.0414 86.4151 13.924 -0.467445 0.883994 0.00653329
-38.2952 86.799 15.0518 -0.46486 0.885366 0.0056741
-37.682 87.1138 15.9418 -0.463166 0.886241 0.00730375
-37.0094 87.4582 16.7796 -0.458769 0.888532 0.00645472
-36.2377 87.8543 17.3588 -0.45941 0.888216 0.00369288
-35.4283 88.2708 17.9664 -0.447348 0.894352 -0.0036943
-34.3661 88.8042 18.4296 -0.446859 0.894595 -0.00390414
-33.4805 89.245 18.8109 -0.442504 0.896753 -0.00472845
-32.6021 89.6748 19.0137 -0.437384 0.899227 -0.00931004
-31.525 90.189 19.059 -0.426305 0.904463 -0.0145055
-30.133 90.8253 18.8366 -0.414189 0.910063 -0.0152356
-28.6077 91.4936 18.4942 -0.393214 0.919105 -0.0233309
-27.6354 91.891 18.188 -0.38276 0.923504 -0.0249201
-26.7537 92.238 17.7073 -0.367487 0.929326 -0.0339681
-25.3122 92.7739 17.1987 -0.350788 0.935695 -0.0371898
-24.3083 93.1126 16.6999 -0.326566 0.944181 -0.0433232
-23.2715 93.443 16.2562 -0.305476 0.950897 -0.0482932
-22.3377 93.7124 15.8698 -0.276672 0.959424 -0.0480739
-21.2703 93.9784 15.4033 -0.258983 0.965355 -0.0319055
-20.3053 94.2104 15.1581 -0.221685 0.974045 -0.0424556
-18.9544 94.4761 14.8768 -0.204783 0.977761 -0.044644
-17.7961 94.674 14.6926 -0.170545 0.984561 -0.0394241
-16.4695 94.8559 14.5245 -0.123664 0.991533 -0.0396142
-15.2746 94.9714 14.3683 -0.0929119 0.995068 -0.0347476
-13.8564 95.0486 14.2317 -0.0431834 0.998204 -0.0415093
-12.6812 95.0624 14.0591 0.000269191 0.999261 -0.0384465
-11.5504 95.0507 14.0133 0.0158096 0.998924 -0.0435886
-10.2251 94.9818 13.8916 0.0589052 0.997735 -0.0324928
-9.13736 94.8913 13.8711 0.103295 0.994068 -0.0313364
-7.84701 94.7411 13.7235 0.112301 0.993455 -0.0208869
-6.86586 94.5907 13.6845 0.175547 0.98407 -0.0244268
-5.8895 94.4019 13.5431 0.192167 0.981163 -0.0190882
-4.90092 94.1987 13.4673 0.223505 0.973929 -0.0388241
-3.75789 93.9184 13.4645 0.246113 0.968868 -0.0268687
-2.70785 93.6326 13.2551 0.268553 0.962424 -0.0402344
-1.67265 93.3117 13.2004 0.297059 0.954572 -0.0234033
-0.409428 92.895 13.2271 0.335421 0.941761 -0.0240625
0.520804 92.5587 13.163 0.34626 0.93791 -0.0207229
1.58959 92.1582 13.2677 0.369919 0.928661 -0.027346
2.80945 91.6704 13.238 0.37965 0.924637 -0.0286616
3.89419 91.2087 13.3235 0.404651 0.914184 -0.0229289
4.97099 90.7296 13.2316 0.410762 0.911379 -0.0248392
6.0591 90.225 13.1388 0.423837 0.905595 -0.0161329
6.86978 89.8326 12.518 0.438756 0.898498 -0.0124323
7.96006 89.2862 11.8515 0.443583 0.896188 -0.00899306
8.46327 89.0298 10.9333 0.44228 0.896839 -0.00814441
9.02434 88.7381 9.56787 0.447772 0.894033 -0.0135089
9.52976 88.471 8.69732 0.453993 0.89088 -0.0139671
10.0517 88.185 7.64112 0.459058 0.888346 -0.0103593
10.4823 87.9472 6.61028 0.463141 0.886221 -0.0106247
10.8312 87.7497 5.40578 0.462975 0.886299 -0.0113191
11.1399 87.5698 4.24208 0.468854 0.883177 -0.0132134
11.2793 87.4787 3.15616 0.471319 0.881827 -0.0155138
11.4649 87.3675 1.98672 0.470202 0.882515 -0.00880728
11.5611 87.3048 0.991614 0.476963 0.878882 -0.00854965
11.6026 87.2701 -0.0986782 0.471097 0.88202 -0.0103979
11.532 87.2956 -1.08068 0.470052 0.882569 -0.0110523
11.4046 87.3484 -2.16275 0.470521 0.882298 -0.012676
11.2194 87.4294 -3.17256 0.477809 0.87839 -0.0113829
10.9984 87.535 -4.25491 0.474608 0.880096 -0.0131604
10.7514 87.6512 -5.32928 0.474855 0.879984 -0.0116362
10.476 87.7893 -6.29393 0.47364 0.880665 -0.00973895
10.085 87.9869 -7.21991 0.468399 0.883452 -0.0107209
9.76635 88.1449 -8.20622 0.468035 0.883661 -0.00928063
9.13917 88.4636 -9.31681 0.459014 0.888412 -0.00544109
8.59748 88.7382 -10.2702 0.454073 0.890964 -0.00102284
7.94511 89.0688 -10.9883 0.451739 0.892142 -0.00329277
7.23407 89.424 -11.7571 0.447067 0.894495 -0.0031336
6.20039 89.9388 -12.5224 0.44615 0.894956 -0.00200528
4.97235 90.5486 -12.9508 0.439344 0.898175 0.0160777
4.07244 90.9743 -12.9933 0.420439 0.907183 0.0158038
3.0638 91.4377 -13.0086 0.401325 0.915821 0.0144989
2.04461 91.8794 -12.6944 0.402085 0.915506 0.0131788
0.822339 92.3881 -12.4809 0.377789 0.925575 0.0241013
-0.164966 92.7783 -12.2191 0.362369 0.9312 0.0394357
-1.34285 93.1967 -11.7572 0.333995 0.941999 0.0329254
-2.3394 93.529 -11.4286 0.305299 0.95123 0.0442081
-3.25852 93.7999 -11.1501 0.271568 0.961514 0.04173
-4.40124 94.1031 -10.709 0.25007 0.967056 0.0426637
-5.64924 94.3951 -10.4953 0.219569 0.974865 0.0374371
-6.90564 94.6307 -10.3226 0.16132 0.986019 0.0417319
-7.99889 94.7897 -10.228 0.132876 0.990444 0.0369539
-9.2606 94.9496 -10.1182 0.120558 0.991518 0.0485642
-10.3676 95.0339 -9.98918 0.0812798 0.995695 0.0445022
-11.5013 95.1086 -9.95108 0.0399091 0.997345 0.0549857
-12.5934 95.1267 -9.79307 0.0292049 0.999269 0.0246531
-13.5515 95.1302 -9.59652 -0.0243244 0.998663 0.0385455
-13.8568 95.1145 -9.6213 -0.0602115 0.997576 0.034873
-38.7355 86.6763 5.22286 -0.46773 0.883819 0.00957797
-38.7127 86.7044 3.84667 -0.465754 0.884862 0.00965901
-38.6615 86.7445 2.78407 -0.470161 0.882517 0.0105485
-38.6272 86.7746 1.66649 -0.470422 0.882403 0.00822245
-38.6177 86.7904 0.302711 -0.467318 0.884073 0.00535341
-38.5776 86.8226 -0.982606 -0.468374 0.883482 0.00920977
-38.5711 86.8272 -1.1122 -0.469623 0.882828 0.00828225
-37.5047 87.4472 -5.80023 -0.464649 0.885365 0.0151766
-37.542 87.4078 -4.45672 -0.46218 0.886707 0.0118756
-37.5812 87.3761 -3.13911 -0.467479 0.883938 0.010812
-37.6541 87.3135 -1.28141 -0.464868 0.885338 0.00862389
-37.7025 87.2761 -0.0154477 -0.465598 0.884967 0.00718865
-37.7323 87.2489 1.41676 -0.461702 0.887008 0.00688863
-37.7888 87.2003 2.93573 -0.461241 0.88721 0.0107469
-37.8431 87.1543 4.41001 -0.464126 0.885724 0.00895125
-37.896 87.1055 6.24856 -0.462728 0.886458 0.00865672
-37.9671 87.0505 8.03547 -0.462984 0.88629 0.0116662
-38.0107 87.0116 9.46733 -0.462058 0.886792 0.0100826
-38.0152 87.0066 9.67154 -0.461075 0.887283 0.011738
-37.1798 87.4095 12.4403 -0.459416 0.888182 0.00828998
-37.1573 87.4329 11.1754 -0.460083 0.887838 0.00815728
-37.1462 87.4565 9.80023 -0.460651 0.88749 0.0127212
-37.1018 87.4997 8.05926 -0.458775 0.888518 0.00784229
-37.017 87.5637 6.08565 -0.459221 0.888251 0.0111902
-36.9645 87.6083 4.55514 -0.454707 0.890615 0.00688429
-36.8923 87.6644 2.76508 -0.45399 0.890914 0.0128471
-36.8361 87.7089 1.39758 -0.453165 0.891381 0.00905819
-36.7864 87.7532 0.00107192 -0.458192 0.888789 0.0107082
-36.7448 87.7909 -1.40581 -0.460443 0.887622 0.0109327
-36.6834 87.838 -2.69972 -0.458719 0.888531 0.00946527
-36.6182 87.8871 -4.27545 -0.460591 0.887586 0.0068198
-36.5853 87.9223 -5.55143 -0.455743 0.890047 0.0107229
-36.5796 87.9413 -6.89581 -0.452625 0.891643 0.010121
-36.5786 87.9425 -6.94305 -0.453983 0.890928 0.0121361
-35.5962 88.4554 -8.10857 -0.446921 0.894513 0.0103733
-35.6401 88.4157 -6.74657 -0.451831 0.89206 0.00882766
-35.6653 88.3872 -5.36401 -0.446467 0.894759 0.00855896
-35.7168 88.345 -3.87884 -0.454569 0.890696 0.00527308
-35.7888 88.2849 -2.16449 -0.450855 0.892519 0.0118341
-35.8783 88.2233 -0.670062 -0.446396 0.894771 0.0107518
-35.9174 88.1847 0.927816 -0.450406 0.892739 0.0122789
-35.9835 88.1309 2.40666 -0.451843 0.892019 0.0118539
-36.0499 88.0813 3.81714 -0.449461 0.893275 0.00666349
-36.1079 88.0405 5.18613 -0.451731 0.892117 0.00816866
-36.1762 87.9911 6.64223 -0.454969 0.890443 0.0107189
-36.2357 87.9439 8.04606 -0.455005 0.890427 0.010511
-36.2801 87.9026 9.59984 -0.455054 0.890399 0.0107679
-36.3075 87.8722 11.025 -0.455807 0.89006 0.00574138
-36.3326 87.846 12.6206 -0.458957 0.888425 0.00771103
-36.3386 87.8321 13.6352 -0.453906 0.890958 0.0127814
-35.496 88.251 14.6587 -0.452615 0.891679 0.00697593
-35.484 88.273 13.1301 -0.452188 0.891848 0.0115158
-35.4609 88.3013 11.5827 -0.454548 0.89068 0.00863541
-35.4388 88.3234 10.2474 -0.449764 0.893133 0.00501082
-35.378 88.3746 8.37545 -0.448265 0.893816 0.0123404
-35.327 88.4176 7.02147 -0.44284 0.896562 0.00826742
-35.2367 88.4746 5.5316 -0.449313 0.893343 0.00752119
-35.1599 88.5297 3.7343 -0.448846 0.893579 0.00738716
-35.0871 88.5778 2.40257 -0.441775 0.897094 0.00757892
-35.0267 88.6258 1.07062 -0.445227 0.895345 0.011408
-34.9544 88.6799 -0.438478 -0.440047 0.897911 0.010683
-34.8923 88.7249 -1.73331 -0.441154 0.897378 0.0098403
-34.8165 88.7813 -3.12658 -0.443724 0.896075 0.0126109
-34.7603 88.8261 -4.47142 -0.439888 0.898004 0.00936402
-34.7172 88.8613 -5.73688 -0.440839 0.897507 0.0118786
-34.6753 88.9001 -7.10753 -0.438295 0.89875 0.0120657
-34.6148 88.9544 -8.94195 -0.444253 0.895855 0.00908725
-33.6367 89.4368 -9.51997 -0.433208 0.901186 0.013994
-33.6644 89.4056 -8.21276 -0.432657 0.901493 0.0108283
-33.7183 89.3607 -6.82283 -0.424177 0.905496 0.0123023
-33.784 89.3116 -5.29829 -0.427318 0.904044 0.0102072
-33.8525 89.2596 -3.7433 -0.431239 0.90213 0.0139397
-33.9182 89.2093 -2.40778 -0.431303 0.902133 0.0115343
-34.0092 89.1473 -0.880637 -0.432195 0.901722 0.0102811
-34.0734 89.1002 0.386563 -0.43542 0.90013 0.0131989
-34.143 89.0492 1.69306 -0.436967 0.899392 0.0123915
-34.2251 88.9945 3.04081 -0.438956 0.898466 0.00876122
-34.3016 88.9478 4.45562 -0.432682 0.901523 0.00653633
-34.3918 88.8877 6.08156 -0.439731 0.898102 0.00703833
-34.4651 88.8401 7.37837 -0.440802 0.897561 0.00880667
-34.5316 88.7888 8.97759 -0.442487 0.896693 0.0121556
-34.5719 88.7541 10.3205 -0.442087 0.896933 0.00843207
-34.5929 88.7367 11.608 -0.444956 0.895523 0.00729182
-34.6217 88.7083 13.0631 -0.445138 0.895404 0.0102229
-34.6342 88.6853 14.5247 -0.443755 0.896109 0.00834492
-34.6464 88.6727 15.1732 -0.446684 0.894647 0.00899682
-33.8151 89.0742 15.8226 -0.43812 0.898901 0.00532996
-33.7912 89.1017 14.4854 -0.43775 0.899027 0.0112346
-33.758 89.1322 13.1446 -0.430514 0.902553 0.007517
-33.73 89.1584 11.7482 -0.434009 0.90088 0.00719659
-33.6991 89.1811 10.4189 -0.437919 0.898948 0.0109563
-33.6578 89.2189 8.95305 -0.437305 0.899247 0.0108942
-33.5906 89.2641 7.40871 -0.429973 0.902841 0.00133144
-33.5099 89.3122 6.11867 -0.430804 0.90238 0.0108773
-33.4256 89.3664 4.75389 -0.43273 0.901507 0.00550404
-33.3193 89.4287 3.12645 -0.431524 0.902082 0.00589317
-33.2235 89.495 1.61437 -0.432383 0.901587 0.0135898
-33.1316 89.5597 -0.070332 -0.432878 0.901408 0.00893585
-33.0397 89.6169 -1.34952 -0.431906 0.901866 0.00978176
-32.9634 89.6686 -2.6124 -0.431461 0.902054 0.0118044
-32.8908 89.7211 -4.11869 -0.429286 0.903115 0.00988731
-32.8114 89.7742 -5.68204 -0.426224 0.904578 0.0084361
-32.7382 89.8293 -7.35826 -0.417842 0.908363 0.0168721
-32.6827 89.8838 -8.9781 -0.416084 0.909195 0.0154575
-32.6677 89.9017 -9.62758 -0.418257 0.908244 0.0124385
-31.6642 90.3596 -9.87635 -0.406013 0.913751 0.014615
-31.7017 90.3256 -8.55925 -0.416098 0.909191 0.0153163
-31.7588 90.2769 -7.25904 -0.404229 0.914494 0.0173146
-31.8406 90.2269 -5.81188 -0.40728 0.913289 0.00517467
-31.9218 90.1817 -4.53837 -0.411479 0.911365 0.00994026
-32.0091 90.1249 -3.23822 -0.424482 0.905408 0.00712863
-32.0633 90.0793 -1.9406 -0.421577 0.906586 0.0193678
-32.1603 90.017 -0.640841 -0.422395 0.906354 0.0101931
-32.2426 89.9669 0.624781 -0.421103 0.906985 0.00715254
-32.3541 89.8926 2.30964 -0.41379 0.910213 0.0170178
-32.4673 89.8273 3.72973 -0.420843 0.907104 0.00729069
-32.5575 89.7754 5.08136 -0.421304 0.906896 0.00654221
-32.6377 89.7233 6.34947 -0.424391 0.905375 0.0136837
-32.7212 89.6754 7.82562 -0.424765 0.905304 0.000597488
-32.797 89.6246 9.38209 -0.422239 0.906418 0.010984
-32.8384 89.589 10.6467 -0.41894 0.907967 0.00927954
-32.8797 89.5579 12.1508 -0.424024 0.905596 0.00995069
-32.9328 89.5183 13.9764 -0.425233 0.905059 0.00667321
-32.9786 89.4823 15.7679 -0.436345 0.899738 0.00861862
-32.9792 89.4819 15.8007 -0.435128 0.900368 0.000933556
-32.1711 89.8622 16.0992 -0.423873 0.905706 -0.00535579
-32.1384 89.8833 14.5818 -0.421418 0.906845 0.00624134
-32.0617 89.9284 12.8645 -0.419237 0.907865 0.004685
-32.0116 89.9649 11.3588 -0.415135 0.909735 0.00670536
-31.9535 90.0096 9.82208 -0.409876 0.912073 0.0111502
-31.8547 90.0702 8.14997 -0.413405 0.910527 0.00606261
-31.7501 90.1282 6.55978 -0.40895 0.912476 0.0121784
-31.6667 90.1848 5.24431 -0.413587 0.910319 0.0162566
-31.5603 90.2505 3.43408 -0.421065 0.907004 0.0069098
-31.4171 90.3213 1.97645 -0.407382 0.913213 0.0090107
-31.3041 90.3935 0.599522 -0.40768 0.912969 0.0168818
-31.2318 90.4454 -0.688256 -0.415838 0.909392 0.00918382
-31.1208 90.5063 -2.12798 -0.404061 0.914518 0.0197971
-31.0292 90.5664 -3.73146 -0.394725 0.91876 0.00856526
-30.9122 90.6323 -5.03585 -0.395883 0.918257 0.00894778
-30.8114 90.6868 -6.45293 -0.400277 0.916388 0.0034547
-30.7252 90.744 -7.80376 -0.404228 0.914494 0.0173134
-30.6622 90.7935 -9.25364 -0.393863 0.919054 0.0145584
-30.6537 90.7999 -9.39938 -0.396051 0.918083 0.0163592
-29.6143 91.2449 -9.37258 -0.376207 0.926448 0.0127233
-29.6921 91.191 -8.10884 -0.389735 0.920776 0.0166655
-29.8028 91.1198 -6.47419 -0.387972 0.921616 0.01006
-29.9037 91.0642 -5.11074 -0.379636 0.925044 0.0130843
-30.0765 90.9721 -3.34916 -0.394725 0.91876 0.00856525
-30.1894 90.9145 -1.9734 -0.404357 0.914543 0.0102802
-30.3194 90.8474 -0.379932 -0.40118 0.91595 0.00946166
-30.4051 90.786 0.967288 -0.399521 0.916652 0.0114584
-30.5616 90.7015 2.588 -0.40784 0.913048 0.00318017
-30.6966 90.6355 4.09446 -0.392356 0.91976 0.00989826
-30.7754 90.5794 5.44602 -0.394366 0.918845 0.0141328
-30.8871 90.5096 6.96018 -0.40968 0.912201 0.00716534
-30.997 90.4513 8.27708 -0.403553 0.914922 0.00791771
-31.1169 90.3827 10.0506 -0.409876 0.912073 0.0111514
-31.1773 90.3452 11.3251 -0.413974 0.910271 0.00565088
-31.2358 90.3096 12.6413 -0.417943 0.908461 0.00479846
-31.3017 90.2716 14.1687 -0.417734 0.908559 0.00433053
-31.3442 90.2496 15.5169 -0.417394 0.908724 -0.00172141
-31.3635 90.242 16.4199 -0.421463 0.906839 -0.0035405
-30.527 90.6189 16.1928 -0.408042 0.912916 -0.00933614
-30.4752 90.6478 14.415 -0.402777 0.915293 0.003051
-30.4134 90.6802 12.9587 -0.397548 0.91756 0.00624339
-30.3491 90.7134 11.6964 -0.407 0.913415 0.00495145
-30.27 90.7576 10.1889 -0.403815 0.914827 0.00488998
-30.182 90.804 8.83153 -0.394689 0.918814 0.00140835
-30.0486 90.8692 7.34087 -0.391952 0.919969 0.00555867
-29.9121 90.9464 5.67332 -0.394365 0.918845 0.014125
-29.7804 91.0235 3.90691 -0.386614 0.922188 0.0099173
-29.6079 91.1081 2.30633 -0.389256 0.921072 0.0103234
-29.4476 91.2066 0.677659 -0.387235 0.921863 0.0147391
-29.3608 91.2568 -0.765776 -0.385939 0.922483 0.00874755
-29.2034 91.3281 -2.11451 -0.38097 0.924572 0.00538403
-29.0732 91.3898 -3.42024 -0.379542 0.92516 0.00519416
-28.9386 91.4565 -4.76134 -0.380079 0.924885 0.0112955
-28.8166 91.5293 -6.23789 -0.381885 0.924064 0.0164249
-28.7029 91.5911 -7.60586 -0.376403 0.926374 0.0123378
-28.593 91.6529 -8.88655 -0.378794 0.925347 0.0157495
-28.5665 91.6754 -9.46522 -0.374349 0.927104 0.0184858
-27.5672 92.0611 -8.89029 -0.36593 0.930387 0.0217813
-27.6754 91.9962 -7.47029 -0.351124 0.93621 0.0149406
-27.8504 91.906 -5.72488 -0.35536 0.934669 0.0106371
-28.0066 91.8296 -4.21093 -0.377449 0.925996 0.00792916
-28.1477 91.7622 -2.84738 -0.371163 0.928533 0.00804698
-28.3069 91.6836 -1.41904 -0.369543 0.929158 0.0101759
-28.4533 91.6221 -0.117503 -0.373622 0.927552 0.00732184
-28.5706 91.5564 1.34276 -0.366824 0.930122 0.0177313
-28.7502 91.459 2.89605 -0.372069 0.928166 0.00852003
-28.9246 91.3757 4.4688 -0.370726 0.928692 0.00970553
-29.0323 91.3151 5.73074 -0.380117 0.924899 0.00858501
-29.1751 91.2417 7.27855 -0.392544 0.919693 0.00856874
-29.3135 91.177 8.86386 -0.394698 0.91881 0.00141144
-29.4221 91.1271 10.3251 -0.390163 0.920728 0.00569897
-29.4984 91.0819 11.7599 -0.394253 0.918982 0.00607965
-29.5784 91.038 13.2977 -0.39041 0.920634 0.00365826
-29.6552 91.0084 15.0122 -0.399108 0.916903 0.00124968
-29.685 90.9929 16.128 -0.39671 0.917939 -0.00295289
-28.8288 91.3604 15.8166 -0.383791 0.92341 -0.0042513
-28.7727 91.3794 14.3358 -0.385409 0.922737 -0.00405447
-28.6893 91.4131 12.6065 -0.372375 0.928081 0.00182013
-28.6194 91.4563 11.3014 -0.373465 0.927496 0.0165541
-28.5219 91.5002 9.94928 -0.369212 0.929344 -0.00168698
-28.4129 91.5457 8.64976 -0.374189 0.927352 9.64683e-05
-28.2861 91.61 7.2147 -0.379037 0.925247 0.0157574
-28.1415 91.6821 5.67519 -0.373008 0.92782 0.00393329
-27.982 91.7547 4.15409 -0.369747 0.929061 0.011475
-27.8216 91.8324 2.82172 -0.372443 0.928011 0.00909332
-27.6499 91.9158 1.40591 -0.359302 0.933122 0.0136544
-27.488 91.9943 -0.00745528 -0.359229 0.933205 0.00905772
-27.3332 92.064 -1.34263 -0.345414 0.938424 0.00704764
-27.1748 92.1344 -2.78293 -0.351987 0.935983 0.00638677
-26.9811 92.2181 -4.31934 -0.343137 0.93926 0.00686733
-26.7659 92.3164 -6.04125 -0.348539 0.937198 0.0134071
-26.6349 92.385 -7.39624 -0.348004 0.937378 0.0147158
-26.4919 92.4572 -8.59941 -0.348207 0.9373 0.0148439
-25.4322 92.8355 -8.4708 -0.323821 0.94598 0.0162186
-25.5944 92.7563 -7.20167 -0.324744 0.945639 0.0175732
-25.7456 92.6855 -5.91391 -0.339816 0.940379 0.0145904
-25.9277 92.6041 -4.45006 -0.343328 0.939188 0.00718632
-26.129 92.5186 -3.00875 -0.340413 0.940231 0.00919949
-26.3055 92.4445 -1.66304 -0.339222 0.940692 0.00524526
-26.5203 92.3504 -0.00442781 -0.341756 0.939714 0.0118937
-26.6931 92.2794 1.26019 -0.332343 0.943095 0.0109817
-26.94 92.1677 3.14007 -0.35267 0.935636 0.0144517
-27.1293 92.0826 4.66172 -0.349726 0.936836 0.00552989
-27.2668 92.0246 5.94729 -0.365788 0.930689 0.00411051
-27.4512 91.9312 7.75784 -0.356826 0.934094 0.0120233
-27.574 91.8793 9.05827 -0.360661 0.932696 0.000979812
-27.6836 91.837 10.3757 -0.369797 0.929088 -0.0067268
-27.7597 91.7951 11.7445 -0.363181 0.93157 0.0166433
-27.8603 91.7445 13.2406 -0.372383 0.928077 0.00181696
-27.9202 91.7283 14.5421 -0.366441 0.930428 -0.00504071
-27.9288 91.7257 14.7014 -0.364167 0.931299 -0.00803734
-27.1169 92.0413 14.8477 -0.360441 0.93271 -0.0115705
-27.015 92.0685 13.2739 -0.355488 0.934652 -0.00731963
-26.903 92.1152 11.673 -0.351307 0.936255 0.0031316
-26.7876 92.171 9.93943 -0.345411 0.938444 0.00373396
-26.6362 92.232 8.53759 -0.354648 0.934983 0.00554178
-26.5172 92.2929 7.26892 -0.353288 0.93545 0.01099
-26.3184 92.3817 5.57054 -0.347893 0.937534 0.000525791
-26.1407 92.4534 4.04387 -0.339977 0.940433 0.00100014
-25.8892 92.5526 2.32957 -0.333352 0.942781 0.0063366
-25.6981 92.6325 1.05038 -0.320385 0.947243 0.00918009
-25.4964 92.7164 -0.268025 -0.326283 0.945229 0.00908208
-25.3096 92.7953 -1.63114 -0.325603 0.945445 0.0107449
-25.0947 92.8759 -3.09383 -0.320356 0.947292 0.00305273
-24.8631 92.9679 -4.61849 -0.323558 0.946021 0.0188526
-24.6685 93.0538 -6.07377 -0.29624 0.955079 0.00807715
-24.4921 93.126 -7.35231 -0.292729 0.955974 0.0205831
-24.4627 93.1403 -7.59984 -0.292729 0.955974 0.0205831
-23.2577 93.5035 -7.7346 -0.268209 0.963202 0.0174746
-23.5011 93.4167 -6.37934 -0.266693 0.963724 0.0105183
-23.7263 93.3342 -5.10268 -0.293698 0.955832 0.0112513
-23.973 93.2347 -3.63701 -0.293915 0.955772 0.0107009
-24.2377 93.1486 -2.02856 -0.290232 0.956953 0.00256632
-24.4381 93.071 -0.695256 -0.301907 0.953151 0.0188599
-24.6947 92.974 0.831747 -0.32115 0.946958 0.011516
-24.9228 92.8832 2.2736 -0.316962 0.948432 0.00350492
-25.1462 92.8023 3.59864 -0.30416 0.952613 -0.00389814
-25.3101 92.7492 4.87882 -0.308382 0.951263 -0.000146899
-25.4851 92.6852 6.14468 -0.323421 0.94623 0.00683713
-25.6564 92.6066 7.61791 -0.324513 0.945646 0.0210913
-25.8208 92.5184 9.15373 -0.327228 0.944942 0.002371
-25.9607 92.4731 10.4219 -0.345826 0.938287 0.00464188
-26.0882 92.4129 12.0718 -0.326964 0.944994 0.00894636
-26.1892 92.3767 13.4277 -0.337115 0.941434 -0.00739877
-26.2624 92.3555 14.4344 -0.340695 0.940124 -0.00967252
-25.4316 92.656 14.4275 -0.331455 0.943323 -0.0167007
-25.2798 92.6889 12.4647 -0.330508 0.943803 -0.000481138
-25.1315 92.7536 10.9354 -0.323243 0.946172 0.0164829
-24.9523 92.821 9.24487 -0.32951 0.944137 0.00530254
-24.8002 92.8892 7.95988 -0.319166 0.947566 0.0158504
-24.6169 92.9659 6.56657 -0.296371 0.955041 0.00776975
-24.4148 93.0368 5.1517 -0.29026 0.956947 0.00136986
-24.2156 93.0973 3.83987 -0.300355 0.953794 -0.00798328
-23.9702 93.1891 2.37011 -0.290079 0.956917 0.0127988
-23.6598 93.3036 0.603027 -0.287187 0.957859 0.00542809
-23.3915 93.398 -0.930606 -0.286189 0.958142 0.00779199
-23.1518 93.4752 -2.33297 -0.278589 0.96041 0.000649651
-22.9117 93.5521 -3.73371 -0.283225 0.959023 0.00768918
-22.6082 93.6482 -5.25363 -0.25309 0.96734 0.0140758
-22.29 93.7537 -6.75613 -0.245867 0.969115 0.0191216
-22.1303 93.8089 -7.50399 -0.247988 0.968543 0.0206626
-21.1168 94.0467 -6.92945 -0.229698 0.972766 0.0310513
-21.3922 93.9655 -5.65552 -0.22481 0.974265 0.0163841
-21.7434 93.8616 -4.04484 -0.245621 0.969302 0.0111497
-22.0582 93.7759 -2.54939 -0.248253 0.968695 0.00108574
-22.3046 93.7096 -1.2967 -0.253594 0.967305 0.00342486
-22.5757 93.6198 0.161104 -0.254817 0.96698 0.00415175
-22.8746 93.5305 1.65176 -0.265715 0.964036 0.00553024
-23.1049 93.4462 2.95494 -0.288367 0.957503 0.00564243
-23.3417 93.3637 4.3296 -0.278263 0.960452 0.0101057
-23.5519 93.2939 5.61485 -0.279424 0.960167 0.000902749
-23.7613 93.2277 6.97941 -0.298804 0.954299 0.00544646
-23.9871 93.1459 8.54789 -0.311111 0.950252 0.0152065
-24.1933 93.0608 10.1837 -0.309501 0.950875 0.00684154
-24.4011 92.9797 12.0705 -0.312195 0.950018 -0.000101255
-24.5569 92.9468 13.7618 -0.325806 0.945336 -0.0137797
-24.5883 92.9443 14.1606 -0.329111 0.94408 -0.0199669
-23.6962 93.2165 13.2913 -0.290824 0.956668 -0.0143876
-23.5311 93.2565 11.808 -0.28719 0.957874 -0.000516912
-23.3543 93.3202 10.3938 -0.281451 0.959565 0.00441413
-23.1803 93.3818 9.10897 -0.281847 0.959391 0.0114964
-22.939 93.4675 7.50377 -0.27369 0.961818 -0.000166576
-22.6842 93.5408 6.06168 -0.249646 0.9683 0.00845771
-22.471 93.6052 4.81475 -0.274185 0.961664 0.0049909
-22.2275 93.6911 3.41232 -0.272046 0.962043 0.0215654
-21.9511 93.7832 1.99045 -0.258174 0.966043 0.0103445
-21.6657 93.8581 0.61878 -0.243345 0.96994 0.000616045
-21.3679 93.9446 -0.807608 -0.243912 0.96958 0.0205241
-21.0414 94.035 -2.25402 -0.233554 0.972344 -1.32418e-05
-20.7528 94.1053 -3.48905 -0.223857 0.974612 0.00444829
-20.3685 94.1956 -5.08331 -0.21208 0.977252 0.000268798
-20.0177 94.2823 -6.58556 -0.194968 0.980677 0.0161077
-19.9798 94.2927 -6.75979 -0.194874 0.9807 0.0158454
-18.7081 94.5335 -6.86475 -0.160358 0.986824 0.0215544
-19.1091 94.4634 -5.50644 -0.167388 0.985887 0.00288436
-19.4652 94.3907 -4.21076 -0.211308 0.977419 -0.000998988
-19.8559 94.3033 -2.71831 -0.19404 0.98091 0.0128358
-20.1895 94.2283 -1.39696 -0.20525 0.9787 0.0042849
-20.4771 94.1545 -0.157939 -0.228932 0.973412 0.0077102
-20.7643 94.0741 1.12676 -0.234877 0.97202 0.00318008
-21.0537 93.9996 2.4648 -0.227885 0.973659 0.00758407
-21.3355 93.9163 3.83007 -0.234206 0.972116 0.011779
-21.6659 93.8097 5.60121 -0.245602 0.969316 0.0103086
-21.9449 93.732 7.17811 -0.254835 0.966971 -0.00502177
-22.2032 93.666 8.58616 -0.248732 0.968544 0.00738952
-22.4658 93.5822 10.1953 -0.277473 0.960733 0.000767173
-22.6622 93.5176 11.643 -0.286993 0.957921 0.00482284
-22.883 93.469 13.364 -0.286712 0.957804 -0.0201748
-21.9704 93.7234 12.8234 -0.278525 0.960395 -0.00812096
-21.7521 93.782 11.3178 -0.258976 0.96581 -0.0118955
-21.5211 93.846 9.98377 -0.240633 0.970616 -0.000985517
-21.2688 93.9011 8.52246 -0.239009 0.971017 -0.000133517
-20.9779 93.9744 6.98011 -0.23106 0.972937 0.00207868
-20.7343 94.0407 5.65146 -0.236948 0.971428 0.0135307
-20.4826 94.105 4.40472 -0.206992 0.978216 0.0157656
-20.1928 94.1902 3.07881 -0.212651 0.97702 0.0145646
-19.9085 94.2588 1.80956 -0.209802 0.97774 0.00265691
-19.6175 94.3393 0.578784 -0.189845 0.981801 0.00513404
-19.3123 94.4025 -0.707793 -0.183437 0.983031 -0.000702355
-18.9469 94.4716 -2.07929 -0.170186 0.985411 0.00149909
-18.4508 94.5711 -3.78978 -0.156209 0.987711 -0.00516121
-18.0743 94.632 -5.05857 -0.14748 0.989039 0.00718394
-17.6501 94.6992 -6.40069 -0.146079 0.98927 0.0023664
-17.5687 94.712 -6.65319 -0.147422 0.989066 0.00376137
-16.1964 94.8859 -7.10678 -0.105846 0.994353 0.00763938
-16.6452 94.8385 -5.80217 -0.114467 0.99341 0.00575893
-17.0548 94.7842 -4.53922 -0.1523 0.988332 -0.00221322
-17.4792 94.7174 -3.16732 -0.151279 0.988491 0.000845477
-18.0125 94.6251 -1.44684 -0.151256 0.988491 0.00253696
-18.3981 94.5608 -0.102449 -0.160237 0.987066 -0.0049375
-18.7804 94.4958 1.37094 -0.190444 0.981671 0.00728167
-19.1255 94.4104 2.74002 -0.193437 0.980972 0.0166409
-19.4937 94.3129 4.29441 -0.202628 0.979192 0.0111621
-19.8012 94.2397 5.71648 -0.204426 0.978876 -0.00330773
-20.1092 94.1761 7.16121 -0.227483 0.973759 0.00664524
-20.4157 94.1025 8.77348 -0.223068 0.974792 0.00467742
-20.6619 94.057 10.2786 -0.219445 0.975594 -0.00771742
-20.8892 94.0037 11.5432 -0.245287 0.969446 -0.00294678
-21.0995 93.9502 12.7896 -0.244094 0.969708 -0.00914994
-21.1039 93.9496 12.8189 -0.244612 0.969436 -0.0189595
-20.1931 94.1664 12.4997 -0.215289 0.976512 -0.00860189
-19.9546 94.2086 11.1135 -0.21436 0.97673 -0.00693853
-19.7281 94.2584 9.86112 -0.210002 0.977699 0.00207421
-19.4685 94.3158 8.51192 -0.200738 0.979643 0.00204727
-19.1993 94.3601 7.26712 -0.171564 0.985173 -0.000550528
-18.8782 94.418 5.82731 -0.180407 0.983583 0.00432818
-18.4718 94.5077 4.11189 -0.18332 0.982904 0.0171114
-18.0869 94.5993 2.61989 -0.157176 0.987445 0.0157427
-17.6504 94.6806 1.03019 -0.138498 0.990354 0.00420306
-17.1671 94.7566 -0.552738 -0.150276 0.988639 -0.00327616
-16.7795 94.8128 -1.7803 -0.113711 0.993493 -0.00646275
-16.2604 94.8752 -3.39838 -0.118355 0.99293 0.00902925
-15.8362 94.9325 -4.64719 -0.0930826 0.995654 -0.00311799
-15.3154 94.964 -6.04471 -0.0698041 0.997542 -0.00614591
-14.894 94.9909 -7.08417 -0.0711988 0.997414 0.0097833
-13.6815 95.0529 -6.83888 -0.0451826 0.99896 0.00612623
-14.1902 95.0338 -5.66762 -0.0369328 0.999302 -0.00562178
-14.8418 95.0038 -4.08526 -0.071107 0.997468 0.000777889
-15.3002 94.9707 -2.88344 -0.0879168 0.996065 -0.0111795
-15.7202 94.927 -1.6438 -0.101496 0.99483 0.00347386
-16.3144 94.8584 0.14546 -0.0953337 0.995433 0.00493794
-16.7244 94.8037 1.4445 -0.119995 0.992762 0.00495222
-17.1816 94.7373 3.00128 -0.143461 0.989626 0.00765503
-17.52 94.6573 4.25992 -0.130885 0.991349 0.00982121
-17.9074 94.5919 5.7902 -0.164057 0.986451 -1.99038e-06
-18.1952 94.5364 7.05288 -0.175252 0.984523 0.00111384
-18.5733 94.4791 8.69716 -0.142318 0.98982 -0.00156859
-18.8531 94.4233 9.99347 -0.175461 0.984467 -0.00620188
-19.1689 94.3732 11.5548 -0.178712 0.9839 -0.00171932
-19.2906 94.3544 12.1386 -0.18147 0.983356 -0.00894372
-18.3679 94.5212 11.925 -0.180212 0.983604 -0.00686515
-18.0577 94.5688 10.5305 -0.13869 0.990336 -4.09263e-05
-17.7454 94.6052 9.15392 -0.154933 0.987877 -0.00975197
-17.3942 94.6503 7.61858 -0.145105 0.989377 0.00876499
-17.0886 94.7165 6.37097 -0.140871 0.989938 0.0133619
-16.6666 94.7768 4.77881 -0.113451 0.993544 0.00019239
-16.1998 94.8397 3.14185 -0.100756 0.994854 0.0106588
-15.8041 94.9001 1.87595 -0.0933608 0.995553 0.0125869
-15.3131 94.9559 0.385332 -0.0964443 0.995336 -0.00214034
-14.8952 95.0002 -0.854049 -0.0708058 0.997358 0.0162216
-14.4549 95.0263 -2.07528 -0.0177249 0.999834 0.00432284
-13.9847 95.0387 -3.2608 -0.0186916 0.999825 0.00106311
-13.3293 95.0622 -4.78257 -0.011537 0.999926 0.00375678
-12.7276 95.0709 -6.09383 -0.00183712 0.999998 -0.000879331
-12.2607 95.0683 -7.07259 0.0306484 0.99953 -0.00108072
-10.8771 95.0251 -7.17932 0.0753681 0.997137 -0.00608272
-11.5241 95.0524 -5.95756 0.0310305 0.999447 -0.0119102
-12.0669 95.0697 -4.79635 0.0335507 0.999402 0.00833843
-12.7422 95.0511 -3.35904 -0.00628859 0.999756 0.0211741
-13.2997 95.0466 -2.02696 -0.0206141 0.999783 -0.00283856
-13.8124 95.0477 -0.751649 -0.0115959 0.999904 0.00755157
-14.2553 95.0165 0.455618 -0.0543375 0.998475 0.00973084
-14.6849 94.9829 1.69715 -0.050818 0.998685 0.00676986
-15.1279 94.9364 2.99406 -0.0586572 0.998263 0.00543868
-15.5329 94.8987 4.30047 -0.102423 0.994684 -0.0106298
-15.9315 94.8639 5.66877 -0.113919 0.993462 -0.00751344
-16.3274 94.8048 7.08919 -0.108849 0.993799 0.0227231
-16.6328 94.7628 8.32353 -0.108637 0.994076 -0.00317822
-16.9526 94.7271 9.73692 -0.139107 0.990266 0.00473391
-17.2498 94.6841 11.0035 -0.142819 0.989715 -0.00816199
-17.4796 94.6623 12.004 -0.146794 0.989067 -0.0140448
-16.5333 94.7831 11.8108 -0.106783 0.994226 -0.0105552
-16.176 94.8156 10.2823 -0.110833 0.993839 0.000470183
-15.8634 94.8487 8.91305 -0.108542 0.994088 -0.00271683
-15.4694 94.895 7.43481 -0.11343 0.99348 0.0114266
-14.9928 94.956 5.77367 -0.0926086 0.995673 0.00772885
-14.4939 94.9825 4.25391 -0.0580382 0.998265 -0.00989131
-14.0192 95.0072 2.82116 -0.0608977 0.997979 0.0181229
-13.4134 95.0513 1.14237 -0.0491791 0.998758 0.00799219
-12.8713 95.0662 -0.272046 -0.0149547 0.999873 -0.00557694
-12.3592 95.0523 -1.5285 -0.00212398 0.999973 -0.00699297
-11.799 95.0424 -2.79309 0.0217316 0.999759 -0.00316496
-11.198 95.0372 -4.10167 0.0363038 0.999333 0.00390457
-10.5812 95.0124 -5.34791 0.0531431 0.998581 0.00341192
-9.88095 94.9565 -6.64819 0.0706363 0.997445 -0.0106599
-9.48002 94.9025 -7.32244 0.108764 0.994044 0.00682258
-7.87197 94.7171 -7.73249 0.14333 0.989587 0.0132178
-8.5929 94.8069 -6.58513 0.10859 0.994085 -0.0017267
-9.256 94.8955 -5.45565 0.125818 0.992051 -0.00196175
-9.92269 94.9631 -4.17493 0.0645236 0.997916 -0.000294571
-10.6428 95.0065 -2.69693 0.0367427 0.999247 0.0124324
-11.4164 95.0357 -0.986487 0.0369446 0.999248 -0.0117394
-12.0098 95.0612 0.41247 0.0190649 0.99978 -0.00877176
-12.5181 95.0552 1.6856 0.0178771 0.99944 0.0282855
-13.0536 95.0405 3.10537 -0.0227337 0.999605 0.0165271
-13.6421 95.0265 4.80228 -0.0368857 0.999318 -0.00196095
-14.1804 95.0128 6.36594 -0.057765 0.998323 -0.00367058
-14.6737 94.9787 8.05611 -0.103818 0.994584 0.00490997
-15.1067 94.9193 9.65552 -0.0773797 0.997001 -0.00126873
-15.4307 94.8928 10.8876 -0.0656066 0.997845 0.000593606
-15.5918 94.8812 11.5241 -0.106793 0.994225 -0.0105511
-14.6832 94.9462 11.4932 -0.0711177 0.997375 -0.0136442
-14.3287 94.972 10.2112 -0.0718315 0.997377 0.00887872
-13.841 95.0118 8.4803 -0.0388408 0.999114 0.0162186
-13.4737 95.0446 7.19401 -0.0301498 0.999544 0.0014542
-12.9654 95.0455 5.8 -0.0109882 0.999936 -0.00262368
-12.5386 95.056 4.60687 -0.0133085 0.999891 0.00638831
-12.0369 95.051 3.24741 0.0171918 0.999816 -0.00851943
-11.5546 95.0285 2.01917 0.015835 0.999851 0.00691536
-11.0445 95.0198 0.802416 0.0535655 0.998564 0.00100946
-10.3589 94.9843 -0.740403 0.0573792 0.998352 -0.000246443
-9.75904 94.94 -2.035 0.0700279 0.997532 -0.00506176
-9.11316 94.8947 -3.32879 0.112732 0.993624 0.0019733
-8.5192 94.8125 -4.49147 0.146238 0.989184 -0.0114142
-7.87469 94.7081 -5.60446 0.14859 0.988852 -0.0096251
-7.19907 94.5964 -6.71323 0.152925 0.988172 0.0113661
-6.55994 94.4935 -7.65618 0.183833 0.982825 0.0161182
-4.95162 94.1843 -8.05418 0.243684 0.969824 0.00772541
-5.82961 94.3578 -6.71866 0.196951 0.980407 -0.00339945
-6.53382 94.4862 -5.65167 0.17485 0.98457 -0.00695439
-7.18174 94.6115 -4.5692 0.169197 0.985536 -0.00952066
-7.83645 94.7249 -3.39685 0.151546 0.988419 -0.00784657
-8.46694 94.8207 -2.23988 0.126441 0.991972 0.00206542
-9.06658 94.8902 -0.986646 0.108921 0.994048 0.00220233
-9.73075 94.9397 0.427466 0.0941063 0.995536 0.00726192
-10.352 94.976 1.78839 0.0706245 0.997496 0.00377783
-10.8741 95.0176 3.04266 0.0704616 0.997503 -0.00485769
-11.5232 95.0422 4.67628 0.0334395 0.999403 0.00872083
-11.983 95.0476 5.88662 0.0311019 0.99947 0.00957221
-12.4871 95.0458 7.31246 0.0239859 0.999711 -0.00175913
-12.9899 95.0419 8.66744 -0.0379791 0.999119 0.0178429
-13.4101 94.9982 10.1081 -0.0323323 0.999393 0.0129716
-13.8033 94.9853 11.4898 -0.0282257 0.999575 -0.00732295
-12.9345 95.0124 11.5368 -0.03096 0.99951 -0.00456895
-12.4933 95.0125 10.1245 0.0237452 0.99956 0.0177508
-12.0264 95.0269 8.63893 0.0223704 0.99966 0.0133608
-11.5035 95.0175 7.30014 0.0384722 0.999099 0.0179419
-10.9436 95.0094 5.84741 0.0364376 0.999303 0.00812039
-10.2929 94.9718 4.24072 0.0741106 0.997245 0.0030653
-9.68354 94.9276 2.82219 0.080887 0.996723 -0.000101289
-9.04761 94.8725 1.37599 0.0828058 0.996559 -0.0036264
-8.46322 94.8132 0.147174 0.126259 0.991976 -0.00656802
-7.83685 94.7328 -1.08253 0.147334 0.989051 -0.00837087
-7.25059 94.6403 -2.22391 0.145117 0.989412 -0.00231636
-6.52366 94.495 -3.55136 0.18193 0.983305 -0.00347755
-5.73357 94.3333 -4.88712 0.220241 0.975429 0.00568208
-4.99892 94.1694 -6.05146 0.226052 0.974115 -0.000503953
-4.31297 94.0095 -7.12284 0.248898 0.967801 0.0375587
-3.44452 93.7866 -8.37336 0.275095 0.961291 0.0155901
-3.36073 93.7652 -8.48532 0.276429 0.960753 0.0232436
-1.73729 93.2714 -8.91964 0.315437 0.948911 0.00817904
-2.92589 93.6285 -7.25551 0.276428 0.960983 0.00994876
-3.65458 93.8261 -6.17756 0.257954 0.966113 0.00923163
-4.50407 94.0475 -4.84377 0.247765 0.968818 -0.00182141
-5.19784 94.2092 -3.69237 0.221866 0.975062 -0.00551199
-5.86803 94.3739 -2.52783 0.222046 0.974959 -0.0122955
-6.61422 94.5261 -1.16345 0.1831 0.983094 0.00117167
-7.29749 94.6453 0.137421 0.154152 0.987997 -0.00994907
-7.96767 94.7473 1.4535 0.130506 0.991419 0.00750391
-8.51864 94.8215 2.64637 0.129845 0.991533 -0.00163654
-9.05086 94.8757 3.84909 0.07999 0.996794 0.00199753
-9.65777 94.9241 5.23709 0.0753671 0.997141 0.00541502
-10.1673 94.9601 6.44588 0.0804228 0.996739 -0.00655522
-10.7229 94.9785 7.79715 0.046081 0.998835 0.0143327
-11.292 94.9985 9.25815 0.0439538 0.998939 0.0137592
-11.7151 94.9909 10.5141 0.0194628 0.999809 -0.0018744
-11.9813 94.9976 11.2887 0.0201396 0.999794 -0.00263154
-11.0411 94.9729 11.2218 0.0469558 0.998893 0.00279223
-10.5139 94.9453 9.78149 0.0618876 0.99805 0.00810213
-9.9662 94.9215 8.39526 0.0685528 0.997608 0.00887196
-9.42971 94.8999 7.1268 0.0837362 0.996391 0.0139101
-8.90848 94.8591 5.91549 0.0881187 0.996101 0.00423527
-8.15894 94.7762 4.27099 0.121998 0.99252 -0.00450398
-7.46811 94.6777 2.77012 0.169232 0.98557 0.00348562
-6.90732 94.6058 1.62917 0.143323 0.989471 0.0201262
-6.15631 94.4538 0.191036 0.19672 0.980384 -0.0122087
-5.52925 94.3107 -0.968485 0.207451 0.978241 0.00303986
-4.89748 94.1607 -2.09236 0.236144 0.971551 -0.0180357
-4.19992 93.9715 -3.29515 0.2414 0.970374 -0.0100518
-3.5431 93.795 -4.37692 0.270841 0.962602 -0.0065275
-2.69682 93.5482 -5.71066 0.275044 0.961397 -0.00812547
-1.76364 93.2701 -7.0917 0.308336 0.951015 0.0223586
-1.02751 93.027 -8.15707 0.332363 0.94315 0.00171004
-0.150029 92.7235 -9.35995 0.34885 0.937123 0.0101613
-0.10517 92.7075 -9.42217 0.34885 0.937123 0.0101613
1.51977 92.0802 -9.99584 0.385781 0.92259 -0.000224843
0.749753 92.3863 -8.88739 0.365381 0.930858 -0.000629819
-0.107114 92.7037 -7.65952 0.33611 0.941816 -0.0034952
-0.940212 92.9921 -6.46761 0.325957 0.945358 0.00706557
-1.68697 93.2369 -5.34305 0.306417 0.951832 -0.0111617
-2.3909 93.4747 -4.23816 0.287404 0.95776 -0.00967588
-3.25918 93.7353 -2.81773 0.268037 0.963397 -0.0048427
-3.93577 93.9175 -1.67312 0.247566 0.968801 -0.0116867
-4.64117 94.1082 -0.423738 0.255847 0.966716 0.00127064
-5.46535 94.3233 1.07711 0.229258 0.973292 -0.0119932
-6.08959 94.4485 2.22823 0.208181 0.97802 0.0117643
-6.64761 94.5347 3.38476 0.169679 0.985499 -0.000427205
-7.43865 94.6666 5.0412 0.149065 0.988827 0.000986206
-8.04494 94.7523 6.36726 0.128778 0.991666 -0.00377307
-8.59907 94.8121 7.58568 0.111968 0.993576 0.016426
-9.11745 94.8481 8.7559 0.0917949 0.995672 0.014542
-9.66706 94.8902 10.097 0.0728383 0.99734 0.00289882
-10.1643 94.9311 11.4151 0.0560473 0.998422 -0.0033922
-9.0918 94.8381 11.1351 0.103986 0.994559 -0.0062427
-8.53895 94.7766 9.79562 0.105211 0.994441 0.00428806
-8.01916 94.7284 8.57282 0.140915 0.990017 -0.00318124
-7.48335 94.6577 7.39816 0.155261 0.987862 0.0048151
-6.92654 94.5754 6.20781 0.16366 0.986504 0.00500451
