-24.538 94.2284 13.6781 -0.318023 0.948057 -0.00709368
-23.5614 94.5496 13.3749 -0.309776 0.95054 -0.0226324
-22.5813 94.8373 13.106 -0.272389 0.961908 -0.0225086
-21.4629 95.1161 12.6962 -0.239597 0.970625 -0.021939
-20.144 95.4164 12.3569 -0.210873 0.977267 -0.0219553
-19.0799 95.6223 12.143 -0.174277 0.984513 -0.0159091
-17.7059 95.8494 12.0383 -0.146605 0.989174 -0.00647492
-16.3897 96.0228 11.7827 -0.112374 0.993609 -0.0106571
-15.1374 96.1484 11.6918 -0.0805437 0.996633 -0.0153637
-13.5715 96.2305 11.421 -0.0312688 0.999497 -0.00528314
-12.4091 96.2499 11.3677 0.0108027 0.999841 -0.0141816
-11.36 96.2246 11.2549 0.0324692 0.999428 -0.00940547
-9.89104 96.1364 10.9547 0.059731 0.998146 -0.0116592
-8.66518 96.027 10.8081 0.0962697 0.995233 -0.0156215
-7.33911 95.8494 10.6853 0.153987 0.988001 0.000751806
-6.10562 95.644 10.6083 0.173652 0.984751 0.000999832
-5.04868 95.4238 10.4352 0.212285 0.977123 -0.00746981
-3.9967 95.182 10.2723 0.223828 0.974595 -0.00816047
-2.60846 94.8167 10.1629 0.261557 0.965174 0.00420434
-1.25861 94.4209 9.91522 0.296197 0.955019 -0.000305221
0.09984 93.9628 9.67151 0.332161 0.943211 -0.0046906
1.18149 93.5624 9.59512 0.358769 0.933415 -0.00471273
2.22878 93.1484 9.40698 0.373831 0.927441 -0.0100694
3.25118 92.7315 9.09722 0.386338 0.922238 -0.00848812
4.23089 92.3043 8.60531 0.394671 0.918804 -0.00574194
4.97178 91.9753 7.87561 0.403718 0.914883 -0.00113963
5.69036 91.6438 6.83677 0.423366 0.905946 -0.00489175
6.22559 91.389 5.8038 0.428149 0.903669 -0.00589387
6.71083 91.1456 4.70047 0.432867 0.901423 -0.00792876
7.05099 90.9717 3.65363 0.437009 0.899436 -0.00623552
7.28755 90.847 2.59305 0.439244 0.898316 -0.00966156
7.35265 90.8043 1.26804 0.442403 0.896791 -0.00664668
7.43883 90.7532 0.136488 0.444428 0.895778 -0.00810063
7.4765 90.7198 -1.33841 0.441036 0.897418 -0.0113068
7.18035 90.8534 -2.58258 0.440817 0.897572 -0.00664886
6.95686 90.9506 -3.7932 0.432519 0.901597 -0.00709922
6.50758 91.1544 -4.98158 0.428383 0.903554 -0.00888092
5.96164 91.4042 -5.95141 0.428496 0.90351 -0.00780318
5.06072 91.8201 -7.09587 0.420132 0.907431 -0.00422486
4.13542 92.2389 -7.62701 0.415102 0.909769 -0.00250373
2.90309 92.7829 -8.07216 0.391434 0.920155 -0.000867228
1.87138 93.2102 -8.16512 0.381798 0.924241 -0.00268852
0.776201 93.6414 -8.11744 0.348161 0.937434 0.0010561
-0.343707 94.0499 -7.85554 0.335121 0.942175 -0.00077763
-1.55623 94.4709 -7.7025 0.308864 0.951104 -0.00184712
-2.70601 94.8342 -7.55141 0.295039 0.955483 0.00210378
-3.78695 95.1318 -7.43566 0.251281 0.967689 0.0142327
-4.83546 95.3855 -7.18971 0.23318 0.972388 0.00936205
-5.8993 95.605 -7.06368 0.192654 0.981195 -0.00172132
-7.0635 95.8225 -7.04535 0.165631 0.985872 0.0109101
-8.13052 95.9739 -6.93402 0.1128 0.993526 0.0106244
-9.42215 96.1229 -6.87358 0.111484 0.99375 0.00434891
-10.5256 96.2257 -6.76876 0.0447516 0.998923 0.0122877
-11.5893 96.2703 -6.84794 0.0355714 0.999333 0.00831833
-12.7794 96.2908 -6.80661 -0.00101792 0.99972 0.0214128
-14.1254 96.2482 -6.64191 -0.0550138 0.99846 0.00709018
-15.1945 96.1781 -6.48305 -0.0767634 0.997049 0.000435687
-15.2993 96.17 -6.47473 -0.0767634 0.997049 0.000435687
-15.3632 96.1822 -7.47326 -0.0760526 0.996927 0.0187809
-14.1284 96.2688 -7.67299 -0.0391834 0.999058 0.0110957
-12.8069 96.3126 -7.87831 -0.0252882 0.999124 0.0313796
-11.3858 96.2764 -7.8656 0.0421118 0.998961 0.0173958
-10.1902 96.205 -7.86211 0.0797562 0.996615 0.0199516
-9.07475 96.0982 -7.93413 0.113334 0.993332 0.0211234
-8.04248 95.9745 -7.9946 0.139934 0.990105 0.0105307
-6.59153 95.7463 -8.06469 0.180484 0.983184 0.0278377
-5.36266 95.5056 -8.09339 0.203896 0.978621 0.0269587
-4.2338 95.2527 -8.32444 0.238943 0.970904 0.015847
-3.14628 94.9686 -8.48209 0.274312 0.961628 0.00496424
-1.71614 94.5316 -8.68905 0.313807 0.949449 0.0084723
-0.442067 94.0958 -8.83361 0.339143 0.940645 0.0127844
0.623723 93.7042 -9.13763 0.355148 0.934754 0.0102377
1.69634 93.2843 -9.1806 0.377845 0.925768 0.0136566
2.67465 92.8783 -9.19664 0.382193 0.924081 0.00184368
4.04399 92.2791 -8.78235 0.405938 0.913898 0.00228458
5.0769 91.8089 -8.3569 0.420796 0.90712 0.00282773
5.96573 91.3904 -7.60948 0.426628 0.904418 -0.00326264
6.6034 91.0918 -6.71019 0.430172 0.902696 -0.00954245
7.24234 90.7929 -5.57543 0.442897 0.896521 -0.00938185
7.74571 90.5585 -4.44638 0.445968 0.894974 -0.0111191
7.9804 90.4505 -3.37057 0.444744 0.895622 -0.0078902
8.16694 90.3693 -2.14507 0.448584 0.893699 -0.0086291
8.4556 90.2363 -1.06692 0.449236 0.893358 -0.00990971
8.38135 90.2828 -0.031739 0.446675 0.894663 -0.00763149
8.19939 90.3846 1.03158 0.448749 0.893622 -0.00755627
8.26825 90.3601 2.18271 0.443901 0.896046 -0.00730686
8.10303 90.4532 3.20673 0.441508 0.897211 -0.00907755
7.68011 90.6777 4.78617 0.435944 0.89993 -0.00884964
7.15174 90.9442 5.96954 0.434927 0.900434 -0.00748471
6.61319 91.2162 7.12875 0.430746 0.90243 -0.00883551
6.01702 91.5009 8.02174 0.4204 0.907322 -0.00561382
5.17959 91.8912 9.21823 0.402948 0.915106 -0.014631
4.23123 92.3141 9.74028 0.399465 0.916693 -0.0101089
3.23505 92.7442 10.2185 0.386922 0.922106 -0.0034317
2.2703 93.1429 10.4413 0.372264 0.92809 -0.00828886
1.30156 93.5205 10.6402 0.352963 0.935596 -0.00875695
0.231669 93.9172 10.6646 0.343102 0.939155 -0.0163864
-0.795619 94.2702 10.8095 0.302302 0.953128 -0.0126376
-1.99159 94.6418 11.1073 0.28552 0.958351 -0.0065207
-3.1066 94.9588 11.1519 0.259254 0.965763 -0.00948422
-4.11388 95.2214 11.2623 0.215915 0.976183 -0.0211595
-5.23252 95.4742 11.4946 0.206292 0.978212 -0.020281
-6.66996 95.7452 11.6227 0.159336 0.986995 -0.0195508
-7.78375 95.9242 11.7572 0.138432 0.990192 -0.0189014
-9.09345 96.0829 11.8495 0.10007 0.994925 -0.0105031
-10.2487 96.1722 12.1382 0.0590251 0.998181 -0.012313
-11.7661 96.2449 12.275 0.0281652 0.999591 -0.00493638
-12.8081 96.2596 12.3977 -0.0269771 0.99954 -0.0115901
-14.1366 96.2311 12.4893 -0.0455273 0.998602 -0.0133269
-15.2531 96.1646 12.7341 -0.0839546 0.996151 -0.0221762
-16.6149 96.0228 12.8044 -0.127072 0.991491 -0.0278112
-17.7264 95.8747 13.0373 -0.153257 0.98776 -0.0277075
-18.867 95.6854 13.1013 -0.178595 0.983642 -0.0226633
-20.2365 95.4208 13.4369 -0.210577 0.977324 -0.0222673
-21.4366 95.1481 13.784 -0.242042 0.969968 -0.0240401
-22.5842 94.8548 14.0892 -0.271376 0.962343 -0.0158192
-23.5932 94.5594 14.4154 -0.308016 0.951189 -0.0191402
-24.6721 94.21 14.9328 -0.321392 0.94667 -0.0228845
-26.1794 93.6896 15.6689 -0.338257 0.940564 -0.0303394
-27.4292 93.2211 16.324 -0.37182 0.928111 -0.0170081
-28.3168 92.863 16.762 -0.384162 0.923146 -0.0148375
-29.4221 92.4034 17.0236 -0.388965 0.921145 -0.0141056
-30.7408 91.8181 17.4215 -0.417877 0.908386 -0.0135075
-31.8948 91.2869 17.5298 -0.417424 0.908668 -0.00892198
-32.8562 90.8347 17.3539 -0.424976 0.905202 -0.00103821
-33.8088 90.3731 17.2111 -0.43795 0.898999 0.000415591
-34.8154 89.8686 16.8825 -0.448635 0.893708 -0.00105756
-35.6667 89.4377 16.4121 -0.454377 0.890808 0.00195511
-36.4359 89.047 15.7902 -0.456744 0.889592 0.00349009
-37.1581 88.6769 15.1416 -0.460414 0.887683 0.00619668
-37.8126 88.3432 13.9442 -0.461989 0.886873 0.00479437
-38.2324 88.1317 13.0049 -0.464504 0.885522 0.00926066
-38.7402 87.8745 12.0485 -0.466716 0.884358 0.00932783
-39.008 87.7463 10.9752 -0.466585 0.884395 0.0120106
-39.1913 87.6637 9.83098 -0.469468 0.88287 0.0118444
-39.5168 87.5058 8.52827 -0.471549 0.881775 0.0106315
-39.6118 87.4716 7.13297 -0.471962 0.881551 0.0109729
-39.7902 87.3898 5.9125 -0.471085 0.882023 0.0105516
-39.9241 87.3329 4.8142 -0.470346 0.882426 0.00999151
-39.9323 87.3401 3.74268 -0.47071 0.882235 0.0096795
-40.0502 87.2924 2.40952 -0.474523 0.880205 0.00804573
-40.0779 87.2901 0.827995 -0.475914 0.879461 0.00735751
-39.9908 87.3485 -0.482098 -0.476906 0.878919 0.00724011
-39.8405 87.4407 -1.72745 -0.474432 0.880228 0.0106243
-39.609 87.5835 -3.37453 -0.470684 0.882248 0.00976296
-39.1914 87.826 -4.87851 -0.470189 0.882459 0.0136949
-38.8387 88.0301 -6.02168 -0.468547 0.883325 0.0141869
-38.2228 88.3727 -7.11581 -0.46699 0.884156 0.0137228
-37.5182 88.7553 -8.19705 -0.461925 0.886862 0.00990758
-36.6193 89.2291 -9.02771 -0.456294 0.8898 0.0072415
-35.7214 89.6917 -9.83369 -0.447077 0.894438 0.0101129
-34.5071 90.3004 -10.1479 -0.446767 0.894496 0.0166006
-33.3569 90.861 -10.6016 -0.428317 0.903509 0.0144106
-32.2382 91.3863 -10.749 -0.41881 0.90794 0.0156115
-31.2612 91.8297 -10.6281 -0.413014 0.910538 0.0184383
-29.9329 92.4092 -10.5306 -0.389011 0.920974 0.0215493
-28.7421 92.8945 -10.2975 -0.375379 0.926588 0.022771
-27.8088 93.2568 -9.9847 -0.359494 0.932775 0.0248129
-26.6785 93.6593 -9.57478 -0.335606 0.941407 0.0334936
-25.5501 94.0411 -9.02317 -0.323401 0.945957 0.023923
-24.5821 94.3598 -8.70238 -0.303884 0.952442 0.0225418
-23.5633 94.6755 -8.37228 -0.291296 0.956013 0.0322545
-22.2768 95.019 -8.08149 -0.257336 0.965996 0.0250906
-21.1645 95.2961 -7.82387 -0.2246 0.974034 0.0273361
-20.0839 95.5333 -7.68201 -0.200116 0.979399 0.0270347
-18.9954 95.7321 -7.59796 -0.14349 0.989203 0.0297974
-17.8522 95.9015 -7.5663 -0.142914 0.989668 0.0115286
-16.4632 96.0764 -7.55755 -0.107774 0.994078 0.0138835
-15.7466 96.1529 -7.46943 -0.0918677 0.995507 0.0162963
-15.4754 96.2089 -8.50469 -0.0838165 0.995552 0.0420888
-17.0242 96.0476 -8.53531 -0.105518 0.99367 0.0385556
-18.1049 95.905 -8.57637 -0.151079 0.986713 0.0597577
-19.3158 95.7132 -8.60539 -0.181103 0.982039 0.0526428
-20.3493 95.5124 -8.70194 -0.218414 0.974232 0.0561565
-22.0047 95.132 -9.01829 -0.252414 0.966769 0.0405512
-23.0092 94.8692 -9.25127 -0.269841 0.961953 0.0418491
-24.0964 94.5402 -9.64291 -0.304473 0.95192 0.0333388
-25.0995 94.2267 -9.93561 -0.317853 0.947361 0.0383752
-26.1293 93.8864 -10.4303 -0.335301 0.941139 0.0426928
-27.1657 93.5261 -10.797 -0.344303 0.937824 0.0440731
-28.318 93.0909 -11.1186 -0.366649 0.929729 0.0342475
-29.3409 92.6819 -11.4745 -0.386573 0.92187 0.0263393
-30.4419 92.2181 -11.6246 -0.391888 0.919676 0.0249118
-31.4316 91.7796 -11.8338 -0.416841 0.908772 0.0194252
-32.4076 91.3312 -11.7755 -0.419247 0.907444 0.0272308
-33.929 90.6052 -11.5528 -0.433999 0.900648 0.0218572
-34.9708 90.0888 -11.2152 -0.44643 0.894657 0.0169815
-36.232 89.4501 -10.8568 -0.451416 0.892214 0.0118857
-37.0707 89.0078 -10.0271 -0.458969 0.88838 0.0109413
-37.827 88.6078 -9.28265 -0.459151 0.888292 0.0108459
-38.6305 88.1758 -8.25765 -0.461647 0.886948 0.0143338
-39.1803 87.8675 -7.29818 -0.470039 0.88255 0.0130345
-39.7455 87.5506 -6.22545 -0.470265 0.882439 0.0123663
-40.0918 87.3467 -5.01013 -0.473441 0.880737 0.0125056
-40.4917 87.1123 -3.71378 -0.475079 0.879856 0.0122363
-40.6429 87.0159 -2.59137 -0.476587 0.879027 0.0132773
-40.8054 86.907 -1.0832 -0.481282 0.876502 0.00957294
-40.9179 86.8388 0.115677 -0.479291 0.877644 0.00468224
-40.9167 86.8312 1.5173 -0.475142 0.879882 0.00693364
-40.8844 86.8394 2.65454 -0.477107 0.878824 0.00609388
-40.8224 86.8627 3.77644 -0.473153 0.880933 0.00909429
-40.8352 86.8439 4.89514 -0.47268 0.881146 0.0124194
-40.6833 86.9088 6.08168 -0.474942 0.87993 0.0123546
-40.4683 87.0099 7.1914 -0.476073 0.879332 0.0113414
-40.368 87.0481 8.74641 -0.471107 0.882018 0.0101471
-40.1187 87.1678 9.90794 -0.472037 0.881522 0.00998491
-39.926 87.2585 10.9576 -0.472379 0.881331 0.0106698
-39.6696 87.3797 12.2643 -0.471013 0.882054 0.0113134
-39.1729 87.6316 13.3942 -0.467784 0.883789 0.00976812
-38.821 87.8113 14.3337 -0.465848 0.884857 0.00321512
-38.0058 88.2362 15.4538 -0.459341 0.888238 0.000606658
-37.2574 88.6164 16.4012 -0.462092 0.886811 0.00585355
-36.2245 89.1543 17.262 -0.46153 0.887113 -0.00173289
-35.4195 89.5696 17.8054 -0.446876 0.894553 -0.00873587
-34.4767 90.0452 18.3652 -0.445746 0.895142 -0.00564138
-33.3372 90.6084 18.4353 -0.433844 0.900973 -0.00436325
-32.4135 91.0516 18.5967 -0.43515 0.900289 -0.0110671
-31.3163 91.569 18.4748 -0.422989 0.905918 -0.0198001
-30.1661 92.0961 18.3761 -0.41636 0.908983 -0.0198769
-29.2711 92.4917 18.0024 -0.389812 0.920283 -0.0335622
-28.0425 93.0016 17.742 -0.388453 0.920889 -0.0326741
-27.0993 93.3711 17.2642 -0.367457 0.928932 -0.042708
-26.1307 93.7421 16.7355 -0.36313 0.931265 -0.0285764
-24.9489 94.1587 16.1606 -0.346739 0.936805 -0.0465635
-23.7658 94.5347 15.5708 -0.322438 0.946269 -0.0246699
-22.5822 94.8896 15.1432 -0.271799 0.961773 -0.0334313
-21.5241 95.1665 14.9423 -0.25547 0.966297 -0.0315682
-20.515 95.3907 14.5675 -0.211151 0.976796 -0.0351452
-19.2877 95.6488 14.2261 -0.210223 0.977209 -0.0294781
-17.9284 95.8783 14.0587 -0.161661 0.98586 -0.0441183
-16.5109 96.0695 13.8209 -0.133089 0.990347 -0.0387296
-14.6651 96.2309 13.6266 -0.0674156 0.997233 -0.0310597
-13.1049 96.292 13.4577 -0.00977563 0.999273 -0.0326706
-12.0487 96.2826 13.2672 0.0134086 0.999403 -0.0299746
-10.7697 96.2351 13.2979 0.062273 0.997565 -0.0314053
-9.70499 96.1622 13.1299 0.0632683 0.997758 -0.0218387
-8.65155 96.0671 12.831 0.0970487 0.994695 -0.0341106
-7.52742 95.9103 12.8144 0.137573 0.990188 -0.0243365
-6.34044 95.7178 12.6228 0.164858 0.985539 -0.0373873
-4.88024 95.423 12.3917 0.20169 0.97841 -0.0440504
-3.68281 95.1356 12.2138 0.249959 0.967521 -0.0377161
-2.44786 94.8056 12.0598 0.276804 0.959992 -0.0372983
-1.30589 94.4479 12.1047 0.304063 0.952363 -0.0208959
-0.180801 94.0905 11.9565 0.322702 0.946142 -0.014512
1.01293 93.6417 11.7361 0.353914 0.935214 -0.0109784
2.03472 93.2521 11.4658 0.374669 0.926363 -0.0383997
3.01565 92.8524 11.3842 0.385406 0.922615 -0.015301
3.93139 92.4658 11.0358 0.383213 0.923496 -0.0174099
4.89589 92.0412 10.591 0.39738 0.91723 -0.0279117
5.74952 91.6517 10.0757 0.406028 0.91362 -0.0209559
6.5165 91.2845 9.20436 0.419125 0.907725 -0.0192294
7.05094 91.025 8.27163 0.425723 0.904741 -0.0142649
7.54968 90.7684 7.2861 0.439238 0.898267 -0.0122541
8.17939 90.4484 6.04568 0.439816 0.898018 -0.0109581
8.59373 90.2327 5.05542 0.44281 0.896571 -0.00892132
8.86985 90.081 3.77501 0.44549 0.895205 -0.0120413
9.23922 89.8773 2.41211 0.450239 0.892826 -0.0121358
9.30385 89.83 1.29494 0.450715 0.892597 -0.0112034
9.37262 89.7837 0.0632596 0.45378 0.891058 -0.00999457
9.31895 89.7993 -0.977464 0.454723 0.890575 -0.0101321
9.13433 89.8791 -2.43019 0.45346 0.891231 -0.00907819
8.8848 89.9909 -3.8643 0.452443 0.891731 -0.0103027
8.6094 90.1187 -4.87951 0.455471 0.890211 -0.00743546
7.97966 90.4262 -6.16396 0.443763 0.896122 -0.00397057
7.32734 90.7421 -7.3031 0.436293 0.899784 0.000412714
6.64955 91.0628 -8.32875 0.431019 0.902336 -0.00321114
5.75962 91.4878 -9.24687 0.429665 0.902989 0.000228275
4.81742 91.9318 -9.5597 0.413713 0.910343 0.0108006
3.83739 92.3824 -10.0597 0.406733 0.913285 0.0218727
2.44132 92.9913 -10.2925 0.387946 0.921547 0.0157809
1.46919 93.4005 -10.3963 0.3715 0.928204 0.0165468
0.449214 93.7931 -10.2576 0.360261 0.932682 0.0177603
-0.48385 94.1355 -9.87442 0.350581 0.935693 0.0396404
-1.68592 94.5478 -9.68168 0.319931 0.946685 0.037468
-2.67853 94.8771 -9.57055 0.282693 0.95824 0.043138
-4.02349 95.2344 -9.35357 0.234009 0.971449 0.0390746
-5.14907 95.4952 -9.12573 0.218978 0.974881 0.0385325
-6.54616 95.7666 -9.10258 0.177468 0.983647 0.0303989
-7.86838 95.9806 -9.05855 0.13151 0.990712 0.0345679
-8.96211 96.1157 -9.00107 0.114821 0.992786 0.0344394
-10.1794 96.2326 -8.95625 0.0822988 0.996124 0.0308257
-11.3048 96.3068 -8.94594 0.0324907 0.998858 0.0350181
-12.3388 96.3331 -8.86735 0.021255 0.999261 0.0320302
-13.3893 96.3303 -8.82154 -0.0297231 0.998189 0.047822
-14.4507 96.2792 -8.6432 -0.0415223 0.998739 0.0282145
-14.872 96.2563 -8.54266 -0.075382 0.996138 0.0450089
-38.5461 88.0607 5.21617 -0.467664 0.883848 0.0101665
-38.5271 88.0858 3.84236 -0.465682 0.884882 0.0111491
-38.4532 88.1407 2.50091 -0.462879 0.886365 0.0100155
-38.4437 88.1608 0.941623 -0.464941 0.885308 0.00774087
-38.4189 88.1874 -0.359469 -0.467609 0.883884 0.00955181
-38.4001 88.2136 -1.83125 -0.47006 0.882587 0.00918059
-38.3899 88.2217 -2.08775 -0.47006 0.882587 0.00918059
-37.3721 88.8009 -5.82797 -0.462307 0.886597 0.0147865
-37.4198 88.7546 -4.31517 -0.465993 0.884743 0.00895276
-37.4396 88.7297 -2.98686 -0.464248 0.885637 0.0110312
-37.5054 88.6802 -1.55369 -0.462113 0.886763 0.010132
-37.5202 88.6589 -0.0327789 -0.467002 0.884212 0.00888538
-37.5528 88.6208 1.29738 -0.457373 0.889201 0.0114766
-37.6098 88.5753 3.06588 -0.459304 0.888229 0.00943077
-37.6623 88.5312 4.59426 -0.458141 0.888815 0.0106971
-37.7084 88.4892 6.19629 -0.462573 0.886507 0.0114507
-37.7454 88.4527 7.68096 -0.463842 0.885858 0.0103041
-37.7751 88.4146 9.32526 -0.460063 0.887787 0.0132831
-37.7826 88.4013 9.97771 -0.463035 0.886246 0.0129062
-36.9591 88.8025 12.1698 -0.457748 0.889026 0.0100319
-36.9229 88.8377 10.7114 -0.460632 0.887529 0.0104989
-36.9063 88.8635 9.4132 -0.460098 0.887771 0.0131445
-36.8785 88.8977 8.04129 -0.459596 0.888033 0.0130207
-36.851 88.9338 6.49858 -0.463371 0.886115 0.00933108
-36.7764 88.9875 4.61865 -0.458968 0.888409 0.0088549
-36.7169 89.0335 2.93782 -0.455061 0.890414 0.00908634
-36.6646 89.0746 1.63164 -0.459484 0.888053 0.015406
-36.6265 89.1164 0.250225 -0.455035 0.890413 0.0103827
-36.6058 89.1407 -1.04888 -0.450384 0.892798 0.00804907
-36.543 89.1876 -2.6403 -0.4523 0.891829 0.00808608
-36.4938 89.2271 -4.00561 -0.456235 0.889789 0.0112047
-36.4542 89.2691 -5.32518 -0.458979 0.888355 0.0127564
-36.4525 89.2886 -6.63802 -0.454287 0.890762 0.0128866
-36.4444 89.2996 -7.1128 -0.450464 0.892724 0.0112157
-35.4921 89.7855 -8.05995 -0.44676 0.894579 0.011557
-35.5194 89.7533 -6.45693 -0.445054 0.89545 0.00977653
-35.5504 89.7195 -4.85643 -0.44845 0.893722 0.0123805
-35.607 89.6636 -2.94156 -0.446567 0.894694 0.0100159
-35.6665 89.6188 -1.57862 -0.443892 0.896043 0.00819254
-35.7137 89.5827 -0.241158 -0.449945 0.893013 0.0088306
-35.7641 89.5388 1.24461 -0.449138 0.893374 0.012547
-35.8179 89.4908 2.84006 -0.443967 0.896006 0.00814312
-35.8988 89.4373 4.34869 -0.452775 0.891598 0.00697993
-35.9543 89.3977 5.67292 -0.45528 0.890325 0.00635018
-35.9782 89.3738 6.98746 -0.447297 0.894312 0.0114283
-36.0113 89.3374 8.42429 -0.45492 0.890391 0.0158779
-36.067 89.2805 10.3617 -0.45522 0.890308 0.0112891
-36.0972 89.2514 11.6846 -0.456221 0.88984 0.00693817
-36.1414 89.2135 13.4037 -0.455867 0.890011 0.00811999
-36.1423 89.2076 14.0214 -0.455917 0.889988 0.00779296
-35.2998 89.6322 14.7667 -0.455354 0.890283 0.00696531
-35.2808 89.655 13.1961 -0.44819 0.893915 0.00638501
-35.252 89.68 11.8467 -0.448003 0.894008 0.00662
-35.2122 89.7133 10.2834 -0.446066 0.89493 0.011235
-35.1563 89.7581 8.93176 -0.445012 0.895422 0.013536
-35.1208 89.7971 7.60304 -0.445713 0.89512 0.00997754
-35.0878 89.8271 6.30796 -0.446708 0.894639 0.00848877
-35.036 89.8621 4.65149 -0.440954 0.89752 0.00408
-34.931 89.9272 2.98963 -0.441103 0.897396 0.0103992
-34.8621 89.9819 1.44434 -0.439901 0.897942 0.0136806
-34.812 90.0244 0.108914 -0.437509 0.899152 0.0105851
-34.7563 90.0649 -1.26843 -0.433338 0.901205 0.00697858
-34.6751 90.1224 -2.94738 -0.438651 0.898604 0.00981543
-34.6235 90.1704 -4.2952 -0.443841 0.895988 0.0144998
-34.5852 90.2094 -5.80807 -0.430863 0.902389 0.00718691
-34.5406 90.2459 -7.162 -0.436811 0.899475 0.0118732
-34.52 90.2699 -8.42724 -0.440927 0.897482 0.0104674
-33.5639 90.7321 -8.68872 -0.430387 0.902575 0.0111901
-33.5744 90.7095 -7.3342 -0.423576 0.905822 0.00835235
-33.6196 90.6723 -5.91634 -0.432089 0.901793 0.00831802
-33.6711 90.631 -4.47323 -0.43047 0.902489 0.0145003
-33.7428 90.5731 -2.97594 -0.429571 0.902917 0.014468
-33.8192 90.5166 -1.42883 -0.426303 0.904481 0.0134357
-33.8882 90.4671 0.0286261 -0.43024 0.902659 0.0100227
-33.9419 90.426 1.3213 -0.43055 0.902405 0.0170599
-34.0165 90.3707 2.6247 -0.431943 0.901853 0.00926988
-34.1113 90.3161 4.16955 -0.433531 0.901123 0.00539247
-34.1831 90.274 5.52517 -0.434151 0.900829 0.00445284
-34.2261 90.245 6.86906 -0.437022 0.899433 0.00562137
-34.2775 90.2009 8.50199 -0.437696 0.899027 0.0131508
-34.347 90.1491 9.87611 -0.437248 0.899271 0.0111885
-34.392 90.1101 11.9234 -0.436901 0.899483 0.006918
-34.4291 90.0778 13.5879 -0.442626 0.896666 0.00847286
-34.4456 90.0601 14.9744 -0.445632 0.895199 0.00559862
-34.4494 90.0558 15.2569 -0.447339 0.894333 0.00748164
-33.6008 90.4727 15.2125 -0.430773 0.902458 0.00215485
-33.5713 90.4921 13.7734 -0.430911 0.902372 0.00641064
-33.5364 90.5192 12.4575 -0.425444 0.904957 0.00702985
-33.4959 90.5491 11.1082 -0.420948 0.90704 0.00900164
-33.4373 90.5935 9.69398 -0.420308 0.907293 0.0126338
-33.3897 90.6339 8.27701 -0.425872 0.904723 0.0104598
-33.3436 90.6626 6.92329 -0.427695 0.903908 0.00511315
-33.2676 90.7127 5.20315 -0.426599 0.904413 0.00711136
-33.1912 90.7566 3.81344 -0.422516 0.906346 0.0041154
-33.0916 90.8162 2.22016 -0.419089 0.907844 0.0135588
-33.0008 90.8775 0.844192 -0.419715 0.907597 0.0103556
-32.9343 90.9193 -0.450462 -0.424333 0.905468 0.00833015
-32.8565 90.9788 -2.09877 -0.415406 0.909537 0.0134174
-32.7731 91.0323 -3.4013 -0.419179 0.907848 0.0100353
-32.6897 91.1001 -4.9058 -0.425168 0.90499 0.0150429
-32.6535 91.1316 -6.29403 -0.424558 0.905373 0.00706451
-32.6064 91.1688 -7.7996 -0.421361 0.906823 0.0112773
-32.5887 91.1857 -8.46484 -0.421799 0.906575 0.0143757
-31.5777 91.6517 -8.67295 -0.409071 0.912409 0.0130941
-31.6505 91.5954 -7.13969 -0.412514 0.910886 0.0109267
-31.702 91.5636 -5.85247 -0.412151 0.911114 0.00152168
-31.7527 91.5216 -4.54202 -0.411394 0.911241 0.0198558
-31.8636 91.4398 -2.73546 -0.405007 0.914252 0.0106034
-31.9531 91.3819 -1.37309 -0.417732 0.908503 0.0110304
-32.0571 91.3146 0.417388 -0.414409 0.910003 0.0126599
-32.1603 91.25 1.9615 -0.4176 0.908566 0.0108326
-32.2976 91.1728 3.89409 -0.42306 0.906089 0.00483833
-32.3814 91.1238 5.3707 -0.419619 0.907694 0.00341296
-32.4507 91.0796 6.86265 -0.416565 0.909061 0.00907189
-32.533 91.0262 8.75206 -0.411021 0.911561 0.0108887
-32.6041 90.9732 10.2053 -0.421519 0.906758 0.0106056
-32.6679 90.9303 11.594 -0.423512 0.905887 0.00236698
-32.709 90.9056 13.0557 -0.427529 0.903997 0.00298875
-32.7414 90.8849 14.6488 -0.431359 0.902176 0.00287415
-32.7662 90.8699 15.726 -0.430575 0.90255 -0.00305592
-31.9323 91.2607 15.7696 -0.41862 0.908161 -8.18338e-05
-31.901 91.2778 14.2104 -0.421628 0.906766 0.00232674
-31.8573 91.3051 12.6411 -0.421286 0.906928 0.000716524
-31.8033 91.3315 11.0899 -0.41367 0.910414 0.00494799
-31.7025 91.3914 9.50445 -0.4109 0.911637 0.00887512
-31.6275 91.4388 8.19283 -0.405378 0.914139 0.00427758
-31.558 91.4806 6.79986 -0.407738 0.913016 0.0123406
-31.4743 91.5359 5.23547 -0.40647 0.913628 0.0080898
-31.3785 91.5875 3.81982 -0.409855 0.912132 0.00582114
-31.2794 91.6454 2.42411 -0.414246 0.910089 0.0117365
-31.1717 91.7073 0.971702 -0.401763 0.915727 0.00559983
-31.0617 91.7709 -0.615881 -0.399301 0.916752 0.0111554
-30.9608 91.8321 -2.05834 -0.405291 0.914131 0.010193
-30.8587 91.8968 -3.40281 -0.404028 0.914561 0.0184274
-30.7896 91.9515 -4.6982 -0.401601 0.915635 0.0181291
-30.7199 91.9987 -6.20173 -0.395492 0.918451 0.00580033
-30.6388 92.0461 -7.51174 -0.394674 0.918708 0.0143954
-30.5597 92.1062 -8.78693 -0.393336 0.919196 0.0191406
-29.5674 92.5236 -8.78655 -0.380443 0.924647 0.0170665
-29.6435 92.4707 -7.46384 -0.379911 0.924938 0.012521
-29.7608 92.4009 -5.75202 -0.375399 0.926834 0.00743269
-29.8399 92.3506 -4.41822 -0.386161 0.922296 0.0157925
-29.9405 92.2873 -2.98243 -0.396241 0.917973 0.0178569
-30.0493 92.2195 -1.59005 -0.391701 0.919978 0.014524
-30.1532 92.1599 -0.199015 -0.39575 0.918309 0.00954572
-30.2853 92.0934 1.43046 -0.399936 0.916529 0.00509829
-30.4081 92.0206 2.94132 -0.402397 0.915412 0.00985332
-30.499 91.9751 4.24233 -0.404535 0.914507 0.0052767
-30.5961 91.9238 5.53877 -0.405611 0.91398 0.010995
-30.6729 91.873 6.84178 -0.404034 0.914688 0.0101041
-30.7746 91.8152 8.45829 -0.394139 0.919038 0.00484829
-30.8856 91.7553 10.1426 -0.411264 0.911492 0.00662804
-30.9667 91.7104 11.5646 -0.410688 0.911771 0.00312007
-31.0239 91.6846 12.959 -0.407212 0.913333 0.00137393
-31.0772 91.6565 14.4644 -0.405295 0.914184 0.00200935
-31.1062 91.6415 15.8172 -0.418629 0.908157 -9.04576e-05
-30.2584 92.02 15.3742 -0.407755 0.913082 -0.00422055
-30.2216 92.0385 14.0283 -0.405879 0.913917 0.00431446
-30.1604 92.0656 12.6519 -0.394386 0.918937 -0.00381131
-30.0753 92.1031 10.8267 -0.399717 0.916632 0.00347283
-29.9707 92.1561 9.31665 -0.394763 0.91878 0.00242531
-29.8581 92.2139 7.80967 -0.39646 0.918023 0.0073731
-29.7612 92.2726 6.42834 -0.39355 0.919229 0.0116338
-29.6479 92.3308 5.00584 -0.390945 0.920408 0.00327157
-29.5502 92.3883 3.69873 -0.388607 0.921378 0.00683384
-29.4165 92.4475 2.17929 -0.386517 0.922251 0.00756533
-29.2826 92.5173 0.672228 -0.382457 0.923944 0.00738407
-29.1523 92.5845 -0.83993 -0.38239 0.923941 0.0105503
-29.0382 92.6511 -2.14144 -0.382244 0.923937 0.0151412
-28.8931 92.7379 -3.8346 -0.382745 0.923748 0.0139746
-28.7834 92.7941 -5.42137 -0.375384 0.926839 0.00744272
-28.6828 92.845 -6.71444 -0.361429 0.93227 0.0155315
-28.57 92.9171 -8.29591 -0.369274 0.929228 0.013155
-28.5545 92.9271 -8.55337 -0.373504 0.927384 0.0212909
-27.5487 93.3129 -8.28066 -0.357568 0.933614 0.0225654
-27.6494 93.2442 -6.91307 -0.349757 0.936744 0.0134707
-27.7669 93.1899 -5.53811 -0.352917 0.935604 0.00972875
-27.8779 93.1378 -4.06806 -0.361532 0.932293 0.0111663
-28.0315 93.0558 -2.45406 -0.356476 0.934257 0.00938914
-28.1645 92.9895 -1.07686 -0.364083 0.931159 0.0196643
-28.303 92.9155 0.313399 -0.364943 0.93098 0.00960822
-28.4299 92.8529 1.63451 -0.368117 0.929754 0.00690164
-28.5757 92.7861 3.05211 -0.366972 0.930211 0.00629541
-28.6823 92.7349 4.34454 -0.367628 0.929951 0.00629507
-28.8108 92.6719 5.66295 -0.374975 0.926981 0.010025
-28.9244 92.6129 7.08004 -0.379995 0.92492 0.0112648
-29.0479 92.5475 8.62399 -0.380223 0.924859 0.00806623
-29.158 92.4964 10.0294 -0.378867 0.925449 0.002022
-29.2359 92.4623 11.3798 -0.376669 0.926348 0.00046022
-29.3015 92.434 12.8142 -0.392091 0.919924 0.00211247
-29.3687 92.406 14.342 -0.392982 0.919543 0.00230318
-29.3995 92.395 15.3517 -0.388302 0.921516 -0.00548833
-28.5451 92.7494 14.9653 -0.384791 0.922996 -0.00380388
-28.464 92.7789 13.3373 -0.366634 0.930358 -0.00379891
-28.3857 92.8071 11.9392 -0.365319 0.930882 -0.000257785
-28.3125 92.8381 10.6492 -0.363673 0.931513 0.00505318
-28.2303 92.8773 9.34301 -0.361097 0.932511 0.00566398
-28.1192 92.9309 7.98017 -0.364411 0.931202 0.00816565
-27.9767 93.0007 6.32783 -0.366931 0.930227 0.00623101
-27.8259 93.0706 4.82606 -0.368188 0.929733 0.00584662
-27.6902 93.1325 3.51698 -0.366976 0.930212 0.00584562
-27.5205 93.2063 1.95718 -0.35304 0.935582 0.00697988
-27.3429 93.291 0.258176 -0.363823 0.931428 0.00865664
-27.1875 93.3607 -1.09995 -0.333811 0.942574 0.0111964
-27.0321 93.4353 -2.50024 -0.336663 0.941518 0.0142143
-26.9023 93.4958 -3.78092 -0.33494 0.942223 0.00553318
-26.753 93.5584 -5.2813 -0.339664 0.940515 0.00776472
-26.6047 93.6287 -6.8574 -0.328121 0.944562 0.0118403
-26.5357 93.6656 -7.57781 -0.336751 0.941496 0.013525
-25.4377 94.0439 -7.3787 -0.325131 0.945552 0.0148902
-25.5849 93.9757 -6.07356 -0.314876 0.94896 0.0181142
-25.7789 93.8969 -4.50859 -0.329475 0.944113 0.00986931
-25.9707 93.8178 -3.01192 -0.330657 0.943705 0.00933858
-26.173 93.7222 -1.28253 -0.334871 0.942168 0.013451
-26.3515 93.6492 0.0895559 -0.334844 0.942272 0.0019602
-26.5178 93.5904 1.44645 -0.335917 0.941842 0.00963884
-26.691 93.5117 2.94271 -0.331611 0.943332 0.0126126
-26.8905 93.4282 4.67732 -0.345263 0.938504 0.00177169
-27.0545 93.3587 6.12864 -0.342623 0.939437 0.00818483
-27.2372 93.2766 7.91736 -0.364906 0.931001 0.00896847
-27.3788 93.2067 9.3948 -0.362565 0.931928 0.00751411
-27.4689 93.1672 10.7029 -0.362779 0.931867 0.00382424
-27.5628 93.13 12.342 -0.357562 0.933886 0.00238294
-27.6327 93.1091 13.93 -0.366619 0.930338 -0.00785185
-27.6676 93.1018 14.4484 -0.364853 0.931007 -0.0103773
-26.8093 93.4183 13.9611 -0.34228 0.939532 -0.0111227
-26.7424 93.4357 12.6741 -0.349452 0.936954 -0.000684596
-26.6388 93.4799 11.1198 -0.334999 0.942205 0.00506696
-26.5169 93.526 9.61182 -0.343965 0.93897 -0.00477235
-26.377 93.5854 8.17856 -0.332791 0.942891 0.0144076
-26.2136 93.6588 6.74923 -0.327466 0.944853 0.00429333
-25.981 93.7498 4.78279 -0.326345 0.945247 0.0027317
-25.7993 93.8166 3.3993 -0.322313 0.946583 0.0097071
-25.6138 93.9004 1.89194 -0.322186 0.946541 0.0160457
-25.438 93.9719 0.568888 -0.318453 0.947937 0.00185253
-25.2548 94.0393 -0.719774 -0.330245 0.94386 0.00813955
-25.0458 94.128 -2.18989 -0.315199 0.948989 0.00840116
-24.8045 94.2165 -3.93251 -0.303477 0.952739 0.0137614
-24.5553 94.3077 -5.56576 -0.315398 0.948957 0.00233364
-24.3727 94.3841 -6.88362 -0.305536 0.95204 0.0163764
-23.2788 94.7108 -6.62947 -0.280805 0.959559 0.0198706
-23.4782 94.6343 -5.3517 -0.282192 0.959332 0.00700766
-23.7226 94.5524 -4.03608 -0.278338 0.960447 0.00835727
-23.9409 94.4733 -2.64344 -0.281326 0.95961 -0.00213933
-24.156 94.4038 -1.29502 -0.304457 0.952391 0.0160507
-24.365 94.3173 0.00222952 -0.301044 0.953607 0.00249397
-24.6368 94.2309 1.78541 -0.3206 0.947133 0.0124606
-24.8078 94.1572 3.07103 -0.304322 0.952358 0.0200497
-25.033 94.0614 4.69346 -0.299034 0.954189 0.0101444
-25.2204 93.9958 6.07707 -0.303022 0.952976 0.00373522
-25.403 93.926 7.47441 -0.319493 0.947546 0.0089413
-25.5819 93.8627 9.10768 -0.329552 0.944137 0.0010812
-25.7453 93.8013 10.6578 -0.332571 0.943056 0.0065273
-25.8512 93.7602 12.0127 -0.336192 0.941793 0.000552058
-25.9668 93.7235 13.3894 -0.342442 0.939534 -0.0030879
-25.9876 93.717 13.7134 -0.342442 0.939534 -0.00309398
-25.1404 94.0205 13.2525 -0.338115 0.941067 -0.00838647
-24.9985 94.06 11.7114 -0.315118 0.949033 -0.00616753
-24.8224 94.1123 10.0659 -0.320019 0.9474 0.00451605
-24.6635 94.1736 8.76991 -0.296916 0.954903 0.000777638
-24.4367 94.2443 6.99131 -0.295014 0.955493 0.000207543
-24.2051 94.3191 5.41866 -0.297388 0.954749 0.00373603
-24.0136 94.3906 4.08969 -0.304544 0.95232 0.0184143
-23.777 94.4908 2.51977 -0.295208 0.955347 0.0127954
-23.5667 94.5681 1.17044 -0.280724 0.959787 -0.00175531
-23.3324 94.634 -0.136494 -0.274731 0.961452 0.0115456
-23.0814 94.7203 -1.55516 -0.262423 0.964948 0.00321239
-22.8293 94.8018 -2.9261 -0.267784 0.963399 0.0124243
-22.5382 94.895 -4.4879 -0.275653 0.961214 0.00907898
-22.2808 94.9754 -5.82314 -0.257065 0.966281 0.0147946
-22.1891 95.0062 -6.31586 -0.255778 0.966651 0.0128071
-21.037 95.2906 -6.16647 -0.236226 0.971656 0.00903308
-21.483 95.1737 -4.36297 -0.241732 0.970325 0.00600395
-21.7784 95.0868 -2.96053 -0.248641 0.968501 0.0135509
-22.0204 95.0061 -1.68115 -0.251215 0.967914 0.00584874
-22.2798 94.9309 -0.36104 -0.247123 0.968934 0.00982387
-22.5386 94.8549 0.987025 -0.249156 0.968449 -0.00529184
-22.7744 94.7957 2.29342 -0.26829 0.963195 0.01663
-23.0075 94.699 3.67245 -0.279984 0.959889 0.0149046
-23.2838 94.6016 5.35929 -0.288042 0.957613 0.00307005
-23.4979 94.533 6.74915 -0.292625 0.956226 -0.00186268
-23.7477 94.4586 8.52154 -0.296112 0.955153 -0.000548517
-23.9222 94.4013 9.85897 -0.293069 0.956087 0.00278633
-24.0836 94.3607 11.1446 -0.305848 0.952064 -0.00552093
-24.2641 94.3122 12.665 -0.31723 0.948314 -0.0080571
-23.39 94.5918 12.5976 -0.292565 0.956163 -0.0125562
-23.2336 94.6161 11.2933 -0.285541 0.958316 -0.00986689
-23.0291 94.6711 9.73268 -0.274403 0.961607 0.00379152
-22.8234 94.7314 8.22762 -0.275933 0.961175 -0.00212232
-22.5972 94.7937 6.80036 -0.264919 0.964262 0.00410773
-22.2254 94.9118 4.64703 -0.263898 0.964508 0.00904645
-21.9742 94.9983 3.24411 -0.259404 0.965598 0.0181867
-21.7206 95.0697 1.94475 -0.243782 0.969826 0.0026766
-21.3869 95.153 0.290521 -0.240925 0.970537 -0.00367776
-21.1164 95.2314 -1.00096 -0.22549 0.974212 0.00808394
-20.8127 95.3114 -2.41942 -0.214152 0.9768 -0.00030536
-20.4697 95.3937 -3.8145 -0.216889 0.976153 0.00915362
-20.1569 95.4751 -5.07745 -0.213247 0.97696 0.00862008
-19.8889 95.5506 -6.05204 -0.219034 0.975235 0.0306833
-18.766 95.7576 -6.09672 -0.14624 0.989244 0.00316729
-19.1129 95.6688 -4.66523 -0.175206 0.9844 0.0161356
-19.5148 95.5824 -3.19951 -0.175465 0.984473 0.00498367
-19.8455 95.517 -1.93877 -0.177772 0.984056 0.00562585
-20.1574 95.4515 -0.626809 -0.201369 0.979489 0.00713912
-20.4555 95.3831 0.719915 -0.236971 0.971494 -0.0066291
-20.8082 95.2947 2.37462 -0.217272 0.976037 0.0120359
-21.1417 95.2074 3.98365 -0.219062 0.975633 -0.012319
-21.3837 95.129 5.25646 -0.249107 0.968339 0.016287
-21.6495 95.0449 6.74758 -0.244767 0.969581 0.00131442
-21.8723 94.9852 8.01447 -0.247791 0.968805 -0.00399084
-22.101 94.9286 9.4466 -0.245576 0.969374 0.00256575
-22.3294 94.8694 11.0844 -0.257521 0.966265 -0.00380073
-22.4487 94.8562 12.1209 -0.265653 0.963922 -0.0168255
-21.5714 95.0774 11.9226 -0.239064 0.970914 -0.0131883
-21.356 95.1194 10.4093 -0.247293 0.968918 -0.00663001
-21.1327 95.1755 9.07364 -0.234311 0.972157 -0.00301258
-20.8936 95.2297 7.73502 -0.226779 0.973942 0.00283779
-20.601 95.3126 6.1105 -0.229132 0.973257 0.0163908
-20.3026 95.3928 4.664 -0.208453 0.977966 0.0113984
-19.9851 95.4661 3.19981 -0.205833 0.978426 0.017734
-19.6673 95.5467 1.79146 -0.204513 0.978861 0.00214051
-19.3411 95.6149 0.410816 -0.201618 0.979464 -0.000947145
-19.0269 95.6725 -0.850272 -0.183531 0.982969 -0.00936164
-18.6533 95.7314 -2.22893 -0.172377 0.985025 0.00340151
-18.1965 95.8145 -3.82863 -0.16105 0.986807 0.0166119
-17.8192 95.8892 -5.19854 -0.144127 0.989499 0.0108894
-17.6218 95.921 -5.77361 -0.140886 0.990005 0.00643102
-16.3292 96.0784 -5.76842 -0.107584 0.994194 -0.00202036
-16.8488 96.0105 -4.39462 -0.113519 0.993515 0.00646565
-17.329 95.9479 -2.90406 -0.140681 0.990046 0.00429994
-17.723 95.8974 -1.58526 -0.159644 0.987149 -0.00712009
-18.1626 95.8289 -0.0478959 -0.167351 0.985896 -0.00163011
-18.5735 95.7616 1.49719 -0.186358 0.982356 0.0156956
-18.9226 95.6796 2.92833 -0.184446 0.982824 0.00605322
-19.2635 95.6043 4.40486 -0.174523 0.984531 0.015507
-19.5815 95.5283 5.82686 -0.166602 0.985887 0.01643
-19.8721 95.4572 7.21437 -0.188081 0.982062 -0.0133834
-20.1389 95.4027 8.597 -0.223831 0.974621 0.0036339
-20.4396 95.3365 10.1892 -0.211427 0.97739 -0.00277958
-20.6795 95.288 11.6206 -0.233241 0.972242 -0.0185419
-20.7211 95.2829 11.8794 -0.233241 0.972242 -0.0185419
-19.8328 95.4768 11.759 -0.19894 0.979925 -0.0130295
-19.5951 95.5157 10.4935 -0.184308 0.982859 -0.00437045
-19.2671 95.5767 8.85216 -0.183946 0.982843 0.0135736
-18.98 95.6255 7.44911 -0.168544 0.985597 -0.0138312
-18.6969 95.6725 6.14837 -0.166594 0.985889 0.0164323
-18.3747 95.7478 4.79555 -0.16041 0.986956 0.0136354
-18.001 95.8426 3.24322 -0.170479 0.985225 0.0164173
-17.6515 95.9086 1.90401 -0.149407 0.988734 0.00909233
-17.2686 95.9608 0.555526 -0.11785 0.993015 -0.00575139
-16.7621 96.0167 -1.14754 -0.124659 0.992135 0.0113205
-16.313 96.064 -2.51321 -0.0924015 0.995722 -6.69401e-07
-15.7774 96.1197 -4.00344 -0.0909209 0.995803 0.0104516
-15.2268 96.1776 -5.33562 -0.0692809 0.997589 0.00407548
-15.0324 96.1902 -5.80953 -0.0744635 0.997221 -0.00225434
-13.6252 96.2703 -6.09014 -0.0324343 0.99942 0.0103398
-14.3608 96.2169 -4.48217 -0.0457849 0.998889 0.0111847
-14.9565 96.1756 -3.02056 -0.0489135 0.998786 -0.00585211
-15.4498 96.1486 -1.68551 -0.0938531 0.995579 -0.00375933
-15.9571 96.098 -0.184806 -0.078381 0.996919 -0.00305967
-16.3763 96.0571 1.14852 -0.097837 0.995202 0.000666414
-16.7851 96.016 2.51592 -0.102823 0.994593 0.0145658
-17.1411 95.9428 3.81403 -0.121813 0.992238 0.0249863
-17.471 95.8823 5.05876 -0.119892 0.992778 0.00414188
-17.8173 95.8118 6.48028 -0.14168 0.989907 0.00326373
-18.197 95.7607 8.14237 -0.153277 0.988181 0.00192661
-18.5009 95.7003 9.59563 -0.166273 0.986079 0.000691447
-18.8282 95.661 11.2103 -0.171732 0.985094 -0.0098821
-18.8627 95.6565 11.3717 -0.172828 0.984926 -0.00713158
-17.9769 95.805 11.3961 -0.146605 0.989174 -0.0064751
-17.661 95.8424 9.88149 -0.139514 0.990219 -0.00117611
-17.3698 95.8791 8.56244 -0.134464 0.990914 -0.0030562
-17.0232 95.9257 7.14405 -0.137461 0.990506 -0.00136699
-16.6667 95.9765 5.72249 -0.119306 0.992855 0.00234086
-16.2825 96.0365 4.28501 -0.106296 0.994119 0.0206848
-15.8341 96.0988 2.8087 -0.0877752 0.99604 0.0141414
-15.3591 96.1556 1.30278 -0.0703582 0.997519 0.00244681
-14.9394 96.1743 0.0604052 -0.0548385 0.998487 -0.00411323
-14.4993 96.2109 -1.16938 -0.0629186 0.997979 0.00887431
-13.9078 96.2338 -2.68116 -0.00900167 0.999922 -0.00871443
-13.3793 96.2445 -3.9291 -0.0106424 0.999641 0.0245872
-12.6514 96.2827 -5.56362 0.00836665 0.999862 0.0143586
-12.3067 96.2842 -6.31876 0.00496323 0.99998 0.00389131
-11.2358 96.2473 -5.94027 0.0444836 0.998977 0.00807888
-12.0011 96.2504 -4.27649 0.0281225 0.99956 0.00943946
-12.5645 96.248 -3.04338 0.000906437 0.999938 0.011085
-13.1696 96.2494 -1.61309 -0.00959666 0.999933 -0.00648943
-13.727 96.2487 -0.205859 -0.0459979 0.998912 0.00765302
-14.2511 96.2169 1.23869 -0.054845 0.998486 -0.00410939
-14.7299 96.1926 2.59284 -0.0610775 0.998102 0.00785766
-15.1654 96.1466 3.92614 -0.0792944 0.996851 0.000973052
-15.5908 96.1002 5.35067 -0.0941229 0.995538 -0.00670207
-15.9813 96.0527 6.77576 -0.106066 0.994288 0.0118528
-16.3613 96.0084 8.21921 -0.111099 0.993805 0.00310251
-16.7135 95.9649 9.64252 -0.124319 0.99219 -0.0101415
-17.0608 95.9343 11.1644 -0.138998 0.990217 -0.0122497
-16.1802 96.0394 11.1209 -0.115332 0.993305 -0.00660476
-15.8192 96.0776 9.76046 -0.123915 0.992247 -0.00956227
-15.4733 96.1044 8.47842 -0.0730687 0.997326 -0.00167669
-15.1066 96.1416 7.04779 -0.0697117 0.99754 0.00730623
-14.6401 96.1811 5.46311 -0.0760133 0.997027 0.0125865
-14.2282 96.206 4.20023 -0.0610015 0.998105 -0.00806699
-13.6952 96.2484 2.67527 -0.0529974 0.998595 -0.00038611
-13.2442 96.2802 1.4493 -0.036141 0.999321 0.00717399
-12.6221 96.2815 -0.140782 -0.0307058 0.999527 0.00178882
-11.9818 96.2459 -1.64778 0.00760252 0.999887 -0.0129491
-11.2026 96.2251 -3.35945 0.0155861 0.999872 0.00371707
-10.5275 96.2077 -4.68895 0.0579079 0.998242 0.0126158
-9.86179 96.1652 -5.98055 0.109223 0.993991 -0.00720601
-9.709 96.1503 -6.26113 0.108256 0.994104 0.00614766
-8.31944 95.9933 -6.37896 0.119735 0.992783 0.00670843
-9.10872 96.0956 -5.07166 0.118775 0.992844 -0.0124119
-9.75282 96.1532 -3.83446 0.0736706 0.997257 0.00708089
-10.4388 96.1831 -2.43187 0.050908 0.998696 -0.00383842
-11.1322 96.2304 -0.93482 0.0368075 0.999264 -0.0108445
-11.8113 96.2733 0.632971 0.0247885 0.99962 -0.0120726
-12.4374 96.2778 2.18595 0.00205589 0.999905 0.0136582
-12.8989 96.2729 3.38776 -0.0280518 0.99959 0.00582152
-13.4115 96.2583 4.81018 -0.0278929 0.999611 8.41114e-05
-13.8631 96.2331 6.11111 -0.0652192 0.99785 0.00645171
-14.341 96.191 7.60742 -0.0697177 0.99754 0.00731469
-14.7039 96.1621 9.00043 -0.0742239 0.997241 -0.000677476
-15.0449 96.1443 10.3053 -0.0723223 0.997317 -0.0113014
-15.2736 96.1323 11.1352 -0.078978 0.996864 -0.00506019
-14.2292 96.2024 10.6486 -0.0336907 0.999374 -0.0107668
-13.8376 96.2104 9.18547 -0.0356776 0.999352 0.00483235
-13.4457 96.2446 7.84158 -0.0585283 0.998108 0.0188133
-12.9265 96.272 6.3467 0.0080614 0.999845 0.0156556
-12.4663 96.277 5.0405 -0.0122826 0.999887 -0.00870615
-11.9938 96.2902 3.77128 -0.0302311 0.99913 0.0287326
-11.4767 96.2715 2.50475 0.00346095 0.999992 -0.00180327
-10.9573 96.248 1.24149 0.032924 0.999449 -0.00410651
-10.2924 96.1923 -0.244003 0.0663955 0.99775 -0.00928092
-9.68246 96.1385 -1.53148 0.0871647 0.996193 -0.000968725
-8.99696 96.0735 -2.92164 0.0949507 0.99542 0.0110809
-8.39218 96.0111 -4.06443 0.147843 0.988918 0.0135221
-7.60788 95.9005 -5.44456 0.158833 0.987302 0.00269257
-7.21669 95.8398 -6.11134 0.16245 0.986693 0.00685039
-5.64716 95.5547 -6.47407 0.204004 0.978963 -0.00379456
-6.39944 95.6993 -5.26181 0.172829 0.984949 0.00224235
-7.20657 95.8302 -3.95407 0.171517 0.985181 0.000828727
-7.88399 95.9316 -2.70644 0.141978 0.98987 0.0004575
-8.52318 96.0187 -1.46921 0.104004 0.994577 0.000553241
-9.19196 96.1017 -0.118208 0.0863051 0.996234 -0.0083808
-9.80645 96.1611 1.1902 0.0780194 0.996952 -0.000185504
-10.474 96.2212 2.73975 0.0676225 0.997708 -0.0023706
-11.1002 96.2636 4.20284 0.0788815 0.996668 0.0207583
-11.6977 96.2678 5.70398 0.0129037 0.999823 0.0137073
-12.1918 96.26 7.07359 0.00406584 0.999981 -0.00452761
-12.6192 96.2481 8.30788 0.0151763 0.999223 0.0363744
-13.0488 96.2414 9.56806 -0.0109713 0.999934 -0.00334755
-13.3151 96.2313 10.4671 -0.0369462 0.999301 -0.00573513
-12.455 96.237 10.6477 0.0173694 0.999758 -0.013503
-11.9698 96.2212 9.14524 0.0155373 0.999875 -0.00299475
-11.5149 96.2251 7.90902 0.0372685 0.999198 0.0146325
-11.0072 96.2292 6.54953 0.0545048 0.998387 0.0158723
-10.4657 96.2069 5.25204 0.0736559 0.997244 0.00888547
-9.88542 96.1742 3.87198 0.0769055 0.99703 0.00411504
-9.36216 96.1356 2.68318 0.0723176 0.997255 -0.0159062
-8.78187 96.064 1.41046 0.112027 0.993695 0.00444118
-8.17658 95.9795 0.152302 0.127333 0.991859 0.00165664
-7.555 95.8894 -1.04031 0.157075 0.987583 0.00254597
-6.82145 95.7689 -2.4151 0.172356 0.985027 -0.00387498
-6.03204 95.6285 -3.76301 0.175146 0.984533 0.00425154
-5.21038 95.4754 -5.15008 0.219048 0.975623 -0.0132918
-4.45676 95.2904 -6.34982 0.235065 0.971928 -0.0100645
-4.1849 95.2255 -6.77197 0.236362 0.971635 0.00762009
-2.79744 94.8611 -6.94009 0.277614 0.960682 0.00456673
-3.55249 95.0679 -5.77928 0.250261 0.968146 -0.00792531
-4.42344 95.2884 -4.39638 0.235623 0.971839 0.0032971
-5.13374 95.4395 -3.23791 0.210165 0.977584 0.0126939
-5.89263 95.6082 -1.91573 0.193875 0.981005 -0.00650474
-6.64345 95.7356 -0.555553 0.180981 0.983487 -0.000466318
-7.27478 95.8542 0.645387 0.153815 0.987969 -0.0160604
-7.96503 95.9609 2.05499 0.148813 0.988862 -0.00271042
-8.71696 96.0608 3.66246 0.129309 0.991591 0.00512679
-9.32195 96.1247 5.02029 0.10055 0.994908 0.00687278
-9.85148 96.1567 6.24844 0.0741097 0.99725 -0.000219424
-10.4513 96.182 7.66901 0.0647006 0.997841 0.0112798
-10.93 96.1875 8.90404 0.0389324 0.999112 0.0160838
-11.4299 96.2164 10.3447 0.0169146 0.999847 -0.00449493
-11.488 96.2186 10.531 0.0173788 0.999758 -0.0134998
-10.5205 96.1708 10.3757 0.059201 0.998244 0.00215024
-10.0437 96.1401 9.1222 0.0844633 0.996409 0.00589442
-9.37993 96.1133 7.53744 0.0998268 0.994696 0.0247994
-8.86043 96.0675 6.36008 0.114448 0.993424 -0.00310724
-8.19427 95.9829 4.88142 0.124746 0.992141 0.0097542
-7.53388 95.8895 3.46861 0.157927 0.98744 0.00461395
-6.9195 95.8048 2.21366 0.163518 0.986539 0.00138648
-6.32696 95.694 1.04156 0.186433 0.982444 -0.00678092
-5.53652 95.5216 -0.440022 0.214463 0.976731 0.00130268
-4.80936 95.3726 -1.73592 0.213631 0.976889 -0.00709611
-3.96544 95.1676 -3.1629 0.245324 0.969419 0.00650975
-3.17338 94.9747 -4.41348 0.268804 0.963193 -0.00176267
-2.46769 94.7677 -5.53634 0.301713 0.953314 -0.0127092
-1.63463 94.4968 -6.80142 0.298552 0.954393 0.000144041
-1.46789 94.4435 -7.04477 0.319 0.947754 0.00127466
-0.150482 93.9786 -7.14812 0.343043 0.939318 -0.00190849
-1.02073 94.2904 -5.85273 0.323382 0.946252 -0.00555966
-1.72762 94.5462 -4.77006 0.298419 0.954359 -0.0120106
-2.4921 94.7787 -3.58801 0.276252 0.961059 0.00714197
-3.23375 94.9723 -2.37363 0.253354 0.967363 0.00456096
-3.93011 95.1505 -1.18718 0.25461 0.967042 0.00182453
-4.6477 95.3266 0.070977 0.22854 0.973465 0.0116551
-5.41729 95.5122 1.49017 0.222284 0.974951 -0.00775765
-6.04466 95.6325 2.69106 0.187139 0.982174 0.0176835
-6.64813 95.739 3.89281 0.182053 0.983277 0.0048151
-7.26377 95.8295 5.17943 0.160769 0.986983 0.00430729
-7.81084 95.9248 6.36759 0.166312 0.986014 -0.0108028
-8.34593 96.0016 7.53539 0.130659 0.991337 0.0133576
-8.92745 96.0513 8.79873 0.0923615 0.995634 0.0134771
-9.38728 96.0909 9.87409 0.0839475 0.996437 -0.00813495
-8.37797 95.9922 9.87586 0.101888 0.994794 0.00174497
-7.74152 95.9151 8.47642 0.145234 0.989235 -0.0179393
-7.18336 95.8237 7.2739 0.167909 0.985794 -0.00410117
-6.55111 95.7095 5.91604 0.174953 0.984576 -0.000877763
-5.91695 95.5984 4.62105 0.175515 0.984453 0.00686526
-5.10695 95.4314 3.03844 0.206613 0.978418 -0.00301965
-4.32339 95.2579 1.57357 0.235832 0.971792 -0.00165114
-3.64311 95.0807 0.3618 0.240639 0.970448 -0.0179841
-2.99417 94.9007 -0.764078 0.259816 0.965658 0.00063537
-2.09968 94.6486 -2.2788 0.292786 0.956178 -0.000689847
-1.3502 94.4212 -3.48453 0.316955 0.948427 0.00505275
-0.497765 94.1199 -4.79497 0.335285 0.942096 -0.00627273
0.257073 93.8422 -5.91613 0.337597 0.941253 -0.00840856
1.10189 93.5197 -7.15395 0.366143 0.930558 0.000447566
1.41014 93.3972 -7.60392 0.371244 0.928531 -0.00300827
2.47372 92.9636 -7.40411 0.38181 0.924237 -0.00268596
1.75007 93.2641 -6.34393 0.371169 0.928565 -0.000622674
1.02268 93.557 -5.26393 0.363313 0.931538 -0.0155429
0.232017 93.8616 -4.06687 0.339551 0.940565 -0.00655047
-0.646728 94.183 -2.69725 0.319327 0.94764 -0.00308828
-1.46048 94.4538 -1.36092 0.292487 0.956269 -0.00105526
-2.33016 94.7228 0.102996 0.291752 0.956478 -0.00546141
-2.98186 94.9129 1.23339 0.263379 0.964655 -0.00849191
-3.69665 95.1063 2.50305 0.236967 0.971516 0.00167099
-4.44426 95.2942 3.91438 0.22326 0.974751 -0.00391829
-5.16781 95.4594 5.28271 0.188591 0.982054 -0.00167416
-5.75168 95.5682 6.43326 0.174742 0.984613 -0.00142617
-6.35437 95.6783 7.70484 0.177826 0.984061 0.00166225
-7.09671 95.8157 9.25964 0.159557 0.987163 0.00713037
-7.40748 95.8561 9.96901 0.143375 0.989659 -0.0043884
-6.45296 95.7054 10.0318 0.164597 0.986343 0.00590689
-5.78156 95.5676 8.64935 0.183295 0.983057 -0.00155042
-5.14681 95.4474 7.34741 0.20262 0.979239 -0.00595266
-4.45642 95.2976 6.00569 0.216075 0.976346 -0.00774742
-3.732 95.1166 4.65104 0.249964 0.968193 -0.010942
-3.10781 94.9598 3.47474 0.258455 0.966023 -0.000676179
-2.25813 94.7167 1.97757 0.278494 0.960434 -0.00284266
-1.48452 94.4711 0.640722 0.291083 0.956651 -0.00947099
-0.774972 94.2352 -0.538733 0.312912 0.949714 -0.0114077
-0.103719 93.9997 -1.6491 0.328148 0.944626 -0.000922659
0.692474 93.7032 -2.92659 0.349351 0.936989 -0.00232756
1.40509 93.4239 -4.03264 0.360721 0.932671 -0.0023976
2.11662 93.1242 -5.10682 0.380211 0.924886 -0.00511861
3.07611 92.7105 -6.53054 0.395257 0.918564 -0.0034593
3.45152 92.5441 -7.07751 0.39822 0.917272 -0.00574365
4.22946 92.1972 -6.45996 0.411087 0.911596 0.000758681
3.48 92.5399 -5.34656 0.402772 0.915293 -0.00368452
2.76 92.8619 -4.26517 0.391469 0.919967 -0.0203042
1.99479 93.1949 -3.09731 0.38005 0.924915 -0.00972029
1.31929 93.4687 -2.01904 0.354725 0.934964 -0.00339536
0.510595 93.7872 -0.718999 0.339724 0.9405 -0.00685206
-0.262456 94.0745 0.541441 0.32333 0.946285 -0.00172549
-1.07144 94.3536 1.91416 0.318971 0.94764 -0.0153831
-1.82607 94.5941 3.21231 0.287645 0.957713 -0.00680649
-2.61684 94.8292 4.61667 0.258459 0.966022 -0.000667081
-3.22962 94.991 5.76112 0.260192 0.965552 0.00304796
-3.94114 95.1873 7.08734 0.233191 0.972412 -0.00605894
-4.71337 95.3567 8.58097 0.20439 0.97884 0.00982002
-5.37253 95.4915 9.94473 0.210239 0.977646 0.00295696
-4.26698 95.2414 9.771 0.234476 0.971958 0.0178407
-3.63595 95.1116 8.51197 0.235677 0.971682 0.0170283
-2.98687 94.9489 7.31894 0.266038 0.963963 -7.11149e-06
-2.3594 94.7502 6.17491 0.289119 0.957261 -0.00786197
-1.49671 94.5002 4.6169 0.282533 0.959256 0.00174233
-0.834156 94.2873 3.45615 0.298858 0.954155 0.0164686
-0.0598987 94.0131 2.13438 0.339069 0.940617 -0.0164725
0.810921 93.6898 0.691236 0.346047 0.938214 -0.00234705
1.50028 93.4149 -0.427808 0.354967 0.934832 -0.0093484
2.23039 93.1117 -1.6034 0.379277 0.925262 -0.00625102
2.98231 92.7862 -2.78621 0.398625 0.917074 -0.00861103
3.74673 92.4366 -3.95775 0.401391 0.915804 -0.0137481
4.55353 92.0675 -5.16159 0.417909 0.908454 -0.00801044
5.09277 91.8114 -5.96816 0.421701 0.906718 -0.00555778
5.54094 91.6126 -4.88158 0.427362 0.904048 -0.00770189
4.65146 92.0351 -3.54088 0.414067 0.910193 -0.00987898
3.87858 92.3996 -2.35479 0.406009 0.913818 -0.00970348
3.1211 92.7439 -1.16381 0.393747 0.919164 -0.0100726
2.26475 93.1144 0.208756 0.373365 0.927578 -0.0140552
1.54294 93.4136 1.35904 0.359519 0.933109 -0.0073822
0.869547 93.6743 2.46794 0.352979 0.935609 -0.00649454
0.196391 93.9273 3.6169 0.345011 0.938596 0.00220577
-0.572611 94.2023 4.95855 0.326135 0.945321 0.00175632
