-38.8627 88.5754 2.08564 -0.465723 0.884888 0.00869302
-38.7412 88.6261 3.23727 -0.46391 0.885812 0.011135
-38.6389 88.6634 4.64642 -0.466164 0.884636 0.010523
-38.5608 88.6887 6.11373 -0.467013 0.884205 0.0089448
-38.5049 88.7054 7.26919 -0.469806 0.882707 0.0104955
-38.3741 88.7611 8.33489 -0.466611 0.884353 0.0134434
-38.2321 88.8186 9.49491 -0.463758 0.885873 0.0125926
-38.0754 88.8892 10.6226 -0.467754 0.883803 0.00988665
-37.5802 89.1299 11.9715 -0.463289 0.886161 0.00906273
-37.1 89.3711 12.9297 -0.462975 0.88633 0.0085437
-36.5678 89.6395 13.812 -0.457018 0.889427 0.00740534
-35.8273 90.012 14.7022 -0.455579 0.890177 0.00562997
-34.5203 90.6656 15.4715 -0.446902 0.894561 0.00629758
-33.5283 91.1478 15.8331 -0.431171 0.902248 -0.00390913
-32.5332 91.6244 16.0029 -0.429762 0.902909 -0.00754726
-31.084 92.2941 15.8823 -0.412747 0.910814 -0.000868505
-29.7919 92.8684 15.5874 -0.401736 0.9157 -0.00759531
-28.69 93.3324 15.0591 -0.38823 0.921556 -0.00342913
-27.6276 93.7631 14.7194 -0.37922 0.925204 -0.0137572
-26.7535 94.0829 14.2099 -0.353203 0.935222 -0.0212319
-25.8346 94.409 13.6668 -0.336175 0.941751 -0.00961381
-24.5579 94.8428 13.1773 -0.313763 0.949461 -0.00878522
-23.2767 95.2485 12.8019 -0.292789 0.956082 -0.0123515
-22.2726 95.5311 12.2572 -0.269972 0.962695 -0.0164481
-21.1335 95.8175 11.9967 -0.244306 0.96959 -0.0144652
-19.8258 96.1035 11.8746 -0.210755 0.977354 -0.0179973
-18.6177 96.3219 11.6853 -0.169672 0.985471 -0.00730419
-17.5111 96.4879 11.4728 -0.143342 0.989618 -0.0102383
-16.3424 96.6341 11.2708 -0.112666 0.993569 -0.0112765
-15.1762 96.7476 11.1321 -0.0787835 0.99688 -0.00482571
-13.7365 96.8283 10.8266 -0.0360719 0.999271 -0.0125043
-12.3706 96.8483 10.7141 0.0103799 0.999659 -0.0239791
-11.3087 96.8298 10.5084 0.0402438 0.999039 -0.0124113
-9.84178 96.7507 10.3494 0.0547573 0.998424 -0.0119305
-8.70301 96.6542 10.2521 0.107356 0.99422 -0.00123365
-7.4103 96.4923 10.0052 0.153055 0.988196 0.00407078
-6.23598 96.2922 9.77695 0.178074 0.984017 0.000527819
-5.12331 96.0722 9.44851 0.210828 0.977516 -0.0037416
-3.94872 95.7931 9.2794 0.226265 0.973859 0.00613052
-2.74616 95.4884 9.16873 0.274819 0.961345 0.0170215
-1.32533 95.0631 9.00567 0.29445 0.955666 -0.00139742
-0.00297086 94.6192 8.72534 0.329591 0.944064 -0.0103224
1.15893 94.1947 8.32838 0.352571 0.935729 -0.00989586
2.18487 93.7956 7.89527 0.369401 0.92922 -0.00964187
3.03776 93.4485 7.34788 0.380166 0.924916 -0.00215541
3.88064 93.0947 6.50542 0.399102 0.916903 -0.00264224
4.51882 92.8121 5.58879 0.40124 0.915954 -0.00581005
5.15325 92.5282 4.41895 0.409418 0.912326 -0.00324593
5.68359 92.276 3.08413 0.420073 0.907477 -0.00496301
5.90401 92.1668 1.96913 0.424131 0.905592 -0.00397775
5.98293 92.1187 0.882072 0.421112 0.906906 -0.0136182
6.08022 92.0571 -0.443904 0.422743 0.906208 -0.00864488
5.88654 92.1344 -1.67752 0.421109 0.906951 -0.0103053
5.58076 92.2634 -2.75166 0.419173 0.90786 -0.00865097
5.19907 92.4318 -3.85337 0.411083 0.911569 -0.00719284
4.62306 92.6875 -4.84917 0.40508 0.914232 -0.00506582
3.75634 93.0635 -5.62139 0.400852 0.916143 0.000497687
2.71877 93.5039 -6.25359 0.389702 0.920936 0.00216467
1.56864 93.9665 -6.53618 0.364898 0.931047 0.000731641
0.252792 94.467 -6.56324 0.343436 0.939176 0.000775452
-0.969904 94.8999 -6.41352 0.32597 0.945375 0.00310074
-2.12329 95.2835 -6.43751 0.302922 0.953008 0.00376534
-3.0392 95.5556 -6.40061 0.251628 0.967824 0.000636507
-4.19537 95.8494 -6.08469 0.242425 0.970152 0.00598081
-5.26579 96.086 -6.06799 0.202444 0.979256 0.00863771
-6.35759 96.2978 -5.99521 0.181748 0.983335 0.00442381
-7.85438 96.5451 -6.0534 0.135449 0.990667 0.008589
-8.92209 96.6744 -6.02176 0.115605 0.993262 0.00787352
-10.4239 96.8172 -6.04228 0.0623975 0.997842 0.0052418
-11.7031 96.8715 -5.96375 0.0367787 0.999237 0.0113506
-13.0404 96.8847 -5.83618 -0.0170495 0.999782 0.0120588
-14.1275 96.8699 -5.90573 -0.029816 0.99936 -0.00858257
-15.3713 96.7868 -5.9521 -0.0819106 0.996591 0.00838194
-16.4454 96.6837 -5.89281 -0.122895 0.992377 -0.00922539
-16.8857 96.6295 -5.86094 -0.122898 0.992376 -0.00923449
-16.8217 96.6438 -6.93696 -0.115714 0.993206 0.0123013
-18.0256 96.4771 -7.02692 -0.155233 0.987858 0.00630576
-19.0966 96.3091 -7.04842 -0.163288 0.986433 0.0169524
-20.2543 96.0905 -7.13421 -0.205141 0.97873 0.00234394
-21.4101 95.8384 -7.33444 -0.223635 0.974024 0.0355579
-22.6173 95.5417 -7.4576 -0.256226 0.966343 0.0181469
-23.6883 95.2451 -7.7957 -0.273559 0.961729 0.0155644
-24.7175 94.9359 -8.17395 -0.306943 0.951312 0.0281314
-25.7252 94.6077 -8.48572 -0.316548 0.948429 0.0167095
-26.9529 94.181 -8.97556 -0.342905 0.939236 0.0158352
-28.0124 93.7918 -9.30697 -0.361212 0.931928 0.0321786
-29.3965 93.2506 -9.91124 -0.380698 0.924339 0.0258232
-30.6834 92.7071 -10.0992 -0.403161 0.914907 0.0201664
-31.766 92.2249 -10.2078 -0.411186 0.91132 0.0205642
-33.0181 91.6508 -10.1733 -0.425065 0.904959 0.0188071
-34.347 91.0159 -9.94356 -0.427363 0.903902 0.0176057
-35.272 90.5566 -9.64681 -0.445871 0.894973 0.0149218
-36.3835 89.9865 -8.85818 -0.451674 0.892079 0.0136346
-37.1738 89.5735 -8.06921 -0.459344 0.888204 0.00978618
-37.8532 89.211 -7.20368 -0.461997 0.88682 0.010411
-38.5417 88.8378 -6.28705 -0.466729 0.884317 0.012156
-39.0543 88.5462 -4.90329 -0.468308 0.883485 0.011924
-39.464 88.3093 -3.48753 -0.470685 0.882248 0.00969767
-39.6659 88.1902 -2.37505 -0.472965 0.881027 0.00952859
-39.835 88.0839 -1.06115 -0.474512 0.880216 0.00743529
-39.898 88.0414 0.142607 -0.47204 0.881545 0.00705465
-39.8793 88.0416 1.26883 -0.474081 0.880446 0.00788677
-39.7151 88.1146 2.7329 -0.469857 0.882674 0.0110031
-39.6146 88.154 3.92357 -0.470078 0.882573 0.00960932
-39.4896 88.2051 5.32967 -0.469081 0.883095 0.0103336
-39.4678 88.1988 6.7959 -0.470888 0.882118 0.0114304
-39.3453 88.2451 8.24356 -0.471387 0.88185 0.0116553
-39.167 88.3237 9.58283 -0.468782 0.883237 0.0114315
-38.9992 88.3973 10.882 -0.467758 0.883798 0.0101715
-38.6595 88.5646 11.9396 -0.469466 0.882902 0.00928449
-37.971 88.9121 13.4239 -0.462978 0.886346 0.00627188
-37.3806 89.2163 14.3735 -0.461658 0.887049 0.00378924
-36.7118 89.558 15.301 -0.457323 0.889298 0.00192693
-35.9269 89.957 15.9521 -0.453657 0.891175 0.000987548
-34.9177 90.4662 16.472 -0.446547 0.894758 -0.000996336
-33.9591 90.9436 16.8164 -0.439021 0.898477 -0.000686646
-32.942 91.4376 17.0807 -0.429095 0.903242 -0.0055033
-31.7477 91.9968 17.024 -0.418225 0.908303 -0.00861333
-30.7522 92.4541 16.9262 -0.412104 0.911047 -0.0107397
-29.7797 92.8828 16.68 -0.410074 0.911856 -0.0177927
-28.7952 93.3035 16.323 -0.392731 0.919534 -0.014839
-27.8138 93.7084 15.8979 -0.379295 0.925062 -0.0198571
-26.7031 94.1314 15.3804 -0.359244 0.933121 -0.0140991
-25.8217 94.4398 14.8473 -0.339921 0.940114 -0.0252953
-24.7172 94.813 14.3572 -0.318378 0.9476 -0.0262267
-23.5865 95.1736 13.9968 -0.300873 0.953394 -0.0227077
-22.5604 95.4742 13.5343 -0.273941 0.961519 -0.0198612
-21.1551 95.8424 13.0386 -0.230132 0.972587 -0.0278811
-19.8034 96.1351 12.9718 -0.196196 0.980203 -0.0207
-18.5725 96.3494 12.7022 -0.164668 0.986069 -0.0231765
-17.3264 96.5367 12.508 -0.144823 0.98888 -0.0337909
-16.0797 96.6913 12.3288 -0.110504 0.993455 -0.0258762
-14.9513 96.7882 12.188 -0.0656434 0.99741 -0.0284286
-13.8698 96.8416 11.9785 -0.0270747 0.999375 -0.0227069
-12.7026 96.8744 11.8251 -0.0136809 0.999553 -0.0150628
-11.6151 96.8512 11.6901 0.0266057 0.999606 -0.00892959
-10.4348 96.7962 11.5032 0.05719 0.998313 -0.00997558
-9.34469 96.7203 11.3372 0.0898685 0.995857 -0.0138381
-8.23385 96.6028 11.2022 0.114764 0.993305 -0.0131813
-7.04707 96.4355 10.9646 0.143396 0.989653 -0.00490308
-5.73581 96.2101 10.7237 0.192494 0.981072 -0.00801123
-4.66363 95.9767 10.3902 0.211101 0.977455 -0.00428143
-3.59017 95.7216 10.3104 0.230854 0.972855 -0.0161319
-2.46542 95.4126 10.2101 0.265663 0.963984 -0.0116036
-1.42125 95.0995 10.0666 0.287333 0.957719 -0.0146612
-0.177618 94.6909 9.8533 0.322703 0.946427 -0.00751866
0.849064 94.3272 9.56485 0.343529 0.939042 -0.00766183
1.92149 93.9167 9.18881 0.354532 0.934984 -0.0105622
3.01567 93.4734 8.65542 0.372102 0.928073 -0.0144974
4.00952 93.0524 7.93761 0.389563 0.920955 -0.00909154
5.02735 92.5977 6.73555 0.405174 0.914139 -0.0130394
5.77378 92.25 5.41841 0.412979 0.910691 -0.00954919
6.21535 92.0399 4.41558 0.425266 0.905011 -0.010151
6.66664 91.8174 3.29968 0.424254 0.905517 -0.00694798
6.87169 91.7104 2.11845 0.43265 0.901535 -0.00704302
6.91467 91.6799 0.936832 0.4306 0.902508 -0.00800606
7.03994 91.6089 -0.152925 0.426105 0.904621 -0.00974373
6.9739 91.6282 -1.29121 0.431705 0.901937 -0.0100196
6.6726 91.7592 -2.461 0.426192 0.904592 -0.00733154
6.37779 91.8888 -3.50607 0.429297 0.903132 -0.00718457
5.88788 92.1091 -4.77965 0.424587 0.905379 -0.00378037
5.13723 92.4518 -5.84188 0.418617 0.908162 0.00148957
3.99106 92.9626 -6.82346 0.402007 0.915608 0.0031926
3.00366 93.3884 -7.3425 0.382958 0.92373 0.000920868
2.03499 93.7856 -7.6311 0.37081 0.928703 0.00326242
0.570974 94.3508 -7.68988 0.352335 0.93571 0.0175275
-0.772766 94.8447 -7.65785 0.333618 0.94261 0.0127979
-1.78785 95.1883 -7.47264 0.308476 0.951083 0.0154946
-2.76158 95.5079 -7.7079 0.282554 0.958262 0.0281102
-3.75192 95.7543 -7.33764 0.236735 0.971421 0.0172607
-5.30846 96.1051 -7.23671 0.200913 0.979556 0.00996346
-6.35301 96.3054 -7.14648 0.178721 0.983865 0.00828304
-7.53561 96.5014 -7.11112 0.141599 0.989696 0.0212676
-8.61918 96.6499 -7.08292 0.114294 0.993366 0.0125557
-9.99672 96.7892 -7.13959 0.0780052 0.996862 0.0135013
-11.0728 96.8598 -7.14438 0.0483659 0.998629 0.0200346
-12.2841 96.8958 -6.95886 0.0120566 0.999817 0.014866
-13.3834 96.8956 -6.95206 -0.0114774 0.999729 0.0202643
-14.5722 96.8601 -7.06129 -0.0469842 0.998723 0.0181597
-15.7263 96.7657 -7.00881 -0.0987604 0.995024 0.00771023
-16.6294 96.6662 -6.93543 -0.115714 0.993206 0.0123012
-16.7528 96.6766 -7.98026 -0.101278 0.99327 0.0561845
-17.8622 96.5363 -8.07118 -0.152828 0.986784 0.0538294
-19.1613 96.3344 -8.07973 -0.152687 0.987134 0.0474353
-20.7889 96.0147 -8.31622 -0.21553 0.974881 0.056169
-21.9674 95.7426 -8.39724 -0.247667 0.967328 0.0542027
-23.1378 95.4353 -8.69884 -0.277653 0.959769 0.0418611
-24.265 95.1122 -9.14624 -0.310438 0.950118 0.0300496
-25.4332 94.7345 -9.44618 -0.320496 0.94604 0.0478542
-26.507 94.3769 -9.97201 -0.34225 0.938963 0.0348148
-27.4753 94.031 -10.3115 -0.353875 0.934811 0.0300005
-28.6025 93.6002 -10.7712 -0.375983 0.926062 0.032342
-29.6012 93.2013 -11.1024 -0.383982 0.922757 0.0327246
-30.6403 92.7577 -11.1775 -0.404672 0.914031 0.027915
-31.6819 92.292 -11.3079 -0.41399 0.909883 0.0269118
-32.7284 91.8085 -11.2266 -0.421155 0.906593 0.0267977
-33.9311 91.2392 -11.1989 -0.43172 0.901775 0.020277
-34.8651 90.7846 -10.9614 -0.443377 0.896082 0.0212997
-35.7833 90.3188 -10.6903 -0.448844 0.893429 0.017963
-36.6144 89.8861 -10.0655 -0.456892 0.889385 0.0156056
-37.4968 89.4248 -9.42359 -0.458284 0.888717 0.0123134
-38.2549 89.0161 -8.41864 -0.462711 0.88643 0.0117057
-38.9433 88.6441 -7.52455 -0.468163 0.883546 0.0130747
-39.4773 88.3437 -6.45888 -0.470408 0.882357 0.0127708
-39.931 88.0847 -5.29361 -0.473651 0.88061 0.013384
-40.3278 87.8553 -4.1892 -0.474429 0.880198 0.0130064
-40.4907 87.7533 -3.11438 -0.475938 0.879414 0.0106706
-40.6834 87.6316 -1.7963 -0.478256 0.87817 0.00945375
-40.8348 87.5379 -0.677078 -0.48002 0.877249 0.00251815
-40.8055 87.5489 0.522999 -0.474693 0.880145 0.00340559
-40.7566 87.564 1.88657 -0.473478 0.880761 0.00874261
-40.5774 87.6483 3.12982 -0.472987 0.88101 0.0102052
-40.5239 87.6666 4.20167 -0.471675 0.881731 0.00852287
-40.431 87.7035 5.33478 -0.470656 0.882233 0.0121437
-40.3693 87.7202 6.48289 -0.474844 0.879961 0.0136281
-40.346 87.7144 7.79209 -0.476497 0.879118 0.00968744
-40.2379 87.759 8.89048 -0.471999 0.881531 0.0109846
-40.1881 87.771 10.2574 -0.470831 0.882163 0.010293
-39.8157 87.9535 11.5952 -0.471343 0.881877 0.0113168
-39.485 88.1185 12.6281 -0.470869 0.882151 0.00961736
-38.957 88.3921 13.7314 -0.466493 0.884516 0.0038758
-38.3309 88.7186 14.789 -0.464115 0.885768 0.00337538
-37.6236 89.0823 15.7925 -0.461595 0.887073 0.00544947
-36.7418 89.5375 16.6328 -0.463393 0.886146 0.000891688
-35.8053 90.0225 17.2268 -0.452547 0.891723 -0.00552178
-34.8987 90.4811 17.6617 -0.445952 0.895036 -0.0061177
-33.8425 91.0064 17.9003 -0.437479 0.899171 -0.0101626
-32.698 91.5641 18.134 -0.432227 0.901689 -0.0110394
-31.7116 92.0309 18.094 -0.417629 0.908427 -0.018611
-30.2656 92.6909 17.8751 -0.415614 0.909319 -0.0199441
-29.3107 93.1132 17.6478 -0.397422 0.917085 -0.0317863
-28.1952 93.581 17.2933 -0.389056 0.920903 -0.0239319
-27.3181 93.9369 16.8422 -0.366295 0.929956 -0.0317858
-25.9271 94.4499 16.1411 -0.355193 0.934359 -0.028489
-25.0045 94.7557 15.6151 -0.318732 0.946944 -0.0409073
-23.8791 95.1194 15.1725 -0.312459 0.949084 -0.0397478
-22.5203 95.5087 14.7112 -0.27245 0.96165 -0.0292586
-21.4306 95.8066 14.2498 -0.26794 0.963081 -0.026141
-20.3609 96.0478 14.1386 -0.212458 0.976673 -0.0310402
-19.0508 96.3028 13.8353 -0.181972 0.982227 -0.0459943
-17.8844 96.492 13.6373 -0.163221 0.9856 -0.0441726
-16.7097 96.6515 13.4811 -0.131258 0.990399 -0.0433839
-15.4977 96.7815 13.296 -0.103384 0.993516 -0.0473049
-14.3311 96.8585 13.1168 -0.0642333 0.997107 -0.0406448
-13.0017 96.9019 12.9135 -0.028819 0.998453 -0.0475465
-11.6489 96.8809 12.7212 0.0204737 0.999039 -0.0387665
-10.3411 96.8223 12.6628 0.062088 0.99733 -0.0382755
-9.17076 96.726 12.3591 0.0983922 0.994518 -0.0351239
-7.80825 96.5634 12.1903 0.136655 0.990231 -0.0277002
-6.71069 96.4029 11.9282 0.151783 0.987842 -0.0321037
-5.24413 96.125 11.6858 0.200374 0.979426 -0.0239534
-4.11181 95.8764 11.466 0.236788 0.971095 -0.0300885
-2.82609 95.5315 11.3773 0.264704 0.964111 -0.0205466
-1.77367 95.2267 11.1615 0.280341 0.959449 -0.0294357
-0.657943 94.8647 11.0138 0.307834 0.951279 -0.0174999
0.559431 94.4481 10.7395 0.337895 0.940765 -0.0280721
1.76169 93.9945 10.3412 0.348127 0.937182 -0.0223197
2.83767 93.5718 9.99149 0.369635 0.928834 -0.0252305
3.71533 93.2066 9.48524 0.384986 0.922725 -0.018591
4.56068 92.8347 8.95162 0.396914 0.917697 -0.0170749
5.4262 92.4407 7.96508 0.397476 0.917417 -0.0189491
6.10715 92.1142 6.91025 0.416512 0.909057 -0.011562
6.61752 91.8716 5.99272 0.415349 0.90962 -0.00869504
7.19156 91.5833 4.62411 0.425572 0.904871 -0.0098551
7.56941 91.3919 3.63224 0.432452 0.901542 -0.0135569
7.81941 91.2573 2.40698 0.434891 0.900456 -0.0068577
7.87957 91.2167 1.07688 0.433978 0.900891 -0.00765602
8.01696 91.1322 -0.228599 0.438777 0.898475 -0.014397
7.93406 91.1609 -1.33322 0.442677 0.89665 -0.00687725
7.66397 91.282 -2.55898 0.437235 0.899309 -0.00786981
7.38216 91.4086 -3.73741 0.435271 0.900262 -0.00822566
6.98451 91.5918 -4.74149 0.43696 0.899459 -0.00541873
6.45615 91.84 -5.70491 0.425432 0.904989 0.00153298
5.63106 92.2272 -6.95692 0.416754 0.909015 0.00284682
4.85816 92.5806 -7.63521 0.409418 0.912317 0.00684154
3.77344 93.0636 -8.29212 0.399076 0.91686 0.00995553
2.82392 93.4704 -8.63117 0.378271 0.92567 0.00679658
1.60992 93.9746 -8.90205 0.378696 0.925362 0.0171099
0.402196 94.4415 -8.74271 0.358752 0.932596 0.0385287
-0.816077 94.8872 -8.68336 0.33936 0.939658 0.0433236
-1.86073 95.2336 -8.63021 0.31445 0.948935 0.025366
-2.8631 95.5644 -8.61334 0.282557 0.95826 0.0281167
-3.89504 95.8147 -8.44163 0.233612 0.971957 0.026937
-4.96777 96.0635 -8.30627 0.20916 0.976477 0.0523928
-6.17953 96.2995 -8.22465 0.174879 0.983546 0.0453311
-7.34506 96.4993 -8.22469 0.136987 0.989711 0.0385802
-8.43858 96.6604 -8.25128 0.140687 0.989684 0.0266892
-9.69266 96.7896 -8.24705 0.0730072 0.996763 0.0336802
-10.8143 96.8726 -8.23899 0.055096 0.996801 0.0514209
-12.0573 96.9288 -8.1874 0.0483686 0.998621 0.0204333
-13.1346 96.9384 -8.11814 -0.0236731 0.99902 0.0373952
-14.3259 96.8939 -8.11437 -0.0435442 0.998651 0.0279535
-15.7354 96.7847 -8.05686 -0.0967616 0.994025 0.0499139
-16.1483 96.7409 -8.0269 -0.101278 0.99327 0.0561845
4.47386 92.7567 -4.13316 0.411502 0.911397 -0.00467409
4.4069 92.7867 -4.2386 0.405093 0.914262 -0.00506592
2.44728 93.6189 -5.61822 0.378758 0.925494 -0.00197006
3.20469 93.3072 -4.3842 0.389241 0.920987 -0.0165743
3.94392 93.0002 -3.20443 0.403866 0.91478 -0.0083873
4.67769 92.6834 -2.03666 0.407947 0.912945 -0.010551
5.37224 92.3819 -0.947442 0.421366 0.906825 -0.0109079
5.49228 92.3284 -0.760135 0.422058 0.906516 -0.00977997
5.49302 92.349 1.00732 0.423005 0.906002 -0.0150778
4.61855 92.7305 -0.33734 0.407262 0.913267 -0.00898406
3.85413 93.0519 -1.54425 0.39436 0.918858 -0.0134548
3.2061 93.3224 -2.59007 0.396573 0.917986 -0.00568636
2.47192 93.6198 -3.78624 0.37864 0.925516 -0.00718896
1.63264 93.9463 -5.14451 0.37399 0.927379 -0.0100231
1.0988 94.1507 -6.00724 0.367248 0.930121 -0.00207035
0.037438 94.5452 -5.94856 0.341828 0.93976 -0.00214778
0.689756 94.313 -4.88081 0.345105 0.938564 0.000235105
1.48361 94.0157 -3.58705 0.358099 0.933641 -0.00889404
2.16947 93.7536 -2.43848 0.378359 0.925636 -0.00658026
2.87133 93.4745 -1.29904 0.38213 0.924093 -0.00541256
3.57653 93.1849 -0.174353 0.38661 0.922189 -0.010063
4.2956 92.8848 0.95212 0.396962 0.917785 -0.00958629
4.97169 92.591 1.97859 0.405395 0.914141 -0.00114386
5.20991 92.4853 2.33478 0.409401 0.912338 -0.00548539
4.86238 92.6515 3.59673 0.408059 0.912916 -0.00849758
4.14864 92.9597 2.50218 0.40215 0.915566 -0.00385485
3.45922 93.2518 1.45248 0.396963 0.917784 -0.00958413
2.65356 93.576 0.183341 0.386845 0.922085 -0.0104596
1.88353 93.8781 -1.04709 0.377066 0.926167 -0.00603201
1.24608 94.1123 -2.09933 0.353605 0.935395 -4.6199e-05
0.462971 94.4013 -3.43276 0.339137 0.940702 -0.00812869
-0.32404 94.6785 -4.74108 0.336506 0.941676 -0.00329682
-0.947818 94.891 -5.79529 0.326974 0.944956 -0.0121208
-1.98331 95.2377 -5.72851 0.302051 0.953265 -0.00721127
-1.30243 95.0216 -4.55508 0.32074 0.947165 -0.00196501
-0.669498 94.8011 -3.4613 0.32311 0.946358 -0.00247462
0.0897607 94.5436 -2.1665 0.348396 0.937346 -0.00150785
0.717478 94.316 -1.09464 0.34512 0.938512 -0.00937998
1.40297 94.0749 0.0193299 0.347181 0.937717 -0.0123054
2.17431 93.7829 1.25364 0.367567 0.92997 -0.00707464
3.02648 93.4427 2.58005 0.38618 0.922422 -0.00190344
4.00323 93.0357 4.08853 0.394388 0.918932 -0.00466252
4.00518 93.0348 4.09157 0.403432 0.915005 -0.00274225
3.82654 93.1151 5.68726 0.383584 0.923504 -0.00208608
3.07256 93.4262 4.50391 0.386109 0.92245 -0.00219753
2.41774 93.6981 3.48016 0.371827 0.928298 -0.0028769
1.75669 93.9541 2.44158 0.369732 0.929137 -0.00168402
1.07378 94.2103 1.34843 0.353546 0.935413 -0.00269885
0.348835 94.469 0.177558 0.349005 0.937026 -0.0133214
-0.456592 94.7378 -1.1804 0.323811 0.946117 -0.00302956
-1.07857 94.9458 -2.26098 0.319133 0.947698 -0.00475956
-1.81652 95.1904 -3.54592 0.31043 0.950561 0.00818742
-2.46302 95.3914 -4.65812 0.280333 0.959903 -0.000293099
-3.03058 95.5483 -5.68359 0.265991 0.963962 0.0051418
-3.9517 95.786 -5.43531 0.240776 0.97057 -0.00447326
-3.26123 95.6102 -4.15782 0.264528 0.964378 -0.000193871
-2.63576 95.4356 -3.03964 0.273821 0.96177 -0.00457991
-1.84306 95.1974 -1.64809 0.308789 0.951131 0.000236014
-1.23242 95.0017 -0.572584 0.306945 0.951723 -0.00287231
-0.58938 94.801 0.526674 0.322855 0.946252 -0.019264
0.152444 94.5559 1.74724 0.33608 0.941787 -0.0093216
0.933174 94.2737 3.00834 0.359295 0.933223 -0.00163225
1.71682 93.9812 4.24293 0.353847 0.935301 -0.00207861
2.60731 93.6214 5.66521 0.383584 0.923504 -0.00208608
3.00025 93.4604 6.26603 0.383046 0.923719 -0.00434603
2.19452 93.7845 6.88536 0.366225 0.930516 -0.00427003
1.51986 94.0531 5.84667 0.352565 0.935782 0.00312905
0.839614 94.3094 4.77628 0.351563 0.936162 0.00210066
0.142287 94.5687 3.63897 0.342584 0.939484 0.0025382
-0.630938 94.8344 2.38452 0.307991 0.951389 -0.000331866
-1.3873 95.0675 1.12653 0.302153 0.953162 -0.0136353
-2.2079 95.3134 -0.305612 0.291245 0.956642 -0.00350728
-2.86275 95.5067 -1.478 0.283057 0.959102 -0.00144858
-3.56104 95.6907 -2.72726 0.251625 0.967811 -0.00525374
-4.22194 95.8569 -3.94894 0.249821 0.968291 0.00141975
-4.89463 96.0081 -5.24284 0.208711 0.977955 -0.00663006
-5.92241 96.22 -5.25581 0.17899 0.983832 -0.00604944
-5.28173 96.099 -3.93274 0.211708 0.977305 -0.00740776
-4.6499 95.9666 -2.71754 0.224003 0.974483 -0.0143162
-3.93229 95.7915 -1.40198 0.252188 0.967654 -0.00685622
-3.25915 95.6177 -0.173816 0.256535 0.966535 -0.000660743
-2.39263 95.3817 1.38347 0.294021 0.95574 -0.0105857
-1.61898 95.152 2.69954 0.298987 0.954257 -8.16397e-05
-0.908259 94.9271 3.87994 0.309544 0.950876 -0.00408378
-0.12383 94.6627 5.16291 0.342283 0.939597 4.24009e-05
0.695762 94.3584 6.46181 0.346235 0.93814 0.00374887
1.31645 94.1283 7.41238 0.350405 0.936555 -0.00895104
0.333934 94.4926 7.80041 0.32764 0.944785 -0.00575161
-0.417847 94.76 6.64916 0.328167 0.944612 0.00377998
-1.09769 94.9894 5.55382 0.319019 0.947733 0.00547176
-1.77763 95.2136 4.40734 0.28165 0.959498 0.00603012
-2.47781 95.4167 3.23688 0.265907 0.963994 -0.00289113
-3.20096 95.611 1.98521 0.261228 0.965261 -0.00557228
-4.04405 95.819 0.465016 0.226265 0.974041 0.00696275
-4.63614 95.97 -0.632584 0.235648 0.971794 0.00927852
-5.24909 96.1081 -1.78783 0.188421 0.982088 0.00108461
-5.83627 96.2179 -2.91402 0.187821 0.982182 -0.00641437
-6.56641 96.3332 -4.47783 0.171878 0.985118 0.00114856
-6.92685 96.3996 -5.2437 0.159202 0.987239 0.00383818
-8.00996 96.5603 -5.36287 0.135464 0.990745 0.00857803
-7.47722 96.4871 -4.23182 0.160209 0.986998 -0.0129874
-6.84312 96.3959 -2.84525 0.16542 0.986182 -0.00904679
-6.21046 96.2885 -1.52913 0.174703 0.9846 0.00645411
-5.63902 96.1781 -0.391312 0.208028 0.978103 0.00618602
-4.89665 96.0196 0.98942 0.21876 0.975774 -0.00295445
-4.13577 95.8437 2.38593 0.231948 0.972728 -0.000245301
-3.46016 95.6811 3.58674 0.240162 0.97073 0.0025554
-2.77397 95.5004 4.75752 0.254887 0.96697 0.00103189
-2.11441 95.298 5.90595 0.290761 0.956761 0.00816513
-1.45194 95.1006 6.95418 0.304332 0.952514 -0.00993822
-0.702656 94.8528 8.12444 0.31649 0.948594 -0.0018901
-1.78255 95.2079 8.36288 0.300728 0.953684 0.00705087
-2.53799 95.441 7.20142 0.283409 0.958994 -0.00316729
-3.27698 95.6297 5.99183 0.26966 0.962743 -0.0202246
-3.9381 95.7987 4.86116 0.247502 0.968857 -0.00769651
-4.63705 95.9593 3.62104 0.204444 0.978878 -0.000502565
-5.26528 96.1017 2.44649 0.211638 0.9772 0.0170235
-5.94203 96.2457 1.16738 0.182001 0.983295 -0.00248879
-6.59981 96.3524 -0.103678 0.175715 0.984437 -0.0029712
-7.19233 96.4544 -1.32144 0.141923 0.989872 -0.00331735
-7.73728 96.5361 -2.46076 0.139151 0.990255 0.00564232
-8.33077 96.6133 -3.81588 0.12324 0.99237 0.00372496
-8.91509 96.6744 -5.1147 0.123066 0.992202 -0.0197646
-9.06733 96.6863 -5.46172 0.120001 0.99276 -0.00530792
-10.0124 96.7863 -5.29476 0.0899381 0.995728 -0.0209025
-9.40665 96.7319 -3.9007 0.0947849 0.995454 0.00933522
-8.76512 96.6572 -2.40246 0.0978104 0.995166 0.00887015
-8.20583 96.5971 -1.14202 0.101225 0.994863 -0.000548726
-7.51386 96.5017 0.289203 0.154245 0.988015 -0.00597514
-6.80347 96.4031 1.71553 0.160237 0.987073 0.00344279
-6.22479 96.285 2.84549 0.186363 0.982383 0.0138894
-5.59391 96.16 4.03472 0.194868 0.980829 -0.000818244
-4.88811 96.0244 5.2991 0.205799 0.978551 0.00916366
-4.19474 95.8637 6.48935 0.218594 0.975796 -0.00619908
-3.46229 95.6928 7.69085 0.240357 0.970684 0.00103139
-2.85007 95.5274 8.64302 0.276898 0.960799 0.0139035
-4.25363 95.8814 8.45196 0.216711 0.976081 0.0173771
-4.92749 96.0243 7.34978 0.208897 0.977911 -0.00717192
-5.72416 96.1829 5.99265 0.180079 0.983648 -0.00270845
-6.34521 96.2939 4.87661 0.177691 0.984072 0.00533733
-7.01495 96.4202 3.59307 0.154408 0.987992 0.00549658
-7.75844 96.5408 2.09265 0.145879 0.989301 -0.00166855
-8.41771 96.6222 0.722632 0.12037 0.992671 -0.0106976
-8.98912 96.6843 -0.503988 0.10489 0.994327 -0.0176565
-9.52463 96.7316 -1.72209 0.101735 0.994812 0.000329171
-10.0964 96.785 -3.0862 0.0484302 0.998674 0.0174326
-10.5844 96.8166 -4.25077 0.0331469 0.999447 0.00277102
-10.9972 96.8352 -5.2651 0.0428577 0.999044 0.00860878
-11.8856 96.8649 -5.10347 0.0307025 0.999429 0.0141104
-11.3496 96.8403 -3.68081 0.0324936 0.999468 0.00272079
-10.814 96.812 -2.31483 0.0523039 0.998587 0.00943089
-10.2456 96.7817 -0.91579 0.0707046 0.997496 -0.00161459
-9.65326 96.7487 0.428114 0.0814261 0.996664 -0.00560384
-9.11683 96.702 1.62494 0.107244 0.994183 0.00998426
-8.40929 96.6311 3.15056 0.123232 0.992331 -0.00968265
-7.82944 96.5494 4.32333 0.162717 0.986644 0.0075674
-7.04655 96.4169 5.84626 0.159445 0.987199 -0.00399211
-6.33166 96.2974 7.15003 0.183006 0.983102 -0.00441172
-5.59793 96.1614 8.39392 0.188714 0.98203 0.00189923
-5.43439 96.1294 8.65756 0.190403 0.981694 -0.00491716
-6.62192 96.3592 8.91738 0.180212 0.983615 -0.00497915
-7.25892 96.4659 7.7684 0.171421 0.985198 0.000305645
-8.05644 96.5796 6.23084 0.121426 0.992532 -0.0116912
-8.66002 96.655 5.03941 0.128893 0.991631 0.00734344
-9.32921 96.7377 3.64704 0.0716645 0.99742 0.00428995
-9.88253 96.7637 2.42381 0.0784147 0.996905 -0.00556384
-10.4587 96.8145 1.10557 0.0676129 0.997675 -0.00858466
-10.9774 96.8317 -0.112347 0.0474616 0.998845 -0.00755034
-11.4488 96.8412 -1.29246 0.0386822 0.999251 -0.000574981
-11.9002 96.8457 -2.48543 0.0185654 0.999816 -0.00491257
-12.3393 96.8684 -3.71907 0.00560699 0.999887 0.0139732
-12.7701 96.8868 -4.9084 0.00253051 0.999996 0.00083094
-12.8691 96.8836 -5.22095 -0.00847346 0.999948 -0.00572136
-13.7884 96.8761 -5.16276 -0.00847345 0.999948 -0.00572138
-13.4076 96.8629 -3.8735 -0.0184309 0.999398 0.0293846
-12.9508 96.8535 -2.57797 -0.00610185 0.999981 -0.000984847
-12.4349 96.8565 -1.19768 0.00721582 0.999973 -0.0012668
-12.0015 96.8635 -0.00873714 0.0252237 0.999658 -0.00689973
-11.52 96.87 1.18976 0.0355974 0.999242 -0.0157754
-10.8902 96.8457 2.69402 0.0665107 0.997786 0.0006413
-10.257 96.7989 4.14143 0.0479339 0.998798 0.0102029
-9.58786 96.7416 5.56929 0.0744388 0.997201 0.00696221
-9.0164 96.6975 6.73122 0.0958363 0.995392 -0.00317441
-8.43124 96.6289 7.85697 0.134205 0.990865 -0.0132686
-7.82858 96.5509 9.00206 0.138537 0.990291 -0.0114912
-7.67946 96.5333 9.28459 0.146787 0.989136 -0.00794856
-8.71432 96.6547 9.64627 0.10734 0.994222 -0.00122432
-9.35707 96.7185 8.45463 0.0818061 0.996626 0.00668034
-10.0751 96.7709 7.04449 0.0662914 0.997738 0.0111507
-10.6669 96.819 5.79855 0.0676047 0.997708 0.00296078
-11.3837 96.8523 4.21462 0.0553022 0.998469 -0.00144687
-12.0606 96.8866 2.58451 0.0177769 0.999822 0.00636962
-12.5649 96.8848 1.28762 0.00219417 0.999969 -0.00750338
-12.9872 96.8679 0.119426 -0.0125764 0.999871 -0.0100132
-13.4524 96.8568 -1.16462 -0.0030901 0.999995 0.000946382
-13.9354 96.8486 -2.49359 -0.02962 0.999541 -0.00628259
-14.4697 96.8254 -4.24585 -0.046633 0.998588 0.0254446
-14.7524 96.8256 -5.14857 -0.0579737 0.998132 0.0192844
-15.747 96.7503 -5.32769 -0.0878945 0.996116 0.00532586
-15.3952 96.7656 -4.13559 -0.0969295 0.995216 0.0122025
-14.9463 96.7875 -2.65693 -0.0664586 0.997788 -0.00173023
-14.5388 96.8229 -1.32678 -0.0563059 0.998409 -0.00312426
-14.1212 96.8275 -0.141603 -0.0438704 0.999022 0.00558322
-13.5681 96.8612 1.46477 -0.0359724 0.999251 -0.0142306
-13.1088 96.8845 2.72191 -0.0214764 0.999762 0.00377434
-12.5092 96.8789 4.25813 0.0237312 0.999715 0.00273675
-11.8774 96.8669 5.75676 0.0226115 0.999714 0.00775062
-11.268 96.8371 7.106 0.0392606 0.999116 0.0150601
-10.5634 96.7919 8.5466 0.028615 0.999535 0.0105505
-9.93428 96.7532 9.76796 0.0711273 0.997439 -0.00746444
-11.3473 96.8202 9.58993 0.0364749 0.999262 -0.0120181
-11.8857 96.8313 8.43098 0.0176337 0.999638 0.0203412
-12.5596 96.8661 6.9953 0.0168922 0.999805 0.0101891
-13.0335 96.8761 5.84519 -0.00759216 0.999962 0.00438295
-13.626 96.8791 4.29134 -0.0339363 0.999418 -0.00344604
-14.0452 96.8594 3.12428 -0.0250994 0.999666 -0.0061166
-14.535 96.8256 1.73912 -0.047078 0.998691 -0.0199821
-14.9442 96.7895 0.482426 -0.0452068 0.998957 -0.00649812
-15.3534 96.7648 -0.766138 -0.0785373 0.996911 0.000160707
-15.7196 96.7372 -2.00153 -0.0849927 0.996356 -0.00716153
-16.0699 96.6917 -3.23768 -0.0934057 0.995598 0.00772782
-16.4201 96.6705 -4.51642 -0.0946764 0.995366 0.0168317
-16.5497 96.6677 -4.9439 -0.110023 0.993799 0.0160789
-17.4813 96.5485 -5.00513 -0.128427 0.99168 0.00877722
-17.0201 96.5942 -3.26148 -0.129576 0.991554 0.00555806
-16.6071 96.6385 -1.72347 -0.113318 0.993556 0.0022643
-16.2568 96.6888 -0.461753 -0.118611 0.992938 0.00238595
-15.795 96.7311 1.05273 -0.0991436 0.994945 -0.0159968
-15.3648 96.7818 2.41539 -0.107182 0.994236 0.00246153
-14.9446 96.8008 3.65798 -0.0870346 0.996167 0.00875042
-14.5264 96.8226 4.89423 -0.0816784 0.996493 0.0181983
-14.0274 96.8475 6.28226 -0.059324 0.99823 0.0041196
-13.5415 96.849 7.51983 -0.0580149 0.998077 0.0218508
-12.8386 96.8357 9.1705 0.00897764 0.999911 -0.00986278
-12.5216 96.84 9.89463 0.0106488 0.999906 -0.00858908
-13.7387 96.8192 10.1061 -0.0390216 0.99921 -0.00755901
-14.2727 96.7976 8.82202 -0.0364543 0.999328 0.0037414
-14.7515 96.7781 7.49084 -0.0759877 0.99698 0.0159989
-15.3994 96.7335 5.61695 -0.0958428 0.99538 -0.00572718
-15.8564 96.6968 4.27662 -0.10358 0.994463 0.0177242
-16.3004 96.6721 2.82378 -0.124505 0.992176 0.00925563
-16.7244 96.6197 1.40193 -0.118856 0.992887 0.00700777
-17.1292 96.5836 -0.0545382 -0.11862 0.992937 0.00239122
-17.5048 96.5313 -1.44927 -0.144786 0.989441 -0.00660291
-17.8836 96.4724 -2.88516 -0.154066 0.988048 0.00494706
-18.2876 96.4165 -4.55691 -0.160527 0.986965 0.0114244
-18.4152 96.4046 -5.21484 -0.15954 0.987104 0.0131564
-19.271 96.2469 -4.89612 -0.186806 0.982287 0.0146648
-18.9144 96.2936 -3.32596 -0.167943 0.985765 0.0079455
-18.6112 96.3461 -2.0107 -0.175731 0.984416 -0.00658562
-18.3184 96.4175 -0.79504 -0.155622 0.987691 -0.0157821
-17.9568 96.4706 0.585659 -0.131011 0.991257 0.015706
-17.5268 96.5091 2.20414 -0.141996 0.989822 0.00949336
-17.1727 96.5537 3.48791 -0.139704 0.990059 0.0163221
-16.8189 96.5744 4.70069 -0.129209 0.99156 0.0106927
-16.4312 96.6229 5.95198 -0.126748 0.991934 0.00140498
-16.017 96.6684 7.27188 -0.112346 0.993667 0.00198041
-15.6409 96.7028 8.48076 -0.0749097 0.997187 0.00259093
-15.2069 96.7341 9.68504 -0.0724577 0.997371 0.000169952
-14.9335 96.7621 10.4295 -0.07313 0.997263 -0.0108653
-16.2217 96.6447 10.2718 -0.11978 0.9928 -0.000132378
-16.6162 96.5899 9.03398 -0.125801 0.992052 0.00266682
-17.0297 96.5464 7.74077 -0.135474 0.990778 0.00239445
-17.4968 96.4773 6.17796 -0.151631 0.98842 0.00574248
-17.9147 96.4256 4.69157 -0.16377 0.986475 0.00681028
-18.2389 96.3896 3.45653 -0.16815 0.985616 0.0169305
-18.5709 96.3523 2.15611 -0.17917 0.983669 0.0170989
-18.9215 96.32 0.777281 -0.175445 0.98302 0.0537617
-19.2664 96.2474 -0.711342 -0.182868 0.983002 -0.0163369
-19.579 96.1745 -2.14679 -0.180548 0.983565 0.00135473
-19.8771 96.1227 -3.47259 -0.179205 0.983808 0.00270179
-20.1452 96.0816 -4.68322 -0.215227 0.976554 0.00444339
-20.3118 96.0507 -5.54311 -0.214711 0.976492 0.019027
-21.1925 95.8601 -5.59848 -0.212309 0.97712 0.012721
-20.9672 95.8983 -4.37616 -0.218696 0.975752 0.00893457
-20.6833 95.9532 -2.95301 -0.220653 0.975345 0.00376969
-20.4209 96.014 -1.64205 -0.219144 0.975681 -0.00482837
-20.1481 96.0712 -0.324714 -0.208486 0.978019 0.00355175
-19.8467 96.1253 1.0933 -0.20617 0.978468 0.00968484
-19.5263 96.1673 2.45279 -0.183447 0.982936 0.0135622
-19.1987 96.2188 3.86731 -0.175583 0.984394 0.0117642
-18.8522 96.2662 5.24388 -0.16377 0.986475 0.00681028
-18.5219 96.3134 6.48361 -0.163008 0.9866 -0.0069503
-18.2038 96.384 7.72442 -0.157147 0.987452 -0.0155933
-17.8464 96.4338 8.92398 -0.135646 0.990757 0.000913833
-17.3596 96.4986 10.5488 -0.141497 0.989929 -0.00446872
-18.5485 96.3255 10.7581 -0.170329 0.985322 -0.0113806
-19.0138 96.2442 8.94508 -0.160626 0.986915 0.0140639
-19.3123 96.2035 7.69766 -0.209982 0.977701 -0.00300309
-19.6322 96.1229 6.42591 -0.206183 0.978513 -0.000222934
-19.9902 96.0539 4.93246 -0.209901 0.977714 0.00420749
-20.2795 95.9916 3.65294 -0.207777 0.978135 0.00898923
-20.5484 95.9521 2.41909 -0.218189 0.975798 0.014526
-20.8463 95.908 1.01488 -0.236988 0.971512 -0.00132098
-21.1181 95.846 -0.344529 -0.236641 0.971561 0.00840743
-21.3663 95.7957 -1.58742 -0.242347 0.970165 0.00692153
-21.6837 95.728 -3.3649 -0.255064 0.966908 0.00565612
-21.9726 95.658 -4.95184 -0.252937 0.967249 0.0212653
-22.0819 95.65 -5.54837 -0.24221 0.970143 0.0125
-22.9922 95.403 -5.79925 -0.270803 0.962513 0.0153204
-22.7753 95.4433 -4.35923 -0.252245 0.967623 0.00886768
-22.5551 95.4941 -3.10798 -0.258534 0.965999 0.00258058
-22.3288 95.5424 -1.76126 -0.254565 0.967012 0.00917243
-22.1082 95.5953 -0.523982 -0.253092 0.967421 0.00639037
-21.8703 95.6542 0.781057 -0.255341 0.96678 -0.0117089
-21.6319 95.706 2.00443 -0.240461 0.970506 0.0171993
-21.3208 95.758 3.53816 -0.222878 0.974835 0.00481012
-21.0191 95.8316 4.99285 -0.219692 0.975538 0.00787438
-20.7001 95.8964 6.44909 -0.234157 0.972191 -0.00396975
-20.3466 95.9789 8.02014 -0.206978 0.978345 0.000457872
-20.0421 96.0501 9.41268 -0.205634 0.978549 -0.012525
-19.6294 96.1377 11.028 -0.194565 0.980842 -0.00971121
-19.6165 96.1405 11.0747 -0.17667 0.98421 -0.0108998
-20.7523 95.8989 11.3612 -0.209156 0.977807 -0.012163
-20.999 95.8359 10.1027 -0.234345 0.972139 0.005261
-21.3048 95.7508 8.62627 -0.234648 0.971963 -0.0151289
-21.6203 95.6695 7.15558 -0.241468 0.970387 0.00643616
-21.9096 95.6032 5.73369 -0.253275 0.967383 0.00466138
-22.1855 95.5462 4.29925 -0.271496 0.962439 -0.000162661
-22.435 95.4868 2.98918 -0.257128 0.966194 0.0188223
-22.6708 95.4448 1.69553 -0.260248 0.965469 0.0118703
-22.9323 95.3722 0.199671 -0.280005 0.959992 -0.00366838
-23.1762 95.3109 -1.28962 -0.26325 0.964725 0.00222989
-23.3908 95.2563 -2.63859 -0.283505 0.958967 0.00257807
-23.6009 95.2032 -4.06475 -0.281061 0.959658 0.00782802
-23.7958 95.1737 -5.5989 -0.272413 0.962012 0.018009
-23.8302 95.1682 -5.85977 -0.270315 0.962607 0.0178044
-24.7629 94.8891 -6.45945 -0.302101 0.953079 0.0193532
-24.5618 94.9266 -4.79511 -0.30342 0.952704 0.0170678
-24.3841 94.9687 -3.34775 -0.291351 0.956599 0.00564836
-24.2158 95.014 -2.1163 -0.280643 0.959735 -0.0122206
-23.964 95.0826 -0.394804 -0.28719 0.957735 0.0162985
-23.7661 95.1306 0.878904 -0.281852 0.959446 -0.00473976
-23.4901 95.198 2.63996 -0.288626 0.957325 0.0149476
-23.2607 95.2416 3.90299 -0.281801 0.9593 0.0182014
-23.0065 95.3069 5.33454 -0.267352 0.963582 0.00565797
-22.7724 95.3655 6.61849 -0.269988 0.962841 0.00655575
-22.539 95.4299 7.88781 -0.260408 0.965494 -0.00312032
-22.2655 95.507 9.29883 -0.260952 0.965352 -0.000344319
-22.0463 95.5695 10.567 -0.262184 0.96501 -0.00385516
-21.8919 95.6195 11.5262 -0.253662 0.967129 -0.0177802
-22.9484 95.3335 12.0057 -0.276467 0.960944 -0.0123237
-23.1458 95.2611 10.6078 -0.288221 0.957559 -0.00311164
-23.3655 95.1907 9.28403 -0.282287 0.959326 -0.00279093
-23.5968 95.1238 7.93006 -0.284043 0.958798 0.00506912
-23.8052 95.0642 6.66767 -0.298458 0.954422 0.000832899
-24.0202 95.0015 5.36618 -0.298734 0.954319 0.00569639
-24.24 94.9477 4.05355 -0.3083 0.951112 0.0183788
-24.4444 94.9061 2.74545 -0.291093 0.956606 0.0130619
-24.6636 94.8548 1.25265 -0.295878 0.955212 0.00508907
-24.8432 94.7966 -0.0338416 -0.30505 0.9522 0.0161262
-25.0385 94.7538 -1.33481 -0.329449 0.944088 0.0127216
-25.2109 94.7047 -2.92375 -0.303952 0.952665 0.00660838
-25.383 94.6613 -4.35847 -0.299231 0.954128 0.0100268
-25.5539 94.6188 -5.74717 -0.32764 0.944788 0.00532352
-25.6478 94.6004 -6.61175 -0.320535 0.947071 0.0176986
-26.5331 94.2953 -7.05111 -0.335776 0.94179 0.0169053
-26.4032 94.3242 -5.68861 -0.341157 0.939891 0.0147066
-26.273 94.3631 -4.34996 -0.325308 0.94559 0.00593113
-26.1192 94.4088 -2.89036 -0.319692 0.947426 0.0134585
-25.979 94.4329 -1.65694 -0.325482 0.94539 0.0173319
-25.8141 94.4726 -0.357872 -0.331031 0.943574 0.0092885
-25.6038 94.5391 1.30676 -0.319486 0.947541 0.00973657
-25.4273 94.5801 2.59225 -0.324323 0.945886 0.0106481
-25.2653 94.6196 3.83652 -0.3058 0.951983 0.0146634
-25.0722 94.6676 5.10415 -0.306093 0.952001 0.00141499
-24.8506 94.7366 6.6096 -0.304568 0.952489 0.00154489
-24.6328 94.8022 8.05031 -0.300047 0.953922 0.00205006
-24.4412 94.8605 9.37564 -0.3003 0.953844 0.00100139
-24.2442 94.9259 10.6878 -0.298218 0.95445 -0.00950928
-24.0205 95.0118 12.2953 -0.297302 0.954735 -0.00963457
-23.9985 95.0202 12.452 -0.297299 0.954736 -0.00963171
-25.1011 94.6594 12.7481 -0.324308 0.945898 -0.0100307
-25.239 94.6017 11.4996 -0.314943 0.949067 -0.00912212
-25.4275 94.5298 9.91227 -0.318537 0.947904 -0.00351285
-25.6076 94.4769 8.54642 -0.331134 0.943583 0.0010459
-25.7811 94.4246 7.2484 -0.320266 0.947268 0.0105992
-25.9574 94.3753 5.92457 -0.333867 0.942596 0.00671188
-26.1255 94.3221 4.65073 -0.329759 0.944065 0.000480173
-26.2888 94.2712 3.38512 -0.336827 0.941526 0.00876728
-26.4609 94.2291 2.01409 -0.335851 0.941806 0.014361
-26.6056 94.1845 0.769144 -0.336247 0.941772 0.00193593
-26.7572 94.1366 -0.517253 -0.340003 0.940387 0.00832446
-26.9495 94.0972 -2.06383 -0.357817 0.933684 0.0142102
-27.0862 94.0654 -3.50404 -0.351701 0.936106 -0.00331794
-27.2267 94.0184 -5.1134 -0.352134 0.935939 0.00454378
-27.3294 93.9966 -6.41653 -0.345421 0.938288 0.0173072
-27.4024 93.9862 -7.43176 -0.352389 0.935677 0.0181997
-28.2693 93.6512 -7.48914 -0.371364 0.928344 0.0163417
-28.1763 93.6669 -6.12815 -0.366353 0.930376 0.0136059
-28.0471 93.7036 -4.48221 -0.359313 0.933187 0.00747301
-27.9484 93.7301 -3.24486 -0.363902 0.931422 0.00523088
-27.8309 93.7572 -1.91539 -0.357818 0.933683 0.0142024
-27.663 93.7996 -0.440334 -0.366582 0.930262 0.0151888
-27.5219 93.8414 0.829545 -0.36579 0.930642 0.010157
-27.3896 93.8776 2.08291 -0.35648 0.934267 0.00816604
-27.2221 93.9329 3.58968 -0.357314 0.933814 0.0178441
-26.9963 94.0051 5.46299 -0.346692 0.937965 0.00519755
-26.844 94.054 6.77243 -0.349933 0.936763 0.00471404
-26.6838 94.0985 8.09693 -0.335846 0.941778 0.0161862
-26.5423 94.1407 9.37234 -0.345401 0.938455 -0.000457232
-26.409 94.1897 10.6325 -0.333856 0.942599 0.00688377
-26.2898 94.2337 11.9056 -0.336492 0.941676 -0.00444283
-26.1873 94.2761 12.9722 -0.335494 0.941984 -0.0104492
-27.2584 93.884 13.3481 -0.353572 0.935367 -0.00871176
-27.3489 93.8433 11.9375 -0.352512 0.935801 0.00343854
-27.4648 93.7981 10.469 -0.362343 0.932044 0.00089273
-27.6025 93.7502 8.96028 -0.365519 0.930767 0.00831943
-27.7489 93.7041 7.54196 -0.367746 0.929887 0.00851464
-27.8899 93.6585 6.16872 -0.371012 0.928606 0.00631807
-28.0421 93.6063 4.79359 -0.371351 0.928476 0.00557753
-28.1844 93.5586 3.46038 -0.369255 0.929302 0.00695772
-28.3539 93.5053 1.77454 -0.369283 0.929277 0.0086027
-28.5062 93.4609 0.21538 -0.367054 0.930144 0.0101574
-28.6421 93.4276 -1.08389 -0.366922 0.930022 0.0206715
-28.7787 93.3949 -2.56067 -0.376505 0.926364 0.00964794
-28.8918 93.367 -4.07889 -0.377896 0.925839 0.00407619
-28.997 93.3334 -5.40532 -0.377384 0.926003 0.00995142
-29.0976 93.3117 -6.80583 -0.371283 0.928431 0.0128295
-29.1563 93.3012 -7.79472 -0.381213 0.924432 0.0100804
-30.0447 92.9409 -8.30214 -0.39483 0.918464 0.0230808
-29.9736 92.9505 -7.04651 -0.386571 0.922144 0.01462
-29.8589 92.9748 -5.18642 -0.387222 0.921928 0.0103529
-29.7531 93.0075 -3.7315 -0.392036 0.919903 0.00922696
-29.6234 93.0351 -2.00566 -0.385457 0.922588 0.0159458
-29.4744 93.0738 -0.392429 -0.382597 0.923872 0.00894782
-29.3321 93.1181 1.16668 -0.383128 0.923651 0.00897801
-29.1956 93.1601 2.75724 -0.383341 0.923576 0.00751831
-29.0589 93.2013 4.28538 -0.371984 0.928211 0.0072818
-28.8854 93.2601 5.91661 -0.37765 0.925929 0.00603924
-28.7716 93.3002 7.23095 -0.38118 0.924472 0.00738408
-28.6616 93.3363 8.49123 -0.38048 0.924773 0.00552081
-28.5501 93.3768 9.90042 -0.370846 0.928688 0.00331633
-28.4502 93.4124 11.4027 -0.365692 0.930734 -0.00214872
-28.3331 93.4598 12.7831 -0.367425 0.930053 -0.000828154
-28.2528 93.5022 13.9459 -0.371298 0.928481 -0.00776325
-29.2385 93.1002 14.7565 -0.388178 0.921578 -0.00350751
-29.3207 93.0602 13.4445 -0.390604 0.920546 -0.00489288
-29.4147 93.0218 11.8969 -0.38546 0.922725 6.68859e-05
-29.4935 92.9915 10.5568 -0.376654 0.926351 0.00241484
-29.6051 92.9465 9.0949 -0.378761 0.925493 0.00173464
-29.7162 92.9075 7.63566 -0.380474 0.924775 0.00552505
-29.847 92.8672 6.04547 -0.379384 0.92522 0.00592829
-29.9718 92.8193 4.72183 -0.38961 0.920955 0.00682582
-30.0698 92.7927 3.45881 -0.390197 0.920698 0.00780266
-30.186 92.7531 2.01542 -0.393532 0.919269 0.00883685
-30.3197 92.7144 0.324407 -0.394586 0.91883 0.00732585
-30.4166 92.6821 -0.972296 -0.393916 0.919096 0.00965295
-30.566 92.6408 -2.69571 -0.397451 0.917575 0.00945038
-30.6467 92.6211 -3.98949 -0.403959 0.914692 0.0124888
-30.7257 92.603 -5.32149 -0.404984 0.914255 0.0112252
-30.8001 92.5898 -6.73003 -0.401773 0.915644 0.0132047
-30.8895 92.5774 -8.44016 -0.397406 0.917454 0.0186427
-31.7198 92.2114 -8.29607 -0.409353 0.912241 0.015664
-31.6352 92.218 -6.51595 -0.409425 0.912193 0.0165686
-31.5651 92.2271 -4.98753 -0.409225 0.91238 0.00991429
-31.4951 92.2431 -3.6605 -0.407734 0.913033 0.0111616
-31.377 92.2767 -1.93448 -0.406665 0.913523 0.00997635
-31.2905 92.3019 -0.671815 -0.399941 0.91648 0.0105902
-31.2063 92.3289 0.604525 -0.397661 0.917519 0.0048978
-31.0909 92.3629 2.3088 -0.398708 0.916987 0.0129045
-30.9577 92.4073 4.0255 -0.404841 0.914348 0.00852108
-30.8597 92.4393 5.42123 -0.393244 0.919416 0.00584014
-30.7544 92.4723 6.67653 -0.394721 0.918755 0.00916866
-30.6647 92.4995 7.93206 -0.394285 0.918964 0.00658392
-30.5863 92.5307 9.28232 -0.391564 0.920151 0.000564505
-30.4743 92.5689 11.0754 -0.395518 0.918443 0.00525561
-30.3734 92.6072 12.6414 -0.401796 0.915711 0.00574141
-30.2983 92.6398 13.9185 -0.400539 0.916278 -0.0017665
-30.2266 92.6722 15.0608 -0.406939 0.913455 -0.0006078
-31.2678 92.2081 14.7445 -0.406939 0.913455 -0.000601822
-31.3273 92.1852 13.4572 -0.407154 0.913356 0.00272091
-31.4139 92.1528 11.9108 -0.410407 0.911857 0.00913289
-31.4841 92.1375 10.5091 -0.39529 0.918542 0.00519252
-31.5533 92.1093 9.21983 -0.403907 0.914789 0.00446684
-31.6137 92.0859 7.97703 -0.401683 0.915771 0.00382983
-31.704 92.0514 6.65384 -0.405655 0.914001 0.00675386
-31.8046 92.0217 5.31313 -0.407156 0.91333 0.00730314
-31.8901 91.9921 3.89911 -0.412721 0.910807 0.00956438
-31.9966 91.9637 2.55755 -0.405581 0.913988 0.0114263
-32.0824 91.9397 1.09966 -0.412451 0.910938 0.00876605
-32.1699 91.909 -0.391799 -0.416975 0.908909 0.00408555
-32.2457 91.8859 -1.74543 -0.417312 0.908704 0.0103829
-32.3376 91.8615 -3.21448 -0.407618 0.913096 0.0101027
-32.4147 91.8441 -4.81063 -0.409159 0.912408 0.0100085
-32.4787 91.8372 -6.39151 -0.41124 0.911408 0.0147107
-32.5422 91.8315 -7.79072 -0.412952 0.910555 0.0189917
-32.5581 91.8334 -8.31827 -0.425807 0.904717 0.013218
-33.3869 91.4413 -8.11705 -0.427986 0.90369 0.0131165
-33.3569 91.4381 -6.77867 -0.424739 0.905227 0.0127271
-33.3059 91.446 -5.52495 -0.422731 0.906193 0.0106226
-33.2502 91.4525 -4.12628 -0.4238 0.905654 0.013552
-33.1849 91.4666 -2.79143 -0.419904 0.907533 0.00805918
-33.116 91.4847 -1.53295 -0.416259 0.90917 0.0117133
-33.0317 91.5113 0.104065 -0.426337 0.904556 0.00390931
-32.9732 91.5263 1.40648 -0.425631 0.904767 0.01533
-32.8987 91.5423 2.71188 -0.423559 0.905809 0.0103659
-32.7864 91.5762 4.27492 -0.426086 0.904619 0.010755
-32.7049 91.604 5.641 -0.424895 0.905229 0.00492653
-32.6325 91.6292 6.90056 -0.421772 0.906691 0.00448934
-32.5513 91.659 8.17822 -0.423118 0.90607 0.00300342
-32.4783 91.6857 9.79937 -0.426148 0.904621 0.00771307
-32.419 91.6992 11.0613 -0.428132 0.903655 0.0105186
-32.3528 91.7198 12.6724 -0.42625 0.904569 0.00815064
-32.2876 91.7375 14.3596 -0.423159 0.906049 0.00332337
-32.2724 91.7453 15.2067 -0.42184 0.90667 -0.000730496
-33.2699 91.2724 14.99 -0.431664 0.902034 0.000955849
-33.3005 91.2636 13.5939 -0.431075 0.90229 0.00694168
-33.3495 91.2523 12.0475 -0.430474 0.902572 0.00743986
-33.4023 91.2368 10.6239 -0.431568 0.902027 0.00982744
-33.4479 91.2317 9.32566 -0.435506 0.900132 0.00982878
-33.5144 91.209 7.8713 -0.431077 0.902313 0.00196822
-33.5769 91.1849 6.55979 -0.432025 0.901837 0.00670386
-33.6526 91.1594 5.19853 -0.432462 0.901619 0.00769504
-33.735 91.1336 3.89546 -0.433023 0.901309 0.0115605
-33.8287 91.109 2.28365 -0.435482 0.900112 0.0124194
-33.893 91.0974 1.00031 -0.431816 0.901861 0.0134557
-33.9589 91.0794 -0.637229 -0.424248 0.905521 0.00680728
-34.0205 91.0622 -1.93663 -0.429327 0.903109 0.00858356
-34.0886 91.0448 -3.32554 -0.429965 0.902775 0.0113268
-34.149 91.0361 -4.76668 -0.431933 0.901816 0.0126814
-34.1961 91.0352 -6.27148 -0.434876 0.900412 0.0118825
-34.2478 91.0246 -7.75655 -0.429513 0.902994 0.0109625
-34.251 91.0319 -8.29065 -0.429903 0.902735 0.0158788
-35.0973 90.611 -7.599 -0.443926 0.896031 0.00754523
-35.0598 90.6154 -6.21063 -0.441161 0.89736 0.0110331
-35.0136 90.6168 -4.7489 -0.443452 0.896183 0.0143509
-34.9594 90.6206 -3.24685 -0.442207 0.896805 0.0139317
-34.8886 90.6401 -1.72236 -0.436081 0.899874 0.00772289
-34.8423 90.6549 -0.455156 -0.432883 0.901418 0.00761491
-34.7778 90.6666 1.18865 -0.43924 0.898212 0.0168482
-34.7093 90.6771 2.57584 -0.439291 0.898289 0.0099841
-34.6378 90.6981 4.1468 -0.434466 0.900637 0.00957611
-34.5524 90.7233 5.5564 -0.437111 0.899372 0.0079736
-34.4895 90.744 6.85457 -0.434092 0.900839 0.00725813
-34.4375 90.7645 8.11636 -0.434902 0.90046 0.00565485
-34.3852 90.7722 9.70484 -0.442782 0.896563 0.0109451
-34.3388 90.7837 10.9444 -0.43739 0.899235 0.00811142
-34.3062 90.7898 12.2234 -0.436527 0.899666 0.00675074
-34.2751 90.7963 13.5244 -0.435431 0.900211 0.00438958
-34.2516 90.8018 14.8387 -0.443758 0.896141 0.00305897
-35.2001 90.3334 14.5012 -0.445066 0.895483 0.00504388
-35.2335 90.3268 13.0342 -0.449747 0.893136 0.00600844
-35.257 90.3226 11.7819 -0.448957 0.89354 0.00493095
-35.3071 90.3079 10.5152 -0.447598 0.894205 0.00734431
-35.339 90.3078 9.15546 -0.447573 0.894175 0.0114033
-35.3877 90.2994 7.80733 -0.442489 0.896737 0.00814563
-35.4474 90.2819 6.1381 -0.447071 0.894453 0.00902752
-35.5339 90.2573 4.39631 -0.440176 0.897864 0.00922166
-35.5883 90.2429 3.09918 -0.440088 0.897927 0.00709939
-35.6336 90.2353 1.83673 -0.44633 0.894794 0.0115474
-35.6993 90.2214 0.527911 -0.449683 0.893113 0.0115396
-35.7442 90.212 -0.908253 -0.444288 0.895856 0.00706279
-35.8037 90.1977 -2.58549 -0.445307 0.895324 0.00980237
-35.8625 90.1842 -4.01639 -0.449742 0.893036 0.0147809
-35.894 90.1888 -5.35794 -0.445566 0.895179 0.011222
-35.9354 90.189 -7.05985 -0.446903 0.894527 0.00996562
-36.7769 89.7541 -6.08087 -0.454152 0.890843 0.0120487
-36.758 89.7433 -4.73031 -0.456487 0.889608 0.0147162
-36.7113 89.7486 -3.33353 -0.453092 0.891414 0.00942245
-36.652 89.7652 -1.95425 -0.45216 0.891902 0.00787087
-36.6164 89.7693 -0.481961 -0.450511 0.892731 0.00850415
-36.5787 89.7735 0.927438 -0.449693 0.893109 0.0115457
-36.5044 89.7951 2.24558 -0.451452 0.892229 0.0108501
-36.4697 89.8019 3.56778 -0.449558 0.893229 0.00625093
-36.4216 89.8096 5.03794 -0.445185 0.895344 0.0130027
-36.3567 89.825 6.47637 -0.446033 0.894994 0.0063454
-36.3209 89.8287 7.83498 -0.45114 0.89237 0.012206
-36.276 89.8362 9.21994 -0.457228 0.889273 0.0116931
-36.2551 89.8296 10.5644 -0.457632 0.889075 0.0108603
-36.1938 89.8474 11.9683 -0.45869 0.888562 0.00779776
-36.166 89.8497 13.3688 -0.457018 0.889427 0.00740534
-37.1677 89.3477 11.6129 -0.458685 0.888565 0.00780549
-37.1876 89.3548 10.2744 -0.460765 0.887471 0.00955751
-37.2283 89.3535 8.73091 -0.458894 0.888409 0.0120886
-37.2537 89.359 7.19484 -0.457138 0.889332 0.0106577
-37.3013 89.3552 5.57477 -0.459862 0.887923 0.0109426
-37.3562 89.3431 4.07272 -0.460247 0.887748 0.00871099
-37.3963 89.3334 2.64861 -0.455674 0.890103 0.00878608
-37.4557 89.3175 1.19895 -0.459857 0.887959 0.00775672
-37.4972 89.3169 -0.349559 -0.457013 0.889439 0.00616528
-37.5222 89.3162 -1.72075 -0.461613 0.887023 0.0101971
-37.5813 89.3 -3.04091 -0.463637 0.885954 0.0112624
-37.6029 89.3032 -4.33465 -0.457315 0.889265 0.00841031
-37.6029 89.3032 -4.33486 -0.458347 0.88868 0.0128787
