-18.7141 96.9492 11.463 -0.176458 0.984167 -0.00822093
-17.5869 97.1062 11.2803 -0.131231 0.991304 -0.00957713
-16.2515 97.2704 11.043 -0.105806 0.994374 -0.00499325
-15.0698 97.3746 10.8391 -0.0749421 0.997104 -0.0129264
-13.6792 97.4471 10.5191 -0.0331559 0.999344 -0.0145457
-12.4408 97.4582 10.3222 0.0101775 0.999796 -0.0174739
-11.3334 97.4364 10.1669 0.0260099 0.999513 -0.0172517
-10.2214 97.3872 10.0088 0.0556663 0.998367 -0.0128254
-8.93429 97.2759 9.79159 0.107722 0.994147 -0.00793859
-7.86307 97.1567 9.54211 0.120534 0.992628 -0.00112483
-6.60276 96.9598 9.25275 0.160735 0.986976 -0.00243661
-5.33496 96.7278 8.97735 0.196817 0.980184 -0.00999007
-4.19547 96.4782 8.74479 0.224845 0.974291 0.00313483
-2.97141 96.1788 8.43448 0.255099 0.966774 -0.00192941
-1.66521 95.7958 8.12237 0.298414 0.954429 -0.00367072
-0.448836 95.3973 7.68344 0.316251 0.948659 -0.00561975
0.619029 95.0206 7.10623 0.337074 0.941451 -0.00290081
1.58551 94.6638 6.51974 0.346614 0.937986 -0.00564961
2.32294 94.3839 5.8234 0.359503 0.933064 -0.00415414
3.23667 94.0043 4.77229 0.380016 0.924954 -0.00666729
3.64642 93.8288 3.81451 0.382502 0.92394 -0.00510227
4.17897 93.5957 2.78564 0.396846 0.917857 -0.00719066
4.5291 93.4338 1.66953 0.401477 0.915841 -0.00710513
4.62281 93.3839 0.580745 0.396998 0.917766 -0.00676814
4.61391 93.3766 -0.568553 0.403305 0.915023 -0.00883758
4.36233 93.4769 -1.68308 0.396872 0.917799 -0.00940247
3.92768 93.6558 -2.79437 0.391157 0.920321 -0.00233667
3.21492 93.9547 -3.80954 0.383035 0.923689 -0.00389615
2.45683 94.2599 -4.51017 0.373001 0.927819 -0.00357097
1.45374 94.656 -5.0771 0.362304 0.932055 -0.00310707
0.360987 95.0655 -5.22369 0.34368 0.939065 0.00636832
-0.679211 95.4379 -5.15078 0.330985 0.94359 0.00680699
-1.72162 95.7824 -5.24552 0.296221 0.955114 0.00295823
-2.73407 96.0809 -5.32473 0.265162 0.964195 0.00426032
-3.83949 96.3705 -5.24873 0.242797 0.970074 -0.00235898
-4.98142 96.6361 -5.18152 0.210041 0.977659 -0.00806224
-6.20144 96.879 -5.24058 0.18021 0.983607 -0.00639868
-7.24025 97.0523 -5.29531 0.147485 0.989014 0.00720875
-8.5026 97.2271 -5.44707 0.112119 0.993602 0.0135789
-9.98572 97.3785 -5.46026 0.083264 0.996334 -0.00745742
-11.2792 97.4503 -5.40093 0.0324252 0.999465 -0.00421602
-12.4164 97.4834 -5.49495 0.0136291 0.999825 0.0127233
-13.7017 97.474 -5.50865 -0.0206336 0.999774 0.00339424
-14.8703 97.4154 -5.32586 -0.0656836 0.997747 0.0127734
-15.9581 97.323 -5.23041 -0.0946743 0.995409 0.0133101
-17.0492 97.2212 -5.2987 -0.104097 0.994502 0.0114246
-18.0786 97.0813 -5.35579 -0.15122 0.988347 0.0173777
-19.4347 96.8431 -5.45992 -0.188668 0.98182 0.0208096
-21.0042 96.523 -5.55623 -0.217735 0.975766 0.0217423
-22.0921 96.2722 -5.75894 -0.252507 0.967102 0.02979
-23.2098 95.9683 -5.91557 -0.280292 0.959669 0.021709
-24.2656 95.6665 -6.20778 -0.293026 0.955848 0.0174472
-25.3308 95.33 -6.60796 -0.305855 0.951906 0.0181195
-26.3372 94.995 -7.1854 -0.323229 0.946121 0.0183376
-27.3663 94.6396 -7.59158 -0.347682 0.937432 0.0162546
-28.3827 94.2471 -7.92921 -0.372067 0.928092 0.0145405
-29.3449 93.8666 -8.26045 -0.383376 0.923305 0.0229376
-30.3981 93.432 -8.52399 -0.396606 0.917658 0.0239729
-31.5588 92.9292 -8.74108 -0.403019 0.914891 0.0232063
-32.6402 92.4414 -8.79065 -0.411879 0.911139 0.0134982
-33.9233 91.8354 -8.68358 -0.427522 0.903874 0.0153814
-34.8342 91.3939 -8.39377 -0.434068 0.90077 0.0140466
-35.8617 90.8738 -7.73782 -0.449426 0.893193 0.0145382
-36.7052 90.4403 -6.90694 -0.449651 0.893165 0.0083805
-37.3867 90.0849 -6.04858 -0.459414 0.888197 0.00667697
-38.003 89.7512 -4.93279 -0.465566 0.884947 0.0106839
-38.432 89.5086 -3.68418 -0.467629 0.883845 0.0119319
-38.7867 89.3041 -2.42617 -0.467504 0.883913 0.0117649
-38.9355 89.2141 -1.27998 -0.469025 0.883142 0.00870628
-38.8426 89.2485 0.0556315 -0.466909 0.884252 0.00963034
-38.7201 89.3002 1.2079 -0.466387 0.884541 0.00840553
-38.5829 89.3605 2.39793 -0.462256 0.886696 0.00936951
-38.4474 89.4184 3.49928 -0.462946 0.886327 0.0102878
-38.3279 89.4665 4.70858 -0.463877 0.885848 0.00948267
-38.2972 89.4679 6.25539 -0.464671 0.885443 0.00843205
-38.2395 89.4876 7.37832 -0.461354 0.88717 0.00859094
-38.1549 89.5165 8.48493 -0.465208 0.885111 0.012643
-38.1977 89.4777 9.70257 -0.463483 0.886047 0.00994546
-37.95 89.5942 10.9733 -0.4613 0.887179 0.0107634
-37.3549 89.8904 12.2911 -0.460405 0.887683 0.00685925
-36.7737 90.1841 13.224 -0.459175 0.888312 0.00762542
-36.1524 90.4976 14.2649 -0.458983 0.888432 0.00487996
-35.2833 90.9351 14.9966 -0.445545 0.895259 0.000319852
-34.1406 91.499 15.5174 -0.436576 0.899655 -0.00477707
-33.1989 91.9544 15.6976 -0.432995 0.901382 -0.00506574
-32.1307 92.4604 15.7085 -0.423645 0.905808 -0.00604796
-31.0059 92.9765 15.5892 -0.411172 0.911513 -0.00898332
-30.0683 93.3956 15.4262 -0.407244 0.913251 -0.0111312
-29.1295 93.791 15.0274 -0.387656 0.921706 -0.0134253
-28.2704 94.1366 14.5755 -0.374778 0.927033 -0.0123219
-27.2227 94.5451 14.0395 -0.354534 0.935001 -0.00887614
-26.2406 94.9063 13.5149 -0.341675 0.939672 -0.0150436
-24.8424 95.3809 13.0285 -0.315242 0.948879 -0.015743
-23.8953 95.6822 12.713 -0.295789 0.955133 -0.0151953
-22.6234 96.0496 12.3289 -0.27505 0.9613 -0.0157763
-21.5869 96.319 12.0379 -0.245679 0.969167 -0.018828
-20.3002 96.6199 11.7225 -0.22237 0.974793 -0.0158636
-19.1369 96.8697 11.5368 -0.187768 0.982066 -0.0170098
-18.971 96.901 11.5142 -0.187768 0.982066 -0.0170093
-18.7235 96.9546 12.5115 -0.169852 0.98539 -0.0125167
-20.4217 96.6115 12.7589 -0.219411 0.975238 -0.027749
-21.6576 96.328 13.0821 -0.249489 0.967879 -0.0310577
-22.7246 96.0458 13.3463 -0.269367 0.962698 -0.0234238
-23.7924 95.7384 13.6903 -0.305 0.951896 -0.0294786
-24.8664 95.399 14.1316 -0.319408 0.94712 -0.0306932
-25.8794 95.0541 14.4187 -0.34231 0.938984 -0.0336522
-26.9063 94.6887 14.986 -0.359232 0.932892 -0.0246909
-27.8309 94.3303 15.4921 -0.37875 0.925352 -0.0164946
-28.9384 93.8858 16.0107 -0.383366 0.923413 -0.0184058
-30.0738 93.4054 16.4476 -0.405075 0.91419 -0.0113677
-31.1597 92.9182 16.6639 -0.41619 0.90923 -0.00702474
-32.0983 92.4826 16.7632 -0.422493 0.906349 -0.00533176
-33.2621 91.93 16.7413 -0.432706 0.901516 -0.00587459
-34.3119 91.4162 16.5402 -0.441945 0.897037 -0.00302892
-35.3516 90.9011 16.1683 -0.451726 0.892153 0.000818019
-36.2447 90.4458 15.5855 -0.457008 0.889461 -2.50175e-05
-37.0481 90.0331 14.7254 -0.458458 0.888715 0.00123271
-37.5896 89.7566 13.8397 -0.46362 0.886025 0.004028
-38.2804 89.4028 12.636 -0.463087 0.886288 0.00659363
-38.7042 89.1905 11.6861 -0.463303 0.886122 0.0117629
-39.0842 89.0044 10.2969 -0.46818 0.883578 0.00988366
-39.0913 89.0128 9.25798 -0.467246 0.884048 0.0118396
-39.0342 89.0565 8.15424 -0.471364 0.881849 0.0125856
-39.1982 88.9867 6.79219 -0.46917 0.883037 0.0112015
-39.1544 89.0252 5.40814 -0.465283 0.885112 0.00938213
-39.2871 88.9718 4.03988 -0.464878 0.885315 0.0103026
-39.389 88.9316 2.87726 -0.466243 0.884603 0.0096117
-39.5567 88.8531 1.83765 -0.468757 0.883282 0.0087079
-39.6531 88.8138 0.606438 -0.469031 0.883147 0.00775839
-39.8539 88.7176 -0.515694 -0.470849 0.882167 0.00908624
-39.8368 88.7365 -1.6905 -0.474846 0.880021 0.00915772
-39.6472 88.8515 -2.79194 -0.472026 0.881528 0.00993715
-39.3937 88.9978 -3.77936 -0.47212 0.881454 0.0118689
-39.0116 89.2177 -4.87581 -0.469675 0.882749 0.0124526
-38.6321 89.4298 -5.81923 -0.466887 0.884254 0.0105356
-38.0961 89.7235 -6.73407 -0.46247 0.886584 0.0086042
-37.3898 90.0984 -7.63334 -0.460335 0.887687 0.0101331
-36.6556 90.4834 -8.44629 -0.452204 0.891766 0.0162508
-35.723 90.9636 -9.03328 -0.445926 0.894925 0.0161245
-34.8946 91.3826 -9.493 -0.442906 0.896466 0.0135245
-33.8669 91.8828 -9.77882 -0.428827 0.903087 0.0232424
-32.6527 92.4559 -9.83032 -0.417041 0.908653 0.0197718
-31.3912 93.0269 -9.79729 -0.409158 0.912248 0.0191353
-30.405 93.456 -9.56046 -0.392033 0.919474 0.029635
-29.3502 93.8908 -9.35202 -0.381389 0.923912 0.0304916
-28.1641 94.3587 -8.91001 -0.362378 0.931804 0.0205799
-27.1831 94.7277 -8.5935 -0.352126 0.935573 0.0266758
-26.1659 95.0785 -8.24113 -0.32842 0.944162 0.0255925
-25.0547 95.4415 -7.58298 -0.311516 0.949785 0.0278068
-24.0621 95.7458 -7.193 -0.304598 0.952362 0.0149399
-22.661 96.15 -6.84018 -0.268247 0.962629 0.033656
-21.0906 96.5289 -6.62891 -0.219774 0.975249 0.02428
-19.9942 96.7583 -6.47959 -0.1869 0.982127 0.0222261
-18.976 96.9437 -6.47462 -0.171432 0.984756 0.0294557
-17.9632 97.1164 -6.35074 -0.162107 0.986632 0.0103744
-16.441 97.2956 -6.26305 -0.0932047 0.995167 0.0309191
-15.139 97.4106 -6.32924 -0.0768997 0.996695 0.0261635
-14.0153 97.4736 -6.45464 -0.0370907 0.99895 0.0256591
-12.8281 97.5007 -6.55979 -0.00586146 0.999798 0.0080162
-11.6349 97.4865 -6.44419 0.0294946 0.999184 0.0186672
-10.5635 97.4366 -6.39653 0.0626667 0.997775 0.0122374
-9.48611 97.3515 -6.5352 0.0955377 0.995042 0.022178
-8.40322 97.2289 -6.44142 0.125347 0.991876 0.0216763
-7.25195 97.0655 -6.27928 0.153441 0.988116 0.00903104
-6.17734 96.8796 -6.27555 0.180711 0.983424 0.014835
-5.13108 96.6752 -6.18821 0.208109 0.977829 0.0232498
-4.12416 96.4488 -6.25386 0.237661 0.971323 0.0070561
-2.8831 96.1317 -6.37861 0.253601 0.967288 0.00639954
-1.84681 95.8259 -6.26448 0.298992 0.954216 0.00868389
-0.720628 95.4543 -6.15137 0.324758 0.945599 0.013989
0.442291 95.0426 -6.27054 0.344274 0.938852 0.00571695
1.42761 94.6696 -6.22729 0.363773 0.931442 0.00917261
2.47828 94.2521 -5.71814 0.366606 0.930372 0.00287478
3.27576 93.9239 -5.15461 0.382107 0.9241 0.00582733
4.09933 93.5777 -4.3073 0.391057 0.920365 -0.00195868
4.68585 93.3257 -3.50132 0.40062 0.916244 0.000794973
5.14096 93.1295 -2.41828 0.406296 0.913712 -0.00564508
5.43605 93.0046 -1.29496 0.413983 0.910243 -0.00872129
5.59968 92.9391 -0.253929 0.415487 0.909569 -0.00743755
5.57159 92.9646 0.954583 0.408075 0.912832 -0.0145812
5.40392 93.0537 2.29507 0.404739 0.914406 -0.00687427
4.99633 93.2456 3.24672 0.404412 0.914449 -0.0152062
4.46907 93.4867 4.24419 0.396155 0.918162 -0.0062955
4.00976 93.6922 5.53603 0.380019 0.924953 -0.0066711
3.03381 94.1019 6.50821 0.374208 0.927301 -0.00613258
2.04792 94.4973 7.39919 0.361535 0.932203 -0.0169148
1.1117 94.853 7.97236 0.344806 0.938526 -0.0166747
0.266631 95.1583 8.47566 0.327628 0.944531 -0.0228131
-0.802478 95.5255 8.89366 0.312295 0.949853 -0.0158104
-1.99121 95.9016 9.20691 0.285781 0.958204 -0.00146432
-3.16123 96.2304 9.50751 0.252105 0.967482 -0.00215749
-4.28213 96.5031 9.7837 0.235039 0.971927 -0.0107368
-5.54668 96.782 10.0316 0.189906 0.981404 -0.0154709
-6.64014 96.9747 10.3087 0.163824 0.986334 -0.0156369
-7.95442 97.1711 10.6019 0.129675 0.99139 -0.00191827
-8.96604 97.2913 10.8177 0.0966141 0.995212 -0.00440781
-10.2908 97.4062 11.0036 0.0727315 0.997151 -0.0140603
-11.6854 97.4638 11.2844 0.0325976 0.999293 -0.017728
-12.7707 97.4862 11.4112 -0.00841549 0.99952 -0.0178942
-13.9157 97.4569 11.6624 -0.0246522 0.999412 -0.023842
-15.0715 97.3935 11.8473 -0.0679331 0.99711 -0.0340093
-16.4046 97.2709 12.1309 -0.113625 0.993097 -0.0291195
-17.8855 97.0864 12.3149 -0.130339 0.991117 -0.0264222
-18.4927 96.9919 12.4614 -0.158665 0.987309 -0.0067425
-18.292 97.0443 13.4709 -0.163662 0.985736 -0.0392373
-19.3131 96.8731 13.5782 -0.189079 0.980964 -0.0442612
-20.6399 96.5983 13.8516 -0.221554 0.974322 -0.0401272
-22.0632 96.2548 14.1926 -0.26171 0.964267 -0.0412033
-23.2565 95.9271 14.5523 -0.282099 0.958935 -0.0293939
-24.2825 95.6247 15.0388 -0.313658 0.94883 -0.0364568
-25.2246 95.3201 15.3921 -0.322152 0.945906 -0.0384796
-26.1419 95.0033 15.7538 -0.356104 0.934027 -0.0279955
-27.362 94.5484 16.3596 -0.373892 0.926643 -0.0361638
-28.3755 94.14 16.8571 -0.382826 0.923368 -0.0289144
-29.5036 93.6711 17.3064 -0.408389 0.912535 -0.0223191
-30.6547 93.1604 17.6398 -0.410268 0.911773 -0.0187216
-31.8359 92.6196 17.8248 -0.420734 0.907018 -0.0173806
-32.9999 92.0651 17.7928 -0.431581 0.901985 -0.0126967
-34.0825 91.5365 17.6673 -0.439943 0.897944 -0.0121397
-35.1216 91.0177 17.3148 -0.44705 0.894474 -0.00789711
-36.1911 90.4733 16.8474 -0.453955 0.891011 -0.00505177
-37.2002 89.9535 16.0769 -0.459695 0.888077 -0.000221689
-37.8248 89.6312 15.2427 -0.459071 0.888398 0.00148737
-38.6134 89.2208 14.1357 -0.462278 0.886733 0.00200114
-39.182 88.9248 13.0124 -0.469441 0.882931 0.00763315
-39.5409 88.7418 11.9701 -0.470692 0.882255 0.00813837
-39.8818 88.5749 10.7948 -0.470141 0.882524 0.010834
-40.037 88.5067 9.42601 -0.470743 0.882228 0.00866627
-39.9846 88.5466 8.24002 -0.472719 0.88114 0.0113632
-40.0858 88.5221 6.33919 -0.46888 0.883155 0.0135227
-40.0063 88.5785 5.31192 -0.465944 0.884751 0.010572
-40.1975 88.4925 3.8001 -0.468639 0.88335 0.00831844
-40.5642 88.3105 2.39341 -0.470249 0.882487 0.00906654
-40.5404 88.3419 0.608072 -0.470931 0.882137 0.00741804
-40.839 88.1871 -0.452633 -0.475168 0.879893 0.00207291
-40.756 88.236 -1.53098 -0.481391 0.87645 0.00800038
-40.6179 88.3258 -2.70383 -0.479539 0.87744 0.0116875
-40.3566 88.4819 -3.77352 -0.473105 0.880949 0.0100155
-40.0658 88.6562 -4.95485 -0.473101 0.880883 0.0146069
-39.6284 88.9041 -5.97557 -0.468452 0.883423 0.010837
-38.9841 89.2625 -7.14805 -0.465651 0.884844 0.0145559
-38.0314 89.7764 -8.37612 -0.45867 0.888517 0.0126123
-37.0504 90.3002 -9.43348 -0.454831 0.89045 0.0150949
-36.2117 90.7356 -9.93837 -0.447094 0.894305 0.0180689
-35.3111 91.1986 -10.4588 -0.446661 0.894427 0.0219973
-34.361 91.673 -10.7889 -0.429678 0.902711 0.022125
-33.0435 92.298 -10.9179 -0.421382 0.906531 0.0252608
-31.9728 92.7907 -10.8644 -0.414257 0.909752 0.0272533
-30.6501 93.3844 -10.8553 -0.406938 0.913108 0.0252012
-29.6112 93.8243 -10.6084 -0.385981 0.921938 0.032096
-28.3201 94.3389 -10.0925 -0.379249 0.924814 0.0298271
-27.2259 94.7477 -9.6439 -0.35341 0.934465 0.0419605
-25.7739 95.2465 -9.19125 -0.326304 0.943831 0.0520465
-24.8263 95.5496 -8.6635 -0.318306 0.947259 0.0371618
-23.8032 95.8577 -8.2047 -0.298523 0.953944 0.0295686
-22.3748 96.2693 -7.9728 -0.268255 0.962627 0.0336539
-21.4179 96.4929 -7.72061 -0.217066 0.975511 0.0355082
-20.2892 96.7359 -7.43651 -0.204047 0.977722 0.0457304
-19.0923 96.9605 -7.47283 -0.165673 0.98468 0.0516323
-18.0059 97.1332 -7.44229 -0.165308 0.986003 0.0216882
-16.942 97.2857 -7.45407 -0.11209 0.993069 0.0297919
-15.6486 97.4009 -7.39454 -0.0879351 0.995753 0.0272576
-14.6018 97.4843 -7.47577 -0.0527326 0.997766 0.0373194
-13.4779 97.5233 -7.56044 -0.0260894 0.998342 0.0513154
-12.4245 97.5324 -7.56946 0.018392 0.998665 0.0482663
-11.3613 97.5018 -7.43838 0.0398082 0.99847 0.0363692
-10.3234 97.4412 -7.54815 0.0798042 0.996438 0.027024
-9.08397 97.3392 -7.47982 0.10142 0.993041 0.0598613
-8.06131 97.2111 -7.40925 0.138307 0.989516 0.0414992
-6.8395 97.0295 -7.20076 0.162744 0.985408 0.0418232
-5.53398 96.7831 -7.36025 0.191077 0.980743 0.0404085
-4.51172 96.5726 -7.26827 0.220305 0.974791 0.0301982
-3.18554 96.244 -7.34296 0.249541 0.967077 0.0489468
-2.17953 95.958 -7.47421 0.312413 0.94901 0.0421729
-1.16957 95.6377 -7.36816 0.30254 0.952921 0.0202836
-0.216459 95.3094 -7.39178 0.345686 0.938154 0.0191731
0.938434 94.8725 -7.36276 0.358747 0.933374 0.0106417
1.94362 94.4782 -7.18354 0.368398 0.929615 0.00994798
2.8356 94.1188 -6.67129 0.370468 0.928784 0.0105129
3.9173 93.6622 -5.97177 0.383001 0.923711 0.00821232
4.72933 93.3125 -5.04205 0.401625 0.915659 0.0105348
5.4584 92.983 -4.20851 0.413162 0.910654 -0.0026822
5.85436 92.8056 -3.20149 0.413493 0.910495 6.76016e-05
6.27792 92.6177 -1.88318 0.415575 0.909543 -0.00548657
6.5272 92.5116 -0.551901 0.421333 0.906865 -0.00862872
6.53705 92.5208 0.742072 0.419852 0.907519 -0.0115124
6.35308 92.6214 2.12841 0.416897 0.908908 -0.00916266
6.09524 92.7568 3.42424 0.419329 0.907723 -0.0142063
5.54277 93.022 4.31675 0.405821 0.91383 -0.0149364
5.12491 93.2178 5.55079 0.392102 0.919803 -0.0147687
4.57451 93.4662 6.4832 0.390569 0.92049 -0.0124101
3.75135 93.8259 7.25847 0.387231 0.921726 -0.0200435
3.03446 94.1306 8.23895 0.364623 0.930965 -0.0186447
1.9331 94.5635 8.68014 0.345016 0.938452 -0.016475
0.78022 95.0039 9.3313 0.336419 0.94129 -0.0251182
-0.422572 95.418 9.83827 0.311968 0.94991 -0.0186231
-1.66988 95.8262 10.1396 0.298192 0.954018 -0.0305241
-3.00354 96.2057 10.5966 0.256325 0.966278 -0.0243183
-3.99472 96.4582 10.7148 0.234765 0.970975 -0.0457594
-5.39613 96.7719 11.073 0.198731 0.979033 -0.0447176
-6.4222 96.962 11.2876 0.151987 0.987032 -0.0516411
-7.46839 97.1225 11.5673 0.129695 0.990526 -0.0451314
-8.6 97.2701 11.83 0.0948083 0.994567 -0.0429807
-9.90579 97.3998 11.9694 0.0752758 0.995849 -0.0472332
-11.481 97.4819 12.2957 0.0254644 0.998781 -0.0422801
-12.6301 97.5185 12.4664 0.0137609 0.99887 -0.0439161
-14.4177 97.4681 12.8313 -0.0542802 0.99773 -0.0392686
-15.6878 97.3766 12.9969 -0.101527 0.993752 -0.0463709
-16.7824 97.2582 13.2526 -0.126712 0.991095 -0.0409232
-17.7765 97.1259 13.3687 -0.163658 0.985737 -0.0392371
-38.2771 89.5354 0.983776 -0.461342 0.887122 0.0133533
-38.2555 89.5644 -0.520346 -0.465798 0.884838 0.00964099
-38.2411 89.5893 -1.97171 -0.465701 0.884892 0.00941427
-38.2198 89.6068 -2.64269 -0.468145 0.883595 0.00997613
-37.2913 90.1261 -5.19324 -0.455936 0.889938 0.0115146
-37.3009 90.0999 -3.64819 -0.460999 0.887318 0.0121138
-37.3377 90.0591 -2.02479 -0.456955 0.889464 0.00673165
-37.3586 90.0354 -0.756888 -0.460452 0.887621 0.0106297
-37.3743 90.0073 0.826376 -0.461341 0.887122 0.0133554
-37.4358 89.9592 2.10127 -0.455122 0.890386 0.00874193
-37.4705 89.927 3.36023 -0.456092 0.889873 0.0103397
-37.5317 89.879 4.98949 -0.456813 0.889521 0.00866436
-37.588 89.8382 6.24012 -0.459603 0.888071 0.00974841
-37.6058 89.8138 7.59982 -0.461387 0.887136 0.0106178
-37.6153 89.7921 8.98369 -0.458592 0.888578 0.0110536
-37.6394 89.7631 10.3686 -0.461956 0.886854 0.00931141
-36.8192 90.169 12.1974 -0.46041 0.88768 0.00686254
-36.7688 90.208 10.706 -0.459113 0.888321 0.0100254
-36.7582 90.2322 9.1648 -0.458591 0.888579 0.0110504
-36.7253 90.2669 7.6458 -0.452822 0.89152 0.0120075
-36.7008 90.2935 6.34288 -0.455997 0.889952 0.0073048
-36.6384 90.3374 4.8841 -0.45532 0.890297 0.00734955
-36.5818 90.3795 3.50775 -0.448557 0.893724 0.00738213
-36.535 90.4178 2.08681 -0.453618 0.891164 0.00757602
-36.4604 90.4805 0.50286 -0.453213 0.891312 0.012704
-36.4509 90.4996 -0.773985 -0.453363 0.891282 0.00891576
-36.4152 90.5353 -2.33217 -0.450283 0.892834 0.00958962
-36.386 90.5685 -3.95158 -0.447641 0.894117 0.0131311
-36.3732 90.5908 -5.29928 -0.448001 0.893968 0.0107925
-36.3592 90.6107 -6.4937 -0.449317 0.893348 0.00656978
-35.3891 91.1047 -7.41136 -0.4444 0.895802 0.00693232
-35.4127 91.0744 -5.80055 -0.444088 0.895898 0.0123837
-35.4524 91.0299 -3.95829 -0.443391 0.896282 0.00915125
-35.4915 90.9991 -2.61405 -0.445411 0.895286 0.00852384
-35.5283 90.9646 -1.14898 -0.444423 0.895755 0.0105355
-35.5458 90.9443 0.176994 -0.440121 0.897822 0.0144962
-35.6155 90.8863 1.72269 -0.440871 0.897457 0.0142619
-35.6741 90.8373 3.17558 -0.440516 0.897683 0.0105511
-35.7272 90.7965 4.57482 -0.444598 0.895708 0.00625368
-35.8115 90.7398 6.15279 -0.447957 0.894012 0.00876701
-35.8543 90.7086 7.70045 -0.44985 0.893066 0.00818812
-35.8893 90.673 9.10955 -0.448233 0.893841 0.0116459
-35.9064 90.6489 10.4654 -0.448033 0.893994 0.00639926
-35.9581 90.6127 11.8194 -0.449354 0.893342 0.00464808
-35.9817 90.5933 13.3102 -0.456029 0.889937 0.00701453
-35.9835 90.5914 13.4117 -0.459771 0.887994 0.0087781
-35.123 91.0184 14.4326 -0.439614 0.898184 0.00201808
-35.1077 91.0303 13.0424 -0.43972 0.898089 0.00914339
-35.0693 91.0609 11.3781 -0.437978 0.898963 0.00647276
-35.0258 91.0921 9.84907 -0.442615 0.89664 0.0112962
-35.0025 91.12 8.59465 -0.440891 0.897497 0.0106914
-34.9644 91.1495 7.29747 -0.432437 0.901656 0.00375783
-34.8862 91.1992 5.50407 -0.4365 0.899669 0.00796621
-34.7979 91.2586 3.91072 -0.432266 0.901693 0.00979655
-34.7391 91.3038 2.50894 -0.433818 0.900926 0.011579
-34.6766 91.3564 1.16171 -0.440658 0.897574 0.0134884
-34.6229 91.3984 -0.318874 -0.431314 0.902153 0.00934649
-34.5789 91.4384 -1.98404 -0.436605 0.899606 0.0092508
-34.5384 91.4721 -3.3941 -0.429354 0.903105 0.00757806
-34.4894 91.5096 -4.70344 -0.432321 0.901625 0.0130858
-34.4588 91.5452 -6.18491 -0.434171 0.900716 0.0143363
-34.4293 91.5767 -7.69836 -0.429511 0.902989 0.0114459
-33.474 92.0358 -7.88421 -0.428365 0.903499 0.0138652
-33.5083 91.9965 -6.20519 -0.425021 0.90509 0.0130214
-33.5456 91.9582 -4.57113 -0.424044 0.905552 0.0127491
-33.5977 91.917 -3.18954 -0.428193 0.903663 0.00662436
-33.6579 91.8699 -1.64304 -0.423686 0.9057 0.0140258
-33.704 91.8357 -0.379932 -0.425546 0.904893 0.00893176
-33.7561 91.798 0.9818 -0.430034 0.902767 0.00905015
-33.8119 91.7546 2.2349 -0.434243 0.90071 0.0124164
-33.8966 91.6934 3.78706 -0.433172 0.90124 0.0113317
-33.9758 91.6398 5.22976 -0.431721 0.901972 0.00797588
-34.0415 91.5973 6.54575 -0.431437 0.902114 0.00720433
-34.0962 91.5637 7.8416 -0.432568 0.901594 0.00364409
-34.1367 91.5349 9.09887 -0.433868 0.900908 0.0111372
-34.1778 91.5002 10.4612 -0.430468 0.902575 0.00749956
-34.2101 91.4769 11.7452 -0.438353 0.898785 0.00560356
-34.2435 91.4536 13.0248 -0.439245 0.89834 0.00703022
-34.2667 91.4351 14.6754 -0.437825 0.899051 0.00398354
-34.2674 91.4348 14.7507 -0.435499 0.900187 -0.00201854
-33.4215 91.8443 14.7202 -0.43444 0.9007 0.00122004
-33.3911 91.8611 13.1095 -0.429587 0.903021 0.00292342
-33.3474 91.8904 11.7281 -0.42965 0.902989 0.00345473
-33.298 91.923 10.2315 -0.426373 0.904491 0.0101165
-33.2543 91.9552 8.82064 -0.421909 0.906608 0.00746443
-33.1926 91.9937 7.54937 -0.416187 0.909245 0.0078295
-33.1201 92.0399 5.97702 -0.424196 0.905534 0.00808596
-33.0408 92.0886 4.52007 -0.427054 0.904175 0.00963837
-32.9391 92.156 2.87995 -0.424633 0.905307 0.0102962
-32.861 92.2121 1.47837 -0.421182 0.906896 0.0120748
-32.7937 92.2606 -0.0493505 -0.421587 0.906747 0.00856589
-32.7256 92.3002 -1.49968 -0.418537 0.908133 0.010989
-32.6424 92.359 -3.18897 -0.418612 0.908118 0.00924452
-32.5794 92.4049 -4.74538 -0.409185 0.912399 0.00980412
-32.5234 92.4542 -6.47206 -0.411807 0.911147 0.0150144
-32.481 92.5001 -7.96131 -0.412157 0.910934 0.0180476
-32.4687 92.5112 -8.26644 -0.411221 0.911412 0.0150173
-31.4615 92.9583 -8.12708 -0.399117 0.916699 0.0192181
-31.5222 92.9043 -6.58859 -0.403366 0.91491 0.0153848
-31.587 92.8517 -4.9576 -0.40418 0.914616 0.0107795
-31.6496 92.8088 -3.63612 -0.407422 0.913173 0.0110751
-31.7183 92.7654 -2.37119 -0.406906 0.913438 0.00771275
-31.8118 92.7115 -0.854166 -0.401681 0.915731 0.00945675
-31.8836 92.6704 0.437161 -0.397221 0.917681 0.00877886
-31.958 92.6187 1.817 -0.404205 0.914518 0.0166032
-32.0494 92.5627 3.07788 -0.408254 0.912811 0.0102018
-32.1326 92.5091 4.412 -0.412808 0.910796 0.00630288
-32.2203 92.4585 6.00377 -0.409012 0.912466 0.010778
-32.2979 92.4076 7.30915 -0.417269 0.908707 0.0117977
-32.3717 92.3632 8.72953 -0.415343 0.909658 0.00345968
-32.4246 92.336 10.043 -0.419682 0.907667 0.00294156
-32.4732 92.3019 11.3362 -0.425464 0.90496 0.00533119
-32.5261 92.2754 12.7257 -0.425236 0.905083 0.000316998
-32.5779 92.2483 14.4213 -0.425719 0.904855 -0.000447276
-32.5821 92.2479 15.0814 -0.425211 0.905092 -0.0022836
-31.7436 92.6409 14.9933 -0.416576 0.909095 -0.0031055
-31.7049 92.655 13.6876 -0.410656 0.911789 -0.00129725
-31.6301 92.6831 11.8298 -0.406269 0.913752 -0.00164908
-31.5736 92.7198 10.3872 -0.412572 0.910902 0.00648286
-31.5015 92.7604 8.84655 -0.415597 0.909544 0.00305934
-31.4215 92.8028 7.42414 -0.408578 0.912705 0.00581004
-31.329 92.8572 6.05003 -0.408408 0.912729 0.0113365
-31.2293 92.9147 4.54914 -0.408819 0.912603 0.00479531
-31.112 92.977 2.85152 -0.400209 0.916366 0.0103149
-31.0167 93.0325 1.54614 -0.394252 0.918921 0.0122273
-30.9205 93.0883 0.0802095 -0.396083 0.918179 0.00806601
-30.8359 93.1398 -1.31663 -0.391959 0.919891 0.0130104
-30.7285 93.2023 -2.65844 -0.396845 0.917843 0.00882214
-30.6515 93.2529 -4.00719 -0.403645 0.914832 0.0123703
-30.5662 93.3106 -5.51567 -0.405283 0.914109 0.0122688
-30.4739 93.3748 -7.23027 -0.40212 0.915495 0.0129548
-30.4702 93.3776 -7.30743 -0.40212 0.915495 0.0129548
-29.4297 93.8217 -7.72247 -0.383691 0.923391 0.0113773
-29.5052 93.7698 -6.37457 -0.375363 0.926738 0.0161264
-29.6079 93.7067 -4.95054 -0.386934 0.922044 0.0108291
-29.714 93.6505 -3.51257 -0.384962 0.922878 0.0100113
-29.8139 93.584 -1.94774 -0.385511 0.922569 0.0157139
-29.9157 93.5227 -0.694999 -0.382586 0.923872 0.00936458
-30.0238 93.4629 0.691014 -0.389095 0.921092 0.0139395
-30.1211 93.4099 2.00651 -0.384939 0.922918 0.00662695
-30.2379 93.3519 3.41334 -0.384657 0.923042 0.00578563
-30.3342 93.296 4.83479 -0.392082 0.91991 0.00614117
-30.4596 93.2349 6.29426 -0.398043 0.917326 0.00869787
-30.564 93.1808 7.70229 -0.395899 0.918288 0.00329385
-30.6504 93.1338 9.18397 -0.39854 0.917113 0.00835265
-30.7198 93.0936 10.6088 -0.395888 0.918291 0.00389582
-30.7752 93.0617 11.9938 -0.400293 0.916385 0.00211802
-30.8358 93.0381 13.3916 -0.40456 0.914469 -0.00882853
-30.9069 93.0168 15.0425 -0.410255 0.911964 -0.00362919
-30.0374 93.4007 14.8308 -0.405018 0.91425 -0.0104111
-29.9727 93.4167 13.2977 -0.388345 0.92147 -0.00901788
-29.9062 93.4419 11.706 -0.400287 0.916387 0.00210912
-29.8232 93.4835 10.0376 -0.393455 0.919306 0.00831815
-29.7437 93.5292 8.62573 -0.393406 0.91934 0.00683049
-29.6283 93.5851 6.98797 -0.383026 0.923726 0.00466949
-29.464 93.662 5.1473 -0.379254 0.925264 0.00729144
-29.3345 93.7252 3.71922 -0.373749 0.927494 0.0081746
-29.2048 93.7898 2.19219 -0.3686 0.92956 0.00720005
-29.0687 93.8585 0.664315 -0.367863 0.929819 0.0106798
-28.9181 93.9431 -1.03077 -0.376306 0.926321 0.0180006
-28.792 94.014 -2.60012 -0.368847 0.929433 0.0102798
-28.6915 94.07 -3.98631 -0.361407 0.93232 0.0127903
-28.5659 94.1374 -5.5159 -0.372948 0.927792 0.0105392
-28.4577 94.1986 -6.7918 -0.371061 0.928479 0.0155218
-28.4123 94.2271 -7.41402 -0.372925 0.927736 0.0152444
-27.4252 94.6111 -7.04508 -0.365048 0.930877 0.0143788
-27.5073 94.5482 -5.75381 -0.351678 0.935899 0.0203732
-27.6398 94.4783 -4.32942 -0.353259 0.93551 0.00540186
-27.7838 94.412 -2.76701 -0.358185 0.933606 0.00918335
-27.937 94.3286 -1.06002 -0.359331 0.933121 0.0129292
-28.1181 94.232 0.742618 -0.363841 0.931415 0.00926827
-28.2491 94.1696 2.08728 -0.369403 0.92925 0.00599195
-28.3902 94.1065 3.48273 -0.370105 0.92898 0.00429145
-28.5275 94.0433 4.9013 -0.374716 0.927129 0.00448035
-28.6762 93.9774 6.4241 -0.369195 0.929352 0.000601654
-28.78 93.9343 7.6905 -0.368989 0.929431 0.00213641
-28.8811 93.887 9.03549 -0.376166 0.926527 0.00682602
-28.9881 93.8341 10.6472 -0.370922 0.928646 0.00572962
-29.0614 93.7976 11.929 -0.383659 0.92346 -0.0052212
-29.1273 93.7738 13.2888 -0.389594 0.920978 -0.004095
-29.1465 93.7747 14.2963 -0.38834 0.921472 -0.00901397
-28.299 94.1215 13.9153 -0.3731 0.927781 -0.00435983
-28.2311 94.1403 12.5136 -0.368313 0.929692 -0.00429626
-28.1469 94.1645 11.1797 -0.365858 0.930671 0.000397435
-28.0527 94.2081 9.91246 -0.36483 0.931072 0.00184542
-27.9438 94.2643 8.49301 -0.352852 0.93562 0.0105349
-27.8361 94.31 7.18254 -0.368813 0.929502 0.00181304
-27.7117 94.3623 5.92646 -0.34837 0.937345 0.00483874
-27.5512 94.4291 4.40393 -0.360068 0.932925 0.00163708
-27.4118 94.4938 3.04657 -0.343858 0.939021 0.000928418
-27.2504 94.5598 1.62058 -0.356034 0.934335 0.0160554
-27.0774 94.6385 0.142353 -0.342432 0.939537 0.00330713
-26.9342 94.712 -1.20792 -0.34478 0.938462 0.0203962
-26.7929 94.783 -2.65389 -0.331319 0.943465 0.0100381
-26.6563 94.8409 -3.97324 -0.34742 0.937703 0.00344124
-26.5069 94.9172 -5.65665 -0.331226 0.943382 0.0178617
-26.435 94.9515 -6.38532 -0.323044 0.946295 0.0129725
-25.4025 95.2961 -6.02748 -0.307867 0.951338 0.0131882
-25.5695 95.2259 -4.65521 -0.310103 0.950629 0.0118897
-25.7108 95.1608 -3.26275 -0.318121 0.948026 0.00676706
-25.8937 95.0841 -1.64528 -0.321894 0.946715 0.0107251
-26.0323 95.0254 -0.396235 -0.320294 0.947296 0.00646505
-26.2368 94.9318 1.25732 -0.335532 0.941933 0.01342
-26.4177 94.8526 2.66453 -0.333467 0.942735 0.00704812
-26.5992 94.78 4.26765 -0.333263 0.942822 0.00475508
-26.7428 94.7243 5.54735 -0.346832 0.937905 0.00643472
-26.9001 94.6592 7.02183 -0.343636 0.939017 -0.0127336
-27.0256 94.6035 8.39189 -0.335929 0.941856 0.00769154
-27.1433 94.5549 9.66867 -0.34362 0.939093 0.00545352
-27.2496 94.5136 10.9786 -0.351891 0.936041 -0.000181971
-27.3407 94.4824 12.2632 -0.346396 0.938074 -0.00522831
-27.406 94.4669 13.1304 -0.351403 0.936145 -0.0121787
-26.5532 94.7821 13.0256 -0.348726 0.937144 -0.0123105
-26.4296 94.8164 11.7116 -0.337998 0.941142 -0.00297915
-26.3067 94.8547 10.3246 -0.330453 0.943802 0.00617643
-26.2038 94.8941 9.07655 -0.336733 0.941597 -0.00255728
-26.057 94.9429 7.6979 -0.325047 0.945695 0.00223744
-25.9211 95.0014 6.44766 -0.320711 0.947153 0.00684331
-25.7768 95.0593 5.18727 -0.320596 0.947193 0.00662697
-25.6063 95.1273 3.85812 -0.314841 0.949018 0.0154927
-25.4165 95.2027 2.40395 -0.30743 0.951559 0.00472677
-25.1775 95.2994 0.715639 -0.314909 0.949057 0.0110882
-24.994 95.3748 -0.694467 -0.308134 0.951286 0.0104329
-24.7798 95.4625 -2.33348 -0.304999 0.952326 0.00718354
-24.5813 95.532 -3.89245 -0.306182 0.951973 0.000489378
-24.4356 95.5926 -5.13587 -0.302547 0.952952 0.0186378
-24.4248 95.5981 -5.24025 -0.302551 0.952951 0.0186333
-23.2415 95.9448 -5.264 -0.281039 0.959562 0.0160612
-23.4803 95.8562 -3.94405 -0.279878 0.960006 0.00757456
-23.6708 95.7948 -2.70355 -0.269876 0.962893 -0.0021745
-23.8852 95.7336 -1.37602 -0.292983 0.956042 0.0120602
-24.1074 95.647 0.146269 -0.29901 0.954185 0.0111147
-24.31 95.5663 1.53592 -0.286769 0.957988 0.00469203
-24.4951 95.4986 2.77642 -0.30495 0.952315 0.0100762
-24.6888 95.4171 4.09007 -0.300612 0.953675 0.0116882
-24.9055 95.3382 5.67287 -0.297206 0.954807 0.00361495
-25.1293 95.2611 7.43328 -0.299379 0.954092 0.00903524
-25.2913 95.208 8.757 -0.305096 0.952321 -0.000575178
-25.4326 95.1553 10.3091 -0.322808 0.946446 0.00598059
-25.5615 95.1102 11.5734 -0.322385 0.946523 -0.0127091
-25.6327 95.1037 12.413 -0.327077 0.94486 -0.016141
-24.7494 95.3969 12.0299 -0.316278 0.94856 -0.0142194
-24.6261 95.4277 10.7345 -0.310397 0.950606 -0.0010502
-24.4617 95.4727 9.27904 -0.299357 0.95413 0.00452071
-24.288 95.5192 7.88603 -0.289589 0.957101 -0.00981658
-24.0634 95.5998 6.28398 -0.285497 0.958379 -0.000526647
-23.8484 95.6714 4.81521 -0.285046 0.958464 0.00977749
-23.6489 95.7382 3.57691 -0.271581 0.962355 0.010806
-23.4241 95.8207 2.18408 -0.274793 0.961378 0.015523
-23.186 95.9159 0.693168 -0.275862 0.961149 0.00960023
-22.9052 96.0044 -0.906474 -0.256521 0.966537 0.00160577
-22.6166 96.0908 -2.45772 -0.2679 0.963443 0.00257641
-22.3903 96.1547 -3.70935 -0.261588 0.965162 0.00579626
-22.2034 96.2155 -4.71641 -0.259332 0.965703 0.0128586
-21.0528 96.5019 -4.67966 -0.220487 0.975359 0.00773986
-21.3683 96.4153 -3.23055 -0.235397 0.971847 0.0100283
-21.6166 96.346 -2.00537 -0.246907 0.969039 -0.000161095
-21.874 96.2728 -0.764616 -0.247698 0.968827 0.0045567
-22.1567 96.1889 0.692009 -0.246587 0.969077 0.00915747
-22.4202 96.1105 2.1047 -0.252827 0.967358 0.0172237
-22.656 96.0195 3.42966 -0.262357 0.96497 -0.00116995
-22.8995 95.948 4.83771 -0.277195 0.960807 0.00356411
-23.1064 95.8855 6.08132 -0.286813 0.957986 0.00116089
-23.3205 95.8185 7.47399 -0.2852 0.95846 0.00388231
-23.5057 95.7649 8.76222 -0.289589 0.957101 -0.00981684
-23.7058 95.7114 10.3188 -0.289812 0.957082 -0.00186655
-23.8993 95.6697 12.0356 -0.284736 0.958359 -0.0217355
-23.9154 95.6678 12.1958 -0.295789 0.955133 -0.0151953
-23.0104 95.923 11.5597 -0.285379 0.958231 -0.0187754
-22.8323 95.9675 10.2967 -0.277776 0.960646 -0.000270201
-22.5973 96.0284 8.7788 -0.268966 0.963068 -0.0125392
-22.334 96.0964 7.0364 -0.257762 0.966148 0.0107927
-22.0877 96.1701 5.62349 -0.261437 0.965214 0.00360969
-21.7899 96.2507 4.00825 -0.25393 0.967209 0.00518837
-21.4603 96.3498 2.31503 -0.245503 0.969245 0.0171054
-21.1708 96.4411 0.881428 -0.237243 0.97145 -0.000875015
-20.8746 96.5169 -0.534471 -0.232026 0.972708 0.0018813
-20.5387 96.5953 -1.99161 -0.196667 0.980446 0.00689239
-20.1331 96.6839 -3.58835 -0.184679 0.982734 0.0113379
-19.8631 96.7457 -4.5477 -0.183984 0.982849 0.0125881
-18.5901 96.9886 -4.86635 -0.183279 0.982617 0.0295448
-19.0127 96.8905 -3.43352 -0.174634 0.984594 0.00879811
-19.3894 96.8218 -2.11891 -0.169818 0.985474 0.00188625
-19.8107 96.7361 -0.525602 -0.186386 0.98247 -0.00354987
-20.1443 96.6692 0.910929 -0.191343 0.981417 0.0144712
-20.4402 96.591 2.23826 -0.223022 0.974487 0.0252074
-20.6941 96.5111 3.46242 -0.226527 0.973834 0.0182274
-20.9646 96.4492 4.77532 -0.215157 0.976574 0.00311546
-21.226 96.3763 6.12806 -0.227996 0.973662 -0.000171918
-21.4727 96.3201 7.41208 -0.235176 0.971953 -0.000632942
-21.7313 96.2579 8.94009 -0.243928 0.969787 0.00349504
-21.9354 96.2069 10.247 -0.241734 0.970336 -0.00352855
-22.107 96.1768 11.433 -0.253248 0.967341 -0.0107995
-21.204 96.3991 11.3188 -0.230112 0.973065 -0.0139135
-21.0284 96.4321 10.062 -0.243287 0.969932 -0.00662151
-20.7287 96.4985 8.46164 -0.231726 0.972779 -0.00182317
-20.4749 96.5619 7.16274 -0.220358 0.975384 -0.00828264
-20.1847 96.6143 5.70458 -0.212205 0.977188 0.00856945
-19.9005 96.6817 4.39675 -0.211235 0.977434 -0.00162421
-19.6361 96.7521 3.17611 -0.199379 0.979846 0.0122474
-19.2683 96.8298 1.61574 -0.190188 0.981711 0.00844309
-18.8913 96.9031 0.138296 -0.167136 0.985902 0.00788442
-18.5015 96.9719 -1.30925 -0.160136 0.987092 -0.00255286
-18.1391 97.0343 -2.55772 -0.140418 0.990092 -0.000862469
-17.5836 97.1257 -4.33096 -0.140272 0.990088 0.00699846
-17.5695 97.1283 -4.37399 -0.136929 0.990071 0.0317688
-16.2387 97.2908 -4.58022 -0.0927113 0.995668 0.00699494
-16.7284 97.2384 -3.27653 -0.116596 0.993159 0.0063736
-17.2652 97.1679 -1.65374 -0.148614 0.988894 -0.0012888
-17.6384 97.1076 -0.458609 -0.133451 0.991006 0.00987846
-17.9792 97.047 0.746897 -0.133925 0.99099 0.00193102
-18.305 96.9899 1.96847 -0.152966 0.988204 -0.00741041
-18.6811 96.9256 3.45353 -0.173174 0.984821 0.0117929
-19.0323 96.8513 4.92289 -0.18218 0.983222 0.00918646
-19.3623 96.7873 6.34589 -0.201005 0.979586 0.00289474
-19.6919 96.7316 7.86543 -0.208542 0.978012 -0.00197396
-19.962 96.6645 9.23958 -0.208964 0.977919 0.00303703
-20.2148 96.6225 10.4936 -0.210002 0.977602 -0.0138813
-20.3345 96.6063 11.1658 -0.221365 0.975146 -0.00935406
-19.4099 96.8052 11.0644 -0.20795 0.977754 -0.0274557
-19.078 96.844 9.44039 -0.199365 0.979773 -0.0172742
-18.8205 96.9017 8.21289 -0.178993 0.983849 0.0013844
-18.5013 96.9463 6.8448 -0.171429 0.985011 -0.0191038
-18.1764 96.9962 5.49068 -0.170748 0.985296 0.0061146
-17.7781 97.0728 3.90488 -0.154268 0.988017 0.00488687
-17.4423 97.1261 2.674 -0.150154 0.98866 -0.00210738
-17.04 97.1765 1.28224 -0.132299 0.99118 -0.00764317
-16.6049 97.2419 -0.132941 -0.131368 0.991299 0.00823585
-16.1727 97.2972 -1.43034 -0.115342 0.993304 -0.00664973
-15.7138 97.3383 -2.69269 -0.100296 0.994905 -0.0102523
-15.1926 97.3799 -3.94504 -0.057537 0.998312 0.00789707
-14.9084 97.4012 -4.57202 -0.0596601 0.998149 0.0117974
-13.5291 97.4766 -4.90681 -0.0177876 0.999841 0.000886703
-14.2395 97.439 -3.23777 -0.0651245 0.997851 -0.00716361
-14.8044 97.4082 -1.90832 -0.0695004 0.997568 -0.00523242
-15.3035 97.3735 -0.582475 -0.0816597 0.996656 0.00286631
-15.7576 97.3217 0.704134 -0.0977663 0.99517 0.00887968
-16.2601 97.2638 2.25481 -0.109426 0.993993 0.00206547
-16.6636 97.2239 3.61292 -0.108625 0.994081 -0.00188036
-17.0345 97.1724 4.9336 -0.139048 0.990285 0.000648396
-17.4103 97.1115 6.32828 -0.156012 0.987742 0.00516886
-17.7468 97.0647 7.75527 -0.138456 0.990366 0.00211439
-18.0609 97.0169 9.06432 -0.148 0.988987 0.000460596
-18.3272 96.9823 10.3261 -0.14938 0.988708 -0.0118913
-18.4194 96.9782 10.858 -0.147431 0.988559 -0.031868
-17.4438 97.1199 10.5821 -0.131743 0.99126 -0.00691484
-17.1349 97.1468 9.13246 -0.122547 0.992369 -0.0136176
-16.8219 97.192 7.8443 -0.131832 0.991213 0.0108579
-16.4656 97.2348 6.5031 -0.129705 0.991468 -0.0129729
-16.0707 97.2854 5.12199 -0.107747 0.994142 0.00843888
-15.6496 97.3318 3.7073 -0.0918817 0.995711 0.0108149
-15.1714 97.3744 2.20961 -0.100247 0.994704 -0.0226601
-14.6393 97.4068 0.662597 -0.0475989 0.998866 -0.00141224
-14.1443 97.4436 -0.642527 -0.0475289 0.998733 0.0165286
-13.5485 97.4752 -2.05767 -0.0250352 0.999645 0.00911952
-13.0105 97.4922 -3.29837 -0.0365614 0.999306 -0.00705926
-12.5283 97.4875 -4.46113 0.000194177 0.999961 -0.00880176
-12.3241 97.4815 -4.90048 0.00241112 0.999919 -0.012533
-11.1828 97.4503 -4.66945 0.036107 0.999304 -0.00933768
-11.7428 97.4879 -3.52198 0.0387464 0.999177 -0.011987
-12.3173 97.4853 -2.20676 -0.000416261 0.999879 0.0155272
-12.8665 97.4762 -0.959 -0.00353057 0.999914 0.0126312
-13.3545 97.4673 0.235078 -0.0284812 0.999557 0.00867404
-13.8292 97.4497 1.49799 -0.0430787 0.999049 -0.00678082
-14.3543 97.4441 2.9579 -0.052107 0.99864 -0.00194131
-14.8361 97.3988 4.40926 -0.0710205 0.99733 0.016996
-15.2141 97.3599 5.64129 -0.0677702 0.997699 0.00197811
-15.6157 97.3251 6.99019 -0.0932283 0.995612 -0.00808087
-16.0541 97.278 8.52509 -0.11397 0.993423 0.0110327
-16.3596 97.2469 9.77935 -0.117402 0.993058 -0.00728934
-16.5138 97.2366 10.4019 -0.115105 0.99325 -0.014302
-15.5751 97.3303 10.3508 -0.0741553 0.997147 -0.0141299
-15.1618 97.3482 8.75082 -0.076373 0.997075 0.0028448
-14.7883 97.3801 7.49639 -0.0521938 0.99856 0.0124392
-14.4193 97.4136 6.30316 -0.0689605 0.997619 0.000474121
-13.8634 97.4515 4.58232 -0.0409385 0.99915 0.00473639
-13.3496 97.479 3.13051 -0.0172885 0.999847 -0.00265693
-12.694 97.4915 1.43443 -0.0332079 0.99934 -0.0147547
-12.1561 97.4812 0.115845 -0.00517447 0.999874 -0.0149828
-11.624 97.4759 -1.12931 0.00798027 0.999962 0.00342333
-11.0225 97.4662 -2.47128 0.0561215 0.998423 -0.00137442
-10.3525 97.4152 -3.83813 0.0650151 0.997835 -0.00987466
-9.93639 97.3945 -4.66364 0.0686645 0.997557 -0.0128711
-8.57716 97.2399 -4.8655 0.120623 0.992371 -0.025483
-9.18632 97.3282 -3.70718 0.102013 0.994765 -0.00595731
-9.79277 97.3834 -2.52413 0.0876272 0.996116 0.00865527
-10.3997 97.4315 -1.25272 0.0543351 0.998519 -0.00257554
-10.9258 97.4534 -0.0945205 0.0277701 0.999613 -0.00148045
-11.4511 97.4753 1.1108 0.0495949 0.998759 -0.00451602
-11.9893 97.4887 2.42171 0.00920018 0.999946 0.0049333
-12.4661 97.4817 3.61904 0.0181075 0.999517 0.0252589
-13.0295 97.4599 5.16465 -0.0168768 0.999789 0.0117114
-13.486 97.4492 6.51771 -0.0164293 0.999827 0.00867893
-13.8927 97.4244 7.72635 -0.0470763 0.998883 0.00415522
-14.3227 97.4032 9.141 -0.0398084 0.999056 -0.0173651
-14.5578 97.3992 9.96496 -0.0727403 0.997301 -0.00997391
-13.5224 97.441 9.62895 -0.0343109 0.999339 -0.0120515
-13.1115 97.4424 8.34831 -0.0207394 0.999783 -0.00188619
-12.6838 97.4536 7.0648 0.00971854 0.999946 0.00367756
-12.1146 97.4586 5.47389 0.0145548 0.999799 0.0138125
-11.6112 97.4529 4.14546 0.019648 0.999711 0.0138262
-11.1049 97.455 2.91171 0.0323743 0.99939 0.0131181
-10.6019 97.4351 1.72351 0.0644539 0.997917 0.00284087
-9.94833 97.3931 0.252262 0.0730922 0.997266 0.0109071
-9.39417 97.3645 -0.883003 0.0883198 0.996092 -0.000292769
-8.81962 97.2904 -2.05683 0.111776 0.993719 -0.00539861
-8.20536 97.2191 -3.24843 0.133244 0.991047 -0.00842339
-7.4404 97.0821 -4.63954 0.157935 0.987263 -0.0192047
-7.40346 97.0759 -4.70312 0.145563 0.989349 0.000648734
-6.17869 96.876 -4.59984 0.176885 0.984232 -0.000286879
-7.00296 97.0307 -3.19685 0.16456 0.986261 -0.0144675
-7.6194 97.1483 -2.04069 0.152598 0.988286 -0.00234338
-8.22884 97.2314 -0.869433 0.130598 0.991421 0.00541853
-9.02938 97.3119 0.732846 0.0878006 0.99613 0.00409974
-9.60999 97.3557 1.99009 0.0781726 0.996922 0.00598011
-10.1945 97.403 3.32614 0.0661291 0.997806 0.00319244
-10.689 97.4148 4.49462 0.044367 0.99896 0.0105389
-11.3832 97.4431 6.25847 0.0101274 0.999945 0.00268684
-11.9876 97.4356 7.86504 0.0187848 0.999701 0.0156333
-12.4849 97.437 9.27168 0.00227722 0.999976 -0.00647039
-12.5533 97.4423 9.49122 0.00646837 0.999741 -0.0218034
-11.6553 97.4346 9.57878 0.0277826 0.999422 -0.0195849
-11.192 97.4135 8.35949 0.036119 0.999338 -0.00428975
-10.612 97.3982 6.88103 0.0448584 0.998984 0.00426027
-10.0598 97.3779 5.52528 0.0640734 0.997936 0.00428195
-9.48896 97.3504 4.20332 0.0706631 0.997447 0.0103189
-8.92827 97.3043 2.95374 0.106406 0.994163 -0.0178526
-8.23039 97.2299 1.45068 0.0962014 0.995346 0.00561158
-7.55835 97.1432 0.0961316 0.1292 0.991601 -0.0058778
-6.95081 97.0453 -1.0626 0.183123 0.983054 0.00839013
-6.11843 96.882 -2.56246 0.182673 0.983062 -0.0148022
-5.30485 96.7131 -3.947 0.214238 0.976761 -0.0063125
-4.99677 96.6425 -4.45425 0.21254 0.977147 -0.00336719
-3.57507 96.3056 -4.70152 0.242751 0.970086 -0.00229537
-4.36413 96.507 -3.42341 0.23486 0.972024 -0.00315517
-4.99979 96.6563 -2.34803 0.223305 0.974724 -0.00696317
-5.74617 96.8209 -1.06156 0.185531 0.982631 0.00392387
-6.45113 96.9624 0.224296 0.174404 0.984603 -0.0118268
-7.17419 97.0949 1.62523 0.131787 0.99127 0.0038987
-7.7428 97.169 2.81561 0.135958 0.990702 0.00500955
-8.33151 97.2385 4.05069 0.118748 0.992912 0.00499275
-8.95889 97.3037 5.43664 0.0837689 0.996468 0.00581835
-9.54296 97.3423 6.77362 0.0642991 0.997899 -0.00790107
-10.0695 97.3679 8.052 0.0401726 0.999192 0.00157516
-10.5334 97.3932 9.20613 0.0314729 0.999433 -0.0119555
-9.49969 97.3345 9.15467 0.057514 0.998332 -0.00509045
-9.00827 97.2852 7.98224 0.0888181 0.9959 0.0171706
-8.49982 97.2516 6.80636 0.106821 0.994275 0.00238742
-7.8783 97.18 5.3947 0.1234 0.992328 -0.00753361
-7.32264 97.1084 4.24098 0.144807 0.989459 -0.00137474
-6.77105 97.0268 3.11366 0.168771 0.985616 0.00876125
-6.1399 96.9239 1.89205 0.170696 0.985319 0.00318752
-5.49374 96.7815 0.654818 0.198025 0.980005 -0.0193847
-4.73468 96.6015 -0.729334 0.22817 0.973548 -0.0119393
-4.09643 96.4462 -1.81796 0.234103 0.972211 -0.00135856
-3.39678 96.2561 -2.98371 0.253186 0.967406 -0.00470912
-2.71013 96.0704 -4.0877 0.265491 0.964113 0.000806744
-2.28644 95.9555 -4.75057 0.280402 0.959875 0.00376192
-1.44835 95.6928 -4.16866 0.325999 0.945348 0.00653595
-2.28866 95.947 -2.82142 0.279828 0.960049 0.00161849
-2.98915 96.1549 -1.6735 0.271724 0.962359 -0.0055694
-3.71023 96.3506 -0.451065 0.257638 0.966239 -0.00204361
-4.48076 96.5537 0.943615 0.242566 0.970087 -0.00962342
-5.1278 96.7141 2.13075 0.211885 0.977252 0.00913205
-5.79642 96.8464 3.40425 0.214129 0.976709 0.0137251
-6.38191 96.9537 4.58437 0.170576 0.985321 -0.00684235
-7.01809 97.0724 5.87559 0.150435 0.988593 -0.0073451
-7.5605 97.1273 7.05319 0.144402 0.989443 0.0122848
-8.15146 97.1904 8.40643 0.136354 0.990645 0.00550947
-8.30461 97.2093 8.758 0.107951 0.994149 0.00373698
-7.19824 97.0552 8.59389 0.160746 0.986993 -0.00242864
-6.64238 96.976 7.32574 0.18191 0.983092 0.0209349
-6.09497 96.8937 6.20422 0.196884 0.980323 0.014248
-5.48867 96.7766 4.98722 0.205855 0.97857 0.00491306
-4.73878 96.6135 3.53483 0.236051 0.971639 0.0140748
-4.01746 96.4446 2.19307 0.249776 0.96827 0.00807705
-3.27855 96.2427 0.855999 0.254668 0.966981 -0.00964232
-2.53002 96.02 -0.439887 0.286464 0.958077 -0.00515819
-1.88316 95.8257 -1.52605 0.288343 0.957524 0.00242981
-1.01174 95.5373 -2.94484 0.31324 0.949674 -0.0010854
-0.332937 95.307 -3.99728 0.326008 0.945344 0.00653731
0.0569811 95.1723 -4.57741 0.34332 0.939197 0.00641897
1.26291 94.7269 -4.57061 0.352828 0.935665 0.00664495
0.483011 95.017 -3.3893 0.341757 0.939772 -0.00554345
-0.363227 95.3219 -2.0512 0.323086 0.946368 -0.00168921
-1.2497 95.6211 -0.614184 0.31213 0.950039 -0.000820323
-1.93668 95.8511 0.547266 0.300815 0.953675 -0.00373926
-2.56227 96.0461 1.63646 0.293899 0.955801 -0.00822779
-3.22739 96.2334 2.82675 0.260741 0.965408 -0.000749547
-3.92154 96.4153 4.10399 0.254173 0.967159 -0.000225595
-4.55556 96.5666 5.3078 0.221279 0.9752 0.00464941
-5.13581 96.6906 6.42932 0.205679 0.978618 0.00182334
-5.70883 96.7932 7.59353 0.185608 0.982574 0.00991026
-6.1019 96.8663 8.43228 0.184085 0.982909 -0.00175475
-4.92606 96.6384 8.1439 0.213281 0.976973 0.00584616
-4.23661 96.4916 6.77094 0.220219 0.97545 0.000827613
-3.6102 96.3376 5.60477 0.250947 0.967998 -0.00231357
-2.88156 96.1381 4.25183 0.266706 0.963778 -0.000126843
-2.11733 95.9211 2.87304 0.292353 0.956272 -0.00856136
-1.41095 95.6869 1.63239 0.312607 0.949824 -0.0105663
-0.716242 95.4509 0.454724 0.311224 0.950301 -0.00823729
0.156516 95.1421 -0.974864 0.334 0.942526 -0.00941408
1.07347 94.8004 -2.43473 0.350854 0.936429 0.00131951
1.74684 94.5424 -3.48867 0.358504 0.933516 -0.00481436
2.0682 94.4178 -3.97856 0.361921 0.932207 0.00167666
2.82615 94.1144 -3.31473 0.375415 0.926848 -0.00411624
2.13808 94.3988 -2.24166 0.362528 0.931956 -0.0055985
1.30079 94.721 -0.918401 0.349734 0.936819 -0.00753891
0.470412 95.0423 0.417308 0.346485 0.93801 -0.00928308
-0.271917 95.31 1.64812 0.328959 0.944285 -0.0105934
-0.990457 95.5633 2.88119 0.319179 0.947656 -0.00853505
-1.72437 95.8046 4.18766 0.293944 0.955817 0.00316232
-2.49345 96.0291 5.58195 0.275733 0.961223 0.00471225
-3.12754 96.2151 6.7511 0.265737 0.964043 -0.00215261
-3.77044 96.3769 7.94572 0.239934 0.970786 0.00247648
-2.5186 96.0483 7.62759 0.268786 0.963197 -0.00222705
-1.862 95.8403 6.43216 0.298311 0.954437 -0.00781624
-1.15321 95.6217 5.16213 0.304581 0.952473 0.00504731
-0.389728 95.3687 3.79975 0.321329 0.946954 -0.00508319
0.300133 95.1176 2.61524 0.334802 0.942213 -0.0119294
1.06688 94.8295 1.3342 0.349222 0.937038 -0.00185553
1.8023 94.5481 0.144848 0.353402 0.935455 -0.00557162
2.54703 94.2394 -1.04023 0.374765 0.927094 -0.00691232
3.24268 93.9501 -2.13379 0.39231 0.919822 -0.00456839
3.28961 93.9298 -2.20719 0.392307 0.919823 -0.00456264
3.74405 93.7456 -1.09459 0.390465 0.920563 -0.0100732
2.97853 94.0741 0.114989 0.384805 0.922941 -0.0102303
2.24386 94.3813 1.29155 0.361951 0.93215 -0.00941491
1.58662 94.6415 2.36668 0.355174 0.934793 -0.00364437
0.911133 94.9032 3.49526 0.348531 0.93729 -0.00382025
0.152106 95.1808 4.8014 0.340729 0.940159 -0.0022285
-0.73666 95.4856 6.38657 0.319215 0.947655 -0.00711536
-1.23998 95.6556 7.27691 0.304342 0.952488 -0.0119726
0.232624 95.1559 6.59304 0.33133 0.943515 -0.000617579
0.872673 94.9209 5.47083 0.342671 0.939454 -0.0016531
1.65171 94.6287 4.12946 0.350858 0.936416 -0.00490337
2.41173 94.3242 2.87131 0.363154 0.931699 -0.00744482
3.12902 94.03 1.70892 0.384526 0.923046 -0.0112078
3.9556 93.6662 0.391377 0.392397 0.919762 -0.00785848
4.07566 93.6143 0.204187 0.390691 0.920511 -0.00459637
3.75172 93.7758 2.52741 0.389518 0.920949 -0.0113656
3.10905 94.0499 3.5702 0.382505 0.923939 -0.00510988
2.22853 94.4149 5.04627 0.374012 0.927379 -0.00913697
2.19261 94.43 5.10771 0.361189 0.932473 -0.00599598
