-24.0437 96.882 11.7255 -0.297086 0.954793 -0.0062902
-23.0532 97.1595 11.3104 -0.263428 0.964319 -0.0260184
-21.9159 97.4604 10.9725 -0.253089 0.967381 -0.00646331
-20.6335 97.7565 10.8362 -0.218649 0.975784 -0.00364929
-19.2801 98.0433 10.5508 -0.204763 0.978785 -0.00624591
-18.2283 98.2208 10.3806 -0.158751 0.987101 -0.0180998
-17.1602 98.3812 10.1458 -0.133155 0.990833 -0.00580394
-15.8982 98.5209 9.82714 -0.0979117 0.995121 -0.00332696
-14.661 98.6278 9.53147 -0.0865663 0.996245 -0.00121805
-13.4897 98.6834 9.28339 -0.0345176 0.999386 -0.00547399
-12.4479 98.6929 9.00696 0.00387003 0.999959 0.0081289
-11.1528 98.664 8.71205 0.0355667 0.999338 0.00765085
-10.013 98.5917 8.41259 0.0719585 0.997405 -0.00211709
-8.81401 98.4892 8.06809 0.111324 0.993777 0.00151556
-7.65108 98.3484 7.67703 0.14138 0.989912 0.00200311
-6.60468 98.1836 7.25631 0.174811 0.984597 0.00237233
-5.3402 97.9493 6.80802 0.190181 0.981748 0.00168572
-4.18745 97.6984 6.31259 0.222962 0.974778 -0.00931583
-3.15802 97.4471 5.66057 0.250677 0.968026 -0.00927581
-2.29704 97.2122 5.01249 0.265961 0.963924 -0.0106978
-1.47998 96.9745 4.17945 0.289648 0.957109 -0.00681399
-0.812816 96.7646 3.28561 0.301753 0.953239 -0.0119567
-0.194685 96.5427 1.92482 0.307692 0.951407 -0.0114627
0.0114623 96.4664 0.80175 0.317979 0.948075 -0.00647624
-0.617133 96.6668 -0.505424 0.308672 0.951157 0.00426486
-1.75623 97.0308 -1.31671 0.287982 0.957553 0.0125895
-2.85092 97.3546 -1.67909 0.263446 0.964633 0.00885719
-3.921 97.633 -1.91098 0.234468 0.972022 0.0140991
-5.1565 97.9194 -2.19106 0.205833 0.978383 0.0103441
-6.25658 98.1294 -2.52025 0.184651 0.982799 0.00308039
-7.37343 98.3127 -2.89368 0.141432 0.989804 0.00323012
-8.76329 98.4807 -3.20702 0.100103 0.994912 0.01142
-10.0874 98.5905 -3.36624 0.0643506 0.997904 0.00683952
-11.1772 98.6486 -3.45632 0.0357523 0.99935 0.00165569
-12.4659 98.681 -3.63676 -0.0147985 0.999661 -0.0214432
-13.6084 98.6617 -3.68353 -0.0414514 0.999098 0.00867853
-14.8465 98.6091 -3.77374 -0.0492201 0.998728 0.00896272
-16.2027 98.5033 -3.77937 -0.0958066 0.995238 0.0120313
-17.3535 98.3741 -3.9234 -0.121218 0.992576 0.00484936
-18.6198 98.1955 -4.07162 -0.156525 0.987664 0.00433399
-20.0097 97.9477 -4.20153 -0.183903 0.982835 0.0129304
-21.3355 97.661 -4.18455 -0.227471 0.973575 0.0201967
-22.7206 97.314 -4.43093 -0.257387 0.9662 0.0144489
-23.9054 96.996 -4.73161 -0.274158 0.961605 0.011209
-24.9792 96.6761 -5.09686 -0.308462 0.951191 0.00934548
-26.3265 96.2352 -5.6366 -0.322734 0.946252 0.0197705
-27.5109 95.8189 -6.08937 -0.352367 0.935594 0.0223927
-28.7117 95.3674 -6.64382 -0.36068 0.932486 0.0188588
-29.7801 94.9397 -7.06973 -0.378961 0.92523 0.0184002
-30.8153 94.5132 -7.47832 -0.398387 0.917088 0.0153846
-31.965 94.0041 -7.68005 -0.414821 0.909714 0.0185688
-32.9642 93.5496 -7.76202 -0.422618 0.906195 0.0142837
-34.273 92.9293 -7.6032 -0.43287 0.901376 0.0120496
-35.2118 92.4699 -7.20706 -0.444581 0.895661 0.0117766
-36.1463 91.9929 -6.24945 -0.444219 0.895834 0.012311
-36.9791 91.5653 -5.43177 -0.446963 0.894488 0.0107523
-37.8344 91.1206 -4.21812 -0.455552 0.890185 0.00657838
-38.2338 90.9049 -3.2029 -0.463412 0.886121 0.0062483
-38.4309 90.7922 -2.14692 -0.462778 0.886415 0.0102027
-38.5137 90.7319 -0.951012 -0.46495 0.885245 0.0127409
-38.2761 90.8424 0.356545 -0.460322 0.887706 0.00909235
-38.0268 90.9598 1.40588 -0.458223 0.888737 0.0132467
-37.6718 91.1232 2.75249 -0.455286 0.89028 0.0107821
-37.4876 91.2049 3.81724 -0.45381 0.891064 0.00785058
-37.4171 91.2288 5.16501 -0.454523 0.890684 0.00936441
-37.4191 91.214 6.37739 -0.456698 0.889581 0.00847239
-37.4924 91.1654 7.47696 -0.459242 0.888271 0.00836801
-37.6686 91.063 8.64619 -0.458412 0.888679 0.0100334
-37.5883 91.0867 10.0224 -0.459117 0.888295 0.0119651
-37.4153 91.1644 11.2317 -0.460569 0.887587 0.00808108
-36.9119 91.4175 12.2451 -0.460581 0.887594 0.00655667
-36.1925 91.7808 13.245 -0.451643 0.892199 -0.000114145
-35.269 92.244 14.0844 -0.44871 0.893666 0.0044779
-34.2068 92.7641 14.539 -0.431234 0.902235 0.000334675
-32.9979 93.3422 14.8259 -0.431946 0.901887 -0.00433205
-32.0082 93.807 14.7565 -0.417791 0.908487 -0.00706078
-30.9129 94.2985 14.4696 -0.410549 0.911805 -0.00789026
-29.8294 94.772 14.115 -0.400306 0.916344 -0.00829532
-28.881 95.1632 13.7896 -0.384398 0.923144 -0.00620967
-27.9526 95.5314 13.3254 -0.361758 0.932205 -0.00831524
-26.9399 95.9033 12.8669 -0.34795 0.937432 -0.0122305
-25.5229 96.3962 12.25 -0.32879 0.944229 -0.0181568
-24.5422 96.7245 11.919 -0.302811 0.953016 -0.00490715
-24.1746 96.8406 11.7803 -0.30281 0.953017 -0.00490771
-23.5161 97.0536 12.6431 -0.283569 0.958815 -0.0162089
-24.5623 96.7354 13.0235 -0.300187 0.953735 -0.016645
-25.811 96.3212 13.411 -0.326855 0.944705 -0.0250706
-26.7534 95.9912 13.8861 -0.346915 0.937705 -0.0189562
-28.0179 95.5212 14.3619 -0.365983 0.930466 -0.0143175
-28.9483 95.1425 14.8448 -0.380707 0.924676 -0.00607734
-30.1085 94.6594 15.2174 -0.401829 0.915644 -0.0107226
-31.2391 94.1638 15.6815 -0.412287 0.910968 -0.01242
-32.218 93.7177 15.833 -0.422388 0.906386 -0.00723918
-33.2468 93.2294 15.8315 -0.432228 0.901727 -0.00819675
-34.3134 92.7117 15.6264 -0.437893 0.899011 -0.00228473
-35.3231 92.2134 15.211 -0.450184 0.892932 0.00252465
-36.1958 91.7755 14.6985 -0.453305 0.891336 0.00353852
-36.9208 91.4047 13.9212 -0.459672 0.888084 0.00268825
-37.5927 91.0603 12.9562 -0.459728 0.888054 0.00320653
-38.2046 90.7477 11.9709 -0.464801 0.885385 0.00725495
-38.4609 90.6286 10.4246 -0.464125 0.885714 0.00995961
-38.5912 90.5785 8.88117 -0.465281 0.88509 0.01139
-38.4458 90.67 7.65839 -0.46259 0.886521 0.00956228
-38.2751 90.7709 6.52819 -0.458506 0.888631 0.0103522
-38.3177 90.7648 5.18435 -0.458624 0.888566 0.0106909
-38.3208 90.7777 3.89627 -0.455401 0.890223 0.0106189
-38.6664 90.6153 2.54936 -0.460792 0.887448 0.0103351
-38.9244 90.4929 1.43091 -0.46242 0.88662 0.00851239
-39.2589 90.3255 0.39181 -0.470133 0.882557 0.00832089
-39.3998 90.2619 -0.745729 -0.471555 0.881786 0.00943881
-39.3706 90.2905 -1.91725 -0.473021 0.880988 0.0105692
-39.1475 90.4234 -3.31932 -0.470409 0.882414 0.00776012
-38.7955 90.6226 -4.37604 -0.464743 0.885384 0.0104487
-38.2505 90.9179 -5.37614 -0.461415 0.887124 0.0102525
-37.4209 91.3544 -6.31317 -0.457254 0.889282 0.00971855
-36.4555 91.8558 -7.48404 -0.447556 0.894131 0.0148873
-35.4579 92.3645 -8.3074 -0.44153 0.897163 0.0122577
-34.4058 92.8853 -8.63711 -0.434025 0.900638 0.0217666
-33.1127 93.5019 -8.78525 -0.420594 0.907025 0.0200889
-31.7967 94.1056 -8.70405 -0.410246 0.911743 0.0194215
-30.5172 94.6626 -8.49663 -0.394486 0.918663 0.0207241
-29.4423 95.1 -7.99482 -0.3729 0.92755 0.0244094
-28.3316 95.5359 -7.58843 -0.373621 0.92737 0.0190206
-27.215 95.9493 -7.02956 -0.350651 0.936357 0.016731
-26.1617 96.3197 -6.60928 -0.323945 0.945619 0.0273984
-25.1209 96.6544 -6.25766 -0.313711 0.949223 0.0236272
-24.1542 96.9471 -5.79048 -0.289386 0.956851 0.0241314
-23.0076 97.2636 -5.55989 -0.265582 0.963809 0.0231901
-21.8758 97.5547 -5.25582 -0.256202 0.966072 0.0326372
-20.2655 97.9196 -5.19294 -0.210241 0.97741 0.0185224
-19.163 98.122 -5.06967 -0.172979 0.984619 0.0224652
-17.9726 98.3091 -5.03331 -0.151553 0.988354 0.0136971
-16.7956 98.4519 -4.85362 -0.10953 0.993562 0.0272939
-15.6753 98.566 -4.76646 -0.0958065 0.995238 0.0120313
-14.5848 98.634 -4.79158 -0.0474385 0.998657 0.016727
-13.2596 98.6819 -4.71216 -0.0209378 0.99958 0.00708168
-12.0151 98.6835 -4.60634 -0.00174951 0.999972 0.00732944
-10.8367 98.6451 -4.40001 0.0344127 0.999109 0.0243216
-9.64589 98.5781 -4.35717 0.0763949 0.996798 0.0122911
-8.23615 98.4309 -4.10122 0.115239 0.993173 0.0181126
-7.08888 98.2714 -3.85382 0.148023 0.988886 0.0139438
-5.89608 98.0725 -3.45233 0.175425 0.984423 0.0117467
-4.6374 97.8102 -3.06053 0.219305 0.97562 0.00836623
-3.35989 97.4997 -2.82873 0.251361 0.967681 0.0202605
-2.11642 97.1508 -2.53446 0.279936 0.959899 0.0151357
-1.03322 96.8139 -2.08755 0.304634 0.952328 0.0164288
-0.0830429 96.4957 -1.47993 0.315834 0.948734 0.0103319
0.546028 96.2821 -0.591804 0.315501 0.948925 0.00109364
0.996216 96.1339 0.516305 0.325846 0.945368 -0.00647456
0.927688 96.1667 1.836 0.321224 0.946966 -0.00841062
0.514316 96.3206 2.86265 0.323453 0.946123 -0.0151139
-0.217636 96.5831 4.20911 0.312343 0.949838 -0.0157807
-1.07125 96.8602 5.27002 0.289573 0.957103 -0.00982246
-2.02526 97.1477 6.05717 0.270633 0.962585 -0.0137079
-2.9617 97.408 6.8178 0.246114 0.969212 -0.00743919
-3.90459 97.6444 7.32179 0.219213 0.975505 -0.0183316
-4.9457 97.8857 7.74121 0.197569 0.979737 -0.0239917
-6.01369 98.0873 8.08692 0.167444 0.985405 -0.0296715
-7.35592 98.3128 8.6234 0.136509 0.990307 -0.0214754
-8.45945 98.4534 9.02585 0.102266 0.994679 -0.012484
-9.68359 98.5767 9.36549 0.0698023 0.997318 -0.0220317
-10.9024 98.6622 9.68753 0.0467334 0.998628 -0.0172805
-12.1484 98.702 9.92227 0.0112109 0.999664 -0.0203123
-13.4179 98.6979 10.3015 -0.0146764 0.999843 -0.00992343
-14.6508 98.6453 10.5675 -0.0592524 0.998186 -0.0106386
-16.1721 98.5144 10.9256 -0.0914619 0.995518 -0.0240425
-17.3473 98.3717 11.263 -0.145442 0.989135 -0.0206532
-18.3925 98.217 11.4467 -0.165064 0.98591 -0.0271063
-19.8048 97.961 11.7051 -0.199319 0.979581 -0.0212814
-20.9555 97.7138 11.9655 -0.221917 0.974648 -0.02788
-22.4042 97.3589 12.1311 -0.263421 0.964321 -0.0260142
-23.0704 97.1823 12.4632 -0.281689 0.959315 -0.0188683
-22.462 97.38 13.2828 -0.265645 0.963435 -0.0350041
-23.5577 97.0711 13.8684 -0.283065 0.958352 -0.0363201
-24.815 96.6824 14.1046 -0.32213 0.945551 -0.0462563
-25.961 96.3083 14.5142 -0.338943 0.939291 -0.0505202
-26.8589 95.9903 15.0406 -0.363852 0.930626 -0.0391375
-28.059 95.5324 15.4968 -0.381004 0.924153 -0.0276079
-28.9641 95.1676 15.9969 -0.388449 0.921128 -0.0251357
-30.1331 94.6711 16.3526 -0.406263 0.913541 -0.0198135
-31.0889 94.2491 16.6928 -0.413345 0.910405 -0.017574
-32.1269 93.7723 16.8786 -0.421509 0.906748 -0.0117546
-33.088 93.3156 16.9323 -0.432172 0.901755 -0.00814533
-34.233 92.7605 16.7394 -0.439866 0.897969 -0.011509
-35.3878 92.1831 16.2997 -0.449854 0.893077 -0.0058363
-36.6323 91.5518 15.6207 -0.456416 0.889763 -0.00245755
-37.4564 91.126 14.8314 -0.458858 0.888504 -0.00219103
-38.3792 90.6463 13.5547 -0.463863 0.8859 0.00245042
-38.9568 90.3483 12.6806 -0.464176 0.885725 0.00567973
-39.2662 90.1939 11.4427 -0.469016 0.883153 0.00809693
-39.3888 90.1399 10.3595 -0.468732 0.883282 0.0102125
-39.5135 90.0876 9.28393 -0.468161 0.883567 0.0115734
-39.4754 90.1235 8.12278 -0.465867 0.884779 0.0116015
-39.2319 90.2662 6.95973 -0.463852 0.885846 0.0108801
-39.2427 90.2746 5.87559 -0.462692 0.886441 0.0117298
-39.2098 90.3076 4.78929 -0.459406 0.888135 0.012747
-39.4607 90.1944 3.47616 -0.459439 0.888157 0.00957212
-39.671 90.0919 2.31819 -0.466239 0.88464 0.00553508
-40.007 89.9231 1.171 -0.468461 0.883469 0.00517629
-40.2482 89.8007 0.0912632 -0.472369 0.88138 0.00564593
-40.289 89.7884 -1.06296 -0.476873 0.878923 0.00931194
-40.2652 89.8139 -2.29042 -0.476599 0.879047 0.0112267
-39.9385 90.0123 -3.87663 -0.469662 0.88272 0.0145686
-39.5426 90.2398 -5.13568 -0.464346 0.885586 0.0109892
-39.0165 90.5273 -6.07883 -0.463318 0.886122 0.0111612
-38.3476 90.8851 -6.89777 -0.457265 0.889261 0.0111106
-37.742 91.2175 -7.78172 -0.454261 0.890681 0.016187
-36.9848 91.6076 -8.45094 -0.448163 0.893811 0.0158977
-36.0574 92.0877 -9.18756 -0.445032 0.895232 0.0224726
-34.9537 92.6421 -9.54659 -0.438027 0.898469 0.0297605
-33.8448 93.1841 -9.77976 -0.430096 0.902249 0.0310527
-32.4888 93.8148 -9.78081 -0.419446 0.907432 0.0251605
-31.4964 94.2675 -9.73142 -0.408616 0.912231 0.0294584
-30.442 94.7272 -9.59497 -0.398982 0.916284 0.0351748
-29.4965 95.1178 -9.06309 -0.38667 0.921575 0.0333565
-28.3002 95.5864 -8.70644 -0.370171 0.928438 0.0312544
-27.2106 95.9913 -8.14506 -0.355854 0.933617 0.0415574
-26.0792 96.3807 -7.60877 -0.331985 0.942076 0.0477399
-24.9124 96.7557 -7.28571 -0.310171 0.949359 0.0501184
-23.8679 97.0614 -6.75261 -0.28447 0.958247 0.0289628
-22.8217 97.3503 -6.56398 -0.264673 0.963443 0.0415529
-21.7759 97.6181 -6.36579 -0.255653 0.966234 0.0321443
-20.6904 97.872 -6.29661 -0.201357 0.978704 0.0356431
-19.4693 98.0977 -6.15569 -0.184504 0.982069 0.0387095
-18.1225 98.3144 -6.00449 -0.153232 0.986926 0.0499676
-16.7273 98.4932 -5.96308 -0.115848 0.99219 0.046245
-15.3399 98.6214 -5.8679 -0.063478 0.9975 0.0310575
-14.26 98.679 -5.84553 -0.0456732 0.99807 0.0419078
-13.1295 98.7303 -5.81852 -0.019785 0.99814 0.0509703
-11.9932 98.7131 -5.64829 0.0104868 0.99868 0.0499277
-10.8367 98.6762 -5.43553 0.0354321 0.997239 0.065256
-9.36529 98.5695 -5.37702 0.0852305 0.995419 0.0427363
-7.97291 98.4206 -5.04333 0.114933 0.992167 0.0459895
-6.18331 98.1576 -4.64838 0.138066 0.989949 0.0306355
-5.15875 97.9571 -4.22003 0.198338 0.979413 0.0351862
-3.87264 97.6782 -4.06211 0.233458 0.971317 0.0350809
-2.79559 97.3727 -3.72692 0.266605 0.963241 0.0329606
-1.54098 97.0013 -3.44378 0.288892 0.956536 0.0363561
-0.611722 96.6967 -3.01627 0.300001 0.953674 0.0224483
0.314133 96.3841 -2.44796 0.314682 0.948758 0.0266167
1.1623 96.079 -1.75123 0.328102 0.944545 0.0134483
1.69997 95.8845 -0.67864 0.332282 0.943161 0.00184467
2.07429 95.75 0.728435 0.35253 0.935745 -0.00373168
1.99685 95.791 1.99125 0.335022 0.942158 -0.00946263
1.43156 96.0135 3.22966 0.323849 0.945975 -0.0159024
1.03772 96.1635 4.20296 0.32113 0.946936 -0.0136771
0.383809 96.4022 5.01972 0.308185 0.950949 -0.0237046
-0.297834 96.6336 5.94674 0.297363 0.954548 -0.0203237
-1.26643 96.9542 6.85655 0.288389 0.956987 -0.031751
-2.17114 97.2185 7.65516 0.257971 0.965974 -0.0185996
-3.15769 97.4826 8.08882 0.239099 0.970367 -0.0349332
-4.1501 97.7381 8.55398 0.217306 0.974941 -0.0455524
-5.19494 97.9744 8.86477 0.180187 0.982273 -0.0516988
-6.40517 98.1947 9.34802 0.14535 0.987742 -0.0554805
-7.59085 98.3841 9.76753 0.116984 0.991485 -0.0530578
-8.74646 98.5147 10.2589 0.0929184 0.994751 -0.0428541
-9.79578 98.6135 10.478 0.0538574 0.997912 -0.0356566
-11.3211 98.7077 10.7826 0.0404019 0.998087 -0.0441406
-12.962 98.7346 11.2404 -0.0183247 0.998962 -0.0414226
-14.0151 98.7151 11.5178 -0.0613504 0.997197 -0.0428329
-15.2933 98.6313 11.7824 -0.0899179 0.99433 -0.0558569
-16.501 98.5214 12.0203 -0.134914 0.989314 -0.0531416
-17.6929 98.3546 12.3853 -0.152254 0.987632 -0.0374477
-18.7966 98.1793 12.5326 -0.185332 0.981855 -0.0401477
-19.9886 97.9619 12.778 -0.189151 0.981227 -0.0376189
-21.4473 97.6324 13.0846 -0.234955 0.971457 -0.0325796
-22.1901 97.4504 13.1592 -0.265637 0.963437 -0.0350087
-37.9211 91.0341 -0.378844 -0.460308 0.887712 0.00915977
-37.915 91.0612 -2.13223 -0.455116 0.890358 0.0114684
-37.0133 91.5401 -4.47786 -0.44565 0.895188 0.00592166
-37.0236 91.5068 -1.63274 -0.452743 0.891602 0.00838925
-37.069 91.4492 1.4604 -0.45182 0.892005 0.0136491
-37.1312 91.3956 3.01986 -0.452806 0.891526 0.0121979
-36.4636 91.649 11.7016 -0.454879 0.890546 0.00363962
-36.4168 91.6864 10.1104 -0.453831 0.891056 0.00755027
-36.4117 91.7013 8.95044 -0.452852 0.891531 0.00986455
-36.3954 91.7224 7.79786 -0.453715 0.891093 0.0097832
-36.3643 91.7539 6.19633 -0.449261 0.893346 0.00992563
-36.325 91.7868 4.84982 -0.452282 0.891836 0.00833004
-36.2923 91.8149 3.66969 -0.452904 0.89152 0.00836024
-36.2403 91.8561 2.3978 -0.452526 0.891676 0.0115274
-36.1859 91.904 0.916179 -0.437311 0.899212 0.0132887
-36.1574 91.9366 -0.526258 -0.445988 0.895039 0.000145143
-36.1247 91.9603 -2.1992 -0.440897 0.897531 0.00695759
-36.1045 91.9827 -3.35138 -0.437628 0.899082 0.0115312
-36.087 92.0024 -4.55771 -0.440246 0.897855 0.00631388
-36.0732 92.0161 -5.29775 -0.443782 0.896041 0.01297
-35.1094 92.5093 -6.46691 -0.435885 0.899882 0.0147118
-35.1382 92.4749 -5.15434 -0.433682 0.900972 0.0130477
-35.1718 92.4393 -3.71932 -0.435841 0.899948 0.0116614
-35.2063 92.4088 -2.55905 -0.436556 0.899616 0.0104854
-35.2554 92.3729 -0.980842 -0.431557 0.902063 0.006419
-35.2843 92.3507 0.444674 -0.435035 0.900361 0.00976142
-35.3225 92.3158 1.61434 -0.439039 0.898363 0.0137127
-35.3802 92.2713 2.96805 -0.438434 0.898728 0.00799832
-35.431 92.2384 4.12201 -0.43709 0.899415 0.00217186
-35.4618 92.2098 5.51681 -0.44336 0.896262 0.0121274
-35.5189 92.167 7.13735 -0.443449 0.896261 0.00835587
-35.5473 92.1412 8.62256 -0.438186 0.898854 0.00742728
-35.5625 92.1166 9.97995 -0.446432 0.894724 0.0129197
-35.6061 92.085 11.2054 -0.443901 0.896059 0.00541838
-35.6263 92.0701 12.4759 -0.447362 0.894352 0.00081158
-35.6281 92.0681 13.0188 -0.450467 0.892788 0.00287561
-34.7761 92.4934 13.6073 -0.447038 0.894498 0.00546253
-34.7727 92.4948 12.3583 -0.434763 0.900544 -0.000991646
-34.7408 92.5125 11.0179 -0.433834 0.900986 0.00343269
-34.7066 92.5408 9.62911 -0.435034 0.900364 0.00952248
-34.6737 92.571 8.2155 -0.434726 0.900548 0.00519841
-34.627 92.6027 6.84463 -0.431489 0.902061 0.0102115
-34.5837 92.6404 5.3144 -0.429587 0.902994 0.0075304
-34.5169 92.682 3.51444 -0.432763 0.901478 0.00733281
-34.4406 92.7342 1.96191 -0.433966 0.900869 0.0103801
-34.3983 92.7698 0.789704 -0.429482 0.903037 0.00836919
-34.3621 92.7958 -0.405119 -0.428213 0.903662 0.00529908
-34.3214 92.8243 -1.66138 -0.425736 0.904809 0.00832145
-34.2725 92.8596 -2.94165 -0.425124 0.905088 0.00923596
-34.2374 92.8878 -4.11489 -0.428516 0.903489 0.0090844
-34.2081 92.922 -5.26821 -0.42745 0.9039 0.0158513
-34.1839 92.9571 -6.65061 -0.426575 0.904317 0.0156575
-33.2208 93.4196 -7.10686 -0.424578 0.905259 0.0154698
-33.2491 93.3789 -5.65648 -0.415559 0.909436 0.0153543
-33.2898 93.3349 -4.19976 -0.425664 0.90478 0.0135329
-33.3318 93.3012 -3.01238 -0.414213 0.910104 0.0117486
-33.4098 93.2527 -1.61194 -0.425718 0.904818 0.0082672
-33.4688 93.2138 0.000429064 -0.41867 0.908121 0.00569088
-33.5153 93.1817 1.23051 -0.420663 0.907172 0.00906272
-33.5772 93.1378 2.53429 -0.422155 0.906452 0.0113803
-33.6566 93.0863 4.09914 -0.423656 0.905793 0.00746936
-33.702 93.0546 5.41259 -0.421777 0.906682 0.00574042
-33.7481 93.022 6.73403 -0.422611 0.906266 0.009006
-33.8062 92.9824 8.1974 -0.423676 0.905794 0.00594409
-33.8493 92.9521 9.56272 -0.42557 0.90491 0.00532564
-33.8826 92.9264 10.8363 -0.434476 0.900661 0.00640906
-33.917 92.908 12.3547 -0.435156 0.900355 -0.000107277
-33.9178 92.9059 13.5509 -0.42432 0.905512 -0.000424983
-33.928 92.8993 14.0696 -0.431596 0.902061 0.00343177
-33.0869 93.2982 13.9397 -0.425716 0.904852 -0.00308339
-33.0611 93.3087 12.7461 -0.423745 0.905773 0.00386006
-33.0424 93.3236 11.3256 -0.428038 0.903753 0.00365081
-33.0019 93.3514 9.84741 -0.422123 0.906537 0.0018855
-32.9438 93.3811 8.39591 -0.418884 0.908034 0.00321634
-32.8885 93.4206 6.95795 -0.421575 0.906728 0.0109183
-32.8348 93.4549 5.77385 -0.420986 0.907043 0.00667768
-32.7773 93.494 4.34717 -0.421853 0.906611 0.00987011
-32.7212 93.5325 3.09806 -0.41571 0.909471 0.00690611
-32.6504 93.5743 1.89303 -0.411644 0.911292 0.0098006
-32.5845 93.6157 0.560525 -0.415981 0.909338 0.00797149
-32.5113 93.6594 -0.938852 -0.412925 0.910755 0.00435277
-32.4305 93.7055 -2.28057 -0.412811 0.910779 0.00825586
-32.3677 93.7491 -3.50907 -0.412243 0.910948 0.0151443
-32.3138 93.7939 -4.87241 -0.4103 0.911847 0.0137625
-32.2721 93.8343 -6.1352 -0.413366 0.910399 0.0173611
-32.2566 93.8611 -7.17329 -0.413354 0.910406 0.0172838
-31.2832 94.2924 -6.75177 -0.40616 0.913531 0.022276
-31.3267 94.2508 -5.57296 -0.411965 0.911009 0.0186383
-31.3722 94.2056 -4.0877 -0.407565 0.913062 0.0144657
-31.4703 94.1351 -2.6606 -0.403 0.915118 0.0122213
-31.5613 94.0849 -1.29809 -0.401426 0.915845 0.00920273
-31.6432 94.0344 0.115507 -0.402878 0.915235 0.00587814
-31.7241 93.9903 1.4644 -0.398559 0.917131 0.0047456
-31.8001 93.9459 2.70776 -0.409319 0.912384 0.00363578
-31.867 93.9135 3.96955 -0.411127 0.911577 0.00130738
-31.9256 93.8741 5.2476 -0.413006 0.910726 0.00204039
-31.9903 93.8361 6.50823 -0.413894 0.910262 0.0106903
-32.04 93.8018 7.66157 -0.407501 0.913138 0.0110914
-32.099 93.7687 8.82254 -0.418363 0.908271 0.00389626
-32.1527 93.7402 10.0367 -0.415917 0.909399 0.00260013
-32.1913 93.7178 11.2343 -0.416182 0.909264 0.0055925
-32.2283 93.695 12.8837 -0.418118 0.908392 -0.000999758
-32.2547 93.6871 14.1821 -0.424375 0.905461 -0.0068311
-31.4097 94.0679 13.6724 -0.411488 0.911404 -0.00453257
-31.3842 94.0797 12.5123 -0.411154 0.911564 0.00150947
-31.3438 94.1006 11.2102 -0.40467 0.914462 0.000983811
-31.2981 94.1202 10.0323 -0.40112 0.916025 0.000752782
-31.2142 94.1611 8.44233 -0.399316 0.916802 0.00452379
-31.1291 94.2078 6.96778 -0.396647 0.917938 0.00779218
-31.062 94.2445 5.78884 -0.396797 0.917905 0.00161882
-30.9914 94.2827 4.48986 -0.391351 0.920162 0.0121118
-30.9272 94.332 3.28015 -0.394622 0.918707 0.0158376
-30.8318 94.3753 1.80025 -0.395937 0.918253 0.00670861
-30.7227 94.4341 0.196086 -0.396739 0.917907 0.00668693
-30.646 94.4761 -0.964449 -0.388308 0.921504 0.00680806
-30.5593 94.5272 -2.2542 -0.383092 0.923593 0.0147315
-30.4508 94.6093 -3.84858 -0.378746 0.925319 0.0183323
-30.3783 94.659 -5.41495 -0.389521 0.920888 0.0154654
-30.342 94.6935 -6.43204 -0.387328 0.921694 0.0213826
-29.3642 95.0955 -6.26822 -0.378811 0.925344 0.0155272
-29.4238 95.0509 -5.04942 -0.380034 0.924855 0.0147247
-29.5185 94.9798 -3.34933 -0.376244 0.926398 0.0150586
-29.6084 94.923 -2.14957 -0.384934 0.922911 0.00784456
-29.7328 94.8576 -0.586311 -0.372159 0.928116 0.00990689
-29.8264 94.8103 0.635423 -0.386379 0.922243 0.0133754
-29.9106 94.7659 1.80798 -0.387007 0.922076 0.00125185
-30.0221 94.7065 3.42814 -0.380813 0.9246 0.00984197
-30.1046 94.6586 4.66212 -0.386962 0.921991 0.0138628
-30.1973 94.609 6.08447 -0.387139 0.922005 0.0055439
-30.3051 94.5537 7.72319 -0.391924 0.919987 0.00437527
-30.3939 94.5147 8.96379 -0.385409 0.922746 0.000455372
-30.4618 94.4823 10.4836 -0.393122 0.919482 -0.00293122
-30.5114 94.4673 11.7312 -0.3922 0.919872 -0.00392376
-30.5649 94.4437 13.1027 -0.397642 0.917525 -0.00542426
-30.5706 94.4429 13.3885 -0.397642 0.917525 -0.00542426
-29.7357 94.8015 12.9392 -0.384405 0.923144 -0.00620228
-29.621 94.8428 10.7808 -0.392195 0.919874 -0.0039202
-29.5564 94.8655 9.61002 -0.381384 0.924415 -0.0015327
-29.4744 94.9006 8.34491 -0.380149 0.924925 0.000402183
-29.3687 94.9482 6.842 -0.377764 0.925888 0.00515496
-29.2711 94.9933 5.51802 -0.376946 0.926228 0.0037591
-29.1466 95.0573 3.94479 -0.372978 0.927723 0.0147371
-29.0601 95.1059 2.79612 -0.377326 0.926058 0.00643041
-28.9662 95.1515 1.61162 -0.365966 0.930628 -3.65233e-05
-28.8489 95.2053 0.274133 -0.36883 0.929479 0.00578273
-28.708 95.27 -1.30839 -0.367303 0.930088 0.00494948
-28.5738 95.3439 -2.85501 -0.359839 0.932869 0.0164787
-28.4827 95.4138 -4.25096 -0.355816 0.934304 0.0217141
-28.4113 95.4668 -5.60418 -0.368066 0.9297 0.0135969
-28.3977 95.4773 -5.88543 -0.365849 0.930517 0.0171194
-27.3793 95.8534 -5.41092 -0.352097 0.9358 0.017474
-27.4936 95.7786 -3.82627 -0.353553 0.935199 0.0200649
-27.6471 95.6944 -2.24823 -0.342713 0.939384 0.0102525
-27.7941 95.6215 -0.715705 -0.355503 0.934577 0.0135183
-27.9098 95.5678 0.462156 -0.354614 0.935012 -0.000938482
-28.0355 95.5144 1.76027 -0.357541 0.933876 0.00628569
-28.172 95.4565 3.17722 -0.36351 0.93157 0.00613562
-28.2728 95.4027 4.37129 -0.359541 0.933116 0.00497299
-28.3751 95.3522 5.58957 -0.369077 0.929391 0.00378597
-28.4776 95.3064 6.79954 -0.369296 0.929303 0.00403054
-28.6063 95.2481 8.49839 -0.368197 0.929747 0.00111853
-28.6835 95.22 9.69857 -0.367092 0.930183 -0.00173261
-28.7837 95.1809 11.1282 -0.369592 0.929155 -0.00856242
-28.8756 95.156 12.5072 -0.385405 0.922683 -0.0108861
-28.8992 95.1515 12.9671 -0.385602 0.922633 -0.00771547
-28.004 95.501 12.4868 -0.355646 0.934543 -0.0120415
-27.9177 95.517 11.1345 -0.354641 0.934929 -0.0117158
-27.8088 95.5547 9.62066 -0.345893 0.938273 0.00147974
-27.6999 95.5985 8.14523 -0.351975 0.936009 0.000893443
-27.5739 95.6557 6.6292 -0.34899 0.9371 0.00705346
-27.43 95.7148 5.15293 -0.346092 0.938194 0.00346846
-27.3077 95.7721 3.89949 -0.352056 0.935926 0.00998462
-27.1807 95.8339 2.56291 -0.349475 0.936889 0.0103029
-26.9933 95.9152 0.836851 -0.353907 0.935281 -0.000201623
-26.8223 95.9813 -0.636811 -0.342361 0.939552 0.00549725
-26.6675 96.0488 -2.11087 -0.338625 0.940898 0.00668896
-26.5323 96.1186 -3.38749 -0.335577 0.941752 0.0221524
-26.4107 96.1903 -4.67346 -0.332791 0.942715 0.0232031
-26.3842 96.2074 -5.01137 -0.328543 0.944339 0.0168398
-25.4027 96.5309 -4.57385 -0.318367 0.947763 0.0196792
-25.5569 96.4496 -3.16963 -0.324397 0.945813 0.0142818
-25.7235 96.3764 -1.71289 -0.324239 0.94592 0.0101745
-25.8797 96.3062 -0.426817 -0.325127 0.945614 0.010358
-26.0196 96.2505 0.722713 -0.324152 0.946001 0.00266092
-26.1888 96.1959 2.06349 -0.323507 0.94622 -0.00342483
-26.3136 96.138 3.22254 -0.333995 0.942379 0.0191982
-26.4954 96.053 4.909 -0.323404 0.946208 0.0100491
-26.6577 95.9954 6.39627 -0.324564 0.945863 -0.000600593
-26.7936 95.9326 7.83921 -0.340143 0.940373 0.0010815
-26.9152 95.8884 9.20095 -0.343039 0.939311 0.00433917
-27.0323 95.8475 10.729 -0.342119 0.939652 -0.00305928
-27.123 95.8243 12.0427 -0.346448 0.938039 -0.00751845
-27.1326 95.8221 12.184 -0.347015 0.937762 -0.013559
-26.2606 96.1346 11.7246 -0.332817 0.942956 -0.0081607
-26.159 96.1617 10.3839 -0.338679 0.940902 -0.000299438
-26.0419 96.1981 9.19903 -0.316465 0.948601 0.0023811
-25.9101 96.2475 7.87524 -0.314059 0.949371 0.0078587
-25.769 96.3003 6.54516 -0.306404 0.951899 0.0022452
-25.627 96.3497 5.28541 -0.307666 0.951489 0.00322473
-25.4882 96.4049 4.08724 -0.309039 0.950933 0.0148694
-25.3366 96.4719 2.91939 -0.310697 0.950454 0.0101839
-25.1391 96.5489 1.33571 -0.310335 0.950606 0.00635039
-24.9659 96.6099 -0.0126275 -0.300459 0.953785 0.00440574
-24.7825 96.6823 -1.36769 -0.30448 0.952453 0.0111837
-24.5936 96.7565 -2.75959 -0.297833 0.954503 0.0148151
-24.4578 96.8184 -3.91621 -0.289851 0.956545 0.0317525
-24.4117 96.8474 -4.37167 -0.289581 0.9571 0.0101273
-23.3781 97.1303 -4.00887 -0.26017 0.965415 0.0169148
-23.5348 97.0723 -2.84936 -0.267616 0.96346 0.0112334
-23.7148 97.0075 -1.61702 -0.281475 0.95938 0.0190084
-23.9233 96.9399 -0.33102 -0.29125 0.956633 0.00517266
-24.1006 96.8786 0.823509 -0.300449 0.953788 0.00439474
-24.279 96.8183 2.09614 -0.280258 0.959739 0.0188581
-24.4572 96.7502 3.31052 -0.281974 0.959371 0.00988261
-24.6375 96.6756 4.65763 -0.311128 0.950333 0.00820426
-24.7898 96.6181 5.89822 -0.307435 0.951561 0.00393352
-24.9372 96.5675 7.14633 -0.307203 0.951643 -0.00114587
-25.0909 96.5163 8.52386 -0.304981 0.952352 0.00360236
-25.2192 96.4763 9.70543 -0.320405 0.947257 -0.00669984
-25.3542 96.442 10.9597 -0.322368 0.946432 -0.0185884
-25.4131 96.4287 11.5697 -0.328359 0.944546 -0.00362447
-24.5167 96.7303 11.2785 -0.293429 0.955882 -0.0137252
-24.3701 96.7558 9.94838 -0.302662 0.952957 -0.0163818
-24.2193 96.791 8.60671 -0.293014 0.956088 -0.00615451
-24.0683 96.8373 7.33288 -0.29349 0.955932 0.00761322
-23.9079 96.8938 6.05148 -0.294536 0.955636 0.00282263
-23.7188 96.9664 4.69744 -0.30137 0.953434 0.01178
-23.4644 97.0472 3.03994 -0.288554 0.957445 0.0060331
-23.2724 97.1106 1.82367 -0.267824 0.963444 0.00673647
-23.0487 97.1791 0.527248 -0.266457 0.963838 0.00412599
-22.8318 97.2519 -0.755161 -0.25658 0.966481 0.00895451
-22.5755 97.3263 -2.1786 -0.252053 0.967705 0.00391446
-22.3455 97.3968 -3.33857 -0.259733 0.965618 0.0109452
-22.3097 97.4115 -3.6257 -0.258783 0.965808 0.0156772
-21.1695 97.6885 -3.53923 -0.231747 0.972704 0.0118166
-21.54 97.583 -1.99284 -0.235678 0.971809 0.00663549
-21.7999 97.5106 -0.702165 -0.235296 0.971893 0.00777676
-22.0387 97.4473 0.502564 -0.247838 0.968801 -0.000761394
-22.2871 97.3845 1.81537 -0.2672 0.963626 0.00533893
-22.5121 97.3135 3.1103 -0.25158 0.967833 0.00268217
-22.7185 97.263 4.27382 -0.240197 0.970663 -0.0109293
-22.9278 97.192 5.58789 -0.283622 0.958874 0.0108991
-23.1539 97.1121 7.15993 -0.26371 0.964453 0.0169691
-23.3202 97.0594 8.39096 -0.276785 0.960922 -0.00445411
-23.5085 97.0129 10.006 -0.278572 0.960361 -0.0102232
-23.6103 96.9916 10.9542 -0.281297 0.959517 -0.014093
-22.6976 97.2479 10.3822 -0.260663 0.965427 -0.00225296
-22.4602 97.3045 8.50633 -0.273278 0.961912 -0.00661571
-22.2991 97.3424 7.3579 -0.268526 0.963258 0.00517634
-22.0515 97.4323 5.91461 -0.242434 0.970138 0.0075653
-21.8393 97.4855 4.71162 -0.239435 0.970882 -0.00772771
-21.5913 97.5518 3.36361 -0.238629 0.971101 0.00432888
-21.363 97.6162 2.17965 -0.237802 0.971296 0.0058596
-21.104 97.6837 0.920929 -0.215582 0.97648 -0.00349875
-20.8636 97.7297 -0.227757 -0.203425 0.97909 0.00133616
-20.6085 97.7937 -1.35605 -0.201064 0.979496 0.0126722
-20.3249 97.8655 -2.48008 -0.209659 0.977752 0.00665938
-20.0897 97.9211 -3.44366 -0.202766 0.979131 0.013722
-19.0149 98.1299 -3.39881 -0.156233 0.987709 0.00466036
-19.3312 98.0618 -2.16791 -0.190174 0.981509 0.0217771
-19.6106 97.995 -1.03622 -0.192518 0.981195 0.0138816
-19.9816 97.9219 0.477648 -0.208288 0.97805 -0.00583127
-20.2377 97.8711 1.6066 -0.188737 0.982026 0.00166424
-20.5026 97.8077 2.81359 -0.205024 0.978753 0.0028995
-20.7334 97.7488 3.94217 -0.226136 0.974089 0.00363948
-20.9772 97.6929 5.20451 -0.222526 0.974927 -0.000382645
-21.1988 97.6356 6.33871 -0.219828 0.975508 0.00778927
-21.4281 97.5702 7.60073 -0.251085 0.967965 0.000814964
-21.6853 97.5073 9.21649 -0.248122 0.968728 0.00112737
-21.811 97.4774 10.1054 -0.245515 0.969334 -0.0106737
-20.8907 97.6927 9.78587 -0.211929 0.977283 0.00211161
-20.6614 97.7527 8.44365 -0.229885 0.973216 0.00182715
-20.4454 97.807 7.3037 -0.227158 0.973856 0.00210793
-20.215 97.8554 6.11259 -0.198408 0.980115 0.00304346
-19.9619 97.9142 4.88371 -0.206449 0.978386 0.0117848
-19.6407 97.9846 3.40441 -0.174192 0.984712 0.000292715
-19.3659 98.0378 2.22257 -0.183055 0.983101 0.00161149
-19.0601 98.093 0.95626 -0.177695 0.984086 1.66551e-05
-18.737 98.1529 -0.338342 -0.17944 0.983769 -0.000559993
-18.4065 98.2127 -1.59516 -0.153594 0.988114 0.00630537
-18.1078 98.27 -2.71442 -0.148409 0.988896 0.00768127
-17.9574 98.296 -3.23401 -0.142145 0.989843 0.00243687
-16.9068 98.4203 -2.79849 -0.118347 0.992972 -0.00119161
-17.3079 98.3813 -1.61088 -0.129534 0.991448 -0.0158826
-17.742 98.3203 -0.0548944 -0.164339 0.986395 -0.00428318
-18.1296 98.2607 1.36418 -0.174076 0.984703 -0.00758028
-18.4701 98.1959 2.68556 -0.144018 0.989403 0.0184508
-18.7754 98.1377 3.92685 -0.174296 0.984693 1.36365e-05
-19.0842 98.0881 5.24089 -0.162033 0.986758 0.00732709
-19.3471 98.0301 6.46054 -0.1984 0.980116 0.00305463
-19.6574 97.9606 7.96887 -0.192896 0.9812 0.0061414
-19.892 97.9086 9.14265 -0.194612 0.980865 0.00549048
-20.0783 97.8721 10.1439 -0.207662 0.978193 -0.0039845
-19.1485 98.061 9.88301 -0.160997 0.986924 -0.00785335
-18.853 98.1034 8.51559 -0.157421 0.987523 0.0041296
-18.5974 98.1546 7.33351 -0.162678 0.986635 0.009382
-18.287 98.2134 5.97366 -0.163381 0.986543 0.00635877
-17.9947 98.258 4.74532 -0.131244 0.991341 0.00431508
-17.6883 98.3031 3.55955 -0.15066 0.988585 0.00103547
-17.3581 98.3642 2.30516 -0.142978 0.989586 0.0166189
-17.0073 98.4153 1.10043 -0.124445 0.992186 -0.00894271
-16.6034 98.4717 -0.265381 -0.125876 0.992026 0.00629635
-16.2564 98.5094 -1.36735 -0.107247 0.994153 -0.0125578
-15.7831 98.5384 -2.70628 -0.0808149 0.99671 -0.00623819
-15.6182 98.549 -3.15988 -0.0808208 0.996709 -0.00623758
-14.5494 98.6293 -2.83841 -0.0504412 0.998608 -0.0154006
-15.0968 98.6099 -1.31985 -0.0846678 0.996349 -0.010988
-15.5677 98.5726 -0.0752019 -0.0686775 0.997622 -0.00583357
-16.0468 98.5161 1.43171 -0.0929685 0.995648 0.00641381
-16.4211 98.4706 2.63679 -0.112492 0.993649 0.00257704
-16.8108 98.4225 4.02548 -0.129282 0.99158 0.00737305
-17.2008 98.3629 5.46603 -0.128609 0.991695 -0.000863296
-17.5149 98.3181 6.7171 -0.131037 0.991356 0.00650779
-17.8077 98.2686 7.95564 -0.146399 0.989217 0.00417163
-18.1682 98.2195 9.53609 -0.158003 0.987432 -0.0037109
-18.2283 98.2106 9.80823 -0.162519 0.986688 -0.00584749
-17.1997 98.3675 9.28826 -0.153395 0.988146 -0.00610774
-16.8461 98.4044 7.80484 -0.113121 0.993579 -0.00219252
-16.5457 98.4436 6.58571 -0.115065 0.993356 0.00197333
-16.1452 98.4905 5.16048 -0.109405 0.993979 0.00605519
-15.7848 98.5417 3.95309 -0.102176 0.994742 0.00693089
-15.4333 98.5821 2.78318 -0.104632 0.994494 -0.005829
-14.9878 98.6162 1.44517 -0.0736895 0.997281 0.00120527
-14.5376 98.6435 0.202491 -0.056755 0.998351 0.00861037
-14.1038 98.6671 -0.939015 -0.0432996 0.999036 -0.00720532
-13.668 98.676 -2.02452 -0.0106368 0.999891 -0.0102769
-13.3806 98.6753 -2.73553 -0.0111788 0.999922 -0.00554192
-12.0916 98.6845 -2.98669 0.0373097 0.999271 -0.00814699
-12.578 98.6881 -1.85991 0.00695388 0.999972 -0.00261246
-13.2063 98.6915 -0.381043 -0.0142947 0.999889 0.00423363
-13.6659 98.6747 0.810926 -0.026427 0.999642 -0.00413164
-14.0827 98.6628 1.94016 -0.0495937 0.998769 5.01085e-05
-14.4626 98.6556 3.03184 -0.0623417 0.998045 -0.00447753
-14.9641 98.6158 4.56304 -0.0846028 0.996378 0.00852657
-15.3582 98.573 5.81277 -0.0980637 0.99516 0.00639415
-15.7254 98.5378 7.0035 -0.115073 0.993355 0.00196792
-16.085 98.4924 8.42486 -0.113117 0.993579 -0.00219751
-16.2424 98.479 9.08314 -0.10938 0.993986 -0.00528886
-15.3278 98.5693 9.02215 -0.0865584 0.996246 -0.0012283
-14.9972 98.6036 7.77412 -0.083875 0.996442 0.00827486
-14.5659 98.6444 6.41358 -0.0744667 0.997221 -0.00235571
-14.194 98.6614 5.29587 -0.0720179 0.997398 0.00314182
-13.7834 98.6865 4.07582 -0.0435583 0.999051 2.13716e-05
-13.3642 98.7058 2.91329 -0.0317256 0.999497 0.00036173
-12.9478 98.7117 1.80938 -0.0196119 0.999707 -0.0142011
-12.4357 98.6939 0.492446 -0.00151379 0.999817 -0.0190949
-11.9268 98.6897 -0.700591 0.0122888 0.999893 -0.00799279
-11.3852 98.6704 -1.95518 0.0438185 0.999005 -0.0083206
-11.023 98.6469 -2.70741 0.0528407 0.998603 -0.000175918
-9.81858 98.5752 -2.70141 0.064271 0.99791 -0.00674297
-10.4118 98.6235 -1.48983 0.0744785 0.997206 -0.00583354
-11.0111 98.6619 -0.217224 0.0580428 0.998279 0.0083161
-11.6737 98.6918 1.31438 0.0324703 0.999427 -0.00953243
-12.1562 98.7114 2.54709 0.0124825 0.999879 -0.00928809
-12.6548 98.7186 3.82208 -0.0106362 0.999857 0.013111
-13.1867 98.7036 5.29515 -0.0312584 0.999493 0.00611367
-13.6281 98.6862 6.55837 -0.031694 0.999498 0.000382689
-14.0538 98.6645 7.85803 -0.0528752 0.998596 -0.00312063
-14.2672 98.6524 8.52148 -0.03452 0.999389 -0.00548505
-13.293 98.6838 8.44732 -0.0327989 0.999436 -0.00724313
-12.883 98.6968 7.23054 -0.00946821 0.99995 -0.00334196
-12.4856 98.7101 6.1273 -0.000267491 0.999682 0.025217
-11.9409 98.7201 4.71442 0.0171878 0.999851 -0.0017441
-11.4877 98.6945 3.5716 0.0454214 0.998968 0.000393347
-10.9906 98.6679 2.3486 0.0475958 0.998826 -0.00898157
-10.3955 98.6118 0.908812 0.0719134 0.997163 -0.0222294
-9.90057 98.5844 -0.143469 0.0790894 0.996851 0.00568598
-9.22883 98.5236 -1.50416 0.0973236 0.995216 -0.00854065
-8.67953 98.467 -2.59915 0.1008 0.994877 0.00773751
-7.59574 98.3397 -2.393 0.129009 0.991643 0.000126664
-8.13566 98.4075 -1.34183 0.117453 0.992998 -0.0126785
-8.7338 98.4734 -0.187783 0.121267 0.992597 0.00673177
-9.27584 98.5251 0.928894 0.104317 0.994544 0.000236087
-9.79445 98.5835 2.10061 0.0872827 0.996153 -0.00785952
-10.2609 98.6362 3.18223 0.0926864 0.995659 -0.0084739
-10.8264 98.6623 4.60609 0.0658662 0.997773 0.0105329
-11.2766 98.6952 5.68673 0.0627417 0.998028 -0.00164486
-11.7536 98.6953 6.85526 0.0200574 0.999702 0.0139017
-12.1816 98.6942 7.98929 0.016206 0.999841 0.00744177
-12.2147 98.6941 8.08214 0.0164976 0.999854 0.00439007
-11.2337 98.6649 8.11142 0.0546971 0.998499 0.00273907
-10.6928 98.654 6.77373 0.0534347 0.998458 0.0150611
-10.2136 98.6253 5.64357 0.0772449 0.997002 -0.00448367
-9.64588 98.588 4.26651 0.0658661 0.997773 0.010533
-9.11755 98.5299 3.05508 0.0919946 0.995745 -0.00539761
-8.56553 98.4578 1.83661 0.117764 0.99303 -0.00480292
-7.91647 98.3702 0.4498 0.125398 0.9921 -0.0034889
-7.32916 98.2948 -0.693582 0.1406 0.990065 -0.00155257
-6.75133 98.2078 -1.75383 0.153081 0.988203 0.00449732
-6.60728 98.1879 -2.02924 0.156645 0.987636 0.00607707
-5.6983 98.015 -1.5134 0.189239 0.981849 0.0127038
-6.27537 98.1176 -0.477838 0.172954 0.98491 0.00620151
-6.94977 98.2339 0.799488 0.167548 0.985864 -0.000470931
-7.62535 98.3373 2.21395 0.155342 0.987859 -0.00196004
-8.12357 98.4121 3.2835 0.136675 0.990616 0.000678747
-8.68898 98.491 4.51264 0.104516 0.994523 0.00111127
-9.25772 98.5464 5.80706 0.104221 0.99453 0.00691247
-9.72124 98.5822 6.89593 0.0825866 0.996547 0.00856009
-10.0684 98.5988 7.71726 0.07781 0.996781 0.0193007
-8.79463 98.4928 7.12027 0.116152 0.993142 0.0133377
-8.33234 98.448 6.0641 0.135431 0.990761 0.00709095
-7.74025 98.3658 4.7693 0.14037 0.990088 -0.00471419
-7.14225 98.2664 3.52679 0.161818 0.986723 -0.0138569
-6.56243 98.1666 2.31698 0.160055 0.987105 0.00246872
-5.98852 98.0567 1.17498 0.190934 0.981601 0.0019998
-5.31832 97.9273 -0.0847958 0.19674 0.980443 0.00492584
-4.73273 97.8129 -1.11549 0.226054 0.9741 0.00545561
-4.51355 97.7668 -1.47429 0.223366 0.974685 0.00986127
-3.47484 97.5177 -1.23477 0.26141 0.965108 0.0152117
-4.11836 97.6679 -0.136129 0.23571 0.971795 0.00749533
-4.71845 97.8084 0.949303 0.215597 0.976482 0.000416174
-5.41149 97.9417 2.25297 0.196277 0.980546 -0.00217987
-5.93288 98.0506 3.2908 0.187051 0.982247 -0.0142032
-6.50961 98.1768 4.46088 0.163955 0.98626 -0.0202655
-7.10157 98.2809 5.6615 0.155873 0.987772 -0.00317454
-7.53733 98.338 6.61523 0.132605 0.991165 0.00264136
-6.49866 98.166 6.61726 0.17984 0.983683 0.00494803
-5.99908 98.0861 5.58088 0.19157 0.981409 0.0117242
-5.35315 97.9477 4.29764 0.202114 0.97934 -0.0065351
-4.77816 97.8214 3.18996 0.203054 0.979153 -0.00529969
-4.23466 97.6984 2.15467 0.228821 0.973445 -0.00682552
-3.66176 97.5564 1.10208 0.22882 0.973445 -0.00681649
-3.08916 97.404 0.0912505 0.25721 0.966339 0.00566075
-2.53325 97.2618 -0.851028 0.273371 0.961888 0.00632355
-1.57525 96.9731 -0.50386 0.284184 0.958764 -0.00333911
-2.16653 97.1525 0.485215 0.284664 0.958617 -0.00450209
-2.84491 97.3437 1.67899 0.256631 0.966509 -0.000840843
-3.41578 97.4924 2.71062 0.245662 0.969356 0.000105187
-3.98676 97.6372 3.76991 0.235908 0.971766 -0.00435441
-4.5544 97.7763 4.84543 0.221546 0.97515 -0.000130501
-5.16512 97.9057 6.03209 0.203954 0.97898 -0.000970124
-5.24863 97.9247 6.19826 0.200986 0.979536 -0.0106913
-3.7755 97.5993 5.412 0.223492 0.974706 0.000114761
-3.20818 97.4479 4.35796 0.252217 0.967645 -0.00696821
-2.489 97.2507 3.04087 0.258662 0.965951 -0.00575128
-1.87757 97.0727 1.95825 0.291042 0.956662 -0.00955883
-1.30821 96.8947 0.970954 0.297963 0.954575 -0.00223344
-0.856398 96.7446 0.211675 0.307369 0.951575 -0.00548346
-0.871412 96.7667 2.15947 0.309352 0.950821 -0.0155089
-1.62164 97.0123 3.47066 0.290197 0.95693 -0.00843754
