64.7407 1.76231 -36.0134 -0.0435959 -0.998633 0.0288347
63.4106 1.82163 -36.067 -0.050157 -0.998279 0.0303708
61.9565 1.90044 -36.0016 -0.0614656 -0.997681 0.0291903
60.2778 2.02066 -35.6093 -0.0690381 -0.997178 0.0293359
58.802 2.14027 -35.1609 -0.077407 -0.996614 0.0277231
57.4871 2.27184 -34.6196 -0.0949785 -0.99485 0.0353932
55.8561 2.45076 -34.0978 -0.101494 -0.994273 0.033474
54.5996 2.59448 -33.8506 -0.114369 -0.992785 0.0360228
53.4545 2.73608 -33.7437 -0.124641 -0.991683 0.032085
52.1648 2.8963 -33.8659 -0.129376 -0.990894 0.0372958
50.8363 3.06504 -34.0202 -0.130584 -0.990768 0.0364217
49.3245 3.26101 -34.1595 -0.133285 -0.990457 0.0350708
47.9192 3.45049 -34.2055 -0.134972 -0.990134 0.0375637
46.7634 3.60648 -34.2874 -0.139147 -0.989581 0.0369051
45.4495 3.78308 -34.4518 -0.13859 -0.989726 0.0351289
44.1928 3.96538 -34.3447 -0.14114 -0.989346 0.0356937
42.9003 4.15821 -34.2325 -0.146019 -0.988739 0.0327747
41.372 4.39617 -34.0389 -0.156157 -0.987326 0.0283189
39.759 4.66777 -33.7637 -0.165308 -0.985774 0.0303712
37.9933 4.98234 -33.4537 -0.176892 -0.983896 0.0256637
36.7205 5.2261 -33.1394 -0.192366 -0.980905 0.0286333
35.4953 5.47515 -32.8541 -0.198724 -0.979465 0.0335639
34.2603 5.74721 -32.6132 -0.210226 -0.977218 0.0291379
32.5873 6.13122 -32.4019 -0.226949 -0.973575 0.0254323
31.3322 6.4408 -32.2312 -0.243379 -0.96951 0.0285994
30.131 6.74836 -32.0274 -0.244221 -0.96925 0.0301267
28.831 7.09467 -31.8338 -0.253611 -0.966772 0.0321371
27.4689 7.46854 -31.6703 -0.272517 -0.961693 0.0296923
26.2134 7.8332 -31.5022 -0.282505 -0.958642 0.034392
25.0482 8.19224 -31.1768 -0.284488 -0.958146 0.0319169
23.7379 8.59513 -30.8259 -0.288278 -0.957105 0.0290915
22.4824 8.99447 -30.4326 -0.300861 -0.953128 0.0320814
20.827 9.54314 -29.9027 -0.309527 -0.95022 0.0357016
19.2104 10.0864 -29.6149 -0.315958 -0.94802 0.0377897
17.7672 10.5904 -29.1983 -0.322691 -0.945615 0.0410081
16.5097 11.0367 -28.9026 -0.329517 -0.94338 0.038089
15.439 11.426 -28.5607 -0.330337 -0.943045 0.0393023
14.1738 11.8937 -28.0864 -0.336915 -0.940713 0.0393287
13.0438 12.3092 -27.8244 -0.337877 -0.940376 0.0391182
11.8926 12.7456 -27.3106 -0.339064 -0.939936 0.039433
10.5608 13.2454 -26.8646 -0.339456 -0.939779 0.0398064
8.88965 13.887 -25.9998 -0.340502 -0.939289 0.0423731
7.89304 14.2701 -25.5579 -0.342784 -0.938255 0.0466613
6.93364 14.6514 -24.9437 -0.343053 -0.938158 0.0466186
5.44636 15.2436 -24.0709 -0.346908 -0.936592 0.0495049
4.50789 15.6213 -23.4981 -0.345951 -0.936645 0.0548727
3.68406 15.9723 -22.7367 -0.346437 -0.936356 0.0567346
2.68354 16.3908 -22.0274 -0.353231 -0.933535 0.0610805
1.90832 16.7412 -21.2061 -0.355852 -0.93229 0.0648069
1.03599 17.1614 -20.0023 -0.361295 -0.929801 0.0700329
0.111821 17.6204 -18.8003 -0.361855 -0.92922 0.0748302
-0.79303 18.0441 -18.0957 -0.369128 -0.925029 0.0898083
-2.02125 18.5905 -17.5677 -0.377746 -0.92114 0.0938549
-3.27511 19.1363 -17.241 -0.383102 -0.917854 0.103403
-4.52765 19.6631 -17.2524 -0.383774 -0.916798 0.110449
-5.9827 20.2363 -17.5738 -0.390059 -0.911478 0.13062
-7.45143 20.7725 -18.1446 -0.38026 -0.915204 0.13343
-8.91819 21.2657 -18.9293 -0.386086 -0.903441 0.186367
-9.89555 21.5213 -19.785 -0.385588 -0.90852 0.160114
-10.7907 21.7633 -20.5636 -0.372706 -0.90997 0.181758
-11.5475 21.9105 -21.4721 -0.366017 -0.919984 0.140216
-12.4731 22.1265 -22.4011 -0.35571 -0.923248 0.145204
-13.7135 22.4619 -23.2625 -0.334727 -0.931685 0.141139
-14.6303 22.6848 -23.9745 -0.338043 -0.931837 0.131937
-16.1004 23.1047 -24.8127 -0.335471 -0.929384 0.153003
-17.4851 23.5196 -25.273 -0.328056 -0.935493 0.13127
-18.9103 23.9889 -25.3642 -0.317935 -0.938111 0.137354
-20.0536 24.3999 -25.1834 -0.305863 -0.942101 0.137201
-21.1875 24.8133 -24.812 -0.293392 -0.944322 0.148702
-22.297 25.261 -24.0604 -0.276926 -0.950343 0.141984
-23.1282 25.6493 -23.193 -0.276254 -0.944894 0.175666
-24.1901 26.1136 -22.1749 -0.251758 -0.955026 0.156664
-25.2264 26.5169 -21.3749 -0.230343 -0.958956 0.165364
-26.1291 26.8553 -20.6718 -0.23382 -0.963337 0.131237
-27.0322 27.2559 -19.4316 -0.218537 -0.967457 0.125652
-26.8935 27.5002 -17.6178 -0.189253 -0.970616 0.148622
-26.7275 27.7354 -16.1608 -0.103709 -0.979755 0.171245
-26.5738 27.8875 -15.0143 -0.0622464 -0.987787 0.137526
-26.3235 28.2134 -13.0608 -0.0236273 -0.989791 0.135075
-26.0997 28.3934 -11.9096 0.106775 -0.983559 0.145641
-25.8673 28.5831 -10.7423 0.116237 -0.98716 0.105753
-25.7137 28.7336 -9.1267 0.129695 -0.988756 0.0744384
-25.5607 28.8149 -7.891 0.135719 -0.990453 0.0241557
-25.3063 28.8734 -6.29604 0.157673 -0.98749 -0.00128101
-25.176 28.8764 -5.06518 0.154878 -0.986203 -0.0533425
-25.1671 28.7902 -3.88721 0.141792 -0.987177 -0.073319
-24.9543 28.716 -2.54222 0.105382 -0.989225 -0.101626
-24.8582 28.5923 -1.2331 0.10613 -0.989182 -0.101268
-24.6726 28.4094 0.271165 0.065121 -0.989263 -0.129566
-24.4325 28.2161 1.67805 0.0472718 -0.989492 -0.136009
-24.2733 27.9587 3.28222 0.0255043 -0.986531 -0.161575
-24.0918 27.7034 4.66279 -0.00934225 -0.983119 -0.182726
-23.9487 27.4357 5.9532 -0.0331222 -0.976955 -0.20988
-23.8581 27.105 7.49036 -0.0636694 -0.971515 -0.228266
-23.7775 26.8565 8.64413 -0.0929109 -0.971715 -0.216018
-23.7553 26.417 10.6059 -0.133906 -0.968584 -0.20906
-23.7026 26.0518 12.2594 -0.149986 -0.968798 -0.197318
-23.629 25.722 13.7981 -0.186624 -0.963983 -0.189496
-23.5487 25.4302 15.1882 -0.195104 -0.96337 -0.183549
-23.4379 25.1438 16.664 -0.204366 -0.962825 -0.176538
-23.3144 24.9029 17.8746 -0.213071 -0.963087 -0.16451
-23.0887 24.6478 19.0759 -0.217795 -0.961311 -0.168536
-22.5946 24.3411 20.2781 -0.229965 -0.961985 -0.147311
-21.7227 23.9452 21.5131 -0.23249 -0.961727 -0.144975
-20.7176 23.5532 22.4956 -0.233906 -0.961868 -0.141768
-19.755 23.2066 23.2797 -0.240741 -0.962226 -0.127138
-18.763 22.8684 23.9461 -0.245117 -0.960879 -0.128957
-17.3021 22.3531 25.0885 -0.249092 -0.961489 -0.115997
-15.9606 21.8872 26.006 -0.255571 -0.960738 -0.107755
-14.3004 21.4211 26.2237 -0.258738 -0.960457 -0.10283
-13.1506 21.1424 25.9383 -0.260303 -0.959914 -0.103955
-11.9644 20.8813 25.3799 -0.26034 -0.959861 -0.104357
-11.7252 20.8342 25.1946 -0.269564 -0.957518 -0.102441
-11.0697 20.5572 26.0718 -0.265058 -0.959618 -0.094219
-12.2633 20.8283 26.6337 -0.257796 -0.961785 -0.0922498
-13.4614 21.1028 27.126 -0.259026 -0.961591 -0.0908174
-14.7881 21.4311 27.3815 -0.257591 -0.961484 -0.0957071
-16.2756 21.8651 27.019 -0.255465 -0.961727 -0.0990895
-17.4026 22.2328 26.3023 -0.24783 -0.96291 -0.106703
-18.4548 22.5988 25.4626 -0.243785 -0.962548 -0.118621
-19.4303 22.9404 24.7039 -0.247188 -0.961944 -0.116458
-20.6075 23.324 23.9956 -0.239727 -0.962427 -0.127537
-21.4742 23.6444 23.2042 -0.235445 -0.963406 -0.128037
-22.7784 24.1213 22.022 -0.234388 -0.962901 -0.133731
-23.5711 24.4925 20.8137 -0.223751 -0.96362 -0.146048
-23.9487 24.7621 19.5835 -0.217492 -0.965273 -0.144724
-24.2485 25.0441 18.2419 -0.209936 -0.963618 -0.165433
-24.3726 25.3045 16.8557 -0.204332 -0.966161 -0.157418
-24.5629 25.5999 15.4041 -0.196265 -0.965198 -0.172836
-24.6757 25.9122 13.8182 -0.175623 -0.96613 -0.189078
-24.712 26.143 12.6352 -0.169215 -0.968023 -0.185072
-24.7856 26.3889 11.4477 -0.152407 -0.970807 -0.185218
-24.742 26.6573 10.0489 -0.120841 -0.972766 -0.197797
-24.8227 26.8897 8.92106 -0.0899504 -0.976103 -0.197815
-24.9739 27.1747 7.58327 -0.0898959 -0.976125 -0.197732
-24.9657 27.453 6.1338 -0.0574071 -0.978974 -0.195739
-25.1576 27.6692 4.95272 -0.0220286 -0.98265 -0.184158
-25.3568 27.8799 3.81493 0.00661327 -0.991374 -0.130896
-25.56 28.047 2.53991 0.0160502 -0.988949 -0.14626
-25.671 28.2168 1.29877 0.0395313 -0.99122 -0.12617
-25.7629 28.3584 0.0757195 0.0382957 -0.993272 -0.10929
-26.0427 28.4977 -1.54096 0.082991 -0.992309 -0.088122
-26.2564 28.6128 -3.18787 0.117823 -0.992143 -0.0420604
-26.2609 28.667 -4.34438 0.154876 -0.986203 -0.0533413
-26.3644 28.704 -5.95792 0.162818 -0.98636 -0.0173236
-26.6536 28.6644 -7.12945 0.153821 -0.988083 -0.00565104
-26.7733 28.6221 -8.42521 0.116791 -0.991626 0.0451639
-26.938 28.5687 -9.63952 0.0884555 -0.995574 0.0317621
-26.8892 28.4764 -10.8427 0.0639393 -0.995569 0.0689421
-27.3929 28.3034 -12.2389 0.00777292 -0.992174 0.121941
-27.5817 28.1584 -13.6838 -0.0236268 -0.989791 0.135074
-27.7241 28.0031 -14.84 -0.0835879 -0.990896 0.105536
-27.8852 27.8171 -16.3944 -0.135671 -0.979411 0.143345
-27.9893 27.6773 -17.7196 -0.167146 -0.978543 0.120484
-28.136 27.5487 -18.8859 -0.19643 -0.971691 0.12972
-27.9925 27.3407 -20.449 -0.218536 -0.967457 0.125653
-26.8469 26.9325 -21.4383 -0.233864 -0.964586 0.121993
-25.803 26.5584 -22.1279 -0.264187 -0.954571 0.137841
-24.8092 26.1859 -22.8515 -0.276507 -0.952633 0.126627
-23.9503 25.8134 -23.7184 -0.285823 -0.947397 0.144028
-23.1687 25.4367 -24.6468 -0.284177 -0.949443 0.133346
-22.235 25.0437 -25.4874 -0.289256 -0.948454 0.129357
-21.2956 24.6685 -26.0587 -0.298693 -0.944907 0.133917
-20.2136 24.2937 -26.2495 -0.312754 -0.941744 0.122338
-19.1237 23.9119 -26.4409 -0.317385 -0.942196 0.107221
-17.5641 23.3917 -26.3591 -0.317294 -0.940153 0.123637
-16.1086 22.9515 -25.9094 -0.324036 -0.937473 0.127063
-15.0376 22.6242 -25.4455 -0.339596 -0.931873 0.127533
-13.7133 22.2611 -24.6168 -0.338165 -0.931795 0.131922
-12.2923 21.882 -23.5845 -0.357259 -0.92426 0.134573
-11.4282 21.6666 -22.7753 -0.360839 -0.924801 0.120576
-10.4072 21.4403 -21.6045 -0.359852 -0.922993 0.136349
-9.24447 21.1425 -20.4999 -0.365945 -0.919996 0.140326
-8.24454 20.8536 -19.7116 -0.366976 -0.917617 0.151951
-7.14412 20.5117 -19.0567 -0.380258 -0.915157 0.133763
-5.83346 20.044 -18.5434 -0.376017 -0.919491 0.11466
-4.51522 19.5345 -18.2579 -0.38312 -0.916712 0.113393
-3.21254 19.0012 -18.2686 -0.371656 -0.922865 0.100956
-2.12259 18.5336 -18.5311 -0.373106 -0.922596 0.0979646
-0.914017 17.9822 -19.2798 -0.369091 -0.925596 0.0839208
-0.0574981 17.5704 -20.2147 -0.358772 -0.930339 0.0758359
0.827508 17.1401 -21.4213 -0.351615 -0.933605 0.0689083
1.5163 16.8086 -22.3908 -0.35323 -0.933536 0.0610784
2.35791 16.4436 -23.1519 -0.352498 -0.934002 0.0581836
3.40803 16.0072 -23.8458 -0.345952 -0.936644 0.0548727
4.39801 15.5942 -24.6956 -0.34484 -0.937174 0.0528232
5.43493 15.1814 -25.29 -0.344097 -0.937623 0.0495998
6.96559 14.5783 -26.1671 -0.342672 -0.938263 0.0473231
8.48566 13.9886 -26.994 -0.340508 -0.939286 0.0423683
10.0097 13.4064 -27.7123 -0.33803 -0.940261 0.0405581
11.1977 12.9659 -28.0326 -0.33745 -0.940515 0.0394919
12.7911 12.3567 -28.8786 -0.338995 -0.93999 0.0387518
14.2746 11.8083 -29.2594 -0.334968 -0.941432 0.0386895
15.4586 11.3703 -29.7622 -0.332798 -0.942391 0.0338215
16.8862 10.8555 -30.1858 -0.327479 -0.944139 0.0368519
18.0069 10.4648 -30.316 -0.32145 -0.946438 0.0304269
19.3793 9.9917 -30.6815 -0.316884 -0.947885 0.0331348
21.0588 9.42225 -31.0598 -0.307927 -0.950692 0.0369263
22.2762 9.01983 -31.48 -0.295553 -0.954774 0.032481
23.3572 8.67394 -31.8656 -0.290159 -0.956399 0.0330667
24.7562 8.24394 -32.2315 -0.284197 -0.958239 0.0317768
25.888 7.89765 -32.4795 -0.282565 -0.958832 0.0277595
27.3855 7.46162 -32.7155 -0.272709 -0.96171 0.0272595
29.3269 6.9294 -32.9471 -0.253706 -0.966813 0.0301124
30.4665 6.63165 -33.0086 -0.241688 -0.969783 0.0332752
31.9082 6.26498 -33.3331 -0.233657 -0.971971 0.025997
33.2544 5.94529 -33.4937 -0.226421 -0.973595 0.0290791
34.8449 5.58736 -33.7338 -0.210259 -0.977184 0.0300411
36.1355 5.31268 -34.1578 -0.197449 -0.980011 0.0243412
37.3665 5.06959 -34.4296 -0.17873 -0.98343 0.0299849
38.5371 4.84688 -34.6493 -0.180572 -0.982963 0.0343078
39.8029 4.62554 -34.8717 -0.163209 -0.986043 0.0328838
41.1434 4.39772 -35.1272 -0.15968 -0.986469 0.0371693
42.5482 4.17618 -35.2398 -0.144562 -0.988901 0.0343074
44.2708 3.91772 -35.3489 -0.143986 -0.988549 0.0450797
45.8187 3.695 -35.4708 -0.140528 -0.989011 0.0458717
47.3962 3.47801 -35.2811 -0.137478 -0.989728 0.0390712
48.541 3.32711 -35.1818 -0.133768 -0.990224 0.0395244
49.8942 3.14866 -35.1052 -0.132316 -0.990408 0.0397958
51.2209 2.97836 -34.9975 -0.131172 -0.990755 0.0346181
52.5812 2.80778 -34.8913 -0.123773 -0.991772 0.0326803
54.0797 2.62553 -34.7997 -0.120671 -0.992243 0.0298769
55.5585 2.44762 -35.0891 -0.101603 -0.994251 0.0337827
57.2076 2.26617 -35.5963 -0.0965994 -0.994778 0.0329409
58.7615 2.11464 -36.2331 -0.0783589 -0.996584 0.0260827
60.1197 1.9985 -36.6864 -0.0752585 -0.996841 0.0253916
61.3699 1.90729 -37.0268 -0.0579287 -0.998037 0.0238087
62.9074 1.81607 -37.1995 -0.055172 -0.998206 0.0232625
64.0813 1.75978 -37.0794 -0.0422952 -0.998752 0.0264112
65.2388 1.71546 -36.9416 -0.033589 -0.99924 0.0197922
66.8255 1.66193 -37.1097 -0.0259052 -0.999391 0.022987
67.9596 1.63493 -37.2249 -0.0214435 -0.999539 0.0214888
69.1982 1.61605 -36.8816 -0.0208999 -0.999535 0.0222185
70.5583 1.59712 -36.5562 -0.0145324 -0.999672 0.0210818
71.7823 1.58064 -36.4979 -0.0131152 -0.999693 0.0209914
73.1185 1.56397 -36.5576 -0.0107577 -0.999784 0.0177603
74.3336 1.56303 -36.3287 -0.00194657 -0.999841 0.0177523
75.4868 1.57171 -35.7206 -0.00303703 -0.999821 0.0186673
76.7152 1.58833 -34.8217 0.000429074 -0.999756 0.0220876
77.3741 1.61451 -33.6797 -0.00320495 -0.999728 0.0230843
76.8062 1.65192 -32.307 -0.00404013 -0.999587 0.0284514
75.8871 1.67444 -31.5887 -0.00206772 -0.999607 0.02797
74.7837 1.69557 -31.0369 -0.00392528 -0.999467 0.032399
73.8228 1.72132 -30.3764 -0.00612262 -0.999194 0.0396783
72.6231 1.757 -29.7049 -0.0078758 -0.999169 0.0399885
71.251 1.80092 -29.103 -0.0206878 -0.999057 0.0381788
69.7877 1.84695 -28.7193 -0.0229694 -0.998923 0.0402663
68.5747 1.89417 -28.3269 -0.0320132 -0.998508 0.0442262
67.1448 1.95207 -28.0589 -0.0328652 -0.998489 0.0440439
65.5427 2.01794 -27.7802 -0.0396462 -0.99811 0.0464849
64.4004 2.08297 -27.5561 -0.0495964 -0.997736 0.0454163
63.2234 2.1594 -27.3283 -0.0587616 -0.996994 0.0505015
61.9918 2.23251 -27.322 -0.0592262 -0.996942 0.050981
60.3765 2.36253 -26.9563 -0.0748764 -0.995931 0.0500382
59.0205 2.48096 -26.7451 -0.0795632 -0.994945 0.061272
57.8073 2.59961 -26.681 -0.0975412 -0.993479 0.0590398
56.1709 2.76565 -26.5531 -0.0982511 -0.993788 0.0522627
54.6499 2.9478 -26.2423 -0.113669 -0.992044 0.0541181
53.1498 3.13918 -25.8948 -0.112465 -0.992042 0.056611
51.8047 3.32651 -25.4123 -0.119575 -0.991123 0.058105
50.6866 3.47969 -25.0909 -0.119987 -0.991153 0.0567382
49.5621 3.63567 -24.6894 -0.11936 -0.99139 0.0537875
48.1614 3.82815 -24.2397 -0.121112 -0.991341 0.0507094
46.7292 4.01512 -24.0383 -0.122269 -0.991251 0.0497243
45.5267 4.17259 -23.8753 -0.128393 -0.990469 0.049867
44.0153 4.38576 -23.559 -0.129978 -0.990174 0.0515863
42.3896 4.63511 -23.19 -0.141064 -0.988731 0.0501099
41.1984 4.83365 -22.834 -0.15332 -0.986916 0.0497981
40.0444 5.03287 -22.4984 -0.1649 -0.984912 0.0522074
38.7862 5.27835 -21.9549 -0.175854 -0.982665 0.0580332
37.537 5.5325 -21.5638 -0.180525 -0.982411 0.0477434
35.9448 5.8895 -20.8799 -0.20903 -0.9766 0.050069
34.6579 6.19418 -20.4827 -0.214978 -0.975394 0.04889
33.501 6.47025 -20.0562 -0.21954 -0.974537 0.0451876
32.2248 6.79652 -19.7484 -0.237691 -0.969546 0.0590288
30.956 7.12006 -19.4796 -0.232269 -0.9707 0.0615901
29.7035 7.45706 -19.0672 -0.240135 -0.968515 0.0656832
28.4171 7.83071 -18.4248 -0.25208 -0.965767 0.0612246
26.6794 8.33202 -17.9762 -0.267135 -0.961814 0.059512
25.4471 8.71641 -17.413 -0.271809 -0.960283 0.0630502
24.4146 9.04738 -17.0207 -0.285995 -0.956083 0.0641315
23.1041 9.48079 -16.506 -0.298069 -0.952545 0.0617459
22.111 9.825 -15.9863 -0.302386 -0.951633 0.0543818
20.6221 10.3334 -15.3667 -0.302286 -0.951662 0.0544369
19.3761 10.772 -14.8948 -0.313741 -0.947789 0.0571138
18.1501 11.209 -14.4182 -0.317647 -0.946486 0.0571428
16.9599 11.6525 -13.7408 -0.321796 -0.944967 0.059032
15.7962 12.0851 -13.1698 -0.328298 -0.943058 0.0534935
14.6684 12.5137 -12.6181 -0.331855 -0.941698 0.0554726
13.3793 13.006 -11.9477 -0.333532 -0.941297 0.0521148
12.2115 13.4515 -11.4367 -0.340575 -0.938655 0.0541614
10.8994 13.9632 -10.8443 -0.345556 -0.936845 0.0537336
9.34698 14.5925 -9.96457 -0.350138 -0.935399 0.0493145
8.31667 15.0092 -9.58215 -0.359819 -0.931748 0.0487408
6.87122 15.6163 -8.96145 -0.373418 -0.926383 0.0487129
5.83638 16.0612 -8.48865 -0.380451 -0.923496 0.0491159
4.80133 16.5271 -7.74392 -0.38403 -0.921852 0.0518186
3.87383 16.9664 -6.92806 -0.39297 -0.917987 0.0533076
3.09758 17.3555 -6.08643 -0.405745 -0.9129 0.0445401
2.21986 17.8191 -4.58412 -0.405852 -0.912845 0.0446958
1.67932 18.1231 -3.42413 -0.425804 -0.904154 0.0330465
1.54129 18.2207 -2.19356 -0.421715 -0.906292 0.0266741
1.46503 18.2899 -0.947091 -0.414518 -0.909929 0.0142787
1.64505 18.2261 0.207012 -0.414564 -0.909908 0.0143113
1.93153 18.1015 1.40771 -0.418084 -0.908407 0.0016881
2.40069 17.8892 2.44113 -0.398385 -0.9172 -0.00582078
3.18399 17.5423 3.52049 -0.39794 -0.917391 -0.00609067
4.30429 17.0649 4.61981 -0.386443 -0.922281 -0.00766799
5.32916 16.6416 5.41149 -0.371363 -0.928449 -0.00847805
6.79321 16.0634 6.18672 -0.359483 -0.933151 -0.00138456
8.16145 15.5511 6.6348 -0.345526 -0.938401 0.00397906
9.65422 15.0136 7.28833 -0.334745 -0.942291 0.00502485
10.5979 14.6814 7.89841 -0.328037 -0.944634 0.00757041
11.7625 14.2882 8.36658 -0.323817 -0.946031 0.0129901
13.0495 13.8602 8.90343 -0.310926 -0.950394 0.00782337
14.256 13.4694 9.40775 -0.312514 -0.949844 0.0114578
15.5496 13.0686 10.0087 -0.301123 -0.953496 0.0130569
16.5354 12.7765 10.6649 -0.290558 -0.956773 0.0127063
17.634 12.4559 11.1993 -0.282959 -0.959033 0.01376
18.546 12.1991 11.8652 -0.275122 -0.961293 0.014977
19.6326 11.894 12.2714 -0.270481 -0.962591 0.0152333
20.8025 11.5841 13.0087 -0.265752 -0.963912 0.0157629
22.0575 11.2551 13.5799 -0.257778 -0.96608 0.0154712
23.3915 10.9136 14.2392 -0.250293 -0.968037 0.0160207
24.5261 10.6318 14.8297 -0.246962 -0.968833 0.0192891
25.5525 10.3822 15.3977 -0.239772 -0.970693 0.0162583
26.5703 10.1411 16.0218 -0.240013 -0.97063 0.0164729
27.9661 9.81893 16.8753 -0.234388 -0.972005 0.016382
29.1614 9.54972 17.5862 -0.226374 -0.973925 0.0146292
30.2014 9.32118 18.1685 -0.222633 -0.974776 0.0157254
31.5026 9.04024 18.7677 -0.215325 -0.976445 0.01353
32.6256 8.80968 19.5215 -0.206008 -0.978432 0.0151669
33.8457 8.5652 20.2148 -0.203169 -0.979029 0.0148458
35.0438 8.33292 20.9153 -0.196901 -0.980354 0.0116726
36.1188 8.12861 21.456 -0.192178 -0.981247 0.0149211
37.3968 7.89875 22.1162 -0.181054 -0.98333 0.0167576
38.4666 7.71255 22.7525 -0.180276 -0.983553 0.0108638
39.9129 7.4654 23.3982 -0.1728 -0.984903 0.0103545
41.0733 7.27187 23.9525 -0.168546 -0.985607 0.0130965
42.1516 7.09962 24.4027 -0.158468 -0.987277 0.0130881
43.3851 6.90864 24.839 -0.153324 -0.988108 0.0115552
44.7098 6.71028 25.393 -0.152922 -0.988166 0.0119449
46.3195 6.48092 25.9755 -0.144836 -0.989379 0.012305
47.8878 6.27327 26.6175 -0.133112 -0.991034 0.0112755
49.5061 6.07201 27.0923 -0.124907 -0.992076 0.0133276
50.6234 5.94373 27.3545 -0.116427 -0.993111 0.0132464
52.0885 5.78246 27.7886 -0.106549 -0.994236 0.0119099
53.3561 5.65013 28.0786 -0.106458 -0.994241 0.0123438
54.4551 5.54484 28.4142 -0.0976762 -0.995133 0.0130002
56.1565 5.38904 28.8768 -0.0910744 -0.995763 0.0126817
57.316 5.28748 29.2158 -0.0870273 -0.996131 0.0115835
58.5053 5.18985 29.3809 -0.0806367 -0.996667 0.0123148
59.7086 5.09606 29.6165 -0.0776228 -0.996885 0.0136509
61.3806 4.97596 29.8164 -0.072056 -0.997303 0.0139415
62.7592 4.88322 30.0668 -0.0657361 -0.997759 0.0124939
64.3627 4.78771 30.4546 -0.0573553 -0.998295 0.0108695
65.5669 4.72463 30.7433 -0.0518873 -0.998573 0.012629
66.7781 4.66535 31.0344 -0.0495732 -0.998677 0.0133873
68.3423 4.59456 31.4306 -0.0482516 -0.998776 0.0109117
69.7339 4.53607 31.5805 -0.0425338 -0.999026 0.0117312
71.546 4.46679 31.7561 -0.0369533 -0.999218 0.0140753
73.1995 4.41232 32.0872 -0.0340417 -0.999313 0.0146535
74.709 4.36828 32.3735 -0.0304407 -0.999414 0.0156696
76.0675 4.3313 32.5767 -0.0277707 -0.999458 0.0176969
76.8609 4.32972 33.9054 -0.0284377 -0.999475 0.015522
75.7715 4.37423 34.7653 -0.0283314 -0.999471 0.015994
74.4097 4.41984 35.1303 -0.0310425 -0.999396 0.0155962
73.1062 4.46599 35.4935 -0.031041 -0.999397 0.0155569
71.9099 4.5139 36.0651 -0.0348248 -0.999294 0.0139625
70.261 4.58179 36.6698 -0.0370588 -0.999226 0.0131671
69.0634 4.63005 36.8458 -0.0425277 -0.998993 0.0141561
67.8028 4.69052 37.2279 -0.0438219 -0.998953 0.013145
66.3091 4.7654 37.6171 -0.0483885 -0.998739 0.0132083
65.111 4.83138 37.754 -0.0548205 -0.998428 0.0113688
63.9497 4.895 37.7763 -0.0615973 -0.998067 0.00821147
62.7935 4.96806 37.9831 -0.0615723 -0.998069 0.00813983
61.6679 5.0429 38.3371 -0.0660635 -0.9978 0.00553643
60.2151 5.14624 38.7685 -0.0728631 -0.997333 0.00433094
58.754 5.25673 38.9688 -0.0767557 -0.99704 0.00444588
57.4641 5.35904 39.0502 -0.0832128 -0.996524 0.00387791
56.0087 5.48128 39.232 -0.0825741 -0.996567 0.00570142
54.3549 5.62931 39.3684 -0.0891704 -0.996016 0.000546449
53.1626 5.74394 39.4213 -0.0992786 -0.995056 0.00240763
51.5249 5.91329 39.4945 -0.107892 -0.99416 0.00226778
50.2883 6.04634 39.5882 -0.10916 -0.994018 -0.00119241
48.752 6.21946 39.8432 -0.11283 -0.993609 -0.00295352
47.3333 6.39621 39.6592 -0.123074 -0.992373 -0.00689933
45.6558 6.61772 39.6071 -0.135413 -0.990765 -0.00587608
44.3659 6.79895 39.5136 -0.144105 -0.989524 -0.00651914
42.8325 7.03285 39.2637 -0.149325 -0.988749 -0.00884568
41.3896 7.25855 39.1146 -0.155079 -0.987841 -0.0109479
39.9053 7.49968 38.8906 -0.163896 -0.986425 -0.00978356
38.6449 7.7114 38.5401 -0.166436 -0.986014 -0.00821781
37.162 7.97134 38.269 -0.172524 -0.98498 -0.00708777
35.9058 8.20007 37.931 -0.177858 -0.984005 -0.0100809
34.6314 8.44061 37.6131 -0.185814 -0.982495 -0.0132972
33.2633 8.70472 37.385 -0.18902 -0.981891 -0.0126994
31.997 8.95124 37.334 -0.192423 -0.981237 -0.0121641
30.5159 9.25377 37.1636 -0.203655 -0.978939 -0.0140604
29.05 9.56857 36.7257 -0.20884 -0.977828 -0.0150674
27.9973 9.8058 36.1917 -0.21268 -0.976995 -0.0157343
26.9302 10.0533 35.6116 -0.22014 -0.975348 -0.0149574
25.8392 10.3077 34.9972 -0.221597 -0.975053 -0.0128102
24.664 10.5877 34.6387 -0.230464 -0.972995 -0.0129421
23.69 10.8261 34.063 -0.228459 -0.973424 -0.0158506
22.3757 11.1528 33.327 -0.233405 -0.972265 -0.0149546
21.1569 11.4657 32.4312 -0.239081 -0.970876 -0.0155082
19.63 11.8618 31.5404 -0.243695 -0.969737 -0.014902
18.6208 12.133 30.764 -0.24856 -0.968491 -0.0155992
17.4325 12.4528 30.1071 -0.253097 -0.967296 -0.016736
16.2117 12.7922 29.0943 -0.256052 -0.966499 -0.017752
14.9268 13.1602 27.7635 -0.259193 -0.965625 -0.0196598
14.0689 13.407 26.975 -0.262863 -0.964623 -0.0201452
12.6609 13.8125 26.1326 -0.267423 -0.963365 -0.0201712
11.661 14.1084 25.4293 -0.269925 -0.962639 -0.0215923
10.7261 14.3919 24.7128 -0.273321 -0.961578 -0.0257643
9.83923 14.6668 23.9843 -0.276572 -0.960546 -0.0293159
9.01898 14.9286 23.2045 -0.280595 -0.959332 -0.0307852
8.18316 15.2014 22.4205 -0.284568 -0.958118 -0.0320725
7.29695 15.4941 21.6282 -0.287312 -0.957206 -0.0347628
6.1954 15.8661 20.6571 -0.292724 -0.95534 -0.0404769
5.31385 16.1657 19.9544 -0.29643 -0.953885 -0.0472537
4.21575 16.5441 19.2154 -0.296695 -0.953786 -0.0475905
3.26509 16.8785 18.5917 -0.302219 -0.951556 -0.0566142
1.64004 17.4552 17.7125 -0.308706 -0.949089 -0.0625912
0.147343 17.9471 17.6208 -0.313071 -0.947046 -0.0711002
-1.28125 18.4358 17.5369 -0.318405 -0.944354 -0.0822939
-2.68363 18.8523 18.1009 -0.316354 -0.944172 -0.0918589
-3.96595 19.2259 18.6083 -0.316577 -0.943642 -0.0964389
-5.0933 19.5202 19.3415 -0.311358 -0.945043 -0.0997464
-5.99409 19.6926 20.377 -0.302316 -0.947184 -0.106993
-6.93068 19.8584 21.5212 -0.286445 -0.952233 -0.10584
-8.10783 20.0719 22.7356 -0.281449 -0.953041 -0.111798
-8.98707 20.2119 23.7672 -0.274013 -0.956217 -0.10279
-9.92057 20.3497 24.9645 -0.273369 -0.956311 -0.103632
-10.8099 20.5031 25.8924 -0.265058 -0.959618 -0.0942169
67.2468 4.67662 34.305 -0.0464802 -0.998835 0.0130034
67.2481 4.67655 34.3037 -0.0435761 -0.998967 0.0128903
66.5389 4.70581 33.7338 -0.0499795 -0.998691 0.010899
65.6655 4.75908 34.6098 -0.0529916 -0.998547 0.00980737
65.4826 4.77114 34.7932 -0.0580406 -0.99827 0.00938738
65.3861 4.76601 33.6089 -0.0560044 -0.998392 0.00871592
64.6141 4.81768 34.3835 -0.058157 -0.998258 0.00990745
63.891 4.86828 35.1095 -0.0659298 -0.997757 0.0116015
62.1873 4.98694 35.5397 -0.0671836 -0.997689 0.0101393
63.2039 4.90734 34.518 -0.0667822 -0.997708 0.0108683
64.2745 4.82833 33.443 -0.0585417 -0.998239 0.00956408
64.4337 4.81746 33.2832 -0.0590389 -0.998195 0.0110207
63.5465 4.86619 32.8922 -0.0645177 -0.997856 0.011008
62.58 4.94197 33.8631 -0.0668238 -0.997705 0.0109665
61.6844 5.01245 34.7633 -0.067625 -0.99765 0.0110288
60.9029 5.07295 35.549 -0.0700814 -0.997496 0.00947165
60.73 5.08736 35.7229 -0.0734202 -0.997254 0.00969247
59.095 5.21199 36.086 -0.0777372 -0.996952 0.0065496
59.8825 5.1457 35.2933 -0.0737414 -0.997235 0.0092317
60.7561 5.07266 34.4143 -0.0716195 -0.997387 0.00944554
61.7297 4.99636 33.4355 -0.0700166 -0.997491 0.0104407
62.4516 4.93649 32.7101 -0.0661215 -0.997735 0.0123776
60.8946 5.05035 32.9927 -0.0700162 -0.997491 0.0104414
59.934 5.12912 33.9589 -0.0740279 -0.997206 0.00997912
59.0019 5.20959 34.8972 -0.0811891 -0.996651 0.00975447
58.2103 5.27977 35.6944 -0.078632 -0.996891 0.00509792
57.879 5.30761 36.0281 -0.0812006 -0.996684 0.00531565
56.3811 5.43443 36.2551 -0.0853677 -0.996343 0.00366686
57.6679 5.31978 34.9582 -0.0865513 -0.996234 0.00518485
58.5682 5.23787 34.0511 -0.0822574 -0.996582 0.00761148
59.4775 5.15856 33.1358 -0.080195 -0.996764 0.00556083
59.8573 5.12587 32.7537 -0.0799361 -0.996753 0.00968168
58.8824 5.19963 32.452 -0.0796753 -0.996725 0.0138024
57.8752 5.2906 33.4661 -0.0848711 -0.996364 0.0074699
56.8207 5.39103 34.5293 -0.0874843 -0.996139 0.00732829
55.4708 5.5167 35.891 -0.0915521 -0.995796 0.00299547
54.8408 5.57526 36.5267 -0.0959216 -0.995385 0.00287527
53.2566 5.72894 36.8444 -0.100169 -0.994965 0.00334677
54.4409 5.61137 35.6475 -0.0968669 -0.995292 0.00319489
55.4529 5.51238 34.6258 -0.0929397 -0.995664 0.00386003
56.6477 5.3977 33.4206 -0.086523 -0.99621 0.00888764
57.7219 5.29194 32.3373 -0.0855809 -0.996237 0.0137299
56.7061 5.37888 32.0781 -0.0890458 -0.995916 0.0149234
55.7881 5.46863 33.0037 -0.0908885 -0.99582 0.00909134
54.7279 5.57839 34.0743 -0.0935743 -0.995588 0.00692685
53.9148 5.65953 34.8955 -0.0971279 -0.995263 0.00421236
52.9424 5.75732 35.8784 -0.100169 -0.994965 0.00334668
52.1734 5.84105 36.657 -0.103173 -0.994661 0.00237119
50.6757 6.00343 36.8906 -0.11117 -0.993801 0.0003416
51.448 5.91564 36.1074 -0.109537 -0.993979 0.00268923
52.3258 5.81979 35.2185 -0.106699 -0.994288 0.00266648
53.4198 5.70482 34.112 -0.0974282 -0.995236 0.00374619
54.3651 5.60642 33.1569 -0.0980916 -0.995142 0.00836239
55.5568 5.48089 31.9536 -0.0948753 -0.995432 0.010648
55.8277 5.45237 31.6803 -0.0920851 -0.995693 0.0107545
54.5559 5.57315 31.68 -0.0949108 -0.995419 0.011541
53.667 5.66829 32.5779 -0.097609 -0.99516 0.0113318
52.8502 5.75782 33.4037 -0.098091 -0.995142 0.00836231
51.7909 5.87455 34.4759 -0.10663 -0.994293 0.00347541
50.7186 5.99616 35.5626 -0.112281 -0.99367 0.003657
49.7861 6.10356 36.5086 -0.11313 -0.99358 0.000568642
49.3201 6.15689 36.9816 -0.113862 -0.993494 0.00203371
48.0844 6.30538 36.9522 -0.122451 -0.992473 0.00166966
48.9032 6.2053 36.12 -0.114623 -0.993408 -0.00170802
49.9013 6.08751 35.1066 -0.116882 -0.993138 0.00392477
50.7498 5.98846 34.2462 -0.110549 -0.993848 0.00665576
51.7213 5.87689 33.2619 -0.106296 -0.994307 0.00735845
52.9139 5.73992 32.0548 -0.102895 -0.994659 0.00809183
53.8345 5.63713 31.1242 -0.100364 -0.994915 0.00848015
52.9611 5.72181 30.722 -0.101615 -0.99478 0.00930171
52.1271 5.81665 31.5658 -0.105686 -0.994364 0.00843956
51.3641 5.90754 32.3385 -0.113928 -0.993476 0.00500871
50.5945 6.00045 33.1185 -0.115537 -0.993293 0.00438562
49.543 6.12796 34.1852 -0.120061 -0.992764 0.00237773
48.581 6.24391 35.1622 -0.123687 -0.99232 0.00140571
47.6277 6.36201 36.1316 -0.129233 -0.991607 -0.0038522
46.7897 6.47215 36.985 -0.128721 -0.99168 0.0011023
45.828 6.60479 36.6808 -0.137968 -0.990433 -0.00282239
46.5917 6.50102 35.9016 -0.137711 -0.990467 -0.00321065
47.6649 6.3614 34.8089 -0.128117 -0.991756 0.00239817
48.6456 6.23559 33.8113 -0.12006 -0.992764 0.00237788
49.5309 6.12338 32.9121 -0.118474 -0.992938 0.00618185
50.3833 6.01855 32.0475 -0.114813 -0.993372 0.00552404
51.2201 5.91466 31.1992 -0.114006 -0.993427 0.0102242
51.9335 5.83038 30.477 -0.108436 -0.994063 0.00901454
50.8945 5.94323 30.2437 -0.116271 -0.993188 0.00769591
49.8882 6.07072 31.2641 -0.117357 -0.993055 0.00831962
48.898 6.1949 32.2689 -0.118474 -0.992938 0.00618138
47.9747 6.31579 33.2074 -0.128562 -0.99168 0.00657912
46.9143 6.45814 34.2871 -0.12952 -0.991576 0.00106076
46.0364 6.57975 35.1828 -0.136506 -0.990639 -0.000519985
45.2373 6.68902 35.9984 -0.13784 -0.99045 -0.00301664
44.6114 6.77841 36.6386 -0.146785 -0.989163 -0.00341528
43.3374 6.9674 36.657 -0.147433 -0.989068 -0.00268705
44.298 6.82759 35.6732 -0.146344 -0.989231 -0.00217523
45.0945 6.71121 34.8583 -0.146628 -0.98919 -0.00184862
46.0344 6.57905 33.8986 -0.138295 -0.990389 0.00215403
46.8913 6.45678 33.0244 -0.134894 -0.990845 0.00547455
47.8056 6.33126 32.0934 -0.126384 -0.991932 0.00992668
48.8397 6.19505 31.0425 -0.123872 -0.992289 0.00424349
49.8746 6.06164 29.9922 -0.117352 -0.993055 0.00837061
48.7686 6.19614 29.8286 -0.123004 -0.992384 0.00665618
47.8551 6.31708 30.757 -0.13182 -0.991258 0.00558368
46.9752 6.43933 31.6524 -0.136948 -0.990571 0.00373967
45.9879 6.5828 32.6595 -0.13887 -0.990307 0.0027252
44.9801 6.72909 33.6887 -0.145699 -0.989329 0.000704599
43.8777 6.89165 34.8167 -0.146487 -0.989211 -0.00201235
42.9758 7.0257 35.7409 -0.152017 -0.988372 -0.00339835
42.4134 7.11189 36.3182 -0.154756 -0.987952 -0.000714839
41.3653 7.27723 36.1071 -0.159854 -0.987138 -0.00240562
42.4781 7.10492 34.9644 -0.151437 -0.988466 -0.00130034
43.2351 6.98878 34.1877 -0.150384 -0.988628 0.000326673
44.3316 6.82416 33.0651 -0.145698 -0.989329 0.000705607
45.4009 6.66369 31.9719 -0.143122 -0.989692 0.00499276
46.1991 6.54579 31.1574 -0.140639 -0.99005 0.00471761
47.2124 6.40025 30.1247 -0.135106 -0.990807 0.00699115
47.9285 6.30102 29.3961 -0.129665 -0.991497 0.0109844
46.7561 6.45763 29.3025 -0.137277 -0.990491 0.00909164
45.5304 6.63838 30.5526 -0.142116 -0.989815 0.00828348
44.3932 6.809 31.7144 -0.144195 -0.989532 0.0058964
43.2603 6.9848 32.8746 -0.149256 -0.988796 0.0020466
42.1905 7.14802 33.9711 -0.154299 -0.988024 -0.000167319
40.9878 7.34027 35.2074 -0.159318 -0.987227 0.000273104
40.3305 7.44536 35.8834 -0.160436 -0.987044 -0.00190116
39.1926 7.6381 35.768 -0.170223 -0.985391 -0.00533753
40.2961 7.452 34.63 -0.166802 -0.985987 -0.00241806
41.3379 7.28469 33.5588 -0.157367 -0.98754 0.00044412
42.3426 7.12412 32.5269 -0.15499 -0.987916 0.00035042
43.6065 6.92604 31.2319 -0.151512 -0.988444 0.00466649
44.9224 6.72063 29.8855 -0.14672 -0.989167 0.00468411
45.6949 6.60283 29.0964 -0.137277 -0.990491 0.00909156
44.7355 6.74297 28.7882 -0.148441 -0.988863 0.0107129
43.951 6.86455 29.59 -0.154869 -0.987912 0.00675174
43.1034 7.00247 30.4586 -0.153183 -0.988196 0.00196262
42.2106 7.14356 31.3739 -0.15487 -0.987931 0.00258407
41.4416 7.26534 32.1628 -0.15599 -0.987758 0.0011854
40.3085 7.45266 33.3283 -0.167008 -0.985955 -0.00115363
39.1989 7.638 34.4717 -0.168211 -0.98575 -0.00127955
38.3143 7.79012 35.3852 -0.173016 -0.984918 -0.00168986
38.0763 7.83198 35.6313 -0.176442 -0.984306 -0.00321417
36.977 8.02956 35.4792 -0.176473 -0.9843 -0.00318893
37.7757 7.88906 34.6526 -0.176409 -0.984312 -0.00323848
38.6523 7.73452 33.7465 -0.174856 -0.984589 -0.00314299
39.7255 7.55221 32.6395 -0.167008 -0.985955 -0.00115325
40.7035 7.38528 31.6325 -0.165065 -0.986279 0.00259523
41.5908 7.24007 30.7209 -0.160848 -0.986979 -0.000821916
43.0177 7.00858 29.2575 -0.154869 -0.987912 0.00675186
43.8221 6.87655 28.4331 -0.153916 -0.988043 0.00900634
42.8969 7.02064 28.0915 -0.157318 -0.987502 0.00953633
42.0877 7.15315 28.9209 -0.158365 -0.987362 0.00608079
41.0812 7.32274 29.9553 -0.159917 -0.987119 0.00485319
40.2308 7.46318 30.8293 -0.164506 -0.986375 0.00114749
39.3499 7.6161 31.737 -0.172123 -0.985074 0.00143111
38.5685 7.75441 32.544 -0.173045 -0.984913 -0.00123209
37.7122 7.90355 33.4284 -0.176292 -0.984336 -0.00208035
36.8882 8.05037 34.281 -0.181493 -0.983385 -0.00378288
36.092 8.19252 35.1057 -0.181593 -0.983357 -0.00581589
35.3447 8.33357 34.59 -0.181993 -0.983284 -0.00551479
36.3318 8.15427 33.5667 -0.181392 -0.983409 -0.00174765
37.153 8.00712 32.7169 -0.17876 -0.983892 -0.00116055
38.0209 7.85012 31.8191 -0.176771 -0.984252 -0.000308947
38.7789 7.71485 31.0359 -0.172395 -0.985027 0.00158558
39.5955 7.57229 30.194 -0.169656 -0.985499 0.00278902
40.4074 7.43102 29.3577 -0.168651 -0.985674 0.00191708
41.3902 7.26329 28.3473 -0.161077 -0.986921 0.00636061
42.1219 7.13932 27.596 -0.156663 -0.987595 0.010586
41.5101 7.23212 26.9335 -0.162606 -0.986635 0.0105087
40.4621 7.41525 28.0109 -0.166005 -0.986111 0.00528563
39.6827 7.55397 28.8137 -0.168716 -0.985656 0.00417975
38.7877 7.71107 29.7362 -0.176565 -0.984288 0.00139451
37.8442 7.88163 30.711 -0.176452 -0.984308 0.00126862
37.0217 8.02966 31.5614 -0.177642 -0.984095 0.000388881
35.9898 8.21941 32.6302 -0.185241 -0.982692 -0.00123496
35.0828 8.38735 33.5712 -0.185778 -0.982581 -0.00450131
34.3252 8.52972 34.3592 -0.188802 -0.981999 -0.00563812
34.1732 8.55761 34.5173 -0.188769 -0.981986 -0.00838761
32.9829 8.78686 34.4645 -0.188849 -0.981971 -0.00831363
33.8666 8.62031 33.5445 -0.188832 -0.982005 -0.00288802
34.6258 8.4775 32.7546 -0.185876 -0.98257 -0.00263491
35.5073 8.31136 31.8393 -0.185239 -0.982693 -0.00123331
36.3911 8.14674 30.9232 -0.184508 -0.982831 -0.000885791
37.4942 7.94316 29.7811 -0.176507 -0.984298 0.00133177
38.6824 7.72671 28.5536 -0.175797 -0.984406 0.00636781
39.6276 7.55526 27.5792 -0.168674 -0.98565 0.00655353
40.3834 7.41862 26.801 -0.170276 -0.985356 0.00893322
40.6811 7.3644 26.4947 -0.166904 -0.985921 0.0100971
39.684 7.53416 26.2296 -0.170136 -0.985374 0.00961955
38.8888 7.67816 27.0485 -0.172564 -0.984973 0.00705826
37.8747 7.868 28.0958 -0.175798 -0.984406 0.0063675
36.8227 8.06438 29.1839 -0.182644 -0.983171 0.0040618
36.0739 8.20703 29.9605 -0.183744 -0.982973 0.00178789
35.2543 8.36104 30.8104 -0.188711 -0.982032 -0.00151908
34.253 8.55088 31.8499 -0.18816 -0.982134 -0.00283852
33.4647 8.7034 32.6708 -0.192042 -0.981369 -0.00596152
32.1999 8.94695 33.9891 -0.197233 -0.980332 -0.00689273
31.6088 9.06133 34.6053 -0.196481 -0.9805 -0.00389233
30.6161 9.26826 34.3503 -0.205133 -0.978715 -0.00609124
31.3758 9.11579 33.5564 -0.197233 -0.980332 -0.00689092
32.5313 8.888 32.3506 -0.195157 -0.980757 -0.00539828
33.281 8.74265 31.5698 -0.193315 -0.981135 -0.00192594
34.0568 8.59085 30.7617 -0.191107 -0.981569 -0.000250914
34.9406 8.42198 29.8437 -0.189111 -0.981954 0.00172828
36.1433 8.18816 28.595 -0.182644 -0.983171 0.00406158
37.268 7.97277 27.43 -0.179895 -0.983661 0.00701676
38.1361 7.81034 26.5334 -0.178144 -0.983973 0.00791973
38.5373 7.73347 26.1184 -0.176496 -0.984263 0.0087254
37.7594 7.86953 25.6286 -0.178326 -0.983922 0.00987644
36.9929 8.01642 26.4216 -0.178144 -0.983973 0.00791984
36.233 8.16234 27.2086 -0.184113 -0.982883 0.00664535
35.3813 8.32982 28.0921 -0.190644 -0.981644 0.00555646
34.5416 8.4959 28.965 -0.190188 -0.98174 0.00381564
33.5882 8.68377 29.9567 -0.1942 -0.980962 -0.000173244
32.5703 8.88377 31.0168 -0.197516 -0.980297 -0.00221974
31.6751 9.06476 31.9514 -0.200246 -0.979737 -0.00411224
30.7508 9.24961 32.9168 -0.206024 -0.978524 -0.00665574
29.9709 9.40851 33.733 -0.206502 -0.978415 -0.00783857
29.8628 9.43041 33.846 -0.208004 -0.978101 -0.00722206
28.8475 9.65172 33.6179 -0.213464 -0.976892 -0.0107142
29.8064 9.45099 32.6122 -0.210714 -0.977522 -0.0070606
30.5915 9.2907 31.7908 -0.205906 -0.978562 -0.00435927
31.5079 9.10303 30.8327 -0.201405 -0.979506 -0.00184847
32.5787 8.88361 29.7143 -0.198115 -0.980179 0.000204052
33.8019 8.63767 28.4399 -0.196131 -0.980566 0.00476854
34.5929 8.47982 27.6172 -0.191121 -0.98154 0.00726837
35.7194 8.25573 26.4472 -0.186399 -0.98246 0.00522213
36.5665 8.08923 25.5688 -0.184328 -0.982845 0.00614705
36.9841 8.00821 25.1366 -0.184328 -0.982846 0.00614749
36.1177 8.16822 24.7396 -0.184349 -0.982823 0.00866053
35.365 8.31636 25.5202 -0.186537 -0.98242 0.00734168
34.2444 8.54251 26.6849 -0.197027 -0.980395 0.00232996
33.4538 8.70451 27.5081 -0.200343 -0.979724 0.00181679
32.4829 8.90275 28.5202 -0.202199 -0.979344 0.000638602
31.596 9.08625 29.4465 -0.20292 -0.979195 -0.000554282
30.763 9.26201 30.3182 -0.209895 -0.977721 -0.00242443
29.9389 9.43182 31.1803 -0.210612 -0.977553 -0.00572827
29.1579 9.59808 32.0001 -0.213951 -0.976824 -0.00624562
28.4228 9.7538 32.7716 -0.215101 -0.976537 -0.0103562
27.5957 9.94279 32.3492 -0.217523 -0.975994 -0.0109538
28.7268 9.69788 31.1597 -0.214127 -0.976788 -0.00592877
29.9026 9.44698 29.9252 -0.210612 -0.977553 -0.00572865
30.8699 9.24058 28.9118 -0.209657 -0.977775 0.000256336
31.7072 9.06439 28.0362 -0.204603 -0.978844 0.00101094
32.5371 8.89132 27.1694 -0.200342 -0.979724 0.00181637
33.4133 8.70851 26.2556 -0.198959 -0.980004 0.00284748
34.2536 8.53343 25.38 -0.197336 -0.98031 0.00711065
34.971 8.38972 24.635 -0.192002 -0.981372 0.0066677
34.5641 8.46108 23.7622 -0.193416 -0.981081 0.00836889
33.8137 8.61616 24.5425 -0.201304 -0.97951 0.00601031
32.8508 8.82013 25.5468 -0.201376 -0.979496 0.00586309
31.6574 9.07442 26.7934 -0.206509 -0.978442 0.00223331
30.5011 9.32169 28.0037 -0.213454 -0.976953 -0.000477185
29.6898 9.49652 28.8541 -0.21437 -0.976751 -0.001854
28.5303 9.74717 30.0723 -0.214241 -0.976765 -0.00551908
27.4812 9.9758 31.1763 -0.220436 -0.975379 -0.00664979
26.6198 10.1645 32.0838 -0.223871 -0.974571 -0.00970341
25.7117 10.3762 31.7486 -0.223728 -0.974605 -0.00950597
26.4787 10.2049 30.9385 -0.225325 -0.974265 -0.00597356
27.3307 10.0167 30.0406 -0.221398 -0.975173 -0.00448435
28.2802 9.80785 29.0407 -0.215048 -0.976597 -0.00349902
29.4419 9.5529 27.8196 -0.21437 -0.976751 -0.00185314
30.1825 9.39024 27.0424 -0.214024 -0.976828 0.00127231
31.3597 9.13306 25.8089 -0.207701 -0.978183 0.00422652
32.1908 8.95205 24.939 -0.204977 -0.978748 0.00607089
33.0329 8.77353 24.0601 -0.201232 -0.979524 0.00615771
33.684 8.63134 23.3805 -0.198378 -0.980082 0.00925773
32.8625 8.79745 22.9405 -0.20501 -0.978724 0.00832361
31.6875 9.05475 24.1688 -0.208717 -0.977958 0.00598249
30.696 9.27138 25.2066 -0.212525 -0.977145 0.00448446
29.9384 9.44394 26.0026 -0.216272 -0.97633 0.00233121
28.6617 9.72808 27.3443 -0.218359 -0.975867 -0.00148971
27.8557 9.90472 28.1916 -0.221619 -0.975129 -0.0027897
26.7995 10.1422 29.3056 -0.223529 -0.97467 -0.00726364
25.7923 10.368 30.369 -0.227472 -0.973744 -0.00891371
24.8809 10.5732 31.3326 -0.232758 -0.972484 -0.00996957
23.9923 10.7908 30.9796 -0.233604 -0.972266 -0.0113059
24.7856 10.607 30.1385 -0.235314 -0.971888 -0.00784525
25.6405 10.4127 29.2343 -0.228524 -0.973517 -0.00649954
26.5246 10.2128 28.3005 -0.224573 -0.974446 -0.00466416
27.6677 9.95059 27.0937 -0.221618 -0.97513 -0.00278892
28.4216 9.78141 26.3004 -0.219101 -0.975702 0.00053377
29.7275 9.48593 24.927 -0.218163 -0.975906 0.00359208
30.7399 9.25512 23.8634 -0.213713 -0.976883 0.00521004
31.5472 9.07767 23.0181 -0.209714 -0.977736 0.00718335
32.2003 8.9311 22.3348 -0.207919 -0.97812 0.0071814
31.4517 9.08873 21.8207 -0.211224 -0.977413 0.00689202
30.2338 9.36508 23.0975 -0.218699 -0.975782 0.00444625
28.9885 9.64919 24.4053 -0.218163 -0.975906 0.00359227
28.1905 9.8366 25.247 -0.224501 -0.974464 0.00432098
26.8446 10.1441 26.6662 -0.227641 -0.973741 -0.00293517
25.644 10.4214 27.9349 -0.230205 -0.973127 -0.00545364
24.8082 10.6115 28.8185 -0.233282 -0.972384 -0.00697792
23.9595 10.8107 29.7191 -0.236054 -0.971699 -0.00889066
23.0952 11.0118 30.6365 -0.237094 -0.971411 -0.0121107
22.5927 11.1451 29.8747 -0.238919 -0.97098 -0.0107511
23.3606 10.9622 29.0583 -0.238062 -0.971212 -0.00861693
24.2068 10.7627 28.1602 -0.237192 -0.971442 -0.00637
25.2938 10.5078 27.0085 -0.231039 -0.972939 -0.0033192
26.5692 10.2106 25.6598 -0.228506 -0.97354 -0.00238795
28.0271 9.86938 24.1207 -0.227575 -0.973759 0.00149856
28.8359 9.67913 23.2675 -0.221334 -0.97519 0.00395724
29.755 9.46625 22.3019 -0.217349 -0.976057 0.00843798
30.48 9.29869 21.5408 -0.216913 -0.97616 0.00775178
29.7313 9.46076 21.0279 -0.216722 -0.9762 0.00806096
28.7048 9.70236 22.1073 -0.224783 -0.974391 0.0059275
27.7005 9.94382 23.1667 -0.227528 -0.973752 0.00616779
26.9618 10.1181 23.9461 -0.228532 -0.973535 0.00182076
26.2022 10.299 24.7496 -0.228997 -0.973427 -0.000122684
25.1001 10.5586 25.916 -0.233225 -0.972422 -0.00124458
24.1951 10.7727 26.8751 -0.238523 -0.971131 -0.00349593
23.3535 10.9736 27.7687 -0.237257 -0.971425 -0.00645777
22.5785 11.1602 28.5933 -0.240832 -0.970521 -0.00938453
21.7425 11.3603 29.4829 -0.244291 -0.969631 -0.0117722
20.8351 11.5929 29.1533 -0.244291 -0.96963 -0.0117713
21.7864 11.3612 28.1391 -0.2431 -0.969959 -0.00901478
23.0119 11.0636 26.8341 -0.243288 -0.969931 -0.00671669
24.0735 10.8071 25.706 -0.239803 -0.970814 -0.00373613
24.8566 10.6194 24.8753 -0.235696 -0.971819 -0.00388077
25.8017 10.3927 23.874 -0.232562 -0.972581 -0.000771593
26.6395 10.1915 22.9874 -0.231898 -0.972728 0.00487693
27.5537 9.97094 22.0221 -0.2305 -0.973057 0.00538029
28.3258 9.7851 21.2079 -0.227222 -0.973824 0.00605208
28.8568 9.65813 20.6491 -0.226897 -0.973902 0.00570002
27.8788 9.8844 20.3798 -0.226641 -0.973941 0.00853673
26.8507 10.1339 21.4648 -0.230739 -0.972994 0.00653372
25.9597 10.3514 22.407 -0.233536 -0.972332 0.00552568
25.1486 10.5494 23.266 -0.234625 -0.972086 -0.000126648
24.195 10.7822 24.278 -0.236192 -0.971705 -0.00168248
23.1654 11.0327 25.3721 -0.239803 -0.970814 -0.00373593
22.32 11.242 26.2729 -0.24605 -0.969247 -0.00448259
21.1375 11.5319 27.5341 -0.247024 -0.968971 -0.00863671
20.3279 11.7288 28.3972 -0.248816 -0.968498 -0.0101125
19.4365 11.9638 28.0536 -0.249856 -0.968213 -0.0116043
20.2325 11.7662 27.2026 -0.251122 -0.967907 -0.00970699
21.4777 11.4574 25.872 -0.245851 -0.969279 -0.00750835
22.6261 11.1707 24.6466 -0.245667 -0.969349 -0.00315495
23.7144 10.9003 23.4881 -0.240706 -0.970598 3.0183e-05
24.8391 10.6229 22.2937 -0.237858 -0.971296 0.00285594
25.9432 10.3485 21.1232 -0.234977 -0.971985 0.00549233
26.7099 10.1614 20.3132 -0.232817 -0.972497 0.00680075
27.2037 10.0381 19.7903 -0.232252 -0.972617 0.00862375
26.3457 10.2401 19.3958 -0.233082 -0.972415 0.00905094
25.6106 10.4236 20.174 -0.232817 -0.972497 0.00680049
24.5138 10.6996 21.3379 -0.240833 -0.970553 0.0051624
23.4232 10.9723 22.497 -0.24433 -0.969691 0.00158939
22.2756 11.2623 23.72 -0.248635 -0.968596 -0.0013009
21.2841 11.5137 24.7794 -0.250282 -0.968157 -0.00548816
20.4522 11.724 25.6698 -0.25054 -0.968091 -0.00535161
19.6566 11.922 26.5204 -0.251012 -0.96794 -0.00921718
18.8305 12.1285 27.4049 -0.254686 -0.966953 -0.0116595
18.6788 12.1662 27.5675 -0.253953 -0.967123 -0.0134795
18.2033 12.3011 26.78 -0.253766 -0.967185 -0.0124633
19.1274 12.0681 25.7894 -0.255449 -0.966774 -0.00970105
20.0307 11.8378 24.8205 -0.25054 -0.968091 -0.00535161
21.0164 11.5887 23.766 -0.250616 -0.968082 -0.00311838
22.0404 11.3241 22.6699 -0.248635 -0.968596 -0.00130139
22.8716 11.1116 21.7835 -0.247515 -0.968881 0.00225253
23.6934 10.9018 20.9082 -0.242076 -0.97024 0.00570935
24.6459 10.6596 19.8957 -0.239618 -0.970845 0.00659466
25.5165 10.4395 18.9718 -0.238186 -0.971203 0.00567522
25.7934 10.3699 18.6785 -0.237789 -0.97128 0.00843136
25.0566 10.5443 18.156 -0.241512 -0.970357 0.00889911
24.108 10.7896 19.1648 -0.243803 -0.969817 0.00401833
23.3553 10.9829 19.9658 -0.245219 -0.969453 0.00536901
22.6091 11.1762 20.7611 -0.248083 -0.968734 0.00307728
21.5104 11.4629 21.9351 -0.253159 -0.967425 -0.00017889
20.3949 11.7511 23.1291 -0.25447 -0.967079 -0.00190283
19.513 11.9804 24.0757 -0.256078 -0.966624 -0.0079321
18.5966 12.2147 25.0588 -0.255293 -0.966826 -0.00854612
17.7254 12.4365 25.9953 -0.255449 -0.966774 -0.00970104
17.6713 12.45 26.0532 -0.256172 -0.966543 -0.0130621
16.7565 12.6986 25.7358 -0.258248 -0.966009 -0.0116056
17.7128 12.4537 24.708 -0.259456 -0.965698 -0.0105257
18.6292 12.2156 23.7224 -0.25775 -0.966198 -0.00520768
19.3861 12.0195 22.9096 -0.255931 -0.96669 -0.00303677
20.3332 11.7697 21.8926 -0.254469 -0.967079 -0.00190245
21.1692 11.551 20.9979 -0.254185 -0.967154 0.00167031
21.9076 11.3552 20.2071 -0.25304 -0.967453 0.00227037
22.982 11.0729 19.0604 -0.252557 -0.96757 0.00476153
23.7467 10.8723 18.2451 -0.243056 -0.969963 0.00981153
24.1889 10.7567 17.7738 -0.242284 -0.97016 0.00935497
23.2658 10.9893 17.4533 -0.248501 -0.96857 0.0108787
22.5265 11.1854 18.2422 -0.252778 -0.967493 0.00772981
21.4163 11.4819 19.4285 -0.253041 -0.967453 0.00226992
20.6175 11.6939 20.2844 -0.256346 -0.966583 0.00179921
19.7796 11.9191 21.184 -0.258448 -0.966024 -0.00135773
18.8205 12.172 22.214 -0.259163 -0.965829 -0.00295667
17.7943 12.4434 23.318 -0.259538 -0.965709 -0.00679022
16.8507 12.6882 24.3337 -0.261843 -0.96507 -0.00881281
15.9479 12.9226 25.3055 -0.264419 -0.964309 -0.0138414
15.6169 13.0256 24.362 -0.263492 -0.964598 -0.0111072
16.7111 12.7386 23.183 -0.265047 -0.964182 -0.0101631
17.8477 12.435 21.9572 -0.266448 -0.963829 -0.00626369
18.6344 12.2256 21.1104 -0.258448 -0.966024 -0.0013578
19.6026 11.9658 20.0688 -0.258753 -0.965943 0.000729165
20.4353 11.7417 19.1756 -0.258858 -0.965915 0.00106611
21.4996 11.453 18.0347 -0.25476 -0.966988 0.00560135
22.6067 11.1519 16.8514 -0.252699 -0.967494 0.00995695
21.3461 11.4868 16.8928 -0.255627 -0.966746 0.00754684
20.1954 11.8037 18.1262 -0.261467 -0.965196 0.00564718
19.3273 12.0384 19.0585 -0.261792 -0.965123 0.00133094
18.2623 12.3285 20.2057 -0.263711 -0.964597 -0.00306158
17.4624 12.5471 21.0696 -0.266371 -0.963868 -0.00200691
16.5675 12.7875 22.0349 -0.264687 -0.964307 -0.00722596
15.77 12.9999 22.8961 -0.267892 -0.963409 -0.00882423
14.5952 13.3126 24.1659 -0.269977 -0.962778 -0.013071
13.9137 13.5114 23.6036 -0.268326 -0.963216 -0.0146697
15.0585 13.2057 22.364 -0.269689 -0.962881 -0.0113054
15.8223 12.9999 21.5379 -0.271092 -0.962497 -0.0104232
17.0929 12.6513 20.1626 -0.272377 -0.962175 -0.00556717
17.931 12.4221 19.2575 -0.26426 -0.964451 -0.000841667
19.3076 12.042 17.7725 -0.261792 -0.965123 0.00132945
20.2645 11.7766 16.7453 -0.261103 -0.96529 0.00635525
20.5515 11.697 16.4373 -0.262153 -0.964992 0.00816511
19.7809 11.9022 15.9563 -0.262153 -0.964992 0.00816567
19.0436 12.1089 16.7493 -0.265519 -0.964089 0.005626
17.7754 12.4642 18.1174 -0.265613 -0.96408 0.000400066
16.7908 12.7421 19.1844 -0.271969 -0.962303 -0.002428
16.0487 12.948 19.9875 -0.271682 -0.962369 -0.00592498
14.9511 13.2492 21.1783 -0.27104 -0.962532 -0.00835277
14.0919 13.4808 22.1092 -0.277442 -0.960632 -0.0145886
13.0721 13.7573 23.2163 -0.274868 -0.96131 -0.0182072
12.5381 13.9221 22.4952 -0.275603 -0.961147 -0.0154683
13.333 13.7072 21.6321 -0.277652 -0.96056 -0.0152575
14.0897 13.502 20.8099 -0.279618 -0.960019 -0.0133111
15.1164 13.2162 19.6938 -0.277755 -0.960586 -0.0112485
16.0228 12.9612 18.7092 -0.277835 -0.960614 -0.00541566
16.9831 12.6894 17.6681 -0.27477 -0.96151 -0.000602836
17.7857 12.4586 16.7978 -0.273383 -0.961895 0.00447064
18.8277 12.1633 15.6736 -0.266655 -0.963784 0.00402808
18.8602 12.1542 15.6385 -0.267487 -0.963534 0.00730936
17.9846 12.3946 15.2722 -0.275773 -0.961195 0.0072754
17.0085 12.6818 16.3313 -0.2781 -0.960545 0.00367656
15.734 13.0493 17.7156 -0.278194 -0.960525 -0.000742566
14.9083 13.2843 18.6133 -0.278275 -0.960487 -0.005194
14.1425 13.5017 19.4474 -0.281723 -0.959429 -0.0113403
13.37 13.7188 20.2888 -0.279617 -0.960019 -0.0133113
12.3421 14.0007 21.4079 -0.28188 -0.959314 -0.0161067
11.7962 14.1476 22.0006 -0.280256 -0.959716 -0.0200384
11.5319 14.247 20.9885 -0.286097 -0.957949 -0.0219777
12.3693 14.0166 20.0757 -0.283663 -0.958738 -0.0188692
13.1367 13.8 19.2374 -0.28476 -0.958522 -0.0121594
13.9115 13.5814 18.393 -0.285372 -0.958375 -0.0089207
