-1.69685 21.863 6.20285 -0.473064 -0.876692 -0.0873026
-2.50688 22.1775 7.19827 -0.461986 -0.880726 -0.104361
-3.52942 22.5487 8.4477 -0.470571 -0.87008 -0.146709
-4.24416 22.7895 9.31202 -0.460637 -0.873402 -0.158056
-5.31157 23.0994 10.5652 -0.450666 -0.876992 -0.166688
-6.03038 23.2797 11.3912 -0.419914 -0.887796 -0.188391
-6.79824 23.4527 12.2617 -0.4075 -0.891521 -0.197823
-7.91094 23.6685 13.5022 -0.396849 -0.896377 -0.197535
-9.04674 23.8484 14.7405 -0.355006 -0.911973 -0.20561
-9.88231 23.9514 15.633 -0.342429 -0.916131 -0.208439
-10.7442 24.0503 16.5502 -0.328226 -0.922524 -0.203019
-11.642 24.1383 17.4946 -0.30304 -0.929648 -0.209576
-12.8594 24.2488 18.7681 -0.282432 -0.938123 -0.200392
-13.6962 24.309 19.6341 -0.26706 -0.944248 -0.192548
-14.5477 24.3832 20.521 -0.261817 -0.947683 -0.182618
-15.6796 24.4685 21.6919 -0.251889 -0.953353 -0.166342
-16.8055 24.556 22.8555 -0.24409 -0.955377 -0.166359
-16.8295 24.5577 22.8803 -0.234839 -0.958739 -0.160221
-17.8071 24.8381 22.6458 -0.234469 -0.957605 -0.167384
-16.7009 24.761 21.5071 -0.239789 -0.956855 -0.164102
-15.6443 24.697 20.4226 -0.249086 -0.95086 -0.183906
-14.8474 24.6415 19.6004 -0.26706 -0.944248 -0.192548
-13.9486 24.5905 18.6767 -0.271947 -0.940756 -0.20254
-12.9241 24.5226 17.6195 -0.283852 -0.932084 -0.225051
-11.7986 24.4365 16.4506 -0.314437 -0.922948 -0.222027
-11 24.3703 15.6174 -0.339059 -0.913117 -0.226399
-10.0355 24.2568 14.5902 -0.346989 -0.912559 -0.216411
-9.00469 24.1242 13.4871 -0.385707 -0.894995 -0.224086
-8.06076 23.9675 12.4536 -0.406573 -0.888675 -0.212027
-7.05099 23.7748 11.3306 -0.407499 -0.891521 -0.197825
-6.3227 23.6023 10.5 -0.42086 -0.88836 -0.183556
-5.58155 23.4128 9.64621 -0.450745 -0.876699 -0.168014
-4.79899 23.1886 8.72329 -0.460635 -0.873403 -0.158055
-4.06432 22.9416 7.83279 -0.471595 -0.870997 -0.137706
-3.08181 22.5712 6.61981 -0.490098 -0.864305 -0.113051
-2.37774 22.2797 5.73987 -0.49645 -0.863058 -0.093101
-1.67781 21.9827 4.87025 -0.485741 -0.869006 -0.0942556
-1.03039 21.6777 4.04864 -0.490157 -0.869555 -0.0601762
-0.0693972 21.2154 2.83047 -0.48853 -0.871861 -0.0345951
0.271853 21.0479 2.3973 -0.471683 -0.88106 -0.03533
-0.0271387 21.239 1.42 -0.494209 -0.869032 -0.0232356
-0.876618 21.6832 2.51543 -0.492885 -0.869119 -0.0412018
-1.63193 22.0649 3.48796 -0.502613 -0.8624 -0.0603859
-2.423 22.4402 4.49325 -0.49645 -0.863058 -0.093101
-3.1072 22.7518 5.36238 -0.507084 -0.85698 -0.0919323
-4.19942 23.1963 6.72952 -0.495668 -0.858615 -0.130747
-4.98695 23.4735 7.69383 -0.475559 -0.86485 -0.160865
-5.69376 23.6982 8.54369 -0.472949 -0.861804 -0.18334
-6.63052 23.9554 9.6413 -0.44788 -0.87137 -0.200292
-7.92616 24.2421 11.1081 -0.417386 -0.881629 -0.22027
-9.25405 24.464 12.5634 -0.383558 -0.892583 -0.237022
-10.1264 24.5845 13.5023 -0.349715 -0.903613 -0.24735
-11.0021 24.6716 14.4221 -0.351616 -0.902676 -0.248077
-11.8342 24.7364 15.2869 -0.31131 -0.922122 -0.229734
-12.5871 24.7965 16.0709 -0.298768 -0.927604 -0.22425
-13.3938 24.8406 16.8978 -0.283016 -0.932008 -0.226412
-14.1752 24.8853 17.7003 -0.273137 -0.93515 -0.22559
-14.9741 24.9175 18.5135 -0.267534 -0.940786 -0.2082
-16.0383 24.9598 19.5977 -0.247743 -0.94496 -0.213715
-16.86 25.0076 20.4404 -0.239407 -0.952092 -0.190275
-17.7068 25.0479 21.3046 -0.239621 -0.954558 -0.177203
-18.4732 25.0956 22.0905 -0.227644 -0.959853 -0.163892
-19.2388 25.3549 21.6356 -0.226162 -0.960048 -0.164799
-18.2673 25.3088 20.6449 -0.227298 -0.956135 -0.184774
-17.2892 25.2691 19.65 -0.228145 -0.953234 -0.198228
-16.4634 25.2487 18.8146 -0.248321 -0.944653 -0.214402
-15.5151 25.2225 17.8546 -0.255283 -0.938064 -0.234235
-14.487 25.1883 16.8125 -0.261366 -0.933603 -0.245097
-13.3888 25.1508 15.699 -0.295504 -0.921379 -0.252465
-12.1724 25.0849 14.4513 -0.323757 -0.910117 -0.258591
-11.3648 25.0346 13.6217 -0.353515 -0.901733 -0.248806
-10.4278 24.9386 12.6383 -0.357356 -0.895605 -0.264933
-9.58868 24.829 11.7403 -0.404668 -0.877827 -0.25625
-8.85414 24.7223 10.946 -0.404753 -0.877839 -0.256074
-7.61098 24.4789 9.55589 -0.440087 -0.866192 -0.236717
-6.41451 24.1736 8.16864 -0.460895 -0.867051 -0.189206
-5.69215 23.9384 7.29562 -0.489095 -0.854644 -0.17427
-4.57416 23.5328 5.91819 -0.520215 -0.841286 -0.147021
-3.84788 23.2329 5.00012 -0.525271 -0.844569 -0.103894
-3.1782 22.933 4.15072 -0.515198 -0.850507 -0.105869
-2.4113 22.546 3.15696 -0.537267 -0.841014 -0.0635528
-1.74207 22.2066 2.29311 -0.516922 -0.855121 -0.0394835
-0.974889 21.7866 1.28549 -0.511195 -0.858903 -0.0310771
-0.119666 21.3159 0.173968 -0.491469 -0.870844 -0.00939422
-0.297917 21.4145 -0.965194 -0.493278 -0.869781 0.0125318
-1.09471 21.8838 0.0744939 -0.517409 -0.855708 -0.00719683
-2.02317 22.4126 1.30278 -0.514014 -0.857292 -0.0289889
-2.90511 22.9128 2.47697 -0.536152 -0.841989 -0.0599539
-3.55366 23.2628 3.32833 -0.526388 -0.846011 -0.0847362
-4.64927 23.7752 4.74721 -0.535269 -0.838512 -0.101905
-5.35029 24.0617 5.63121 -0.511386 -0.846181 -0.14987
-6.0222 24.3174 6.46497 -0.49905 -0.845985 -0.187775
-7.22829 24.6847 7.91336 -0.478442 -0.855691 -0.197195
-8.47023 24.9756 9.33197 -0.440738 -0.867086 -0.23219
-9.24948 25.1222 10.1997 -0.4048 -0.877832 -0.256022
-10.1283 25.2486 11.1551 -0.391871 -0.883343 -0.257182
-10.9099 25.342 11.9815 -0.37008 -0.889035 -0.269551
-11.8638 25.4175 12.9682 -0.343855 -0.895496 -0.282578
-12.9292 25.473 14.0554 -0.313017 -0.907041 -0.281598
-13.9442 25.5029 15.08 -0.287851 -0.917939 -0.273001
-14.8123 25.5197 15.9523 -0.267536 -0.929284 -0.254668
-15.9075 25.5305 17.0486 -0.255283 -0.938064 -0.234235
-16.8289 25.5366 17.9712 -0.231695 -0.94417 -0.234222
-17.6109 25.5457 18.7576 -0.22755 -0.950143 -0.213188
-18.6834 25.5636 19.8383 -0.228145 -0.953234 -0.198228
-19.4619 25.5909 20.6282 -0.214872 -0.959961 -0.179736
-19.7102 25.5993 20.8801 -0.214519 -0.959995 -0.179978
-20.6781 25.8621 20.6282 -0.207237 -0.962144 -0.17701
-19.7376 25.8361 19.677 -0.215622 -0.95581 -0.199838
-18.8151 25.8286 18.7509 -0.208378 -0.956027 -0.206374
-17.8471 25.8314 17.7839 -0.230073 -0.944236 -0.235551
-16.869 25.8335 16.8077 -0.233316 -0.9441 -0.232893
-15.9633 25.8479 15.9119 -0.250722 -0.933682 -0.255689
-14.9163 25.8548 14.8743 -0.271404 -0.921441 -0.278004
-13.745 25.8485 13.7078 -0.296457 -0.91064 -0.287834
-12.9173 25.828 12.8765 -0.327996 -0.90233 -0.279677
-11.8405 25.7808 11.7886 -0.343855 -0.895496 -0.282579
-11.0918 25.7035 11.0038 -0.383272 -0.880441 -0.279152
-10.1995 25.6139 10.0626 -0.421409 -0.866176 -0.268615
-9.32491 25.4833 9.11462 -0.444057 -0.856808 -0.262095
-8.18457 25.2393 7.8304 -0.468927 -0.848354 -0.245769
-7.47385 25.0369 6.98084 -0.478442 -0.855691 -0.197195
-6.7866 24.8363 6.1587 -0.505318 -0.846251 -0.168856
-5.8795 24.4878 5.03119 -0.523514 -0.835385 -0.167528
-4.91287 24.0678 3.79408 -0.558656 -0.818975 -0.131085
-4.15415 23.6984 2.79438 -0.571684 -0.816864 -0.0768831
-3.36208 23.2524 1.73662 -0.535032 -0.84295 -0.056353
-2.73895 22.8979 0.906236 -0.5481 -0.835406 -0.0410166
-1.85514 22.3462 -0.296937 -0.54853 -0.836104 -0.006751
-1.01709 21.822 -1.41881 -0.527429 -0.84934 0.0209651
-0.249531 21.3526 -2.3985 -0.501768 -0.864475 0.0301872
0.193998 20.9948 -4.31849 -0.497504 -0.865841 0.0529967
-0.810533 21.642 -3.06302 -0.494611 -0.867838 0.04709
-1.45045 22.0748 -2.23128 -0.532766 -0.845763 0.0290954
-2.0572 22.4725 -1.41703 -0.539151 -0.841962 0.0204081
-2.7003 22.9025 -0.524915 -0.546187 -0.837608 -0.00960767
-3.33638 23.3018 0.343342 -0.561176 -0.82747 -0.0193498
-4.07996 23.7693 1.36636 -0.578844 -0.812396 -0.0703726
-5.0159 24.3063 2.64056 -0.564461 -0.821237 -0.0833845
-5.76756 24.6759 3.6344 -0.557299 -0.819839 -0.131462
-6.87896 25.1348 5.04119 -0.53534 -0.824107 -0.18509
-7.70024 25.4214 6.05728 -0.512032 -0.825686 -0.236783
-8.5874 25.6642 7.11157 -0.471115 -0.849342 -0.23805
-9.51976 25.8715 8.17551 -0.444057 -0.856807 -0.262096
-10.2832 25.9877 8.99207 -0.421108 -0.865722 -0.270543
-11.434 26.1273 10.2142 -0.385553 -0.8727 -0.299573
-12.3904 26.181 11.1939 -0.339191 -0.886596 -0.314479
-13.4378 26.2275 12.2524 -0.315778 -0.896946 -0.309472
-14.5802 26.2232 13.3766 -0.294689 -0.911644 -0.286466
-15.5672 26.203 14.345 -0.255247 -0.924808 -0.282099
-16.7337 26.1709 15.4882 -0.241413 -0.934624 -0.261148
-17.7582 26.1381 16.495 -0.219181 -0.939954 -0.261622
-18.8979 26.1061 17.6197 -0.204712 -0.951541 -0.229484
-19.8456 26.0939 18.5628 -0.209528 -0.953883 -0.214955
-20.7127 26.0979 19.432 -0.200486 -0.959901 -0.195946
-21.2433 26.1057 19.9656 -0.206912 -0.960878 -0.184124
-21.5954 26.353 19.0916 -0.199709 -0.961781 -0.187332
-20.5578 26.3552 18.0547 -0.202978 -0.957002 -0.207237
-19.6727 26.3805 17.1794 -0.201114 -0.953968 -0.222481
-18.5087 26.427 16.0355 -0.207444 -0.944273 -0.255567
-17.4085 26.4782 14.9625 -0.207957 -0.9393 -0.272892
-16.6186 26.5279 14.2004 -0.249345 -0.920939 -0.299498
-15.7474 26.5645 13.3545 -0.253412 -0.921128 -0.295476
-14.7685 26.599 12.4069 -0.285677 -0.904425 -0.316866
-13.6798 26.6236 11.3513 -0.315777 -0.896946 -0.309472
-12.9109 26.6064 10.5851 -0.335993 -0.882411 -0.329332
-11.9895 26.5689 9.6512 -0.390456 -0.86399 -0.317907
-11.1699 26.5025 8.80671 -0.423592 -0.853945 -0.302238
-10.4231 26.3839 8.00475 -0.451259 -0.841976 -0.295706
-9.5358 26.2333 7.03706 -0.481821 -0.831842 -0.275476
-8.72373 26.049 6.09998 -0.5218 -0.8197 -0.236257
-7.70919 25.7257 4.85978 -0.545325 -0.818047 -0.182808
-6.94941 25.4361 3.90353 -0.546551 -0.82232 -0.158343
-5.92897 24.9577 2.57154 -0.573596 -0.811189 -0.113843
-5.25441 24.5723 1.63573 -0.576516 -0.812288 -0.0884115
-4.52645 24.1297 0.629502 -0.574182 -0.818176 -0.0300304
-3.61806 23.5331 -0.637123 -0.57825 -0.815438 -0.0262229
-2.98113 23.077 -1.5368 -0.564088 -0.825578 0.0150187
-2.21348 22.5357 -2.60831 -0.531925 -0.845715 0.0426837
-1.46105 22.0074 -3.60484 -0.534579 -0.84383 0.0466532
-0.525998 21.376 -4.78603 -0.490232 -0.868901 0.0684379
0.348739 20.7872 -5.86616 -0.480859 -0.873174 0.0796382
1.01749 20.3611 -6.6761 -0.462558 -0.883685 0.0716978
2.03011 19.7487 -7.8806 -0.45465 -0.887241 0.078075
72.5251 2.79308 -33.6277 -0.00987723 -0.9997 0.0224122
71.0907 2.85548 -32.1938 -0.0142721 -0.999436 0.0303809
70.9108 2.86352 -32.0139 -0.0143733 -0.999443 0.0301201
71.494 2.80059 -33.8747 -0.0126612 -0.999683 0.0217739
70.1849 2.85745 -32.5659 -0.0150948 -0.999431 0.0301471
68.7141 2.93813 -31.0951 -0.0210601 -0.999073 0.0375327
68.67 2.94075 -31.051 -0.0230067 -0.998968 0.0391505
67.0578 2.9935 -30.716 -0.0288665 -0.998777 0.0401497
68.4936 2.90332 -32.1524 -0.0218211 -0.99906 0.0374457
69.7308 2.84056 -33.3897 -0.0178008 -0.99955 0.0241358
70.3679 2.81382 -34.0269 -0.0174564 -0.999573 0.0234214
68.895 2.84476 -33.8322 -0.0207698 -0.999492 0.0241889
67.2562 2.93025 -32.1927 -0.0275523 -0.999213 0.0285476
65.7839 3.0341 -30.7193 -0.0311643 -0.998838 0.0367727
65.412 3.05941 -30.347 -0.0331244 -0.99881 0.0358011
63.8298 3.13446 -30.0414 -0.0452588 -0.998376 0.0345913
65.1831 3.03085 -31.3966 -0.0350846 -0.998777 0.0348295
66.5034 2.93706 -32.7181 -0.0289538 -0.999173 0.0285411
67.9919 2.85711 -34.2073 -0.0235533 -0.999421 0.0245465
68.0682 2.85343 -34.2836 -0.0233682 -0.999418 0.0248516
67.1895 2.86414 -34.6834 -0.0323428 -0.999153 0.025437
65.721 2.9474 -33.2138 -0.0342657 -0.999116 0.0243508
64.3224 3.04701 -31.8137 -0.0421401 -0.998562 0.0331497
62.9848 3.15597 -30.474 -0.045067 -0.997997 0.0443919
62.6522 3.18582 -30.1407 -0.0503576 -0.997847 0.0420171
61.1095 3.28135 -29.8737 -0.0552636 -0.997515 0.0437044
62.3344 3.16537 -31.1015 -0.0554822 -0.997734 0.0380556
63.9348 3.03426 -32.7048 -0.0438082 -0.998484 0.0333369
65.1613 2.95038 -33.9327 -0.0368302 -0.99902 0.0245288
65.7576 2.91441 -34.5295 -0.0320221 -0.999179 0.024805
64.289 2.97416 -34.3386 -0.0384535 -0.999012 0.022287
63.0663 3.0614 -33.1142 -0.0489963 -0.998453 0.0262871
61.7515 3.17135 -31.7968 -0.0538514 -0.997861 0.0370562
60.5015 3.28978 -30.5437 -0.0609138 -0.997314 0.0406704
59.6072 3.38568 -29.646 -0.0670583 -0.996662 0.0465537
58.044 3.50875 -29.3563 -0.071344 -0.996351 0.046842
59.3332 3.36209 -30.651 -0.0722384 -0.996824 0.033511
60.7593 3.22057 -32.0819 -0.0642123 -0.997562 0.027338
62.2585 3.09163 -33.5847 -0.0587773 -0.997913 0.0267193
63.2761 3.01406 -34.6039 -0.0472987 -0.998617 0.0229602
61.7869 3.09702 -34.3917 -0.0578322 -0.997929 0.0281777
60.4785 3.2123 -33.0802 -0.0602111 -0.997715 0.0306335
58.9583 3.35886 -31.555 -0.0713298 -0.996953 0.0315731
57.6043 3.50721 -30.1949 -0.0771007 -0.996164 0.0413832
56.5598 3.63324 -29.145 -0.0769196 -0.996168 0.0416197
55.1824 3.74274 -29.0402 -0.0760466 -0.996265 0.0408969
56.4683 3.59179 -30.3337 -0.0816372 -0.996 0.0363122
57.9247 3.42851 -31.7975 -0.0760243 -0.996633 0.0307113
59.6162 3.25264 -33.4956 -0.0681122 -0.997184 0.0313942
60.3693 3.1839 -34.2507 -0.0589075 -0.997863 0.0282678
58.3835 3.33602 -33.5389 -0.0738592 -0.996852 0.0288317
56.7315 3.51825 -31.8794 -0.0785206 -0.99643 0.031014
55.1762 3.69703 -30.3155 -0.079975 -0.996141 0.0361566
53.8644 3.8505 -28.9949 -0.0846114 -0.995681 0.0382228
53.397 3.90829 -28.5241 -0.0849406 -0.995645 0.0384292
51.5901 4.09036 -27.9833 -0.0935422 -0.994988 0.0353262
52.9046 3.91996 -29.3103 -0.0849405 -0.995645 0.0384294
54.3448 3.7476 -30.7606 -0.0812418 -0.996103 0.0343201
55.8105 3.57906 -32.235 -0.0792188 -0.99634 0.0321141
56.4539 3.50804 -32.8816 -0.0774182 -0.996507 0.0312926
54.6853 3.66526 -32.3849 -0.0810219 -0.996173 0.0327964
53.4488 3.81025 -31.1411 -0.0841604 -0.995866 0.0341858
51.83 4.0109 -29.5094 -0.0922278 -0.994888 0.0411208
50.4477 4.19613 -28.1125 -0.10714 -0.993729 0.0319934
49.8207 4.28564 -27.4777 -0.117049 -0.992043 0.0463762
48.2408 4.48263 -27.1601 -0.11226 -0.992588 0.0465564
49.7061 4.25712 -28.6465 -0.10479 -0.993798 0.037219
50.9464 4.0766 -29.9019 -0.0993709 -0.994233 0.0403224
52.1694 3.91984 -31.1355 -0.0871391 -0.995599 0.0344891
53.3929 3.77444 -32.3669 -0.0857807 -0.995982 0.0257358
53.5754 3.75398 -32.5504 -0.0857809 -0.995982 0.0257358
51.9146 3.90993 -32.1615 -0.0873422 -0.996101 0.0124368
50.2238 4.13192 -30.4559 -0.105523 -0.99356 0.0412601
48.9855 4.31361 -29.2024 -0.109112 -0.993354 0.0366422
47.4129 4.55643 -27.6061 -0.116614 -0.992275 0.0423354
46.661 4.68729 -26.8407 -0.120353 -0.991086 0.0571319
44.9305 4.93443 -26.3661 -0.130328 -0.98941 0.0638969
46.3891 4.67053 -27.8528 -0.123412 -0.991241 0.0470123
47.603 4.4709 -29.0871 -0.116614 -0.992275 0.0423354
48.8595 4.28359 -30.3611 -0.109374 -0.993217 0.0394607
50.2017 4.08729 -31.7177 -0.101849 -0.99431 0.0312223
50.8943 3.99622 -32.416 -0.0873422 -0.996101 0.0124369
49.7588 4.11026 -32.5548 -0.105361 -0.99409 0.0261613
48.3675 4.30608 -31.1487 -0.111206 -0.993139 0.0361812
47.0014 4.51424 -29.7645 -0.116949 -0.992344 0.0397113
45.7171 4.72524 -28.4577 -0.122673 -0.991417 0.0452159
44.4586 4.94828 -27.1755 -0.131712 -0.989591 0.0579801
43.5374 5.13009 -26.2327 -0.152804 -0.986266 0.0627004
41.8637 5.41967 -25.8028 -0.161267 -0.98512 0.0594221
43.2983 5.11154 -27.2798 -0.153142 -0.986871 0.0513066
44.5173 4.87197 -28.5264 -0.123714 -0.991381 0.0431182
45.8947 4.64015 -29.9282 -0.121244 -0.991715 0.0424304
47.1198 4.45089 -31.1716 -0.116723 -0.99279 0.0272888
48.5709 4.23654 -32.6406 -0.118503 -0.992524 0.0292033
48.6888 4.21891 -32.7599 -0.113714 -0.993168 0.0262091
47.2171 4.40062 -32.5575 -0.118503 -0.992524 0.0292036
45.6993 4.62601 -31.0192 -0.12791 -0.991519 0.0229954
44.2155 4.86873 -29.5093 -0.140105 -0.989516 0.0350494
42.9656 5.11404 -28.2303 -0.15663 -0.986669 0.0441632
41.7695 5.36329 -27.0007 -0.154348 -0.986486 0.0549719
40.1953 5.72893 -25.3717 -0.168766 -0.983831 0.0599523
40.0741 5.75762 -25.2459 -0.170691 -0.983498 0.0599661
38.2252 6.12763 -24.6201 -0.199272 -0.978104 0.0600269
39.8776 5.73304 -26.3397 -0.183023 -0.982195 0.0423698
41.4114 5.38244 -27.9252 -0.175946 -0.983345 0.0455623
42.7059 5.10934 -29.2564 -0.15663 -0.986669 0.0441632
43.9374 4.87242 -30.5167 -0.140105 -0.989516 0.0350488
45.2436 4.66564 -31.8452 -0.12791 -0.991519 0.0229956
45.9196 4.56395 -32.5305 -0.126589 -0.991632 0.0253163
44.7845 4.70665 -32.6675 -0.141574 -0.989606 0.0252299
43.3079 4.94892 -31.1637 -0.159006 -0.987029 0.0221483
41.8465 5.23765 -29.6654 -0.174192 -0.984195 0.0319023
40.6385 5.49903 -28.4217 -0.180325 -0.982749 0.0410639
39.3728 5.79263 -27.1129 -0.185052 -0.98169 0.0451639
37.9625 6.12539 -25.6466 -0.201894 -0.978383 0.0447757
36.607 6.49402 -24.2226 -0.221371 -0.973262 0.0612774
36.0731 6.65183 -23.6593 -0.217553 -0.974098 0.0616782
33.9822 7.19716 -22.7433 -0.238615 -0.969186 0.0611626
35.1432 6.84144 -23.9807 -0.219619 -0.973936 0.0567034
36.3754 6.48679 -25.2824 -0.218831 -0.974457 0.0504713
37.7848 6.1164 -26.7594 -0.199075 -0.97918 0.039698
39.0785 5.80347 -28.1042 -0.185368 -0.981696 0.0437157
40.2715 5.53065 -29.3371 -0.178041 -0.983484 0.0325787
41.6384 5.24075 -30.7431 -0.173213 -0.984443 0.0294696
43.1706 4.95034 -32.3127 -0.151885 -0.988293 0.0144476
43.4578 4.9048 -32.6049 -0.145929 -0.9891 0.0196558
42.1147 5.1203 -32.5221 -0.163378 -0.986457 0.0145202
40.4492 5.44854 -30.8142 -0.174898 -0.984124 0.0301836
39.1462 5.7322 -29.4713 -0.184664 -0.982369 0.029159
37.9064 6.01351 -28.1885 -0.192146 -0.979665 0.057754
36.6567 6.33636 -26.8827 -0.217672 -0.97441 0.0560687
35.3045 6.7259 -25.4561 -0.236793 -0.970324 0.0489947
33.7788 7.17903 -23.8358 -0.250953 -0.966647 0.0511568
32.5206 7.58622 -22.4866 -0.257423 -0.964503 0.0588806
32.4159 7.62104 -22.374 -0.257423 -0.964503 0.0588807
30.9244 8.04156 -22.0773 -0.261803 -0.963229 0.0604066
32.2073 7.61178 -23.4604 -0.255983 -0.965255 0.0524833
33.5299 7.19064 -24.8771 -0.2486 -0.967594 0.0442814
34.8292 6.79681 -26.2579 -0.240057 -0.969107 0.0566081
36.0813 6.42686 -27.581 -0.226421 -0.97303 0.0441188
37.4706 6.05812 -29.035 -0.208806 -0.977507 0.029669
38.9964 5.72073 -30.6129 -0.188477 -0.981469 0.0345778
40.2917 5.446 -31.945 -0.172903 -0.984588 0.0263035
38.7949 5.72431 -31.7009 -0.190833 -0.981251 0.0270109
37.2852 6.07108 -30.1383 -0.206095 -0.978287 0.0219042
35.9044 6.4198 -28.6966 -0.223772 -0.973891 0.0382437
34.7088 6.76296 -27.4362 -0.239957 -0.969686 0.0461568
33.3566 7.18149 -25.9988 -0.245787 -0.96813 0.0480836
31.9251 7.63241 -24.4674 -0.257356 -0.964967 0.0510484
30.58 8.07838 -23.0183 -0.266989 -0.962065 0.0561106
29.2847 8.52666 -21.6135 -0.271463 -0.960253 0.064977
27.3826 9.11993 -20.8574 -0.281078 -0.957713 0.0614955
28.88 8.58596 -22.4898 -0.271462 -0.960698 0.0580351
30.2249 8.12336 -23.9482 -0.266836 -0.962211 0.0542988
31.5061 7.6986 -25.3288 -0.25707 -0.965089 0.0501768
32.8391 7.27529 -26.7552 -0.247081 -0.96768 0.0504714
34.2923 6.82795 -28.2993 -0.245738 -0.96858 0.0382841
35.7525 6.41518 -29.8374 -0.228528 -0.973021 0.0316923
37.0176 6.10332 -31.1571 -0.212271 -0.976721 0.030954
37.4116 6.00472 -31.5665 -0.212271 -0.976721 0.0309538
35.658 6.40696 -31.0371 -0.219674 -0.975171 0.0280291
34.4752 6.72662 -29.795 -0.243742 -0.969265 0.0333921
33.0853 7.12161 -28.3271 -0.247403 -0.968533 0.0271363
31.5665 7.61299 -26.7032 -0.25796 -0.964985 0.0475389
29.8709 8.17038 -24.8792 -0.271984 -0.960962 0.0507685
28.5427 8.63158 -23.4389 -0.282075 -0.958091 0.0499473
27.3419 9.05767 -22.1303 -0.287341 -0.95643 0.0517366
26.1091 9.52314 -20.7768 -0.302536 -0.951559 0.0548382
25.3196 9.81788 -19.9078 -0.304543 -0.950771 0.0573345
23.4352 10.4905 -19.1351 -0.320924 -0.945298 0.0584748
24.6352 10.0124 -20.4691 -0.311519 -0.948908 0.0502951
25.9429 9.50825 -21.9124 -0.310007 -0.949195 0.0540856
27.5571 8.90908 -23.6823 -0.293007 -0.954901 0.048075
29.224 8.32103 -25.4933 -0.272237 -0.960996 0.0487189
30.5052 7.89121 -26.8761 -0.271967 -0.961199 0.0461576
32.0472 7.40488 -28.5234 -0.265159 -0.963233 0.0432885
33.5495 6.94608 -30.121 -0.249325 -0.967755 0.0358773
34.3179 6.72409 -30.9317 -0.235955 -0.971358 0.0280824
32.6331 7.17744 -30.4538 -0.256721 -0.965834 0.035468
31.26 7.59725 -28.9922 -0.258333 -0.965397 0.0356673
30.0062 7.99605 -27.6494 -0.273475 -0.961114 0.0383643
28.8424 8.38552 -26.3937 -0.27249 -0.961026 0.0466692
27.6942 8.78997 -25.1463 -0.293224 -0.954724 0.0502221
26.4463 9.25244 -23.7814 -0.29895 -0.953015 0.0489045
25.0962 9.76292 -22.2962 -0.309756 -0.949413 0.0516405
23.4646 10.4031 -20.4879 -0.318655 -0.946412 0.0525742
22.2116 10.9089 -19.0904 -0.321316 -0.945161 0.0585302
21.5748 11.1695 -18.3786 -0.321468 -0.945073 0.059122
19.7902 11.8394 -17.6961 -0.334993 -0.940309 0.0599949
20.9672 11.3395 -19.0219 -0.328998 -0.942586 0.0573745
22.0927 10.8788 -20.2807 -0.323249 -0.944788 0.0537202
23.3679 10.3682 -21.7015 -0.317102 -0.947022 0.0509508
24.5955 9.88911 -23.0605 -0.313916 -0.948236 0.0480149
25.7492 9.44457 -24.3334 -0.309123 -0.949755 0.0490788
26.9391 9.00178 -25.6367 -0.298818 -0.953502 0.039257
28.1534 8.57247 -26.9569 -0.294329 -0.954912 0.0389092
29.4752 8.11776 -28.3876 -0.273659 -0.961068 0.0381956
30.8989 7.66164 -29.915 -0.266015 -0.963528 0.029147
31.0405 7.61799 -30.0659 -0.266014 -0.963528 0.0291468
29.9413 7.91738 -30.2 -0.270067 -0.962321 0.0316526
28.5136 8.39192 -28.6591 -0.2906 -0.956114 0.0373797
27.2047 8.85207 -27.2389 -0.295526 -0.954456 0.0409764
25.6867 9.40176 -25.5809 -0.304139 -0.951643 0.0432934
24.22 9.96779 -23.9626 -0.312326 -0.948725 0.0487076
22.8706 10.4945 -22.4685 -0.321865 -0.945517 0.0489877
21.7467 10.9452 -21.2164 -0.323899 -0.944804 0.0493375
20.4964 11.4566 -19.8179 -0.335401 -0.940647 0.0518627
19.3307 11.9516 -18.5033 -0.33774 -0.939412 0.0586216
18.1768 12.4498 -17.1981 -0.341792 -0.937969 0.0582425
17.224 12.8663 -16.1173 -0.344436 -0.936978 0.0586181
15.454 13.568 -15.434 -0.350488 -0.934662 0.059707
16.7554 12.989 -16.9139 -0.346338 -0.936236 0.0592643
17.8553 12.5077 -18.1607 -0.340667 -0.938478 0.0566122
19.3371 11.8723 -19.8353 -0.339342 -0.939116 0.0539336
20.8046 11.2602 -21.4841 -0.333292 -0.941558 0.0488256
22.4353 10.6008 -23.3032 -0.32679 -0.943764 0.0501729
23.7241 10.0949 -24.7323 -0.316901 -0.947263 0.0476065
24.9205 9.62865 -26.0555 -0.314221 -0.948267 0.0453238
26.1942 9.15824 -27.4518 -0.29873 -0.953409 0.0420926
27.3678 8.73864 -28.729 -0.298996 -0.953535 0.037055
28.409 8.37324 -29.8596 -0.284839 -0.957893 0.0361761
26.9682 8.82959 -29.6077 -0.299487 -0.953362 0.0375261
25.5715 9.32551 -28.0867 -0.298018 -0.953782 0.038535
24.2429 9.82591 -26.6261 -0.314221 -0.948267 0.0453238
22.9566 10.328 -25.2012 -0.31677 -0.9473 0.0477457
21.6425 10.8524 -23.7393 -0.327704 -0.943512 0.0489383
20.0905 11.4865 -22.0045 -0.336176 -0.940634 0.0468294
18.7755 12.0358 -20.5259 -0.340053 -0.938925 0.0527657
17.5493 12.5621 -19.1399 -0.345697 -0.936757 0.0545859
16.3127 13.1012 -17.7396 -0.347914 -0.935884 0.0554692
15.0491 13.6658 -16.3014 -0.352211 -0.934037 0.0593409
13.7888 14.2336 -14.8646 -0.353739 -0.933535 0.0581519
13.5881 14.3235 -14.636 -0.35507 -0.933069 0.0575181
11.6243 15.1404 -13.7197 -0.365193 -0.929197 0.0568041
12.7132 14.6411 -14.9645 -0.360185 -0.931101 0.0575948
13.9016 14.1004 -16.3214 -0.357433 -0.932248 0.0561738
15.0582 13.577 -17.6415 -0.358265 -0.931955 0.0557311
16.2113 13.0671 -18.9511 -0.347915 -0.935884 0.0554674
17.3176 12.5847 -20.204 -0.34532 -0.93681 0.0560547
18.5244 12.0703 -21.5676 -0.339234 -0.939446 0.0486015
19.6409 11.6065 -22.8216 -0.335985 -0.940578 0.049266
20.7628 11.1412 -24.0785 -0.331526 -0.942213 0.0482144
21.95 10.6585 -25.4038 -0.327964 -0.943381 0.0497228
23.0734 10.2156 -26.6509 -0.316406 -0.947339 0.0493639
24.5136 9.65983 -28.2429 -0.307856 -0.9505 0.0421217
25.6108 9.2636 -29.4432 -0.303505 -0.952214 0.0342608
23.5992 9.94612 -28.5546 -0.31672 -0.947824 0.0363036
22.3971 10.4125 -27.2225 -0.325803 -0.944358 0.0451652
20.7926 11.0571 -25.4346 -0.325501 -0.94413 0.0516502
19.2052 11.7162 -23.6554 -0.335791 -0.940516 0.0517025
17.9607 12.2401 -22.2561 -0.342694 -0.938249 0.04743
16.7763 12.7448 -20.9175 -0.350674 -0.935189 0.0494878
15.6774 13.227 -19.6701 -0.352792 -0.93422 0.0526468
14.3832 13.8033 -18.1985 -0.358302 -0.931957 0.0554622
12.9733 14.4404 -16.59 -0.361532 -0.930724 0.0552083
11.8695 14.9467 -15.3276 -0.366261 -0.92893 0.0542467
10.5289 15.5709 -13.791 -0.374235 -0.92562 0.0563574
9.56711 16.0279 -12.6842 -0.378892 -0.923657 0.0574245
7.69415 16.8563 -11.8548 -0.387207 -0.919949 0.0613493
8.82682 16.3021 -13.1595 -0.378892 -0.923657 0.057424
10.0521 15.7161 -14.5704 -0.374273 -0.925594 0.0565291
11.2107 15.1742 -15.8989 -0.367928 -0.928242 0.054728
12.498 14.5802 -17.3727 -0.3648 -0.929424 0.055606
13.6791 14.0437 -18.7218 -0.359792 -0.931592 0.0518239
14.9292 13.4828 -20.1455 -0.356304 -0.93289 0.0525773
16.2276 12.9141 -21.6212 -0.349538 -0.935679 0.0482478
17.4529 12.3886 -23.0057 -0.343718 -0.937806 0.048762
18.7109 11.8545 -24.422 -0.339932 -0.939174 0.0489631
19.8419 11.3805 -25.6923 -0.340444 -0.939064 0.0475063
20.9524 10.9214 -26.9367 -0.33239 -0.94219 0.0423667
22.1472 10.4513 -28.2652 -0.324837 -0.944964 0.0390304
22.3691 10.3648 -28.5117 -0.324836 -0.944965 0.0390305
20.7192 10.9599 -27.9965 -0.332327 -0.942423 0.0373803
19.5682 11.4281 -26.7083 -0.340467 -0.939037 0.0478682
18.4071 11.9147 -25.4031 -0.339849 -0.939293 0.0472325
17.1979 12.4259 -24.0416 -0.344098 -0.937544 0.0510635
15.8545 13.0078 -22.5215 -0.351706 -0.934917 0.0472612
14.5752 13.5682 -21.0697 -0.356491 -0.93289 0.0512798
13.3519 14.1171 -19.6738 -0.360124 -0.931473 0.0516657
12.0583 14.7025 -18.1952 -0.363592 -0.929919 0.0552463
10.7569 15.3049 -16.7036 -0.366245 -0.92877 0.0570063
9.54456 15.8764 -15.3121 -0.374756 -0.925225 0.0592966
8.09617 16.5718 -13.6432 -0.381208 -0.922485 0.0608437
6.99244 17.1172 -12.3713 -0.390673 -0.918486 0.0613019
5.75016 17.7538 -10.9225 -0.400662 -0.913897 0.0652915
5.56873 17.8492 -10.7095 -0.407244 -0.910808 0.0676792
19.2213 11.5118 -27.6415 -0.342668 -0.938677 0.038263
18.1095 11.9786 -26.3898 -0.34506 -0.937547 0.0440465
17.4482 12.2556 -25.6463 -0.347018 -0.936874 0.0429646
16.6154 12.6067 -24.7079 -0.346708 -0.937021 0.0422598
15.9801 12.8826 -23.9876 -0.354301 -0.93353 0.054709
15.2745 13.1924 -23.187 -0.352887 -0.934452 0.0476506
14.1933 13.6653 -21.9616 -0.354316 -0.933835 0.0491214
13.3925 14.0241 -21.0462 -0.358039 -0.932229 0.0524996
12.5925 14.3852 -20.1318 -0.359752 -0.931476 0.0541477
11.5673 14.8503 -18.959 -0.363663 -0.929981 0.0537132
10.8896 15.1611 -18.1815 -0.36855 -0.92801 0.0544718
9.87308 15.6347 -17.0158 -0.370523 -0.927133 0.0560093
9.26237 15.9261 -16.3129 -0.373252 -0.925736 0.0607886
8.63838 16.2248 -15.5948 -0.37369 -0.925555 0.0608594
7.94273 16.5626 -14.7903 -0.379663 -0.923294 0.0581784
6.9323 17.0564 -13.6247 -0.38663 -0.920035 0.0636556
6.32847 17.3617 -12.9268 -0.390859 -0.918164 0.0648419
5.38631 17.8511 -11.8287 -0.403929 -0.912268 0.0678786
4.7324 18.1991 -11.0613 -0.410232 -0.909217 0.0709578
4.06835 18.5611 -10.2811 -0.422546 -0.903416 0.072759
3.18361 19.0651 -9.2395 -0.428105 -0.9009 0.0714523
2.1314 19.6864 -8.00063 -0.438842 -0.894967 0.080328
-21.8182 26.6075 18.0915 -0.19292 -0.958843 -0.208329
-20.437 26.644 16.7248 -0.194272 -0.953623 -0.229917
-19.2163 26.718 15.5348 -0.192492 -0.948387 -0.252009
-17.8946 26.8063 14.255 -0.209616 -0.93407 -0.289092
-16.6362 26.9057 13.0531 -0.251379 -0.921037 -0.297489
-15.4199 26.9773 11.8907 -0.254019 -0.909453 -0.329195
-14.033 27.0346 10.5666 -0.288696 -0.89116 -0.349985
-12.7618 27.0343 9.31611 -0.360107 -0.873517 -0.327553
-11.6556 26.9471 8.18286 -0.395524 -0.8651 -0.308483
-10.3738 26.7642 6.81541 -0.454239 -0.844977 -0.282276
-9.1149 26.5051 5.38906 -0.524027 -0.817213 -0.239916
-7.90721 26.0834 3.89064 -0.551637 -0.810627 -0.196417
-6.91229 25.6261 2.58496 -0.577311 -0.804902 -0.137274
-5.99744 25.1495 1.35148 -0.588111 -0.8036 -0.0913931
-4.99318 24.5011 -0.081706 -0.625007 -0.779232 -0.0465132
-4.04048 23.8267 -1.43678 -0.58102 -0.813448 0.0267873
-3.21702 23.2005 -2.62451 -0.56558 -0.823053 0.0519977
-2.12883 22.3942 -4.11192 -0.5282 -0.84693 0.0609436
-1.21005 21.7215 -5.29891 -0.511935 -0.856118 0.0706016
-0.234159 21.0617 -6.50284 -0.495355 -0.864942 0.0806178
0.859033 20.348 -7.82723 -0.450357 -0.88816 0.0913804
1.94378 19.6806 -9.11312 -0.442579 -0.893211 0.0793556
2.98086 19.072 -10.3306 -0.426806 -0.90103 0.0773462
3.94315 18.53 -11.463 -0.418266 -0.905763 0.0681679
4.92502 17.9936 -12.6178 -0.40494 -0.911615 0.0705845
5.92813 17.4723 -13.7853 -0.38907 -0.918837 0.0660567
6.95928 16.9511 -14.9806 -0.380037 -0.922654 0.0654262
8.19738 16.3493 -16.4126 -0.374129 -0.925373 0.06093
9.29904 15.8249 -17.6812 -0.372392 -0.926357 0.0564565
10.3024 15.3566 -18.8345 -0.368447 -0.928115 0.0533821
11.4209 14.8411 -20.1187 -0.364669 -0.92958 0.0538369
12.5734 14.3167 -21.4368 -0.358895 -0.931853 0.0533237
13.5625 13.875 -22.567 -0.358418 -0.932225 0.0499236
14.6392 13.4027 -23.7889 -0.355105 -0.933629 0.047298
16.1217 12.7551 -25.4737 -0.355199 -0.933693 0.0452807
17.1613 12.3161 -26.6446 -0.348111 -0.93636 0.0452571
17.8354 12.0312 -27.4051 -0.342901 -0.938237 0.0461455
15.9412 12.7705 -26.5917 -0.35099 -0.935359 0.0437006
14.7871 13.2727 -25.2824 -0.354883 -0.933779 0.0459873
13.663 13.7631 -24.0048 -0.355138 -0.933625 0.0471395
12.659 14.2066 -22.8608 -0.358097 -0.932339 0.0501017
11.5257 14.7176 -21.5651 -0.363471 -0.930057 0.0536968
10.3307 15.2657 -20.1954 -0.366448 -0.928833 0.0546284
9.17764 15.8011 -18.869 -0.3711 -0.926918 0.0557449
7.86951 16.4198 -17.3615 -0.374301 -0.925431 0.0589589
6.85154 16.9103 -16.1871 -0.381014 -0.922315 0.0645306
5.80712 17.4352 -14.971 -0.38733 -0.919469 0.0674735
4.50763 18.1128 -13.4551 -0.404258 -0.91132 0.0779233
3.40431 18.7189 -12.1572 -0.416449 -0.905586 0.080526
2.41102 19.2858 -10.9862 -0.427198 -0.900856 0.0771977
1.30173 19.945 -9.69012 -0.440092 -0.893377 0.0905356
0.360035 20.5237 -8.57873 -0.458829 -0.883967 0.0898853
-0.57194 21.149 -7.44401 -0.48337 -0.869525 0.101384
-1.48606 21.7934 -6.31665 -0.505723 -0.855923 0.107887
-2.43441 22.5148 -5.08397 -0.530767 -0.844878 0.0668343
-3.33397 23.2253 -3.88523 -0.563178 -0.824946 0.0478928
-4.19699 23.9106 -2.63268 -0.58866 -0.808179 0.0180827
-5.05004 24.6076 -1.37735 -0.632016 -0.774955 -0.000860949
-6.00058 25.3028 0.023548 -0.606861 -0.791808 -0.0689873
-6.96327 25.879 1.39835 -0.615719 -0.777691 -0.126837
-8.06059 26.4383 2.88568 -0.574118 -0.800693 -0.171112
-9.1131 26.8231 4.18882 -0.544151 -0.815181 -0.198441
-10.6408 27.2038 5.97246 -0.475075 -0.83201 -0.286468
-11.8011 27.3726 7.21306 -0.409831 -0.856183 -0.314626
-13.1227 27.4622 8.54586 -0.343763 -0.880315 -0.326913
-14.3333 27.4563 9.73576 -0.298513 -0.890834 -0.342498
-15.6893 27.3752 11.0089 -0.244784 -0.900412 -0.359639
-17.0949 27.2628 12.3309 -0.215158 -0.924746 -0.313929
-18.3399 27.1385 13.5094 -0.204171 -0.929307 -0.307739
-19.5433 27.0237 14.6591 -0.176055 -0.945576 -0.273662
-20.844 26.9213 15.9186 -0.185895 -0.953016 -0.239171
-22.0095 26.8654 17.0627 -0.173775 -0.957257 -0.231217
-22.089 27.1473 15.9313 -0.160533 -0.963253 -0.215344
-20.7967 27.2562 14.6803 -0.160126 -0.951754 -0.261771
-19.4672 27.3834 13.4048 -0.172182 -0.936788 -0.304602
-17.9364 27.5765 11.9676 -0.187745 -0.930897 -0.313341
-16.7429 27.6941 10.8487 -0.217451 -0.903779 -0.368644
-15.3194 27.8388 9.53588 -0.27191 -0.896288 -0.350332
-14.097 27.9029 8.38649 -0.32525 -0.88443 -0.334658
-12.7197 27.8769 7.03463 -0.374298 -0.867561 -0.327474
-11.5867 27.7521 5.86487 -0.430787 -0.840486 -0.328643
-10.4737 27.5599 4.63416 -0.490297 -0.820679 -0.293418
-9.44857 27.2551 3.42211 -0.574654 -0.786307 -0.226923
-8.45685 26.8664 2.16745 -0.621146 -0.767711 -0.157474
-7.42043 26.3453 0.758659 -0.615719 -0.777691 -0.126837
-6.50261 25.7562 -0.598562 -0.643851 -0.763377 -0.0520841
-5.64898 25.0966 -1.89466 -0.632016 -0.774955 -0.000861634
-4.75326 24.3018 -3.25929 -0.61671 -0.786926 0.0204057
-3.88253 23.5551 -4.54257 -0.5785 -0.812627 0.0705326
-2.88237 22.7085 -5.87869 -0.558626 -0.821922 0.111271
-1.8046 21.8654 -7.28068 -0.500848 -0.859594 0.101237
-0.718085 21.0912 -8.61705 -0.471765 -0.876017 0.100165
0.678685 20.1927 -10.2813 -0.444107 -0.891586 0.0885622
1.85937 19.4851 -11.6607 -0.424941 -0.900569 0.0916549
2.87507 18.8982 -12.8589 -0.413918 -0.906644 0.0816687
3.89371 18.3331 -14.0635 -0.404754 -0.911122 0.0776554
5.08588 17.7042 -15.4595 -0.392199 -0.917203 0.0701328
6.35524 17.0648 -16.9415 -0.380134 -0.922912 0.0610891
7.51104 16.5076 -18.2758 -0.373925 -0.925661 0.057721
8.54527 16.0172 -19.469 -0.368735 -0.927661 0.058989
9.52849 15.5577 -20.602 -0.365996 -0.928967 0.0553867
10.7317 15.0037 -21.9835 -0.364329 -0.929724 0.0536509
11.853 14.4943 -23.2677 -0.36041 -0.931405 0.0508839
13.0071 13.9843 -24.5845 -0.357523 -0.932737 0.0466702
14.0219 13.5403 -25.7387 -0.353185 -0.934342 0.0475926
14.3736 13.3869 -26.1386 -0.352352 -0.934773 0.0452398
12.763 14.0242 -25.6338 -0.357027 -0.93285 0.0481867
11.5388 14.5671 -24.2361 -0.361249 -0.931279 0.0471082
10.213 15.1654 -22.7163 -0.36469 -0.929672 0.052071
9.20968 15.6259 -21.5638 -0.365476 -0.929179 0.0552535
8.21236 16.0894 -20.4144 -0.368058 -0.928042 0.0571866
7.21844 16.5625 -19.2643 -0.372963 -0.925959 0.0591436
6.13244 17.0845 -18.0068 -0.378434 -0.923619 0.0609569
5.06959 17.6138 -16.7716 -0.390843 -0.918003 0.0671709
4.08684 18.1208 -15.6197 -0.399001 -0.914119 0.0720063
3.11898 18.6428 -14.4755 -0.405253 -0.910923 0.0773908
1.92075 19.3161 -13.0559 -0.413812 -0.90661 0.082575
0.833989 19.9547 -11.772 -0.431487 -0.896336 0.101986
-0.311338 20.6701 -10.4391 -0.454404 -0.885538 0.0966422
-1.29295 21.3274 -9.25815 -0.471764 -0.876017 0.100164
-2.21611 22.0046 -8.12416 -0.500894 -0.859126 0.104922
-3.16395 22.7621 -6.8932 -0.548856 -0.827667 0.11715
-4.17302 23.6782 -5.55235 -0.5745 -0.813303 0.0921308
-5.18646 24.5979 -4.07229 -0.63745 -0.767808 0.064251
-6.05116 25.4048 -2.72491 -0.659235 -0.751218 0.0328738
-7.013 26.228 -1.20339 -0.643851 -0.763377 -0.0520841
-7.86462 26.8122 0.105013 -0.669205 -0.73331 -0.120085
-8.76941 27.3106 1.38858 -0.644362 -0.746264 -0.166994
-10.2515 27.8863 3.26854 -0.53594 -0.806247 -0.250467
-11.4678 28.159 4.61987 -0.476211 -0.827055 -0.298669
-12.7284 28.3383 5.94929 -0.426536 -0.832235 -0.354192
-14.098 28.3835 7.29878 -0.387364 -0.835229 -0.390311
-15.4385 28.2881 8.53305 -0.303083 -0.860699 -0.409069
-16.9963 28.1142 9.95304 -0.195586 -0.914716 -0.353612
-18.511 27.8894 11.3367 -0.170526 -0.934418 -0.312704
-19.8529 27.7062 12.5941 -0.145718 -0.946971 -0.286377
-21.1993 27.5293 13.8684 -0.140204 -0.957377 -0.25253
-21.8879 27.4563 14.5288 -0.154886 -0.95738 -0.243792
-22.0564 27.754 13.4923 -0.137643 -0.952505 -0.27164
-20.794 27.9403 12.2988 -0.140373 -0.94713 -0.288514
-19.4675 28.1564 11.0602 -0.153914 -0.935712 -0.317417
-18.101 28.4053 9.81124 -0.173458 -0.916135 -0.361398
-16.6641 28.6435 8.52872 -0.205673 -0.893224 -0.399812
-15.3772 28.8053 7.39932 -0.30718 -0.861664 -0.40395
-14.2292 28.8771 6.34409 -0.295398 -0.862129 -0.411671
-12.8513 28.8096 4.98133 -0.464046 -0.82226 -0.329471
-11.7646 28.6182 3.82537 -0.493569 -0.821035 -0.286864
-10.5235 28.3201 2.45392 -0.53594 -0.806247 -0.250467
-9.24417 27.8436 0.83847 -0.610558 -0.767516 -0.195291
-8.34189 27.3342 -0.475833 -0.645156 -0.750318 -0.144207
-7.51492 26.709 -1.81177 -0.693246 -0.719994 -0.0319131
-6.6084 25.8936 -3.28455 -0.678534 -0.733749 0.0346896
-5.71911 24.9852 -4.73818 -0.662927 -0.743364 0.0890949
-4.84816 24.0987 -6.04076 -0.610575 -0.779902 0.137664
-3.86843 23.1825 -7.34836 -0.566503 -0.815214 0.12042
-2.98621 22.4082 -8.51658 -0.538211 -0.830536 0.14331
-2.00259 21.6561 -9.72824 -0.483531 -0.865734 0.12924
-0.809614 20.8462 -11.1695 -0.45432 -0.884598 0.105256
0.350668 20.1025 -12.5181 -0.431487 -0.896336 0.101986
1.29759 19.5418 -13.6406 -0.414231 -0.905555 0.0915579
2.37142 18.9389 -14.9193 -0.411012 -0.9077 0.0845578
3.76773 18.1823 -16.5708 -0.393607 -0.915851 0.0793174
4.75199 17.6791 -17.7267 -0.387699 -0.919179 0.0692704
5.83153 17.1441 -18.9845 -0.374263 -0.925007 0.0654956
6.89502 16.6295 -20.2202 -0.370774 -0.926608 0.0626387
7.90018 16.1535 -21.3844 -0.368619 -0.927818 0.057225
8.91831 15.6831 -22.5578 -0.36471 -0.929589 0.0533951
9.91318 15.229 -23.7015 -0.364153 -0.929965 0.0505857
10.7651 14.8447 -24.6794 -0.361678 -0.931107 0.0472133
8.13245 15.9667 -22.9833 -0.364411 -0.929679 0.0538566
7.07213 16.459 -21.7572 -0.367242 -0.928242 0.0591624
5.99427 16.9723 -20.5057 -0.372758 -0.925812 0.0626463
4.94177 17.4838 -19.2804 -0.376192 -0.924245 0.0651944
3.60192 18.1612 -17.7066 -0.388256 -0.91867 0.0728126
2.28241 18.8637 -16.1426 -0.3968 -0.914006 0.0845182
1.24081 19.445 -14.9007 -0.404563 -0.909388 0.0966571
0.103507 20.1068 -13.5471 -0.416775 -0.903602 0.0990038
-1.07695 20.8486 -12.1609 -0.435528 -0.892801 0.114985
-2.07636 21.522 -10.9846 -0.4708 -0.875639 0.10772
-3.17874 22.3601 -9.61257 -0.529327 -0.838434 0.129776
-4.04224 23.1136 -8.50041 -0.546921 -0.822369 0.1568
-4.92918 23.9607 -7.32262 -0.5986 -0.791546 0.123018
-5.94803 25.0229 -5.87478 -0.621709 -0.773161 0.125296
-6.72026 25.8783 -4.61802 -0.664433 -0.744441 0.0658519
-7.63866 26.8677 -3.03341 -0.69492 -0.719086 -0.00124551
-8.50836 27.6341 -1.5583 -0.701936 -0.710656 -0.0474642
-9.50914 28.2774 -0.00673313 -0.660595 -0.727865 -0.183919
-10.4834 28.6557 1.25797 -0.59573 -0.766924 -0.238607
-11.5571 28.9481 2.48525 -0.505438 -0.803961 -0.313335
-12.6378 29.1914 3.65295 -0.482601 -0.824299 -0.296019
-13.8494 29.3737 4.91846 -0.398711 -0.846735 -0.352234
-15.1167 29.3135 6.07945 -0.26083 -0.862941 -0.432782
-16.5072 29.1483 7.29007 -0.218177 -0.892939 -0.393776
-17.7197 28.9546 8.34854 -0.167082 -0.902777 -0.396331
-19.0243 28.6665 9.49852 -0.125182 -0.929847 -0.345998
-20.3927 28.3795 10.744 -0.10914 -0.949368 -0.2946
-21.7728 28.1354 12.033 -0.100879 -0.960729 -0.258503
-21.9593 28.4562 11.0186 -0.0873172 -0.94987 -0.300206
-20.6168 28.7397 9.78062 -0.0857037 -0.930894 -0.355093
-19.3647 29.056 8.65985 -0.115578 -0.910827 -0.396277
-17.8866 29.3895 7.35767 -0.137066 -0.919107 -0.369399
-16.2882 29.6567 6.00664 -0.169679 -0.907665 -0.383866
-14.8499 29.8238 4.76707 -0.283973 -0.899402 -0.332319
-13.9689 29.8039 3.91463 -0.434617 -0.85497 -0.28308
-15.7975 30.2072 4.50828 -0.27469 -0.900824 -0.336245
-17.2762 29.9727 5.71708 -0.170439 -0.900237 -0.400654
-18.5963 29.7074 6.83694 -0.123773 -0.913967 -0.386451
-19.7918 29.393 7.88496 -0.0673271 -0.927323 -0.368157
-21.0766 29.0462 9.03037 -0.0434152 -0.944898 -0.324473
-22.0688 28.7772 9.92839 -0.0409146 -0.957142 -0.286715
-22.0263 29.1695 8.71032 -0.0269915 -0.949697 -0.312006
-20.5524 29.6067 7.38803 0.0153788 -0.944917 -0.326949
-19.3911 29.9661 6.3794 -0.036985 -0.937292 -0.346577
-17.9578 30.3103 5.14822 -0.107279 -0.918303 -0.381065
-17.8071 30.3426 5.02782 -0.107279 -0.918303 -0.381065
-19.3745 30.415 5.17452 -0.0504358 -0.927647 -0.370038
-20.845 29.9228 6.46663 0.0264767 -0.94082 -0.337872
-22.2096 29.4839 7.68621 0.0322155 -0.957908 -0.285263
-22.3154 29.4509 7.78138 0.0301813 -0.954291 -0.297351
-22.4467 29.7576 6.69332 0.0676527 -0.95945 -0.273639
-21.2175 30.1905 5.59205 0.0945814 -0.945712 -0.310938
-20.1172 30.6147 4.61927 0.0510838 -0.937658 -0.343785
-21.1103 30.6276 4.27892 0.145941 -0.940693 -0.306266
-21.9565 30.2874 5.03724 0.110681 -0.955707 -0.272717
-22.2295 30.5368 4.05265 0.114741 -0.955438 -0.271979
-22.0271 30.6181 3.87132 0.146927 -0.930605 -0.335241
5.4466 17.145 -21.2038 -0.371647 -0.9262 0.0634981
4.57449 17.5694 -20.1835 -0.37529 -0.92439 0.0682729
3.62304 18.045 -19.066 -0.384338 -0.920242 0.0737501
2.75068 18.496 -18.0305 -0.385628 -0.918906 0.0830765
2.00714 18.8908 -17.1445 -0.396239 -0.913854 0.0886824
0.992215 19.4454 -15.9373 -0.40147 -0.911374 0.09066
0.136271 19.9379 -14.9156 -0.40939 -0.907196 0.0969263
-0.538828 20.3413 -14.1095 -0.42368 -0.898812 0.112393
-1.35279 20.8568 -13.1422 -0.43524 -0.893285 0.112288
-2.51281 21.6519 -11.7872 -0.469841 -0.87135 0.141414
-3.32005 22.251 -10.7841 -0.491693 -0.863413 0.112942
-4.17688 22.9763 -9.6949 -0.529007 -0.835586 0.14815
-5.01068 23.7642 -8.60079 -0.567418 -0.809428 0.151208
-5.82834 24.5998 -7.50625 -0.59876 -0.782912 0.168921
-6.63961 25.5417 -6.30694 -0.653988 -0.743545 0.139428
-7.19579 26.2233 -5.35508 -0.69854 -0.701683 0.140291
-7.92258 27.1106 -4.06538 -0.700429 -0.712553 0.0408368
-8.50247 27.7284 -3.00642 -0.725952 -0.68766 -0.0108325
-9.04528 28.224 -2.03264 -0.702787 -0.707979 -0.0696849
-9.33963 28.4454 -1.53399 -0.688171 -0.72039 -0.0863643
-9.01555 28.2786 -3.55051 -0.725951 -0.687661 -0.0108324
-8.51248 27.6829 -4.53028 -0.731607 -0.676312 0.085751
-7.9157 26.8788 -5.66081 -0.694766 -0.708043 0.126393
-7.43183 26.2211 -6.54101 -0.684706 -0.708123 0.172451
-6.90346 25.5343 -7.36836 -0.633289 -0.748706 0.195916
-6.0752 24.5745 -8.54944 -0.61439 -0.771745 0.164116
-5.21555 23.6893 -9.70109 -0.55906 -0.809928 0.177394
-4.34956 22.8893 -10.825 -0.535947 -0.831546 0.14592
-3.45554 22.1524 -11.9508 -0.483911 -0.861722 0.152533
-2.74523 21.6209 -12.8096 -0.455574 -0.880619 0.130237
-1.97199 21.082 -13.7265 -0.445655 -0.886189 0.126728
-1.21364 20.5936 -14.6355 -0.423679 -0.898812 0.112393
-0.368425 20.0871 -15.6451 -0.408192 -0.907617 0.0980321
0.31088 19.6914 -16.4548 -0.399494 -0.911139 0.101146
-1.47968 20.5968 -15.6454 -0.417637 -0.902188 0.107873
-2.17322 21.0337 -14.8121 -0.432711 -0.892463 0.127562
-2.98548 21.5897 -13.8361 -0.4426 -0.884224 0.149173
-3.99421 22.3433 -12.609 -0.492954 -0.857185 0.149096
-4.93627 23.1429 -11.4217 -0.522021 -0.8317 0.189128
-5.78876 23.9516 -10.3135 -0.560489 -0.809055 0.176867
-6.35429 24.531 -9.56189 -0.593803 -0.773261 0.222409
-7.0123 25.3007 -8.64277 -0.604386 -0.772873 0.193354
-7.85458 26.382 -7.37629 -0.662435 -0.72529 0.187439
-8.4102 27.1863 -6.378 -0.693498 -0.690698 0.204932
-8.869 27.9178 -5.45478 -0.735911 -0.666137 0.121229
-8.97994 28.0821 -5.22574 -0.737439 -0.66494 0.11848
-9.30312 28.1655 -6.32903 -0.71876 -0.658963 0.221702
-8.85535 27.4174 -7.18038 -0.71624 -0.666985 0.20526
-8.295 26.585 -8.14728 -0.650063 -0.726532 0.222641
-7.78351 25.8553 -8.94181 -0.636783 -0.726763 0.257532
-7.21959 25.1447 -9.76027 -0.612692 -0.759992 0.216843
-6.54193 24.3912 -10.6895 -0.553676 -0.806812 0.206148
-5.98108 23.7922 -11.4339 -0.546359 -0.803837 0.235241
-5.15766 23.0386 -12.4913 -0.515895 -0.835081 0.19103
-4.31515 22.341 -13.5409 -0.479593 -0.858073 0.183579
-3.70008 21.8728 -14.2994 -0.462353 -0.873971 0.149681
-3.03818 21.4118 -15.0983 -0.43222 -0.892687 0.127654
-2.46592 21.034 -15.7898 -0.422106 -0.896934 0.131667
-3.54845 21.5499 -15.8075 -0.428351 -0.892921 0.138592
-4.36504 22.1375 -14.8082 -0.457257 -0.87463 0.161055
-5.14916 22.7432 -13.8397 -0.478861 -0.858464 0.183661
-5.80455 23.2824 -13.0249 -0.487224 -0.849256 0.203412
-6.39025 23.8285 -12.2725 -0.512259 -0.829225 0.223556
-7.03387 24.501 -11.4223 -0.53083 -0.810784 0.246676
-7.70951 25.312 -10.4844 -0.583342 -0.764281 0.27493
-8.23532 25.9735 -9.72529 -0.624998 -0.743688 0.237287
-8.76527 26.7227 -8.91354 -0.631754 -0.730204 0.260172
-9.24904 27.4887 -8.13664 -0.679072 -0.680785 0.274577
-9.59739 28.0847 -7.47411 -0.680069 -0.685765 0.259291
-10.071 28.2325 -8.32533 -0.679073 -0.680785 0.274576
-9.65377 27.5147 -9.02296 -0.6779 -0.675628 0.28979
-9.1551 26.7378 -9.81763 -0.627895 -0.726272 0.279779
-8.56131 25.8858 -10.7107 -0.607374 -0.745889 0.273397
-7.97107 25.1393 -11.5485 -0.580642 -0.771337 0.260564
-7.388 24.4538 -12.3393 -0.529599 -0.814935 0.235385
-6.55825 23.6225 -13.4217 -0.512259 -0.829225 0.223554
-5.91218 23.0831 -14.2212 -0.472176 -0.85982 0.194319
-5.10421 22.4378 -15.222 -0.456473 -0.873021 0.171661
-4.88344 22.2704 -15.4927 -0.45209 -0.875152 0.172405
-5.70007 22.6401 -15.7978 -0.460843 -0.870869 0.170911
-6.52034 23.2907 -14.7803 -0.472175 -0.85982 0.19432
-7.30853 23.9741 -13.7995 -0.503635 -0.834557 0.223308
-8.22232 24.9341 -12.6062 -0.548534 -0.788744 0.277479
-8.74293 25.5708 -11.8948 -0.568062 -0.765976 0.300975
-9.30168 26.3269 -11.0994 -0.586068 -0.752836 0.299602
-10.0592 27.4814 -9.95051 -0.640527 -0.695925 0.324673
-10.4765 28.1931 -9.25721 -0.640462 -0.694645 0.327531
-11.0089 28.331 -10.0056 -0.663979 -0.668783 0.334456
-10.5383 27.5581 -10.7382 -0.640586 -0.697199 0.321813
-10.031 26.7364 -11.5086 -0.621176 -0.714801 0.321247
-9.49725 26.0117 -12.2579 -0.585803 -0.750705 0.305413
-8.62087 24.9373 -13.4396 -0.546838 -0.796342 0.258473
-7.57431 23.9016 -14.7787 -0.499158 -0.843581 0.19802
-6.98201 23.3772 -15.5196 -0.485727 -0.851808 0.196194
-6.79138 23.2258 -15.756 -0.457804 -0.870727 0.179582
-7.47152 23.4524 -16.2205 -0.437615 -0.872093 0.218969
-8.51006 24.363 -14.933 -0.456075 -0.857173 0.239269
-9.44785 25.3514 -13.7257 -0.524735 -0.794003 0.30694
-10.2828 26.4237 -12.606 -0.559176 -0.752802 0.347292
-10.788 27.1704 -11.8945 -0.589067 -0.71653 0.373611
-11.2515 27.9294 -11.1889 -0.588964 -0.713112 0.380254
-11.3315 28.0604 -11.0671 -0.599334 -0.704399 0.380292
-12.0398 28.4261 -11.5338 -0.609594 -0.695556 0.38026
-11.368 27.3151 -12.5352 -0.5731 -0.722301 0.387088
-10.8657 26.5637 -13.2466 -0.552372 -0.747966 0.36801
-10.3237 25.8484 -13.9644 -0.494543 -0.79173 0.358596
-9.4312 24.8641 -15.1 -0.459778 -0.836567 0.297925
-8.49542 23.9845 -16.2661 -0.456243 -0.857658 0.237201
-8.01098 23.5628 -16.8591 -0.437614 -0.872093 0.218969
-9.04262 24.0829 -16.9142 -0.424401 -0.86995 0.251139
-9.74224 24.6932 -16.0733 -0.46156 -0.839667 0.286219
-10.3461 25.2896 -15.317 -0.477107 -0.822325 0.310082
-10.9469 25.9705 -14.5542 -0.523881 -0.768938 0.366446
-11.5693 26.8437 -13.7337 -0.552421 -0.746506 0.370891
-12.3362 28.0141 -12.6502 -0.567665 -0.726087 0.388013
-12.7831 28.7909 -11.9691 -0.573507 -0.701312 0.423381
-13.4817 29.0102 -12.5465 -0.570669 -0.703717 0.423225
-12.7165 27.7913 -13.5995 -0.546983 -0.72388 0.420484
-11.9454 26.6548 -14.6503 -0.539171 -0.750807 0.381554
-11.4367 25.951 -15.3197 -0.536582 -0.763073 0.360277
-10.5709 25.0397 -16.4013 -0.474635 -0.834744 0.279148
-9.95163 24.455 -17.1615 -0.425072 -0.870202 0.249122
-9.38864 23.9879 -17.8368 -0.425741 -0.87045 0.247104
-10.1075 24.2149 -18.3091 -0.44789 -0.864173 0.229346
-10.8144 24.8369 -17.4515 -0.479279 -0.837682 0.261879
-11.4935 25.4862 -16.6349 -0.487735 -0.821815 0.294508
-12.2229 26.3221 -15.6949 -0.513585 -0.781507 0.354227
-12.7854 27.094 -14.9512 -0.531991 -0.755401 0.382564
-13.3912 27.9978 -14.1218 -0.544274 -0.725816 0.420663
-14.0297 28.9567 -13.3124 -0.549447 -0.712243 0.436827
-14.8016 29.2437 -13.7956 -0.53628 -0.71998 0.44049
-14.1953 28.3474 -14.5389 -0.520081 -0.731406 0.441091
-13.5578 27.444 -15.3366 -0.511099 -0.766546 0.388826
-12.9839 26.6611 -16.0893 -0.533382 -0.755906 0.379618
-12.4075 25.9681 -16.8412 -0.493129 -0.806098 0.327153
-11.7406 25.2865 -17.6616 -0.43993 -0.853291 0.279921
-11.1331 24.7278 -18.3836 -0.463917 -0.850122 0.249144
-11.0424 24.6503 -18.4946 -0.447892 -0.864172 0.229345
-11.3922 24.5647 -19.3948 -0.425076 -0.86865 0.254475
-12.1434 25.2213 -18.49 -0.436689 -0.850402 0.293459
-12.8843 25.959 -17.585 -0.493339 -0.806408 0.326072
-13.4976 26.6503 -16.8125 -0.488237 -0.776426 0.398481
-14.2433 27.6095 -15.8554 -0.48846 -0.776653 0.397765
-14.8703 28.4753 -15.1227 -0.52138 -0.733976 0.43525
-15.3802 29.229 -14.5028 -0.527321 -0.719481 0.451973
-15.4689 29.3549 -14.4051 -0.523655 -0.721252 0.45341
-16.1547 29.449 -15.0475 -0.516468 -0.715235 0.470849
-15.3495 28.3499 -15.899 -0.475569 -0.754636 0.45206
-14.6751 27.4485 -16.7 -0.488237 -0.776426 0.398481
-14.1427 26.7764 -17.3559 -0.488015 -0.776199 0.399196
-13.5632 26.1264 -18.0809 -0.439628 -0.825227 0.354581
-12.863 25.4269 -18.9478 -0.420878 -0.85472 0.303835
-12.1229 24.7862 -19.8353 -0.403583 -0.87687 0.26119
-12.0464 24.7237 -19.927 -0.409678 -0.875331 0.256825
-12.684 24.8549 -20.483 -0.406361 -0.878562 0.250997
-13.4555 25.5007 -19.561 -0.432011 -0.847581 0.308178
-14.0524 26.0925 -18.8158 -0.443057 -0.840278 0.312463
-14.9363 27.09 -17.7164 -0.462048 -0.787433 0.407997
-15.8811 28.2482 -16.6276 -0.473355 -0.752063 0.458624
-16.6869 29.3386 -15.7628 -0.509078 -0.708939 0.488103
-16.8244 29.5316 -15.6259 -0.500243 -0.712733 0.491699
-17.5351 29.6263 -16.194 -0.471213 -0.70911 0.52452
