50.5092 9.09522 26.8964 -0.138144 -0.990402 0.00452842
48.9981 9.31316 26.4972 -0.15133 -0.988446 0.00853671
47.4874 9.54717 25.9514 -0.159255 -0.987222 0.00555331
46.1742 9.76355 25.3791 -0.172927 -0.984855 0.0120382
45.1319 9.94015 24.9376 -0.177277 -0.984077 0.0120811
43.879 10.1734 24.4921 -0.188874 -0.981933 0.0115938
42.6201 10.4136 24.0701 -0.197171 -0.980276 0.0135237
41.5286 10.6277 23.6326 -0.19879 -0.979972 0.011753
40.3477 10.862 22.8449 -0.207687 -0.978107 0.0129928
39.0217 11.1367 22.0739 -0.210023 -0.977562 0.0156947
37.8294 11.3859 21.3639 -0.218729 -0.975588 0.0196464
36.7222 11.6247 20.8237 -0.228305 -0.973423 0.0179583
35.8001 11.8265 20.1888 -0.228382 -0.973294 0.0232537
34.6846 12.0771 19.5865 -0.237265 -0.971165 0.0233107
33.6597 12.3145 19.0043 -0.238886 -0.970806 0.0216464
32.6144 12.5667 18.4601 -0.248622 -0.968297 0.0242372
31.4403 12.8556 17.7414 -0.256733 -0.966246 0.0213864
30.4006 13.1221 17.0979 -0.264592 -0.964211 0.0169495
29.0539 13.4784 16.1812 -0.273591 -0.961566 0.0232017
27.9703 13.7721 15.557 -0.27421 -0.961402 0.0226954
26.8862 14.0775 14.9873 -0.282921 -0.958843 0.0239938
25.7799 14.397 14.4614 -0.293061 -0.955758 0.0253216
24.7585 14.698 14.0033 -0.293044 -0.955762 0.0253804
23.588 15.059 13.579 -0.303581 -0.952484 0.0247616
22.5189 15.3884 13.119 -0.309078 -0.950715 0.0241997
21.4028 15.7421 12.4502 -0.317811 -0.947816 0.0251651
20.1264 16.1606 11.6824 -0.33348 -0.942379 0.0266987
19.1608 16.4847 11.0383 -0.33659 -0.941442 0.019865
18.0909 16.8604 10.3585 -0.345406 -0.938281 0.0179604
16.8385 17.3173 9.67575 -0.354369 -0.93502 0.0126568
15.5439 17.8045 8.94806 -0.368833 -0.929342 0.0168654
14.1834 18.3372 8.54724 -0.371087 -0.928491 0.013523
13.2365 18.7251 7.98953 -0.387178 -0.921948 0.0102265
12.2277 19.14 7.5083 -0.386687 -0.922171 -0.00214969
11.3265 19.5341 6.87522 -0.396871 -0.917836 -0.00836148
9.6812 20.2717 6.28586 -0.41573 -0.909385 -0.0137208
8.57312 20.7906 5.93272 -0.436246 -0.8997 -0.0145882
7.45299 21.3474 5.42417 -0.447052 -0.894297 -0.0169268
6.41527 21.8862 4.94267 -0.46386 -0.885642 -0.0189488
5.32561 22.4894 4.12004 -0.473695 -0.880659 -0.00726919
4.61419 22.9091 3.26337 -0.489646 -0.871641 -0.0221143
3.9631 23.3165 1.56589 -0.52386 -0.851684 -0.0143166
3.71699 23.4784 0.444591 -0.52038 -0.853227 0.0347746
3.54345 23.5271 -1.2292 -0.539184 -0.841031 0.0402444
3.74524 23.3131 -2.70488 -0.526835 -0.84867 0.0469494
4.06451 23.0194 -4.12974 -0.524866 -0.848862 0.0628407
4.50198 22.6868 -5.17213 -0.499676 -0.862867 0.0760619
5.03174 22.2982 -6.10025 -0.490872 -0.868418 0.0688041
5.93941 21.7538 -6.73046 -0.48175 -0.874162 0.0612964
7.16128 21.038 -7.55411 -0.463224 -0.883397 0.0709405
8.41334 20.342 -8.21865 -0.441611 -0.894915 0.0639919
9.45162 19.8006 -8.68082 -0.439755 -0.896031 0.0611837
10.4802 19.2916 -9.03169 -0.423491 -0.903244 0.0693311
11.6558 18.6942 -9.66971 -0.416112 -0.906702 0.0686571
12.6356 18.212 -10.1669 -0.408991 -0.910009 0.0677841
13.574 17.7499 -10.7764 -0.406518 -0.911313 0.0652025
14.753 17.2008 -11.2162 -0.400386 -0.914069 0.0645643
16.1727 16.5397 -11.8891 -0.389556 -0.918401 0.0691754
17.1568 16.0843 -12.3985 -0.386408 -0.919743 0.0690113
18.4725 15.4785 -13.0159 -0.388845 -0.91834 0.0738298
19.4352 15.0406 -13.5359 -0.380158 -0.922106 0.0721178
20.5235 14.5637 -14.0851 -0.367971 -0.927259 0.0691585
21.8512 13.9816 -14.8251 -0.367749 -0.927164 0.0716073
22.8501 13.5647 -15.2567 -0.354984 -0.931668 0.0773422
23.9211 13.1217 -15.7051 -0.343803 -0.936199 0.0729814
24.9193 12.7179 -16.1886 -0.342684 -0.936478 0.0746807
26.446 12.1104 -16.9434 -0.334907 -0.939 0.0782076
27.4364 11.7277 -17.349 -0.331207 -0.940149 0.08013
28.7334 11.2393 -17.7756 -0.320025 -0.943947 0.0809228
30.1769 10.7032 -18.3328 -0.307824 -0.947828 0.0820006
31.1987 10.3521 -18.6976 -0.296702 -0.951217 0.0845836
32.5416 9.89526 -19.1471 -0.288892 -0.953375 0.0872821
33.5323 9.56192 -19.5929 -0.274236 -0.957795 0.0861548
35.1191 9.06924 -20.0536 -0.270971 -0.958721 0.0861905
36.4365 8.67493 -20.5658 -0.24384 -0.966896 0.075196
37.5061 8.36945 -21.0597 -0.239069 -0.967801 0.0787757
38.561 8.07484 -21.4799 -0.227999 -0.97048 0.0786408
39.659 7.77988 -21.9376 -0.228143 -0.970387 0.0793725
40.9577 7.47161 -22.4115 -0.193389 -0.977892 0.0795477
41.9826 7.23724 -22.8471 -0.183025 -0.9799 0.0793572
43.3743 6.94752 -23.0797 -0.1794 -0.979458 0.0915534
44.4944 6.73045 -23.325 -0.17039 -0.980941 0.0933889
46.0894 6.44163 -23.5725 -0.156318 -0.982698 0.0993489
47.3768 6.22149 -23.8291 -0.147033 -0.984983 0.0905017
48.8005 5.97345 -24.2542 -0.135435 -0.986882 0.0875619
49.9205 5.80019 -24.5567 -0.12532 -0.988189 0.0881155
51.369 5.57076 -25.1349 -0.117781 -0.988824 0.0911714
52.514 5.42848 -25.4452 -0.0966609 -0.991577 0.0862116
53.5538 5.28871 -25.8885 -0.0900814 -0.992177 0.0864338
54.829 5.16837 -26.1486 -0.0794679 -0.994574 0.0671416
55.9933 5.07192 -26.351 -0.0686579 -0.995514 0.065093
57.4326 4.98189 -26.6143 -0.0408873 -0.998144 0.0451389
58.5921 4.93295 -26.6341 -0.0339155 -0.997939 0.0532292
60.1545 4.88669 -26.7601 -0.0286461 -0.997664 0.061863
61.6798 4.81643 -27.1821 -0.0186402 -0.997 0.0751282
62.8902 4.77474 -27.3986 -0.0182287 -0.997806 0.0620218
64.0928 4.75773 -27.5877 0.00185302 -0.998764 0.0496777
65.5281 4.7425 -27.8187 -0.00561595 -0.99842 0.0558708
67.499 4.70569 -28.4061 -0.000220514 -0.998538 0.0540552
69.1047 4.6838 -28.7972 0.00400322 -0.998902 0.0466824
70.3419 4.68355 -29.0871 0.0114626 -0.999582 0.0265205
71.8611 4.68915 -29.6366 0.017687 -0.999313 0.03257
72.8348 4.69789 -30.3126 0.0284826 -0.999243 0.0264819
73.9766 4.70986 -31.0658 0.0272314 -0.999443 0.0192819
74.9983 4.72625 -31.7524 0.032448 -0.999325 0.0172273
76.099 4.74615 -32.8216 0.0330344 -0.999373 0.0127228
76.1368 4.73324 -33.9402 0.0332298 -0.999391 0.0104549
75.3171 4.69742 -35.3382 0.03047 -0.999515 0.0065032
74.2607 4.6596 -36.0015 0.0276878 -0.99955 0.0114718
73.1967 4.62644 -36.3914 0.0218217 -0.9997 0.0111168
71.7992 4.59465 -36.5541 0.0237973 -0.999569 0.0171772
70.5026 4.57227 -36.682 0.0122894 -0.999756 0.0183735
69.3337 4.5542 -36.9502 -0.000870014 -0.999912 0.0130869
67.598 4.55418 -37.3021 -0.00797239 -0.999862 0.0133113
65.8222 4.57841 -37.5814 -0.0123054 -0.999857 0.0106097
64.3338 4.60266 -37.584 -0.0166608 -0.999854 0.00364749
63.0204 4.62196 -37.5941 -0.0142639 -0.999875 0.00687085
61.235 4.66905 -37.2563 -0.0246462 -0.999695 -0.00143737
59.8455 4.70467 -36.9166 -0.027616 -0.999618 0.000684415
58.3347 4.75095 -36.3258 -0.0349392 -0.99938 0.00364543
57.185 4.79346 -35.8962 -0.0419646 -0.999056 0.0111872
55.948 4.85144 -35.4315 -0.0478342 -0.998821 0.00831028
54.5068 4.93764 -35.1713 -0.0577054 -0.99827 0.00985311
53.2395 5.02504 -35.1154 -0.0723178 -0.997224 0.0177299
51.7184 5.14382 -35.2254 -0.0930542 -0.995508 0.0160762
50.4958 5.26539 -35.2039 -0.0985822 -0.994919 0.0204562
49.3592 5.39103 -35.2619 -0.121891 -0.992365 0.0188275
48.2151 5.53087 -35.2963 -0.121833 -0.992372 0.0188054
46.3972 5.78676 -35.512 -0.155118 -0.987633 0.0221219
44.9411 6.0221 -35.5646 -0.160969 -0.986739 0.0208424
43.6185 6.2512 -35.3989 -0.169032 -0.98541 0.0198858
42.3168 6.50724 -35.2845 -0.197461 -0.980022 0.0229369
41.0766 6.78624 -35.1206 -0.219034 -0.975461 0.0223648
39.4537 7.17082 -34.6996 -0.233423 -0.972089 0.0233184
38.3167 7.44945 -34.387 -0.238858 -0.970586 0.0289593
37.0379 7.78539 -34.0667 -0.245831 -0.968947 0.0260025
35.8918 8.08952 -33.8787 -0.258058 -0.965964 0.017854
34.5957 8.45169 -33.6152 -0.282964 -0.958785 0.0244347
33.508 8.78476 -33.4457 -0.29235 -0.956017 0.0233974
32.3682 9.14558 -33.3304 -0.302884 -0.952708 0.0246525
31.2019 9.52006 -33.1883 -0.304031 -0.9523 0.0261736
29.6203 10.0602 -32.9818 -0.322291 -0.94635 0.0234568
28.3161 10.5229 -32.661 -0.336335 -0.941442 0.023806
27.2857 10.902 -32.2178 -0.340898 -0.939747 0.0252204
25.5769 11.5467 -31.8556 -0.352187 -0.93534 0.0329544
24.2385 12.0758 -31.3304 -0.358349 -0.932857 0.0366729
23.1353 12.5187 -31.0907 -0.36655 -0.929565 0.0393678
21.7082 13.1022 -30.6432 -0.37088 -0.928159 0.0311375
20.4841 13.6123 -30.2322 -0.380068 -0.92413 0.0391325
19.318 14.1046 -30.0102 -0.38401 -0.922462 0.0399936
18.2099 14.5803 -29.6937 -0.387149 -0.921358 0.0348693
17.0871 15.0698 -29.2571 -0.389369 -0.920268 0.0385764
15.7133 15.6782 -28.7167 -0.391612 -0.919132 0.0428434
14.6133 16.1732 -28.1664 -0.390126 -0.919772 0.0426705
13.5025 16.6737 -27.7 -0.394834 -0.917516 0.0476468
12.2627 17.2443 -27.0722 -0.398548 -0.915941 0.0470269
10.6783 17.9684 -26.3733 -0.398769 -0.91583 0.0473033
9.62329 18.4575 -25.8151 -0.396375 -0.916725 0.0500148
8.62486 18.9321 -25.1063 -0.397696 -0.915925 0.0540313
7.7149 19.3667 -24.5101 -0.400375 -0.914636 0.0560447
6.82893 19.7978 -23.8617 -0.400668 -0.9139 0.0651507
5.87444 20.2702 -23.1577 -0.402497 -0.912963 0.0670384
4.99659 20.7201 -22.5013 -0.409851 -0.909027 0.0754412
4.07625 21.2125 -21.6531 -0.415549 -0.905808 0.0826473
3.41376 21.6052 -20.6783 -0.420338 -0.902891 0.0895589
2.35893 22.1896 -19.8699 -0.424304 -0.900334 0.0967721
1.48177 22.6984 -19.0928 -0.432474 -0.894973 0.109495
0.226901 23.3933 -18.4652 -0.442607 -0.888478 0.121265
-1.04814 24.056 -18.1985 -0.433899 -0.890909 0.134091
-2.30171 24.6584 -18.3023 -0.439285 -0.886569 0.144666
-3.4907 25.238 -18.4185 -0.445932 -0.87664 0.180687
-4.64851 25.7607 -18.7699 -0.454219 -0.866941 0.203984
-5.78396 26.1912 -19.3685 -0.435564 -0.881915 0.180303
-6.85468 26.5504 -20.1174 -0.427092 -0.883212 0.193723
-7.85454 26.866 -20.8862 -0.428316 -0.882304 0.195155
-8.68732 27.1033 -21.6237 -0.412395 -0.887528 0.205112
-9.72016 27.3836 -22.4178 -0.415439 -0.88237 0.219928
-10.9029 27.699 -23.4398 -0.421522 -0.883896 0.202602
-12.1493 28.017 -24.4354 -0.374792 -0.902527 0.211319
-13.1266 28.3221 -24.9162 -0.350331 -0.913391 0.207329
-14.204 28.6304 -25.3789 -0.36176 -0.906618 0.216591
-15.2604 28.9332 -25.781 -0.336601 -0.916036 0.21564
-16.4346 29.308 -26.043 -0.312627 -0.928393 0.200873
-17.6946 29.7274 -26.1364 -0.324265 -0.922944 0.207428
-19.0644 30.2341 -26.0117 -0.322178 -0.924397 0.204185
-20.4249 30.6792 -25.8539 -0.267389 -0.940072 0.211584
-21.4626 31.0639 -25.5081 -0.259678 -0.929681 0.261269
-22.515 31.4667 -24.957 -0.208871 -0.949804 0.232904
-23.6848 31.9429 -23.9688 -0.186795 -0.957828 0.21834
-24.5207 32.2766 -23.1558 -0.139478 -0.968512 0.206211
-25.571 32.6349 -22.1646 -0.138299 -0.969234 0.203614
-26.5116 32.8459 -21.5795 -0.091262 -0.98241 0.162917
-27.6459 33.0951 -20.7033 -0.0663174 -0.984183 0.162948
-28.151 33.3228 -19.5799 -0.0869539 -0.983249 0.160189
-28.1537 33.5323 -17.8422 -0.0252242 -0.991996 0.123721
-27.9449 33.6779 -16.2534 0.00451043 -0.997064 0.0764413
-27.7142 33.7934 -14.9293 0.0849743 -0.994883 0.0525999
-27.4963 33.8754 -13.4364 0.092958 -0.995045 0.0347161
-27.3397 33.9261 -12.2211 0.0879944 -0.995597 0.0323005
-27.3142 33.9626 -11.0205 0.0920067 -0.995516 0.0192371
-27.1515 33.9791 -9.55986 0.0913524 -0.995814 -0.00295579
-26.9307 33.9841 -7.8871 0.11285 -0.993479 -0.0107469
-26.6612 34.0023 -6.568 0.122126 -0.992302 -0.0203766
-26.3971 33.9901 -4.58698 0.12137 -0.9923 -0.0245423
-26.3366 33.9541 -3.42725 0.125166 -0.991329 -0.0399963
-26.149 33.9241 -1.98206 0.134054 -0.990152 -0.0390156
-26.1272 33.8663 -0.667721 0.122383 -0.991637 -0.0409645
-26.0478 33.8146 0.730493 0.130813 -0.990474 -0.0419759
-25.9842 33.7589 1.96336 0.134455 -0.989466 -0.0536487
-25.7794 33.708 3.2123 0.146105 -0.985366 -0.087789
-25.6724 33.576 4.71262 0.142208 -0.983966 -0.10765
-25.588 33.4396 6.14429 0.172083 -0.978337 -0.115083
-25.4216 33.332 7.32212 0.17839 -0.974208 -0.135284
-25.1522 33.1463 8.8738 0.151933 -0.978413 -0.140086
-25.1218 32.9209 9.995 0.132072 -0.969024 -0.208687
-25.1085 32.6273 11.3065 0.0467433 -0.970242 -0.236978
-25.1502 32.2562 12.832 0.0298942 -0.971413 -0.235505
-25.1397 31.8659 14.3949 -0.0132697 -0.96799 -0.250639
-25.1665 31.5855 15.5607 -0.0180304 -0.973656 -0.227307
-25.1794 31.2814 16.7707 -0.0620666 -0.971736 -0.227403
-25.126 31.0254 17.9199 -0.0975037 -0.968277 -0.23007
-24.9907 30.7447 19.099 -0.101934 -0.973683 -0.203842
-24.7514 30.4674 20.2922 -0.124496 -0.971964 -0.198546
-23.9804 30.0694 21.8976 -0.13475 -0.973115 -0.186558
-22.9147 29.6938 23.081 -0.150267 -0.974476 -0.166783
-21.5349 29.3067 23.9419 -0.172352 -0.970074 -0.17103
-20.0846 28.874 24.8566 -0.179449 -0.967956 -0.175663
-18.8173 28.4654 25.7392 -0.197274 -0.966763 -0.162644
-17.77 28.1273 26.3743 -0.215316 -0.963527 -0.158566
-16.6921 27.8169 26.8292 -0.226507 -0.962657 -0.147932
-15.61 27.4942 27.2013 -0.236498 -0.960671 -0.145531
-14.3548 27.1872 27.1527 -0.250226 -0.958896 -0.133813
-12.976 26.8849 26.85 -0.254823 -0.955134 -0.150418
-11.8715 26.629 26.5018 -0.268825 -0.951797 -0.147678
-10.8111 26.3839 26.1041 -0.282129 -0.948598 -0.143405
-9.77335 26.1914 25.3767 -0.288409 -0.943845 -0.161071
-8.83696 26.0336 24.5816 -0.291767 -0.943501 -0.15708
-8.05729 25.9464 23.6464 -0.305316 -0.937565 -0.166596
-7.30225 25.8516 22.7643 -0.322888 -0.933664 -0.154969
-6.53436 25.7448 21.9104 -0.323124 -0.929829 -0.176092
-5.54407 25.5323 21.0923 -0.339606 -0.923883 -0.176003
-4.71358 25.3799 20.2353 -0.36167 -0.916623 -0.170286
-4.02929 25.2755 19.3362 -0.373969 -0.910929 -0.174229
-3.2164 25.1446 18.2765 -0.374018 -0.910879 -0.174385
-2.08097 24.7847 17.5614 -0.391369 -0.906589 -0.157885
-0.798293 24.3148 17.0405 -0.398588 -0.906644 -0.138294
0.42953 23.7953 16.8885 -0.403373 -0.904627 -0.137625
1.54821 23.2999 16.9814 -0.387135 -0.915458 -0.109391
2.98418 22.6541 17.3056 -0.381367 -0.919049 -0.0995395
4.09604 22.1534 17.7944 -0.367357 -0.926373 -0.0829533
5.46366 21.542 18.5655 -0.373673 -0.924474 -0.0748752
6.6354 21.0363 19.356 -0.357793 -0.931548 -0.0648331
7.6376 20.6206 19.9184 -0.346851 -0.936306 -0.0550097
8.57482 20.2309 20.6423 -0.346898 -0.936289 -0.0549958
9.58935 19.8274 21.4425 -0.334845 -0.941273 -0.0434015
10.5711 19.4352 22.4722 -0.332517 -0.942306 -0.0386164
11.3469 19.1315 23.2978 -0.326153 -0.944792 -0.0315096
12.1768 18.8176 24.0827 -0.324855 -0.944989 -0.0382665
13.389 18.3731 25.0611 -0.318356 -0.947526 -0.0286472
14.3361 18.0367 25.8177 -0.313947 -0.948912 -0.031677
15.3481 17.6866 26.5431 -0.306975 -0.951391 -0.0249245
16.3073 17.3574 27.3298 -0.305626 -0.951916 -0.0211869
17.3626 17.0023 28.2011 -0.298695 -0.954164 -0.0187653
18.3964 16.6621 29.1848 -0.294184 -0.955563 -0.0188238
19.4608 16.3202 30.0843 -0.290193 -0.956831 -0.0161882
20.4853 15.9973 30.8737 -0.285927 -0.958057 -0.0192917
21.6734 15.6286 31.7113 -0.283258 -0.958892 -0.0170589
22.765 15.2979 32.3953 -0.278587 -0.960284 -0.0156086
23.7175 15.0114 33.0633 -0.27333 -0.961803 -0.0149906
25.1473 14.5957 33.7905 -0.270084 -0.962731 -0.0140098
26.1828 14.2967 34.4307 -0.26869 -0.963096 -0.0158564
27.6316 13.887 35.1893 -0.259538 -0.965593 -0.0164268
28.6652 13.6032 35.5411 -0.249761 -0.968181 -0.0156215
29.7341 13.3163 36.1961 -0.250296 -0.968043 -0.0156426
30.7552 13.0461 36.7012 -0.243387 -0.969789 -0.0164739
31.9314 12.7439 37.1163 -0.241332 -0.970313 -0.0156958
33.1669 12.4369 37.2681 -0.238234 -0.971084 -0.0154192
34.4653 12.1264 37.4253 -0.230599 -0.972935 -0.0149013
35.6894 11.8425 37.6447 -0.219505 -0.975554 -0.010611
37.2569 11.4896 38.0664 -0.215026 -0.976573 -0.00835094
38.6336 11.1919 38.385 -0.203986 -0.978899 -0.0116761
39.7354 10.96 38.4999 -0.204172 -0.978824 -0.0147079
40.8952 10.7217 38.7694 -0.198138 -0.980091 -0.0127863
42.0312 10.496 39.0246 -0.187722 -0.982182 -0.00892813
43.1489 10.2825 39.2081 -0.184426 -0.982822 -0.00686972
44.2619 10.0764 39.3229 -0.171329 -0.985163 -0.00815569
45.9438 9.79167 39.5403 -0.166013 -0.986107 -0.00571574
47.1291 9.60121 39.6231 -0.154062 -0.988055 -0.00342414
48.3452 9.41207 39.588 -0.150498 -0.988603 -0.00384655
49.7144 9.21245 39.7096 -0.131799 -0.991274 -0.00202283
51.0947 9.03168 39.6827 -0.128836 -0.991664 -0.00212934
52.6174 8.83862 39.6046 -0.121812 -0.99255 -0.00245969
54.2235 8.64553 39.4351 -0.116692 -0.993161 -0.00388553
55.437 8.51588 39.2594 -0.0996326 -0.995024 7.85097e-05
56.6993 8.3936 39.2528 -0.0893422 -0.99597 0.00610486
57.8398 8.28812 39.001 -0.0852656 -0.996309 0.00853613
59.0864 8.18803 38.8649 -0.0784792 -0.996889 0.00733682
60.2539 8.09835 38.6078 -0.0734952 -0.997283 0.00507322
61.3599 8.01684 38.353 -0.0697741 -0.997554 0.00420254
62.4944 7.93635 38.1661 -0.0632754 -0.997953 0.00604656
63.6035 7.87165 37.8748 -0.0572198 -0.998327 0.00817346
64.7883 7.81056 37.6669 -0.0462941 -0.998873 0.0102601
66.1216 7.75173 37.4992 -0.0402107 -0.999124 0.0111396
67.6465 7.68827 37.1117 -0.0333038 -0.99938 0.0112707
68.8436 7.64697 36.821 -0.0314859 -0.999429 0.0122591
70.0595 7.60417 36.2915 -0.0295557 -0.9995 0.0111957
71.3096 7.56788 35.9624 -0.0227903 -0.999672 0.0117103
72.9184 7.52435 35.3999 -0.0216845 -0.999693 0.0119004
74.121 7.49805 35.0392 -0.0172735 -0.999776 0.0122589
75.3997 7.47187 34.5731 -0.0124145 -0.999818 0.0144826
76.2924 7.44641 33.6308 -0.0136319 -0.99979 0.0153269
75.7988 7.43803 32.7173 -0.0157429 -0.999742 0.0161817
74.4144 7.45691 32.3176 -0.0191781 -0.999724 0.0133595
73.0433 7.48297 32.0804 -0.0211715 -0.999682 0.013724
71.6374 7.51541 31.8904 -0.0251803 -0.999602 0.0127266
71.1306 7.52782 31.741 -0.0288544 -0.999519 0.011389
65.7042 7.73324 33.8338 -0.0414745 -0.999101 0.00874454
64.789 7.78101 34.7513 -0.0430793 -0.999008 0.0112439
64.7392 7.77484 33.5216 -0.046088 -0.998936 0.00166818
63.7627 7.83321 34.5011 -0.0551067 -0.998424 0.0106111
63.1921 7.8721 35.0741 -0.0599746 -0.998144 0.0106055
61.5616 7.97953 35.4322 -0.0677792 -0.997662 0.00872085
62.5659 7.90592 34.423 -0.0637183 -0.997923 0.00944947
63.4764 7.84351 33.5086 -0.0571714 -0.998359 0.00332357
63.7076 7.82949 33.2766 -0.0571714 -0.998359 0.00332372
62.6774 7.88767 33.0302 -0.0605964 -0.998147 0.00561283
61.4789 7.97596 34.2347 -0.0707508 -0.997471 0.00678168
60.5881 8.04741 35.1309 -0.0721011 -0.997369 0.00756603
60.1388 8.08322 35.5831 -0.0719748 -0.997379 0.00746013
58.5088 8.21745 35.9447 -0.0820007 -0.99663 0.00225034
59.5155 8.12978 34.9299 -0.0845697 -0.996405 0.00490543
60.3913 8.05325 34.0477 -0.0773482 -0.996992 0.00483476
61.3013 7.98196 33.1325 -0.0702662 -0.997524 0.00302508
61.6375 7.95783 32.7945 -0.0712578 -0.997458 0.000324636
60.6508 8.02998 32.5056 -0.0822631 -0.996611 0.000503898
59.5216 8.12447 33.642 -0.0836867 -0.996489 0.00262396
58.6374 8.20287 34.5336 -0.0876228 -0.996151 0.00248308
57.7048 8.28512 35.4742 -0.0861841 -0.996279 0.000810649
56.9573 8.3538 36.2289 -0.0902703 -0.995908 0.00425321
55.6105 8.49144 36.3094 -0.105508 -0.994413 -0.00333202
56.4498 8.40585 35.4602 -0.104616 -0.994505 -0.00386719
57.4226 8.31159 34.477 -0.0874449 -0.996166 -0.00262054
58.2883 8.23309 33.6039 -0.0903375 -0.99591 0.00155109
59.1501 8.15138 32.7346 -0.081137 -0.996665 0.00867255
58.3917 8.21279 32.2165 -0.0865092 -0.996215 0.00852978
57.5513 8.29459 33.0648 -0.0874639 -0.996119 0.00981703
56.2212 8.43158 34.4092 -0.106731 -0.994285 -0.00250689
55.1958 8.54128 35.4475 -0.111213 -0.993792 -0.00312545
54.4522 8.62035 36.2007 -0.113833 -0.993495 -0.00299009
52.7973 8.81999 36.5995 -0.12447 -0.992221 -0.00211274
53.6614 8.71347 35.7203 -0.124604 -0.992206 -0.00120961
54.6347 8.6038 34.7329 -0.110614 -0.993863 -0.00010363
55.5017 8.51022 33.8548 -0.106609 -0.994298 0.00239739
56.3203 8.41646 33.0257 -0.106484 -0.994288 0.00730076
57.3716 8.3032 31.9631 -0.102468 -0.994724 0.00491554
56.3756 8.40419 31.6871 -0.102378 -0.994731 0.00545046
55.1921 8.53733 32.8846 -0.111835 -0.993718 0.00405981
54.2283 8.65327 33.8619 -0.117728 -0.993044 0.00182275
53.3172 8.7574 34.7862 -0.117621 -0.99305 -0.00407064
51.8485 8.93969 36.2811 -0.126114 -0.992014 -0.00161989
51.7428 8.95319 36.3889 -0.127757 -0.991805 -0.00112755
50.1125 9.16912 36.768 -0.143598 -0.989633 -0.00268353
50.9607 9.05603 35.9019 -0.134575 -0.990879 -0.006904
52.0674 8.91416 34.774 -0.126653 -0.991945 -0.00176653
52.8466 8.81644 33.9807 -0.121181 -0.992628 -0.00218863
53.7426 8.70476 33.0706 -0.11783 -0.993004 0.00771578
54.5328 8.60902 32.2691 -0.111772 -0.993715 0.00611318
55.297 8.51675 31.4946 -0.108511 -0.994077 0.00602914
55.318 8.51444 31.4734 -0.10531 -0.994432 0.00389037
54.2 8.64116 31.3224 -0.120796 -0.992675 0.00225066
53.2634 8.76083 32.273 -0.12676 -0.991926 0.00381266
52.4264 8.86896 33.1235 -0.128086 -0.991761 0.0021233
51.1751 9.03106 34.3976 -0.128568 -0.991695 -0.00322543
50.297 9.1504 35.2944 -0.134879 -0.990856 -0.00341772
49.385 9.27553 36.2267 -0.143462 -0.989654 -0.00175013
48.8271 9.35651 36.7982 -0.148427 -0.988909 -0.00540838
47.8332 9.5062 36.5309 -0.147249 -0.989079 -0.00637204
48.8373 9.36081 35.5019 -0.149606 -0.988736 -0.00444417
49.9157 9.20417 34.3979 -0.142497 -0.989786 -0.00421052
50.7033 9.09484 33.5931 -0.131877 -0.991265 -0.00157834
52.0099 8.92091 32.2626 -0.128085 -0.991761 0.00212341
53.111 8.77327 31.1429 -0.123812 -0.992297 0.0042183
52.11 8.90132 30.8759 -0.129095 -0.991623 0.00435137
51.1384 9.03308 31.8646 -0.12995 -0.991506 0.00529431
50.1766 9.16575 32.845 -0.137373 -0.990515 0.00302459
49.4181 9.27911 33.6208 -0.142006 -0.989865 0.00159055
48.5674 9.40257 34.4917 -0.149389 -0.988779 4.12932e-06
47.7437 9.52702 35.3365 -0.149498 -0.98876 -0.00222034
46.8903 9.65733 36.2135 -0.159403 -0.987185 -0.00750358
45.4714 9.89196 36.3881 -0.168658 -0.98564 -0.0082252
46.6739 9.70116 35.1499 -0.160021 -0.987079 -0.00831207
47.4272 9.57505 34.3736 -0.14964 -0.988741 -0.000162608
48.1972 9.45865 33.584 -0.150298 -0.988634 0.00365789
48.9584 9.33952 32.8039 -0.146728 -0.989163 0.00515955
49.806 9.2134 31.9373 -0.136621 -0.990595 0.00744377
50.5921 9.10213 31.1356 -0.132613 -0.991161 0.0038232
51.4736 8.9817 30.2377 -0.135139 -0.990826 0.00141904
51.4926 8.97908 30.2184 -0.132131 -0.991229 0.00269478
50.3018 9.1414 30.1455 -0.134248 -0.990948 0.000410091
49.4111 9.26818 31.0546 -0.149543 -0.988755 -0.00111858
48.4788 9.40851 32.0081 -0.147331 -0.989087 -0.0011481
47.621 9.54137 32.8872 -0.150952 -0.988513 0.00747887
46.4841 9.72983 34.0568 -0.164342 -0.986393 0.00444412
45.6666 9.86656 34.8993 -0.164694 -0.986321 -0.00680668
44.6048 10.0436 35.9952 -0.173376 -0.984846 -0.00434743
43.3762 10.2645 35.9785 -0.185549 -0.982628 -0.00381108
44.4769 10.0733 34.84 -0.170958 -0.985267 -0.00469312
45.5959 9.88162 33.6842 -0.170539 -0.98535 -0.00148961
46.7411 9.68494 32.5037 -0.170369 -0.98538 0.00118775
47.5117 9.5597 31.7125 -0.157846 -0.98746 -0.0028345
48.3525 9.42867 30.8508 -0.148691 -0.988884 -0.00015455
49.278 9.28797 29.9042 -0.144407 -0.989494 0.00689375
48.3392 9.42671 29.5768 -0.160112 -0.987095 0.00279201
47.4447 9.57326 30.4943 -0.158372 -0.987379 0.00134124
46.3389 9.75266 31.6297 -0.168993 -0.985616 0.00129172
45.4621 9.90683 32.5338 -0.173812 -0.984779 3.42337e-05
44.4406 10.0835 33.5886 -0.171303 -0.985216 -0.00228124
43.3625 10.2724 34.704 -0.185107 -0.982703 -0.00546249
42.2506 10.4775 35.8586 -0.184946 -0.982738 -0.0045917
41.0132 10.7217 35.8589 -0.195739 -0.980634 -0.00650781
42.1295 10.5056 34.695 -0.191124 -0.981553 -0.00512224
43.1099 10.3264 33.6777 -0.184348 -0.982841 -0.00632099
44.2001 10.1273 32.548 -0.177237 -0.984164 -0.00270848
45.0245 9.98318 31.6967 -0.175505 -0.984477 0.0019651
45.7821 9.8463 30.9145 -0.164799 -0.986321 0.00354042
46.6642 9.69778 30.0071 -0.15764 -0.987495 0.00154119
47.2154 9.60861 29.4415 -0.159242 -0.987237 0.00206555
46.6623 9.6993 28.721 -0.167638 -0.985849 -0.000159477
45.8075 9.83796 29.5993 -0.171159 -0.985212 -0.00782367
44.7749 10.0239 30.6648 -0.184494 -0.982833 -0.000539042
43.6696 10.2285 31.8086 -0.18315 -0.983072 -0.00502876
42.7282 10.4005 32.784 -0.186318 -0.982482 -0.00389243
41.965 10.5452 33.5768 -0.197507 -0.980292 -0.00432204
40.8285 10.7658 34.7616 -0.196058 -0.980573 -0.00607374
39.9679 10.9345 35.6596 -0.200838 -0.979597 -0.00736873
39.876 10.9526 35.7555 -0.202258 -0.979314 -0.0060631
39.2552 11.0849 35.1138 -0.208172 -0.978071 -0.00647983
40.064 10.9235 34.2687 -0.199319 -0.979921 -0.00506276
41.0331 10.7344 33.2575 -0.197506 -0.980292 -0.0043217
41.8058 10.58 32.452 -0.193657 -0.981062 -0.00389417
42.677 10.416 31.5473 -0.189489 -0.981876 -0.0035874
43.4359 10.2754 30.7609 -0.18485 -0.982767 -0.000454704
44.1928 10.1335 29.9773 -0.184013 -0.982922 -0.00195054
45.1234 9.96215 29.0158 -0.179577 -0.983744 -0.000542373
45.6521 9.87073 28.4711 -0.167171 -0.985928 -0.000505299
44.6347 10.0528 28.2304 -0.178447 -0.983946 -0.00249196
43.843 10.1981 29.0484 -0.190091 -0.981764 0.00227759
42.758 10.4059 30.1731 -0.187682 -0.982221 -0.00413856
41.9565 10.5601 31.0057 -0.193745 -0.98102 -0.00795718
41.1201 10.7192 31.8753 -0.196421 -0.980512 -0.00385363
40.1994 10.9059 32.8362 -0.207213 -0.978286 -0.00428018
39.3289 11.0806 33.746 -0.206688 -0.978343 -0.0111805
38.2946 11.2955 34.8307 -0.212409 -0.977164 -0.00575913
37.9263 11.3733 35.2177 -0.212535 -0.977128 -0.00698164
37.198 11.5378 34.6909 -0.215689 -0.976425 -0.00845869
38.2593 11.3118 33.5752 -0.216137 -0.976342 -0.00637462
39.0262 11.1523 32.7715 -0.205265 -0.978688 -0.00600074
39.8134 10.9908 31.948 -0.209161 -0.977878 -0.00256256
40.6073 10.8283 31.1186 -0.208412 -0.977984 -0.0105845
41.6531 10.6243 30.0302 -0.194872 -0.980825 -0.00247275
42.4243 10.4732 29.2283 -0.190011 -0.981779 0.00239381
43.5086 10.2605 28.1034 -0.189745 -0.981831 0.00205694
43.7724 10.2092 27.8299 -0.18341 -0.983036 0.000639052
42.9067 10.3756 27.4352 -0.189555 -0.981869 0.00160464
42.0594 10.5431 28.3148 -0.199573 -0.979875 0.00392048
40.8405 10.7887 29.5835 -0.196411 -0.980512 -0.00437433
39.9801 10.9666 30.4823 -0.206273 -0.978469 -0.00706537
39.1446 11.1365 31.3555 -0.210268 -0.97762 -0.00674337
38.0634 11.3624 32.489 -0.212457 -0.977135 -0.00832719
37.2396 11.5384 33.3547 -0.215993 -0.976383 -0.00476208
36.2591 11.7473 34.3864 -0.21816 -0.975862 -0.0100028
35.9256 11.819 34.7378 -0.221216 -0.975162 -0.0110779
34.9208 12.0505 34.5048 -0.229505 -0.973272 -0.00831702
35.6885 11.8845 33.695 -0.221059 -0.975202 -0.0106947
36.4606 11.7135 32.8806 -0.216807 -0.976201 -0.00523812
37.3343 11.5257 31.9617 -0.215828 -0.976385 -0.00954585
38.1776 11.3504 31.0768 -0.213518 -0.976908 -0.0078583
39.0539 11.1642 30.1577 -0.210268 -0.97762 -0.00674253
39.8383 11.0015 29.3379 -0.208224 -0.978078 -0.00253592
40.5927 10.8429 28.5493 -0.205629 -0.978629 0.00171139
41.7491 10.6036 27.3445 -0.201845 -0.979415 0.0021
42.0291 10.5449 27.0528 -0.196195 -0.980563 0.00190399
41.1526 10.7247 26.6723 -0.20223 -0.979333 0.00304961
40.282 10.9073 27.5801 -0.209794 -0.977743 0.00227222
39.0971 11.1604 28.8191 -0.207972 -0.978132 -0.00215866
38.1808 11.3584 29.7801 -0.214386 -0.976727 -0.00662954
37.4249 11.5189 30.5731 -0.217835 -0.975966 -0.00619988
36.3475 11.7496 31.706 -0.218531 -0.975774 -0.0104456
35.4787 11.9397 32.6219 -0.226608 -0.973933 -0.0101778
34.5914 12.1384 33.5594 -0.232462 -0.972561 -0.00934428
33.8535 12.3072 34.3414 -0.232444 -0.972561 -0.00971917
33.148 12.4847 33.7958 -0.241073 -0.970464 -0.00918437
33.941 12.3017 32.9547 -0.23516 -0.971887 -0.0116428
34.8041 12.1046 32.0403 -0.231549 -0.97274 -0.012754
35.9466 11.8491 30.834 -0.224804 -0.974354 -0.00989281
37.0261 11.6145 29.6983 -0.221281 -0.975193 -0.00576914
38.0398 11.3934 28.6336 -0.216561 -0.976269 -0.00101497
38.786 11.2287 27.8503 -0.212268 -0.97721 -0.00158748
39.5464 11.0641 27.0549 -0.21042 -0.97761 0.00126867
40.3433 10.8911 26.2216 -0.206953 -0.978349 0.00189036
39.4469 11.0837 25.8638 -0.210833 -0.97752 0.00202444
38.6605 11.2543 26.6862 -0.214436 -0.976737 0.00171641
37.9085 11.4244 27.4757 -0.217772 -0.976 0.000202584
37.1219 11.5979 28.3017 -0.220654 -0.975352 -0.00111082
36.1033 11.8265 29.3748 -0.222215 -0.974972 -0.00700957
35.1678 12.0379 30.3623 -0.230721 -0.972973 -0.00959697
34.292 12.2378 31.2888 -0.233503 -0.9723 -0.0104745
33.3646 12.4492 32.2711 -0.235135 -0.971895 -0.0114821
32.3581 12.6855 33.3412 -0.242145 -0.970183 -0.0105167
32.1818 12.7275 33.5289 -0.242145 -0.970183 -0.0105169
30.8997 13.0538 33.6013 -0.249478 -0.968306 -0.0119773
31.7208 12.8513 32.7237 -0.24624 -0.96915 -0.0106736
32.4994 12.6678 31.8955 -0.239655 -0.970806 -0.0100349
33.6592 12.3947 30.6632 -0.239361 -0.970875 -0.0104178
34.4365 12.2164 29.8403 -0.231099 -0.972904 -0.00720199
35.5182 11.9647 28.6956 -0.226848 -0.973912 -0.00590818
36.3615 11.7731 27.8067 -0.22421 -0.974541 -0.000461868
37.4353 11.5286 26.6767 -0.218471 -0.975841 0.00213496
38.3724 11.3166 25.6925 -0.219187 -0.975662 0.0063503
38.4792 11.2913 25.5801 -0.216765 -0.976184 0.00882049
37.4385 11.5237 25.3756 -0.219877 -0.97547 0.0105916
36.6917 11.694 26.1601 -0.222685 -0.974885 0.00313953
35.436 11.987 27.4849 -0.224992 -0.974359 -0.00141925
34.6095 12.1829 28.3604 -0.231849 -0.972738 -0.0052312
33.5388 12.4341 29.495 -0.237044 -0.971491 -0.00395065
32.3693 12.7119 30.7371 -0.239507 -0.970841 -0.0102264
31.1339 13.0108 32.0547 -0.250605 -0.968025 -0.0111548
30.3216 13.211 32.9231 -0.251304 -0.967846 -0.0110202
30.0043 13.2898 33.263 -0.25229 -0.967569 -0.0126498
29.3506 13.4668 32.6662 -0.252034 -0.967658 -0.0108109
30.2802 13.2363 31.6707 -0.250604 -0.968025 -0.0111545
31.6281 12.9023 30.2296 -0.248753 -0.968552 -0.00533151
32.3857 12.7161 29.4225 -0.240057 -0.970747 -0.00475657
33.1936 12.5225 28.564 -0.236689 -0.971575 -0.00454148
34.3987 12.2342 27.2851 -0.233325 -0.972399 0.000447094
35.1485 12.0549 26.4902 -0.225932 -0.974142 0.00137694
36.2511 11.7923 25.3261 -0.224771 -0.97438 0.00783015
36.987 11.617 24.5513 -0.223741 -0.974618 0.00768064
36.3886 11.7491 23.8827 -0.223765 -0.974584 0.0107038
35.6014 11.937 24.7122 -0.224858 -0.974356 0.00836253
34.6747 12.1635 25.6923 -0.233132 -0.972431 0.00516055
33.4017 12.4755 27.0435 -0.237784 -0.971318 -0.000245861
32.3175 12.7407 28.1972 -0.240981 -0.970507 -0.00660295
31.5236 12.9342 29.0425 -0.246021 -0.969251 -0.00510694
30.7898 13.1199 29.8272 -0.248753 -0.968552 -0.00533106
29.5942 13.4224 31.1082 -0.258432 -0.96599 -0.00870199
29.0134 13.5702 31.7323 -0.257847 -0.966071 -0.0149197
27.941 13.8586 31.5871 -0.259921 -0.965527 -0.0140621
29.014 13.5837 30.433 -0.258433 -0.96599 -0.00870234
29.9934 13.3296 29.3807 -0.258718 -0.96593 -0.00668419
30.8331 13.1149 28.4813 -0.249707 -0.96831 -0.00482756
31.8922 12.8519 27.3513 -0.245832 -0.969307 -0.00307966
32.9486 12.5881 26.2256 -0.246024 -0.969263 0.000503184
34.192 12.2756 24.9041 -0.241551 -0.97037 0.0058948
35.286 12.0045 23.7457 -0.233468 -0.972316 0.00971763
35.5561 11.9359 23.4596 -0.230813 -0.972931 0.0113912
34.6786 12.1427 23.0868 -0.23429 -0.972091 0.0120961
33.8097 12.3624 24.0081 -0.242432 -0.970122 0.00950712
32.7557 12.6323 25.1289 -0.243562 -0.96988 0.00326608
32.0136 12.8245 25.9217 -0.246456 -0.969145 0.00425005
31.1022 13.0539 26.8941 -0.246075 -0.969246 -0.00291699
30.3176 13.2529 27.7332 -0.2568 -0.966455 -0.00438647
29.5046 13.4658 28.6063 -0.258909 -0.96588 -0.00641506
28.7219 13.6694 29.4474 -0.260215 -0.965526 -0.00685943
27.612 13.9586 30.6425 -0.260862 -0.965312 -0.0111532
26.9251 14.1387 31.3837 -0.26349 -0.964588 -0.011964
26.0534 14.3834 31.0256 -0.268625 -0.963161 -0.0126982
26.8336 14.1757 30.1822 -0.266507 -0.963772 -0.0107882
27.8504 13.9085 29.0861 -0.2619 -0.965071 -0.00676351
28.6137 13.7068 28.2634 -0.26229 -0.964981 -0.00381128
29.6912 13.4222 27.1047 -0.256799 -0.966455 -0.00438724
30.4519 13.226 26.2899 -0.255222 -0.966869 -0.00518976
31.5453 12.9407 25.119 -0.248141 -0.968721 0.00246518
32.5029 12.6898 24.0957 -0.247013 -0.968959 0.0101491
33.4255 12.4496 23.1137 -0.242877 -0.969986 0.0117726
33.7715 12.3575 22.7449 -0.239094 -0.970913 0.0127438
33.1246 12.5109 22.129 -0.243397 -0.969826 0.0139501
32.3698 12.7116 22.9335 -0.247014 -0.968959 0.0101481
31.5532 12.9336 23.8069 -0.251665 -0.967755 0.0107031
30.7949 13.1317 24.6172 -0.253304 -0.967381 0.00344365
30.0222 13.3422 25.4483 -0.258459 -0.966012 0.00442086
29.2837 13.5343 26.2404 -0.258061 -0.966121 -0.00388176
28.353 13.782 27.2424 -0.260993 -0.96533 -0.00448183
27.5837 13.9889 28.0726 -0.263019 -0.964776 -0.00531849
26.4914 14.2817 29.2524 -0.269792 -0.962881 -0.00848004
25.7141 14.4898 30.0932 -0.268948 -0.963093 -0.0109477
25.3898 14.5761 30.4437 -0.268625 -0.963161 -0.0126982
24.7298 14.7709 29.8594 -0.275647 -0.96119 -0.0114827
25.8116 14.4771 28.6872 -0.269791 -0.962881 -0.00847988
26.7662 14.2158 27.6529 -0.270127 -0.9628 -0.00687575
27.7555 13.9471 26.5839 -0.269664 -0.962942 -0.00501277
28.6644 13.7039 25.6044 -0.262447 -0.964937 -0.00434013
29.4574 13.4902 24.7508 -0.259305 -0.965789 0.00351954
30.5453 13.1939 23.5806 -0.260741 -0.96538 0.00738336
31.8209 12.8435 22.214 -0.250362 -0.968052 0.0139241
31.9249 12.8154 22.1029 -0.24716 -0.968909 0.0113051
31.4704 12.9199 21.282 -0.250823 -0.967887 0.0168064
30.7059 13.1345 22.102 -0.25884 -0.965863 0.0105335
29.7255 13.4105 23.1561 -0.261326 -0.965174 0.0121478
28.746 13.6804 24.2105 -0.26304 -0.964778 0.00360775
27.4234 14.043 25.6382 -0.263717 -0.964584 -0.00552619
26.6342 14.2616 26.4941 -0.269662 -0.962942 -0.00501223
25.8998 14.4619 27.2889 -0.270768 -0.962623 -0.00637547
25.0738 14.6906 28.1855 -0.277353 -0.960718 -0.00985404
24.0714 14.9667 29.274 -0.275648 -0.96119 -0.0114829
23.0448 15.2681 29.0901 -0.280821 -0.959687 -0.0118418
23.7859 15.061 28.2827 -0.281093 -0.95961 -0.0115897
24.5494 14.8487 27.4524 -0.277905 -0.960572 -0.00834403
25.2979 14.6396 26.6393 -0.277173 -0.960791 -0.00740351
26.2805 14.364 25.5719 -0.274503 -0.961569 -0.0057561
27.0183 14.1587 24.7714 -0.26678 -0.963749 -0.00408684
27.9195 13.9064 23.797 -0.266713 -0.963769 0.00368778
28.6483 13.7003 23.0092 -0.264214 -0.964411 0.0100746
29.6218 13.4235 21.959 -0.260083 -0.96552 0.0113404
30.6627 13.127 20.8398 -0.258182 -0.965944 0.0171443
30.7597 13.0992 20.7354 -0.256798 -0.966332 0.0160396
29.6878 13.3859 20.5797 -0.265521 -0.964013 0.0133445
28.6453 13.6903 21.7051 -0.267231 -0.963567 0.0112498
27.5672 14.0001 22.8703 -0.268803 -0.963155 0.0088419
26.8116 14.2151 23.6885 -0.277734 -0.960653 0.00319598
25.9575 14.4611 24.6171 -0.274016 -0.961724 -0.00125961
25.1816 14.6795 25.4601 -0.27758 -0.960692 -0.00446539
24.4067 14.8989 26.3034 -0.281742 -0.959472 -0.0059572
23.6539 15.1126 27.1236 -0.280352 -0.959843 -0.0102249
22.8386 15.3421 28.0123 -0.2835 -0.958903 -0.0115279
22.321 15.4873 28.577 -0.283168 -0.958982 -0.0130484
21.771 15.6592 27.8753 -0.283792 -0.958801 -0.0127498
22.9747 15.317 26.5597 -0.28223 -0.959295 -0.0100121
23.8583 15.0643 25.5957 -0.281691 -0.959487 -0.00582454
24.6113 14.8495 24.7752 -0.279851 -0.960019 -0.00679334
25.4066 14.619 23.9081 -0.277899 -0.960609 -0.00178759
26.1626 14.4005 23.0861 -0.276907 -0.960875 0.00651786
26.8908 14.1864 22.2946 -0.274737 -0.961507 0.00485748
27.6167 13.9739 21.5076 -0.274142 -0.961625 0.0110763
28.6803 13.6603 20.3568 -0.26644 -0.963751 0.0139202
29.1967 13.5084 19.7998 -0.265295 -0.963981 0.0189363
28.3959 13.7244 19.3543 -0.271342 -0.962365 0.0150848
27.6746 13.9422 20.1356 -0.273542 -0.961766 0.0134731
26.6322 14.2525 21.266 -0.274807 -0.961431 0.0114735
25.8403 14.4869 22.1266 -0.280713 -0.959777 0.00527057
25.1203 14.7039 22.9114 -0.282602 -0.959235 0.00220291
24.248 14.9594 23.8644 -0.281232 -0.959639 -0.000965004
23.4926 15.1771 24.6882 -0.285145 -0.958459 -0.00697293
22.5297 15.4584 25.7424 -0.288561 -0.957427 -0.00814766
21.4049 15.7822 26.974 -0.288005 -0.957524 -0.0141536
20.8726 15.9343 27.5571 -0.288703 -0.95732 -0.0137858
20.2856 16.1221 26.8982 -0.292876 -0.95601 -0.0163797
21.48 15.7761 25.5883 -0.288529 -0.957436 -0.00817307
22.6512 15.434 24.3049 -0.288431 -0.957474 -0.00713897
23.8489 15.0757 22.9893 -0.286589 -0.958053 -0.000645299
25.0029 14.7338 21.7296 -0.284515 -0.958663 0.00402225
25.8346 14.4792 20.8221 -0.280721 -0.959757 0.00787017
26.7151 14.2128 19.8647 -0.281015 -0.959628 0.0120238
27.3276 14.0251 19.2003 -0.277294 -0.960681 0.0141353
26.9455 14.1251 18.3037 -0.280588 -0.959715 0.0147717
25.9793 14.4219 19.3535 -0.281054 -0.959616 0.0120467
25.168 14.6694 20.2363 -0.282529 -0.959216 0.00901573
24.3749 14.9138 21.103 -0.286733 -0.957971 0.0087508
23.2777 15.2516 22.3072 -0.292481 -0.95627 -0.00167524
22.4369 15.5054 23.2309 -0.28827 -0.95753 -0.00615375
21.6765 15.729 24.066 -0.291982 -0.956402 -0.00647943
20.5062 16.0777 25.3526 -0.295379 -0.955315 -0.0111539
19.7467 16.2993 26.1876 -0.292881 -0.956036 -0.0146926
19.4926 16.3724 26.4661 -0.29313 -0.955935 -0.0162183
19.0029 16.538 25.7018 -0.298739 -0.954187 -0.0168147
19.8909 16.2757 24.7241 -0.299487 -0.953995 -0.0141518
20.8293 15.9939 23.6905 -0.295319 -0.955371 -0.00721955
21.7943 15.7028 22.6273 -0.291983 -0.956401 -0.00647872
22.6559 15.4412 21.6793 -0.291453 -0.956581 0.00301388
23.5911 15.1495 20.6495 -0.296638 -0.95495 0.00875156
24.3389 14.9152 19.8305 -0.289357 -0.957199 0.00647421
25.068 14.6874 19.0331 -0.284201 -0.958722 0.00904803
26.0866 14.3711 17.9239 -0.286839 -0.957877 0.0139802
26.1541 14.3498 17.8503 -0.286839 -0.957877 0.0139802
25.2059 14.6296 17.57 -0.286213 -0.958042 0.0154149
24.283 14.9198 18.578 -0.291391 -0.956548 0.0103317
23.2626 15.2431 19.6972 -0.296643 -0.954952 0.00829858
22.0912 15.6138 20.9877 -0.300539 -0.953769 -0.00119442
21.0979 15.9249 22.0858 -0.299071 -0.954212 -0.00597903
20.2943 16.1664 22.9711 -0.300077 -0.953868 -0.00947152
19.4285 16.4309 23.9271 -0.300631 -0.953675 -0.0111884
18.6319 16.6697 24.8069 -0.299489 -0.953995 -0.014152
18.2419 16.784 25.2366 -0.301149 -0.953391 -0.0188544
17.7873 16.9457 24.4356 -0.304262 -0.952402 -0.0188729
18.7752 16.6457 23.3421 -0.307832 -0.951323 -0.0149676
19.8985 16.2996 22.0985 -0.300076 -0.953868 -0.00947129
20.9256 15.9809 20.9617 -0.299861 -0.953982 -0.00158401
21.656 15.7519 20.1548 -0.300539 -0.953769 -0.00119442
22.7572 15.3957 18.9388 -0.298814 -0.954289 0.00651207
23.8479 15.045 17.7403 -0.29312 -0.956036 0.00868107
24.5241 14.8255 16.9984 -0.296014 -0.95506 0.0153332
23.7307 15.0643 16.5524 -0.294972 -0.955396 0.0145189
22.9514 15.3172 17.4082 -0.300218 -0.953822 0.00960066
22.0424 15.615 18.4102 -0.304346 -0.952494 0.0113923
21.3184 15.8522 19.2122 -0.304135 -0.952613 0.00553132
20.3843 16.1522 20.2465 -0.305211 -0.952277 -0.00385254
19.4094 16.4638 21.3295 -0.309948 -0.950731 -0.00661191
18.4267 16.772 22.4199 -0.308634 -0.951087 -0.0133654
17.5387 17.0448 23.4057 -0.307832 -0.951323 -0.014968
16.962 17.2186 24.045 -0.310601 -0.950305 -0.0211314
16.1759 17.4851 23.6155 -0.310491 -0.950358 -0.0203573
16.9344 17.2548 22.7704 -0.312092 -0.949876 -0.0182685
17.7606 16.9981 21.8516 -0.314021 -0.949312 -0.0140785
18.8778 16.6421 20.6077 -0.309948 -0.950731 -0.00661191
19.6962 16.3804 19.6979 -0.310444 -0.950574 -0.00574136
20.4236 16.1396 18.8878 -0.315661 -0.948865 0.00365587
21.1825 15.8888 18.0454 -0.30608 -0.951965 0.00876461
22.2087 15.5461 16.9098 -0.30043 -0.953755 0.00971051
22.5419 15.4374 16.5424 -0.300218 -0.953822 0.00960098
21.752 15.6848 16.0972 -0.306915 -0.951707 0.00753422
21.0205 15.9287 16.9065 -0.314557 -0.949198 0.00875615
20.2749 16.1847 17.7369 -0.315779 -0.948827 0.00320119
19.4531 16.4608 18.6525 -0.314267 -0.94933 0.00281102
18.6709 16.718 19.5243 -0.318622 -0.947854 -0.00722112
17.9174 16.9624 20.3652 -0.315876 -0.948747 -0.0100575
17.182 17.1975 21.1856 -0.31423 -0.949281 -0.0112043
16.4244 17.4366 22.0309 -0.312092 -0.949876 -0.0182686
15.7447 17.645 22.7897 -0.319361 -0.947374 -0.0221677
15.2021 17.8442 22.0921 -0.319631 -0.947262 -0.0230359
16.1697 17.5389 21.0052 -0.322098 -0.946571 -0.015974
17.0453 17.2591 20.0264 -0.32197 -0.946683 -0.011281
17.8371 17.0012 19.141 -0.318325 -0.94797 -0.00468329
18.5868 16.7516 18.3019 -0.318477 -0.947929 -0.00189269
19.4807 16.4491 17.3047 -0.320691 -0.94718 0.00268195
20.382 16.1393 16.2998 -0.31987 -0.947424 0.00845433
21.1172 15.8866 15.4817 -0.30888 -0.951098 0.00258419
19.9045 16.2964 15.5116 -0.325409 -0.945558 0.00549273
19.0327 16.5995 16.4843 -0.321503 -0.946908 0.000848254
18.1775 16.8907 17.4416 -0.326163 -0.945314 0.00043393
17.2669 17.1999 18.4632 -0.326886 -0.945048 -0.0055403
16.1737 17.5596 19.6895 -0.321942 -0.946693 -0.0111863
15.329 17.8342 20.6397 -0.325267 -0.945492 -0.0157171
14.5713 18.0725 21.4906 -0.3199 -0.94715 -0.0239028
14.4705 18.1037 21.6037 -0.324085 -0.945723 -0.0240005
13.7257 18.3745 21.1351 -0.328265 -0.944278 -0.024099
14.5123 18.1223 20.2468 -0.330363 -0.943677 -0.018301
15.3248 17.8593 19.3313 -0.3263 -0.945092 -0.0181418
16.2647 17.5453 18.271 -0.326276 -0.945202 -0.0116836
16.9845 17.3034 17.4623 -0.326811 -0.945075 -0.00516633
18.0727 16.9275 16.2362 -0.330816 -0.943695 1.86111e-05
18.9919 16.6087 15.2073 -0.324936 -0.945698 0.00852892
19.2471 16.5177 14.9214 -0.324462 -0.945828 0.011565
18.6682 16.7079 14.2402 -0.329412 -0.944135 0.0098923
17.8992 16.9889 15.1084 -0.333491 -0.942746 0.00379042
16.8287 17.3636 16.315 -0.328816 -0.944391 -0.00257535
15.8574 17.6996 17.4125 -0.333599 -0.942661 -0.010101
15.0517 17.9696 18.3243 -0.33075 -0.943634 -0.0126448
14.2204 18.2451 19.2641 -0.334417 -0.942244 -0.0184612
13.1293 18.6 20.4988 -0.329471 -0.943791 -0.0265818
12.8881 18.6766 20.771 -0.332127 -0.942872 -0.0261647
12.3272 18.8943 20.0983 -0.334781 -0.941944 -0.0257466
13.2871 18.5813 19.0091 -0.334807 -0.942083 -0.0195621
14.1165 18.3069 18.0664 -0.337709 -0.941088 -0.0174916
15.2537 17.9201 16.7745 -0.3336 -0.94266 -0.0101022
16.1125 17.6197 15.8023 -0.336078 -0.941823 -0.00457745
17.0699 17.2807 14.7198 -0.333489 -0.942746 0.00379172
18.0202 16.9332 13.6446 -0.335159 -0.94214 0.00633801
16.995 17.2974 13.4754 -0.341593 -0.93984 0.00398091
16.0509 17.6448 14.549 -0.342208 -0.939618 -0.00349893
15.2588 17.9279 15.4474 -0.339679 -0.940505 -0.00831128
14.1446 18.3173 16.7148 -0.340555 -0.940103 -0.0150854
12.9615 18.718 18.0617 -0.34002 -0.940164 -0.021878
12.0407 19.03 19.115 -0.343055 -0.938871 -0.0288778
11.8046 19.1062 19.3835 -0.342022 -0.939072 -0.0341361
11.0701 19.3909 18.9106 -0.343055 -0.938871 -0.0288778
11.8987 19.1111 17.9603 -0.344458 -0.938511 -0.0233537
12.8053 18.804 16.9232 -0.34777 -0.937347 -0.0208894
13.866 18.4353 15.7094 -0.343782 -0.938987 -0.0108616
14.6323 18.1606 14.837 -0.34684 -0.937856 -0.0112961
15.6653 17.7878 13.6564 -0.342101 -0.939659 -0.00278451
16.4004 17.5166 12.8211 -0.347128 -0.937806 0.00479821
15.5861 17.8145 12.4138 -0.350622 -0.936501 0.00546208
14.6886 18.1497 13.4417 -0.352595 -0.935757 -0.00593085
13.6211 18.5376 14.6634 -0.347374 -0.937642 -0.012571
12.72 18.8586 15.699 -0.350899 -0.936219 -0.0190483
11.7551 19.1935 16.8056 -0.349674 -0.936551 -0.0245032
10.7146 19.5507 18.0029 -0.35135 -0.935738 -0.0307794
10.6131 19.585 18.1194 -0.352053 -0.935479 -0.0306389
9.74913 19.9211 17.8037 -0.352753 -0.935219 -0.0304968
10.9308 19.5168 16.4367 -0.357346 -0.933497 -0.0298008
11.8131 19.2054 15.4171 -0.354599 -0.934785 -0.020909
12.6245 18.9166 14.483 -0.355303 -0.934671 -0.0122683
13.3685 18.6451 13.6233 -0.351341 -0.936165 -0.0124207
14.4778 18.2356 12.3495 -0.352408 -0.935831 -0.00536892
14.5539 18.207 12.262 -0.3569 -0.934137 0.00328033
13.7874 18.4991 11.807 -0.364197 -0.931311 -0.00445952
12.9743 18.8082 12.7469 -0.364125 -0.931306 -0.00910872
12.1376 19.1168 13.7156 -0.359622 -0.932906 -0.0189467
11.2348 19.4463 14.7626 -0.364607 -0.930783 -0.0265469
10.1947 19.8161 15.9694 -0.363898 -0.930946 -0.0303078
9.09548 20.1943 17.2468 -0.359113 -0.932442 -0.0398798
8.95136 20.2427 17.4136 -0.363166 -0.930885 -0.0395359
8.31352 20.5186 16.8481 -0.367212 -0.929311 -0.0391908
9.47091 20.117 15.4933 -0.366875 -0.929539 -0.0368924
10.317 19.817 14.5042 -0.373628 -0.927169 -0.0275515
11.2243 19.4832 13.4468 -0.369906 -0.928887 -0.0183865
11.9168 19.2223 12.6401 -0.370667 -0.928619 -0.0165008
12.9204 18.8394 11.4746 -0.363759 -0.931481 -0.00471653
13.1317 18.7581 11.2295 -0.363759 -0.931481 -0.00471629
12.2592 19.1099 10.9069 -0.374532 -0.92716 -0.0100047
11.5463 19.385 11.7378 -0.370295 -0.928814 -0.0136816
10.759 19.6867 12.6586 -0.380092 -0.924712 -0.0209076
9.83908 20.0322 13.739 -0.373469 -0.927265 -0.0264861
8.9575 20.3483 14.7702 -0.373408 -0.92692 -0.037231
8.14026 20.6449 15.7391 -0.376832 -0.925246 -0.0437986
7.54868 20.8461 16.4326 -0.37372 -0.926192 -0.0500237
6.79349 21.176 16.0125 -0.378376 -0.924316 -0.0497032
7.90496 20.784 14.6965 -0.38434 -0.922079 -0.0453116
8.66562 20.5145 13.7954 -0.39216 -0.91882 -0.0444952
9.43655 20.2241 12.8822 -0.387227 -0.921225 -0.0374015
10.1981 19.9316 11.9829 -0.379704 -0.924908 -0.0192294
10.9764 19.6295 11.069 -0.381208 -0.924321 -0.017635
11.3821 19.4714 10.5922 -0.383741 -0.923313 -0.0153667
10.7577 19.741 9.98538 -0.383743 -0.923312 -0.0153643
9.97027 20.0535 10.9155 -0.394982 -0.918431 -0.021775
9.07551 20.4124 11.9812 -0.391216 -0.919806 -0.0301165
8.04368 20.8054 13.2109 -0.39556 -0.917737 -0.0359346
7.35417 21.0552 14.03 -0.388725 -0.919825 -0.0530495
6.63349 21.3176 14.8918 -0.39522 -0.916512 -0.0617017
6.31236 21.425 15.2729 -0.39082 -0.917752 -0.0706458
5.29032 21.8685 15.178 -0.395993 -0.915587 -0.0699344
6.25811 21.5316 14.0231 -0.399579 -0.91518 -0.0527499
7.06212 21.2369 13.0581 -0.404853 -0.912871 -0.0525443
7.89539 20.9197 12.0597 -0.404066 -0.913501 -0.0473996
8.5726 20.6537 11.2448 -0.408615 -0.912205 -0.0302448
9.36198 20.3311 10.2997 -0.409852 -0.91175 -0.0270951
9.98392 20.0811 9.5603 -0.396169 -0.917851 -0.0244965
9.08782 20.4814 9.28776 -0.411718 -0.910949 -0.0256829
8.30029 20.8092 10.2343 -0.408615 -0.912206 -0.0302431
7.36544 21.19 11.3662 -0.406236 -0.912942 -0.0388624
6.46101 21.5364 12.4554 -0.407514 -0.911997 -0.0468458
5.71543 21.8109 13.3527 -0.402175 -0.913708 -0.05824
4.62026 22.2026 14.6729 -0.410212 -0.90808 -0.0843676
4.00508 22.533 14.1079 -0.410761 -0.908484 -0.0770226
4.77667 22.2557 13.1706 -0.415708 -0.907058 -0.0665776
5.69773 21.9056 12.0508 -0.419644 -0.905652 -0.0607755
6.4575 21.6157 11.133 -0.421063 -0.905499 -0.0527033
7.43843 21.2172 9.94072 -0.421722 -0.905619 -0.0447798
8.27434 20.8631 8.92547 -0.419083 -0.907453 -0.0299693
7.17873 21.375 8.9146 -0.429471 -0.902467 -0.0332711
6.10056 21.8267 10.2319 -0.422813 -0.905126 -0.0444583
5.36068 22.1233 11.1345 -0.419644 -0.905652 -0.0607736
4.66561 22.3889 11.9833 -0.430151 -0.900281 -0.0668218
3.77373 22.7233 13.073 -0.435739 -0.895358 -0.0920117
3.04324 22.9882 13.9631 -0.431052 -0.896013 -0.106558
2.30475 23.3888 13.5662 -0.421946 -0.898397 -0.121836
3.04598 23.1203 12.6566 -0.437882 -0.894351 -0.0916264
3.77897 22.8429 11.7553 -0.438313 -0.895759 -0.0741472
4.45168 22.5802 10.928 -0.440097 -0.89508 -0.0717315
5.12113 22.3088 10.0986 -0.442626 -0.894638 -0.0608672
5.79594 22.0369 9.27366 -0.441066 -0.896109 -0.0495013
6.4169 21.7602 8.50009 -0.439319 -0.897533 -0.0378724
5.6324 22.1703 8.1296 -0.456123 -0.888276 -0.0540153
4.93654 22.4753 8.99524 -0.441066 -0.896109 -0.0495011
4.11355 22.8231 10.0217 -0.454533 -0.887759 -0.0726888
3.26107 23.1655 11.0825 -0.457009 -0.885647 -0.0822924
2.45698 23.4733 12.0775 -0.441839 -0.891617 -0.0989858
1.68139 23.7541 13.0318 -0.431054 -0.896012 -0.106557
1.09913 23.9372 13.7324 -0.433191 -0.893099 -0.121323
-0.238807 24.5432 14.0766 -0.440864 -0.883826 -0.156497
0.573002 24.2923 13.0977 -0.449434 -0.881286 -0.1461
1.51343 23.9713 11.9451 -0.47307 -0.8733 -0.116413
2.22287 23.7045 11.0631 -0.473645 -0.873867 -0.109624
3.31768 23.2574 9.68646 -0.454372 -0.887381 -0.0781147
4.27305 22.8549 8.48871 -0.457566 -0.88673 -0.0659068
4.99326 22.5317 7.58204 -0.461321 -0.885577 -0.0541839
4.17302 22.984 7.26991 -0.466193 -0.883082 -0.0531942
3.28211 23.3841 8.40276 -0.488464 -0.869502 -0.0732715
2.41198 23.7728 9.52028 -0.483528 -0.87185 -0.077963
1.36172 24.1971 10.8459 -0.474195 -0.874394 -0.102829
0.570419 24.4867 11.8282 -0.453745 -0.881895 -0.127974
-0.348896 24.787 12.9491 -0.446882 -0.882447 -0.146915
-1.47518 25.1138 14.2963 -0.437922 -0.883696 -0.165246
-1.52765 25.1282 14.3585 -0.438486 -0.883417 -0.165239
-3.05599 25.7536 14.9099 -0.415317 -0.888929 -0.193177
-2.18872 25.5423 13.8992 -0.438486 -0.883417 -0.165239
-1.39972 25.3291 12.9661 -0.465401 -0.868699 -0.169597
-0.617132 25.0913 12.0184 -0.474312 -0.866121 -0.157677
