51.8246 14.1566 -30.0901 -0.155689 -0.98773 -0.000417893
50.7689 14.3554 -30.2433 -0.202149 -0.979253 0.00476137
51.5672 14.1944 -30.5753 -0.173892 -0.984397 0.0214874
52.2364 14.0858 -30.7805 -0.150709 -0.988456 0.0151566
53.685 13.8875 -30.7695 -0.116819 -0.993083 0.0118136
54.7349 13.7723 -30.7904 -0.0875146 -0.995986 0.0188061
55.7019 13.6882 -30.9302 -0.0760829 -0.997041 0.0109968
56.7044 13.6238 -30.8352 -0.0450158 -0.998797 0.0194286
57.6369 13.5928 -30.888 -0.0182424 -0.999711 0.0156856
58.7981 13.5816 -30.7926 0.00130486 -0.999842 0.0156717
59.9186 13.595 -30.7648 0.0316252 -0.99936 0.0152678
61.4119 13.6689 -30.6311 0.0624606 -0.997966 0.0119705
60.9518 13.6428 -29.898 0.055427 -0.998306 -0.00782008
59.9963 13.6021 -29.9306 0.0391466 -0.999232 -0.00192544
59.0903 13.5918 -29.9266 0.00442931 -0.999988 -0.0018598
58.1187 13.5894 -29.8258 -0.0090924 -0.99987 -0.00449875
57.1882 13.6077 -29.9127 -0.0264617 -0.999555 0.00569435
56.2657 13.6499 -29.9269 -0.0683306 -0.997546 0.00262289
55.1118 13.7457 -29.9227 -0.0863587 -0.996208 -0.010555
54.2207 13.8261 -29.8139 -0.111672 -0.993633 -0.00727447
53.2004 13.9548 -29.9008 -0.120546 -0.992639 0.000789157
52.3301 14.0816 -29.9791 -0.145306 -0.989364 -0.00676662
52.4112 14.0637 -29.1068 -0.155691 -0.987729 -0.000417498
51.3627 14.2396 -29.2203 -0.178173 -0.983913 0.00261252
50.3511 14.4563 -29.3546 -0.210357 -0.977555 -0.000797102
49.3359 14.7001 -29.4404 -0.245317 -0.969415 0.0073081
48.3595 14.965 -29.5202 -0.304372 -0.952122 0.0286493
47.1963 15.3529 -29.5564 -0.337195 -0.9408 0.0345585
45.9987 15.8117 -29.5735 -0.38415 -0.922936 0.0248482
45.0599 16.2014 -29.6099 -0.378547 -0.925344 0.00551765
44.2318 16.5806 -29.6415 -0.418818 -0.907266 0.0382196
43.1925 17.0843 -29.5574 -0.454815 -0.889636 0.0411255
42.3593 17.5308 -29.2703 -0.485241 -0.873908 0.0219724
41.7526 17.8464 -29.7221 -0.485991 -0.873063 0.0396656
42.4981 17.4215 -30.1927 -0.471243 -0.881483 0.0302952
43.302 16.9928 -30.3251 -0.442893 -0.895722 0.0364262
44.1196 16.5946 -30.5381 -0.424895 -0.904536 0.0349748
45.2173 16.0976 -30.484 -0.410921 -0.911084 0.0326965
46.2229 15.6936 -30.4925 -0.378085 -0.925052 0.0345784
47.3143 15.2763 -30.489 -0.344765 -0.93819 0.0290048
48.2441 14.9645 -30.649 -0.309433 -0.948624 0.0660544
49.6431 14.5904 -30.9461 -0.23317 -0.972003 0.0179242
50.577 14.3803 -31.1762 -0.215901 -0.976234 0.0188117
51.555 14.1788 -31.4773 -0.171125 -0.984591 0.0360163
52.5045 14.0209 -31.6965 -0.14356 -0.988986 0.0360202
53.4054 13.9018 -31.7109 -0.116374 -0.992791 0.02869
54.3536 13.7893 -31.6642 -0.104635 -0.99419 0.0184905
55.3147 13.7043 -31.7889 -0.0852566 -0.996231 0.0159892
56.3453 13.6289 -31.7388 -0.0656334 -0.997764 0.0125835
57.3219 13.589 -31.7003 -0.0238009 -0.999651 0.0114357
58.5602 13.5713 -31.6921 -0.00630339 -0.999685 0.0242922
59.8159 13.5813 -31.6125 0.0291347 -0.999228 0.0263383
61.3174 13.6548 -31.5984 0.0596057 -0.998184 0.00870905
62.4197 13.7199 -31.5874 0.0536798 -0.998006 0.0328273
63.522 13.8278 -31.6447 0.110603 -0.993277 0.0341782
64.9012 13.9968 -31.7004 0.138615 -0.98963 0.037649
66.2838 14.2177 -31.7319 0.174251 -0.984045 0.0359561
67.2866 14.3951 -31.764 0.194096 -0.980808 0.0184367
68.4655 14.6274 -31.7657 0.195043 -0.980573 0.0207319
69.2502 14.8085 -31.068 0.212333 -0.977001 0.019564
68.188 14.5998 -30.4524 0.198386 -0.979929 0.0195626
67.2936 14.4284 -30.1129 0.174804 -0.984538 0.00732005
66.3423 14.2589 -29.7383 0.174948 -0.984577 -0.00127816
65.3164 14.0872 -29.5323 0.15766 -0.987462 0.00786067
64.4398 13.957 -29.348 0.119226 -0.992856 -0.00107017
63.2277 13.8173 -29.2437 0.105238 -0.994421 -0.00713329
61.9924 13.7103 -29.2356 0.0675283 -0.997588 -0.0149108
61.0725 13.6429 -29.0492 0.0554268 -0.998306 -0.00782122
59.8347 13.5871 -28.9779 0.0263386 -0.998713 -0.033932
58.6865 13.5918 -29 0.00184701 -0.999997 0.00158386
57.6143 13.59 -28.9189 -0.00909283 -0.99987 -0.00450004
56.661 13.6296 -29.0344 -0.0489803 -0.99876 -0.00854211
55.65 13.6938 -29.0364 -0.0823245 -0.99631 -0.0242549
54.5162 13.7931 -28.9725 -0.0990679 -0.995071 -0.00431314
53.388 13.9259 -28.9522 -0.135985 -0.990708 -0.00217823
52.7415 14.015 -29.0738 -0.140647 -0.990036 -0.00447168
52.3379 14.055 -28.2424 -0.151403 -0.987841 -0.0344542
53.5023 13.8813 -27.9365 -0.119679 -0.992281 -0.0285614
54.4055 13.7849 -27.8866 -0.101231 -0.994628 -0.0216093
55.2691 13.6998 -27.9897 -0.0924254 -0.995437 -0.0212527
56.2908 13.6364 -28.0111 -0.0473767 -0.998821 -0.0105731
57.5056 13.571 -27.9858 -0.0365172 -0.998663 -0.0288169
58.8195 13.5563 -27.9829 -0.00524965 -0.999341 -0.0353883
59.9256 13.5563 -27.9999 0.0263386 -0.998713 -0.033932
61.3135 13.6455 -28.2013 0.0672484 -0.99747 -0.0230668
62.3319 13.7096 -28.1005 0.0859436 -0.995936 -0.0145386
63.5259 13.8408 -28.2798 0.103534 -0.994537 -0.0124743
64.4587 13.9445 -28.4683 0.110333 -0.993605 -0.0239764
65.5964 14.1388 -28.6647 0.163448 -0.986435 -0.00516144
66.9019 14.3573 -28.9203 0.183489 -0.982973 0.002477
67.8495 14.5399 -29.3634 0.192031 -0.981369 0.00623236
68.8602 14.7358 -29.8516 0.203469 -0.978958 0.00330807
69.8774 14.9563 -30.4321 0.21134 -0.977236 0.0185856
70.7855 15.1366 -31.3902 0.238737 -0.970615 0.0134158
70.1251 14.9713 -32.4593 0.215946 -0.976183 0.0206162
69.2894 14.7835 -32.6692 0.211724 -0.977103 0.0210211
68.4025 14.5778 -32.6158 0.194319 -0.979623 0.0507892
67.1934 14.3446 -32.5534 0.177659 -0.983108 0.0429954
65.6192 14.0643 -32.7087 0.168319 -0.985073 0.0355415
63.94 13.8328 -32.616 0.132958 -0.990536 0.0340563
63.0028 13.7356 -32.5618 0.0968205 -0.994167 0.0468901
61.8867 13.6569 -32.6061 0.0496166 -0.998127 0.0357962
60.8204 13.5985 -32.5503 0.0530717 -0.998217 0.0267436
59.7781 13.5542 -32.5989 0.0211194 -0.999467 0.0233611
58.5499 13.5477 -32.666 -0.00780793 -0.999697 0.0232711
57.5564 13.5573 -32.6503 -0.00931196 -0.999709 0.0222505
56.582 13.5901 -32.5823 -0.0574866 -0.997773 0.0318045
55.1002 13.6919 -32.6385 -0.0755378 -0.996344 0.0392091
53.9442 13.8103 -32.5598 -0.124688 -0.991365 0.0400295
52.8704 13.9368 -32.6268 -0.121903 -0.991965 0.0336145
51.8364 14.0811 -32.4588 -0.133256 -0.989813 0.0501228
50.8025 14.283 -32.1123 -0.200864 -0.977606 0.0591916
49.5705 14.5677 -31.8151 -0.207647 -0.97688 0.0508725
48.6875 14.7939 -31.704 -0.242381 -0.968723 0.0531705
47.7913 15.0425 -31.6505 -0.309432 -0.948625 0.0660549
46.9024 15.3661 -31.6387 -0.364685 -0.929852 0.0487744
45.7606 15.8252 -31.5387 -0.37707 -0.924721 0.0520536
44.8714 16.1991 -31.5894 -0.400976 -0.913988 0.0619975
43.9369 16.6335 -31.3275 -0.415525 -0.907472 0.0610454
42.6705 17.2836 -31.0548 -0.467007 -0.882422 0.056883
41.712 17.8059 -30.7737 -0.478573 -0.875976 0.0577535
40.703 18.4245 -29.952 -0.449841 -0.888195 0.0935571
39.6299 19.121 -29.3348 -0.532339 -0.832604 0.152921
38.7715 19.7355 -28.9315 -0.556604 -0.830409 0.0247787
38.1098 20.2379 -28.1462 -0.594183 -0.803252 0.0416212
39.0155 19.5994 -28.082 -0.557555 -0.829866 0.00942455
40.0129 18.9435 -27.9306 -0.540969 -0.84097 0.0110542
40.7937 18.4349 -28.277 -0.524305 -0.850992 0.0183751
41.5732 17.9713 -28.3897 -0.482429 -0.875873 0.00836539
42.6511 17.3833 -28.3805 -0.47893 -0.877753 0.0132619
43.6941 16.8345 -28.5585 -0.441922 -0.896863 -0.00394816
45.0491 16.1993 -28.7364 -0.424359 -0.905483 -0.00450752
45.9682 15.8229 -28.7098 -0.36795 -0.929778 -0.00734465
46.8675 15.4713 -28.6657 -0.350982 -0.936253 -0.015537
48.0423 15.0579 -28.6116 -0.314622 -0.949206 -0.00453856
49.0941 14.7497 -28.5814 -0.260232 -0.965344 -0.018545
50.3501 14.4454 -28.3852 -0.21217 -0.977188 -0.00934516
51.6584 14.1664 -28.3061 -0.183239 -0.982337 -0.0251184
51.6651 14.1653 -28.3053 -0.158231 -0.986677 -0.0378224
64.595 13.9736 -30.2704 0.133441 -0.990891 0.00150452
65.3179 14.0775 -30.6265 0.139954 -0.989934 0.0210817
64.5287 13.9598 -30.7066 0.131328 -0.991097 0.0167859
63.5598 13.8476 -30.8125 0.108047 -0.994073 0.0120028
62.6511 13.7505 -30.8334 0.103938 -0.994542 0.00915836
62.2249 13.7266 -30.3398 0.0653149 -0.997748 0.0152316
63.0787 13.8024 -30.1593 0.108591 -0.994027 0.010849
63.9827 13.9008 -30.1835 0.115168 -0.993254 0.0114805
64.339 13.9438 -30.2526 0.118864 -0.99287 0.00659036
