54.1655 14.4379 -29.7508 -0.110388 -0.993788 -0.00992265
55.3378 14.3379 -30.1497 -0.0834415 -0.996478 0.00834848
56.4489 14.247 -29.8979 -0.0693809 -0.997442 0.0097234
57.5066 14.1927 -29.6788 -0.0373716 -0.999131 -0.00710671
58.8862 14.1815 -29.8624 -0.00637012 -0.999862 -0.0153597
59.9133 14.1878 -29.9227 0.0351772 -0.999313 -0.0116362
61.0998 14.2355 -29.8975 0.0574315 -0.998284 -0.00762771
62.3051 14.3083 -30.5133 0.0641936 -0.997844 0.0136442
63.5292 14.4255 -30.4009 0.107639 -0.994075 -0.000160631
64.6596 14.5741 -30.3543 0.129325 -0.991431 0.0101484
65.7106 14.7232 -30.5835 0.156011 -0.987675 0.011047
65.7797 14.7321 -30.7205 0.159218 -0.987112 0.0161155
64.3275 14.5249 -30.6297 0.125942 -0.991718 0.0251829
63.2643 14.398 -30.637 0.103011 -0.994625 0.0100509
61.7295 14.269 -30.6764 0.0608413 -0.998086 0.00981342
60.4634 14.2055 -30.5501 0.0298804 -0.999383 0.018467
59.0035 14.1796 -30.7404 -0.00330605 -0.99978 0.0206921
57.6189 14.1858 -30.6851 -0.0244164 -0.999374 0.0158977
56.5367 14.232 -30.8059 -0.0693794 -0.997442 0.00972476
55.4428 14.3217 -30.7555 -0.0757287 -0.996893 0.0216857
54.2819 14.4222 -30.1899 -0.0936817 -0.995295 0.015926
53.7446 14.4813 -30.7463 -0.12876 -0.991584 0.0135145
52.7272 14.6206 -30.6437 -0.149031 -0.98855 0.0171692
51.7183 14.7884 -30.4754 -0.170899 -0.985215 0.0120754
50.8505 14.973 -29.9402 -0.218052 -0.975836 0.0140204
52.0537 14.7402 -29.9145 -0.163036 -0.98655 0.011758
53.2614 14.5564 -29.9332 -0.127286 -0.991728 -0.0165683
53.4106 14.5372 -29.9262 -0.127286 -0.991728 -0.0165687
53.3723 14.5248 -28.8919 -0.123844 -0.992198 -0.0136368
52.2585 14.7058 -28.8877 -0.176212 -0.984352 -0.000287858
50.9017 14.9723 -28.9767 -0.216441 -0.976284 -0.00476695
49.838 15.2303 -28.9699 -0.25774 -0.966156 -0.00296735
48.6239 15.5638 -29.0238 -0.299273 -0.953975 0.0191868
47.41 15.9699 -29.0792 -0.338896 -0.940595 0.0207598
46.1652 16.4425 -28.8527 -0.370407 -0.928865 0.00302111
45.1063 16.8998 -28.5846 -0.41263 -0.91084 0.00528007
44.1547 17.338 -28.5962 -0.418333 -0.908167 0.0151653
42.9182 17.9578 -28.5877 -0.462854 -0.886039 0.026497
41.7568 18.595 -28.5204 -0.489131 -0.871955 0.0211136
40.8934 19.1082 -28.2855 -0.535808 -0.843649 0.0341476
39.7666 19.8385 -28.2457 -0.555445 -0.830705 0.0375518
38.8237 20.4876 -28.037 -0.57977 -0.814011 0.0325784
38.2492 20.8826 -28.6212 -0.590698 -0.806101 0.0357375
39.2688 20.1531 -28.7766 -0.568842 -0.821921 0.0294184
40.1655 19.5405 -29.1321 -0.540607 -0.840717 0.0306416
41.259 18.839 -29.7161 -0.494488 -0.867479 0.0544152
42.1136 18.3349 -30.0758 -0.485373 -0.873029 0.0472579
43.0935 17.8029 -30.2489 -0.464318 -0.884754 0.0402277
44.177 17.2656 -30.4679 -0.422883 -0.905231 0.041556
45.1429 16.8204 -30.6329 -0.400825 -0.915379 0.0376807
46.1836 16.3798 -30.7529 -0.362895 -0.930724 0.0452216
47.4472 15.897 -30.9103 -0.334776 -0.941068 0.0472616
48.4203 15.565 -30.967 -0.287494 -0.956552 0.0428899
49.5369 15.2618 -31.1047 -0.249786 -0.967343 0.0430614
50.6027 15.0035 -31.2264 -0.20928 -0.9768 0.0454253
52.1675 14.7045 -31.4853 -0.157252 -0.986949 0.0287721
53.3225 14.5157 -31.6447 -0.128805 -0.991391 0.0228238
54.619 14.3695 -31.6476 -0.111123 -0.993748 0.0107817
55.8077 14.2711 -31.6752 -0.0802722 -0.996095 0.0367445
57.2059 14.1903 -31.6921 -0.0304186 -0.998944 0.0344404
58.426 14.1622 -31.7041 -0.00469026 -0.9998 0.019424
59.5841 14.1661 -31.6907 0.0161678 -0.999782 0.0132339
60.9831 14.2204 -31.6209 0.0545353 -0.998265 0.018253
62.1636 14.2813 -31.6227 0.0504951 -0.998233 0.0313084
63.4346 14.3833 -31.6468 0.0885015 -0.995521 0.033252
64.4416 14.5029 -31.8674 0.131326 -0.990712 0.0351979
65.4668 14.6515 -31.9478 0.157045 -0.986793 0.0391091
66.7019 14.8503 -31.976 0.179352 -0.983234 0.0329172
67.885 15.0724 -31.9291 0.192344 -0.980439 0.0417615
68.9022 15.2847 -31.9635 0.219963 -0.974955 0.0328616
69.8885 15.5123 -31.7069 0.226541 -0.973879 0.0154625
69.1245 15.36 -30.8522 0.211887 -0.976987 0.0244862
68.1645 15.17 -30.2433 0.199509 -0.979843 0.0102115
67.1964 14.9836 -29.8448 0.188764 -0.98194 0.0108735
65.8862 14.7557 -29.7065 0.152807 -0.988238 0.00597805
64.664 14.5697 -29.3383 0.12735 -0.991832 -0.000241273
63.1562 14.3849 -29.2129 0.107639 -0.994075 -0.000159432
61.6121 14.2591 -29.1318 0.057431 -0.998284 -0.0076271
60.1823 14.1864 -28.9234 0.045229 -0.998933 -0.00671499
58.5228 14.1671 -28.7805 -0.000114339 -0.999911 -0.0109167
57.2838 14.1917 -28.6921 -0.0428676 -0.998836 -0.0220454
55.714 14.2947 -28.8502 -0.0757301 -0.99704 -0.0132808
54.665 14.3789 -28.8175 -0.0906555 -0.995727 -0.0138375
53.6152 14.4952 -28.8733 -0.120402 -0.992667 -0.0107048
53.5473 14.4875 -27.8467 -0.118802 -0.992751 -0.0181838
55.0934 14.321 -27.829 -0.099317 -0.994606 -0.0252274
56.296 14.2255 -27.7655 -0.0756822 -0.996391 -0.038423
57.6397 14.1513 -27.6801 -0.0343527 -0.998588 -0.0405227
58.8297 14.1296 -27.7028 -0.00198455 -0.999325 -0.0351064
59.938 14.1473 -28.0126 0.0327326 -0.99802 -0.0420861
61.157 14.22 -27.9264 0.0526797 -0.998318 -0.024212
62.1961 14.2844 -28.0668 0.0886601 -0.995898 -0.0176728
63.649 14.4239 -28.1322 0.100203 -0.994915 -0.0101865
64.6656 14.5507 -28.3221 0.164371 -0.986294 -0.0143843
66.095 14.7896 -28.6297 0.158345 -0.987366 -0.00601359
67.7934 15.1034 -29.0211 0.19067 -0.981652 0.00201255
69.2767 15.4148 -29.5624 0.214282 -0.976755 -0.00558908
70.1637 15.6049 -30.0442 0.213561 -0.976723 0.0194889
71.0398 15.8058 -31.3718 0.250742 -0.968046 0.00389916
70.8201 15.7274 -32.8486 0.248052 -0.968414 0.0253768
69.797 15.4663 -33.0315 0.227839 -0.973272 0.0276879
68.6005 15.1813 -33.0605 0.229233 -0.973106 0.0227201
67.5023 14.9474 -33.0998 0.183083 -0.982177 0.0414626
66.4392 14.7691 -32.9246 0.168844 -0.984985 0.036003
65.2373 14.5623 -33.0835 0.145267 -0.988418 0.0409331
63.5874 14.3595 -32.7302 0.130485 -0.990891 0.0332221
62.5055 14.2643 -32.6775 0.0494095 -0.998263 0.0320939
61.3196 14.202 -32.7919 0.0504955 -0.998233 0.0313078
60.2898 14.1548 -32.6341 0.0477879 -0.998446 0.0286742
58.8822 14.1341 -32.6546 0.0131945 -0.999614 0.0244583
57.6861 14.1422 -32.6625 -0.0199104 -0.999246 0.0315001
56.5063 14.1855 -32.7931 -0.046455 -0.998541 0.0275351
55.474 14.2614 -32.6657 -0.0752709 -0.996313 0.040681
54.0731 14.391 -32.6443 -0.121471 -0.991858 0.0359401
53.0142 14.5273 -32.6982 -0.119881 -0.992475 0.0249328
51.9746 14.681 -32.5951 -0.167443 -0.984913 0.0396519
50.8892 14.8931 -32.3283 -0.184052 -0.982388 0.0322235
49.7222 15.1588 -32.2704 -0.252739 -0.966428 0.0462577
48.6979 15.4382 -32.0963 -0.263675 -0.96307 0.0545223
47.5114 15.8108 -31.8615 -0.314792 -0.943719 0.101495
46.4828 16.1954 -31.8267 -0.35315 -0.932391 0.0770196
45.5239 16.588 -31.6393 -0.392428 -0.916475 0.0779311
44.2212 17.1727 -31.4651 -0.411375 -0.908397 0.0743683
43.2902 17.6336 -31.2893 -0.457502 -0.886776 0.0657282
42.1474 18.2492 -31.0126 -0.465909 -0.882767 0.060417
41.1832 18.8172 -30.7763 -0.494977 -0.867405 0.0470347
40.3548 19.3065 -30.3346 -0.513612 -0.854161 0.0736705
39.0434 20.2451 -29.835 -0.566011 -0.821318 0.0711917
38.0269 21.0092 -29.5509 -0.600299 -0.797707 0.0529789
37.2095 21.6255 -29.3082 -0.60394 -0.796138 0.0376854
36.4594 22.2243 -28.8954 -0.621009 -0.782679 0.0419643
35.755 22.8135 -28.3391 -0.623065 -0.78135 0.0354803
35.356 23.1947 -27.2947 -0.631622 -0.773547 0.0517529
35.7803 22.8831 -26.5265 -0.639659 -0.76832 0.022814
36.788 22.0731 -26.5952 -0.622483 -0.782142 0.0274295
37.8114 21.2628 -26.6697 -0.596152 -0.802519 0.0194916
39.0488 20.3513 -27.0987 -0.579636 -0.814532 -0.00403434
39.9218 19.7502 -27.2022 -0.56954 -0.82196 0.00247902
40.8472 19.1467 -27.3141 -0.530049 -0.84795 -0.00537058
42.055 18.4192 -27.543 -0.502648 -0.864158 -0.0239766
43.0465 17.8857 -27.5688 -0.462965 -0.886215 -0.015171
44.4785 17.1853 -27.6315 -0.421231 -0.906823 -0.0153905
45.6294 16.6526 -27.7149 -0.418246 -0.907873 -0.0289366
46.6237 16.254 -27.87 -0.371483 -0.928412 -0.00496195
47.7975 15.8073 -28.0336 -0.328447 -0.94419 -0.0191997
49.5102 15.3066 -27.9797 -0.263814 -0.964512 -0.0105256
50.8447 14.9795 -27.8589 -0.212522 -0.977142 -0.00261635
51.8995 14.7544 -27.7444 -0.208603 -0.978 -0.00046557
53.0688 14.5451 -27.8664 -0.132158 -0.990956 -0.0189456
53.0923 14.5423 -27.8647 -0.118802 -0.992751 -0.0181838
37.0469 21.8224 -27.6957 -0.622114 -0.782101 0.0356043
38.042 21.0668 -27.8921 -0.587954 -0.808374 0.0276394
37.7303 21.2827 -28.2012 -0.599204 -0.799806 0.034949
37.3584 21.5747 -27.9611 -0.602349 -0.797425 0.0359
