1.99308 3.50054 -3.67829 0.0196028 0.999386 -0.0251483
1.60163 3.48767 -4.64636 0.0351892 0.999291 -0.0133923
1.49034 3.48789 -5.73166 0.00849847 0.999455 0.0226917
1.211 3.50071 -6.85931 -0.0182114 0.999797 0.0019799
0.827311 3.47829 -7.93707 -0.0354945 0.998957 0.00408586
0.403506 3.50166 -9.08709 -0.0489077 0.998272 0.0279589
-0.411892 3.48925 -10.3717 -0.0594211 0.997863 0.0271076
-1.36268 3.43449 -11.2975 -0.143728 0.988777 0.0357531
-2.51335 3.27928 -11.8884 -0.159114 0.985563 0.0578639
-3.65993 3.06294 -12.4293 -0.24153 0.96958 0.0320001
-4.85616 2.75042 -12.8737 -0.255544 0.966413 0.0265419
-5.96021 2.4273 -13.2216 -0.310503 0.949722 0.039693
-7.45191 1.87636 -13.4199 -0.365007 0.930561 0.0287363
-8.72801 1.36632 -13.462 -0.37687 0.925776 0.0301286
-9.25966 1.16176 -14.2156 -0.400912 0.915733 0.0264977
-9.28183 1.1811 -15.3738 -0.39977 0.916406 0.0195995
-8.9665 1.34124 -16.3889 -0.400391 0.916108 0.0208001
-8.23935 1.67241 -17.2039 -0.3786 0.925329 0.0177506
-7.23827 2.08083 -17.6464 -0.370331 0.928623 0.022633
-5.88975 2.58722 -17.8568 -0.302869 0.952794 0.00285581
-4.84131 2.9072 -17.9799 -0.276132 0.961091 -0.00746059
-3.77462 3.18511 -18.0856 -0.233753 0.972296 0.000284056
-2.50085 3.45902 -18.3235 -0.17802 0.983522 0.0224279
-1.2497 3.61973 -18.3236 -0.089928 0.995045 0.0131874
-0.0728079 3.66679 -18.324 -0.0355247 0.998855 0.0320542
1.39068 3.64422 -18.2046 0.0308469 0.999411 0.0077931
2.73614 3.50159 -18.2687 0.127484 0.991531 0.0162445
3.9061 3.3054 -18.3699 0.191357 0.981258 0.000252491
5.00126 3.04941 -18.2658 0.236298 0.971633 -0.00960586
6.43711 2.6592 -18.1481 0.276753 0.960826 -0.0148834
7.5412 2.29187 -18.1478 0.345667 0.938063 -0.0120176
8.65894 1.85983 -17.9915 0.364995 0.93077 -0.0206104
9.69711 1.44432 -17.6711 0.405496 0.913667 -0.0280492
10.3858 1.15411 -16.8995 0.409677 0.91207 -0.0171541
10.2642 1.23603 -15.5845 0.408646 0.912452 -0.0209598
9.94973 1.40243 -14.4445 0.399396 0.916427 -0.0253847
9.71947 1.54133 -13.0337 0.395964 0.918013 -0.0209069
9.66359 1.58494 -11.9505 0.391465 0.919971 -0.0199033
9.63226 1.63829 -10.6959 0.387169 0.921412 -0.0324259
9.60904 1.68169 -9.60417 0.382889 0.923424 -0.0259832
9.76165 1.646 -8.45682 0.381327 0.924178 -0.0220024
10.1294 1.52842 -6.93438 0.38732 0.921616 -0.0246207
10.4174 1.43696 -5.81715 0.372188 0.927642 -0.0309202
10.7267 1.32936 -4.72613 0.40601 0.91367 -0.0190681
10.9452 1.26183 -3.46124 0.414875 0.909679 -0.0180964
10.4489 1.49022 -2.87126 0.394777 0.918641 -0.0158109
9.52559 1.8712 -3.38117 0.344691 0.938552 -0.00818191
8.6081 2.1795 -3.85114 0.314594 0.948913 -0.0244018
7.42028 2.55998 -4.297 0.298247 0.954425 -0.000751191
6.33578 2.86759 -4.47951 0.243791 0.969364 -0.00601239
5.20637 3.11625 -4.55474 0.20854 0.977782 -0.0201796
4.14191 3.30692 -4.42049 0.14685 0.989147 -0.00206975
3.03623 3.42126 -4.06637 0.0897761 0.995706 -0.0109459
2.53724 3.478 -3.87009 0.0657473 0.996636 -0.0310816
2.85701 3.46431 -2.8459 0.0774179 0.996944 0.0104575
4.1619 3.3031 -3.37621 0.143006 0.98972 -0.0016996
5.61359 3.04614 -3.42694 0.214162 0.976657 -0.0165939
7.15888 2.66257 -3.25477 0.283555 0.958266 -0.0270557
8.44046 2.26516 -2.74117 0.322093 0.946145 -0.0270025
9.49215 1.88985 -2.22083 0.371411 0.928336 -0.0100231
10.4309 1.52273 -1.61329 0.406444 0.913347 -0.0245105
11.2009 1.19692 -0.871927 0.411767 0.911072 -0.0197241
12.0386 0.839653 0.381733 0.421209 0.906819 -0.0162213
12.1573 0.759415 -0.797298 0.424209 0.905299 -0.0212942
11.8753 0.859367 -2.05978 0.419655 0.907452 -0.0205049
11.959 0.800246 -3.12622 0.422072 0.906432 -0.014615
11.8316 0.840517 -4.33044 0.419365 0.90768 -0.0150175
11.4811 0.974677 -5.54521 0.415199 0.909449 -0.0225275
11.1384 1.09092 -6.96833 0.403648 0.914538 -0.0261209
10.8894 1.17234 -8.09512 0.397669 0.917295 -0.0206205
10.6129 1.26819 -9.1564 0.396204 0.917709 -0.028098
10.5952 1.2325 -10.4725 0.404257 0.914102 -0.0315167
10.661 1.16748 -11.6418 0.404943 0.91402 -0.0242645
10.6759 1.12778 -12.8175 0.407986 0.912606 -0.0264087
10.8607 1.0143 -13.9506 0.406065 0.9135 -0.0250302
11.1882 0.830156 -15.1494 0.419574 0.90738 -0.024187
11.4903 0.659624 -16.5304 0.417411 0.908439 -0.0225227
11.17 0.781179 -17.7212 0.419795 0.907371 -0.0210633
10.3527 1.1285 -18.5772 0.405234 0.913945 -0.0221386
9.14402 1.63899 -18.9694 0.377826 0.925636 -0.0185053
8.00616 2.09897 -19.2493 0.356494 0.934167 -0.0113948
6.65856 2.57714 -19.1967 0.304646 0.952459 0.00368554
5.23372 2.9787 -19.356 0.259184 0.965786 0.00896332
3.89462 3.29275 -19.4422 0.208894 0.977841 -0.0137694
2.6198 3.52632 -19.419 0.144995 0.989431 0.00163308
1.40696 3.6449 -19.3565 0.0418498 0.999123 0.00118192
0.139068 3.6746 -19.3639 -0.00562795 0.999948 -0.00849001
-1.14116 3.63903 -19.4342 -0.0521941 0.998521 -0.00775038
-2.37958 3.47838 -19.3589 -0.159104 0.986706 0.0331223
-3.49716 3.24892 -19.2589 -0.224003 0.973792 0.039381
-4.77053 2.9271 -19.1305 -0.262102 0.964927 0.0147545
-6.08125 2.52243 -18.9579 -0.318679 0.947805 0.0104916
-7.19553 2.12565 -18.774 -0.367343 0.929929 0.0153514
-8.22992 1.70178 -18.4735 -0.381652 0.923661 0.0345341
-9.1165 1.31481 -17.9533 -0.40039 0.915932 0.0268999
-9.82801 0.980546 -17.1095 -0.408727 0.912371 0.0223449
-10.2071 0.776971 -15.8391 -0.409592 0.911983 0.022831
-10.2636 0.726203 -14.6755 -0.413225 0.910397 0.0197705
-10.1997 0.723055 -13.3988 -0.419903 0.907182 0.0264905
-9.98995 0.785572 -12.4094 -0.401162 0.915489 0.0307921
-8.92588 1.24051 -12.2716 -0.387034 0.921418 0.0345389
-7.74748 1.7307 -12.3663 -0.379025 0.924913 0.0295845
-6.38945 2.23293 -12.1573 -0.342534 0.938888 0.0340493
-5.36373 2.57268 -11.8665 -0.309994 0.950183 0.0301913
-4.34099 2.86147 -11.4654 -0.24153 0.96958 0.0320004
-3.13719 3.11954 -10.9936 -0.213454 0.97598 0.0413497
-2.03054 3.30686 -10.4526 -0.143728 0.988777 0.0357531
-1.1978 3.39391 -9.57895 -0.117811 0.992718 0.0215744
-0.542381 3.42661 -8.51964 -0.0728591 0.996806 0.0308915
-0.0993489 3.4302 -7.28968 -0.0857323 0.996258 0.0109032
0.344634 3.44888 -6.16024 -0.0747549 0.996981 0.0209886
0.496895 3.44214 -5.03041 -0.0510819 0.998075 0.0240965
0.512702 3.45246 -3.8793 -0.0560205 0.998297 -0.0162568
0.628307 3.46595 -2.73856 -0.0737386 0.997277 0.000324308
0.496941 3.45485 -1.45651 -0.0938025 0.995335 0.00778222
0.997964 3.47861 -1.81673 -0.00225268 0.998805 0.0488256
2.01837 3.51182 -2.50654 0.00899404 0.999361 0.0210399
2.54831 3.4871 -2.73368 0.0774176 0.996944 0.0104575
3.01531 3.44865 -1.77456 0.0963678 0.995064 0.0084421
1.86773 3.47894 -1.12838 0.0175877 0.99982 -0.00717552
1.14276 3.47521 -0.267894 -0.00973653 0.999754 0.0199476
0.633836 3.4566 0.732606 -0.0251072 0.999608 0.0123953
0.508429 3.4492 1.82946 -0.0361501 0.999304 -0.00919109
0.672858 3.44866 3.23919 -0.0839499 0.996309 0.015313
1.16564 3.47477 4.54733 -0.0620755 0.997922 -0.0027045
2.11373 3.51695 5.54761 -0.019342 0.999325 0.00472379
3.11867 3.47691 6.31952 0.054683 0.998484 0.00149555
4.31994 3.4012 7.05932 0.0822953 0.996311 -0.00403124
5.29612 3.27211 7.74772 0.144712 0.98922 0.0131975
6.7896 2.89886 7.52948 0.260309 0.965474 -0.00977094
8.03104 2.53149 7.35731 0.304409 0.952521 -0.00627342
9.08974 2.16705 6.92252 0.350197 0.936675 -0.00151778
10.0402 1.79628 6.38108 0.377505 0.926002 -0.00304997
11.0226 1.36944 5.39811 0.401895 0.915652 -0.0078613
11.5882 1.10425 4.46903 0.418071 0.908408 -0.00342241
11.8137 0.986961 3.20404 0.420341 0.90728 -0.0125363
11.9637 0.896411 1.98207 0.421107 0.906915 -0.0128874
11.0927 1.28326 0.751486 0.410292 0.911872 -0.0105843
10.5769 1.48817 -0.166147 0.404414 0.914352 -0.0191004
9.73551 1.83369 -0.831123 0.382017 0.92375 -0.0269352
8.74779 2.18906 -1.44847 0.335764 0.941692 -0.0211358
7.76764 2.5058 -1.89836 0.304268 0.952171 -0.0281312
6.64272 2.82682 -2.18245 0.252592 0.967307 -0.0226978
5.28091 3.12996 -2.30282 0.197806 0.980241 -0.000662229
4.18363 3.30341 -2.25972 0.144792 0.989427 -0.00831064
3.23948 3.42312 -1.83044 0.117085 0.992994 0.0159254
11.2929 1.24623 10.4266 0.411011 0.911602 -0.00720881
11.3157 1.23873 9.27827 0.400858 0.916136 -0.00244318
10.8193 1.45451 8.52865 0.397848 0.91745 -0.00181409
9.78695 1.88985 9.01465 0.380708 0.924666 0.00358929
8.79066 2.27423 9.40488 0.357164 0.934039 -0.00223603
7.64134 2.67106 9.62961 0.287123 0.957753 0.0135302
6.43928 2.99971 9.80349 0.236334 0.971215 0.00850697
5.24985 3.24316 9.88277 0.179872 0.98367 0.00633843
4.1063 3.42702 9.61636 0.146023 0.989258 0.0067883
2.96534 3.50909 8.86026 0.0338272 0.999392 -0.00847745
1.90099 3.54421 8.05604 0.027041 0.999282 -0.0190099
1.03143 3.5308 7.36611 -0.0713295 0.997136 0.0199721
0.20785 3.45545 6.61305 -0.144616 0.989394 -0.011711
-0.681452 3.30357 5.52723 -0.133073 0.990443 -0.0311275
-1.29636 3.20107 4.30629 -0.162264 0.986391 -0.000699448
-2.17906 3.02759 4.91915 -0.181099 0.983282 -0.00701361
-2.95298 2.84893 5.74795 -0.244556 0.969633 0.00190982
-3.87786 2.60767 6.3754 -0.290332 0.956926 0.000234749
-4.9708 2.26695 7.03113 -0.321026 0.946942 -0.00421123
-6.05441 1.88154 7.45455 -0.350019 0.936665 -0.00344614
-7.13369 1.45883 7.75979 -0.374447 0.927241 0.00359778
-7.92351 1.13505 8.49522 -0.387844 0.921723 0.00194429
-8.1167 1.05209 9.59034 -0.392672 0.919678 -0.00127668
-7.91111 1.14292 11.0551 -0.395126 0.918626 -0.00119976
-7.93308 1.14801 12.4863 -0.387078 0.922008 -0.00849662
-7.96775 1.14645 13.8374 -0.395338 0.918512 -0.00349948
-8.01793 1.1307 15.1458 -0.403877 0.914765 -0.0094071
-7.96566 1.15747 16.4505 -0.401824 0.915704 -0.00328338
-7.41096 1.41537 17.6636 -0.397531 0.917487 -0.0116565
-6.40972 1.84039 17.9076 -0.370154 0.928925 -0.00922215
-5.33365 2.27028 18.0255 -0.352884 0.935185 -0.0207633
-4.19942 2.66478 18.1697 -0.306421 0.951502 -0.0274023
-2.56005 3.14339 18.364 -0.25838 0.965406 -0.0336158
-1.3835 3.41558 18.397 -0.172192 0.984331 -0.037987
-0.254378 3.61455 18.4774 -0.147662 0.987892 -0.0427845
0.899414 3.75922 18.5108 -0.124575 0.991509 -0.0371397
2.04664 3.75747 18.417 0.0518965 0.99717 -0.0328962
3.22522 3.63989 18.3087 0.126038 0.991365 -0.0273668
4.64534 3.43306 18.4352 0.139416 0.989775 -0.0101521
6.09641 3.1187 18.4612 0.257464 0.965727 -0.0108816
7.54999 2.68117 18.3612 0.316012 0.948738 0.00572636
8.72695 2.28112 18.2705 0.333489 0.942698 -0.0102962
9.7382 1.887 18.01 0.380263 0.92486 0.00584529
10.6557 1.49745 17.3821 0.410044 0.912062 0.00275437
11.2757 1.22223 16.1821 0.41521 0.909686 0.00850733
11.3918 1.17487 14.9886 0.417393 0.908705 0.00252713
11.4009 1.1815 13.751 0.426865 0.904265 0.00954526
11.3624 1.20154 12.6214 0.413892 0.910302 0.00612705
11.3316 1.23148 11.2754 0.417123 0.9088 0.0088212
11.2957 1.24785 10.7912 0.411011 0.911602 -0.00720934
12.2605 0.802142 10.8736 0.425649 0.904872 0.00549703
12.3085 0.78428 9.76857 0.423808 0.905732 0.00528451
12.278 0.801743 8.63614 0.420677 0.907209 0.00115708
12.3426 0.770495 7.43936 0.421254 0.906924 -0.00547877
12.3814 0.741504 6.22396 0.431651 0.902032 -0.00401447
11.832 0.999321 6.23602 0.422745 0.906236 -0.00444368
10.9026 1.42173 7.01329 0.405828 0.913938 0.0031048
9.94154 1.83349 7.73828 0.391303 0.92026 0.0018833
8.94831 2.21818 8.19238 0.349686 0.936864 0.00220972
7.4965 2.70973 8.6268 0.311862 0.950063 -0.00801895
6.36277 3.01633 8.70359 0.21498 0.976584 0.00819585
5.15388 3.26828 8.82042 0.158615 0.987035 0.0245636
4.02653 3.42415 8.35969 0.0954998 0.99542 0.00439305
3.13854 3.49003 7.54412 0.0533601 0.998324 -0.0172225
2.06369 3.5071 6.87762 0.0159983 0.999429 -0.0297477
1.09053 3.47643 5.97322 -0.0269333 0.999367 -0.0232387
0.294161 3.40427 5.14386 -0.115406 0.992811 -0.0184123
-0.242487 3.34474 4.0016 -0.139692 0.989863 0.0115992
-0.583545 3.33795 2.7972 -0.116091 0.992597 0.021874
-0.44431 3.34199 1.65804 -0.142168 0.98976 -0.00983872
-0.370156 3.3503 0.835544 -0.152831 0.988228 -0.000156652
-1.29723 3.2119 1.68037 -0.154695 0.987949 -0.00501721
-1.96003 3.09701 2.63204 -0.199612 0.979762 -0.00971963
-2.66035 2.92499 3.61939 -0.205406 0.978465 0.00997806
-3.77748 2.64033 4.9678 -0.274491 0.96114 0.00128628
-4.66692 2.35775 5.6588 -0.299941 0.953957 -0.0013813
-5.77975 1.98121 6.21245 -0.326707 0.945121 0.00295719
-6.97499 1.52965 6.55284 -0.367983 0.929765 0.00641976
-8.28748 0.987517 7.07017 -0.388883 0.921271 0.00552032
-8.98217 0.684214 8.30136 -0.402367 0.915469 0.00391786
-9.07295 0.63645 9.58242 -0.398783 0.91702 0.00681384
-8.88505 0.724008 11.1908 -0.399081 0.91688 -0.00806294
-8.96815 0.698654 12.3507 -0.399401 0.916737 -0.00851992
-8.85285 0.756277 13.7314 -0.4051 0.914272 -0.000162633
-8.96938 0.705649 15.077 -0.406858 0.913491 -0.000123398
-8.92827 0.729295 16.532 -0.412733 0.910835 -0.00464389
-8.82654 0.785658 17.8063 -0.417863 0.908452 -0.0102367
-7.95065 1.18665 18.7491 -0.404773 0.914388 -0.00736116
-6.89186 1.64842 18.9371 -0.386932 0.922068 -0.0081935
-5.38411 2.26386 19.1226 -0.367774 0.929748 -0.0176346
-4.07659 2.73019 19.2729 -0.298785 0.953909 -0.0280271
-2.95878 3.07084 19.3991 -0.249153 0.968143 -0.0245973
-1.82557 3.36204 19.4352 -0.22169 0.974626 -0.0114287
-0.520826 3.60381 19.5048 -0.147167 0.988571 -0.0200882
0.686261 3.75391 19.504 -0.121991 0.992123 -0.0263943
1.91329 3.77714 19.5294 0.0534574 0.99857 5.34609e-05
3.02638 3.68091 19.4588 0.104797 0.994342 -0.0173553
4.44569 3.49029 19.5444 0.176102 0.984321 -0.010034
5.69516 3.22438 19.5806 0.238612 0.970938 -0.0185582
6.82811 2.91726 19.586 0.29235 0.956248 -0.0110332
7.91844 2.56837 19.4713 0.312495 0.949825 -0.013387
9.07233 2.14323 19.3455 0.361489 0.932362 0.00510974
10.2778 1.65538 19.0234 0.393217 0.919356 -0.00162272
11.2559 1.22521 18.3546 0.41587 0.909403 0.0062883
11.9035 0.930746 17.3636 0.428211 0.903674 0.00282985
12.3063 0.745941 16.2564 0.427609 0.903927 0.00811924
12.325 0.74708 14.9828 0.422247 0.906445 0.00171094
12.364 0.734881 13.6979 0.420541 0.907261 0.00470154
12.3319 0.759031 12.3835 0.424566 0.905381 0.0051912
12.2678 0.797975 10.991 0.425516 0.904933 0.00569154
13.2994 0.30824 11.1291 0.431376 0.902149 0.00649135
13.2784 0.314675 12.7148 0.436412 0.899705 0.00510257
13.3357 0.282535 13.9228 0.422018 0.906575 0.00470837
13.4139 0.231197 15.4261 0.423376 0.905884 0.0112904
13.3142 0.263741 16.8368 0.428346 0.903611 0.00266334
12.9131 0.450208 17.9479 0.43151 0.902098 0.00257088
12.1401 0.820198 19.0518 0.421703 0.906671 -5.24163e-05
11.1837 1.2576 19.838 0.408229 0.912853 -0.00426436
9.96655 1.78114 20.2835 0.37036 0.928888 -0.0003298
8.74612 2.26389 20.5126 0.362702 0.9319 0.00311815
7.60704 2.67981 20.6731 0.32968 0.944084 0.00317428
6.52711 3.01474 20.7006 0.28563 0.958283 -0.00879013
5.32234 3.33127 20.6552 0.211945 0.977276 -0.00321022
3.96317 3.58834 20.6297 0.141831 0.989867 -0.00686321
2.65642 3.74803 20.6131 0.0927124 0.995439 -0.022505
1.52067 3.7974 20.5979 0.000251178 0.999342 -0.0362586
0.335238 3.73544 20.5629 -0.109437 0.993965 -0.00755086
-0.922531 3.55631 20.4586 -0.175554 0.983861 -0.0184475
-2.17035 3.29905 20.4967 -0.234513 0.971363 -0.0295988
-3.23972 3.01144 20.4186 -0.264082 0.963999 -0.0310883
-4.29927 2.6907 20.3174 -0.311735 0.949422 -0.027634
-5.39051 2.28648 20.2617 -0.372229 0.927787 -0.0246756
-6.86228 1.67247 20.0527 -0.387324 0.921874 -0.0100441
-8.20124 1.08441 19.7989 -0.409066 0.912498 -0.00357895
-9.35124 0.555813 19.1606 -0.417737 0.90855 -0.00516202
-9.8234 0.330986 18.18 -0.41944 0.907696 -0.0116537
-10.02 0.230165 17.1209 -0.421539 0.906805 0.00323668
-9.86982 0.298965 15.8872 -0.418588 0.908171 -0.00296242
-9.98275 0.252326 14.7466 -0.414028 0.910258 0.000714523
-9.79093 0.340348 13.5877 -0.405505 0.914093 -0.000169325
-10.024 0.232303 12.3894 -0.4076 0.913124 -0.00812662
-9.89118 0.270652 11.1023 -0.430435 0.902569 -0.00971482
-9.99833 0.220819 9.89218 -0.41625 0.909141 0.0140952
-9.95899 0.249149 8.54633 -0.409959 0.912076 0.00712098
-9.78241 0.337901 7.33642 -0.418416 0.908212 0.00890203
-9.07124 0.663425 6.17883 -0.403451 0.914949 0.00977681
-8.08773 1.08313 5.68477 -0.381867 0.924172 0.00700847
-6.98951 1.53235 5.51422 -0.365927 0.930521 0.00800001
-5.6805 2.02086 5.02272 -0.333006 0.942922 0.00225022
-4.81235 2.31518 4.34412 -0.301036 0.953578 0.00817334
-4.00485 2.57509 3.56051 -0.299233 0.954165 0.00541013
-3.12906 2.83452 2.33817 -0.262944 0.964723 -0.000886275
-2.25487 3.02111 1.11679 -0.216624 0.976215 -0.00890217
-1.54831 3.16988 0.07028 -0.158209 0.987404 0.00151462
-1.09481 3.2555 -1.01401 -0.164576 0.985922 0.0295271
-0.584151 3.3423 -2.56968 -0.12418 0.992238 0.00657238
-0.56746 3.35267 -4.04671 -0.10538 0.994298 0.0163292
-0.531858 3.37022 -5.25446 -0.0714607 0.997367 0.0123828
-0.88484 3.34116 -6.34883 -0.123628 0.992116 0.0205229
-1.20472 3.32628 -7.54107 -0.121762 0.992312 0.0221378
-1.86898 3.29576 -8.70932 -0.12688 0.991363 0.0212632
-2.54512 3.19861 -9.58408 -0.174108 0.984467 0.0226258
-3.97551 2.89097 -10.2148 -0.237519 0.970649 0.0351618
-5.17309 2.59554 -10.6266 -0.305569 0.952107 0.0108995
-6.20165 2.26271 -10.9914 -0.324249 0.945549 0.028269
-7.2919 1.87821 -11.2537 -0.363244 0.931222 0.0296482
-8.34659 1.45395 -11.1637 -0.373687 0.927304 0.0215892
-9.36342 1.01803 -11.0979 -0.4014 0.91522 0.0348239
-10.6348 0.455435 -11.2503 -0.415766 0.908945 0.0309333
-11.2007 0.236211 -12.5429 -0.417432 0.908333 0.0261052
-11.0861 0.32551 -13.8837 -0.425696 0.904504 0.025586
-11.2871 0.263364 -15.0329 -0.417928 0.90823 0.0213275
-11.1532 0.355146 -16.2132 -0.420496 0.906979 0.0237237
-10.7197 0.592538 -17.7126 -0.415165 0.909432 0.0237965
-10.0721 0.910967 -18.6225 -0.413797 0.910042 0.0244143
-8.88954 1.44802 -19.4328 -0.395793 0.918147 0.0188145
-7.70851 1.93907 -19.8085 -0.359193 0.933172 0.0130176
-6.09568 2.52809 -20.1072 -0.321052 0.946438 0.0279923
-4.72647 2.96994 -20.2275 -0.279657 0.959447 0.0353942
-3.66009 3.2591 -20.3237 -0.233121 0.971157 0.0500857
-2.3614 3.51489 -20.402 -0.166021 0.985339 0.0392833
-0.947827 3.66716 -20.472 -0.0682139 0.99625 0.0532203
0.16183 3.68666 -20.4332 -0.00273553 0.998956 0.0383916
1.54216 3.66157 -20.5179 0.0410124 0.99895 0.0199586
2.77442 3.50539 -20.4618 0.1422 0.98983 -0.00100177
4.12913 3.24391 -20.3989 0.189361 0.981448 0.0300409
5.26735 2.975 -20.3193 0.228243 0.973548 0.0104492
6.5717 2.60124 -20.3078 0.278811 0.960332 0.00512781
7.89929 2.12453 -20.4057 0.358216 0.933542 -0.0134614
9.12161 1.6416 -20.1723 0.387853 0.921697 -0.0066987
10.3543 1.10657 -19.7701 0.408907 0.912572 -0.00268738
11.4434 0.623717 -19.3263 0.413308 0.910444 -0.0163793
12.1051 0.330352 -18.5106 0.422581 0.906174 -0.0165619
12.3135 0.257846 -17.3816 0.421572 0.906515 -0.0225206
12.4106 0.240872 -16.1985 0.422325 0.906195 -0.0212187
12.2908 0.317828 -15.0148 0.430593 0.902362 -0.0175696
11.8997 0.53713 -13.7894 0.42601 0.904343 -0.0259569
11.6519 0.692664 -12.6915 0.41863 0.907535 -0.0332702
11.6346 0.747031 -11.2967 0.409838 0.911673 -0.0297501
11.5243 0.838412 -9.94768 0.406744 0.913111 -0.0280607
11.7392 0.781482 -8.81839 0.413546 0.910055 -0.0279123
12.0139 0.683194 -7.75273 0.412924 0.910611 -0.0168039
12.2489 0.600704 -6.48105 0.415812 0.909277 -0.0166175
12.5602 0.479416 -5.27707 0.431067 0.902003 -0.0238935
12.9249 0.330735 -4.21971 0.425255 0.90496 -0.0143381
13.0587 0.280474 -3.14782 0.413572 0.910141 0.0112747
12.9327 0.351058 -2.0549 0.440089 0.89758 -0.0259162
13.3065 0.225634 -0.565891 0.415743 0.908968 -0.028554
13.1646 0.316412 0.761537 0.418966 0.90789 -0.0096164
13.2145 0.307851 1.93719 0.430907 0.902115 -0.0225209
13.209 0.345261 3.32946 0.423534 0.905474 -0.0256955
13.3412 0.285139 4.50666 0.427065 0.904079 0.010955
13.2637 0.312 5.88359 0.441914 0.897057 -0.000432816
13.2401 0.334085 7.11419 0.438632 0.898613 -0.0059089
13.2609 0.342727 8.41367 0.420158 0.907428 -0.00643424
13.3584 0.296463 9.67026 0.421911 0.906608 0.00727612
13.3089 0.306151 10.7879 0.431376 0.902149 0.00649093
9.54706 1.53594 -15.8804 0.385937 0.922351 -0.0179426
8.30419 2.01166 -17.2996 0.360812 0.932432 -0.0196162
5.70579 2.89174 -17.508 0.286353 0.957262 -0.0406379
7.71599 2.28892 -15.3209 0.339524 0.939741 -0.0401266
9.17158 1.76114 -13.6781 0.393323 0.919062 -0.0249342
8.95001 1.89433 -11.3006 0.371818 0.927791 -0.0309079
6.92334 2.57413 -13.5562 0.302436 0.95315 -0.00608385
4.96109 3.13064 -15.6749 0.19197 0.981349 0.0100557
3.16636 3.43116 -17.5278 0.13279 0.990932 0.0205189
0.624919 3.66383 -17.4845 0.0150182 0.999762 -0.0158308
2.89242 3.46254 -15.1742 0.128258 0.991659 0.0127007
5.16213 3.05776 -12.8129 0.236379 0.971661 -8.04968e-05
7.44436 2.45195 -10.3515 0.286451 0.957845 -0.0218954
9.26539 1.85395 -8.32289 0.381327 0.924178 -0.0220025
10.2924 1.53131 -4.52769 0.414166 0.909867 -0.0246678
8.35399 2.21733 -6.7157 0.338511 0.94072 -0.0213608
6.37452 2.77318 -8.8742 0.260518 0.96533 -0.0163635
3.99377 3.2837 -11.3989 0.181891 0.98318 0.0164913
1.84209 3.56174 -13.6179 0.0735673 0.99717 0.0154787
-0.362955 3.61276 -15.8601 -0.0567657 0.997685 0.0374484
-2.08286 3.49072 -17.6238 -0.135488 0.990398 0.0274917
-4.07888 3.10734 -17.0922 -0.231546 0.972788 0.00836738
-2.04937 3.44217 -14.9609 -0.104106 0.993468 0.0467343
0.0112775 3.56647 -12.8539 -0.037794 0.999093 0.0196239
2.15101 3.54282 -10.664 0.0805246 0.996279 -0.0307225
4.33899 3.24551 -8.40242 0.184218 0.982661 -0.0210261
6.52864 2.79272 -6.08234 0.252512 0.967032 -0.0329743
7.57462 2.51124 -4.94837 0.298265 0.954483 -0.000750618
4.81635 3.17982 -5.26749 0.202914 0.978909 -0.0237332
2.53979 3.47164 -7.63103 0.0436363 0.999042 0.00342941
1.17706 3.50921 -9.02731 0.0165046 0.999808 0.0105381
2.1381 3.46413 -5.40152 0.0263604 0.999647 -0.00317489
2.70689 3.45099 -4.8178 0.0519985 0.998644 0.00269176
-6.35923 2.41333 -16.9554 -0.366899 0.930061 0.0192915
-5.62344 2.61541 -16.1458 -0.286801 0.957744 0.0217275
-4.78866 2.84717 -15.2297 -0.276274 0.960869 0.0201
-4.01886 3.02547 -14.4018 -0.253042 0.966499 0.043005
-3.07011 3.21622 -13.395 -0.232366 0.972598 0.00773098
-2.32181 3.3509 -12.613 -0.146119 0.989015 0.0223456
-2.2769 3.35476 -12.5669 -0.120201 0.992367 0.027551
-6.00488 2.44575 -13.9194 -0.300419 0.952745 0.0450173
-7.33858 1.9963 -15.4294 -0.370008 0.928659 0.0261957
-8.03101 1.73639 -16.2286 -0.373003 0.927656 0.0179716
-8.73409 1.38758 -14.3935 -0.38151 0.924118 0.0213585
-8.55274 1.45757 -14.1823 -0.38151 0.924118 0.0213585
10.696 1.50173 11.8642 0.386778 0.922156 0.00559255
9.38211 2.05004 10.3353 0.357452 0.93393 -0.00191473
9.03457 2.18224 9.93783 0.357308 0.933984 -0.00207545
7.27838 2.77225 10.6271 0.276012 0.961135 -0.00613947
8.71419 2.30877 12.2301 0.339134 0.940731 -0.00365287
10.2398 1.68793 13.9946 0.382971 0.923759 -0.00119744
10.9176 1.38963 14.7936 0.4092 0.912437 0.0037625
10.3382 1.63176 16.7759 0.390832 0.920454 -0.00370976
8.99641 2.18386 15.2166 0.363337 0.931649 0.00406011
7.64822 2.65154 13.6941 0.286505 0.95792 0.0174665
6.14259 3.08446 12.0447 0.231401 0.972394 -0.0300684
4.72945 3.33393 10.5444 0.157017 0.987587 -0.0041118
8.67186 2.29654 17.5105 0.333786 0.942644 -0.00318226
7.09063 2.83465 15.7277 0.298206 0.954501 0.000767485
5.32429 3.26148 13.8205 0.194952 0.980752 0.0109024
3.62503 3.49536 12.0346 0.107539 0.994036 0.0181186
1.89502 3.5638 10.2397 -0.0204247 0.999766 -0.00706939
0.109108 3.43801 8.38814 -0.140091 0.990067 0.011894
-1.68858 3.15374 6.50026 -0.16048 0.986405 -0.0353837
-2.1688 3.04624 5.98651 -0.243127 0.969809 -0.01896
-3.66942 2.66908 7.00097 -0.28174 0.95949 0.00139626
-1.81501 3.15539 9.01479 -0.174025 0.984632 -0.0146389
-0.000802324 3.45315 10.926 -0.11562 0.993003 -0.0240223
1.75287 3.60955 12.7452 -0.0556856 0.998348 -0.0141623
3.47736 3.58339 14.5212 0.0909282 0.994682 -0.0483788
5.20439 3.31913 16.3334 0.204502 0.978866 -0.000879242
6.54335 2.99482 17.7766 0.261693 0.965147 0.00273174
3.94468 3.53966 17.6453 0.131554 0.991162 0.0170742
2.08165 3.7111 15.7198 0.00713228 0.999947 -0.00742323
0.0866796 3.52663 13.6684 -0.0895947 0.995854 -0.0157209
-1.65654 3.23468 11.8393 -0.197641 0.980224 -0.00998848
-3.48437 2.74648 9.86098 -0.286477 0.958016 -0.01168
-5.19222 2.19406 7.96354 -0.339128 0.940712 -0.00733542
-5.32689 2.14432 7.81053 -0.339128 0.940712 -0.00733514
-7.04163 1.49565 8.50659 -0.376046 0.926554 -0.00937707
-5.42338 2.12197 10.3598 -0.319434 0.9476 -0.00399043
-3.81078 2.67743 12.1622 -0.291746 0.956399 -0.0136043
-2.179 3.14234 13.9327 -0.208152 0.977827 -0.0229694
-0.376405 3.50753 15.8295 -0.132864 0.99084 -0.0241646
1.35066 3.72673 17.6138 0.00626778 0.998872 -0.0470729
1.5885 3.7367 17.857 0.0062676 0.998872 -0.0470729
-1.18647 3.41875 17.634 -0.161626 0.986375 -0.0306807
-3.14459 2.94034 15.5556 -0.237753 0.971182 -0.016718
-4.78828 2.40749 13.7449 -0.314795 0.949027 -0.0158473
-6.35222 1.79256 11.9663 -0.352747 0.9356 -0.014925
-7.27331 1.4164 10.9055 -0.382595 0.923913 -0.00252947
-7.44658 1.36449 13.364 -0.391012 0.920332 -0.00994833
-5.89253 2.01433 15.16 -0.349034 0.936987 -0.0151998
-4.02512 2.70612 17.2542 -0.313241 0.949571 -0.0139517
-3.61813 2.83792 17.6978 -0.271949 0.962145 -0.0179136
-6.33139 1.86436 17.3239 -0.362291 0.932033 -0.00777057
-7.45973 1.38006 16.017 -0.395185 0.9186 -0.00165135
