-31.1482 9.13472 -19.3707 0.521013 -0.853388 -0.0165782
-30.207 9.73709 -19.3589 0.55049 -0.834702 -5.9468e-05
-29.0579 10.5137 -19.4439 0.568827 -0.822279 -0.00879247
-28.0385 11.2512 -19.4172 0.589741 -0.807466 -0.0142672
-27.0479 12.0097 -19.4662 0.612336 -0.790579 -0.0055148
-26.214 12.6901 -19.5068 0.652214 -0.757984 0.0063021
-25.3933 13.4033 -19.5108 0.672614 -0.739812 0.0163651
-24.6439 14.087 -19.4044 0.671227 -0.741008 0.0187827
-23.9053 14.8003 -19.5222 0.697073 -0.716666 0.0219011
-23.1695 15.5456 -19.5418 0.72877 -0.684758 -0.00014293
-22.3663 16.4215 -19.5082 0.750953 -0.660305 -0.00311414
-21.6367 17.2677 -19.5221 0.764374 -0.644739 0.00389696
-20.9597 18.1642 -19.4707 0.810681 -0.585423 -0.00876174
-20.5222 18.7959 -18.8796 0.826506 -0.5629 -0.00564215
-20.3018 19.091 -17.8297 0.81975 -0.572302 -0.0214009
-19.7322 19.8722 -17.2124 0.821169 -0.568129 -0.0539577
-19.0742 20.8123 -16.9977 0.823992 -0.563864 -0.055623
-18.453 21.708 -16.8968 0.822042 -0.56345 -0.0822879
-17.8995 22.5514 -17.1092 0.821452 -0.563434 -0.0880788
-17.3391 23.3526 -17.4764 0.77256 -0.630487 -0.0749351
-16.8859 23.983 -18.3442 0.750761 -0.657836 -0.0599742
-16.359 24.6845 -19.4077 0.760604 -0.646901 -0.0547801
-15.6948 25.4623 -19.5103 0.764677 -0.638701 -0.0856172
-14.9686 26.269 -19.473 0.728338 -0.683084 -0.0415825
-14.1509 27.0304 -19.4024 0.662434 -0.746656 -0.0589828
-13.1366 27.9133 -19.44 0.632083 -0.773081 -0.0411792
-12.0919 28.7092 -19.3791 0.599203 -0.799344 -0.0428952
-11.0033 29.5161 -19.5454 0.550218 -0.832558 -0.0416863
-10.0946 30.054 -19.5133 0.502136 -0.863735 -0.0403443
-9.20417 30.5352 -19.4433 0.472611 -0.88042 -0.038456
-8.87643 30.6786 -18.4944 0.498319 -0.866842 -0.0156287
-8.32609 30.8723 -17.4332 0.431605 -0.892171 -0.133221
-9.04171 30.4215 -16.6553 0.442999 -0.889478 -0.112165
-9.93875 29.8643 -16.0593 0.488473 -0.867081 -0.0977977
-10.9359 29.1934 -15.531 0.573031 -0.81514 -0.0847465
-11.7972 28.5485 -15.1024 0.567629 -0.819383 -0.0800495
-12.6376 27.8558 -14.5918 0.639238 -0.761856 -0.100198
-13.3144 27.1682 -14.0081 0.660287 -0.742908 -0.109952
-13.9189 26.5199 -13.4543 0.683547 -0.722078 -0.106615
-14.5958 25.7845 -12.8755 0.695056 -0.710434 -0.110365
-15.125 25.0989 -12.1185 0.732185 -0.66887 -0.128526
-15.5881 24.4225 -11.1097 0.740967 -0.662399 -0.110429
-15.7116 24.2369 -10.8059 0.736031 -0.670706 -0.0917212
-15.0969 24.8409 -10.3356 0.719064 -0.689764 -0.0846969
-15.3067 24.4862 -9.34769 0.735948 -0.672016 -0.0819335
-15.4569 24.2083 -8.32363 0.729251 -0.679419 -0.0811306
-15.5022 24.0302 -7.16453 0.73791 -0.670603 -0.0760303
-15.5971 23.7591 -5.7013 0.755519 -0.651173 -0.0716758
-15.7284 23.493 -4.48995 0.756602 -0.651056 -0.0606572
-15.7903 23.3161 -3.32349 0.757085 -0.650918 -0.0558637
-15.9248 23.103 -2.24033 0.760343 -0.649208 -0.0201641
-15.861 23.1438 -1.1771 0.757124 -0.653057 -0.0161629
-15.7906 23.2134 0.338462 0.752344 -0.658565 0.010209
-15.7614 23.2973 1.52575 0.720614 -0.691844 0.0299895
-16.1466 22.8223 1.18287 0.776773 -0.628137 0.0454635
-16.7507 22.0169 0.64951 0.811756 -0.583988 0.00310571
-17.3544 21.1834 0.0465696 0.820817 -0.570603 -0.0259169
-17.9514 20.3642 -0.452127 0.81994 -0.569572 -0.0573321
-18.4597 19.6258 -0.0672342 0.793311 -0.605877 -0.0597567
-18.4343 19.5686 1.11114 0.786202 -0.616143 -0.047485
-18.3977 19.5337 2.14487 0.784102 -0.619016 -0.0447178
-18.3136 19.567 3.204 0.775474 -0.630478 -0.033741
-18.2765 19.5417 4.4636 0.764466 -0.64379 -0.0322382
-17.7764 20.1659 5.17371 0.790253 -0.612056 -0.0298047
-17.1649 20.9698 5.7414 0.814421 -0.579834 -0.0225965
-16.6439 21.6926 6.25492 0.81954 -0.571763 -0.0379696
-16.1224 22.4034 6.76053 0.821734 -0.566038 -0.0646021
-15.5471 23.1769 6.82111 0.741208 -0.663956 -0.0939591
-15.394 23.4452 5.64316 0.739726 -0.670345 -0.0576846
-15.49 23.4332 4.50372 0.740336 -0.670894 -0.0424679
-15.6087 23.3784 3.44888 0.733119 -0.678427 -0.0473903
-15.5403 23.5024 2.4034 0.711692 -0.701475 -0.03778
-15.2754 23.7691 2.44095 0.71892 -0.694454 -0.0249184
-14.7448 24.3082 3.19625 0.721379 -0.692252 -0.01999
-14.09 24.933 4.06072 0.691446 -0.721802 -0.0275768
-13.3349 25.619 4.72057 0.688576 -0.724187 -0.0376248
-12.4795 26.3887 5.33808 0.684643 -0.727786 -0.0399024
-11.7329 26.9801 5.7159 0.617821 -0.786157 -0.0156638
-10.7843 27.6872 6.08802 0.601385 -0.798699 -0.0200862
-9.76301 28.4362 6.24432 0.586944 -0.809305 -0.021312
-8.61448 29.2083 6.05716 0.547247 -0.83691 -0.00531445
-7.76704 29.7155 5.67522 0.509704 -0.859947 0.0235108
-6.91824 30.1861 5.04093 0.465685 -0.884748 0.0187685
-5.92173 30.6832 4.3406 0.437258 -0.898947 0.0264648
-5.26375 30.9757 3.57096 0.416248 -0.909227 -0.00658778
-4.62629 31.2601 2.82241 0.392891 -0.919564 -0.00623567
-3.79155 31.5786 1.93531 0.3406 -0.939977 0.0186105
-2.88563 31.8532 1.08092 0.293857 -0.955291 0.0324483
-2.11622 32.0413 0.226141 0.265267 -0.962873 0.0500863
-1.23823 32.2306 -0.659881 0.197901 -0.980221 0.00139671
-0.394942 32.3692 -1.35852 0.142276 -0.989571 0.00601461
0.315601 32.4603 -2.43024 0.106467 -0.994197 0.0153758
1.12966 32.5203 -3.20827 0.0656482 -0.997484 0.0267716
1.85606 32.5044 -4.10887 -0.037516 -0.997853 0.0536886
2.65251 32.4305 -5.30288 -0.0239832 -0.999007 0.0375488
3.32015 32.3562 -6.23613 -0.0960407 -0.994157 0.0441095
3.77286 32.2572 -7.17032 -0.128114 -0.991358 0.0282038
4.08079 32.1767 -8.13612 -0.189397 -0.978571 0.0807819
4.12184 32.0499 -9.42204 -0.203973 -0.972227 0.11092
3.97569 31.9741 -11.0083 -0.258368 -0.964721 0.0505878
3.64931 32.0017 -12.3765 -0.250804 -0.967183 0.040677
3.22471 32.1006 -13.8348 -0.242431 -0.969381 -0.0390834
2.86795 32.2512 -15.1871 -0.244761 -0.965374 -0.0833599
2.61127 32.4726 -16.4534 -0.342654 -0.937263 -0.0642327
1.91055 32.6566 -17.2323 -0.165083 -0.985566 -0.0375114
0.806501 32.8415 -17.779 -0.0614336 -0.987628 -0.14428
-0.146718 32.93 -18.2679 -0.0406851 -0.997844 -0.0514933
-1.30039 32.865 -18.3006 0.160346 -0.982801 -0.0916064
-2.71264 32.6329 -18.3295 0.175896 -0.979645 -0.0950588
-3.75322 32.3781 -18.1028 0.221734 -0.974087 -0.0445861
-4.17009 32.299 -18.5718 0.250692 -0.96765 -0.0213507
-4.08437 32.3439 -19.7182 0.282933 -0.95904 -0.0120111
-3.39112 32.5512 -20.5502 0.284019 -0.958439 -0.0266214
-2.3595 32.7957 -20.5085 0.236558 -0.970265 -0.0502607
-1.19616 32.9863 -20.5012 0.158268 -0.984166 -0.0797989
0.155519 33.0641 -20.3747 0.0308496 -0.991631 -0.125368
1.2008 33.0766 -20.4833 -0.0106714 -0.993597 -0.112477
2.58981 32.9477 -20.4665 -0.132328 -0.975474 -0.17506
3.53374 32.6177 -20.3017 -0.417331 -0.906869 -0.0512492
3.76497 32.4377 -19.2539 -0.320123 -0.944178 -0.0725486
3.9271 32.2923 -18.2598 -0.321113 -0.895501 -0.282742
4.71586 31.6306 -17.9635 -0.690593 -0.705664 -0.124057
5.4696 30.8683 -17.9375 -0.700491 -0.696549 0.111989
6.25401 30.1905 -17.978 -0.602734 -0.767316 0.218949
6.80845 29.6398 -18.6864 -0.354431 -0.929872 0.0713955
6.84573 29.5843 -19.7128 -0.422803 -0.906137 0.0123928
7.40462 29.3025 -20.4988 -0.442833 -0.896473 0.0137945
8.603 28.7145 -20.4348 -0.437137 -0.899133 0.0216825
9.71465 28.1581 -20.5353 -0.453833 -0.890813 0.022104
10.7687 27.6097 -20.5026 -0.471364 -0.881852 0.0123401
11.8055 27.0316 -20.4416 -0.505786 -0.862427 0.0200047
12.6659 26.4903 -20.5532 -0.548783 -0.835749 0.00966436
13.6514 25.8189 -20.4905 -0.576096 -0.817382 -0.000417785
14.543 25.1021 -20.4697 -0.636095 -0.771487 -0.0138139
15.3769 24.325 -20.6078 -0.713139 -0.700986 -0.00722484
16.1667 23.4982 -20.1694 -0.731042 -0.682332 -0.000335991
16.2815 23.3767 -19.2052 -0.723722 -0.690068 0.0056927
16.406 23.2142 -18.2037 -0.746324 -0.66264 -0.0596137
17.0366 22.4036 -18.0209 -0.806421 -0.591339 -0.00163039
17.7873 21.3836 -17.9632 -0.810137 -0.583941 0.0518762
18.4335 20.4914 -17.9828 -0.801093 -0.590651 0.0961234
19.0045 19.7021 -18.4148 -0.759608 -0.646267 0.0705054
19.0275 19.6134 -19.6613 -0.764995 -0.643791 0.0177963
19.5285 18.9977 -20.5335 -0.771114 -0.636679 0.00491479
20.2246 18.1852 -20.5944 -0.745391 -0.666416 0.0145529
20.9661 17.4067 -20.5718 -0.706723 -0.707088 0.0238589
21.7446 16.632 -20.5939 -0.696248 -0.717088 0.0316697
22.5412 15.868 -20.5328 -0.689798 -0.723176 0.034072
23.3751 15.106 -20.5136 -0.674123 -0.736941 0.0497623
24.2034 14.3871 -20.4109 -0.657115 -0.752599 0.0423579
25.0051 13.7061 -20.5928 -0.638854 -0.768369 0.038192
26.0536 12.8655 -20.5259 -0.618959 -0.784745 0.0316033
26.8607 12.2422 -20.5234 -0.608706 -0.792932 0.027114
27.7645 11.5711 -20.5525 -0.586322 -0.809656 0.0235637
28.5991 10.981 -20.5501 -0.577118 -0.816335 0.0230629
29.7115 10.2263 -20.6 -0.549977 -0.834895 0.0184703
30.7845 9.53557 -20.5867 -0.542746 -0.839485 0.0262949
31.6758 8.98559 -20.5364 -0.520479 -0.853617 0.0209701
32.5838 8.43394 -20.5202 -0.506787 -0.861976 0.0128016
33.7928 7.74018 -20.5363 -0.497302 -0.867498 0.0117699
34.8629 7.13752 -20.5516 -0.483641 -0.875158 0.0109815
35.9638 6.55255 -20.566 -0.461078 -0.887213 0.0133817
37.0541 5.99714 -20.5647 -0.446089 -0.894658 0.0222766
38.1392 5.47285 -20.5983 -0.428483 -0.903116 0.0271301
39.1712 5.00826 -20.5264 -0.411256 -0.911247 0.0223039
40.2907 4.52214 -20.5948 -0.387095 -0.921839 0.0171112
41.3416 4.10567 -20.6679 -0.364184 -0.931204 0.0147424
42.4744 3.6754 -20.6058 -0.354298 -0.935036 0.0134005
43.7219 3.21939 -20.6332 -0.33705 -0.941409 0.0108079
44.8383 2.83751 -20.5972 -0.320079 -0.947343 0.00912008
45.8553 2.49931 -20.5604 -0.309042 -0.950929 0.0130172
47.0986 2.11631 -20.5043 -0.281998 -0.9593 0.0122732
48.0985 1.8333 -20.5956 -0.264637 -0.964255 0.0134096
49.0862 1.5652 -20.6234 -0.25083 -0.967898 0.0146637
50.4167 1.24018 -20.617 -0.22349 -0.974591 0.0150059
51.599 0.980839 -20.5065 -0.202497 -0.979165 0.0152219
52.6037 0.777003 -20.3324 -0.200185 -0.979619 0.0165081
53.6096 0.584277 -20.1202 -0.186565 -0.982288 0.0174456
54.8255 0.372419 -19.85 -0.170204 -0.985266 0.016663
55.823 0.206998 -19.7025 -0.163727 -0.986376 0.0159572
56.6497 0.0862926 -18.9602 -0.152134 -0.988088 0.0227278
56.884 0.0688254 -17.8969 -0.153423 -0.988112 0.0097963
56.7295 0.112113 -16.7108 -0.160712 -0.986829 0.0184212
56.9367 0.103476 -15.6734 -0.157369 -0.987286 0.022392
57.1249 0.093458 -14.5776 -0.152928 -0.988086 0.0172638
57.2116 0.102372 -13.5133 -0.154394 -0.987725 0.0237162
57.4932 0.0943601 -12.2192 -0.148012 -0.988585 0.0281401
57.7022 0.0972521 -11.057 -0.140642 -0.989691 0.0270394
57.9124 0.0977392 -9.9614 -0.142898 -0.989314 0.0289599
58.173 0.0924719 -8.93025 -0.134261 -0.990591 0.0265249
58.4329 0.0882608 -7.88618 -0.131581 -0.990872 0.0293048
58.8631 0.064774 -6.88413 -0.122816 -0.992089 0.025965
58.9845 0.0815987 -5.66571 -0.119974 -0.992488 0.0239192
59.3002 0.0709426 -4.57454 -0.118037 -0.992724 0.0237796
59.3457 0.0918787 -3.4277 -0.116654 -0.992943 0.0213406
59.1934 0.135902 -2.30483 -0.121072 -0.992381 0.0228222
59.0305 0.178328 -1.24537 -0.11791 -0.99272 0.0245609
59.0782 0.198263 -0.219211 -0.11831 -0.992676 0.0244214
59.0472 0.223933 0.863459 -0.119134 -0.992673 0.0198814
58.8619 0.272382 1.87759 -0.119755 -0.99251 0.0240441
58.873 0.294806 2.92036 -0.117193 -0.992921 0.0187288
59.0167 0.29237 3.93232 -0.116751 -0.993061 0.0141414
59.2648 0.282999 5.27913 -0.112148 -0.993601 0.0134067
59.6442 0.263936 6.67545 -0.109161 -0.993889 0.0163849
60.2849 0.207511 7.79387 -0.106818 -0.994198 0.0125567
60.8259 0.165715 8.86049 -0.10229 -0.994665 0.0133119
61.4331 0.118666 10.1124 -0.103165 -0.994598 0.011458
61.7806 0.0949744 11.1324 -0.102706 -0.994635 0.0123502
62.0638 0.0777376 12.1186 -0.10037 -0.994881 0.011714
62.1912 0.0764101 13.2576 -0.0997923 -0.994975 0.00817612
62.4915 0.0554527 14.5568 -0.0998861 -0.994984 0.0054892
62.5882 0.0535578 15.7813 -0.100536 -0.994913 0.00632774
62.8004 0.0420362 17.1308 -0.0986267 -0.995087 0.00859307
62.9134 0.0434855 18.2716 -0.0884244 -0.996059 0.00691701
62.411 0.0945359 19.099 -0.0940351 -0.995557 0.00470502
61.3309 0.203096 19.5531 -0.102329 -0.994743 0.00394568
60.2302 0.320136 19.8209 -0.10886 -0.994042 0.00542371
59.1159 0.447545 20.1316 -0.116213 -0.99322 0.00290033
57.9222 0.593338 20.312 -0.125141 -0.992131 0.00401718
56.881 0.736462 20.339 -0.137671 -0.990477 -0.00106437
55.8334 0.894856 20.3967 -0.15674 -0.987616 -0.00370711
54.8352 1.06096 20.4478 -0.172593 -0.984991 -0.00213648
53.5509 1.29333 20.6015 -0.18983 -0.981802 0.005447
52.4667 1.5127 20.7204 -0.208111 -0.978091 0.0052982
51.3283 1.75951 20.7203 -0.215942 -0.976404 0.0022563
50.1574 2.0275 20.6839 -0.231674 -0.972788 -0.0032999
48.8494 2.36081 20.6206 -0.251104 -0.967933 -0.00276097
47.7374 2.66413 20.599 -0.264618 -0.964352 -0.00179672
46.7374 2.96144 20.5504 -0.291537 -0.956559 0.00135208
45.7624 3.26473 20.4808 -0.298679 -0.954352 -0.00189227
44.7189 3.6067 20.5311 -0.319289 -0.947634 -0.00210662
43.7028 3.95636 20.5765 -0.336681 -0.941577 0.00703502
42.5366 4.38529 20.592 -0.358981 -0.933345 -0.000538935
41.5465 4.7665 20.598 -0.360789 -0.932638 0.00424507
40.4731 5.20821 20.6577 -0.390986 -0.920337 -0.00427341
39.4269 5.66473 20.6526 -0.402978 -0.915163 -0.00851531
38.2934 6.18493 20.6424 -0.423748 -0.905755 -0.00512437
37.3615 6.6323 20.6426 -0.431321 -0.902027 -0.0175967
36.2528 7.18416 20.629 -0.466328 -0.884262 -0.0248882
35.3477 7.66393 20.6309 -0.484344 -0.874624 -0.0210785
34.1788 8.30718 20.6177 -0.490516 -0.871298 -0.0106238
33.301 8.81703 20.7053 -0.503252 -0.863931 -0.0177495
32.394 9.36507 20.6834 -0.528547 -0.848596 -0.0228682
31.3284 10.0495 20.6631 -0.556063 -0.831021 -0.0141164
30.2816 10.7647 20.5777 -0.580556 -0.813942 -0.0182038
29.192 11.5586 20.6397 -0.598985 -0.800641 -0.0093446
28.1425 12.3755 20.6065 -0.630867 -0.77578 -0.0130783
27.3228 13.0437 20.6313 -0.6361 -0.771382 -0.0186023
26.4982 13.741 20.5923 -0.668642 -0.743546 -0.00757511
25.6696 14.5136 20.546 -0.702164 -0.711735 -0.0199735
24.872 15.2999 20.4392 -0.715747 -0.698326 0.00566265
23.9483 16.2531 20.4737 -0.726197 -0.687303 -0.00244514
23.125 17.1856 20.4847 -0.753355 -0.657605 -0.00335331
22.4183 18.0161 20.4135 -0.773278 -0.634049 0.00354941
21.7836 18.8229 20.4743 -0.792687 -0.609628 0.0011447
21.2538 19.5363 19.846 -0.807778 -0.589486 -0.00123612
21.2231 19.5761 18.7429 -0.803297 -0.595577 0.00138194
20.8891 20.0254 17.9577 -0.823767 -0.566888 0.00679628
20.3024 20.8884 17.8307 -0.82849 -0.559019 0.0332003
19.7155 21.7649 17.9031 -0.830693 -0.555231 0.0407227
19.1413 22.619 17.9316 -0.82255 -0.565538 0.0598258
18.6745 23.3251 18.3993 -0.796823 -0.603964 0.0172991
18.6151 23.4318 19.5173 -0.816557 -0.577184 0.00967507
18.4551 23.6758 20.503 -0.822985 -0.56799 0.00831631
17.8798 24.5069 20.5733 -0.818239 -0.574699 0.014347
17.2384 25.3888 20.6031 -0.799896 -0.599338 0.0306056
16.592 26.2147 20.5537 -0.783664 -0.620512 0.0288984
15.7741 27.2365 20.5907 -0.776931 -0.629043 0.0257834
15.08 28.0156 20.5281 -0.729821 -0.681751 0.0455515
14.2651 28.8423 20.5959 -0.701402 -0.711221 0.0469068
13.4846 29.52 20.5364 -0.623985 -0.780782 0.0319547
12.3944 30.3209 20.5287 -0.57236 -0.819745 0.0205306
11.2939 31.0102 20.5329 -0.497289 -0.866546 0.0388445
10.4015 31.5079 20.6163 -0.448371 -0.890749 0.0589114
9.28036 32.0022 20.5343 -0.352484 -0.935167 0.0348887
8.43135 32.2992 20.138 -0.332395 -0.942788 0.0257852
8.358 32.3039 19.0562 -0.357476 -0.933701 0.0197862
7.98897 32.4001 18.0488 -0.219504 -0.958529 0.128126
6.88661 32.5678 17.8863 -0.151366 -0.987867 0.0347454
5.6079 32.7265 17.8843 -0.118742 -0.992154 -0.0391141
4.57701 32.8524 17.9077 -0.1123 -0.991128 -0.0667507
4.05582 32.911 18.7202 -0.185886 -0.98252 -0.0100283
4.04206 32.9111 19.8282 -0.178514 -0.983935 0.00220982
3.41294 33.0259 20.473 -0.166142 -0.986074 -0.0073725
2.35976 33.1722 20.4184 -0.108794 -0.993877 0.0192589
1.01144 33.3228 20.3613 -0.0975748 -0.993501 0.0497381
-0.357962 33.3515 20.3695 0.00147592 -0.995982 0.087443
-1.83378 33.2755 20.4462 0.0621262 -0.994505 0.0842586
-2.86731 33.066 20.5167 0.177577 -0.982378 -0.017215
-3.85764 32.761 20.3836 0.388635 -0.916797 -0.0846003
-4.22722 32.5823 19.461 0.449137 -0.8932 0.00847221
-4.38397 32.4342 18.2839 0.32365 -0.929801 0.164672
-5.00141 31.7948 17.8521 0.629479 -0.763294 0.145389
-5.71686 31.0307 17.8658 0.735017 -0.67742 -0.0291928
-6.45282 30.1908 17.9073 0.721129 -0.679115 -0.13005
-7.1198 29.4672 18.5232 0.532589 -0.839773 -0.105501
-7.1763 29.3979 19.7345 0.549971 -0.835107 -0.00991479
-7.63703 29.0755 20.4881 0.55419 -0.832165 -0.0193709
-8.59346 28.4523 20.4257 0.540543 -0.840921 -0.0255444
-9.46109 27.8974 20.4036 0.546316 -0.837333 -0.0203098
-10.364 27.3073 20.4254 0.538779 -0.842268 -0.00778761
-11.2953 26.7087 20.4943 0.552069 -0.833691 0.0106713
-12.182 26.1102 20.533 0.575792 -0.817569 0.00665236
-13.0494 25.4801 20.5495 0.597298 -0.801777 0.0197249
-13.9017 24.7965 20.5125 0.639435 -0.768843 0.00191316
-14.7367 24.029 20.502 0.698792 -0.715152 -0.012991
-15.3337 23.4373 20 0.717117 -0.696887 0.00907632
-15.3816 23.3723 18.9451 0.719887 -0.693191 0.0284784
-15.7573 22.9123 17.9377 0.772515 -0.622544 0.108339
-16.4249 21.9933 17.8746 0.809125 -0.583689 0.0673917
-17.0719 21.0901 17.8606 0.813507 -0.579322 0.0509178
-17.8098 20.0755 18.0089 0.809756 -0.586705 0.00853946
-18.1839 19.5717 18.8856 0.801514 -0.597966 0.0033746
-18.2196 19.5355 19.9292 0.801633 -0.597798 0.00473433
-18.8155 18.746 20.4761 0.797528 -0.603281 -0.00122071
-19.6098 17.7533 20.4506 0.773143 -0.634151 0.0093785
-20.2855 16.9958 20.4159 0.725109 -0.688045 0.0189835
-21.0881 16.1599 20.4712 0.72088 -0.692785 -0.0195263
-21.8117 15.4343 20.4176 0.707922 -0.705978 -0.0210079
-22.5733 14.7062 20.5218 0.679479 -0.73356 -0.0140684
-23.4035 13.9611 20.5119 0.654954 -0.755554 -0.0131089
-24.283 13.2353 20.4552 0.62001 -0.784398 -0.0175365
-25.2146 12.5076 20.4941 0.60583 -0.795403 -0.0101438
-26.2825 11.727 20.5489 0.587768 -0.808955 -0.0108956
-27.3797 10.9504 20.4963 0.570441 -0.821248 -0.00821404
-28.561 10.1668 20.5158 0.542452 -0.839943 -0.00937678
-29.8048 9.37733 20.5104 0.536333 -0.843598 -0.0262579
-30.8389 8.74839 20.5613 0.512803 -0.858409 -0.00995689
-31.8023 8.20543 20.5415 0.490034 -0.871574 -0.0131311
-32.9035 7.60126 20.5274 0.479955 -0.877154 -0.0156134
-34.0069 7.02429 20.4651 0.463957 -0.885844 -0.00486793
-35.1335 6.45485 20.589 0.45108 -0.892448 -0.00674302
-36.1024 5.97937 20.5308 0.434191 -0.900696 -0.0149928
-37.1998 5.45946 20.571 0.415592 -0.909531 -0.00611416
-38.3669 4.93977 20.4985 0.398338 -0.917199 -0.00851811
-39.4057 4.49359 20.5538 0.388792 -0.921323 -0.00234277
-40.3616 4.09957 20.4622 0.367593 -0.92996 -0.00710741
-41.3701 3.70913 20.5354 0.349274 -0.936968 -0.00994671
-42.4829 3.29954 20.5632 0.338801 -0.940838 -0.0061737
-43.5355 2.92709 20.4871 0.321176 -0.947015 -0.00278343
-44.4877 2.60435 20.5335 0.307705 -0.95148 0.00168119
-45.6884 2.22445 20.5214 0.288847 -0.957375 0.000349209
-46.6875 1.92977 20.5359 0.275931 -0.961176 -0.00151504
-47.6663 1.65698 20.6155 0.259495 -0.965744 -0.000939212
-48.7468 1.37615 20.4586 0.244577 -0.969623 -0.00225248
-49.728 1.13753 20.3401 0.233999 -0.972228 0.00117144
-50.793 0.886775 20.1904 0.223623 -0.974637 0.00870453
-51.7782 0.676685 20.0162 0.201558 -0.979475 -0.00162082
-52.7961 0.47472 19.8661 0.189131 -0.98194 -0.0047584
-53.891 0.270853 19.535 0.179589 -0.983739 -0.00248728
-54.6937 0.125654 19.1004 0.172002 -0.985093 0.00265144
-54.7719 0.11268 18.0739 0.176958 -0.984218 -0.00111437
-54.8638 0.0982438 16.8718 0.171559 -0.985173 0.00128317
-54.8305 0.098915 15.8485 0.177918 -0.984028 0.00379675
-54.7611 0.117285 14.7874 0.191323 -0.98147 -0.00539005
-54.9528 0.100142 13.2395 0.168892 -0.985587 -0.00970299
-55.0283 0.0962709 12.2058 0.168569 -0.9856 -0.0133051
-55.1377 0.0969344 11.0536 0.14901 -0.988757 -0.0124555
-55.082 0.110679 9.82798 0.168434 -0.98568 -0.00803783
-55.2284 0.112594 8.19621 0.156647 -0.987495 -0.0161252
-55.2718 0.116158 7.13767 0.15616 -0.987702 -0.00596566
-55.4659 0.0904567 5.89204 0.15993 -0.987114 -0.00532301
-55.4562 0.10283 4.36684 0.158363 -0.987362 -0.00594523
-55.478 0.105731 3.33033 0.15752 -0.987479 -0.00851236
-55.5013 0.115576 1.8824 0.161679 -0.986815 -0.00745483
-55.5782 0.111337 0.747852 0.16093 -0.986913 -0.00981641
-55.5831 0.1212 -0.504945 0.159049 -0.98723 -0.00892678
-55.7798 0.100253 -1.79939 0.156564 -0.987618 -0.00990107
-55.9498 0.0860156 -2.8737 0.145927 -0.989229 -0.011424
-56.0227 0.0859094 -4.16147 0.144833 -0.989446 -0.00450647
-55.9837 0.0971041 -5.25389 0.159688 -0.987142 -0.00706744
-56.0082 0.101705 -6.31658 0.16177 -0.986805 -0.00607481
-56.252 0.0850615 -7.60163 0.148453 -0.98876 -0.0177452
-56.2582 0.0953968 -8.64892 0.147845 -0.989006 -0.00250899
-56.3259 0.0898109 -9.88546 0.14888 -0.988851 -0.00289738
-56.3491 0.0900778 -11.0981 0.150819 -0.988555 -0.00353477
-56.3167 0.100935 -12.2945 0.153863 -0.988048 -0.00862141
-56.4793 0.0880343 -13.3465 0.153264 -0.988138 -0.00941107
-56.5348 0.0885981 -14.5081 0.144177 -0.989536 -0.00564514
-56.4938 0.102055 -15.8094 0.150858 -0.988554 -0.00177399
-56.6007 0.0893897 -16.8231 0.152393 -0.988292 -0.00748093
-56.5455 0.105595 -17.8447 0.153035 -0.988195 -0.0070929
-56.2586 0.157142 -18.8873 0.147347 -0.989055 -0.00767494
-55.1675 0.333068 -19.2829 0.159505 -0.987187 -0.00445936
-54.2222 0.496143 -19.6542 0.171556 -0.985145 -0.00740715
-53.2665 0.671792 -19.9679 0.181504 -0.983389 0.00176338
-52.1414 0.886719 -20.2711 0.197549 -0.980283 -0.00281782
-50.9604 1.13299 -20.4424 0.207394 -0.978239 -0.00603505
-49.8585 1.38406 -20.4395 0.227266 -0.97382 -0.00489647
-48.6854 1.67573 -20.474 0.248416 -0.968653 0.00116113
-47.5431 1.98544 -20.3209 0.268075 -0.96339 0.00389376
-46.5846 2.2681 -20.126 0.297393 -0.954754 0.00116906
-45.611 2.56623 -20.1421 0.291587 -0.956518 -0.00710502
-44.6021 2.89751 -20.2249 0.315074 -0.94904 0.00153321
-43.5464 3.25593 -20.276 0.32315 -0.946345 0.00102032
-42.2274 3.73614 -20.2771 0.346686 -0.937963 0.00236277
-41.0195 4.20276 -20.2941 0.360602 -0.932687 0.00783788
-40.0052 4.61284 -20.2421 0.379704 -0.92507 0.00638199
-39.0212 5.03607 -20.2381 0.399153 -0.916878 0.00161917
-37.9805 5.50723 -20.2341 0.417482 -0.908667 -0.00516351
-36.6915 6.11554 -20.3332 0.429821 -0.902891 -0.0056969
-35.6259 6.64139 -20.269 0.449121 -0.893435 -0.0044288
-34.4374 7.25699 -20.2488 0.473965 -0.880538 0.0029439
-33.4744 7.78316 -20.1985 0.485839 -0.874045 0.00234109
-32.5619 8.29492 -20.2504 0.495309 -0.86862 0.0129644
-31.5504 8.88575 -20.2942 0.513447 -0.858097 0.00650462
-30.604 9.48133 -20.4668 0.543763 -0.839196 0.00848078
-29.5753 10.1628 -20.4313 0.558239 -0.829546 0.0149634
-28.5672 10.8577 -20.4729 0.584038 -0.811503 0.0169931
-27.6444 11.5381 -20.4315 0.608642 -0.793255 0.0173859
-26.7925 12.1947 -20.5417 0.61996 -0.784552 0.011293
-25.9474 12.8979 -20.484 0.652681 -0.757334 0.021275
-25.1096 13.6361 -20.4743 0.668916 -0.743136 0.0173
-24.3375 14.3541 -20.5069 0.693737 -0.720013 0.0175779
-23.4652 15.2335 -20.5056 0.725465 -0.687953 0.02051
-22.4502 16.3336 -20.499 0.744704 -0.667378 0.0048084
-21.7395 17.1536 -20.4888 0.772733 -0.634715 0.00451444
-21.0555 18.0301 -20.5041 0.806959 -0.590328 0.00764464
-20.4683 18.8776 -20.519 0.828925 -0.559354 -0.000584858
-20.0179 19.5453 -20.0301 0.832195 -0.554478 -0.00139321
-20.0084 19.5598 -19.0066 0.834501 -0.550966 -0.00413161
-19.6529 20.0621 -18.1069 0.824811 -0.56384 -0.0420814
-19.0615 20.9419 -17.9727 0.833248 -0.549298 -0.0630016
-18.4021 21.9282 -17.9112 0.831363 -0.550051 -0.0788123
-17.8131 22.8187 -18.0492 0.812535 -0.574006 -0.101509
-17.4174 23.4121 -18.814 0.767602 -0.640606 -0.0123836
-17.4196 23.4406 -19.8555 0.784453 -0.61995 -0.0108821
-16.967 24.0181 -20.489 0.77961 -0.625951 -0.0198588
-16.2249 24.9099 -20.4155 0.763228 -0.645285 -0.0330188
-15.4977 25.7526 -20.4889 0.74667 -0.664351 -0.032169
-14.7183 26.5636 -20.4143 0.708108 -0.703516 -0.0604041
-13.8872 27.3351 -20.3641 0.65401 -0.752991 -0.0726392
-12.8516 28.1921 -20.4085 0.614583 -0.786984 -0.0542556
-11.9319 28.8931 -20.4076 0.579404 -0.81326 -0.0538397
-11.0327 29.5379 -20.4954 0.571041 -0.820278 -0.0325043
-10.1012 30.0873 -20.511 0.490324 -0.869221 -0.0635416
-8.82986 30.7709 -20.5096 0.452625 -0.891084 -0.0331603
-8.16213 31.0984 -19.8932 0.458542 -0.88851 -0.0170108
-8.12994 31.1107 -18.8538 0.479754 -0.87734 0.0104785
-7.44937 31.3684 -18.0907 0.353845 -0.920481 -0.165854
-6.4755 31.6576 -18.0668 0.274662 -0.959568 -0.0615668
-5.50187 31.9138 -17.9215 0.249983 -0.966826 -0.0525027
-5.98697 31.7443 -17.3427 0.257299 -0.96377 -0.0703142
-6.87396 31.4116 -16.86 0.328032 -0.938581 -0.107029
-7.7631 30.9817 -16.2801 0.404553 -0.906457 -0.121129
-8.65832 30.505 -15.6907 0.447281 -0.890552 -0.0828049
-9.50812 30.0103 -15.1394 0.466819 -0.879198 -0.0953484
-10.3707 29.4575 -14.663 0.534939 -0.842135 -0.0681881
-11.1448 28.9171 -14.2806 0.565562 -0.819875 -0.089139
-12.0261 28.2337 -13.8293 0.592049 -0.797134 -0.118557
-12.8561 27.4468 -13.1185 0.658934 -0.744655 -0.106276
-13.6607 26.61 -12.4002 0.680732 -0.724347 -0.1091
-14.3267 25.8817 -11.8369 0.697355 -0.706635 -0.119841
-14.7601 25.2939 -10.9596 0.725402 -0.679873 -0.107537
-15.0556 24.8978 -10.4489 0.722221 -0.684842 -0.0960455
9.90711 31.6529 17.9192 -0.40328 -0.914561 0.0257724
10.5795 31.3557 18.5069 -0.458154 -0.887025 0.0275683
11.6214 30.7313 18.5133 -0.527933 -0.848257 0.0370915
12.711 29.9995 18.4969 -0.568421 -0.821367 0.0449966
13.7024 29.1841 18.5109 -0.653091 -0.753477 0.0707348
14.7499 28.2183 18.5341 -0.688489 -0.723098 0.0526455
15.4938 27.4233 18.522 -0.732241 -0.679245 0.0494888
16.3348 26.4485 18.5494 -0.766887 -0.639754 0.0500128
16.9222 25.6897 18.5385 -0.791167 -0.610566 0.0355461
17.4508 24.987 18.2852 -0.798598 -0.600063 0.046486
17.8226 24.3915 17.1108 -0.81301 -0.580708 0.0423441
18.3242 23.6224 16.3457 -0.811728 -0.581375 0.0556794
18.8689 22.8376 16.0926 -0.814147 -0.578189 0.0532068
19.4454 22.0009 15.9678 -0.821913 -0.567523 0.0487014
19.9747 21.231 15.8146 -0.812608 -0.581238 0.0427834
20.5687 20.3928 15.8478 -0.817722 -0.574348 0.038134
21.2201 19.5258 16.1992 -0.805413 -0.592172 0.0253334
21.7791 18.8196 16.8351 -0.790206 -0.61273 0.0109831
22.2084 18.2772 17.7304 -0.789656 -0.613504 0.00754002
22.7746 17.602 18.4013 -0.755696 -0.654794 -0.0129747
23.6932 16.569 18.4728 -0.733058 -0.680015 -0.0143145
24.4855 15.729 18.469 -0.716278 -0.697528 -0.00695076
25.1603 15.032 18.4822 -0.705534 -0.70839 0.00455755
25.9052 14.3439 18.5257 -0.677689 -0.735169 -0.00437563
26.713 13.6158 18.5609 -0.659905 -0.750914 -0.0255601
27.4869 12.9424 18.6202 -0.641496 -0.766698 -0.0236749
28.2399 12.324 18.5866 -0.628837 -0.777155 -0.0216924
29.0322 11.7088 18.6082 -0.605044 -0.795833 -0.0231826
29.8749 11.092 18.5853 -0.581888 -0.812874 -0.0253206
30.9824 10.3252 18.5597 -0.559765 -0.828421 -0.0195623
32.1387 9.56584 18.6695 -0.532712 -0.846216 -0.0116618
33.2167 8.90232 18.6929 -0.511363 -0.859155 -0.0190059
34.0296 8.42477 18.6288 -0.497254 -0.867484 -0.0142127
34.9214 7.9162 18.6271 -0.487837 -0.872799 -0.01224
35.7726 7.45408 18.6791 -0.471195 -0.881863 -0.0171257
36.7193 6.95979 18.678 -0.450474 -0.892557 -0.0169548
37.5796 6.54383 18.5999 -0.429795 -0.902863 -0.0107345
38.4738 6.12681 18.6039 -0.420035 -0.907428 -0.0120184
39.7837 5.53248 18.6623 -0.404559 -0.914511 0.00100387
40.6441 5.15545 18.6688 -0.392613 -0.919698 -0.00282271
41.8917 4.63451 18.5872 -0.372163 -0.92815 -0.00570115
42.7834 4.28949 18.5733 -0.350438 -0.93658 0.00335148
43.8872 3.88625 18.5487 -0.335771 -0.941934 0.00242037
45.0608 3.49056 18.5138 -0.311988 -0.950065 0.0036982
46.0254 3.18468 18.601 -0.301482 -0.953472 -1.88979e-05
47.2801 2.80053 18.6359 -0.285635 -0.958329 -0.000406241
48.3282 2.49484 18.687 -0.263925 -0.96453 0.00229964
49.3194 2.23079 18.6664 -0.245533 -0.969361 0.00648695
50.3839 1.9674 18.6721 -0.234166 -0.972185 0.0030065
51.4678 1.71618 18.7136 -0.220757 -0.975324 0.00307301
52.5984 1.47914 18.7196 -0.195348 -0.98073 0.0029789
53.6322 1.27359 18.6021 -0.193876 -0.98102 0.00328129
54.616 1.09583 18.4828 -0.172282 -0.985048 -0.000339376
55.7846 0.907253 18.3925 -0.155771 -0.987792 -0.00133349
56.9526 0.726345 18.3433 -0.152771 -0.988261 -0.00141139
58.0951 0.568433 18.2602 -0.130203 -0.991475 -0.00120842
59.1229 0.438432 18.0564 -0.124972 -0.99216 -0.000659571
60.2684 0.306879 17.668 -0.109337 -0.993998 0.00316905
60.6317 0.265824 16.9342 -0.108097 -0.994121 0.00530676
60.5832 0.262974 15.9895 -0.10689 -0.994243 0.00709846
60.4826 0.265421 14.6858 -0.108962 -0.994007 0.00880102
60.23 0.28051 13.3543 -0.110459 -0.993819 0.0110285
60.0364 0.290933 12.2791 -0.11468 -0.993322 0.012629
59.7403 0.313847 11.2442 -0.113569 -0.99349 0.00887928
59.2611 0.355602 10.1343 -0.118503 -0.992871 0.0116869
58.7345 0.405225 9.08574 -0.121833 -0.992343 0.0202813
58.3169 0.440996 8.21728 -0.127471 -0.991667 0.0183256
57.9103 0.478429 7.29832 -0.124189 -0.992172 0.0131189
57.6166 0.500264 6.32846 -0.125809 -0.9919 0.0174956
57.37 0.515908 5.30321 -0.132652 -0.991088 0.0121501
57.132 0.534211 4.28305 -0.13293 -0.991023 0.0142126
56.9292 0.54493 3.21099 -0.133127 -0.990967 0.0161792
56.8512 0.538896 2.18198 -0.141493 -0.989708 0.0214158
56.9398 0.503533 1.12047 -0.136144 -0.99038 0.0247594
57.0755 0.464905 0.170405 -0.14557 -0.989144 0.0201064
57.1229 0.434985 -0.850247 -0.134589 -0.990598 0.0245385
57.1819 0.402305 -1.86911 -0.129985 -0.991219 0.0242813
57.3342 0.351197 -3.12498 -0.134475 -0.990656 0.022726
57.2966 0.334876 -4.12809 -0.131469 -0.991067 0.0223347
57.0733 0.340122 -5.25581 -0.138481 -0.990069 0.0239915
56.8532 0.342484 -6.28937 -0.140706 -0.989713 0.0257554
56.5569 0.357091 -7.53253 -0.143986 -0.989326 0.0224156
56.2875 0.370672 -8.47304 -0.142771 -0.989344 0.0284734
55.9171 0.3916 -9.77031 -0.146006 -0.988976 0.0246806
55.6929 0.396135 -10.8764 -0.149199 -0.988503 0.0242839
55.4323 0.410109 -12.0726 -0.155821 -0.987534 0.0216445
55.263 0.414884 -13.2534 -0.156992 -0.987358 0.021635
55.217 0.40184 -14.2252 -0.164594 -0.986188 0.0184877
55.1427 0.397102 -15.1789 -0.164823 -0.986197 0.0156562
54.9973 0.405955 -16.3017 -0.164672 -0.986262 0.013051
54.9121 0.401969 -17.2901 -0.167372 -0.985643 0.0222245
54.2277 0.509251 -17.959 -0.173618 -0.984618 0.0196238
53.1393 0.704503 -18.2101 -0.190429 -0.98154 0.0175654
51.8635 0.956797 -18.384 -0.205383 -0.978632 0.00988773
50.8147 1.18299 -18.4891 -0.218835 -0.975665 0.0137573
49.6959 1.43466 -18.63 -0.230124 -0.973082 0.00850629
48.74 1.68096 -18.5992 -0.26265 -0.964807 0.0127605
47.7512 1.9565 -18.5276 -0.278317 -0.96031 0.0177799
46.764 2.24733 -18.5021 -0.288683 -0.957327 0.0100578
45.4517 2.66361 -18.5511 -0.311851 -0.950085 0.00930287
44.425 3.00549 -18.6276 -0.323046 -0.946212 0.0179897
43.1674 3.44224 -18.7111 -0.332381 -0.943045 0.0137586
42.2056 3.80148 -18.7194 -0.355173 -0.934735 0.0107354
40.9396 4.29644 -18.6474 -0.374536 -0.927054 0.0171332
39.9077 4.72412 -18.5861 -0.390502 -0.920361 0.0210511
38.8507 5.19242 -18.5709 -0.420682 -0.907071 0.0157564
37.7966 5.68807 -18.5868 -0.432482 -0.901412 0.0204059
36.6638 6.24544 -18.5601 -0.452335 -0.891462 0.0262428
35.6683 6.75685 -18.5322 -0.462128 -0.886505 0.0216517
34.4656 7.40028 -18.5494 -0.485002 -0.874299 0.0174204
33.3381 8.03386 -18.5893 -0.496592 -0.86785 0.015241
32.4343 8.56006 -18.6014 -0.510954 -0.859412 0.0183357
31.4671 9.15033 -18.5877 -0.525006 -0.851013 0.0120578
30.4215 9.8147 -18.5423 -0.543631 -0.839005 0.023151
29.35 10.5327 -18.523 -0.568606 -0.822256 0.024136
28.3121 11.2559 -18.5214 -0.573891 -0.81813 0.0362348
27.3621 11.9446 -18.4891 -0.598761 -0.800199 0.034154
26.4771 12.6237 -18.3966 -0.615211 -0.787798 0.0296069
25.6792 13.2494 -18.4011 -0.626365 -0.778448 0.039821
24.6087 14.1348 -18.4654 -0.647561 -0.760733 0.044161
23.7108 14.9159 -18.5107 -0.666136 -0.744594 0.0429304
22.826 15.7133 -18.5362 -0.673556 -0.738354 0.0340063
21.9272 16.5671 -18.4946 -0.698957 -0.713809 0.0440021
21.0054 17.4883 -18.4973 -0.719318 -0.692725 0.0520912
20.3673 18.1605 -18.3853 -0.720876 -0.69111 0.0520099
20.058 18.6 -17.4909 -0.732311 -0.672817 0.104879
19.7563 19.0707 -16.6809 -0.765191 -0.633266 0.11597
19.1463 19.8754 -16.218 -0.764471 -0.637766 0.0940181
18.3472 20.9125 -15.9233 -0.778983 -0.621494 0.0828612
17.6438 21.7792 -15.931 -0.782242 -0.618568 0.0724599
16.8438 22.7462 -16.0401 -0.774587 -0.63058 0.0478703
16.0886 23.5952 -16.3583 -0.750223 -0.660523 0.0293824
15.4879 24.2124 -17.0067 -0.716153 -0.697711 0.0180038
15.1014 24.5817 -17.831 -0.70786 -0.706195 -0.0149236
14.5511 25.0923 -18.3857 -0.648658 -0.761079 0.00146637
13.806 25.7221 -18.4379 -0.617279 -0.786711 -0.00717117
12.9787 26.3511 -18.5121 -0.560025 -0.827216 0.0456386
11.871 27.075 -18.4257 -0.521234 -0.852238 0.0447687
10.8168 27.6907 -18.426 -0.488453 -0.869134 0.077587
9.69034 28.2961 -18.505 -0.463138 -0.883373 0.0718032
8.78742 28.7575 -18.4044 -0.437632 -0.895121 0.0850652
8.20489 29.1363 -17.6874 -0.459533 -0.878355 0.131609
7.59711 29.653 -16.7196 -0.497354 -0.85042 0.171535
6.73749 30.2606 -16.1349 -0.515841 -0.844545 0.139192
5.63823 30.9724 -15.9614 -0.494767 -0.863592 0.0970282
4.74146 31.5216 -15.7851 -0.4643 -0.885676 0.0018814
4.87514 31.4618 -14.8326 -0.443203 -0.895193 0.0332827
5.29319 31.3555 -13.5515 -0.423297 -0.903299 0.0697876
5.67252 31.3365 -12.2475 -0.388519 -0.915496 0.104498
5.87507 31.3777 -11.0875 -0.373347 -0.923662 0.0863721
5.97749 31.4472 -10.0503 -0.333027 -0.937787 0.0982218
6.00322 31.5485 -9.03922 -0.341186 -0.934467 0.101362
5.91451 31.6911 -8.07865 -0.314585 -0.943226 0.0970332
6.24345 31.6614 -7.30851 -0.309725 -0.944774 0.100164
7.17588 31.2899 -7.49152 -0.372916 -0.918874 0.126655
8.1229 30.8792 -7.50422 -0.407703 -0.90242 0.138329
9.02387 30.4336 -7.55315 -0.477159 -0.866581 0.141813
10.1623 29.7868 -7.355 -0.519027 -0.842015 0.146974
11.2371 29.1387 -7.03006 -0.569551 -0.81264 0.122816
12.058 28.6016 -6.68204 -0.580422 -0.802123 0.140388
12.8823 28.0584 -6.18819 -0.628732 -0.765955 0.134196
13.5508 27.5866 -5.68342 -0.647292 -0.752674 0.120394
14.2342 27.0889 -4.89217 -0.687408 -0.716972 0.115849
14.9941 26.4926 -3.66652 -0.731482 -0.677365 0.0781727
15.3696 26.1698 -2.85863 -0.752488 -0.654993 0.0677662
15.7671 25.8579 -1.66183 -0.765787 -0.63913 0.0676704
16.0581 25.5846 -0.557324 -0.770034 -0.636557 0.0429349
16.1977 25.4987 0.341474 -0.77545 -0.628806 0.0572762
16.1685 25.5895 1.35014 -0.794737 -0.606692 0.0155247
16.1275 25.6424 2.27655 -0.773436 -0.633791 0.00428321
16.0974 25.6749 3.46524 -0.787695 -0.615499 0.0142897
16.0739 25.7542 4.48621 -0.798131 -0.602217 0.0171248
16.0065 25.878 5.7616 -0.792173 -0.609672 0.0275618
15.8637 26.1124 7.05236 -0.783229 -0.620379 0.0376637
15.7342 26.3876 8.33384 -0.772321 -0.633494 0.0416962
15.4851 26.7699 9.25976 -0.780866 -0.623441 0.0364464
15.1952 27.1807 10.3247 -0.761491 -0.647265 0.0343335
14.8574 27.6388 11.3782 -0.748555 -0.662071 0.0364125
14.3652 28.2075 12.3741 -0.714976 -0.698213 0.0308378
13.7503 28.8801 13.226 -0.678669 -0.733616 0.033106
13.0187 29.5385 13.9817 -0.617246 -0.786433 0.0221103
12.3878 30.0505 14.4899 -0.604567 -0.796245 0.0221913
11.5114 30.6962 15.1398 -0.551669 -0.834047 0.00525426
10.6233 31.2418 15.6982 -0.46761 -0.883673 0.0215047
9.80051 31.6442 16.2572 -0.408463 -0.912714 -0.0105077
9.49252 31.7963 17.1037 -0.37593 -0.925841 0.0348256
9.78208 31.6965 17.6785 -0.39145 -0.919475 0.0365124
9.063 32.0023 18.1998 -0.362588 -0.931127 0.0391469
8.4112 32.1848 17.2753 -0.326252 -0.944302 0.0415832
7.54997 32.4067 16.7174 -0.253117 -0.966473 0.0414409
8.02159 32.2593 16.0484 -0.283123 -0.95903 -0.0100961
8.86654 31.9842 15.5616 -0.325014 -0.945674 0.00818141
9.75572 31.6357 15.1643 -0.403905 -0.912842 0.059834
10.6245 31.1842 14.5627 -0.465391 -0.883659 0.0505729
11.5218 30.6171 13.9405 -0.53667 -0.841255 0.0653776
12.3 30.0899 13.3976 -0.602199 -0.797972 0.00991242
13.0397 29.4989 12.7104 -0.622489 -0.78251 0.0123082
13.6684 28.8944 11.9716 -0.693157 -0.720615 0.0146552
14.1467 28.4059 11.2037 -0.710291 -0.703673 0.0178579
14.4603 28.0229 10.3256 -0.744777 -0.665974 0.0422634
14.7653 27.6445 9.34898 -0.765915 -0.640813 0.0483778
15.0379 27.2019 8.24134 -0.762799 -0.644572 0.0480731
15.1777 26.9871 7.13293 -0.772319 -0.633496 0.0416973
15.3104 26.7599 6.07035 -0.76389 -0.643864 0.0437128
15.3791 26.6545 5.07424 -0.767055 -0.641576 -0.00263222
15.426 26.5535 3.82192 -0.780793 -0.624166 0.0279034
15.4758 26.4465 2.58692 -0.764793 -0.644092 0.0154305
15.5092 26.3834 1.59648 -0.752811 -0.657896 0.00641334
15.4627 26.3733 0.318516 -0.7532 -0.656242 0.0451231
15.3223 26.4603 -0.638632 -0.762456 -0.645583 0.04339
15.0717 26.651 -1.55353 -0.742954 -0.663752 0.0863272
14.648 26.9747 -2.67961 -0.725478 -0.682187 0.0911218
14.2021 27.3098 -3.53508 -0.679066 -0.727303 0.0994961
13.6878 27.6845 -4.30747 -0.663241 -0.740282 0.107715
13.1053 28.0895 -4.92746 -0.645904 -0.754685 0.115124
12.414 28.5508 -5.40026 -0.598916 -0.792483 0.115201
11.5659 29.0883 -5.88761 -0.57344 -0.808653 0.131324
10.7918 29.5765 -6.18577 -0.561038 -0.815568 0.141724
9.99007 30.0528 -6.42529 -0.515486 -0.84414 0.147316
8.96373 30.6127 -6.58756 -0.450169 -0.878594 0.15944
8.10742 31.0349 -6.54347 -0.396836 -0.905143 0.152437
7.21613 31.4076 -6.47667 -0.338841 -0.932268 0.126265
6.20798 31.7771 -6.25859 -0.266157 -0.960947 0.0726481
5.20745 32.063 -5.83878 -0.25003 -0.96472 0.0818678
4.28343 32.2776 -5.33664 -0.180839 -0.980954 0.0708913
4.13875 32.3013 -5.37756 -0.158922 -0.985436 0.053413
4.57244 32.1672 -6.29618 -0.184979 -0.981704 0.0451561
4.82305 32.0564 -7.09377 -0.222113 -0.972089 0.0755585
4.95834 31.9779 -8.04646 -0.28249 -0.957196 0.0628944
5.07329 31.856 -9.12837 -0.297391 -0.950362 0.0914949
5.02651 31.7546 -10.2273 -0.314569 -0.942587 0.112145
4.90937 31.6906 -11.3594 -0.318793 -0.946428 0.0514337
4.67435 31.6962 -12.4457 -0.319417 -0.94372 0.0854273
4.26983 31.747 -13.765 -0.307218 -0.951179 0.029578
3.96769 31.8718 -14.6982 -0.363627 -0.931324 -0.0202448
3.73168 32.0247 -15.9972 -0.403201 -0.912377 -0.0706902
3.67246 32.1722 -17.2693 -0.36655 -0.920792 -0.127017
4.61783 31.6314 -17.0273 -0.523487 -0.848357 -0.0538732
5.4811 31.0033 -16.953 -0.567799 -0.820797 0.0624248
6.4455 30.3018 -17.0146 -0.539394 -0.826414 0.161537
7.15685 29.7047 -17.6001 -0.492182 -0.848022 0.196379
7.59628 29.3185 -18.4728 -0.420489 -0.898791 0.115782
8.0394 29.0343 -19.416 -0.43733 -0.897819 0.0516122
9.13951 28.4926 -19.5029 -0.446272 -0.894064 0.0386204
10.1475 27.9884 -19.4883 -0.466575 -0.88344 0.0384431
11.4172 27.2983 -19.4103 -0.498446 -0.865196 0.0484902
12.2903 26.7671 -19.4873 -0.513118 -0.857499 0.0374912
13.0832 26.2334 -19.5106 -0.57187 -0.82008 0.0142325
13.9466 25.6091 -19.4116 -0.638324 -0.769094 0.0164105
14.7382 24.9337 -19.4661 -0.668137 -0.74343 -0.000488913
15.4084 24.2861 -19.4608 -0.711513 -0.702471 -0.00452314
15.6741 24.0214 -18.4478 -0.725936 -0.687535 0.0176789
16.07 23.5723 -17.4364 -0.748679 -0.662637 0.0146093
16.8859 22.6277 -17.0147 -0.779723 -0.624695 0.0422906
17.6198 21.7063 -16.923 -0.790255 -0.609439 0.0638793
18.4897 20.5829 -16.9996 -0.784169 -0.612603 0.0980328
19.0316 19.8469 -17.2358 -0.774044 -0.622837 0.112784
19.4767 19.2105 -17.8595 -0.768888 -0.634226 0.0810532
19.6638 18.8941 -19.0156 -0.754233 -0.655638 0.0356535
20.2583 18.1885 -19.5234 -0.754442 -0.655359 0.0359024
20.9109 17.5119 -19.488 -0.718583 -0.693444 0.0526515
21.959 16.4717 -19.5388 -0.699405 -0.713396 0.0435773
22.6598 15.8077 -19.5386 -0.686486 -0.726223 0.036544
23.5791 14.9665 -19.5503 -0.66136 -0.749319 0.0311637
24.647 14.0521 -19.4984 -0.649022 -0.760161 0.030045
25.5744 13.2887 -19.4944 -0.623099 -0.781659 0.0274932
26.4816 12.5765 -19.462 -0.61282 -0.789601 0.0313334
27.384 11.8859 -19.5135 -0.59965 -0.799626 0.0319027
28.2055 11.2874 -19.5564 -0.574661 -0.8179 0.0277998
29.1631 10.6244 -19.5571 -0.564252 -0.824971 0.0322748
30.1213 9.98383 -19.5767 -0.540609 -0.841108 0.0167151
31.0032 9.41615 -19.6005 -0.531439 -0.84685 0.0171338
32.0468 8.77838 -19.5916 -0.519663 -0.854196 0.017225
33.0915 8.15673 -19.5799 -0.499518 -0.866184 0.0143852
33.9242 7.6784 -19.5841 -0.496866 -0.867654 0.0173399
34.9118 7.12884 -19.5346 -0.477273 -0.87851 0.0207553
36.0196 6.54463 -19.5485 -0.454208 -0.890544 0.0250386
37.1118 5.99862 -19.5738 -0.438345 -0.898405 0.0268772
38.1964 5.47965 -19.5936 -0.422911 -0.905668 0.030208
39.2756 4.98445 -19.5577 -0.411478 -0.911366 0.00993348
40.34 4.52489 -19.5886 -0.380008 -0.924871 0.0143966
41.3656 4.11373 -19.6677 -0.361391 -0.932274 0.0161847
42.4592 3.69483 -19.6906 -0.353312 -0.935401 0.0140023
43.6836 3.24646 -19.6651 -0.332496 -0.943012 0.0132106
44.846 2.84633 -19.5997 -0.317469 -0.948151 0.0149484
45.8283 2.525 -19.5495 -0.302922 -0.952913 0.0139566
46.7693 2.23195 -19.5132 -0.289212 -0.957154 0.0146007
47.7411 1.9442 -19.5455 -0.265642 -0.96404 0.0078948
48.6761 1.68703 -19.6176 -0.260741 -0.965377 0.00703538
49.756 1.41353 -19.6425 -0.234727 -0.971972 0.0132017
50.7284 1.18925 -19.5501 -0.214465 -0.976584 0.0159536
51.6755 0.981649 -19.4333 -0.209762 -0.977658 0.0122111
52.6162 0.789082 -19.303 -0.200826 -0.979562 0.011294
53.5704 0.602901 -19.1461 -0.180513 -0.983461 0.0128647
54.4898 0.444029 -18.9355 -0.168464 -0.985582 0.0156459
55.433 0.289238 -18.6338 -0.164415 -0.98625 0.0164629
55.881 0.233938 -17.6132 -0.161908 -0.986637 0.0182452
55.8776 0.257062 -16.4458 -0.166022 -0.985953 0.0176377
56.0338 0.249139 -15.4112 -0.158249 -0.987234 0.018051
56.1809 0.243283 -14.3876 -0.153568 -0.987979 0.0177379
56.258 0.256341 -13.2746 -0.153636 -0.98785 0.0234124
56.4158 0.254916 -12.2412 -0.152091 -0.988114 0.0223229
56.6658 0.243163 -11.1766 -0.142875 -0.989367 0.0272121
56.8325 0.247908 -10.1291 -0.142342 -0.989422 0.0279785
57.174 0.227028 -8.99114 -0.137568 -0.990186 0.0244084
57.4949 0.220532 -7.73613 -0.135481 -0.990423 0.0263117
57.8442 0.202098 -6.5855 -0.130913 -0.991043 0.0263876
58.0691 0.203224 -5.36079 -0.12972 -0.991242 0.0247353
58.3187 0.199185 -4.20782 -0.121354 -0.992316 0.0240439
58.3086 0.223643 -3.17614 -0.124729 -0.991926 0.0227693
58.1649 0.268388 -2.11696 -0.124237 -0.991978 0.0232004
58.0889 0.304605 -0.845934 -0.124029 -0.992014 0.0228205
58.0635 0.334629 0.331152 -0.121976 -0.992302 0.0213622
57.8868 0.381796 1.45838 -0.133989 -0.990716 0.0228015
57.8782 0.414854 2.75435 -0.127135 -0.991561 0.0253519
58.027 0.412473 3.89976 -0.121057 -0.992558 0.0127781
58.2472 0.394647 4.81842 -0.117999 -0.992936 0.0119611
58.5092 0.38254 5.99403 -0.115212 -0.993203 0.0165463
58.7661 0.369392 6.94869 -0.11551 -0.993217 0.0123795
59.2155 0.326273 7.88895 -0.112542 -0.993585 0.0110578
59.6708 0.288311 8.77297 -0.107367 -0.994081 0.0166009
60.1851 0.246836 9.71816 -0.109207 -0.99392 0.0139958
60.6563 0.210036 10.8951 -0.107024 -0.994176 0.0126723
60.9717 0.187165 11.9169 -0.104201 -0.994498 0.0107764
61.1574 0.17886 13.0187 -0.103245 -0.994606 0.00999462
61.4216 0.161879 14.2461 -0.10262 -0.99469 0.00777132
61.5149 0.159288 15.3529 -0.101252 -0.99484 0.00644889
61.5726 0.162602 16.5704 -0.104078 -0.994542 0.00729311
61.8443 0.140313 17.5018 -0.101447 -0.994811 0.00718553
61.4996 0.18074 18.3502 -0.100686 -0.994903 0.00559916
60.3581 0.301561 18.7178 -0.104953 -0.994462 0.00543254
59.3015 0.422163 19.0627 -0.115226 -0.993319 0.00634366
58.3854 0.533606 19.2474 -0.122326 -0.992489 0.00107303
57.3612 0.668235 19.3393 -0.138314 -0.990386 -0.00225152
56.3856 0.812673 19.371 -0.152861 -0.988247 -0.00113208
55.4023 0.966898 19.4183 -0.158042 -0.987429 0.00251752
54.4624 1.12423 19.5061 -0.171664 -0.98515 0.00335426
53.2746 1.34499 19.6246 -0.190065 -0.981765 -0.00351655
52.2832 1.54643 19.7302 -0.201017 -0.979563 0.00465205
51.2763 1.76633 19.6947 -0.218404 -0.975792 0.0104396
49.9451 2.08012 19.6635 -0.233273 -0.972366 0.0087536
48.657 2.40735 19.6266 -0.257774 -0.966134 0.00320126
47.5879 2.71024 19.6526 -0.283676 -0.95892 0.000960646
46.3433 3.08608 19.598 -0.296072 -0.95515 -0.00538967
45.3447 3.40406 19.5341 -0.307325 -0.951592 0.00482636
44.3475 3.7326 19.494 -0.321196 -0.946994 0.00601558
43.1761 4.14241 19.5715 -0.336781 -0.941574 -0.00416954
42.1605 4.53135 19.5809 -0.362786 -0.93186 0.000595346
41.254 4.8874 19.6301 -0.381358 -0.924422 -0.00321895
40.3747 5.25969 19.682 -0.399396 -0.916699 -0.0120831
39.3861 5.69455 19.66 -0.406171 -0.913712 -0.0124872
38.3949 6.14736 19.6158 -0.422672 -0.906121 -0.0171203
37.3553 6.64226 19.6153 -0.433077 -0.901354 -0.00254726
36.3013 7.16651 19.6826 -0.458072 -0.888894 -0.00613978
35.4521 7.61581 19.6607 -0.480244 -0.8771 -0.00784214
34.5537 8.10861 19.5915 -0.490515 -0.871299 -0.0106235
33.4278 8.75637 19.6642 -0.50197 -0.86478 -0.0129782
32.3639 9.41165 19.6687 -0.52544 -0.850626 -0.016232
31.1396 10.1945 19.5948 -0.549763 -0.835109 -0.0127599
30.3582 10.7372 19.55 -0.572665 -0.819737 -0.00925668
29.4059 11.4181 19.6097 -0.592654 -0.805456 -0.00137563
28.4673 12.1244 19.6145 -0.62469 -0.780802 -0.00817528
27.5593 12.8621 19.6399 -0.645128 -0.764056 -0.00527679
26.8393 13.4709 19.5575 -0.653877 -0.756233 -0.0218971
25.8781 14.3425 19.4985 -0.675196 -0.737411 -0.0173733
25.1155 15.0535 19.4554 -0.697097 -0.716402 -0.0194889
24.4541 15.7249 19.4633 -0.724101 -0.689217 -0.0206107
23.6187 16.6283 19.4798 -0.743606 -0.668408 -0.00896161
22.7538 17.6082 19.3862 -0.752709 -0.658322 0.00274216
22.1325 18.3724 19.4189 -0.784029 -0.62055 -0.0146676
21.7951 18.8111 18.6588 -0.799893 -0.600138 0.00230976
21.5691 19.1058 17.7995 -0.796799 -0.604136 0.0113615
21.1137 19.7022 17.1749 -0.804002 -0.59448 0.0131971
20.5048 20.544 16.8549 -0.818264 -0.574291 0.0251861
19.9068 21.4045 16.8208 -0.826746 -0.561026 0.0413634
19.3474 22.2297 16.9401 -0.825837 -0.562031 0.0458117
18.6683 23.2138 17.1426 -0.813969 -0.578301 0.0548903
18.1766 23.9747 18.057 -0.810961 -0.583036 0.0490829
18.0162 24.2672 19.1569 -0.814882 -0.579193 0.0224162
17.5092 24.9761 19.4452 -0.805184 -0.59273 0.0186928
16.8402 25.8466 19.5044 -0.786414 -0.616997 0.0292958
16.0158 26.8755 19.5779 -0.767804 -0.640121 0.0268639
15.3502 27.6514 19.5299 -0.74061 -0.670899 0.0373059
14.6729 28.3531 19.5531 -0.699561 -0.713364 0.041544
13.8273 29.1555 19.5669 -0.670487 -0.737812 0.077978
12.8729 29.9337 19.5261 -0.589866 -0.80649 0.0403861
12.0894 30.4871 19.482 -0.533152 -0.844215 0.0451442
11.0504 31.1056 19.5473 -0.51196 -0.858539 0.0282452
9.72497 31.7818 19.4246 -0.433809 -0.900562 0.01406
9.17686 31.9731 18.5609 -0.363657 -0.930787 0.0371992
9.15746 31.9774 18.4819 -0.362587 -0.931127 0.0391468
16.5205 25.1354 2.15094 -0.800933 -0.598743 -0.00345248
16.5134 25.1317 3.16794 -0.807224 -0.590235 -0.00344557
16.7907 24.7761 4.2409 -0.811318 -0.584094 0.0239035
17.2325 24.1767 5.07367 -0.827784 -0.560517 0.0238195
17.7905 23.3806 5.56009 -0.827617 -0.560053 0.0372207
18.3999 22.4858 5.63805 -0.82814 -0.558662 0.0456092
18.9731 21.6219 5.34356 -0.816658 -0.57361 0.0627894
19.5002 20.849 4.81855 -0.797331 -0.601911 0.0440952
20.0828 20.0736 4.33835 -0.775862 -0.628732 0.0522955
20.6656 19.3223 3.80052 -0.757179 -0.65177 0.0428854
21.1585 18.7145 3.06064 -0.742456 -0.668483 0.042902
21.435 18.3406 2.14949 -0.749196 -0.661028 0.0417623
21.5846 18.1053 1.04332 -0.742768 -0.66846 0.0381612
21.6181 18.0319 -0.212853 -0.747262 -0.664458 0.00976304
21.5939 18.0021 -1.32734 -0.733934 -0.678796 0.020264
21.5679 17.9961 -2.46458 -0.75113 -0.659534 0.0168509
21.4025 18.1875 -3.48009 -0.776486 -0.629905 -0.00645893
20.9984 18.7162 -4.42736 -0.792727 -0.609524 -0.00798273
20.4432 19.4475 -5.01078 -0.802067 -0.597226 0.00126481
19.8575 20.2347 -5.23501 -0.798287 -0.602181 0.0107401
19.1518 21.2105 -4.83311 -0.811411 -0.583425 0.0322507
18.5118 22.1278 -4.42396 -0.800464 -0.598096 0.03917
17.9961 22.8625 -3.88872 -0.792735 -0.6079 0.0450463
17.4744 23.584 -3.36071 -0.794042 -0.605858 0.0493278
16.9479 24.3248 -2.58914 -0.789947 -0.61098 0.0513392
16.4995 24.9578 -1.52991 -0.77844 -0.625256 0.0555488
16.5236 25.0123 -0.581909 -0.788275 -0.613217 0.0477771
16.5489 25.0564 0.521674 -0.808985 -0.586642 0.0363115
16.5449 25.1011 1.53355 -0.794738 -0.606691 0.015522
16.5504 25.0966 1.95107 -0.800934 -0.598743 -0.00345428
17.1039 24.319 1.98383 -0.8284 -0.560128 -0.0030531
