1.48663 3.99348 -4.11104 -0.0130752 -0.999894 -0.00148901
2.2724 3.98249 -3.63202 -0.0130752 -0.999894 -0.00148901
3.38578 3.8873 -4.09506 -0.117537 -0.992944 -0.0157419
4.62188 3.69888 -4.3148 -0.152278 -0.988336 0.0016077
5.89851 3.42463 -4.31507 -0.243921 -0.96973 0.0112635
6.9401 3.13244 -4.16736 -0.293559 -0.955886 -0.0102401
8.20021 2.73253 -3.88983 -0.328107 -0.944571 0.0114632
9.25573 2.37014 -3.43487 -0.332739 -0.942827 0.0190057
10.3358 1.94976 -2.87528 -0.388184 -0.921473 0.0141787
11.6981 1.34901 -2.25752 -0.415062 -0.909495 0.0230082
11.6684 1.35094 -2.82808 -0.423062 -0.90578 0.0194632
11.2573 1.51459 -4.0396 -0.409846 -0.911984 0.01759
10.9366 1.64559 -5.22839 -0.410754 -0.911587 0.0170596
10.6364 1.75257 -6.42535 -0.412103 -0.910697 0.0276452
10.3193 1.85767 -7.53371 -0.396046 -0.918017 0.0192807
9.98201 1.97012 -8.64359 -0.38282 -0.922968 0.0383873
9.78197 2.01948 -9.69265 -0.383686 -0.923173 0.0215317
9.84158 1.96302 -11.0086 -0.389058 -0.920728 0.0296744
9.9661 1.8737 -12.1104 -0.39837 -0.916976 0.0193281
10.1351 1.76998 -13.2328 -0.409983 -0.911701 0.0267449
10.3895 1.62512 -14.2961 -0.40898 -0.912189 0.0254253
10.7165 1.44622 -15.3806 -0.418016 -0.908182 0.021644
11.0788 1.25657 -16.4214 -0.426744 -0.90412 0.0213731
10.6518 1.43387 -17.3727 -0.418033 -0.908224 0.0194058
9.76431 1.82912 -17.7548 -0.410689 -0.911332 0.0284213
8.49129 2.34356 -18.0369 -0.368422 -0.929472 0.0185076
7.35326 2.77371 -18.0389 -0.336267 -0.941721 0.00929757
6.11438 3.1708 -18.1164 -0.28688 -0.9579 0.0113305
4.93783 3.4986 -18.1917 -0.248457 -0.968609 0.00809598
3.88936 3.75683 -18.2957 -0.204708 -0.9786 -0.00205981
2.56698 3.99486 -18.2966 -0.13127 -0.991007 -0.0155157
1.45671 4.12101 -18.2721 -0.0749764 -0.99627 -0.0125556
0.263729 4.14298 -18.321 -0.00728066 -0.999884 -0.0118492
-0.92408 4.1052 -18.3229 0.0532067 -0.998225 -0.0235211
-1.98828 3.98851 -18.3176 0.133247 -0.991049 -0.00820538
-3.18181 3.78161 -18.2436 0.21735 -0.975873 0.00070059
-4.28581 3.508 -18.1515 0.242851 -0.970062 0.00149642
-5.51942 3.13868 -18.0281 0.306357 -0.951774 -0.0164701
-6.70362 2.73627 -17.8887 0.349096 -0.93668 -0.00558396
-7.71749 2.32125 -17.6927 0.381722 -0.924098 -0.0182004
-8.7672 1.87036 -17.1683 0.406257 -0.913563 -0.0161686
-9.63807 1.45231 -16.1729 0.418371 -0.908 -0.0216808
-9.98795 1.26427 -15.143 0.424396 -0.90524 -0.0206986
-9.97465 1.23479 -13.7185 0.418199 -0.907896 -0.0288489
-9.34734 1.50393 -13.1507 0.410283 -0.91127 -0.034662
-8.371 1.92627 -13.1406 0.392319 -0.919221 -0.0333692
-7.02874 2.45865 -13.1348 0.350445 -0.936076 -0.0308091
-5.78021 2.90262 -12.9971 0.326164 -0.944476 -0.0397769
-4.45404 3.29339 -12.5943 0.269513 -0.962646 -0.0259966
-3.45214 3.55149 -12.2349 0.230112 -0.972118 -0.042736
-2.49927 3.73408 -11.7491 0.176758 -0.982641 -0.0563366
-1.52311 3.8842 -11.1951 0.162026 -0.985936 -0.0362199
-0.729704 3.95511 -10.4928 0.0864321 -0.99598 -0.0229856
0.00891218 3.98622 -9.53238 0.0752423 -0.996376 -0.0387578
0.582069 3.98274 -8.56378 0.0681127 -0.996877 -0.0396757
0.935244 3.99939 -7.44254 0.0420129 -0.999116 -0.00149905
1.24441 4.0118 -6.34274 0.0268893 -0.999512 0.0148808
1.4036 3.99454 -5.1951 0.00570267 -0.999978 0.0033403
1.43981 3.99691 -4.54965 -0.00207764 -0.999953 -0.0017135
0.406847 3.93278 -4.70207 0.0778681 -0.996923 -0.00394175
0.226802 3.96917 -6.05426 0.129863 -0.990738 -0.00117016
-0.1115 3.91666 -7.20225 0.0969724 -0.99527 -0.00588921
-0.536077 3.89657 -8.25673 0.0672518 -0.997123 -0.0349575
-1.2822 3.85693 -9.45493 0.119151 -0.992167 -0.037515
-2.16576 3.7464 -10.319 0.162027 -0.985936 -0.0362202
-3.21097 3.55013 -10.919 0.232269 -0.971605 -0.0427697
-4.47147 3.25632 -11.451 0.255816 -0.965789 -0.0385615
-5.48338 2.95634 -11.8093 0.316257 -0.947685 -0.0432986
-6.53174 2.60925 -12.0498 0.321119 -0.946358 -0.0359141
-7.55035 2.23108 -12.054 0.362886 -0.931382 -0.0290032
-8.64913 1.77042 -12.1172 0.392318 -0.919221 -0.0333692
-9.85128 1.23269 -12.0214 0.415345 -0.909148 -0.0306175
-10.939 0.738393 -12.3617 0.429472 -0.902595 -0.0296039
-10.933 0.774349 -13.5066 0.435044 -0.90003 -0.026034
-10.9749 0.788525 -14.8617 0.434259 -0.900536 -0.0213251
-10.8603 0.872833 -15.996 0.435324 -0.899897 -0.0260223
-10.3564 1.13684 -17.0223 0.426157 -0.904449 -0.0190167
-9.73107 1.44596 -17.8395 0.417688 -0.908414 -0.0179298
-8.73737 1.9071 -18.456 0.392879 -0.919015 -0.0325142
-7.56546 2.4079 -18.8754 0.376996 -0.926074 -0.0147144
-6.48861 2.81424 -19.0302 0.332062 -0.943202 -0.00987943
-5.47842 3.1672 -19.1726 0.274065 -0.961603 -0.0144215
-4.4502 3.46195 -19.2857 0.283742 -0.95836 -0.0275592
-3.10038 3.8021 -19.3257 0.241258 -0.969265 -0.0475911
-1.86165 4.02365 -19.386 0.134814 -0.990119 -0.0385977
-0.632519 4.13295 -19.4354 0.0551339 -0.998476 -0.00260955
0.514833 4.15357 -19.3782 0.00618973 -0.999896 0.000334212
1.85358 4.10557 -19.4165 -0.0749764 -0.99627 -0.0125557
3.09132 3.92026 -19.4667 -0.182846 -0.982507 0.00893219
4.22643 3.66813 -19.362 -0.232585 -0.972429 0.0110061
5.33105 3.38196 -19.3054 -0.273435 -0.961791 -0.0138491
6.50938 3.04167 -19.1656 -0.310243 -0.950331 -0.00288579
7.51303 2.7002 -19.1871 -0.319765 -0.94745 0.00941452
8.59226 2.29038 -19.2048 -0.378844 -0.925361 0.00702359
9.59396 1.87522 -18.8819 -0.395482 -0.917934 0.0258037
10.5525 1.44903 -18.6668 -0.414013 -0.910069 0.0182205
11.4658 1.02914 -18.3069 -0.432005 -0.901695 0.0178251
12.0897 0.752285 -17.2725 -0.437602 -0.89888 0.0227859
12.0725 0.792157 -16.1233 -0.435156 -0.900028 0.0242498
11.6739 1.00795 -15.0637 -0.425971 -0.904467 0.0220866
11.3401 1.19873 -14.019 -0.416562 -0.908749 0.0255107
11.0281 1.37876 -12.7395 -0.419424 -0.907346 0.0284035
10.8754 1.4811 -11.6907 -0.417049 -0.908498 0.0264951
10.7733 1.56355 -10.5596 -0.414239 -0.90963 0.0312876
10.7855 1.59528 -9.43466 -0.410553 -0.911234 0.0327275
11.067 1.50108 -8.39596 -0.405168 -0.913937 0.0236202
11.3789 1.38769 -7.3442 -0.421755 -0.906403 0.0228277
11.7012 1.27231 -6.22067 -0.419086 -0.90752 0.0272155
11.9558 1.17867 -5.14399 -0.44109 -0.89733 0.0149615
12.4125 0.97015 -3.80656 -0.431189 -0.902108 0.0166223
12.7252 0.842338 -2.64652 -0.44159 -0.896974 0.0208861
12.9698 0.749347 -1.48711 -0.442561 -0.896463 0.022227
13.0045 0.759457 -0.38606 -0.442377 -0.896652 0.0171692
12.9376 0.807633 0.705918 -0.442031 -0.896913 0.0125103
12.6344 0.960814 0.974917 -0.442067 -0.896897 0.0123128
11.868 1.32071 -0.00996273 -0.427079 -0.903966 0.0187291
11.1957 1.61071 -0.906797 -0.419382 -0.907591 0.019949
10.2385 2.00422 -1.71069 -0.390913 -0.920402 0.00681335
9.07181 2.45469 -2.35364 -0.335351 -0.941999 0.0133639
8.09697 2.78704 -2.78428 -0.324292 -0.945689 0.0225162
7.11587 3.11034 -3.03909 -0.276904 -0.960618 0.0213014
5.8177 3.45361 -3.17993 -0.229527 -0.973195 0.0144441
4.72994 3.67835 -3.25093 -0.172073 -0.984995 -0.0132753
3.62155 3.85364 -3.01062 -0.157703 -0.987485 -0.00170569
2.62306 3.9564 -2.62 -0.0834231 -0.996439 -0.0102493
1.58899 3.95672 -1.90985 -0.00181301 -0.99856 -0.0534617
0.542936 3.92979 -0.958229 0.0776376 -0.995778 0.00433497
0.118092 3.88084 -0.0326374 0.126443 -0.991961 0.00500076
-0.155727 3.8514 1.17572 0.139071 -0.99028 0.0019693
-0.257763 3.84507 2.63801 0.109836 -0.993411 0.0173742
-0.0589479 3.88745 3.76856 0.135271 -0.990807 0.00171968
0.47455 3.97389 5.02087 0.107296 -0.993607 0.00624774
1.29363 4.02592 5.96568 0.055564 -0.998394 0.0110154
2.06748 4.05745 6.71078 -0.00935082 -0.999818 0.0104173
2.95375 4.05359 7.44758 -0.0296119 -0.999488 0.012127
3.9001 3.97696 7.95106 -0.142962 -0.989693 -0.00836403
5.11427 3.76158 8.4684 -0.188521 -0.982068 0.00140562
6.62991 3.4032 8.5217 -0.27095 -0.962048 0.0324126
7.87765 3.01921 8.41091 -0.33121 -0.943495 0.0108374
8.92219 2.63828 8.18038 -0.351395 -0.936212 0.00543688
10.0409 2.18956 7.58108 -0.395165 -0.918564 -0.003316
10.96 1.79332 7.00539 -0.407849 -0.913015 -0.00794373
11.6999 1.45531 6.26655 -0.426485 -0.904483 0.00455388
12.2994 1.17075 5.21159 -0.436043 -0.89992 0.00319082
12.6123 1.01183 4.08284 -0.436365 -0.899731 0.00813283
12.9535 0.844828 3.97064 -0.437714 -0.89906 0.00981726
12.8968 0.879216 4.88084 -0.436462 -0.899708 0.00504599
12.9411 0.861873 6.23462 -0.437164 -0.899382 -0.000113283
12.8768 0.898924 7.32214 -0.441599 -0.897191 0.00537758
13.0101 0.834487 8.60816 -0.436672 -0.89962 0.00108666
13.0364 0.821568 9.81873 -0.435239 -0.900315 6.39847e-05
13.0617 0.806627 10.9334 -0.444204 -0.895919 -0.00342379
13.056 0.805656 11.9993 -0.443299 -0.896367 -0.00349437
13.1521 0.752874 13.1624 -0.441586 -0.897209 -0.00424286
13.2036 0.722644 14.3403 -0.449182 -0.893381 -0.0102395
13.1275 0.750619 15.5618 -0.448419 -0.893816 -0.00349814
12.6879 0.959228 16.7561 -0.438774 -0.898519 -0.0118556
12.1375 1.22067 17.6333 -0.442719 -0.896638 -0.00627656
11.5025 1.52144 18.4585 -0.425643 -0.90485 -0.00859911
10.4557 1.99896 19.1284 -0.404705 -0.91435 0.000477178
9.31828 2.47518 19.3396 -0.373312 -0.927698 -0.00386971
8.29077 2.87843 19.4104 -0.338628 -0.940808 0.00723446
6.994 3.32372 19.5625 -0.314086 -0.949313 0.0124345
5.80861 3.67352 19.6059 -0.260252 -0.965146 0.0276006
4.62588 3.95913 19.5937 -0.200249 -0.979718 0.00727022
3.12755 4.16004 19.5179 -0.117896 -0.992862 -0.0079055
2.06536 4.23314 19.5323 -0.0395376 -0.998473 0.0223473
0.872922 4.23018 19.5813 0.0499029 -0.99766 0.0198337
-0.416205 4.08054 19.5374 0.130062 -0.991355 0.0172779
-1.9096 3.81135 19.435 0.229823 -0.972653 0.00484842
-3.21367 3.45951 19.4301 0.266296 -0.963809 0.00824181
-4.38723 3.06974 19.2505 0.343873 -0.938433 0.0290587
-5.53329 2.62141 19.0885 0.372533 -0.927644 0.0263654
-6.66496 2.15955 19.1144 0.398258 -0.917225 0.00819594
-8.05977 1.54195 18.8957 0.414792 -0.909871 0.00901771
-9.15946 1.03248 18.5538 0.427839 -0.903841 0.00449647
-9.76104 0.739955 17.6009 0.425061 -0.905156 0.00397485
-9.78154 0.723243 16.3572 0.421242 -0.906942 0.00329674
-9.75179 0.732495 15.2912 0.418577 -0.908171 0.00343709
-9.75817 0.727979 14.1449 0.417389 -0.908727 0.00145585
-9.74129 0.73171 12.8263 0.416785 -0.908975 0.00635149
-9.55218 0.809202 11.6975 0.414513 -0.910024 0.00584624
-9.65302 0.761878 10.6412 0.412356 -0.911022 -0.000858224
-9.90055 0.651684 9.76015 0.415292 -0.909671 -0.00540291
-9.77999 0.714619 8.54877 0.41672 -0.909018 -0.00544708
-9.26945 0.951595 7.29526 0.415108 -0.909741 -0.00668457
-8.23015 1.41272 6.75788 0.400787 -0.916143 -0.00715075
-7.25579 1.82601 6.58196 0.380026 -0.924896 -0.00669314
-6.25943 2.2213 6.26834 0.352199 -0.93579 -0.00220309
-5.28401 2.57211 5.84325 0.338031 -0.941121 -0.0051489
-4.09063 2.96734 5.0563 0.313324 -0.949646 -3.02727e-05
-3.05317 3.26183 4.03256 0.268387 -0.963311 -0.00103065
-2.42313 3.42773 3.17316 0.228823 -0.97314 -0.0241352
-1.87082 3.56069 2.23001 0.20808 -0.978024 0.0130714
-1.22624 3.68763 1.39839 0.161306 -0.9869 0.00299067
-0.649578 3.77595 0.285817 0.154418 -0.988003 -0.00238016
-0.222017 3.83451 -0.583418 0.122811 -0.992416 0.00230092
0.222057 3.88874 -1.53485 0.121843 -0.992468 -0.00923425
0.452133 3.92376 -2.70034 0.081 -0.996659 -0.00866082
0.390989 3.93416 -3.90363 0.0725749 -0.997354 -0.000571997
0.404829 3.93367 -4.37879 0.0741125 -0.997245 0.00319359
-0.635046 3.83571 -4.55706 0.109203 -0.993752 -0.0116995
-0.708768 3.7955 -3.15312 0.12729 -0.991798 -0.0116004
-0.919071 3.75252 -1.94217 0.127459 -0.991744 -0.0140418
-1.38942 3.66609 -0.620009 0.152196 -0.988324 -0.00685612
-1.96155 3.54277 0.442802 0.214724 -0.976629 -0.00945212
-2.56887 3.39088 1.31143 0.225336 -0.974168 -0.00331022
-3.14634 3.25914 2.29482 0.272723 -0.961975 0.00150346
-3.95373 3.01381 3.40007 0.287851 -0.957421 -0.00261335
-5.00748 2.6653 4.33566 0.31243 -0.949914 -0.00715324
-5.97343 2.32773 4.96544 0.342305 -0.939588 -0.00118419
-7.08332 1.90247 5.41418 0.364697 -0.93109 -0.00814882
-8.25191 1.41047 5.61987 0.390564 -0.920549 -0.00688633
-9.37382 0.921897 5.81383 0.408029 -0.912814 -0.0130443
-10.2053 0.531827 6.45836 0.416965 -0.908879 -0.00886954
-10.6784 0.300501 7.59066 0.426185 -0.90461 -0.00694838
-10.7745 0.254936 8.82324 0.423292 -0.905993 0.000859223
-10.858 0.202968 10.0389 0.42166 -0.906647 -0.0139524
-10.6399 0.296508 11.2652 0.433759 -0.901022 0.00342237
-10.7122 0.274499 12.311 0.425353 -0.904981 0.00914958
-10.7227 0.27925 13.7497 0.423515 -0.905844 -0.00439355
-10.7954 0.249111 14.9333 0.424366 -0.905489 0.00160385
-10.8142 0.241805 16.2705 0.425363 -0.905012 9.72248e-05
-10.8777 0.207362 17.4946 0.427986 -0.90378 -0.00299509
-10.6004 0.343749 18.5243 0.434282 -0.900771 0.00222433
-10.0096 0.629423 19.3441 0.435603 -0.900139 0.000257206
-8.91366 1.15299 19.8059 0.426144 -0.904646 0.00421629
-7.7786 1.67987 20.0492 0.411602 -0.911298 0.0109507
-6.64635 2.18145 20.1879 0.399968 -0.91639 0.0154726
-5.66535 2.59345 20.2457 0.38167 -0.924153 0.0164105
-4.44814 3.06635 20.3925 0.332821 -0.942621 0.00676513
-3.45253 3.39052 20.5132 0.306875 -0.951738 0.00283871
-2.36087 3.70798 20.5156 0.279377 -0.959525 0.0355074
-1.06049 3.99751 20.5077 0.209942 -0.977329 0.027418
0.0300378 4.15834 20.6176 0.137706 -0.990363 0.00968852
1.15187 4.25809 20.5832 -0.0100691 -0.999105 0.0410757
2.30362 4.24656 20.5853 -0.0224469 -0.999127 0.031602
3.60465 4.13105 20.6424 -0.127827 -0.991514 0.00835647
4.89163 3.92102 20.6849 -0.217518 -0.975843 0.00856788
6.13188 3.61371 20.6505 -0.285461 -0.957888 0.0149866
7.40151 3.2016 20.6209 -0.306625 -0.951705 0.0154707
8.54866 2.78234 20.4467 -0.34801 -0.937491 -0.000510509
9.97065 2.20035 20.3922 -0.383831 -0.923403 -5.01118e-05
11.0126 1.74583 20.1214 -0.417019 -0.908882 0.00536129
11.847 1.35447 19.6083 -0.428033 -0.903756 0.00366399
12.7515 0.913574 18.7792 -0.446493 -0.894778 0.00411702
13.3237 0.627416 17.8644 -0.452131 -0.891951 -0.000934851
13.8992 0.352306 16.5336 -0.451774 -0.892064 -0.0109376
14.1076 0.258513 15.0644 -0.458185 -0.888809 -0.00922689
14.0596 0.294369 13.9799 -0.456457 -0.889709 -0.00811112
14.1336 0.254736 12.7144 -0.455879 -0.89001 -0.00309332
13.9398 0.367082 11.5099 -0.456491 -0.889685 -0.00877318
14.0447 0.321349 10.2882 -0.452975 -0.891411 -0.0141795
13.9221 0.388107 9.14416 -0.441339 -0.89733 -0.00423344
13.9837 0.358167 8.00656 -0.437726 -0.899103 0.00316192
13.8911 0.390452 6.76921 -0.456415 -0.889766 -0.00163765
13.8217 0.426487 5.62991 -0.443332 -0.896354 0.00217299
13.9761 0.343844 4.43141 -0.451057 -0.892486 0.00410181
13.8605 0.392884 3.36719 -0.446808 -0.894573 0.0100897
13.7797 0.413395 2.14922 -0.441507 -0.89711 0.01628
13.8207 0.374862 0.88091 -0.440573 -0.897717 -0.000667323
13.9581 0.29249 -0.217944 -0.43911 -0.898314 0.0146218
13.9629 0.258395 -1.3564 -0.436414 -0.899372 0.025945
13.6511 0.375018 -2.7176 -0.47316 -0.88066 0.0236194
13.4264 0.467627 -3.87183 -0.45361 -0.890934 0.0208196
12.9106 0.704863 -5.368 -0.45269 -0.891618 0.00829885
12.5407 0.856509 -6.77669 -0.430899 -0.902214 0.0183289
12.2348 0.978942 -7.80868 -0.427649 -0.903669 0.0223484
11.8925 1.11225 -8.85909 -0.422634 -0.905785 0.0305459
11.7401 1.14126 -9.98181 -0.417266 -0.908316 0.0291662
11.811 1.06869 -11.1899 -0.41477 -0.909398 0.0309916
11.9133 0.978305 -12.4152 -0.427055 -0.903703 0.0307193
12.3146 0.744308 -13.5984 -0.432928 -0.901028 0.0268073
12.6624 0.54511 -14.6623 -0.437335 -0.898952 0.0249728
13.063 0.324064 -15.8037 -0.42237 -0.906203 0.0199849
13.1284 0.246475 -17.134 -0.448129 -0.893578 0.0264413
12.7916 0.388169 -18.1346 -0.441473 -0.896974 0.0232229
12.3114 0.602325 -19.0663 -0.440381 -0.897615 0.0187597
11.4575 1.0094 -19.5216 -0.435069 -0.900261 0.0156844
10.2571 1.56133 -19.8861 -0.415191 -0.909719 0.00530269
9.28884 1.98668 -20.162 -0.391621 -0.920073 0.00991206
7.99516 2.5201 -20.3333 -0.381223 -0.924447 0.00267725
6.735 2.97148 -20.306 -0.310243 -0.950331 -0.00288551
5.65202 3.30119 -20.3973 -0.285912 -0.958179 -0.00837692
4.51562 3.59805 -20.3801 -0.241457 -0.970206 -0.0199775
3.38742 3.84696 -20.4871 -0.195017 -0.980097 -0.0371373
2.18182 4.05103 -20.5079 -0.138071 -0.990358 0.0112793
0.97728 4.15686 -20.5538 -0.0291344 -0.999481 -0.0137739
-0.102769 4.1641 -20.5346 0.000436668 -0.998499 -0.0547715
-1.60654 4.08451 -20.4601 0.0831992 -0.994901 -0.0570059
-2.75542 3.90967 -20.4169 0.180394 -0.982611 -0.043972
-3.7928 3.68285 -20.3554 0.245907 -0.967828 -0.0532751
-4.84613 3.38417 -20.3197 0.293951 -0.955061 -0.0381065
-6.1452 2.94982 -20.2064 0.333611 -0.941461 -0.0485325
-7.11856 2.59869 -19.9521 0.353534 -0.935147 -0.00869872
-8.30196 2.12524 -19.822 0.376215 -0.92634 -0.0169548
-9.22279 1.71616 -19.4958 0.407156 -0.913172 -0.0184493
-10.2577 1.23064 -18.8669 0.426706 -0.904099 -0.022941
-10.9795 0.870225 -18.1304 0.430267 -0.9024 -0.0233439
-11.5005 0.593935 -17.1762 0.43354 -0.900718 -0.027392
-11.8646 0.3874 -16.1772 0.452449 -0.891315 -0.0291134
-12.004 0.293618 -15.0827 0.439051 -0.898178 -0.0226039
-11.8865 0.311738 -13.6759 0.443343 -0.89606 -0.0228753
-11.9158 0.272663 -12.35 0.427687 -0.9036 -0.0243258
-11.4885 0.433623 -10.9767 0.427656 -0.903552 -0.0265462
-10.4973 0.896034 -10.8047 0.421685 -0.906188 -0.0310171
-9.27583 1.45246 -10.9198 0.408124 -0.911962 -0.0419481
-8.24829 1.907 -11.0325 0.394014 -0.918298 -0.0384931
-7.24624 2.32212 -10.947 0.345911 -0.93592 -0.0663317
-6.20913 2.67818 -10.9047 0.316492 -0.94798 -0.0341509
-5.23614 2.98813 -10.5351 0.306291 -0.951032 -0.0402837
-4.12972 3.28724 -10.2059 0.250583 -0.967025 -0.0455164
-3.15831 3.52385 -9.66572 0.216527 -0.976256 -0.00634873
-1.90013 3.7544 -8.70591 0.168114 -0.98529 -0.0218622
-1.33654 3.78603 -7.55287 0.134603 -0.988914 -0.0627018
-0.945436 3.81513 -6.22392 0.142451 -0.989715 -0.0131391
-0.65315 3.84155 -5.04937 0.125449 -0.991434 -0.014741
-2.62738 3.59018 18.3571 0.273657 -0.961167 0.0332546
-1.59588 3.85026 18.3225 0.186176 -0.981847 0.0362693
-0.497405 4.06216 18.4203 0.179326 -0.982654 0.0457687
0.579438 4.1885 18.5365 0.0953006 -0.995366 0.0128278
1.63484 4.22183 18.461 0.00492142 -0.999898 0.0100301
2.93224 4.2045 18.4547 -0.0929251 -0.994642 -0.0235558
4.00928 4.04621 18.4853 -0.18697 -0.982042 0.00159464
5.35454 3.77879 18.5171 -0.249866 -0.968259 0.00641014
6.70252 3.39583 18.4615 -0.298655 -0.954164 0.00443361
7.84357 3.02379 18.3423 -0.331289 -0.943525 -0.00282055
8.96872 2.62119 18.2478 -0.347141 -0.937766 0.00942387
9.95035 2.22382 18.0909 -0.388365 -0.921484 -0.00635743
10.8201 1.84432 17.6277 -0.417074 -0.90886 -0.00486788
11.525 1.52315 16.6429 -0.422055 -0.906534 -0.0070883
12.1607 1.22913 15.4199 -0.441738 -0.89712 -0.00660594
12.2828 1.17594 14.2819 -0.437589 -0.899169 -0.000926817
12.1985 1.22046 13.0415 -0.436976 -0.899454 -0.00468924
12.1096 1.27058 11.853 -0.439866 -0.898052 -0.00432955
12.0938 1.28242 10.692 -0.439099 -0.898431 0.000933543
12.088 1.27782 9.58215 -0.430101 -0.902776 0.00277994
12.0375 1.30266 8.26252 -0.432106 -0.901814 -0.00374366
11.2649 1.65255 8.06647 -0.406626 -0.913592 -0.00227089
10.2723 2.0963 8.69053 -0.396254 -0.918098 0.00884732
9.33678 2.48403 9.17648 -0.379044 -0.92537 0.00318034
7.91362 3.01837 9.48068 -0.337508 -0.941243 0.00101337
6.69883 3.41246 9.59337 -0.274044 -0.961571 -0.00103084
5.51155 3.71135 9.58843 -0.198437 -0.979994 0.0153215
4.30327 3.91908 9.31078 -0.151995 -0.988375 -0.00345361
3.31376 4.04296 8.89663 -0.0870218 -0.996128 -0.0124655
1.90206 4.08758 8.01545 -0.0140271 -0.999875 0.00447233
0.881708 4.0378 7.12147 0.0478475 -0.996995 0.0609203
0.1048 3.93912 6.37112 0.104907 -0.994481 0.00165216
-0.571048 3.83612 5.33394 0.170584 -0.984356 0.0198655
-1.10402 3.70866 4.13146 0.191178 -0.981536 0.00613229
-1.75667 3.57147 4.27053 0.216748 -0.976223 0.00292318
-2.53364 3.408 5.10165 0.241006 -0.969901 0.0137402
-3.4639 3.15061 5.92174 0.268769 -0.962888 0.0197773
-4.3288 2.89319 6.51456 0.305403 -0.952222 0.00145878
-5.25125 2.58996 7.04344 0.332779 -0.942885 0.00516802
-6.33873 2.18937 7.46251 0.361026 -0.93247 0.0041266
-7.39386 1.76113 7.74434 0.386401 -0.922322 -0.00400889
-8.42174 1.32238 8.14404 0.399226 -0.91685 -0.00213144
-8.82504 1.14021 9.09094 0.402909 -0.915221 -0.00440313
-8.70994 1.18852 10.4226 0.40997 -0.912096 -0.00107246
-8.57831 1.25127 11.5121 0.406839 -0.91346 0.0085759
-8.6795 1.21464 12.6136 0.415624 -0.909483 0.00981813
-8.79372 1.17052 13.98 0.417277 -0.908778 0.00165723
-8.81169 1.16819 15.4928 0.416182 -0.909264 0.00564809
-8.81777 1.17486 16.7852 0.413072 -0.910657 0.00866042
-7.83367 1.63933 17.8118 0.417316 -0.908731 0.0067944
-6.75065 2.11852 17.9982 0.389515 -0.920997 0.0064131
-5.65985 2.55033 17.9357 0.356351 -0.934352 -0.00033625
-4.37688 3.0301 18.0493 0.339023 -0.940671 0.0142084
-3.18275 3.4248 18.3313 0.281425 -0.959526 0.0105289
-3.10058 3.44895 18.3361 0.282786 -0.958739 0.0251779
12.8116 0.895289 2.60727 -0.437363 -0.899173 0.0141908
12.8135 0.894613 2.62289 -0.43725 -0.899227 0.014249
11.7201 1.4237 2.4302 -0.434691 -0.900421 0.0164138
11.5843 1.50307 3.83387 -0.420158 -0.90743 0.00562934
11.081 1.74481 5.24607 -0.42512 -0.905136 0.000923531
10.1819 2.15 6.22841 -0.40798 -0.912953 -0.00213289
9.16662 2.54706 6.80372 -0.350684 -0.936437 -0.0103548
8.05215 2.94691 7.29976 -0.327724 -0.944742 0.00470476
6.69495 3.36379 7.46696 -0.273803 -0.961603 0.0187269
5.31936 3.7208 7.48022 -0.216353 -0.975628 0.0168977
4.18455 3.94598 6.87016 -0.150431 -0.988576 -0.00502634
3.01751 4.02691 6.13869 -0.0632618 -0.997705 0.00378285
2.01793 4.0551 5.29343 -0.00449526 -0.999856 0.0163385
1.1489 4.01941 3.93067 0.0607462 -0.997902 0.0148768
0.869141 3.96499 2.37059 0.109835 -0.993411 0.0173743
0.968635 3.94522 0.576135 0.0370977 -0.999271 -0.00905865
1.67297 3.95939 -0.544671 0.0121705 -0.999779 -0.0171003
2.70248 3.93517 -1.47043 -0.00965941 -0.999341 -0.0207372
4.00013 3.79526 -1.96079 -0.144009 -0.989353 -0.00828696
5.48527 3.53294 -2.09343 -0.215919 -0.976398 -0.00503568
6.82249 3.21202 -1.99224 -0.268106 -0.963194 0.0193936
8.02171 2.84307 -1.6275 -0.327038 -0.944718 0.0235229
9.16735 2.44844 -1.15255 -0.344747 -0.938335 0.0260324
10.2349 2.05572 -0.42124 -0.397264 -0.917452 0.0197512
11.0103 1.73428 0.614488 -0.413244 -0.910353 0.0200071
11.5883 1.47401 1.68801 -0.4313 -0.902162 0.00911144
11.6854 1.43004 1.93128 -0.43149 -0.901999 0.0138451
11.6827 1.46187 14.9597 -0.424911 -0.905231 0.00268637
10.6157 1.94304 16.2267 -0.397561 -0.917561 -0.00520283
9.73029 2.32247 17.2583 -0.375444 -0.926807 0.00838046
9.4818 2.42305 17.5433 -0.371372 -0.928476 0.00384936
8.29333 2.86602 17.5513 -0.338927 -0.940805 0.00368597
9.27153 2.50678 16.4575 -0.360134 -0.932865 -0.0081349
10.3844 2.05375 15.1728 -0.401449 -0.915849 -0.00773353
11.4012 1.59902 13.9683 -0.432805 -0.901479 -0.00399494
11.7528 1.43162 13.5449 -0.434832 -0.900506 -0.00310075
11.5361 1.53859 12.4811 -0.426682 -0.904371 -0.00743849
10.5753 1.97129 13.618 -0.402659 -0.915342 -0.00375787
9.64719 2.36417 14.6994 -0.368866 -0.929475 0.00372083
8.62758 2.74594 15.8524 -0.340644 -0.940136 -0.010319
7.66174 3.08781 16.9237 -0.333553 -0.942728 0.00251649
6.79158 3.37675 17.8723 -0.29219 -0.956269 -0.0131942
5.53792 3.72838 17.8925 -0.247509 -0.968885 -0.00108435
6.6871 3.41283 16.6698 -0.264728 -0.964247 -0.0120828
7.78682 3.05151 15.4652 -0.322597 -0.946444 -0.0131884
8.83265 2.68051 14.2992 -0.346544 -0.938006 -0.00720519
9.8035 2.30207 13.1917 -0.37606 -0.926578 -0.00558317
10.6995 1.92008 12.1465 -0.397437 -0.917623 -0.00335455
11.3778 1.62467 11.3549 -0.430233 -0.902697 -0.00622325
11.5991 1.51176 9.76322 -0.427301 -0.904091 0.00574824
10.6338 1.95021 10.9022 -0.388717 -0.921357 -0.000740656
9.78376 2.31085 11.8891 -0.376894 -0.926248 0.00403081
8.61525 2.7651 13.2186 -0.358506 -0.933449 -0.0120547
7.59863 3.13101 14.3563 -0.320509 -0.947127 -0.01499
6.71709 3.41355 15.3228 -0.293807 -0.955851 -0.00503484
5.43593 3.75607 16.6892 -0.23802 -0.971257 -0.00268543
4.49956 3.95936 17.6662 -0.206194 -0.978215 0.0240695
4.40975 3.98059 17.7596 -0.202277 -0.979327 0.00163505
3.10709 4.1816 17.7901 -0.0728147 -0.996509 0.040831
4.09676 4.01715 16.773 -0.147075 -0.988917 0.0203162
5.12509 3.8168 15.7001 -0.206067 -0.978359 0.0187142
6.25471 3.5313 14.5015 -0.248399 -0.968632 0.00704784
7.14711 3.28174 13.5355 -0.308359 -0.951263 0.00367278
8.13133 2.93975 12.4408 -0.324914 -0.945615 0.0156028
9.16881 2.55848 11.2722 -0.377014 -0.9262 0.00375175
10.1569 2.15016 10.1325 -0.381103 -0.924523 0.00406599
11.1571 1.70704 8.96127 -0.410055 -0.912048 0.00489788
11.2303 1.67367 8.87493 -0.410055 -0.912048 0.00489763
9.2809 2.50838 9.82339 -0.376983 -0.926217 0.00229471
8.30058 2.8793 10.9297 -0.331768 -0.943309 0.00991833
7.40418 3.19264 11.9299 -0.317147 -0.948376 0.000621632
6.24431 3.5318 13.1957 -0.258493 -0.965946 0.0114204
5.28572 3.7526 14.2141 -0.20991 -0.977719 0.00154754
4.3029 3.95945 15.2457 -0.147661 -0.988923 0.0150578
3.29978 4.10428 16.2801 -0.102776 -0.994326 0.0274248
2.14763 4.22246 17.4569 0.00892027 -0.999497 0.0304487
1.76982 4.21962 17.8383 0.0144225 -0.999872 0.00685749
0.366761 4.15756 17.9597 0.115629 -0.992518 0.0392129
1.60134 4.19788 16.7003 -0.0257903 -0.999633 -0.00829048
2.67999 4.16486 15.6004 -0.103568 -0.994622 -0.000283556
3.72431 4.04192 14.5301 -0.162446 -0.986442 0.0233124
4.81875 3.82764 13.3868 -0.158463 -0.987218 0.0170218
5.76183 3.65929 12.3968 -0.230113 -0.972967 -0.019582
6.73994 3.40941 11.3445 -0.243848 -0.969784 0.00752818
7.80997 3.0495 10.1589 -0.328783 -0.94438 -0.00689386
6.44535 3.47936 10.3378 -0.287455 -0.957783 0.00457025
5.37511 3.72831 11.4792 -0.182882 -0.983056 0.0124894
4.41588 3.87882 12.4877 -0.147994 -0.988988 -0.000655749
3.35347 4.04278 13.5947 -0.092153 -0.995066 0.0367741
2.42435 4.14595 14.5492 -0.030043 -0.998253 0.0508706
1.21189 4.18207 15.785 0.0501168 -0.997928 0.0403515
0.270488 4.12879 16.7494 0.136666 -0.990617 0.000134155
-0.587759 4.00263 17.6431 0.172477 -0.983462 0.0552677
-1.72758 3.78988 17.5251 0.226491 -0.973932 0.0125653
-0.32335 4.04676 16.0448 0.148898 -0.988848 -0.00304673
0.633001 4.11701 15.0646 0.0888162 -0.994427 0.0568116
1.73917 4.12078 13.9339 0.0600598 -0.996803 0.0526926
2.92839 4.04951 12.7115 -0.0613283 -0.997328 0.0396935
3.84998 3.96067 11.7506 -0.129236 -0.991595 -0.00609154
4.9805 3.80764 10.5727 -0.158423 -0.987368 -0.00261514
5.41102 3.73839 10.1254 -0.20028 -0.979688 -0.00998494
4.14102 3.94853 10.1304 -0.163969 -0.986428 0.00857693
3.1724 4.0528 11.129 -0.117309 -0.992974 -0.0155315
2.16668 4.06128 12.1704 -0.0284983 -0.999571 0.00679127
0.893371 4.05598 13.4819 0.050317 -0.998293 0.0296678
-0.376536 3.97991 14.7917 0.119079 -0.9912 0.0578082
-1.54545 3.80916 16.0127 0.196704 -0.980269 0.0195201
-2.4825 3.60775 17.0159 0.226491 -0.973932 0.0125653
-3.06571 3.45168 17.6531 0.281425 -0.959525 0.0105289
-3.8744 3.19873 17.2236 0.315061 -0.948929 0.0164145
-2.65404 3.5274 15.8887 0.247916 -0.968513 0.022794
-1.73264 3.73438 14.8986 0.218064 -0.975648 0.0236292
-0.613073 3.91625 13.7197 0.154048 -0.987694 0.027003
0.354823 3.99937 12.7162 0.0880916 -0.995954 0.0177748
1.49105 4.07058 11.5396 0.062191 -0.998047 -0.00589634
2.5563 4.08587 10.4405 -0.0247278 -0.999653 -0.00910051
3.23426 4.06276 9.75094 -0.0991244 -0.995075 -0.000385081
2.33068 4.08725 9.36032 0.0178286 -0.999489 0.0265314
1.38873 4.06662 10.3171 0.0448783 -0.998992 -0.000628993
0.301939 3.97685 11.4483 0.0745383 -0.997214 0.00279071
-0.632905 3.89246 12.4193 0.12744 -0.991656 0.019407
-1.61215 3.73644 13.4507 0.226109 -0.974032 0.011654
-2.54898 3.5372 14.4514 0.251074 -0.967792 0.0184648
-3.50236 3.29828 15.4867 0.297417 -0.954487 0.022325
-4.48307 2.97146 16.59 0.341588 -0.939834 0.00545675
-5.12632 2.74902 17.3204 0.347336 -0.937673 0.011257
-6.33231 2.28999 17.3855 0.373496 -0.927581 0.00973892
-5.41863 2.63102 16.3263 0.347216 -0.937778 -0.00356966
-4.43284 2.97051 15.2094 0.325937 -0.945274 0.014934
-3.33595 3.31164 13.9859 0.297595 -0.954218 0.0300756
-2.21564 3.58824 12.773 0.226109 -0.974032 0.0116543
-1.2464 3.79572 11.7365 0.179378 -0.983694 0.0130004
-0.227648 3.93137 10.668 0.118229 -0.992955 -0.00788277
0.98577 4.03787 9.41602 0.0645109 -0.997835 -0.0127923
1.65589 4.08813 8.73062 0.00303131 -0.999813 -0.019122
0.906911 4.05948 8.18016 0.0999028 -0.99497 -0.00736233
-0.0413728 3.94739 9.15606 0.113827 -0.9935 0.000947516
-1.09417 3.79898 10.2511 0.204984 -0.97812 0.0355425
-2.22081 3.5697 11.4533 0.221351 -0.975173 0.00651714
-3.17243 3.31399 12.4926 0.276556 -0.96082 0.0184708
-4.21316 3.02697 13.634 0.311285 -0.950116 0.0195364
-5.09248 2.73054 14.6267 0.352785 -0.935413 0.0233675
-5.98235 2.41125 15.6455 0.376579 -0.926296 0.0127711
-6.85877 2.05352 16.6735 0.402663 -0.91511 0.0208885
-7.28957 1.87411 17.1847 0.409048 -0.912394 0.0147449
-7.88365 1.59642 16.5586 0.413669 -0.910408 0.00590072
-6.89614 2.02317 15.3845 0.396948 -0.917768 0.0115436
-5.90087 2.41584 14.2241 0.361907 -0.931959 0.0218079
-4.83666 2.79647 13.0118 0.339746 -0.940289 0.020719
-3.95251 3.06773 12.029 0.310234 -0.950564 0.0135201
-3.03844 3.34181 11.019 0.29448 -0.955559 0.0137312
-1.98677 3.59867 9.8866 0.204285 -0.978847 0.0112089
-0.92919 3.8241 8.76533 0.181089 -0.98345 0.00567503
0.006539 3.9621 7.79354 0.116963 -0.993135 -0.00173212
0.357072 4.00241 7.43433 0.107602 -0.993938 0.0225518
-0.366679 3.89453 6.86711 0.177102 -0.983874 0.0250358
-1.48665 3.6829 8.03973 0.223814 -0.974386 0.021879
-2.61771 3.43206 9.24488 0.26801 -0.963134 0.0233365
-3.64508 3.14412 10.3662 0.30429 -0.952511 0.0114413
-4.55402 2.86229 11.3747 0.322793 -0.946414 0.0102507
-5.4928 2.54683 12.4301 0.350141 -0.936562 0.0159293
-6.44267 2.192 13.521 0.371148 -0.928552 0.00628947
-7.31582 1.83757 14.5427 0.402747 -0.915201 0.0141938
-8.30465 1.4017 15.7236 0.416182 -0.909264 0.00564835
-8.0425 1.51128 14.0688 0.409192 -0.912441 0.00377072
-6.98586 1.9611 12.8229 0.389225 -0.920982 0.017199
-6.09818 2.30283 11.7967 0.362571 -0.931873 0.0124429
-5.16498 2.63429 10.7378 0.339624 -0.940498 0.0108898
-4.29165 2.93025 9.75697 0.30429 -0.952511 0.0114413
-3.38533 3.20422 8.75722 0.302671 -0.953001 0.0133905
-2.24405 3.50981 7.52388 0.264057 -0.964498 0.00409334
-1.28426 3.70741 6.5107 0.192025 -0.981339 0.0100162
-0.878044 3.78335 6.08504 0.19403 -0.980972 0.00674794
-1.24572 3.68758 5.1581 0.208547 -0.97771 0.024315
-2.23617 3.49838 6.20093 0.235056 -0.971683 0.024081
-3.14439 3.26575 7.17532 0.278591 -0.960408 -0.00187778
-4.31806 2.90398 8.46511 0.303691 -0.952762 0.00408972
-5.27419 2.58932 9.53224 0.331266 -0.943536 -0.00139289
-6.21776 2.2476 10.604 0.356996 -0.934097 0.00406647
-7.07922 1.90287 11.6037 0.382203 -0.92406 0.00576967
-8.04629 1.49653 12.7414 0.402081 -0.915572 0.00762781
-8.06179 1.48988 12.7597 0.404055 -0.914678 0.0101547
-8.06696 1.47826 11.4326 0.406839 -0.91346 0.00857591
-7.04459 1.91656 10.2297 0.384833 -0.922986 -0.000718314
-5.99767 2.32486 9.02333 0.352131 -0.935934 0.00552608
-4.92472 2.70101 7.81332 0.313596 -0.949549 0.00384577
-4.2558 2.91627 7.07231 0.311101 -0.950377 0.000636769
-6.25153 2.22199 7.98395 0.350596 -0.936527 -3.4634e-05
-7.21781 1.83944 9.0996 0.385947 -0.922495 0.00689377
-8.23464 1.40121 10.2975 0.406334 -0.913725 -0.000174326
-8.23281 1.40155 8.95969 0.402912 -0.915228 -0.00440362
-7.82227 1.57844 8.47543 0.386437 -0.922306 -0.00422773
10.7685 1.73823 -3.82616 -0.409121 -0.912282 0.0190055
10.6202 1.80838 -3.65143 -0.409846 -0.911985 0.0175899
9.85292 2.13384 -4.07798 -0.391408 -0.920038 0.0181922
10.4305 1.87299 -4.75459 -0.402502 -0.915418 0.00175032
10.1046 1.99874 -5.70116 -0.377909 -0.925357 0.0299911
9.20552 2.3701 -4.66366 -0.332604 -0.943067 -0.000214719
8.87265 2.49302 -4.28866 -0.333468 -0.942673 0.0129033
8.04986 2.77982 -4.68281 -0.334861 -0.942234 -0.00790259
9.0361 2.42489 -5.79184 -0.352306 -0.935561 0.0246156
9.6838 2.14713 -6.53967 -0.37917 -0.925211 0.0146445
9.61283 2.1563 -7.77813 -0.373091 -0.927696 0.013519
8.64343 2.54978 -6.6691 -0.350173 -0.936397 0.0232139
7.84052 2.85373 -5.76392 -0.322506 -0.946475 0.0131983
6.95071 3.13577 -4.78285 -0.293559 -0.955886 -0.0102399
5.82785 3.43586 -4.87858 -0.246039 -0.969183 0.0122106
6.66912 3.21362 -5.79127 -0.263723 -0.964491 0.0143563
7.52553 2.93371 -6.73675 -0.28539 -0.95802 0.0273981
8.50595 2.56786 -7.84004 -0.328931 -0.9438 0.0323374
9.30095 2.25004 -8.74951 -0.386083 -0.921219 0.0479071
9.0868 2.30996 -9.82498 -0.369849 -0.928869 0.0203606
8.19719 2.65552 -8.81467 -0.338478 -0.940958 0.00558973
7.1456 3.02523 -7.63949 -0.286052 -0.958016 0.0195026
6.23922 3.31115 -6.64399 -0.279226 -0.959992 0.0211864
5.16248 3.57478 -5.48682 -0.206472 -0.978438 0.00532086
4.66437 3.69129 -4.95528 -0.181852 -0.983145 0.0188444
3.07017 3.93271 -4.60281 -0.0911949 -0.995829 -0.00297704
3.9318 3.8053 -5.50112 -0.156705 -0.987638 0.00384288
4.96787 3.64006 -6.58531 -0.230673 -0.972556 -0.0304013
5.91819 3.39229 -7.60838 -0.274091 -0.961604 0.0138883
6.76706 3.12497 -8.53993 -0.286518 -0.958022 0.0100563
7.59201 2.86945 -9.44825 -0.340173 -0.940276 0.0127991
8.52649 2.50102 -10.5107 -0.35164 -0.935748 0.0269332
9.35709 2.15019 -11.4668 -0.387208 -0.921396 0.0331552
9.44145 2.08198 -12.8872 -0.382385 -0.923776 0.0204982
8.65944 2.4139 -11.9877 -0.353982 -0.935058 0.0190523
7.85971 2.73288 -11.0763 -0.341552 -0.939434 0.0284085
6.96877 3.06355 -10.0763 -0.299977 -0.953928 0.0059596
5.77979 3.39573 -8.78011 -0.253627 -0.967281 0.0064536
4.63519 3.69946 -7.54594 -0.194967 -0.980326 0.0308012
3.70877 3.8483 -6.57456 -0.126154 -0.99189 -0.0154797
2.74603 3.94443 -5.58106 -0.0645872 -0.997869 0.00923203
2.09673 3.99288 -4.91104 -0.0373313 -0.999302 0.00151222
2.012 3.98046 -6.13471 -0.0561669 -0.998421 -0.000666258
2.87956 3.93096 -7.02833 -0.0752615 -0.997163 0.000949137
4.032 3.79713 -8.22535 -0.155788 -0.987583 0.0202457
4.96902 3.59063 -9.22299 -0.202293 -0.97923 0.0136213
5.82237 3.37535 -10.1449 -0.254744 -0.966991 0.00572987
6.66736 3.13336 -11.0657 -0.29957 -0.953632 0.0290428
7.55813 2.81817 -12.0599 -0.329522 -0.943978 0.0179057
8.37086 2.50133 -12.9817 -0.360042 -0.932806 0.0156103
9.32615 2.10463 -14.082 -0.383891 -0.922264 0.0453448
9.9335 1.8139 -14.8002 -0.405376 -0.913599 0.0317327
10.2942 1.61468 -16.5586 -0.41663 -0.908909 0.017442
9.51431 1.97082 -15.6373 -0.399551 -0.916393 0.0241555
8.71996 2.33204 -14.7087 -0.380441 -0.924407 0.0271443
7.77708 2.71974 -13.6254 -0.344707 -0.938612 0.0135518
6.82665 3.06402 -12.5605 -0.329344 -0.944096 0.0146454
6.01633 3.32699 -11.6673 -0.278579 -0.960413 0.000686793
5.19243 3.53404 -10.7804 -0.201993 -0.978787 -0.0342687
4.27595 3.71733 -9.80581 -0.185079 -0.982702 0.00645909
3.27929 3.88175 -8.75674 -0.113104 -0.993535 0.00979965
2.43712 3.96941 -7.88165 -0.0841011 -0.996348 -0.0147417
1.72653 4.00762 -7.15213 0.0200943 -0.999794 -0.0028082
1.42499 4.01395 -8.1499 0.0255736 -0.999637 0.00848844
2.498 3.96573 -9.26015 -0.100653 -0.994909 0.00499918
3.67452 3.80809 -10.4891 -0.163877 -0.986418 -0.0111198
4.70066 3.66656 -11.5668 -0.217169 -0.975973 -0.0177048
5.53545 3.46591 -12.4575 -0.278579 -0.960413 0.000686664
6.45459 3.17405 -13.4644 -0.268886 -0.963064 0.0144468
7.26569 2.8898 -14.3703 -0.329858 -0.944006 0.00684529
8.05724 2.58727 -15.2685 -0.366906 -0.929661 0.0333072
9.07305 2.1435 -16.449 -0.377007 -0.926117 0.0131565
9.62829 1.89776 -17.1014 -0.39135 -0.92015 0.0129815
8.66822 2.28903 -17.3107 -0.366719 -0.930127 0.0195041
7.70642 2.68102 -16.1991 -0.345404 -0.938257 0.0192233
6.75848 3.04593 -15.127 -0.306666 -0.95176 0.0104592
5.80226 3.35519 -14.0671 -0.27888 -0.960321 -0.00289736
4.95071 3.59076 -13.1462 -0.248834 -0.968027 0.0317012
4.08201 3.80077 -12.2228 -0.180855 -0.98349 -0.0061841
3.22138 3.91293 -11.325 -0.110513 -0.993466 -0.0284922
2.12813 4.00638 -10.1891 -0.109242 -0.993998 -0.00591623
1.06328 4.00718 -9.09414 0.0307623 -0.9995 -0.0073637
0.98416 4.00415 -9.01259 0.0181268 -0.999749 -0.0131472
0.690583 4.03447 -10.0246 0.0109571 -0.997779 -0.0657014
1.61839 4.05265 -10.9738 -0.0388934 -0.999243 0.000143528
2.72722 3.99087 -12.1258 -0.108587 -0.992906 -0.0484309
3.57341 3.88388 -12.9975 -0.165232 -0.985857 0.0280056
4.44616 3.69508 -13.9212 -0.218752 -0.975389 0.0276478
5.46026 3.44032 -15.0127 -0.234193 -0.972144 0.00943081
6.40536 3.147 -16.0503 -0.322352 -0.946017 0.0337681
7.20247 2.84799 -16.952 -0.340936 -0.939765 0.0245943
7.59943 2.69204 -17.4082 -0.338612 -0.940773 0.0169463
6.40038 3.10591 -17.373 -0.294255 -0.954998 0.0373245
5.43642 3.41725 -16.3054 -0.261801 -0.964448 0.036059
4.2882 3.69788 -15.073 -0.199149 -0.979816 0.0173444
3.21936 3.91802 -13.94 -0.179919 -0.983522 0.0177339
2.3018 4.04244 -12.9881 -0.0392904 -0.999225 -0.00224612
1.4291 4.06929 -12.0948 -0.0263624 -0.999602 -0.00999742
0.450445 4.05355 -11.0872 0.06543 -0.997857 -0.000933709
0.0316955 4.02087 -10.6575 0.0733672 -0.996976 -0.0256261
-0.429585 4.00424 -11.4928 0.0864336 -0.995992 -0.0229861
0.413545 4.06633 -12.361 0.0554277 -0.998269 -0.0196462
1.40687 4.08442 -13.3778 -0.058648 -0.998246 -0.00805128
2.31547 4.00912 -14.3139 -0.0887087 -0.996058 -0.000431947
3.19593 3.90727 -15.225 -0.156896 -0.987527 0.0131803
4.05767 3.73616 -16.1393 -0.200868 -0.979618 0.00114083
4.93026 3.52558 -17.0753 -0.234028 -0.972153 0.0121964
5.30575 3.41971 -17.4849 -0.256844 -0.966238 0.0203605
4.0294 3.72961 -17.4225 -0.221087 -0.975254 0.000542144
3.0829 3.91396 -16.4194 -0.136537 -0.990498 0.0164615
2.24384 4.02701 -15.5458 -0.117733 -0.992956 -0.0133153
1.37184 4.10053 -14.6486 -0.0740124 -0.997177 -0.0126632
0.35297 4.08176 -13.6048 0.0227149 -0.999727 0.00549956
-0.541005 4.01848 -12.6901 0.0611636 -0.998005 -0.0156594
-1.26635 3.94076 -11.9417 0.135524 -0.990602 -0.018446
-2.1898 3.82097 -12.2937 0.156203 -0.987016 -0.0374062
-1.0913 3.98999 -13.4322 0.121632 -0.992468 -0.0145644
-0.223266 4.06076 -14.3233 0.0218299 -0.999451 -0.0249293
0.834473 4.11952 -15.4057 0.0313684 -0.999115 -0.028017
1.70485 4.09368 -16.2951 -0.0973416 -0.995157 0.0136643
2.57278 3.97785 -17.1976 -0.132984 -0.991009 -0.0147282
2.98119 3.92934 -17.6211 -0.15901 -0.987267 0.00441159
1.65852 4.09207 -17.5554 -0.103092 -0.994657 -0.00536477
0.78916 4.1526 -16.664 0.0132728 -0.999901 0.004734
-0.171916 4.09438 -15.6835 0.0605138 -0.9976 -0.033651
-1.07368 4.02082 -14.7623 0.102193 -0.994604 -0.0178651
-1.96079 3.88351 -13.8425 0.128034 -0.99177 1.31445e-05
-2.79828 3.7263 -12.9661 0.189379 -0.981817 -0.0130395
-3.01161 3.6726 -12.7392 0.217809 -0.974362 -0.0563804
-3.91677 3.45705 -13.0844 0.269512 -0.962646 -0.0259966
-3.0663 3.69081 -13.9953 0.224648 -0.973523 -0.0422686
-2.03715 3.90917 -15.0776 0.114766 -0.992336 -0.0458045
-1.16993 4.02773 -15.9708 0.0681287 -0.997471 -0.0202466
-0.0915745 4.12408 -17.0736 0.0357757 -0.999333 -0.00732646
0.335662 4.14257 -17.5106 0.0132728 -0.999901 0.00473398
-0.989667 4.08898 -17.4668 0.0642698 -0.997797 -0.0164605
-1.87333 3.96942 -16.5566 0.132219 -0.991217 0.00278119
-3.09189 3.72999 -15.2858 0.210051 -0.97737 -0.0250361
-3.90974 3.5045 -14.4111 0.238995 -0.969718 -0.0502831
-4.70067 3.25525 -13.5503 0.258811 -0.965278 -0.0354233
-5.8548 2.90282 -13.5984 0.322961 -0.945272 -0.0464392
-4.83266 3.26892 -14.7316 0.286907 -0.957677 -0.0232345
-3.76035 3.6069 -15.8962 0.24099 -0.969955 -0.0333273
-2.75992 3.84508 -16.9507 0.180659 -0.983486 -0.0108361
-1.94551 3.97796 -17.7935 0.141283 -0.989295 -0.0365413
-3.40176 3.72804 -17.5903 0.221157 -0.97512 -0.0151981
-4.4381 3.43265 -16.4832 0.27521 -0.960536 -0.0403805
-5.28777 3.15055 -15.5548 0.285032 -0.958263 -0.0220964
-6.19564 2.82679 -14.5475 0.34612 -0.937402 -0.0384534
-6.68439 2.62198 -13.9904 0.352479 -0.934977 -0.0397172
-8.06376 2.07477 -13.7339 0.385626 -0.922146 -0.0306577
-7.16951 2.47247 -14.7716 0.352945 -0.934651 -0.0430976
-6.33668 2.81858 -15.7201 0.325815 -0.945007 -0.0283797
-5.31732 3.17865 -16.8483 0.290939 -0.956159 -0.0333919
-4.93466 3.31415 -17.2673 0.301968 -0.952935 -0.0270159
-6.102 2.93929 -17.3119 0.308177 -0.951057 -0.0227452
-6.97694 2.5997 -16.3269 0.356771 -0.934168 -0.00666623
-8.03232 2.14024 -15.1108 0.385167 -0.922415 -0.0282293
-8.89269 1.73358 -14.0963 0.399305 -0.916512 -0.0236902
-8.99358 1.68654 -13.9769 0.399305 -0.916512 -0.0236901
-9.47977 1.49329 -14.7396 0.424311 -0.905283 -0.0205496
-8.54041 1.94413 -15.8542 0.402627 -0.915154 -0.0196093
-7.67163 2.32718 -16.8596 0.384936 -0.922923 -0.00603054
-7.35702 2.46088 -17.2219 0.381431 -0.924222 -0.0179906
