6.23904 4.52952 9.62226 0.290735 0.955577 -0.0140013
5.07045 4.77423 9.50748 0.172351 0.984507 -0.0293119
3.72793 4.98438 9.12879 0.103023 0.992745 -0.00811789
2.61819 5.05832 8.43651 0.0570569 0.997534 -0.0171989
1.71101 5.04453 7.70691 -0.000153887 0.999592 -0.0252318
0.828875 4.98581 6.93396 -0.116659 0.990902 -0.0645319
0.108657 4.85896 6.00255 -0.132731 0.990967 -0.0191683
-0.5112 4.73618 4.64833 -0.14795 0.988957 -0.00452549
-0.798821 4.69552 3.47311 -0.146296 0.989153 0.00930364
-1.2017 4.62793 3.20517 -0.219067 0.975379 0.0250131
-2.07159 4.4177 4.2573 -0.222658 0.9748 -0.00898131
-3.0377 4.19601 5.29476 -0.274356 0.961047 -0.0112205
-4.00358 3.89958 6.10628 -0.309478 0.950463 -0.0212251
-4.91969 3.57358 6.64629 -0.351513 0.936137 -0.00931965
-5.95318 3.18333 7.08696 -0.365967 0.930523 -0.0139295
-7.02101 2.74972 7.4783 -0.391929 0.919981 -0.00519611
-8.01113 2.32194 7.63551 -0.401493 0.915854 -0.00199883
-9.25615 1.76216 7.69495 -0.420195 0.907404 0.00269375
-10.3305 1.25068 7.97719 -0.438429 0.898743 0.00628252
-10.3927 1.21231 9.21313 -0.438088 0.898911 0.00618943
-10.3463 1.22772 10.3294 -0.442939 0.896552 -0.000183
-10.2276 1.28481 11.5453 -0.445839 0.895107 0.00237703
-10.1069 1.34574 13.0771 -0.445344 0.895357 -0.00204363
-10.1578 1.32791 14.5126 -0.441237 0.897365 -0.00664704
-10.2903 1.27361 15.9617 -0.438882 0.89851 -0.00785615
-10.3209 1.26629 17.1475 -0.442572 0.896732 -0.000420903
-9.55231 1.64779 17.8085 -0.440687 0.897649 -0.00457398
-8.45623 2.17839 17.9824 -0.430988 0.902332 -0.00675025
-7.37365 2.68988 18.0018 -0.425558 0.90491 -0.00622431
-6.32374 3.1608 18.0293 -0.408585 0.912655 -0.0106345
-5.23589 3.61766 18.0587 -0.383085 0.923513 -0.018029
-4.05267 4.09126 18.1433 -0.346155 0.937692 -0.0185795
-2.91408 4.47589 18.2828 -0.285224 0.957802 -0.015035
-1.5191 4.85803 18.3116 -0.234913 0.970262 -0.0465172
-0.38442 5.06351 18.398 -0.121506 0.992356 -0.021576
1.0118 5.16915 18.3557 -0.0336244 0.999029 -0.02846
2.23596 5.18304 18.3655 0.00376486 0.999846 -0.0171263
3.72172 5.07515 18.3837 0.149767 0.988718 0.00259128
4.9541 4.86882 18.3957 0.184509 0.982752 -0.0124907
6.04498 4.60295 18.4064 0.274216 0.9616 -0.0114783
7.22472 4.22933 18.4175 0.330224 0.943744 -0.00772282
8.3127 3.81859 18.3639 0.376338 0.926405 -0.00163354
9.33752 3.38493 18.3197 0.395425 0.918498 -0.000946274
10.3141 2.94895 18.1295 0.418093 0.908349 0.00999752
11.455 2.41652 17.5693 0.429552 0.90301 0.00758498
12.2882 2.00186 16.8049 0.461322 0.887178 0.00949608
13.0605 1.6032 16.032 0.463951 0.885855 0.00261048
13.5115 1.36606 15.019 0.471761 0.881716 0.00394845
13.7078 1.26917 13.9571 0.472673 0.881188 0.00936087
13.5349 1.36172 12.6335 0.472795 0.881149 0.00129458
13.446 1.41074 11.5472 0.461723 0.887024 -0.000109658
13.4329 1.41784 10.3386 0.461931 0.886916 0.000311849
13.2671 1.50434 9.01519 0.455641 0.890163 0.000399847
13.1366 1.57536 7.93851 0.45803 0.888914 0.00578424
12.8643 1.71266 6.9211 0.455762 0.890066 -0.00662256
12.5389 1.87425 6.26258 0.450839 0.892574 -0.00751032
11.9603 2.16793 7.37137 0.428698 0.903434 0.00450492
11.1944 2.52771 8.05108 0.424889 0.905243 0.00209233
10.1675 3.00338 8.81051 0.410078 0.912039 -0.00465711
8.97919 3.52365 9.36612 0.382429 0.923921 -0.0108568
7.79413 3.99474 9.53514 0.337858 0.941132 -0.0110618
6.77245 4.36052 9.64172 0.335469 0.941947 -0.0139144
6.5718 4.42506 9.64861 0.282868 0.958761 0.0199867
6.57015 4.38365 8.56352 0.270991 0.961665 -0.0420015
7.66708 4.02998 8.5012 0.323883 0.945923 -0.0120814
8.68354 3.63509 8.27508 0.373303 0.927539 -0.013613
9.70491 3.20656 7.81651 0.383415 0.923528 -0.00940172
10.8908 2.66819 6.9634 0.420805 0.907151 0.000207769
11.6323 2.32824 5.9266 0.432572 0.901598 0.00163382
12.1176 2.085 4.88498 0.444511 0.895658 -0.00485767
12.5364 1.8664 3.79781 0.457113 0.889387 -0.00588847
12.5583 1.83564 2.54379 0.45357 0.891013 -0.0192491
12.394 1.90325 1.35658 0.461981 0.886773 -0.0141629
11.7689 2.19808 0.150658 0.439875 0.897883 -0.0169537
11.0712 2.5202 -0.659939 0.420983 0.906932 -0.0157246
10.2433 2.88935 -1.46876 0.419778 0.907442 -0.0182873
9.4394 3.23282 -2.15867 0.399337 0.916608 -0.0189533
8.41356 3.64933 -2.44584 0.373703 0.927173 -0.0263133
7.39056 4.02975 -2.70304 0.315086 0.946855 -0.0646965
6.26052 4.34401 -2.95757 0.266326 0.963834 -0.00974735
5.08526 4.62012 -2.93488 0.177889 0.9836 -0.029773
4.00527 4.77836 -2.79989 0.128519 0.991704 -0.00227356
2.88548 4.88646 -2.34481 0.0464585 0.998632 -0.0235624
1.79366 4.93805 -1.68915 -0.0190964 0.999631 -0.0185018
0.794914 4.91149 -0.670155 -0.0808726 0.996638 0.0119955
0.261845 4.84537 0.659021 -0.107703 0.993573 0.021188
0.0936134 4.83857 1.84036 -0.0944098 0.995485 -0.00985641
0.203739 4.84744 3.20449 -0.0674672 0.997677 0.00937188
0.554598 4.88517 4.37409 -0.102332 0.99458 -0.0184131
1.03841 4.93318 5.46193 -0.0640816 0.997193 -0.0224557
2.02434 4.99756 6.58104 0.00982633 0.999944 -0.00395367
3.07259 5.00138 7.39631 0.0344231 0.999124 -0.0238164
4.052 4.91309 8.10561 0.149719 0.988706 0.00672134
5.16134 4.72293 8.43568 0.180753 0.983273 -0.0224049
6.25407 4.47163 8.54207 0.270601 0.961736 -0.0428715
6.37929 4.39194 7.4649 0.266936 0.962969 -0.0378931
7.84167 3.94297 7.38024 0.303735 0.952265 -0.0305968
8.95514 3.51605 6.92143 0.358887 0.933373 -0.00382212
9.95588 3.10276 6.34793 0.386115 0.92241 0.0086313
10.6852 2.77626 5.63526 0.414151 0.910161 -0.00920059
11.1791 2.53097 4.5928 0.422537 0.906271 -0.0115509
11.4945 2.36719 3.45135 0.428695 0.903383 -0.0108852
11.4681 2.36761 2.01637 0.438135 0.898855 -0.00734573
11.1645 2.51108 0.964329 0.426272 0.904436 -0.0169566
10.427 2.83774 0.130897 0.418321 0.908066 -0.0205985
9.69009 3.15967 -0.696187 0.419777 0.907443 -0.0182254
8.36492 3.69187 -1.39722 0.363548 0.931553 0.00645987
7.27528 4.0779 -1.66054 0.294852 0.955541 0.00168076
6.09825 4.41228 -1.82832 0.246541 0.969109 0.0066569
4.88623 4.66193 -1.83035 0.135924 0.990713 -0.00343465
3.80646 4.8132 -1.50822 0.137904 0.990402 -0.00930115
2.69247 4.92511 -1.00343 0.0513669 0.998349 -0.0256864
1.87391 4.96716 -0.0579035 0.0159231 0.999849 0.00699391
1.34297 4.95423 1.0077 -0.0251793 0.999508 0.0187053
1.20864 4.93022 2.22174 -0.0689886 0.997423 0.0196894
1.40833 4.94944 3.52662 -0.0990527 0.994665 -0.0288102
1.85401 4.97638 4.69002 -0.00532146 0.999796 -0.0195095
2.49821 4.99282 5.60503 0.0030714 0.999972 -0.00688422
3.6581 4.94284 6.42751 0.05181 0.998179 -0.030878
4.58559 4.83845 7.19891 0.151687 0.988378 0.00944943
6.17059 4.44882 7.44004 0.266936 0.962969 -0.0378931
-6.93471 3.5524 -17.8545 -0.38388 0.923042 0.0178172
-5.56654 4.06174 -18.0992 -0.327157 0.943849 0.0460161
-4.38653 4.44368 -18.2695 -0.272882 0.960584 0.053052
-3.07114 4.79273 -18.2847 -0.225068 0.973978 0.0203416
-1.71253 5.06812 -18.3375 -0.15227 0.986391 0.0372871
-0.417021 5.16155 -18.3265 -0.0153898 0.998059 0.0226747
1.07505 5.10036 -18.2545 0.0303757 0.999197 0.0146459
2.60446 4.9751 -18.3233 0.123914 0.991551 0.00778684
3.86515 4.75769 -18.3214 0.196274 0.980084 0.0135713
5.09676 4.40793 -18.3261 0.302504 0.953052 -0.0135503
6.51935 3.94676 -18.2904 0.314687 0.949165 -0.00755957
7.57216 3.56071 -18.2363 0.356591 0.933993 -0.022349
8.61883 3.14785 -18.0586 0.389995 0.920504 -0.024007
10.1628 2.47132 -17.6473 0.423252 0.905671 -0.0248675
11.1849 1.99671 -17.5521 0.430453 0.902096 -0.030548
12.1816 1.51641 -17.1252 0.450521 0.892264 -0.0299347
11.5338 1.87535 -15.8504 0.437223 0.899024 -0.0233692
11.0033 2.16061 -14.7847 0.433987 0.900422 -0.0299219
10.669 2.35284 -13.7355 0.426255 0.904214 -0.0265393
10.4581 2.49172 -12.3511 0.425882 0.904424 -0.0253404
10.3525 2.57853 -11.1211 0.412022 0.910799 -0.0261504
10.2568 2.66059 -9.85023 0.403221 0.914338 -0.0373986
10.3973 2.64265 -8.72982 0.413172 0.910216 -0.0269056
10.881 2.46442 -7.03248 0.420525 0.906941 -0.0248364
11.2037 2.35296 -5.88447 0.426445 0.904116 -0.0220281
11.5225 2.2233 -4.75142 0.425836 0.904792 -0.0039375
11.9535 2.03694 -3.40996 0.437982 0.898799 -0.0182076
12.3869 1.83903 -2.41249 0.463022 0.886076 -0.0213778
12.9996 1.55015 -1.11087 0.467768 0.883618 -0.0203086
12.6217 1.75714 -0.378071 0.457046 0.889175 -0.0218363
11.9042 2.10977 -1.25641 0.443541 0.896071 -0.0180925
11.1735 2.44629 -2.05245 0.429005 0.903166 -0.0156843
10.2129 2.87099 -2.99189 0.417301 0.908601 -0.017453
9.01912 3.37285 -3.48062 0.386049 0.922239 -0.0210217
8.01661 3.77163 -3.64754 0.361053 0.93205 -0.0288947
6.97673 4.10602 -3.90712 0.315142 0.948138 -0.0414744
5.69162 4.4726 -4.04326 0.241965 0.969504 -0.0389131
4.36307 4.73113 -3.98702 0.182622 0.983038 -0.0168762
3.19041 4.88637 -3.67818 0.109045 0.993992 0.00939149
1.88984 4.92342 -3.10064 -0.00132055 0.999454 0.0311333
1.26988 4.92497 -3.36676 -0.00335335 0.999634 0.0231117
1.27053 4.95474 -4.63179 -0.0504248 0.998692 0.00818783
1.08624 4.97052 -5.87956 -0.037282 0.998961 0.0262204
0.76172 4.97792 -7.06546 -0.0360114 0.999338 0.00508082
0.397114 4.96442 -8.24169 -0.0420461 0.999111 -0.00309815
-0.138464 4.94814 -9.42826 -0.0613754 0.997814 0.0245018
-0.936305 4.90903 -10.5535 -0.120932 0.992239 0.0289204
-1.83902 4.80379 -11.2249 -0.140944 0.989361 0.0360584
-2.87046 4.64112 -11.731 -0.21012 0.977541 0.0162064
-4.01421 4.37432 -12.3266 -0.237454 0.970483 0.0341548
-5.04593 4.07091 -12.7513 -0.308542 0.950124 0.0454622
-6.12088 3.69975 -13.0116 -0.365073 0.929619 0.050298
-7.12655 3.29545 -13.0976 -0.387882 0.921356 0.0255252
-8.29669 2.79035 -13.0082 -0.402663 0.915069 0.0226336
-9.65767 2.16466 -12.8591 -0.425451 0.904539 0.0282969
-10.8145 1.60326 -12.727 -0.446759 0.894237 0.0273128
-11.5503 1.27495 -14.0805 -0.462293 0.886254 0.0289516
-11.4537 1.3607 -15.1866 -0.457771 0.888721 0.0243166
-10.6357 1.79832 -16.2166 -0.437576 0.898884 0.0231344
-9.83612 2.20783 -16.9483 -0.436762 0.89923 0.0248337
-8.603 2.80751 -17.5715 -0.409752 0.911898 0.0232206
-7.58684 3.26758 -17.7892 -0.403239 0.914759 0.0238846
-7.08089 3.48845 -17.8363 -0.397834 0.917063 0.0268972
-7.27288 3.42814 -18.9211 -0.384909 0.922765 0.00929781
-6.23036 3.84711 -19.0789 -0.375331 0.926764 0.0153203
-4.97125 4.30849 -19.3649 -0.321586 0.946709 0.0180138
-3.74888 4.6627 -19.3742 -0.271345 0.962216 0.0226526
-2.44914 4.96328 -19.4037 -0.203411 0.977969 0.0469015
-1.09615 5.17481 -19.4347 -0.0980541 0.994994 0.0193164
0.213867 5.20874 -19.3975 0.0159571 0.997684 0.0633025
1.69223 5.08584 -19.3891 0.0951557 0.994964 0.0307772
3.06506 4.90832 -19.4833 0.152125 0.988159 0.00314689
4.1882 4.65296 -19.4045 0.246721 0.968606 -0.0204199
5.25396 4.34556 -19.3658 0.304764 0.952387 -0.00880802
6.34526 3.99528 -19.4376 0.327615 0.944499 -0.00223423
7.69848 3.49381 -19.3665 0.365814 0.930526 -0.0168837
9.00507 2.94658 -19.1749 0.402572 0.915329 -0.0104488
10.1757 2.43185 -18.8647 0.425631 0.904475 -0.0273783
11.4043 1.85674 -18.6095 0.43169 0.901562 -0.0287954
12.7854 1.17228 -18.1894 0.459034 0.887972 -0.0281617
13.4951 0.835135 -17.3585 0.459696 0.887475 -0.032611
13.0682 1.0961 -16.2114 0.453171 0.890924 -0.0297028
12.4535 1.43776 -15.2593 0.445449 0.894848 -0.0282866
11.8047 1.79338 -14.1421 0.442817 0.896149 -0.0287949
11.5386 1.95802 -13.0035 0.436845 0.899113 -0.0276054
11.3799 2.07694 -11.7244 0.438126 0.898448 -0.0289071
11.2773 2.15943 -10.5515 0.43332 0.900644 -0.0319892
11.2401 2.2265 -9.4028 0.423156 0.905453 -0.0330767
11.5511 2.11828 -8.20394 0.424241 0.90511 -0.0281963
11.9254 1.97482 -6.96997 0.440214 0.897571 -0.0240304
12.3256 1.80566 -5.73854 0.455106 0.8902 -0.0205349
12.6162 1.67859 -4.60778 0.45733 0.88919 -0.0137696
13.0036 1.49638 -3.58357 0.462564 0.886438 -0.0161868
13.4124 1.30182 -2.58474 0.466244 0.884525 -0.0143766
13.8936 1.06919 -1.36496 0.473241 0.880737 -0.0179292
14.1256 0.968941 -0.00218467 0.472333 0.881252 -0.0169523
14.1432 0.989584 1.40559 0.470279 0.882331 -0.0181882
14.0422 1.06526 2.58932 0.475534 0.879607 -0.0125899
13.9593 1.12594 3.81285 0.471986 0.881561 -0.00892532
14.0372 1.09287 5.06377 0.463744 0.885957 -0.00442825
13.9801 1.13196 6.4775 0.468299 0.883542 -0.00522864
14.0607 1.09005 7.57462 0.470563 0.88236 0.00333935
14.2543 0.984287 8.82518 0.468725 0.883344 -0.000298804
14.3665 0.925196 10.0061 0.475601 0.87966 0.0014304
14.3865 0.91266 11.213 0.47581 0.879547 0.00113346
14.4743 0.857211 12.712 0.479288 0.877637 0.00576072
14.646 0.757788 13.9073 0.482001 0.876163 0.00373522
14.5078 0.828589 15.0613 0.482276 0.87601 0.00399401
14.2604 0.961545 16.1487 0.473614 0.880724 0.00392122
13.6833 1.26433 17.0116 0.469574 0.882838 0.00987361
12.8088 1.72001 17.8332 0.462858 0.886412 0.00598951
12.0545 2.10711 18.5577 0.454813 0.89056 0.00694509
10.9783 2.63284 19.1528 0.428444 0.903478 0.0066601
9.98801 3.08812 19.3655 0.412027 0.911091 0.00898814
8.62532 3.68318 19.4268 0.383615 0.92341 0.0104334
7.52383 4.11621 19.4663 0.345333 0.938432 0.00950101
6.4259 4.49625 19.4993 0.307838 0.951319 -0.0150849
5.22156 4.81531 19.482 0.238972 0.970727 -0.0102809
3.76893 5.06736 19.4643 0.154555 0.987956 0.00434041
2.2327 5.20203 19.4764 0.0677985 0.996284 -0.0486164
0.815309 5.19867 19.4534 -0.0226881 0.998297 -0.0479721
-0.358112 5.09793 19.4742 -0.101138 0.994243 -0.0353886
-1.50871 4.90341 19.4026 -0.272443 0.96187 -0.0239491
-2.62585 4.58523 19.4178 -0.282197 0.959038 -0.0230568
-3.89682 4.17656 19.3459 -0.339559 0.940251 -0.0250728
-5.19984 3.66393 19.2139 -0.383941 0.923012 -0.0252745
-6.34344 3.1683 19.2036 -0.408952 0.912439 -0.0144589
-7.36729 2.70458 19.1787 -0.422313 0.906376 -0.0115338
-8.57914 2.12976 19.1212 -0.43077 0.902425 -0.00820427
-9.77564 1.54398 18.915 -0.445801 0.895119 -0.00358956
-10.7681 1.04522 18.3766 -0.445931 0.895065 -0.000483789
-11.3567 0.756344 17.0885 -0.440369 0.897811 0.00197051
-11.2468 0.804488 16.0032 -0.442241 0.896859 -0.00811912
-11.1374 0.841943 14.5206 -0.445896 0.895026 -0.00992884
-11.0387 0.880278 13.173 -0.446635 0.894693 -0.0063941
-11.1265 0.834381 11.9622 -0.448457 0.893798 0.00202488
-11.2685 0.769932 10.7465 -0.44759 0.894229 0.00339791
-11.2881 0.765038 9.60688 -0.447349 0.894293 0.0109198
-11.3661 0.739295 8.14908 -0.448288 0.893863 0.00682783
-11.2273 0.822247 6.83091 -0.438848 0.898523 0.00828811
-9.96055 1.43785 6.53677 -0.430613 0.902523 0.00501308
-8.86134 1.94717 6.58011 -0.414106 0.910208 0.00612516
-7.77883 2.42449 6.47762 -0.399761 0.916615 0.00266742
-6.41028 3.00189 6.09698 -0.37541 0.926677 -0.0044604
-5.40225 3.38919 5.6642 -0.360174 0.932883 -0.002122
-4.28514 3.80024 5.06814 -0.323362 0.946026 -0.00140771
-3.54589 4.03135 4.2915 -0.298057 0.954486 -0.0108777
-2.68115 4.27305 3.38703 -0.269166 0.962945 0.0117695
-2.07041 4.44434 2.42722 -0.259281 0.965733 0.0111272
-1.37626 4.62112 1.33733 -0.213181 0.976743 -0.00777285
-0.587274 4.7445 0.0753894 -0.148664 0.98863 0.0116426
-0.256089 4.81617 -1.07737 -0.134414 0.990016 0.0190653
0.0167135 4.84442 -2.19012 -0.101579 0.994812 0.00561335
0.157973 4.85847 -3.29868 -0.0946494 0.995493 0.00310202
0.203728 4.87392 -4.46574 -0.0939412 0.995508 0.0117449
-0.0432792 4.9144 -6.01508 -0.0669927 0.997174 0.0315143
-0.402382 4.90084 -7.21321 -0.12624 0.991948 -0.00249779
-0.865836 4.84472 -8.32182 -0.0982904 0.995098 0.0108809
-1.40966 4.81536 -9.44091 -0.121798 0.991983 0.0336911
-2.19911 4.72086 -10.2133 -0.197302 0.979024 0.048849
-3.55925 4.44513 -10.9027 -0.2439 0.968671 0.0466133
-4.71395 4.12551 -11.4863 -0.29964 0.952975 0.0438038
-5.8577 3.74563 -11.8993 -0.357273 0.93257 0.0511346
-7.24405 3.21424 -11.9796 -0.357061 0.933146 0.041604
-8.49984 2.66925 -11.8687 -0.399412 0.916207 0.0321502
-9.55237 2.18185 -11.7487 -0.423893 0.905342 0.0257749
-10.6065 1.66855 -11.625 -0.442138 0.89626 0.0351088
-11.5002 1.2079 -11.1489 -0.446926 0.894039 0.0308332
-12.214 0.865328 -11.5723 -0.449519 0.892839 0.0274714
-12.356 0.823749 -12.7171 -0.456804 0.88931 0.0213652
-12.4566 0.797099 -13.8066 -0.462859 0.886156 0.0216728
-12.6032 0.757316 -15.2257 -0.472239 0.881122 0.0239553
-11.8078 1.21352 -16.4496 -0.460166 0.887427 0.0257245
-10.9673 1.66845 -17.4561 -0.445331 0.895017 0.0234227
-9.86607 2.23745 -18.2681 -0.43556 0.899575 0.0320003
-8.87048 2.71053 -18.6534 -0.421281 0.90678 0.0164801
-7.84958 3.1759 -18.8603 -0.403907 0.914621 0.0160945
-7.83093 3.18406 -18.8628 -0.399904 0.916512 0.00911045
-7.9011 3.16537 -19.9383 -0.398748 0.916985 0.0117497
-6.76641 3.6504 -20.0863 -0.37698 0.925877 0.0252649
-5.66771 4.09403 -20.4007 -0.341259 0.939549 0.017614
-4.34392 4.5408 -20.5362 -0.266452 0.962509 0.0507966
-3.29939 4.8251 -20.4367 -0.266846 0.962415 0.0504997
-2.10839 5.08263 -20.5311 -0.181826 0.98287 0.0300973
-0.938104 5.26778 -20.5328 -0.0680673 0.996963 0.0189098
0.178092 5.26 -20.5392 0.05939 0.998086 0.0130226
1.56661 5.1534 -20.554 0.127509 0.990881 0.043553
2.97655 4.92298 -20.6247 0.203447 0.979077 -0.00432038
4.12868 4.65936 -20.5292 0.257757 0.966197 -0.00488687
5.22264 4.3481 -20.3893 0.284263 0.958725 0.00637853
6.26075 4.01264 -20.4746 0.314145 0.949354 0.00623065
7.52478 3.55776 -20.4918 0.357033 0.934092 0.000471153
8.54485 3.14005 -20.3472 0.399519 0.916687 0.000840582
9.64514 2.65767 -20.1647 0.400566 0.916249 -0.0059031
10.9065 2.06375 -19.8781 0.429778 0.9029 -0.00790994
11.8625 1.60087 -19.5454 0.443572 0.896185 -0.00982911
12.8583 1.09929 -19.3505 0.457135 0.889052 -0.0247927
13.9088 0.567924 -18.775 0.465881 0.884325 -0.0298416
14.4386 0.332304 -17.7265 0.461835 0.886263 -0.03529
14.3844 0.414708 -16.3592 0.460853 0.886686 -0.0374528
13.7474 0.783746 -15.2499 0.453744 0.890585 -0.0312149
13.0588 1.16523 -14.2563 0.449713 0.892722 -0.0283823
12.5341 1.47113 -12.935 0.444547 0.895312 -0.0281578
12.3358 1.60493 -11.8286 0.446131 0.894459 -0.030152
12.3103 1.65601 -10.6942 0.435502 0.899747 -0.0281612
12.2055 1.74421 -9.60356 0.441523 0.896509 -0.0364103
12.5244 1.62592 -8.44049 0.455578 0.889717 -0.0292103
12.7891 1.52677 -7.34608 0.457007 0.889109 -0.0251035
13.1489 1.37118 -6.28711 0.459204 0.888064 -0.0217518
13.457 1.23236 -5.21764 0.468219 0.883516 -0.0128701
13.8402 1.04637 -4.1787 0.470978 0.882027 -0.0141808
14.2567 0.840061 -3.1657 0.476814 0.878832 -0.0173808
14.6648 0.63732 -2.08666 0.479679 0.877288 -0.0164182
15.1056 0.417331 -1.06452 0.478607 0.877862 -0.0171633
15.1164 0.445082 0.486724 0.478286 0.877967 -0.0204066
15.0912 0.486982 1.86405 0.478026 0.878186 -0.0164717
15.044 0.529815 3.03574 0.476031 0.879335 -0.0127993
14.9542 0.593362 4.46852 0.47808 0.878303 -0.0047009
14.9727 0.590271 5.55626 0.476446 0.879179 -0.00652828
14.9973 0.584107 6.70749 0.473994 0.880512 -0.00535145
15.1286 0.516705 7.9924 0.472227 0.881477 0.000908605
15.2837 0.432932 9.22142 0.473581 0.88075 -0.000268704
15.3385 0.400763 10.5092 0.4737 0.880681 0.00304376
15.367 0.377154 11.633 0.477355 0.878693 0.0055725
15.4658 0.314358 12.7926 0.486696 0.873331 0.0157707
15.5083 0.27934 14.1108 0.489655 0.871873 0.00545108
15.4898 0.288259 15.3447 0.482821 0.875718 0.000958661
15.2384 0.440706 16.7107 0.466639 0.884369 -0.0118132
14.5244 0.806963 17.6803 0.473658 0.880666 0.008689
13.5749 1.31522 18.4873 0.474911 0.880024 0.00411851
12.8676 1.68447 19.3062 0.463664 0.885992 0.00584409
11.861 2.19582 20.0394 0.453188 0.891406 0.00403465
10.8956 2.66495 20.3343 0.423712 0.905791 0.00335365
9.73658 3.19558 20.6113 0.40915 0.912456 0.00300397
8.37697 3.77419 20.5495 0.374053 0.927406 0.00175477
7.35685 4.17746 20.5579 0.355712 0.934568 -0.00720604
6.27794 4.56399 20.5856 0.303105 0.952673 -0.0230972
5.20055 4.84462 20.5685 0.221302 0.975026 -0.0186987
3.77786 5.0971 20.562 0.128075 0.991349 -0.028711
2.30339 5.24246 20.6003 0.0487572 0.99805 -0.0389652
1.09291 5.24926 20.5933 -0.0424573 0.99852 -0.0339798
-0.16395 5.14047 20.6106 -0.125007 0.992156 -0.000547792
-1.2967 4.97377 20.4958 -0.177462 0.983911 -0.0195614
-2.58872 4.62462 20.5138 -0.290949 0.956134 -0.0335618
-3.72488 4.26396 20.5712 -0.336464 0.941534 -0.0174733
-5.18152 3.6998 20.4271 -0.387626 0.92165 -0.016966
-6.27432 3.22028 20.297 -0.409074 0.91228 -0.0200832
-7.52011 2.64932 20.2933 -0.420115 0.90735 -0.0148086
-8.57312 2.14342 20.2822 -0.437681 0.899071 -0.00673818
-9.99849 1.43029 20.0591 -0.452711 0.891657 0.00114117
-10.9461 0.9496 19.6971 -0.454284 0.890847 0.00418083
-11.7815 0.528064 19.1369 -0.457522 0.889181 0.00562271
-12.2775 0.31016 17.5977 -0.437034 0.89917 0.0168855
-12.3258 0.285164 16.2813 -0.430758 0.902421 -0.00915817
-12.1549 0.340519 15.1827 -0.45728 0.889265 -0.00736526
-12.0726 0.366808 14.0729 -0.453184 0.891314 -0.0135348
-12.0201 0.380575 12.931 -0.457107 0.889371 -0.00845556
-12.1356 0.324286 11.6721 -0.455331 0.890219 0.0135522
-12.2128 0.297084 10.1592 -0.451816 0.892105 0.00308748
-12.1652 0.329997 8.88881 -0.452609 0.89165 0.0102482
-12.317 0.279906 7.41825 -0.444933 0.895335 0.0198848
-12.182 0.363563 6.25835 -0.438996 0.898397 0.0128877
-11.7649 0.582529 5.20054 -0.442108 0.896908 0.00745605
-10.8092 1.04673 5.16151 -0.436011 0.899856 0.0123764
-9.48828 1.67351 5.39409 -0.421627 0.906656 0.00950053
-8.4277 2.1494 5.43519 -0.401731 0.915634 0.0150645
-7.37612 2.59785 5.39051 -0.384998 0.922843 0.0117088
-6.22797 3.07549 4.82682 -0.374582 0.927188 0.00337358
-5.27857 3.43913 4.41762 -0.339423 0.940623 0.0045054
-4.45982 3.737 3.75485 -0.338147 0.941089 0.00275562
-3.69385 3.98565 2.86547 -0.298563 0.953928 0.0211581
-3.10417 4.17266 1.92644 -0.269166 0.962945 0.0117694
-2.4794 4.35858 0.982529 -0.247616 0.968858 -0.000834086
-1.79734 4.51571 -0.124292 -0.211635 0.977199 0.0171066
-1.37836 4.62612 -1.20147 -0.184995 0.982473 0.0228785
-1.09581 4.6938 -2.31736 -0.182858 0.983124 0.00542604
-0.969902 4.74325 -3.45614 -0.135214 0.99054 0.0120827
-0.863528 4.77985 -4.7394 -0.0872188 0.996118 0.0118997
-1.12158 4.77286 -5.8035 -0.1627 0.986183 0.031177
-1.4221 4.75195 -6.91232 -0.169638 0.985348 0.0162512
-1.85697 4.71579 -8.02135 -0.18081 0.982776 0.035338
-2.36317 4.64606 -9.08401 -0.152142 0.987643 0.027405
-3.53798 4.39582 -9.65118 -0.267437 0.962052 0.0427277
-4.67532 4.07488 -10.3269 -0.290863 0.955365 0.0517429
-5.99372 3.63793 -10.8188 -0.347877 0.93656 0.0428624
-7.36434 3.11225 -10.8466 -0.37666 0.925324 0.0436244
-8.48197 2.62994 -10.7718 -0.409723 0.910849 0.0492133
-9.47484 2.17349 -10.7296 -0.425166 0.904286 0.0386749
-10.5869 1.63546 -10.4527 -0.429265 0.902364 0.0383469
-11.553 1.14439 -9.95545 -0.443563 0.895803 0.0280713
-12.4398 0.690146 -9.5009 -0.448446 0.893391 0.0270522
-13.2523 0.292423 -9.98845 -0.45169 0.89179 0.0261931
-13.2731 0.326317 -11.4307 -0.448619 0.893538 0.0181815
-13.3486 0.30676 -12.5604 -0.468663 0.883207 0.0173084
-13.3845 0.310556 -13.7065 -0.46903 0.883005 0.0176966
-13.5693 0.243961 -15.1029 -0.463246 0.886043 0.0182079
-13.3954 0.359311 -16.1889 -0.47675 0.878677 0.0252051
-12.6103 0.811648 -17.1197 -0.464845 0.884929 0.0286361
-11.9707 1.17143 -17.9316 -0.461651 0.88671 0.0249736
-11.2107 1.5795 -18.6444 -0.448501 0.893369 0.0271804
-10.4285 1.99275 -19.2875 -0.448262 0.893711 0.0177552
-9.33731 2.51701 -19.6966 -0.416435 0.909069 0.0132747
-8.43226 2.93315 -19.8412 -0.398747 0.916986 0.0117496
-9.49299 2.35787 -16.4002 -0.434314 0.900403 0.0254087
-10.3145 1.9319 -15.3969 -0.43646 0.899349 0.0259639
-11.0286 1.55376 -14.5163 -0.444184 0.895496 0.0280598
-10.7634 1.65165 -13.4813 -0.446167 0.8945 0.0283563
-10.026 2.03787 -14.388 -0.425417 0.904607 0.0265933
-9.10299 2.51624 -15.513 -0.42173 0.906081 0.0340747
-8.35238 2.88898 -16.4146 -0.411436 0.911123 0.0239744
-7.78695 3.1607 -17.085 -0.401097 0.915714 0.0242823
-6.41693 3.73814 -17.3283 -0.339467 0.940271 0.0255464
-7.25182 3.37503 -16.3648 -0.403144 0.914757 0.0263443
-8.13705 2.94972 -15.3158 -0.407388 0.912599 0.0346192
-9.12176 2.45537 -14.1303 -0.412645 0.910086 0.0383063
-9.52387 2.25159 -13.6415 -0.425005 0.904763 0.0278387
-8.38008 2.7699 -13.6648 -0.402663 0.915069 0.0226336
-7.53667 3.18933 -14.6741 -0.401581 0.914734 0.0446644
-6.71759 3.57096 -15.6367 -0.3625 0.931446 0.0316638
-5.78594 3.94534 -16.6957 -0.347305 0.937427 0.0247079
-5.19117 4.17256 -17.3647 -0.322586 0.946356 0.0186566
-3.86397 4.56986 -17.4791 -0.269351 0.96301 -0.00790548
-4.7129 4.30924 -16.5558 -0.311565 0.949901 0.0248143
-5.59318 3.98442 -15.573 -0.327054 0.944733 0.0226861
-6.58567 3.58504 -14.4429 -0.380986 0.923668 0.0410849
-7.28165 3.25284 -13.6214 -0.392551 0.918533 0.046911
-6.07454 3.75347 -13.6868 -0.366816 0.929113 0.0468513
-5.0944 4.14198 -14.7978 -0.327565 0.944629 0.0194058
-4.11293 4.49899 -15.8901 -0.281259 0.959573 0.0106302
-2.97359 4.79718 -17.1057 -0.227289 0.973758 0.0116249
-2.51436 4.90054 -17.5894 -0.213324 0.976962 0.00623836
-1.33662 5.08963 -17.4951 -0.0896304 0.995975 0.00011118
-2.36751 4.90298 -16.4187 -0.174025 0.983957 0.0392846
-3.22769 4.71075 -15.5121 -0.200315 0.979724 0.00390385
-4.32193 4.38226 -14.3224 -0.311008 0.949546 0.0404584
-4.92699 4.15237 -13.6483 -0.308938 0.950046 0.044385
-4.08206 4.39225 -13.251 -0.28045 0.959309 0.0327686
-3.16523 4.68347 -14.2487 -0.22923 0.972053 0.0506669
-2.24337 4.89264 -15.227 -0.147492 0.988556 0.0316678
-1.38858 5.05362 -16.1206 -0.127011 0.99092 0.0441188
-0.287292 5.13466 -17.2536 0.0148502 0.999885 0.00323311
1.29125 5.08476 -17.5608 0.0741003 0.9972 0.0100762
0.437359 5.12203 -16.6756 0.0148508 0.999884 0.00323323
-0.439401 5.11515 -15.775 0.00845974 0.999815 0.017293
-1.56076 4.94912 -14.6108 -0.120292 0.991684 0.0457519
-2.46283 4.78343 -13.6634 -0.151673 0.987664 0.0389147
-3.19134 4.59902 -12.8867 -0.228292 0.971879 0.0577443
-2.38385 4.75802 -12.4203 -0.216498 0.975424 0.0409509
-1.52635 4.90858 -13.321 -0.117133 0.992504 0.0348759
-0.427522 5.06501 -14.4622 -0.0993603 0.994799 0.022422
0.780771 5.11382 -15.7079 -0.00932454 0.99994 0.00570062
1.72408 5.04592 -16.6863 0.0704616 0.99751 0.00294392
2.61712 4.95921 -17.6195 0.159341 0.987033 0.019414
3.91544 4.73397 -17.6712 0.222287 0.974808 0.0183707
2.89124 4.92168 -16.5829 0.15998 0.986907 -0.0205164
1.84292 5.03846 -15.4831 0.0957312 0.994967 -0.0296017
0.883794 5.10374 -14.4931 -0.0103372 0.999838 0.0147172
-0.250811 5.04256 -13.3207 -0.0524173 0.997888 0.038354
-1.14222 4.92085 -12.3938 -0.119289 0.99254 0.0252019
-1.7212 4.84118 -11.7904 -0.140945 0.989361 0.0360583
-0.752105 4.93816 -11.4756 -0.0700467 0.997195 0.0263807
0.154795 5.02529 -12.4142 -0.0685578 0.996941 0.0375295
1.04614 5.07991 -13.337 0.00673472 0.999583 0.028073
1.95301 5.06276 -14.2763 0.0957913 0.995033 -0.0270788
2.79952 4.94568 -15.1595 0.155193 0.987873 0.00479963
3.87815 4.73561 -16.3072 0.206527 0.978438 0.00237091
4.77662 4.52002 -17.2774 0.300198 0.953863 -0.00522402
5.12661 4.40775 -17.6655 0.301209 0.953513 -0.0093074
6.32379 4.01646 -17.6797 0.311869 0.949651 -0.0300257
5.45738 4.3324 -16.6968 0.283728 0.958386 -0.0315363
4.57835 4.57802 -15.7342 0.233486 0.972211 -0.0170054
3.58807 4.81941 -14.6684 0.155432 0.987745 -0.0141594
2.72838 4.96877 -13.7639 0.143152 0.989699 -0.00193292
1.85539 5.05438 -12.8498 0.0606014 0.997793 0.0271357
0.864586 5.04141 -11.8248 -0.00404753 0.999988 0.00293429
-0.295429 4.95945 -10.6267 -0.05978 0.998148 0.0112971
0.295567 4.9868 -9.91516 -0.06058 0.998003 0.0179
1.31545 5.04356 -10.9673 0.00263549 0.999925 -0.012002
2.20105 5.00396 -11.8841 0.0870277 0.996186 0.00622009
3.3591 4.85941 -13.1051 0.179972 0.983671 -0.000869832
4.20014 4.70042 -13.9979 0.217488 0.976029 0.00819859
5.1305 4.46582 -15.0007 0.269531 0.962934 -0.0105816
5.94549 4.20842 -15.906 0.295746 0.954928 -0.0254357
6.79655 3.89083 -16.8751 0.350055 0.936385 -0.0254086
7.42791 3.63084 -17.607 0.357565 0.933537 -0.0255908
8.32822 3.2903 -17.3175 0.390193 0.92011 -0.0338786
7.46954 3.65865 -16.3091 0.36037 0.932095 -0.036492
6.6162 4.01395 -15.3188 0.326011 0.945103 -0.022302
5.79714 4.2858 -14.4029 0.271547 0.962103 -0.0248988
4.77003 4.57742 -13.2826 0.20825 0.978051 -0.00688041
3.92533 4.75741 -12.3766 0.199725 0.979851 -0.00120404
3.07397 4.8938 -11.4737 0.125227 0.992128 0.000670132
2.19351 5.00718 -10.5519 0.0920684 0.995721 -0.00791536
1.18424 5.02093 -9.51332 -0.0427678 0.998912 0.0185831
0.722064 4.98671 -9.03692 -0.0574357 0.998291 0.0107828
1.0327 4.99376 -8.03483 -0.0461409 0.99885 0.0130609
2.00867 5.02203 -9.04133 0.0152791 0.999711 -0.0185636
2.88343 4.92906 -9.94952 0.109852 0.993575 -0.0272418
3.83558 4.76617 -10.953 0.185733 0.982484 0.0151466
4.85496 4.55791 -12.0444 0.233726 0.972296 0.00359275
5.8869 4.28593 -13.169 0.276792 0.960909 -0.00629722
6.86423 3.94831 -14.2628 0.353429 0.935303 -0.0172213
7.7688 3.57945 -15.3115 0.375196 0.926779 -0.0175489
8.62591 3.19761 -16.3224 0.390674 0.920288 -0.0210633
9.20236 2.9332 -17.0081 0.40575 0.913598 -0.026559
10.2657 2.45052 -16.9487 0.418166 0.907821 -0.031596
9.5131 2.82317 -16.0287 0.395658 0.918156 -0.0210945
8.6649 3.20996 -15.0255 0.386904 0.921867 -0.0215899
7.87527 3.554 -14.0987 0.364864 0.930878 -0.0184405
7.10751 3.87355 -13.2088 0.350139 0.936635 -0.0108469
6.08643 4.21872 -12.0626 0.278924 0.960311 -0.00190751
5.10586 4.49767 -10.9867 0.210606 0.977459 -0.0147823
4.21231 4.71842 -10.0224 0.190827 0.980992 -0.0352043
3.06917 4.93954 -8.81835 0.128611 0.991375 -0.025187
2.16091 4.99339 -7.87699 0.0842484 0.996082 0.0268791
1.47024 4.98708 -7.16286 -0.00305806 0.999969 0.00729643
1.86627 4.99123 -6.24672 0.031144 0.999515 0.000647392
2.8445 4.92499 -7.26514 0.073646 0.997275 0.00429934
3.69849 4.84206 -8.15553 0.146363 0.989231 0.000361114
4.67332 4.65898 -9.17967 0.205328 0.977922 -0.0388329
5.5076 4.42688 -10.0891 0.254872 0.966426 -0.0325743
6.38486 4.14881 -11.0576 0.27246 0.96198 -0.0189548
7.17436 3.86433 -11.951 0.350609 0.936425 -0.0134959
7.99607 3.53277 -12.8994 0.364197 0.93125 -0.0115756
8.89409 3.13603 -13.9542 0.392461 0.919352 -0.0276924
9.66847 2.78187 -14.8709 0.409829 0.911894 -0.0221159
10.6147 2.31156 -16.0208 0.427458 0.903808 -0.020295
11.2829 1.97074 -16.8395 0.434057 0.900573 -0.0237361
10.0631 2.62546 -13.999 0.419621 0.90714 -0.0318593
9.22136 3.02271 -12.9969 0.395184 0.918379 -0.0202522
8.41382 3.38359 -12.0459 0.375823 0.926506 -0.0185564
7.58697 3.73533 -11.0851 0.367494 0.929211 -0.0389233
6.79465 4.04414 -10.1817 0.324164 0.945437 -0.0326509
5.9782 4.32679 -9.26872 0.265553 0.963468 -0.034784
5.08556 4.59544 -8.29195 0.245098 0.968601 -0.041703
4.22141 4.75183 -7.38672 0.151383 0.988114 0.0267111
3.11808 4.88583 -6.22289 0.135416 0.990724 -0.0113445
1.91135 4.97328 -4.96925 0.0131237 0.999621 0.0241938
2.35624 4.94773 -4.10448 0.0109027 0.999614 0.0255665
3.56338 4.84702 -5.3621 0.147915 0.988888 -0.0148665
4.60415 4.68325 -6.46155 0.16433 0.986389 0.00576166
5.51176 4.52993 -7.41906 0.18495 0.982738 -0.00445073
6.36499 4.23179 -8.36321 0.300151 0.953085 -0.0392256
7.29435 3.89449 -9.40886 0.326973 0.944748 -0.0232344
8.1673 3.52794 -10.4175 0.373105 0.927303 -0.0300258
8.97218 3.16447 -11.3625 0.386066 0.922168 -0.0236545
9.77456 2.79752 -12.3117 0.3969 0.917508 -0.0254697
9.73094 2.856 -10.9161 0.396121 0.918019 -0.0181269
8.95087 3.22191 -9.99196 0.38607 0.921719 -0.0372062
8.12068 3.58752 -9.0235 0.375766 0.92635 -0.0260068
7.20099 3.95697 -7.9697 0.328483 0.944105 -0.0276666
6.38121 4.27208 -7.04452 0.327671 0.944215 -0.0330156
5.24979 4.54398 -5.82201 0.192357 0.9802 0.0469807
4.31648 4.73146 -4.82566 0.187547 0.982253 -0.00232322
5.43838 4.50979 -4.69146 0.233775 0.972211 -0.0124331
6.52701 4.22939 -5.8775 0.308864 0.951097 -0.00406166
7.57944 3.84774 -7.06263 0.33861 0.940741 -0.0186944
8.4893 3.467 -8.11204 0.370908 0.928023 -0.0346589
9.413 3.05926 -9.19041 0.387894 0.921136 -0.0323526
9.55339 2.99092 -9.35783 0.402923 0.914503 -0.0365675
9.7281 2.95633 -8.21792 0.399527 0.916406 -0.0240405
8.84199 3.35747 -7.17774 0.37425 0.926512 -0.0388995
8.05622 3.70528 -6.26146 0.34729 0.937184 -0.0327857
6.86745 4.12115 -4.92417 0.313601 0.949553 -0.00196242
7.59492 3.89158 -4.40343 0.306828 0.951538 -0.0208012
8.40356 3.58939 -5.32138 0.359144 0.933214 -0.0112896
9.19542 3.23639 -6.24895 0.393483 0.919117 -0.0198937
9.96209 2.88184 -7.15328 0.408208 0.912668 -0.0200763
10.197 2.77065 -7.43205 0.414377 0.909828 -0.0224568
10.448 2.68125 -6.39266 0.408837 0.912365 -0.0210255
9.50637 3.12422 -5.274 0.394032 0.918895 -0.0192677
8.6665 3.49573 -4.2896 0.365573 0.930652 -0.0155938
8.576 3.53457 -4.18479 0.369257 0.928979 -0.0254439
9.65857 3.08502 -4.1134 0.392685 0.919234 -0.0284241
10.4442 2.71574 -5.04878 0.406575 0.913414 -0.0192496
10.6632 2.61278 -5.31023 0.407529 0.912939 -0.021515
11.0267 2.46902 -4.40236 0.438354 0.898634 -0.0173926
10.3093 2.81447 -3.54476 0.411867 0.910812 -0.0280467
11.0527 2.48366 -3.09453 0.428444 0.903376 -0.0186325
11.3049 2.35321 -3.40058 0.438863 0.898347 -0.0192757
11.6745 2.19231 -2.51192 0.439749 0.897831 -0.0228107
11.6638 2.1979 -2.49881 0.439749 0.897765 -0.0252764
-9.86872 1.46457 9.49589 -0.428173 0.903673 0.00652052
-9.00076 1.87711 8.43997 -0.415087 0.909764 0.00564076
-8.86862 1.93767 8.28114 -0.413946 0.910299 0.0020893
-7.68802 2.46719 8.22045 -0.404583 0.914501 -0.000304357
-8.53873 2.08602 9.23911 -0.417484 0.908682 -0.00221992
-9.465 1.6528 10.3619 -0.428771 0.903413 0.00111628
-9.82458 1.4816 10.8003 -0.428769 0.903413 0.00111444
-9.64484 1.56986 11.9351 -0.430457 0.902603 -0.00386539
-8.61174 2.0532 10.6818 -0.422805 0.90622 0.000732868
-7.78871 2.42996 9.69083 -0.416556 0.909104 -0.00340138
-6.84647 2.83364 8.57533 -0.391825 0.919919 -0.0149114
-6.23639 3.08216 7.86313 -0.369108 0.929333 -0.00993998
-4.15414 3.85349 6.8296 -0.322501 0.946545 -0.00682423
-5.04942 3.54068 7.84292 -0.34974 0.936729 -0.0148339
-5.96369 3.20695 8.88781 -0.372682 0.92774 -0.0201408
-6.96515 2.80056 10.0578 -0.403572 0.914922 -0.00682962
-7.83977 2.41287 11.1014 -0.412476 0.910956 -0.00472447
-8.69618 2.02319 12.1321 -0.425745 0.904828 -0.00534251
-9.37966 1.7019 12.9642 -0.43267 0.90154 -0.00466295
-9.27082 1.75685 14.1874 -0.432281 0.901735 -0.00278414
-8.42007 2.1545 13.1509 -0.415641 0.909501 -0.00703346
-7.55403 2.54467 12.1089 -0.409506 0.912305 -0.00210743
-6.62631 2.95062 11.0044 -0.391186 0.92026 -0.00969472
-5.73395 3.31544 9.96077 -0.370877 0.928621 -0.010593
-4.60526 3.72259 8.67369 -0.348223 0.937193 -0.0202569
-3.58414 4.06687 7.52618 -0.333123 0.9425 -0.0268905
-2.58245 4.34453 6.42732 -0.259952 0.965143 -0.030379
-1.54122 4.55485 5.31576 -0.213376 0.976641 -0.0253652
-1.06201 4.65664 4.79933 -0.186339 0.982485 -0.000366516
-0.837331 4.7166 5.90387 -0.150205 0.987938 -0.0376448
-1.91763 4.51734 7.0473 -0.217704 0.975585 -0.0289515
-3.03686 4.25549 8.254 -0.292202 0.955958 -0.0276184
-3.93671 3.97982 9.25059 -0.346029 0.938055 -0.0177766
-4.80362 3.67976 10.2322 -0.364791 0.931008 -0.012312
-5.76335 3.32062 11.3341 -0.376679 0.926272 -0.0115096
-6.93826 2.82343 12.7209 -0.410963 0.911635 -0.0055479
-7.8095 2.44244 13.7616 -0.420629 0.907158 -0.0116306
-8.91976 1.93065 15.1114 -0.437052 0.899365 -0.0113152
-9.66526 1.57945 16.0248 -0.438283 0.898799 -0.00829131
-9.4473 1.69516 17.1116 -0.439919 0.898 -0.00819515
-8.49979 2.14456 15.947 -0.430952 0.902358 -0.00553867
-7.62296 2.54527 14.8809 -0.415765 0.909175 -0.0232549
-6.50778 3.02255 13.5523 -0.408531 0.912675 -0.0112659
-5.49737 3.43071 12.369 -0.36581 0.930685 -0.00273761
-4.35054 3.8597 11.0523 -0.351571 0.936159 -0.00217631
-3.38148 4.17956 9.96301 -0.29009 0.956984 -0.00542315
-2.42476 4.43946 8.91671 -0.213757 0.976829 -0.0106655
-1.46004 4.648 7.88546 -0.212205 0.977078 -0.0169266
-0.543643 4.80739 6.92422 -0.145693 0.98747 -0.0606367
-0.247747 4.82322 6.62288 -0.129508 0.990333 -0.0496837
0.207398 4.94491 7.46515 -0.11672 0.992889 -0.0234249
-0.772652 4.78297 8.4909 -0.155463 0.98784 0.00189074
-1.80589 4.59206 9.58439 -0.205316 0.978165 -0.0322227
-2.80503 4.36732 10.6597 -0.292788 0.955935 -0.0215315
-3.78528 4.07573 11.7452 -0.342183 0.939625 -0.00405812
-4.95607 3.65496 13.082 -0.368056 0.929634 -0.0177356
-5.85453 3.3083 14.1254 -0.389189 0.921035 -0.0150755
-6.93768 2.86811 15.4019 -0.399383 0.916424 -0.0257048
-7.857 2.45264 16.5161 -0.427416 0.904043 -0.00461628
-8.44129 2.18048 17.2298 -0.429087 0.903237 -0.00685852
-7.4607 2.64443 17.3833 -0.427054 0.904205 -0.00613603
-6.6174 3.02563 16.3633 -0.404262 0.914609 -0.00790043
-5.75197 3.373 15.3447 -0.383007 0.923466 -0.022723
-4.8347 3.72517 14.2776 -0.359981 0.932891 -0.0113252
-3.81933 4.08344 13.117 -0.344297 0.93863 -0.020827
-2.90748 4.373 12.0962 -0.275163 0.961104 -0.0237557
-1.9517 4.59546 11.0633 -0.240648 0.970596 -0.0057322
-0.765122 4.7977 9.81461 -0.181827 0.98295 -0.0273399
0.38666 4.96475 8.608 -0.122228 0.992437 0.0113927
1.06834 5.04751 7.90553 -0.0455693 0.998923 0.00875991
1.79474 5.06071 8.48785 -0.0134912 0.999815 -0.0136946
0.496949 4.95662 9.82977 -0.0830129 0.996523 -0.00707055
-0.583872 4.85138 10.9523 -0.124558 0.992076 -0.0164265
-1.57502 4.71141 11.9912 -0.20455 0.97848 -0.0271307
-2.52537 4.49532 13.0135 -0.251163 0.967832 -0.0147929
-3.56805 4.18592 14.1704 -0.315395 0.94896 -0.00115818
-4.64131 3.81197 15.3961 -0.353878 0.935174 -0.0148112
-5.57387 3.46133 16.4778 -0.368032 0.929774 -0.00856302
-6.34465 3.15047 17.3853 -0.396062 0.918216 -0.00389279
-4.93987 3.7192 17.0809 -0.369534 0.92911 -0.0141139
-3.71689 4.16944 15.6709 -0.337341 0.941149 -0.0209889
-2.78299 4.44465 14.6326 -0.271717 0.96228 -0.0137154
-1.68323 4.71555 13.4431 -0.210664 0.977462 -0.0137366
-0.664371 4.8715 12.3687 -0.158738 0.986904 -0.0286852
0.527496 4.99386 11.1304 -0.129291 0.991163 -0.0296479
1.75682 5.06181 9.86308 -0.0830135 0.996523 -0.00707105
2.25014 5.05455 9.35619 0.0553505 0.997984 0.0310411
3.13255 5.01708 9.7826 0.0606176 0.998017 -0.0169505
2.11912 5.08542 10.8229 0.0371782 0.998705 -0.0347298
1.06721 5.07757 11.9044 -0.0747485 0.996434 -0.039137
-0.0462433 4.98773 13.0589 -0.155873 0.987183 -0.0342598
-1.29653 4.81287 14.3661 -0.199095 0.979151 -0.0402928
-2.32263 4.58492 15.4647 -0.245858 0.969285 -0.00639577
-3.29256 4.32586 16.5299 -0.290884 0.956287 -0.0300281
-4.08969 4.06347 17.4305 -0.346252 0.937957 -0.0185848
-2.93129 4.45786 17.4605 -0.285372 0.958299 -0.0150429
-1.58906 4.76881 16.0038 -0.240495 0.97064 -0.00440642
-0.211039 5.01415 14.5507 -0.138028 0.990292 -0.0164037
0.84619 5.11208 13.4571 -0.0529378 0.998595 -0.00254014
1.82518 5.13734 12.4582 -0.019483 0.999582 -0.0213614
3.13376 5.06844 11.1134 0.030275 0.998303 -0.049741
4.06647 4.95089 10.1521 0.201498 0.978618 -0.0412992
4.30828 4.90745 9.8989 0.160078 0.986896 -0.0202566
5.18077 4.75962 10.3062 0.220911 0.974823 0.0303212
4.26851 4.9377 11.2661 0.169216 0.985504 -0.0121487
3.14315 5.09494 12.4415 0.0880606 0.996115 0.000157586
2.07235 5.17483 13.5415 -0.0374237 0.999171 -0.0159979
1.13371 5.13628 14.4959 -0.0525076 0.998509 -0.0149401
0.128467 5.07772 15.5314 -0.147533 0.989054 0.00236519
-0.912389 4.90836 16.6222 -0.164632 0.986266 -0.013249
-1.86593 4.74099 17.6359 -0.25081 0.967777 -0.022391
-0.679155 4.98083 17.7078 -0.185445 0.979532 -0.0782783
0.595238 5.12515 16.3833 -0.100534 0.994813 0.0154609
1.5889 5.16747 15.3631 -0.0447656 0.998991 -0.00355493
2.58458 5.19041 14.3491 0.0173707 0.999736 -0.0150714
3.54478 5.08188 13.3627 0.129944 0.991225 -0.0242507
4.46595 4.91495 12.3989 0.157836 0.987243 -0.0209321
5.82856 4.61091 10.9491 0.208706 0.977978 -0.000821359
6.46878 4.44869 10.2588 0.268679 0.963196 0.00806794
7.63504 4.0662 10.298 0.334565 0.942138 -0.021018
6.36446 4.47412 11.7056 0.238436 0.971022 -0.0162844
5.39428 4.72567 12.7479 0.234123 0.971865 -0.0257921
4.25217 5.00147 13.9591 0.177476 0.983773 -0.0263387
3.31293 5.16216 14.9307 0.0793234 0.993294 -0.0841081
2.27003 5.19623 15.995 0.0293794 0.999552 0.00576975
1.20251 5.16728 17.0915 -0.0241027 0.999708 -0.00154391
0.484515 5.13619 17.8214 -0.0393633 0.999133 -0.0135589
1.82635 5.18643 17.7727 -0.0226576 0.999716 -0.00736049
2.86394 5.1717 16.7144 0.0984143 0.99421 0.043145
3.86316 5.08382 15.6881 0.173444 0.98432 0.0321244
4.89773 4.87624 14.6073 0.234616 0.972086 -0.00215342
5.98239 4.59854 13.4527 0.264653 0.964026 -0.0247442
7.08659 4.26482 12.2468 0.319913 0.947439 0.00392539
8.00525 3.93591 11.2126 0.372812 0.927847 -0.0105403
8.85279 3.58626 10.2417 0.378706 0.925495 -0.00640438
9.15886 3.4554 9.88694 0.382429 0.923921 -0.0108566
11.3652 2.44626 8.61231 0.426549 0.904457 -0.00382906
10.2002 2.99471 9.99884 0.414829 0.909852 -0.00930494
9.24822 3.42888 11.1235 0.393277 0.919414 -0.00322272
8.26267 3.8213 12.2501 0.365188 0.930756 0.0181932
7.31318 4.17778 13.322 0.332512 0.943039 0.0106517
6.34291 4.49471 14.3911 0.271642 0.962336 -0.0109302
5.37331 4.76329 15.4355 0.228074 0.97361 0.00805854
4.19617 4.99875 16.6687 0.21002 0.97751 0.0191282
3.07796 5.15099 17.8218 0.0863312 0.995272 -0.0444987
4.67936 4.90949 17.4992 0.185308 0.982608 -0.0119468
5.81827 4.65978 16.2974 0.233891 0.972253 -0.00446559
6.9574 4.30677 15.0519 0.330437 0.943721 0.0142067
8.07437 3.90662 13.8047 0.364203 0.931314 -0.00314868
9.26213 3.42648 12.4474 0.394795 0.918757 0.004747
10.3934 2.91842 11.1131 0.413125 0.910667 0.00380531
11.3429 2.46974 9.9795 0.435917 0.899954 -0.00772758
12.2218 2.03347 8.91834 0.44556 0.895241 -0.00454082
12.6917 1.80139 8.34515 0.452697 0.891658 0.00334211
12.8615 1.71187 9.47561 0.455176 0.890401 -0.000391798
11.9638 2.16771 10.5681 0.450229 0.892913 0.000571711
11.1161 2.58105 11.5903 0.429318 0.903145 0.00390419
10.2669 2.97481 12.6041 0.413023 0.91072 -0.000167134
9.40849 3.35757 13.6133 0.394795 0.918757 0.00474698
8.30663 3.81477 14.8766 0.379993 0.924984 -0.00307425
7.42114 4.14692 15.8738 0.327189 0.944845 -0.0146405
6.39521 4.48628 17.0035 0.313867 0.949455 -0.00477436
5.58885 4.73938 17.879 0.199173 0.97985 -0.0149845
6.96053 4.30649 17.7185 0.319435 0.9475 -0.0143119
7.89621 3.96856 16.6775 0.362398 0.931977 -0.009334
8.94928 3.55276 15.4775 0.379294 0.925276 0.00108731
9.83721 3.16706 14.4483 0.404137 0.914698 0.000242225
10.7359 2.76133 13.3888 0.415406 0.909635 -0.000903314
11.7793 2.25791 12.1298 0.443918 0.896067 0.000517334
12.6813 1.80411 11.0291 0.453033 0.891493 -0.00131934
12.9772 1.6532 12.005 0.454919 0.89053 0.00239242
12.0849 2.11089 13.0997 0.458054 0.888921 -0.00235692
11.1944 2.54916 14.1843 0.427183 0.904164 -0.00116214
10.3692 2.93166 15.1638 0.41321 0.910636 -0.000190863
9.51287 3.31129 16.1659 0.408014 0.912966 -0.00429923
8.5764 3.7071 17.2474 0.373409 0.92762 -0.00928441
8.10654 3.89579 17.7789 0.366252 0.930495 -0.00626772
9.39027 3.36295 17.6517 0.392589 0.919688 0.00697748
10.3523 2.93781 16.5251 0.406201 0.913782 -0.00170364
11.2451 2.52426 15.465 0.422201 0.906501 -0.00143689
12.147 2.08288 14.3663 0.466279 0.884585 -0.00970841
13.0393 1.62124 13.2668 0.455746 0.890109 -0.00141108
13.0426 1.61958 13.2628 0.459009 0.888432 0.00048076
12.9981 1.64072 14.6624 0.465926 0.884807 0.00543555
12.1417 2.08719 15.7243 0.461884 0.886914 0.00688437
11.1709 2.55555 16.9014 0.426393 0.904525 0.00482109
10.8823 2.69084 17.2429 0.427042 0.904228 0.00262869
