-48.7206 7.44872 19.6229 0.212899 -0.977027 -0.00634087
-47.6903 7.6874 19.5721 0.22777 -0.97371 -0.00326111
-46.5355 7.97872 19.5246 0.253732 -0.967275 -3.63076e-05
-45.5327 8.25721 19.5557 0.277002 -0.960739 -0.0119825
-44.5238 8.55973 19.5238 0.284391 -0.958652 -0.0049946
-43.0303 9.04961 19.55 0.325013 -0.945632 -0.00650696
-41.978 9.41223 19.5546 0.335206 -0.942047 0.00765809
-40.8613 9.84571 19.5659 0.379848 -0.925046 0.00201807
-39.9166 10.239 19.6101 0.385738 -0.922598 -0.00430323
-38.7385 10.7584 19.598 0.409176 -0.912427 -0.00608474
-37.7666 11.2205 19.5503 0.440298 -0.897403 -0.0252233
-36.8437 11.6883 19.6073 0.455 -0.890047 -0.0281473
-35.9524 12.1799 19.5694 0.491611 -0.870103 -0.0344858
-34.9288 12.783 19.592 0.512867 -0.858067 -0.0262551
-33.9545 13.3883 19.4996 0.536897 -0.843388 -0.020914
-32.8419 14.1221 19.5222 0.578436 -0.815702 -0.00645837
-31.7569 14.8967 19.6286 0.590487 -0.806665 -0.0248216
-30.7768 15.6497 19.5318 0.633976 -0.773115 -0.0191592
-29.8284 16.4503 19.52 0.662645 -0.748236 -0.0323158
-28.9224 17.2648 19.5149 0.684554 -0.728119 -0.0350674
-28.1959 17.9899 19.4897 0.731969 -0.680366 -0.0293848
-27.4973 18.7644 19.3162 0.758656 -0.651391 -0.00439868
-27.3022 19.0154 18.3118 0.756765 -0.652882 -0.0323591
-26.9088 19.5507 17.383 0.774722 -0.631277 -0.0359859
-26.0375 20.652 16.9019 0.780117 -0.625237 -0.0105213
-25.3628 21.5316 16.9773 0.804224 -0.594103 0.0123757
-24.6519 22.4613 16.9381 0.783808 -0.619109 0.0452978
-23.8873 23.4159 17.231 0.753834 -0.654426 0.0588349
-23.5007 23.9273 18.1065 0.744745 -0.665929 0.0435167
-23.2806 24.1917 19.1209 0.738834 -0.673827 0.008984
-22.631 24.8946 19.3199 0.725161 -0.688433 0.00477067
-21.6197 25.8971 19.3111 0.695448 -0.718274 0.0208605
-20.6925 26.7828 19.3532 0.690445 -0.723383 0.00149228
-19.8346 27.5876 19.4832 0.674401 -0.738353 -0.00420898
-18.9181 28.3965 19.5091 0.654088 -0.756354 -0.00990304
-18.1432 29.0614 19.5045 0.64017 -0.768027 -0.0153886
-17.1053 29.9044 19.4517 0.618834 -0.785238 -0.0211216
-16.0434 30.7257 19.4687 0.607295 -0.793747 -0.034035
-18.9241 30.1695 -6.10537 0.692758 -0.718128 -0.0642899
-18.3558 30.7567 -7.25617 0.671263 -0.739241 -0.0496245
-18.0755 31.0028 -7.13024 0.67126 -0.739244 -0.0496233
-18.1088 30.9524 -6.60449 0.658713 -0.750987 -0.0427427
-18.1421 30.8315 -5.50196 0.656831 -0.75096 -0.0680547
-18.3102 30.5957 -4.32199 0.660479 -0.748897 -0.0540453
-18.4659 30.3713 -3.03642 0.679979 -0.732015 -0.0422192
-18.6836 30.0812 -1.82757 0.692459 -0.718997 -0.0595326
-18.9149 29.7732 -0.782469 0.691829 -0.719732 -0.0579559
-19.088 29.5038 0.304078 0.692924 -0.717174 -0.0742752
-19.3052 29.3442 -0.316799 0.724449 -0.685967 -0.0679281
-19.783 28.9516 -1.45242 0.736097 -0.673482 -0.067701
-20.1113 28.6729 -2.3911 0.741642 -0.66868 -0.0532217
-19.7459 29.1488 -3.32071 0.726744 -0.685373 -0.0407595
-19.3945 29.5515 -4.24349 0.714109 -0.698655 -0.0429476
-19.1145 29.9054 -5.35609 0.701272 -0.71038 -0.058409
-19.0253 30.0403 -5.81748 0.702622 -0.70801 -0.0710161
-19.6508 29.4372 -6.28259 0.725965 -0.685689 -0.0519567
-19.253 29.8891 -7.13098 0.709334 -0.704401 -0.0257802
-18.8324 30.376 -7.96504 0.705215 -0.705834 -0.0668566
-18.3743 30.8895 -8.88621 0.676721 -0.733605 -0.062223
-17.931 31.3764 -9.84119 0.674257 -0.735832 -0.0626767
-17.6035 31.7689 -10.9944 0.67167 -0.739599 -0.0430402
-17.666 31.8064 -12.2958 0.658497 -0.751028 -0.0483549
-17.915 31.6554 -13.3719 0.675351 -0.735668 -0.0501495
-18.368 31.3001 -14.621 0.688477 -0.723164 -0.0550731
-18.8655 30.8852 -15.5982 0.711801 -0.700421 -0.0523781
-19.4748 30.3212 -16.3252 0.718873 -0.693657 -0.0430773
-20.2767 29.4938 -16.9132 0.726924 -0.685647 -0.0377296
-20.9854 28.7219 -17.0784 0.75211 -0.657396 -0.045657
-21.6667 27.9281 -17.0453 0.757915 -0.651166 -0.0391139
-22.5354 26.8823 -16.7478 0.767834 -0.639316 -0.0413164
-23.1987 26.045 -16.4212 0.780888 -0.623032 -0.0452344
-23.8066 25.25 -16.0842 0.787172 -0.614792 -0.048898
-24.4066 24.4513 -15.7519 0.792177 -0.606844 -0.0647735
-24.9573 23.6704 -15.3084 0.80319 -0.591954 -0.0669071
-25.4616 22.9131 -14.8146 0.813292 -0.577373 -0.0720819
-26.109 21.9369 -14.2976 0.813655 -0.577591 -0.0659767
-26.698 21.0287 -13.5683 0.80572 -0.587701 -0.073635
-27.1401 20.3196 -12.6845 0.795841 -0.601493 -0.0695876
-27.5379 19.6938 -11.772 0.789824 -0.60933 -0.0699563
-27.7139 19.3289 -10.604 0.765443 -0.638459 -0.0804247
-27.7716 19.1322 -9.60133 0.747441 -0.661551 -0.0606885
-27.9075 18.8869 -8.10752 0.733981 -0.677279 -0.0506481
-27.8461 18.8653 -6.74195 0.736989 -0.675128 -0.0308203
-27.7447 18.9329 -5.56575 0.717039 -0.696724 -0.0190944
-27.6767 18.9956 -4.31064 0.710725 -0.703451 0.00439899
-27.321 19.384 -3.363 0.733085 -0.678921 0.0406508
-26.7559 20.0277 -2.7204 0.766132 -0.642665 0.00481807
-26.1952 20.7193 -2.20741 0.780141 -0.625602 -0.00135809
-25.5343 21.5782 -1.60648 0.805154 -0.592883 -0.00944676
-24.9281 22.4063 -1.16304 0.810574 -0.585414 -0.016142
-24.2984 23.2859 -1.26243 0.816086 -0.577132 -0.0303661
-23.785 24.0554 -1.87141 0.820542 -0.570505 -0.0351305
-23.4093 24.5396 -1.23036 0.810498 -0.584377 -0.0395956
-23.6483 24.1366 -0.210293 0.807235 -0.588636 -0.0433516
-23.6944 23.9923 1.00659 0.800663 -0.59806 -0.0355358
-23.481 24.213 1.97068 0.796265 -0.603616 -0.040114
-23.062 24.6904 2.92057 0.786263 -0.616614 -0.0395825
-22.5153 25.3329 3.59839 0.776431 -0.628422 -0.0469192
-21.8754 26.0933 3.79042 0.763785 -0.643151 -0.0546664
-21.1656 26.943 3.53485 0.744056 -0.66601 -0.0530238
-20.534 27.6901 3.06483 0.741636 -0.667343 -0.0673086
-19.9915 28.3714 2.09929 0.729836 -0.680372 -0.0665681
-19.8717 28.6122 1.057 0.729966 -0.679849 -0.0703062
-19.9514 28.6347 -0.0431048 0.725319 -0.685275 -0.0656556
-20.4271 28.2303 -1.27811 0.74266 -0.667012 -0.0590087
-20.9481 27.7065 -1.97854 0.747305 -0.661494 -0.0629407
-20.6929 28.0725 -2.93127 0.744542 -0.665904 -0.0472142
-20.2523 28.631 -3.90216 0.743408 -0.667355 -0.0445066
-19.9176 29.0619 -4.97499 0.731227 -0.681244 -0.0348441
-19.6932 29.3783 -6.1182 0.732849 -0.678254 -0.0538823
-20.1816 28.9042 -6.89594 0.739644 -0.671486 -0.0450978
-19.7021 29.4907 -7.8314 0.733846 -0.677956 -0.0429682
-19.2737 30.0117 -8.80666 0.706355 -0.705191 -0.0613848
-18.8543 30.4961 -9.64461 0.693749 -0.717016 -0.0678302
-18.556 30.8744 -10.7389 0.6797 -0.731583 -0.052857
-18.329 31.1601 -11.6757 0.682761 -0.727989 -0.0622065
-18.5301 31.0417 -12.909 0.693592 -0.719189 -0.0411479
-18.8093 30.8227 -13.8561 0.709691 -0.703485 -0.0380538
-19.3033 30.3938 -14.9356 0.711376 -0.701071 -0.0494226
-19.9704 29.7471 -15.6058 0.727121 -0.684606 -0.0510898
-20.7664 28.901 -16.1113 0.749153 -0.661108 -0.0413104
-21.4557 28.1146 -16.1396 0.75561 -0.65382 -0.0396121
-22.1951 27.2309 -15.8229 0.766887 -0.64035 -0.0428078
-22.9463 26.2901 -15.4798 0.778076 -0.626313 -0.048266
-23.5724 25.4739 -15.1769 0.788182 -0.612613 -0.0589528
-24.2649 24.5316 -14.7404 0.794408 -0.604328 -0.0608525
-24.8578 23.6738 -14.1843 0.80431 -0.590116 -0.0696292
-25.4424 22.7879 -13.5605 0.813751 -0.577085 -0.0691438
-25.9463 22.016 -13.0631 0.813325 -0.577557 -0.0701986
-26.4132 21.2929 -12.5189 0.812747 -0.577774 -0.074967
-26.7904 20.6686 -11.7426 0.794263 -0.602369 -0.0790834
-27.1459 20.0531 -10.7035 0.787092 -0.611124 -0.0837451
-27.0555 20.0061 -9.58448 0.785327 -0.61178 -0.094769
-27.2871 19.608 -8.65838 0.746341 -0.664464 -0.0382502
-27.2036 19.6164 -7.43881 0.749009 -0.660896 -0.0469176
-27.1722 19.5946 -6.43582 0.742243 -0.668902 -0.0403839
-27.1026 19.6023 -5.36855 0.732507 -0.679848 -0.0315122
-26.9969 19.6807 -4.29318 0.706992 -0.706023 0.0324801
-26.4574 20.3596 -3.55718 0.764047 -0.644495 0.0292896
-25.9355 21.0424 -3.03096 0.804683 -0.593401 0.0160134
-25.3919 21.7883 -2.54851 0.810899 -0.585185 -6.43206e-06
-24.8018 22.6073 -2.03069 0.814398 -0.580162 -0.012991
-24.277 23.39 -2.48219 0.828824 -0.557314 -0.0495186
-24.11 23.7301 -3.46451 0.822898 -0.565342 -0.0568166
-23.4404 24.6097 -2.79471 0.812103 -0.580103 -0.062997
-22.83 25.4043 -2.34653 0.798949 -0.600031 -0.0405502
-22.1872 26.2514 -2.44948 0.780308 -0.62298 -0.0548004
-21.6219 27.002 -2.96047 0.770586 -0.634815 -0.054881
-21.0015 27.7956 -3.91446 0.7506 -0.659502 -0.0406999
-20.6078 28.3033 -4.93612 0.743427 -0.667402 -0.0434789
-20.4172 28.6099 -6.37789 0.739644 -0.671486 -0.0450978
-13.3325 35.4186 -18.6077 0.507341 -0.858857 -0.0704931
-14.5112 34.6711 -18.5982 0.56948 -0.816821 -0.0921793
-15.6014 33.8801 -18.5941 0.593553 -0.801832 -0.0689955
-16.6767 33.0701 -18.6432 0.626493 -0.778015 -0.0468864
-17.6057 32.2726 -18.6503 0.675734 -0.736417 -0.032774
-18.4735 31.4414 -18.4714 0.700968 -0.712538 -0.0305575
-19.4244 30.4763 -18.4425 0.72464 -0.688187 -0.0359862
-20.142 29.7151 -18.4363 0.730514 -0.681951 -0.0359444
-20.856 28.9395 -18.5451 0.741891 -0.669836 -0.030282
-21.6065 28.0818 -18.5332 0.758739 -0.650404 -0.0359109
-22.2401 27.3382 -18.5521 0.762262 -0.646416 -0.0332178
-22.8502 26.5995 -18.4871 0.775877 -0.630209 -0.0291879
-23.4943 25.8125 -18.4418 0.769701 -0.637681 -0.0303929
-24.1189 25.0501 -18.4913 0.780056 -0.624931 -0.0312146
-24.5652 24.4546 -17.8669 0.790954 -0.610187 -0.0440649
-24.9109 23.9026 -16.8254 0.794846 -0.603618 -0.0619252
-24.855 23.9467 -16.5373 0.794846 -0.603618 -0.0619275
-24.3041 24.6946 -16.8548 0.781321 -0.621098 -0.0614353
-23.6917 25.4892 -17.1726 0.769583 -0.636484 -0.051282
-23.1109 26.231 -17.561 0.776328 -0.629089 -0.0388096
-22.4083 27.0997 -17.7909 0.767324 -0.640193 -0.0361007
-21.8016 27.8276 -18.053 0.759461 -0.649516 -0.0367074
-21.0822 28.6629 -17.9916 0.755291 -0.654329 -0.0370852
-20.1684 29.6574 -17.7979 0.723681 -0.689688 -0.0248132
-19.3796 30.4724 -17.4229 0.725749 -0.687153 -0.0332877
-18.5786 31.2325 -16.5024 0.690276 -0.721961 -0.0478726
-17.9429 31.7533 -15.4259 0.681067 -0.729883 -0.0584717
-17.5055 32.0921 -14.3591 0.682889 -0.729207 -0.0438139
-17.1524 32.3276 -13.407 0.629986 -0.774197 -0.0611183
-16.7064 32.6985 -13.4544 0.621094 -0.779965 -0.0741769
-16.1026 33.2384 -14.3328 0.599301 -0.797853 -0.0649336
-15.48 33.752 -15.0103 0.592819 -0.803667 -0.0505049
-14.7781 34.2576 -15.7952 0.563115 -0.8252 -0.0426399
-13.9594 34.8461 -16.506 0.542859 -0.838333 -0.050025
-13.1705 35.3999 -17.2511 0.507606 -0.858354 -0.0745946
-12.8802 35.6615 -18.3137 0.507227 -0.858914 -0.0706202
-13.2295 35.4744 -18.5467 0.507228 -0.858914 -0.0706182
6.39597 38.6719 19.2451 -0.170487 -0.98536 0.000442488
5.36558 38.8485 19.2092 -0.160484 -0.987014 0.00533226
4.79051 38.9417 19.4146 -0.159101 -0.987111 0.0172803
5.92694 38.7544 19.6408 -0.17095 -0.985245 0.00831647
6.27096 38.6936 19.5086 -0.17074 -0.985298 0.00440049
16.6772 34.3377 6.04588 -0.59477 -0.801259 0.0640965
16.7642 34.3327 7.05711 -0.597352 -0.800873 0.042119
16.8674 34.3117 8.17506 -0.596309 -0.801791 0.039331
16.9279 34.3162 9.22118 -0.617238 -0.786091 0.0316463
17.1916 34.0632 8.23253 -0.624584 -0.780074 0.0371315
17.3164 33.9063 7.26377 -0.636499 -0.769712 0.0486554
17.3656 33.792 5.97552 -0.633293 -0.771409 0.0598056
17.2615 33.7709 4.76509 -0.615499 -0.785353 0.065652
16.8622 34.0105 4.00315 -0.599364 -0.796963 0.0732227
16.6724 34.2624 5.19332 -0.595287 -0.799468 0.080177
16.662 34.3314 5.85436 -0.598708 -0.797558 0.0738229
-22.5056 25.7496 -1.29124 0.782691 -0.620479 -0.0489907
-21.9552 26.4752 -1.69078 0.782396 -0.620549 -0.0525459
-21.3702 27.1541 -1.31203 0.771108 -0.634316 -0.0550942
-20.8198 27.7253 -0.512782 0.742658 -0.667014 -0.0590081
-20.5585 27.9018 0.747496 0.740256 -0.669714 -0.0590533
-20.6923 27.6278 1.89864 0.73562 -0.673635 -0.070914
-21.2998 26.8833 2.50258 0.751298 -0.656673 -0.0653958
-21.9777 26.0508 2.86283 0.763603 -0.643349 -0.0548887
-22.5914 25.3189 2.46793 0.783315 -0.619373 -0.052858
-23.02 24.8435 1.53144 0.788975 -0.61259 -0.0474495
-23.1575 24.745 0.485422 0.789317 -0.612258 -0.0460283
-22.9915 25.0499 -0.419036 0.802093 -0.595342 -0.0468336
-22.6059 25.6094 -1.117 0.78282 -0.620307 -0.049112
65.969 6.25294 16.8954 -0.0457866 -0.998944 0.0037088
66.9911 6.20228 15.8609 -0.0427402 -0.999069 0.00580272
67.482 6.17888 15.3648 -0.0388291 -0.99923 0.00562907
67.6724 6.16274 13.8542 -0.0355801 -0.999359 0.00387077
66.7677 6.20488 14.7688 -0.0421577 -0.999088 0.00679765
65.7435 6.25747 15.8051 -0.0457416 -0.998938 0.0055793
64.5292 6.32515 17.0429 -0.0536199 -0.998555 0.00362029
63.5252 6.38833 18.0632 -0.0603021 -0.998176 0.00278792
63.5072 6.38946 18.0814 -0.0603012 -0.998176 0.0027879
62.1049 6.48321 18.188 -0.0731746 -0.997297 0.00671027
63.0422 6.41577 17.2354 -0.0673059 -0.997727 0.00312866
64.2421 6.33514 16.0127 -0.0565672 -0.998373 0.00716013
65.2397 6.27538 14.9964 -0.0498553 -0.998722 0.0082834
66.1372 6.22688 14.0871 -0.0441947 -0.998998 0.00710074
67.0703 6.18126 13.1427 -0.04027 -0.999169 0.006335
67.4433 6.16481 12.7655 -0.0384415 -0.999245 0.00555181
67.2713 6.1619 11.6189 -0.0371659 -0.999269 0.00890274
66.3274 6.20843 12.5734 -0.0418418 -0.999097 0.00741689
65.3597 6.25936 13.5543 -0.0488357 -0.998794 0.00505784
64.4572 6.31252 14.471 -0.0550909 -0.998456 0.0071628
63.548 6.37246 15.3968 -0.0604578 -0.998137 0.00823876
62.5989 6.44114 16.366 -0.0686448 -0.997622 0.00618899
61.5998 6.51643 17.3846 -0.0733919 -0.997297 0.00345341
60.9946 6.56687 18.0032 -0.0797217 -0.996789 0.00748527
59.4976 6.69895 18.2161 -0.0958115 -0.995388 0.00487302
60.6784 6.5845 17.0053 -0.0817429 -0.996585 0.0116756
61.5723 6.51132 16.0922 -0.0751067 -0.997123 0.0101957
62.516 6.43558 15.1266 -0.0657742 -0.997797 0.00866294
63.5133 6.36396 14.1098 -0.0605092 -0.998135 0.00812084
64.7774 6.28413 12.8228 -0.0518433 -0.998639 0.0056334
65.7709 6.2261 11.8145 -0.0458887 -0.998915 0.00794551
66.7257 6.17739 10.8486 -0.0400433 -0.999172 0.00716391
65.7203 6.21764 10.5425 -0.0439334 -0.998996 0.00877694
64.7192 6.27556 11.5574 -0.0493838 -0.998727 0.0102778
63.6586 6.34465 12.6358 -0.0593658 -0.998214 0.00662174
62.718 6.41099 13.5939 -0.0652904 -0.997846 0.00634516
61.8256 6.47786 14.5085 -0.0731394 -0.997291 0.00780325
60.8178 6.56618 15.5402 -0.0818303 -0.99662 0.00726495
59.8298 6.6536 16.5524 -0.0881517 -0.996101 0.00349884
58.8724 6.75349 17.5367 -0.0979445 -0.995127 0.0114003
58.5156 6.79479 17.9056 -0.112289 -0.993649 0.00723273
57.1153 6.95595 18.0357 -0.121747 -0.992521 0.00890978
58.0788 6.8344 17.0334 -0.11227 -0.993611 0.0115046
59.0735 6.72172 16.006 -0.0963981 -0.995338 0.00319175
60.2556 6.60829 14.7908 -0.084265 -0.996411 0.00807226
61.1528 6.52483 13.8714 -0.078169 -0.996897 0.0092269
62.293 6.43267 12.7019 -0.0683656 -0.997615 0.00947803
63.2807 6.35849 11.6949 -0.0637623 -0.99789 0.0122719
64.199 6.2944 10.7609 -0.0545949 -0.998456 0.010254
65.2565 6.23215 9.68986 -0.0474885 -0.998851 0.00645697
64.307 6.27745 9.32793 -0.0558328 -0.99838 0.0109378
63.1429 6.35465 10.5096 -0.0623264 -0.998014 0.00908384
62.14 6.43118 11.5313 -0.0667011 -0.997697 0.0123462
61.1679 6.51247 12.528 -0.076958 -0.997011 0.00683577
60.2707 6.59306 13.4491 -0.0835249 -0.996467 0.00879519
59.1325 6.71112 14.6192 -0.0990055 -0.995062 0.0070749
58.1703 6.81744 15.6133 -0.109233 -0.99398 0.00842549
56.9315 6.96781 16.8982 -0.118707 -0.992914 0.00560532
56.0796 7.08419 17.7893 -0.135065 -0.990822 0.00535682
54.5452 7.29887 18.0796 -0.146521 -0.989206 0.00201186
55.4862 7.15956 17.083 -0.13848 -0.99034 0.00701149
56.3632 7.03091 16.1608 -0.129245 -0.991592 0.0064609
57.2964 6.91307 15.1898 -0.117873 -0.993001 0.00743456
58.1903 6.80397 14.2631 -0.110175 -0.993876 0.008452
59.3034 6.68019 13.1156 -0.0942865 -0.995512 0.00806966
60.4274 6.56748 11.9592 -0.0907734 -0.99582 0.010147
61.4213 6.47997 10.9379 -0.0756841 -0.997098 0.00824165
62.3518 6.40262 9.9887 -0.0670724 -0.997724 0.00700706
63.2605 6.33596 9.06449 -0.0596387 -0.998181 0.00877433
63.6883 6.30611 8.63008 -0.060076 -0.998149 0.00942725
63.0966 6.33414 7.89985 -0.059841 -0.998152 0.0106003
62.1621 6.40505 8.85401 -0.0658765 -0.997768 0.0108846
60.9423 6.5086 10.1003 -0.0772467 -0.99696 0.010194
59.945 6.60034 11.1251 -0.0873757 -0.996116 0.0108465
59.0166 6.69882 12.0821 -0.0970668 -0.995209 0.0117161
58.0886 6.80334 13.0399 -0.10781 -0.994091 0.0126386
57.147 6.91957 14.0149 -0.110403 -0.993809 0.0124564
56.2508 7.03917 14.9468 -0.124594 -0.992206 0.00215259
55.3358 7.17543 15.9058 -0.14026 -0.990101 0.00514725
54.4397 7.31729 16.8568 -0.155028 -0.987904 0.00330333
53.4002 7.48131 17.9657 -0.168962 -0.985621 -0.00152518
53.3264 7.4938 18.0438 -0.168851 -0.98564 -0.00199306
52.3292 7.66896 17.7756 -0.181473 -0.983389 0.0036955
53.5589 7.45546 16.4586 -0.167382 -0.985868 0.00693848
54.6468 7.26984 15.299 -0.149901 -0.988572 0.0159785
55.6131 7.11794 14.2798 -0.141932 -0.989693 0.0190681
56.6274 6.96757 13.2237 -0.118784 -0.992812 0.0146213
57.8586 6.81535 11.9475 -0.109428 -0.993952 0.00922926
58.7679 6.70965 11.0064 -0.0977825 -0.995127 0.0127093
59.9451 6.58766 9.79176 -0.0894583 -0.995947 0.00929084
60.9242 6.49533 8.78636 -0.0785711 -0.996833 0.0122886
61.9805 6.4049 7.70583 -0.0773704 -0.99696 0.00924801
62.4136 6.37084 7.26238 -0.0641965 -0.997883 0.0104369
61.9575 6.39405 6.39054 -0.0719203 -0.997377 0.00810554
60.9839 6.47933 7.3917 -0.0767755 -0.996988 0.0110081
59.9293 6.5764 8.47309 -0.0866499 -0.996194 0.00947058
59.0137 6.66677 9.41799 -0.0880871 -0.996054 0.0108568
57.9277 6.79241 10.5395 -0.107474 -0.99415 0.0106966
56.7845 6.93266 11.7275 -0.112243 -0.993628 0.0102806
55.7876 7.06751 12.7667 -0.133292 -0.991007 0.0117846
54.5755 7.26213 14.0385 -0.141972 -0.989686 0.0191108
53.5512 7.44055 15.1275 -0.166137 -0.986031 0.0118723
52.5879 7.61685 16.1595 -0.167881 -0.98572 0.0131325
51.6151 7.7957 17.2062 -0.181476 -0.983357 0.00873132
51.0746 7.9041 17.7912 -0.204576 -0.978829 0.00657552
49.7217 8.19079 17.9146 -0.211789 -0.977315 0.00106296
51.0063 7.9128 16.5252 -0.193822 -0.981001 0.00842665
51.8755 7.73524 15.5828 -0.175023 -0.984544 0.0063591
52.7574 7.56622 14.6345 -0.179382 -0.983643 0.0163627
53.7201 7.38505 13.6049 -0.15867 -0.987184 0.017099
54.7055 7.21914 12.5654 -0.150237 -0.988541 0.0147104
55.7509 7.05929 11.4704 -0.12901 -0.991623 0.00638225
56.6575 6.93563 10.522 -0.120932 -0.992581 0.0126256
57.5516 6.81949 9.59406 -0.11161 -0.993611 0.0167602
58.5972 6.69764 8.51326 -0.10174 -0.994765 0.00959657
59.6978 6.58525 7.37356 -0.0900547 -0.995864 0.0120066
60.621 6.49659 6.42291 -0.0812311 -0.996617 0.0124859
61.4885 6.41811 5.53086 -0.070002 -0.997404 0.0168522
61.4931 6.39546 4.18339 -0.0712161 -0.99733 0.016172
60.5604 6.48267 5.14411 -0.0788907 -0.996776 0.0146322
59.4777 6.59181 6.25919 -0.0931269 -0.995542 0.014928
58.1785 6.73097 7.60723 -0.107246 -0.994214 0.00607532
57.0677 6.86358 8.75988 -0.114652 -0.993337 0.0116507
55.9917 7.00813 9.87869 -0.127231 -0.991779 0.0136792
54.8509 7.18421 11.076 -0.14373 -0.989534 0.0128513
53.8226 7.34884 12.1565 -0.156722 -0.987549 0.0136178
52.741 7.54714 13.3078 -0.168691 -0.985538 0.016043
51.6682 7.76306 14.4633 -0.187311 -0.982208 0.0134697
50.72 7.95396 15.4914 -0.190051 -0.981714 0.0108961
49.6957 8.18583 16.6038 -0.217546 -0.976007 0.00922752
48.7862 8.40382 17.5919 -0.232696 -0.972531 0.00604348
48.4534 8.48571 17.9542 -0.241187 -0.970429 0.00983189
47.3468 8.77326 17.8337 -0.258014 -0.96609 0.00996855
48.3112 8.50919 16.769 -0.235708 -0.971757 0.0114323
49.2078 8.28645 15.7895 -0.219068 -0.975666 0.00921855
50.0778 8.08756 14.8442 -0.215768 -0.976421 0.0068371
51.0674 7.8714 13.7691 -0.193045 -0.981091 0.0139531
52.0838 7.65959 12.6701 -0.184721 -0.982679 0.0148498
53.2679 7.42791 11.4015 -0.178792 -0.983821 0.0114253
54.2699 7.26067 10.3476 -0.146647 -0.989118 0.0118511
55.2742 7.09809 9.2916 -0.136714 -0.990506 0.0144215
56.2754 6.95229 8.2443 -0.127558 -0.991791 0.0089621
57.3241 6.82038 7.15502 -0.109358 -0.993978 0.00696111
58.4556 6.68672 5.97475 -0.0981416 -0.995138 0.00826489
59.5982 6.55924 4.7951 -0.0874888 -0.996049 0.0152431
60.657 6.4519 3.70036 -0.078559 -0.996763 0.0170594
61.3575 6.38352 2.97747 -0.0726133 -0.99716 0.0199763
61.2455 6.3674 1.75126 -0.0713373 -0.997281 0.018459
60.1854 6.47151 2.84312 -0.0792913 -0.996589 0.0228673
59.1716 6.58012 3.88483 -0.0870046 -0.996037 0.0184637
57.995 6.7179 5.10931 -0.0999203 -0.99481 0.0191943
56.9918 6.84718 6.15569 -0.112336 -0.993604 0.0114373
55.859 6.99456 7.33704 -0.128088 -0.991647 0.0151558
54.6478 7.18128 8.60934 -0.147675 -0.988975 0.0109607
53.687 7.34227 9.62113 -0.157707 -0.987456 0.00772342
52.5533 7.55024 10.8205 -0.179163 -0.98373 0.0132353
51.3931 7.78029 12.0662 -0.184094 -0.98282 0.0132069
50.4304 7.99022 13.1098 -0.204034 -0.978884 0.0125183
49.5257 8.20078 14.0971 -0.212548 -0.977074 0.0122792
48.6528 8.4064 15.0485 -0.231506 -0.972829 0.00292494
47.773 8.63077 16.018 -0.239516 -0.970853 0.00879394
46.8636 8.89364 17.0251 -0.26916 -0.962905 0.0191449
46.0493 9.13402 17.939 -0.282693 -0.959185 0.00703855
44.9878 9.46112 17.8008 -0.316586 -0.948522 0.00894197
45.8969 9.16746 16.7617 -0.277529 -0.960509 0.0200224
46.8409 8.87613 15.7028 -0.275175 -0.961339 0.0102844
47.9709 8.57346 14.4528 -0.239178 -0.970932 0.0092486
48.9308 8.32874 13.3966 -0.226008 -0.974028 0.0137928
49.8073 8.11623 12.4368 -0.211855 -0.977216 0.0129016
50.6781 7.9204 11.4897 -0.202012 -0.979325 0.0106261
51.7256 7.69741 10.3613 -0.19188 -0.981266 0.0173023
52.7959 7.4827 9.21962 -0.171074 -0.985169 0.0132763
53.6933 7.32596 8.2729 -0.160171 -0.98704 0.00986378
54.703 7.15573 7.20269 -0.147013 -0.989048 0.0131071
55.6576 7.00794 6.20496 -0.125378 -0.992087 0.0065521
56.6378 6.87159 5.17906 -0.123232 -0.992253 0.0157297
57.6422 6.73803 4.13188 -0.10989 -0.993744 0.0199135
58.6099 6.61684 3.12611 -0.101004 -0.994622 0.0229183
59.6024 6.50807 2.10765 -0.0862508 -0.9961 0.0185936
60.6816 6.39609 0.990506 -0.0788594 -0.996764 0.0155628
61.1406 6.35619 0.516398 -0.0737906 -0.997196 0.012483
61.5018 6.29129 -1.19916 -0.0726541 -0.997188 0.0183788
60.1876 6.42215 0.15174 -0.0747236 -0.997025 0.0189264
59.1961 6.52918 1.18147 -0.0924266 -0.995557 0.0179874
58.2792 6.63307 2.12938 -0.104276 -0.994434 0.0150678
57.3763 6.74613 3.06297 -0.111045 -0.993622 0.0196167
56.4309 6.87745 4.04672 -0.119718 -0.992678 0.0160707
55.3888 7.02841 5.13799 -0.129766 -0.991446 0.0139536
54.3561 7.19275 6.22353 -0.145552 -0.98922 0.0160555
53.1529 7.40591 7.4965 -0.160856 -0.986917 0.0109471
52.273 7.56312 8.43048 -0.170439 -0.985335 0.0080416
51.2269 7.78186 9.54985 -0.19427 -0.980771 0.0186312
50.363 7.97644 10.4808 -0.206515 -0.978328 0.015032
49.3295 8.21094 11.6036 -0.214801 -0.976616 0.00903737
48.3124 8.46518 12.7211 -0.245815 -0.969281 0.00829136
47.4367 8.69988 13.689 -0.263559 -0.964625 0.00589856
46.3739 9.00299 14.8724 -0.282946 -0.959135 0.00104253
45.3749 9.31505 16.0005 -0.308229 -0.951302 0.00452441
44.5253 9.61426 16.9785 -0.323556 -0.946159 0.00973618
43.7039 9.90476 17.9399 -0.342842 -0.939392 0.000959309
42.7431 10.2545 17.7154 -0.356883 -0.934149 0.00115218
43.6547 9.91094 16.6341 -0.337629 -0.941015 0.022315
44.5869 9.57106 15.5516 -0.312605 -0.94985 0.00788758
45.6857 9.20538 14.2926 -0.293822 -0.955846 0.0051358
46.5378 8.94332 13.3335 -0.263558 -0.964625 0.00589766
47.5076 8.6728 12.2565 -0.256394 -0.966528 0.00923199
48.4827 8.40917 11.1785 -0.245855 -0.969277 0.00755639
49.6174 8.12892 9.93667 -0.213938 -0.976748 0.0139021
50.6768 7.8792 8.7922 -0.20659 -0.978351 0.0122568
51.5639 7.68999 7.83999 -0.187647 -0.982149 0.0131555
52.542 7.50104 6.79501 -0.173908 -0.984656 0.0144371
53.4699 7.32606 5.81087 -0.166431 -0.98584 0.0204933
54.6646 7.11486 4.54563 -0.138343 -0.990234 0.0172376
55.5514 6.97933 3.61615 -0.131619 -0.991043 0.0225834
56.7662 6.80281 2.35226 -0.1155 -0.993138 0.0183668
57.6932 6.67983 1.38934 -0.102239 -0.994548 0.020512
58.656 6.56483 0.392384 -0.0948256 -0.995237 0.0226073
59.5716 6.46168 -0.557318 -0.0912925 -0.995548 0.023464
60.5289 6.35859 -1.54453 -0.0763737 -0.996934 0.0170407
61.4873 6.26522 -2.53422 -0.072457 -0.996844 0.0324307
61.4854 6.23002 -3.87179 -0.0663991 -0.997543 0.0223439
60.2764 6.3544 -2.62732 -0.0742269 -0.996919 0.0253571
59.3875 6.45213 -1.71304 -0.0904195 -0.995639 0.0229451
58.4329 6.56379 -0.724866 -0.0948588 -0.995353 0.0165364
57.4509 6.6829 0.29375 -0.108668 -0.99389 0.0193475
56.3536 6.83512 1.43526 -0.120552 -0.992511 0.019726
55.4003 6.97138 2.42914 -0.135135 -0.990638 0.0193502
54.4004 7.13478 3.47452 -0.149222 -0.98864 0.0180046
53.4035 7.31189 4.52975 -0.160812 -0.986848 0.0164418
52.3698 7.51067 5.62804 -0.174219 -0.984473 0.021483
51.4536 7.69578 6.60766 -0.184149 -0.98283 0.0115603
50.4006 7.92459 7.73795 -0.204836 -0.978741 0.0103633
49.4803 8.13909 8.73246 -0.218087 -0.975775 0.0173699
48.4598 8.4006 9.84803 -0.243165 -0.96993 0.0103504
47.5257 8.65435 10.8799 -0.258653 -0.965901 0.0116011
46.6324 8.91419 11.8741 -0.278037 -0.96048 0.0131464
45.6318 9.21772 12.998 -0.293822 -0.955857 0.00239595
44.8109 9.49336 13.939 -0.315542 -0.948899 0.00497455
43.8792 9.80404 15.0103 -0.326066 -0.945345 0.00190857
42.9674 10.1454 16.0806 -0.35308 -0.935491 0.0138538
41.9671 10.5604 17.2838 -0.371845 -0.92815 0.0164304
41.3906 10.796 17.9931 -0.38838 -0.921437 0.0107538
40.19 11.3308 18.1047 -0.420177 -0.907163 -0.0225187
40.9937 10.9631 17.0981 -0.417318 -0.908753 0.00368257
41.9436 10.5496 15.9363 -0.392599 -0.919552 0.0170268
42.784 10.2026 14.931 -0.363029 -0.931777 -0.00112231
43.7535 9.85882 13.8032 -0.332658 -0.943047 -0.0012226
44.6733 9.53159 12.7348 -0.321345 -0.94695 0.00477077
45.531 9.24686 11.7554 -0.297268 -0.954755 0.00864883
46.3954 8.96784 10.7815 -0.281501 -0.959393 0.0179222
47.386 8.67172 9.67576 -0.261687 -0.96493 0.0207577
48.2427 8.43604 8.73112 -0.241286 -0.970281 0.0183271
49.0932 8.20898 7.79776 -0.227894 -0.973504 0.0187934
50.0374 7.98405 6.77685 -0.210542 -0.977377 0.0201401
51.2155 7.72137 5.51154 -0.186678 -0.982101 0.0250944
52.1022 7.53353 4.56139 -0.178077 -0.983647 0.0269708
53.1431 7.33373 3.45373 -0.162623 -0.986486 0.0199979
54.1862 7.14494 2.35581 -0.158052 -0.987241 0.0193518
55.2515 6.96967 1.24042 -0.138275 -0.990228 0.01813
56.2325 6.82665 0.214444 -0.124868 -0.992003 0.0183927
57.2314 6.68473 -0.825037 -0.116773 -0.993032 0.0158301
58.3892 6.535 -2.02536 -0.0943995 -0.994921 0.0349527
59.4807 6.40759 -3.1482 -0.083864 -0.996258 0.0209125
60.3954 6.30769 -4.09319 -0.0837117 -0.99619 0.0244457
61.3906 6.20853 -5.11942 -0.0724491 -0.99704 0.0257217
61.2909 6.18253 -6.36322 -0.071426 -0.997083 0.026892
60.33 6.27978 -5.37539 -0.0810314 -0.996351 0.0267948
59.3396 6.39288 -4.35247 -0.0851565 -0.995994 0.0272865
58.4545 6.49352 -3.43455 -0.093471 -0.995387 0.0216392
57.5094 6.61232 -2.45857 -0.10789 -0.993805 0.0266684
56.5772 6.74687 -1.49078 -0.113828 -0.993126 0.0272645
55.4632 6.91547 -0.329791 -0.129647 -0.991387 0.0185491
54.4852 7.06883 0.693088 -0.140717 -0.989941 0.0147081
53.3607 7.26593 1.8766 -0.157749 -0.987223 0.0225076
52.2496 7.47864 3.05078 -0.174459 -0.984479 0.0191069
51.1173 7.71087 4.26075 -0.190969 -0.981318 0.0233446
50.1876 7.92127 5.26407 -0.199643 -0.979603 0.0228187
49.2469 8.14638 6.27752 -0.229871 -0.972865 0.0263179
48.3838 8.37526 7.21975 -0.240639 -0.970491 0.0154847
47.3688 8.65288 8.33361 -0.261494 -0.965111 0.0134605
46.4053 8.93769 9.4107 -0.278042 -0.960382 0.0189407
45.4592 9.25141 10.4775 -0.309877 -0.950538 0.0212903
44.5806 9.55201 11.4802 -0.317493 -0.948175 0.0127632
43.4307 9.96724 12.8143 -0.345802 -0.938307 0.000523367
42.5432 10.3044 13.8587 -0.360843 -0.932574 -0.00992337
41.7151 10.6355 14.8418 -0.395593 -0.91839 0.00815285
40.9199 10.9937 15.8096 -0.404999 -0.914218 0.0134473
39.9902 11.424 16.9688 -0.434553 -0.900593 0.00980341
39.0892 11.8672 18.1206 -0.457565 -0.889131 -0.00897537
39.0488 11.8872 18.1731 -0.458068 -0.888817 -0.0133436
38.2037 12.3344 17.8872 -0.481542 -0.876343 -0.0118606
39.1184 11.8522 16.6925 -0.452734 -0.891537 0.0139551
40.0928 11.367 15.4566 -0.423431 -0.905851 0.0117911
40.898 10.9886 14.459 -0.415068 -0.909717 0.011595
41.8263 10.5877 13.3449 -0.38014 -0.924922 0.00357573
42.9486 10.1336 12.0118 -0.344359 -0.938513 0.0246916
43.8361 9.79822 10.976 -0.326994 -0.944846 0.0184894
44.676 9.50102 10.0089 -0.31722 -0.94821 0.016381
45.7142 9.14307 8.83048 -0.30042 -0.953786 0.00636171
46.5533 8.88039 7.88197 -0.274667 -0.961468 0.0116854
47.4586 8.61269 6.88009 -0.256716 -0.966301 0.0189711
48.4256 8.34497 5.82079 -0.244437 -0.969598 0.0114146
49.4543 8.07436 4.70095 -0.218119 -0.975784 0.0164527
50.3103 7.86772 3.77351 -0.209426 -0.977687 0.016379
51.226 7.66315 2.78967 -0.19782 -0.980042 0.0196085
52.2278 7.4505 1.72047 -0.173516 -0.984538 0.0240009
53.1429 7.27635 0.752911 -0.159518 -0.986973 0.0209255
54.0224 7.11927 -0.173346 -0.149246 -0.988567 0.0214656
55.1424 6.93661 -1.34457 -0.140292 -0.989865 0.0220497
56.0382 6.79365 -2.2799 -0.130275 -0.991159 0.0251384
57.0495 6.64356 -3.32851 -0.111883 -0.993474 0.0221585
58.0357 6.51756 -4.3547 -0.0987443 -0.994832 0.0236231
58.9488 6.40031 -5.30217 -0.0946454 -0.995135 0.0273711
60.0237 6.27598 -6.40695 -0.0800806 -0.99637 0.0288772
61.0259 6.17495 -7.43356 -0.074411 -0.996896 0.0257201
61.6232 6.11604 -8.04543 -0.0633111 -0.997689 0.0246477
62.1918 6.03907 -9.95717 -0.0655336 -0.997587 0.0229118
61.0967 6.13216 -8.84056 -0.0675403 -0.997436 0.023677
60.0605 6.23991 -7.78324 -0.0811976 -0.996277 0.0289796
59.0868 6.34388 -6.78711 -0.0885348 -0.995815 0.0226943
58.0606 6.47289 -5.73301 -0.101692 -0.994332 0.0310346
56.9089 6.63352 -4.53795 -0.114411 -0.993041 0.0279237
55.994 6.76455 -3.58671 -0.127584 -0.991475 0.0264562
54.9485 6.93419 -2.49702 -0.138979 -0.990027 0.0230532
54.0679 7.08139 -1.57601 -0.146181 -0.988973 0.0237459
53.1029 7.25691 -0.559772 -0.161726 -0.986699 0.0164187
51.9455 7.47603 0.662124 -0.180701 -0.983408 0.0159878
51.0546 7.66764 1.6133 -0.210317 -0.977401 0.0213145
50.1931 7.8696 2.54398 -0.213174 -0.976845 0.0181868
49.1956 8.11538 3.62033 -0.232925 -0.972227 0.0228058
48.0507 8.4274 4.87548 -0.247806 -0.968598 0.0202506
47.1214 8.68729 5.89941 -0.267977 -0.963327 0.0137752
46.1413 8.99316 6.98552 -0.302716 -0.952971 0.0144554
45.2061 9.29746 8.043 -0.313301 -0.949624 0.0075145
44.1435 9.67148 9.25891 -0.333855 -0.942612 0.00477823
43.307 9.96378 10.2236 -0.352153 -0.935915 -0.00716498
42.4598 10.3122 11.2202 -0.371325 -0.928376 0.0153749
41.4042 10.7585 12.4835 -0.377209 -0.926094 0.00792733
40.4043 11.2083 13.6932 -0.419426 -0.907752 0.00823775
39.3697 11.7179 14.9887 -0.449842 -0.893099 0.00396146
38.4363 12.2001 16.183 -0.477467 -0.878648 0.00185552
37.6996 12.6212 17.1647 -0.481542 -0.876343 -0.0118624
37.2057 12.8957 17.8368 -0.515608 -0.856564 -0.0211097
36.0911 13.5827 17.9872 -0.560207 -0.828121 -0.0195895
37.0327 13.0247 16.6763 -0.514284 -0.857488 -0.0150479
37.7544 12.5899 15.6954 -0.495315 -0.868712 -0.00165663
38.5766 12.1178 14.617 -0.475857 -0.879502 0.00596053
39.4458 11.6716 13.5144 -0.451577 -0.892128 -0.0135944
40.3095 11.246 12.4377 -0.456712 -0.88961 0.00293319
41.1474 10.8713 11.4256 -0.401101 -0.916026 0.00363695
41.9578 10.5122 10.4504 -0.389573 -0.920987 0.00389956
42.9552 10.1053 9.27572 -0.379718 -0.925102 0.000388701
43.8588 9.76709 8.22894 -0.333855 -0.942612 0.00477926
44.7436 9.45146 7.21087 -0.323752 -0.946001 0.0163307
45.8616 9.05283 5.93874 -0.290459 -0.956576 0.0244152
46.8202 8.75526 4.87413 -0.259036 -0.965633 0.0212976
48.0215 8.40634 3.54233 -0.252073 -0.96745 0.0223416
48.8826 8.16617 2.60534 -0.240215 -0.970617 0.0141328
49.9167 7.90866 1.47839 -0.211276 -0.977249 0.0186425
50.845 7.684 0.474415 -0.200255 -0.979492 0.0222038
52.023 7.43809 -0.774677 -0.182128 -0.983151 0.0156017
52.9292 7.25943 -1.73492 -0.163117 -0.986234 0.027125
53.9042 7.08 -2.76075 -0.153615 -0.987838 0.0240527
55.0716 6.87355 -3.98125 -0.135968 -0.99009 0.0351429
56.0938 6.71236 -5.04161 -0.122016 -0.991989 0.0326944
57.1093 6.55992 -6.09383 -0.105633 -0.994014 0.0279077
58.0778 6.42733 -7.08956 -0.101535 -0.994587 0.0220831
59.1074 6.31043 -8.14594 -0.086659 -0.995927 0.0248816
60.0703 6.20294 -9.12888 -0.0774902 -0.996772 0.021002
60.9881 6.11817 -10.0657 -0.0707134 -0.997393 0.0143866
61.9667 6.02923 -11.0704 -0.0667549 -0.99754 0.0214091
63.0669 5.93965 -12.1982 -0.0592836 -0.998051 0.0194958
63.9616 5.87107 -13.1084 -0.0473432 -0.998652 0.0212877
64.894 5.80585 -14.0537 -0.0443221 -0.998787 0.0214678
65.4522 5.7701 -14.6162 -0.0435145 -0.998948 0.0144711
65.8357 5.72915 -16.3232 -0.0415616 -0.999054 0.0127608
64.6683 5.79813 -15.1484 -0.046549 -0.9988 0.0152283
63.48 5.87748 -13.9499 -0.0542598 -0.998325 0.020071
62.4679 5.95953 -12.9215 -0.0615949 -0.997835 0.0230343
61.3822 6.05316 -11.8138 -0.064343 -0.997727 0.0200439
60.1043 6.17372 -10.5047 -0.0781301 -0.996666 0.0234895
59.0088 6.28503 -9.38594 -0.0868122 -0.995793 0.0293291
58.0306 6.40416 -8.38201 -0.0976708 -0.994928 0.024069
57.0376 6.53252 -7.36067 -0.109877 -0.993641 0.0245958
55.9966 6.68511 -6.28719 -0.123524 -0.991931 0.0285588
54.9737 6.84995 -5.22447 -0.132964 -0.990751 0.027088
53.9972 7.01847 -4.2098 -0.148454 -0.988239 0.0366628
52.7748 7.25294 -2.92836 -0.165395 -0.985863 0.0268068
51.7046 7.47595 -1.79212 -0.182089 -0.982987 0.0240863
50.6625 7.69376 -0.686657 -0.19796 -0.980067 0.0167254
49.7887 7.90407 0.251305 -0.216731 -0.975834 0.0278492
48.7914 8.1654 1.3374 -0.225877 -0.973938 0.0206137
47.8293 8.42708 2.39408 -0.250355 -0.96791 0.0217571
46.7416 8.74829 3.59696 -0.261006 -0.965122 0.0203654
45.9077 9.01227 4.52994 -0.286244 -0.957946 0.0200816
45.0262 9.31532 5.52437 -0.314563 -0.949004 0.0210338
43.8139 9.75612 6.91446 -0.334999 -0.941923 0.0236083
42.9537 10.107 7.92451 -0.354758 -0.934586 0.0263631
41.9077 10.5335 9.15243 -0.380788 -0.924624 0.00838266
41.0794 10.8925 10.1431 -0.409896 -0.91213 -0.00213186
40.196 11.2993 11.2113 -0.418303 -0.908307 0.0012166
39.4069 11.6988 12.1925 -0.446546 -0.894701 0.0103752
38.5785 12.1302 13.2395 -0.473294 -0.880606 -0.0229481
37.8016 12.5388 14.2387 -0.5172 -0.855862 -0.0021018
37.0451 13.0207 15.2641 -0.523102 -0.852266 -0.00246212
36.1659 13.5657 16.4748 -0.54573 -0.837907 -0.00958448
35.3641 14.0832 17.6213 -0.574967 -0.818135 -0.00821738
34.4782 14.7542 17.5548 -0.606498 -0.795084 -0.00090657
35.1762 14.2341 16.4764 -0.583247 -0.812182 -0.0135413
36.1309 13.6003 15.1188 -0.54242 -0.840067 -0.00821917
36.8664 13.1207 14.1116 -0.544563 -0.838663 0.00976724
37.6701 12.6286 13.0342 -0.496469 -0.867891 0.016837
38.456 12.2024 12.0262 -0.469195 -0.883088 0.00345849
39.2571 11.764 11.0103 -0.468784 -0.88329 0.00631832
40.0684 11.3656 10.0132 -0.438791 -0.898589 4.28881e-05
40.9168 10.9597 8.97959 -0.401842 -0.915468 0.0209911
41.9572 10.4957 7.73216 -0.381275 -0.924263 0.0191628
42.9083 10.0888 6.60774 -0.349491 -0.936518 0.0281144
43.8176 9.72133 5.54325 -0.339255 -0.940425 0.0224862
44.6855 9.4071 4.55012 -0.315932 -0.948556 0.0207114
45.5243 9.10865 3.59708 -0.300421 -0.953593 0.0201749
46.3829 8.8266 2.63132 -0.285798 -0.958152 0.0162773
47.275 8.55737 1.63765 -0.264594 -0.964232 0.0156925
48.156 8.30122 0.664112 -0.249224 -0.968132 0.0246737
49.1314 8.04232 -0.39733 -0.231775 -0.972569 0.0197273
50.1344 7.79106 -1.47112 -0.222885 -0.974584 0.0225552
51.1336 7.56748 -2.54454 -0.189429 -0.981584 0.0246823
52.0786 7.36314 -3.54506 -0.186564 -0.981894 0.0328367
53.027 7.16234 -4.54094 -0.170061 -0.985063 0.0270193
53.9311 6.99401 -5.48488 -0.154974 -0.987757 0.0178485
54.876 6.82808 -6.47086 -0.137281 -0.990172 0.0266938
55.8589 6.66783 -7.49026 -0.127211 -0.991526 0.0263213
56.7593 6.5369 -8.41689 -0.118754 -0.992735 0.0193474
57.7552 6.40462 -9.44131 -0.0984843 -0.99479 0.0263535
58.8139 6.27602 -10.5257 -0.0917608 -0.995608 0.0185644
59.8326 6.16989 -11.5708 -0.0781307 -0.996666 0.0234899
60.9554 6.06334 -12.7161 -0.0721878 -0.997176 0.0207171
61.892 5.98005 -13.6688 -0.0670035 -0.997592 0.0179174
62.9345 5.89444 -14.7247 -0.0594685 -0.998063 0.0182484
63.8919 5.82618 -15.6889 -0.0469012 -0.998786 0.0150439
65.1099 5.7519 -16.9136 -0.0444739 -0.998907 0.0143544
65.1827 5.74795 -16.9868 -0.0400835 -0.99913 0.0115039
64.696 5.76033 -17.8197 -0.0457985 -0.998885 0.0114137
63.7866 5.81562 -16.9047 -0.0478577 -0.998786 0.01166
62.7585 5.88341 -15.8695 -0.0609425 -0.997971 0.0184594
61.7617 5.9672 -14.8638 -0.0671337 -0.997579 0.018125
60.6637 6.06105 -13.7533 -0.0692814 -0.997384 0.0206028
59.509 6.17653 -12.5778 -0.0837002 -0.996261 0.0214288
58.5117 6.28603 -11.5568 -0.100275 -0.994781 0.0188822
57.5881 6.40026 -10.6069 -0.107186 -0.994059 0.0189136
56.3788 6.56234 -9.36903 -0.118428 -0.992697 0.0229553
55.457 6.69879 -8.41831 -0.134357 -0.990825 0.0145969
54.5545 6.84751 -7.48485 -0.148366 -0.98868 0.0223325
53.5873 7.02139 -6.47747 -0.161513 -0.98653 0.0259402
52.6234 7.21129 -5.46715 -0.168312 -0.985558 0.0186212
51.4829 7.45019 -4.26785 -0.193447 -0.980561 0.032827
50.5557 7.66212 -3.28583 -0.200883 -0.979504 0.0147639
49.5004 7.91304 -2.15874 -0.218117 -0.975545 0.0271563
48.5963 8.15668 -1.17605 -0.238474 -0.970916 0.0212474
47.5573 8.44562 -0.0420618 -0.265215 -0.963913 0.0230679
46.675 8.71809 0.93883 -0.27807 -0.960497 0.0110747
45.7989 8.99578 1.92411 -0.297445 -0.954539 0.0195207
44.7509 9.35133 3.10879 -0.310589 -0.950348 0.0193044
43.9014 9.65729 4.08237 -0.315579 -0.948571 0.024979
42.9361 10.0293 5.19787 -0.347591 -0.9372 0.0289274
42.1328 10.3732 6.14686 -0.376277 -0.92571 0.0384151
41.2703 10.7734 7.18466 -0.394097 -0.918744 0.0244556
40.3947 11.1785 8.24921 -0.407845 -0.912836 0.0198471
39.2849 11.7353 9.61968 -0.442205 -0.89679 0.0148936
38.2217 12.3238 10.9658 -0.479225 -0.877692 -0.000245074
37.1818 12.9127 12.2994 -0.507529 -0.861247 -0.0258316
36.3455 13.4451 13.4281 -0.541848 -0.840127 0.0242181
35.5406 13.9887 14.5343 -0.564955 -0.825068 -0.00939265
34.7994 14.5161 15.6109 -0.589537 -0.807639 -0.0128702
33.8767 15.2079 17.0319 -0.604877 -0.796295 0.00615474
33.3427 15.6458 17.9199 -0.627837 -0.778344 0.00107929
32.5455 16.3204 17.7778 -0.664396 -0.747381 -0.000110201
33.1448 15.7971 16.7393 -0.643942 -0.765074 0.000354469
33.9149 15.1918 15.5042 -0.610146 -0.792156 -0.014494
34.1625 15.0065 15.1315 -0.611323 -0.79128 -0.0126615
63.4624 5.82146 -17.9013 -0.0520727 -0.998598 0.00950563
62.551 5.87662 -16.9844 -0.0590048 -0.998229 0.00763025
61.6345 5.95343 -16.0606 -0.0693358 -0.997432 0.0179326
60.4805 6.05964 -14.8949 -0.0729209 -0.997232 0.0145429
59.4508 6.15301 -13.8558 -0.0815452 -0.996444 0.0212094
58.5527 6.25202 -12.9393 -0.0984579 -0.994813 0.0255555
57.6545 6.36683 -12.0221 -0.103724 -0.994331 0.0233784
56.7174 6.48793 -11.0618 -0.114513 -0.993258 0.0180559
55.7981 6.61563 -10.1193 -0.123838 -0.992156 0.0170451
54.7642 6.7815 -9.05097 -0.137762 -0.989984 0.0308626
53.8463 6.93929 -8.09768 -0.155367 -0.987459 0.0280336
52.9648 7.10897 -7.17768 -0.167314 -0.985572 0.0255839
51.9283 7.32419 -6.09234 -0.182172 -0.983081 0.0191159
50.8877 7.55053 -4.99 -0.202737 -0.978881 0.0262516
49.7686 7.81957 -3.80055 -0.217732 -0.97585 0.0176157
48.8509 8.05219 -2.81924 -0.238507 -0.970862 0.0232664
47.8684 8.32689 -1.75015 -0.263879 -0.96446 0.0136163
46.8361 8.635 -0.610305 -0.277953 -0.960333 0.0224332
45.6754 9.01353 0.693347 -0.295309 -0.955309 0.0132995
44.8183 9.29622 1.66338 -0.297849 -0.954411 0.0196176
43.9881 9.60168 2.61478 -0.32837 -0.944351 0.0193466
43.1277 9.91402 3.60378 -0.336371 -0.941627 0.0138577
42.3005 10.2583 4.57079 -0.371192 -0.928342 0.0199263
41.4944 10.6162 5.53177 -0.387994 -0.921208 0.0289403
40.4997 11.0962 6.74362 -0.426443 -0.904256 0.0216421
39.6501 11.5297 7.80463 -0.439626 -0.898104 0.0117577
38.8912 11.9233 8.75943 -0.454441 -0.890662 0.0143029
38.1415 12.3476 9.7193 -0.484258 -0.874097 0.0380545
37.3654 12.8272 10.7197 -0.522736 -0.85243 0.0105273
36.5102 13.3496 11.8329 -0.547108 -0.836808 -0.0206115
36.1644 13.5652 12.2963 -0.572649 -0.819707 -0.0124135
36.7386 13.2128 10.2004 -0.539063 -0.842241 0.00635085
37.5904 12.6615 9.07553 -0.521643 -0.853009 0.0162805
38.32 12.2096 8.11109 -0.495033 -0.868606 0.0215808
39.2512 11.7008 6.93166 -0.460974 -0.886748 0.0343553
40.1503 11.2385 5.80364 -0.426441 -0.904256 0.0216401
41.0937 10.7724 4.64201 -0.410468 -0.911689 0.0183918
42.0409 10.3408 3.50506 -0.381521 -0.924128 0.0207194
43.0252 9.94165 2.35779 -0.347477 -0.93763 0.0104897
44.026 9.55524 1.19551 -0.326125 -0.945258 0.0113823
45.0993 9.18537 -0.0284147 -0.29919 -0.954062 0.0158473
46.0693 8.85782 -1.12501 -0.294859 -0.955387 0.0171292
46.9139 8.58372 -2.06866 -0.282529 -0.959106 0.0171436
47.8408 8.29727 -3.0904 -0.252633 -0.967194 0.0267019
48.7492 8.0427 -4.07109 -0.232346 -0.971593 0.0449773
49.7236 7.79888 -5.10973 -0.219749 -0.975311 0.0218641
50.6051 7.58529 -6.04805 -0.209388 -0.977624 0.0202164
51.5642 7.36957 -7.05963 -0.18288 -0.982855 0.0234898
52.4665 7.17463 -8.00703 -0.183811 -0.982574 0.0275933
53.3773 6.99121 -8.95622 -0.17224 -0.984663 0.0277727
54.3198 6.81889 -9.9406 -0.142888 -0.989298 0.0295283
55.2485 6.67018 -10.9006 -0.132209 -0.991074 0.0171349
56.1931 6.53583 -11.8705 -0.118074 -0.992596 0.0284856
57.4602 6.35694 -13.168 -0.107353 -0.993913 0.024746
58.5229 6.2316 -14.2458 -0.0954758 -0.995309 0.0156621
59.509 6.13129 -15.2411 -0.0804805 -0.996654 0.0142581
60.4562 6.03742 -16.1994 -0.0744855 -0.997062 0.0178693
61.4708 5.94571 -17.221 -0.0678098 -0.997642 0.0106283
62.5101 5.86907 -18.267 -0.0541648 -0.998489 0.00929722
61.2964 5.94579 -18.3711 -0.0701636 -0.997487 0.00986278
60.2491 6.0344 -17.3198 -0.077733 -0.996845 0.0160485
59.1141 6.14659 -16.174 -0.0821895 -0.996453 0.0180508
58.2016 6.24771 -15.2514 -0.0979827 -0.995087 0.014188
57.2242 6.36184 -14.2596 -0.102354 -0.99467 0.0124641
56.0838 6.51406 -13.1026 -0.112282 -0.993399 0.0234963
55.1198 6.66451 -12.1145 -0.135607 -0.990446 0.0250415
54.1103 6.83264 -11.0726 -0.150708 -0.988506 0.0119923
53.1739 6.99963 -10.1011 -0.16156 -0.986665 0.0197473
52.0321 7.23084 -8.90847 -0.182729 -0.982826 0.0257647
51.1517 7.42212 -7.98748 -0.192654 -0.980818 0.0296809
50.1798 7.65283 -6.95944 -0.199197 -0.979517 0.0294455
49.2564 7.88375 -5.97247 -0.216414 -0.975967 0.0255763
48.2482 8.13389 -4.89105 -0.229249 -0.973279 0.0131445
47.1672 8.4521 -3.72344 -0.26382 -0.963557 0.0442326
46.2495 8.75276 -2.70558 -0.278788 -0.959652 0.0366885
45.2759 9.08991 -1.61083 -0.307582 -0.950459 0.044954
44.39 9.40406 -0.600054 -0.322803 -0.946311 0.0171199
43.5704 9.70704 0.345142 -0.338844 -0.940768 0.0118427
42.75 10.0258 1.30358 -0.346542 -0.937907 0.0154645
41.788 10.4229 2.43315 -0.372054 -0.92806 0.0167708
40.8375 10.8616 3.57788 -0.40946 -0.912085 0.0210491
39.8082 11.38 4.85007 -0.436681 -0.899344 0.022147
38.894 11.8585 6.00438 -0.459689 -0.887934 0.01611
38.0882 12.325 7.05495 -0.485581 -0.874059 0.0152477
37.2314 12.8604 8.19407 -0.530466 -0.847179 0.0298905
36.9422 13.0633 8.5935 -0.536778 -0.84363 0.0125633
36.6526 13.2083 7.61127 -0.552631 -0.832487 0.0395449
37.488 12.657 6.46333 -0.504131 -0.863582 0.00885099
38.2196 12.2236 5.49647 -0.491787 -0.870712 0.00255638
39.1201 11.7199 4.3414 -0.46321 -0.886215 0.00767443
39.9675 11.2613 3.27199 -0.445612 -0.895055 0.0175317
40.8087 10.842 2.23451 -0.411519 -0.910918 0.0296655
41.9197 10.3443 0.904973 -0.369872 -0.928948 0.0158182
42.9408 9.93374 -0.298919 -0.360458 -0.932574 0.0193773
43.9181 9.55106 -1.43963 -0.34016 -0.939981 0.0269558
44.7995 9.20634 -2.45292 -0.303133 -0.952382 0.0328616
45.6372 8.90968 -3.39819 -0.306262 -0.951505 0.0290241
46.4765 8.62013 -4.33082 -0.291128 -0.955824 0.0405494
47.5074 8.31092 -5.45265 -0.254916 -0.966946 0.00582247
48.3707 8.07379 -6.38973 -0.236924 -0.971264 0.0226713
49.2969 7.8337 -7.38682 -0.220393 -0.975023 0.027515
50.429 7.55231 -8.59045 -0.204022 -0.978578 0.0275877
51.4465 7.32002 -9.66032 -0.182729 -0.982826 0.0257647
52.4599 7.10828 -10.7152 -0.173697 -0.98459 0.0203077
53.4683 6.91579 -11.7597 -0.15705 -0.987288 0.0244321
54.4664 6.73528 -12.7856 -0.133868 -0.990562 0.029449
55.5284 6.56802 -13.8774 -0.128378 -0.991501 0.0210883
56.4373 6.44027 -14.7999 -0.120467 -0.992549 0.0182572
57.5083 6.3074 -15.8867 -0.102346 -0.994677 0.0119671
58.4551 6.19899 -16.8438 -0.100875 -0.994775 0.0157106
59.6385 6.07136 -18.0349 -0.0795217 -0.996672 0.017949
59.8327 6.0541 -18.2296 -0.0760078 -0.997071 0.00846291
58.5801 6.16175 -18.2978 -0.0972317 -0.995223 0.00875859
57.6352 6.27348 -17.3475 -0.105735 -0.994239 0.0175969
56.7236 6.38575 -16.4277 -0.105841 -0.994288 0.0137717
55.8158 6.50523 -15.5087 -0.123878 -0.992203 0.013657
54.9218 6.6363 -14.6013 -0.140463 -0.989941 0.0169268
53.8671 6.8126 -13.5171 -0.156668 -0.987368 0.0236697
52.7853 7.01086 -12.4051 -0.166825 -0.985672 0.0249139
51.8527 7.20168 -11.4419 -0.179941 -0.98346 0.0206859
50.6326 7.46672 -10.1718 -0.19888 -0.979522 0.0313697
49.724 7.68433 -9.21184 -0.220636 -0.974887 0.0302414
48.8454 7.9106 -8.27808 -0.220584 -0.974968 0.0279157
47.8831 8.16844 -7.24166 -0.241638 -0.969464 0.0418438
46.8994 8.46016 -6.1634 -0.272687 -0.961994 0.0144464
45.9518 8.75344 -5.12129 -0.2796 -0.959919 0.019485
44.8734 9.13958 -3.91403 -0.306001 -0.951569 0.0296573
43.9702 9.4819 -2.88359 -0.335191 -0.941765 0.0269261
43.1173 9.82459 -1.89309 -0.341067 -0.93936 0.035732
42.2961 10.1632 -0.926083 -0.36163 -0.931814 0.0307634
41.4538 10.5196 0.0764732 -0.380283 -0.92486 0.00443324
40.6528 10.8809 1.04392 -0.408322 -0.912673 0.0173436
39.8588 11.2856 2.02777 -0.435577 -0.899669 0.0294621
38.7945 11.8654 3.37901 -0.470742 -0.881964 0.0232698
38.0493 12.3047 4.35344 -0.4968 -0.867755 0.0138642
37.1962 12.8274 5.47497 -0.524654 -0.851057 0.0209628
36.5101 13.2651 6.39947 -0.534078 -0.845374 -0.0102287
36.3151 13.3862 5.3245 -0.555385 -0.831558 0.00771662
37.1781 12.8067 4.14334 -0.534711 -0.844206 0.0374234
37.9947 12.2832 3.03753 -0.483027 -0.875066 0.0307369
39.023 11.6888 1.70032 -0.450743 -0.892235 0.0273324
40.0333 11.1505 0.42085 -0.443489 -0.895883 0.0266845
40.8566 10.7619 -0.589462 -0.382143 -0.923898 0.0194633
41.7828 10.3449 -1.70534 -0.370015 -0.928467 0.0322054
42.6636 9.96565 -2.75168 -0.35318 -0.93516 0.0271927
43.4796 9.6195 -3.70785 -0.338819 -0.939951 0.0411483
44.4843 9.23532 -4.85464 -0.31193 -0.949331 0.0383364
45.4784 8.88146 -5.96986 -0.29499 -0.955331 0.0179656
46.3461 8.59137 -6.93511 -0.266718 -0.963089 0.0363417
47.3311 8.28021 -8.02121 -0.259226 -0.965288 0.0319513
48.4131 7.9832 -9.18637 -0.228558 -0.973068 0.0299801
49.4076 7.72297 -10.2464 -0.219104 -0.975076 0.034942
50.4954 7.45585 -11.3868 -0.200041 -0.979552 0.0215078
51.4806 7.24959 -12.4075 -0.190514 -0.981311 0.0270908
52.5267 7.03394 -13.4877 -0.167832 -0.985701 0.0150448
53.411 6.8647 -14.3986 -0.159048 -0.987022 0.0221896
54.468 6.6826 -15.4797 -0.136988 -0.990428 0.0169135
55.4024 6.54535 -16.4259 -0.126383 -0.991919 0.0111147
56.577 6.38383 -17.6137 -0.12366 -0.9922 0.0157377
57.0718 6.32135 -18.111 -0.107687 -0.994102 0.0128426
55.625 6.4948 -17.9874 -0.122847 -0.992256 0.0183241
54.382 6.67562 -16.7316 -0.129124 -0.991552 0.0123192
53.3035 6.85239 -15.6377 -0.153165 -0.98799 0.0204189
52.1931 7.0674 -14.4949 -0.173381 -0.984532 0.025227
51.2019 7.27716 -13.4715 -0.198238 -0.979946 0.0202078
50.1915 7.50111 -12.4227 -0.197084 -0.980271 0.0150276
49.2089 7.72725 -11.3967 -0.215935 -0.975996 0.0283648
48.337 7.95946 -10.4736 -0.232098 -0.972095 0.0340924
47.3747 8.23634 -9.43471 -0.253156 -0.967322 0.0141848
46.2735 8.57204 -8.23139 -0.280399 -0.959575 0.0243321
45.1359 8.95043 -6.97388 -0.300377 -0.953338 0.0303329
44.1081 9.32507 -5.81184 -0.313625 -0.949191 0.0259866
43.1205 9.70792 -4.68222 -0.336626 -0.940981 0.0351737
42.1259 10.1361 -3.51452 -0.358754 -0.932591 0.0396096
41.1928 10.5577 -2.39604 -0.384016 -0.922847 0.0297387
40.3346 10.9645 -1.3492 -0.400149 -0.916103 0.025209
39.3989 11.4445 -0.177013 -0.454208 -0.890492 0.0268034
38.6173 11.8712 0.82396 -0.452592 -0.891387 0.02428
37.8014 12.3535 1.89944 -0.505183 -0.862524 0.0290225
36.9337 12.9134 3.08772 -0.514479 -0.857174 0.0237426
36.2155 13.4188 4.09653 -0.552681 -0.832836 0.0304704
35.983 13.5851 4.42409 -0.557557 -0.829431 0.0342576
35.5671 13.8342 3.62836 -0.580545 -0.813452 0.0355496
