6.17585 5.02752 9.39623 0.304886 0.950334 -0.0625241
5.12972 5.24604 9.29608 0.20101 0.978783 -0.0397216
3.82577 5.46561 8.88244 0.173699 0.984426 -0.0270952
2.99424 5.53997 8.33429 0.062234 0.996998 -0.0179984
2.13366 5.54478 7.62873 0.0157596 0.999118 -0.0306694
1.41147 5.50573 6.81927 -0.00204397 0.999484 -0.0226313
0.763584 5.4407 5.98558 -0.086859 0.994983 -0.0496418
0.192537 5.35542 5.02599 -0.157366 0.987252 -0.0115387
-0.227848 5.27451 3.99679 -0.172324 0.984999 0.00645665
-0.515442 5.24861 2.63244 -0.159446 0.98694 0.0201675
-1.11426 5.15469 2.36831 -0.207225 0.977816 0.0035576
-1.73203 4.98665 3.24059 -0.239345 0.970545 0.0275144
-2.64839 4.74588 4.27652 -0.255102 0.966857 -0.00677844
-3.37448 4.55448 5.03504 -0.285495 0.957861 -0.0105597
-4.24984 4.26597 5.78546 -0.307776 0.951137 -0.0160534
-5.33405 3.86789 6.4469 -0.355764 0.934528 -0.00902287
-6.37276 3.46191 6.87881 -0.380335 0.924695 -0.00354599
-7.37387 3.02992 7.07304 -0.401654 0.91577 -0.00345427
-8.34892 2.594 7.14343 -0.409058 0.912509 4.89658e-05
-9.62501 2.00012 7.20102 -0.421574 0.906785 0.00186481
-10.7908 1.4357 7.08042 -0.444116 0.895935 0.00779868
-11.4765 1.08819 7.7491 -0.447709 0.894124 0.00995732
-11.5128 1.06011 8.80099 -0.451678 0.892159 0.00618714
-11.3549 1.13202 9.86118 -0.451457 0.892249 0.00884265
-11.2852 1.16368 10.8589 -0.452626 0.891699 0.00119795
-11.1947 1.20717 11.9355 -0.450955 0.892544 0.00070481
-11.245 1.18104 12.9944 -0.457746 0.889076 -0.00328308
-11.3199 1.14832 14.3185 -0.456985 0.889453 -0.00578093
-11.3863 1.12328 15.6306 -0.454002 0.890973 -0.00687676
-11.4108 1.11642 16.8359 -0.451267 0.892382 -0.00341986
-10.9316 1.36223 17.8094 -0.450866 0.892584 -0.00362871
-9.8995 1.88675 18.2376 -0.449491 0.893266 -0.00522216
-8.8314 2.41772 18.3708 -0.438989 0.898456 -0.00801293
-7.87907 2.88054 18.3708 -0.435367 0.900224 -0.00722293
-6.984 3.30618 18.3788 -0.423525 0.905829 -0.00994754
-5.98527 3.77073 18.4439 -0.406361 0.913467 -0.021203
-5.01484 4.19148 18.4548 -0.387764 0.921604 -0.016887
-3.56734 4.76663 18.5076 -0.352275 0.93536 -0.0294999
-2.52753 5.11743 18.5467 -0.284143 0.958712 -0.0115825
-1.47253 5.42642 18.5988 -0.244297 0.968604 -0.0254991
-0.344321 5.62893 18.6537 -0.171953 0.984888 -0.0177358
0.694406 5.69723 18.6458 -0.0305244 0.999092 -0.0297352
1.71973 5.71769 18.62 0.000464958 0.999892 -0.0104897
2.84513 5.70767 18.6531 0.0515222 0.997183 0.0152789
3.89957 5.55489 18.694 0.165354 0.986225 0.00430548
4.92327 5.36971 18.6831 0.200917 0.979606 -0.00191189
5.88783 5.13419 18.6597 0.287831 0.957663 -0.00590726
6.90669 4.80974 18.6497 0.323322 0.946279 0.00278954
7.89093 4.45047 18.7018 0.35425 0.935137 0.00507153
9.2355 3.88317 18.6865 0.398973 0.916943 0.00597348
10.3557 3.3631 18.5052 0.435643 0.900071 0.00939167
11.5596 2.7765 18.1058 0.451753 0.89209 0.00816328
12.3533 2.37651 17.5444 0.456431 0.889701 0.0101068
13.2663 1.89861 16.8898 0.472951 0.881001 0.00828744
14.0004 1.50289 15.9824 0.482014 0.87614 0.0063635
14.3251 1.32791 15.0539 0.487612 0.873053 0.00376226
14.5265 1.22073 14.068 0.487595 0.873049 0.00603284
14.607 1.18296 13.0865 0.487295 0.873211 0.00675903
14.4502 1.2781 12.0481 0.486592 0.873607 0.0062969
14.346 1.34198 10.9195 0.483211 0.875503 0.00104531
14.2056 1.41724 9.58026 0.478799 0.87791 -0.00503014
14.0305 1.50948 8.50334 0.479957 0.87729 0.00172957
13.9229 1.57004 7.49189 0.478475 0.8781 0.00120419
13.8162 1.62328 6.35026 0.473178 0.88094 -0.00688413
13.8543 1.59407 5.05878 0.472093 0.881525 -0.00643668
13.9334 1.54434 3.82243 0.471241 0.881973 -0.00744557
13.8875 1.55414 2.66483 0.472317 0.881286 -0.0158748
13.9331 1.50953 1.37721 0.472744 0.881114 -0.0123215
14.0262 1.43851 0.284041 0.477833 0.878251 -0.0187154
13.7795 1.54891 -0.87732 0.481494 0.876268 -0.0176265
13.0658 1.91234 -1.90746 0.473102 0.880805 -0.0189161
12.5649 2.16041 -2.91731 0.468385 0.883355 -0.017304
12.1777 2.34066 -4.00918 0.463935 0.885593 -0.0221083
11.8575 2.48566 -4.98034 0.447759 0.893465 -0.0351028
11.5348 2.60773 -6.20347 0.434898 0.899941 -0.0311558
11.2507 2.71951 -7.2364 0.430332 0.90226 -0.0270314
10.838 2.87771 -8.48786 0.43277 0.901118 -0.0263923
10.6703 2.91539 -9.68707 0.418607 0.907368 -0.0381026
10.6826 2.87226 -10.6751 0.41833 0.907994 -0.0199035
10.7964 2.77471 -11.8808 0.436083 0.899419 -0.0295937
10.9833 2.65318 -12.8483 0.43685 0.899081 -0.0285526
11.2157 2.5079 -13.9136 0.435976 0.899515 -0.0276579
11.6002 2.28622 -14.8193 0.443736 0.895708 -0.0276252
12.1127 2.00142 -15.7131 0.457332 0.888857 -0.0279217
12.71 1.67103 -16.5499 0.45841 0.888539 -0.0189449
12.812 1.58832 -17.4983 0.464349 0.885319 -0.0243015
11.8499 2.08094 -17.7591 0.458235 0.88842 -0.0270356
10.9423 2.52137 -17.9236 0.430973 0.901901 -0.0286911
10.0486 2.94621 -18.0615 0.432333 0.901363 -0.0251662
9.04808 3.39603 -18.3475 0.410906 0.911203 -0.0294342
8.10749 3.79737 -18.6173 0.375418 0.926661 -0.0186827
7.02174 4.23189 -18.5961 0.357896 0.933543 -0.0201763
6.06652 4.56892 -18.6569 0.318832 0.947747 -0.0110188
5.12997 4.87704 -18.6998 0.271417 0.960711 -0.0441138
4.06119 5.18159 -18.6455 0.221547 0.974493 -0.00713781
2.95774 5.39955 -18.655 0.175005 0.984339 0.0050718
1.77458 5.55231 -18.6592 0.115456 0.992446 0.0414958
0.691741 5.6438 -18.6493 0.0406855 0.995665 0.0836386
-0.346132 5.68147 -18.644 -0.0221007 0.997665 0.0597052
-1.47862 5.62654 -18.6061 -0.0753989 0.995548 0.0427906
-2.7388 5.39017 -18.5489 -0.185626 0.982536 -0.0128759
-3.86072 5.11076 -18.5479 -0.256278 0.966568 0.00819846
-4.82061 4.82408 -18.5216 -0.310611 0.950134 0.0276951
-6.00603 4.40654 -18.4081 -0.342964 0.938585 0.0376231
-6.93937 4.02797 -18.2562 -0.386587 0.92218 0.0116055
-8.22425 3.44423 -18.0971 -0.422173 0.906116 0.0269147
-9.10048 3.02653 -17.9016 -0.44441 0.895373 0.0283876
-10.1079 2.50969 -17.3859 -0.447236 0.893884 0.0306438
-10.908 2.09082 -16.7862 -0.44676 0.894367 0.0226802
-11.6506 1.69052 -16.1019 -0.461934 0.886574 0.0245653
-12.3576 1.29726 -15.4802 -0.47406 0.880113 0.0258392
-12.4382 1.21273 -14.1762 -0.468556 0.88299 0.0280069
-12.1849 1.30849 -12.8437 -0.466733 0.884106 0.0227331
-11.7373 1.5178 -11.9653 -0.460431 0.887278 0.0268389
-10.7043 2.06231 -12.4317 -0.45575 0.889685 0.0274454
-9.51175 2.64497 -12.4737 -0.435227 0.899857 0.028897
-8.57438 3.09325 -12.6532 -0.421023 0.90663 0.027064
-7.64125 3.51786 -12.7417 -0.410132 0.911506 0.0307345
-6.67363 3.93603 -12.7503 -0.371243 0.926859 0.0557668
-5.64293 4.33235 -12.5962 -0.359406 0.931285 0.0594588
-4.36137 4.74 -12.0723 -0.291238 0.955696 0.0380249
-3.27935 5.03464 -11.6018 -0.255716 0.965513 0.0489324
-2.22263 5.23424 -11.0559 -0.146972 0.988892 0.022192
-1.25453 5.35098 -10.3253 -0.134754 0.990301 0.0338562
-0.527305 5.40672 -9.37956 -0.113785 0.992447 0.0458437
0.0253074 5.44542 -8.28795 -0.102075 0.993979 -0.0110799
0.339165 5.46752 -7.08484 -0.0571944 0.998352 0.00459333
0.678479 5.46137 -5.77076 -0.0673797 0.997193 0.0326576
0.940553 5.44636 -4.71248 -0.0675182 0.997649 0.0112334
0.910173 5.43565 -3.63871 -0.0770601 0.996918 0.00968112
0.751009 5.4221 -2.34709 -0.0418684 0.997967 0.00542268
1.36248 5.42664 -2.05663 -0.0145045 0.999651 -0.0220651
2.27678 5.40678 -2.74854 0.0492482 0.997482 0.020858
3.19324 5.39254 -3.22887 0.0836247 0.994728 0.0430024
4.21277 5.2618 -3.51577 0.146979 0.988804 0.025763
5.23028 5.0722 -3.56684 0.192189 0.981331 -0.00729758
6.36824 4.78754 -3.55386 0.276856 0.960628 -0.0233167
7.49602 4.42648 -3.45662 0.351962 0.935922 -0.00344226
8.70211 3.9584 -3.17534 0.366653 0.93031 -0.00944832
9.77781 3.51449 -2.74139 0.404922 0.914284 -0.0110374
10.5974 3.14738 -2.25136 0.428196 0.903661 -0.00511116
11.5315 2.70852 -1.39198 0.4331 0.901153 -0.0184799
12.1103 2.43524 -0.494825 0.452914 0.891355 -0.0182586
12.5536 2.23225 0.363842 0.463437 0.886022 -0.0114136
13.0858 1.96668 1.6956 0.468375 0.883426 -0.0135598
13.2716 1.88381 2.6949 0.470332 0.882377 -0.0140901
13.1631 1.9552 3.81218 0.465579 0.884987 -0.00563102
12.8172 2.14209 5.00845 0.465009 0.8853 -0.00319598
12.4019 2.36394 5.9033 0.461899 0.886925 -0.00367128
11.9134 2.61264 6.79754 0.44758 0.894222 0.0021072
11.1308 2.99376 7.79198 0.438915 0.898517 0.00454026
10.2484 3.41487 8.47565 0.428795 0.9034 0.0016896
9.13411 3.92394 9.04366 0.400075 0.916437 -0.00912451
8.16991 4.32839 9.23193 0.354504 0.935031 -0.00658958
6.96799 4.78124 9.44061 0.314469 0.948274 -0.0334734
6.51941 4.91995 9.43655 0.304886 0.950334 -0.0625241
6.45226 4.8973 8.44744 0.284689 0.957644 -0.0432577
7.48805 4.56644 8.40764 0.327374 0.944816 -0.0122315
8.42655 4.21177 8.1939 0.378718 0.925362 -0.0166575
9.48701 3.75834 7.76415 0.397648 0.917508 -0.00743507
10.2674 3.40819 7.23102 0.429152 0.903231 0.00147402
11.0325 3.04803 6.58595 0.437204 0.899301 0.005832
11.5894 2.77132 5.45797 0.444061 0.895927 -0.0103223
12.0725 2.52076 4.39474 0.445035 0.895497 -0.00534044
12.3356 2.38125 3.34247 0.441089 0.897428 -0.00797544
12.297 2.38713 2.17167 0.446507 0.894697 -0.0121897
12.0103 2.52327 1.23644 0.456606 0.889583 -0.012403
11.5672 2.73208 0.379985 0.451148 0.892154 -0.022972
11.0261 2.97197 -0.495467 0.435893 0.899639 -0.0254361
10.3054 3.29935 -1.26233 0.427303 0.904007 -0.0135205
9.4913 3.66437 -1.79433 0.403608 0.914643 -0.0209035
8.25882 4.16602 -2.28808 0.352865 0.934787 -0.0358722
7.1905 4.54476 -2.53428 0.341729 0.93948 -0.0244819
6.18214 4.85708 -2.57386 0.270513 0.96264 -0.0121473
5.10686 5.11002 -2.57074 0.156383 0.987651 0.00949057
4.02236 5.27191 -2.46002 0.140932 0.989991 0.00749828
3.07871 5.38148 -2.08057 0.0576984 0.998241 -0.0136302
2.18263 5.44074 -1.53382 0.0593588 0.998057 -0.0182945
1.42483 5.44644 -0.566824 -0.0238689 0.999528 -0.0188623
0.782891 5.39604 0.547756 -0.109024 0.994015 0.00696278
0.470447 5.36635 1.49818 -0.1112 0.993764 -0.008252
0.530975 5.37005 2.87402 -0.0890345 0.995948 0.0114027
0.849876 5.42302 4.11632 -0.125867 0.991179 -0.0414814
1.32773 5.48339 5.10638 -0.0932234 0.99537 0.0234133
2.15415 5.50636 6.20138 -0.000832834 1 2.15618e-05
2.95031 5.50665 7.02463 0.0387185 0.999079 -0.0179746
3.91559 5.43711 7.74922 0.169029 0.985362 0.0179395
4.99175 5.24188 8.29431 0.201445 0.979376 -0.0133393
6.09899 5.00016 8.39937 0.284689 0.957644 -0.0432575
6.34753 4.88899 7.45636 0.27804 0.959997 -0.0331548
7.4298 4.5594 7.45925 0.320788 0.946736 -0.0280057
8.61352 4.12149 7.12287 0.377719 0.925885 -0.00617347
9.58325 3.71685 6.47947 0.402469 0.915414 0.00563348
10.4165 3.34555 5.87949 0.433164 0.901075 -0.0207981
10.9474 3.07633 4.70563 0.437684 0.899059 -0.0112072
11.4003 2.84135 3.3868 0.441514 0.897208 -0.00904525
11.4167 2.82853 2.32571 0.444798 0.895585 -0.00746625
11.0669 2.99543 1.3866 0.441892 0.897052 -0.00545198
10.4431 3.27265 0.302346 0.429474 0.902727 -0.0252189
9.79012 3.56017 -0.44397 0.406747 0.913396 -0.016253
8.87266 3.94496 -1.01632 0.393512 0.919172 -0.016465
7.76852 4.37559 -1.45239 0.337928 0.939994 -0.0470785
6.44136 4.78624 -1.5542 0.290987 0.95658 0.00136801
5.4113 5.05621 -1.53396 0.152952 0.988232 0.00192575
4.00756 5.27666 -1.36413 0.149256 0.988678 -0.0154353
2.78509 5.42133 -0.776509 0.0673493 0.997577 -0.0121122
2.23612 5.46137 0.0470742 0.0184116 0.999783 0.00977557
1.73468 5.47102 0.916973 0.0244653 0.999603 -0.0140037
1.45161 5.44859 1.90338 -0.0383848 0.999141 0.0156161
1.61771 5.46067 3.1155 -0.0571961 0.998143 -0.0203794
2.05728 5.51128 4.58231 -0.0378592 0.999103 -0.0166449
2.85286 5.5192 5.57899 0.0121798 0.998441 0.0279443
3.96319 5.45518 6.61235 0.0444821 0.998875 -0.00405177
5.02256 5.22903 7.30135 0.207194 0.978134 0.0179893
5.59643 5.10513 7.41587 0.281364 0.95882 -0.0382064
-12.1175 0.740216 10.7137 -0.456864 0.889525 0.00454983
-12.0526 0.768109 11.9203 -0.45743 0.889239 0.00340425
-12.1001 0.740198 13.0291 -0.462311 0.886705 -0.00477644
-12.1794 0.707255 14.2971 -0.461313 0.88721 -0.00694652
-12.2243 0.69531 15.5072 -0.461124 0.88728 -0.00989563
-12.3318 0.650485 16.7824 -0.449797 0.893124 -0.00333555
-12.1938 0.721361 17.7941 -0.45284 0.89159 0.00179043
-11.5787 1.03207 18.6668 -0.458414 0.888725 0.00487379
-10.4659 1.60163 19.1141 -0.455904 0.890028 -0.000537718
-9.40248 2.14242 19.3928 -0.44712 0.894467 -0.00353606
-8.37238 2.65189 19.4149 -0.439245 0.898328 -0.00846085
-7.15957 3.2385 19.3957 -0.432319 0.901658 -0.01061
-5.69714 3.92049 19.4037 -0.423227 0.905861 -0.0170127
-4.74397 4.33098 19.4572 -0.39306 0.919107 -0.0273058
-3.75898 4.71839 19.4692 -0.36488 0.93063 -0.0278836
-2.69616 5.08474 19.5511 -0.293444 0.955074 -0.0415283
-1.42326 5.44774 19.5796 -0.224123 0.97304 -0.0068728
-0.26436 5.65223 19.6719 -0.124195 0.990941 -0.0109034
0.9025 5.73751 19.6364 -0.0192949 0.998302 -0.048495
2.18017 5.73319 19.6022 0.028005 0.997845 -0.0518514
3.62639 5.59789 19.6662 0.120811 0.991305 -0.0439484
4.99429 5.36273 19.6524 0.205748 0.977345 -0.0313922
6.17771 5.05704 19.6238 0.283398 0.958216 -0.0195243
7.13244 4.73717 19.6319 0.342927 0.938945 -0.00631671
8.08995 4.3654 19.701 0.374528 0.926884 0.0142416
9.12664 3.92417 19.594 0.396089 0.918112 0.0119505
10.1624 3.44588 19.5602 0.422779 0.90622 0.0035792
11.2225 2.93726 19.3499 0.442361 0.896764 0.00593326
12.3448 2.37004 18.779 0.453711 0.891147 0.00197018
13.0908 1.98185 18.1736 0.473405 0.880814 0.00742946
13.9708 1.50561 17.6684 0.481479 0.876436 0.00606781
14.6427 1.14196 17.0284 0.481938 0.876183 0.00501
15.0804 0.904128 15.8272 0.487209 0.873283 0.00190071
15.3004 0.7845 14.5308 0.495217 0.868766 0.00228115
15.4551 0.703756 13.4021 0.492844 0.870074 0.00870906
15.3656 0.764166 12.3305 0.489021 0.872222 0.00933845
15.1833 0.87529 11.3498 0.483935 0.875068 0.00794128
15.148 0.899334 10.1875 0.482736 0.875766 -0.000208915
14.9487 1.0087 9.15512 0.483348 0.875426 -0.0019323
14.8447 1.06401 8.12545 0.482618 0.87583 0.000884582
14.7797 1.09981 6.95381 0.483842 0.875152 -0.00244969
14.6989 1.13893 5.712 0.484319 0.874864 -0.00689703
14.8053 1.07197 4.53009 0.484355 0.874857 -0.00506734
14.798 1.06563 3.48679 0.484015 0.874953 -0.0136863
14.7651 1.06495 2.13368 0.484654 0.874629 -0.0116064
14.8853 0.981286 1.04663 0.489141 0.872035 -0.0172015
14.8799 0.960617 -0.000757762 0.486607 0.873338 -0.0222084
14.5576 1.11543 -1.17416 0.485025 0.874288 -0.0185551
14.0485 1.37862 -2.15479 0.483561 0.875181 -0.0147227
13.4882 1.66864 -3.02987 0.470312 0.882373 -0.0146129
13.0855 1.85809 -4.13488 0.472311 0.881233 -0.0184783
12.7455 2.02144 -5.16052 0.469625 0.882704 -0.016901
12.4009 2.18127 -6.29292 0.467526 0.883693 -0.0217181
12.1192 2.28994 -7.44103 0.441864 0.896613 -0.028991
11.6956 2.45436 -8.70107 0.453829 0.890339 -0.0365362
11.5046 2.49806 -9.98601 0.444147 0.89506 -0.0400193
11.6049 2.40919 -11.0433 0.445822 0.89477 -0.0250976
11.7048 2.32839 -12.0363 0.447199 0.89392 -0.0303472
11.8973 2.19761 -13.1059 0.44269 0.896147 -0.0303688
12.2207 1.99917 -14.0826 0.456615 0.889082 -0.032171
12.6885 1.73013 -14.9569 0.455926 0.889538 -0.0292146
13.2636 1.40947 -15.7131 0.456632 0.889154 -0.0298591
13.8738 1.05949 -16.5424 0.465578 0.884361 -0.0338166
14.1952 0.853685 -17.5521 0.475643 0.879148 -0.0293634
13.5635 1.16728 -18.3012 0.470551 0.88198 -0.0263185
12.5365 1.69808 -18.5975 0.462011 0.886573 -0.0231019
11.5792 2.1844 -18.8103 0.444114 0.895456 -0.0297782
10.6237 2.64072 -19.0525 0.435653 0.899652 -0.0288745
9.72011 3.06421 -19.2383 0.412807 0.910524 -0.0217459
8.72176 3.51508 -19.5087 0.414709 0.909845 -0.0140577
7.61639 3.98097 -19.571 0.379441 0.925026 -0.0184859
6.59584 4.38015 -19.6177 0.342418 0.939235 -0.00425096
5.39797 4.77965 -19.6381 0.304788 0.952284 -0.0161132
4.19068 5.11981 -19.6511 0.249441 0.968004 -0.0273551
2.51184 5.47357 -19.6792 0.160971 0.985168 0.0594338
1.19596 5.66131 -19.6474 0.108352 0.991688 0.0693822
-0.0245877 5.73393 -19.6258 0.00195833 0.99854 0.0539902
-1.2218 5.67513 -19.6695 -0.104637 0.994306 0.0201616
-2.5081 5.46575 -19.5308 -0.20794 0.97702 0.0461607
-3.87519 5.14078 -19.539 -0.250337 0.967008 0.0471828
-5.08842 4.7668 -19.4678 -0.311582 0.949651 0.0328521
-6.20572 4.3566 -19.3813 -0.369434 0.928788 0.0194927
-7.42741 3.83762 -19.1859 -0.401169 0.91574 0.0148297
-8.44597 3.37011 -19.0978 -0.415922 0.909272 0.015286
-9.42637 2.89243 -18.7857 -0.438528 0.898338 0.0251809
-10.3331 2.43018 -18.3889 -0.44441 0.895374 0.0283877
-11.3519 1.88827 -17.6473 -0.460434 0.887285 0.0269304
-12.0986 1.48005 -16.9293 -0.468035 0.883315 0.0254888
-12.9042 1.02805 -16.3308 -0.472978 0.880637 0.0276918
-13.4486 0.701251 -15.2927 -0.483783 0.874842 0.0245924
-13.3717 0.713032 -14.2922 -0.475803 0.879121 0.0275256
-13.0908 0.834952 -13.1487 -0.473017 0.880826 0.020022
-12.9822 0.867221 -12.0848 -0.470123 0.882392 0.0191709
-12.7927 0.935768 -10.8037 -0.463826 0.88574 0.0181503
-11.9523 1.36713 -10.7146 -0.455655 0.889949 0.0192004
-11.0231 1.85616 -11.2 -0.449725 0.892498 0.0345708
-10.1382 2.30962 -11.4966 -0.441981 0.89638 0.0339942
-8.9851 2.86831 -11.5573 -0.42805 0.903356 0.0266243
-7.71315 3.45072 -11.7391 -0.409117 0.911838 0.0342894
-6.68756 3.87796 -11.7751 -0.373911 0.926503 0.042221
-5.66685 4.27352 -11.5559 -0.351555 0.935638 0.0314846
-4.62053 4.6412 -11.1254 -0.294392 0.955539 0.016719
-3.68975 4.87698 -10.7165 -0.254684 0.965361 0.0566852
-2.73183 5.08626 -10.2574 -0.217904 0.974287 0.0547262
-1.9134 5.22668 -9.60095 -0.176357 0.982832 0.0542116
-1.3142 5.28534 -8.71513 -0.168667 0.984855 0.0208284
-0.776265 5.34555 -7.52799 -0.139636 0.990054 -0.0171859
-0.423237 5.37262 -6.25971 -0.145745 0.988824 0.0313791
-0.17878 5.3752 -5.25312 -0.0864595 0.995155 0.0468191
-0.0543766 5.35409 -4.0559 -0.0925519 0.995677 0.00781981
-0.214277 5.32316 -2.58629 -0.113689 0.993383 0.0163037
-0.471413 5.28015 -1.10815 -0.147192 0.988152 0.0219328
-0.859353 5.18557 0.0167663 -0.174303 0.984691 0.00169687
-1.35567 5.09609 1.04088 -0.227242 0.973452 -0.0274185
-2.06446 4.9305 2.04474 -0.232505 0.972468 0.0157227
-2.8862 4.68653 3.06371 -0.271764 0.962323 0.00885646
-3.53729 4.48773 3.81058 -0.278565 0.960368 -0.00971744
-4.41792 4.21125 4.77897 -0.332246 0.94297 -0.000816269
-5.33128 3.86853 5.34711 -0.359719 0.933034 -7.95717e-05
-6.29162 3.49136 5.85565 -0.380335 0.924695 -0.00354541
-7.29155 3.06207 6.10786 -0.3962 0.918154 -0.00410332
-8.69779 2.43829 6.17353 -0.408176 0.912801 0.0128606
-9.70975 1.96527 6.23063 -0.428043 0.90373 0.00489297
-10.7038 1.48796 5.9744 -0.433605 0.901033 0.00990842
-11.6383 1.03005 5.74781 -0.444291 0.895816 0.0107674
-12.2952 0.694202 6.46088 -0.449063 0.893457 0.00875442
-12.3048 0.676824 7.47666 -0.449856 0.893003 0.0132452
-12.3565 0.631328 8.70886 -0.455463 0.89017 0.012261
-12.2203 0.69169 9.77412 -0.455445 0.890244 0.00562874
-12.1359 0.732548 10.363 -0.456329 0.889802 0.00398584
-13.0262 0.275202 10.3654 -0.45843 0.888727 0.00241463
-12.9234 0.318563 11.513 -0.462127 0.886655 0.0167842
-12.9355 0.302874 12.523 -0.472475 0.881138 0.0149561
-12.9572 0.290975 13.5717 -0.472555 0.88119 -0.0139743
-13.0291 0.269821 14.8742 -0.469491 0.88288 -0.00995602
-13.1632 0.231264 16.4457 -0.437492 0.899142 -0.00627487
-13.242 0.195205 17.4698 -0.449004 0.893316 0.0148439
-12.9095 0.343383 18.4245 -0.471862 0.881566 0.0136657
-12.468 0.564346 19.3599 -0.467278 0.884087 0.00642699
-11.6688 0.982227 19.7827 -0.461407 0.887182 0.00334871
-10.6822 1.49117 20.0292 -0.456849 0.889543 -0.00106675
-9.82742 1.92959 20.3486 -0.456935 0.889494 -0.00263207
-8.73002 2.48638 20.4443 -0.444472 0.895745 -0.00723054
-7.78196 2.95283 20.3975 -0.444093 0.895883 -0.0132112
-6.75456 3.44523 20.3729 -0.429853 0.902778 -0.0147885
-5.86352 3.86546 20.4895 -0.412515 0.910705 -0.0167285
-4.68789 4.38118 20.4472 -0.389273 0.920757 -0.019906
-3.51437 4.83532 20.5658 -0.336531 0.94132 -0.024309
-2.52405 5.17454 20.5601 -0.265047 0.963212 -0.0444109
-1.29651 5.48277 20.587 -0.191386 0.981442 -0.0119682
-0.29072 5.64181 20.634 -0.135629 0.990723 0.00849525
1.12356 5.78197 20.7014 -0.0402561 0.998633 -0.0333348
2.18936 5.77304 20.6073 0.0543434 0.997719 -0.0400481
3.60573 5.6278 20.6477 0.143172 0.989326 -0.0271305
4.99039 5.37866 20.6393 0.238511 0.97075 -0.0253577
6.03988 5.11639 20.6191 0.291822 0.956451 -0.00636542
7.34343 4.65331 20.6349 0.364907 0.931018 -0.00688371
8.36832 4.23801 20.6507 0.386122 0.922444 0.00256544
9.30635 3.83686 20.6311 0.416613 0.909069 0.00520281
10.2553 3.39696 20.6397 0.425451 0.904971 0.00440757
11.2529 2.91848 20.3486 0.4368 0.899555 0.0024122
12.1448 2.46779 20.0982 0.456234 0.889829 0.00371232
12.9275 2.06191 19.5468 0.467077 0.884191 0.00426887
13.6457 1.67755 18.9343 0.482043 0.876148 4.76923e-05
14.4902 1.21524 18.4858 0.483829 0.875154 0.00380609
15.3705 0.735063 17.7284 0.486741 0.873433 0.0122473
15.7393 0.53851 16.7673 0.483306 0.875451 0.00106233
16.0449 0.360839 15.6196 0.492521 0.87027 -0.00628295
16.1289 0.310087 14.5213 0.500676 0.865627 0.0037107
16.2442 0.24838 13.4708 0.502959 0.864293 0.00550094
16.2694 0.252874 12.3474 0.499695 0.865967 0.0201333
16.0579 0.391328 11.3406 0.484649 0.874666 0.00869198
16.0064 0.424389 10.1895 0.485163 0.874423 0.000946594
15.7259 0.579059 8.91212 0.484271 0.874917 -0.00143083
15.6938 0.596707 7.86193 0.482805 0.875727 1.5895e-05
15.7058 0.587329 6.79489 0.485039 0.874486 -0.00342807
15.6184 0.630635 5.78773 0.484278 0.874888 -0.00673194
15.7047 0.572238 4.6466 0.484383 0.874805 -0.00941023
15.6799 0.575746 3.6433 0.488373 0.872586 -0.0092957
15.6394 0.586266 2.63422 0.48626 0.87374 -0.0113625
15.7414 0.511092 1.52809 0.486752 0.873333 -0.0190288
15.7799 0.463623 0.343636 0.49107 0.870873 -0.0207207
15.6517 0.508854 -0.776851 0.489216 0.871921 -0.0205063
15.1359 0.773808 -2.00656 0.492033 0.870414 -0.0167902
14.5929 1.06479 -2.87454 0.492076 0.870409 -0.0157797
14.0666 1.33129 -4.04369 0.479085 0.877611 -0.0166009
13.7443 1.48451 -5.12744 0.475985 0.87929 -0.0168652
13.4266 1.6364 -6.11231 0.471452 0.881643 -0.0209241
13.1083 1.78378 -7.13896 0.47348 0.880293 -0.0295231
12.7632 1.92837 -8.16294 0.471744 0.881071 -0.0342324
12.4994 2.02397 -9.24468 0.452588 0.891035 -0.0349409
12.449 2.00374 -10.496 0.446399 0.89444 -0.0265343
12.4838 1.95281 -11.5437 0.455534 0.889674 -0.0311265
12.6565 1.83124 -12.5374 0.456228 0.889421 -0.0280545
12.941 1.65125 -13.4926 0.455793 0.889431 -0.0341253
13.4266 1.36915 -14.3965 0.461435 0.886733 -0.0279726
14.1102 0.983906 -15.2334 0.464293 0.885109 -0.0318593
14.7083 0.636324 -15.9871 0.473416 0.880157 -0.0346615
15.2415 0.303844 -17.0224 0.484511 0.874079 -0.0350792
14.9791 0.41038 -18.0887 0.483621 0.874845 -0.0275107
14.4638 0.665158 -18.9312 0.478162 0.877822 -0.0281079
13.6135 1.11326 -19.3196 0.471845 0.881412 -0.0218118
12.7392 1.56813 -19.5621 0.46192 0.886696 -0.0198888
11.669 2.11283 -19.7683 0.448137 0.893868 -0.0131285
10.5352 2.66375 -20.1482 0.43767 0.89907 -0.0108444
9.43102 3.18355 -20.3568 0.412387 0.91097 -0.00840887
8.5246 3.59358 -20.5153 0.401877 0.915676 -0.00571561
7.33179 4.09008 -20.6439 0.368403 0.92966 0.00038776
6.10214 4.54465 -20.6054 0.331587 0.943306 -0.0149428
4.8117 4.96676 -20.6714 0.283521 0.958954 0.0048226
3.77438 5.25641 -20.613 0.231183 0.972372 0.0212526
2.62559 5.50332 -20.6886 0.189007 0.981273 0.0268857
1.60304 5.68583 -20.6634 0.14121 0.986135 0.0730595
0.364916 5.76905 -20.6037 0.0719288 0.997109 0.0244734
-0.725498 5.78896 -20.5736 -0.0435475 0.99876 0.0241385
-1.82181 5.64917 -20.6677 -0.179278 0.983373 0.0289294
-2.88486 5.42818 -20.5245 -0.215914 0.974991 0.052661
-3.86895 5.17625 -20.5077 -0.279019 0.958096 0.0648152
-5.0274 4.81555 -20.3983 -0.337973 0.940459 0.036199
-6.01586 4.45719 -20.3444 -0.338839 0.940123 0.0368353
-7.14718 3.98829 -20.2647 -0.390636 0.91964 0.0408123
-8.26063 3.47241 -20.0836 -0.416804 0.90876 0.0207309
-9.33961 2.95968 -19.9734 -0.439708 0.898029 0.0141611
-10.2969 2.48104 -19.5701 -0.445523 0.895045 0.0197734
-11.1297 2.04336 -19.0232 -0.461713 0.886703 0.0240655
-11.8719 1.63905 -18.3776 -0.465829 0.884522 0.0247223
-12.6141 1.22888 -17.7944 -0.470784 0.881926 0.023696
-13.3521 0.81475 -17.2547 -0.48033 0.876691 0.0264
-14.0447 0.407951 -16.5878 -0.500594 0.865005 0.0300816
-14.257 0.257036 -15.1851 -0.483203 0.875292 0.0155188
-14.1367 0.281246 -13.7598 -0.47719 0.878362 0.0277401
-13.9328 0.364328 -12.5462 -0.481878 0.876016 0.0196458
-13.7449 0.45008 -11.5192 -0.475092 0.879924 0.00464978
-13.6432 0.48013 -10.2651 -0.463428 0.885855 0.0218929
-13.7197 0.400705 -8.89374 -0.461138 0.886909 0.0272789
-13.2182 0.650288 -8.48319 -0.462126 0.886434 0.0259539
-12.4041 1.09666 -9.2633 -0.457191 0.8889 0.0285431
-11.5406 1.5523 -9.82067 -0.449237 0.892932 0.0293062
-10.596 2.03996 -10.359 -0.435751 0.899278 0.0376882
-9.66493 2.49884 -10.5853 -0.432174 0.900966 0.0384869
-8.56876 3.01581 -10.6528 -0.419321 0.906504 0.0487435
-7.44126 3.51714 -10.726 -0.391128 0.919014 0.0493066
-6.46206 3.92002 -10.6976 -0.372955 0.926713 0.0457424
-5.33038 4.34602 -10.4528 -0.351374 0.934295 0.060246
-4.29164 4.65956 -9.93621 -0.267895 0.96256 0.0413474
-3.06673 4.96007 -9.30788 -0.252294 0.96609 0.0549385
-2.25134 5.13384 -8.60743 -0.210121 0.977412 0.0226945
-1.78437 5.18656 -7.56933 -0.181763 0.982465 0.0403711
-1.36995 5.22853 -6.36837 -0.184803 0.982355 0.0287388
-1.06556 5.23679 -4.93392 -0.160373 0.986544 0.0318012
-1.05597 5.21506 -3.84788 -0.155901 0.987655 0.0146665
-1.2893 5.16691 -2.41453 -0.179799 0.983246 0.015147
-1.59817 5.06848 -1.12784 -0.202254 0.979007 0.0252604
-1.94554 4.96319 -0.0724051 -0.224624 0.974231 0.0204289
-2.64176 4.7862 1.05912 -0.261692 0.965148 0.00267922
-3.30614 4.57794 2.01604 -0.28518 0.957987 0.0260708
-3.95189 4.36768 2.76549 -0.311496 0.949809 0.0207279
-4.6133 4.13976 3.52699 -0.349729 0.936849 0.00214506
-5.43696 3.83084 4.26524 -0.35401 0.935225 0.00258057
-6.3611 3.46307 4.80394 -0.383589 0.923502 0.00179179
-7.61108 2.93006 5.13256 -0.399309 0.916789 0.00707275
-8.64629 2.47291 5.18618 -0.411663 0.911279 0.010218
-9.77881 1.94569 5.14237 -0.429204 0.903102 0.0138231
-10.9338 1.38956 4.86249 -0.442758 0.896526 0.014376
-11.8529 0.935457 4.603 -0.455354 0.89021 0.0133996
-12.7263 0.488788 4.69936 -0.464094 0.885745 0.00854441
-13.2082 0.23895 5.80844 -0.459244 0.888293 -0.00558144
-13.1147 0.277675 6.90779 -0.444258 0.895826 0.0113857
-13.1211 0.248601 8.00422 -0.462311 0.886375 0.0224564
-13.1686 0.206139 9.09314 -0.471242 0.881998 -0.00312287
-13.0671 0.255067 10.0078 -0.45843 0.888727 0.00241517
11.2672 2.3865 -17.2793 0.437508 0.898719 -0.029849
11.9455 2.06764 -16.4455 0.45841 0.888539 -0.0189452
10.9547 2.59659 -15.0147 0.432539 0.901224 -0.0265774
9.31957 3.32073 -16.9651 0.413029 0.910117 -0.0330793
8.42795 3.68248 -18.0004 0.389688 0.920666 -0.0227342
6.00197 4.59708 -18.1024 0.324633 0.945805 -0.00811734
7.72746 4.02221 -16.1831 0.367876 0.929273 -0.0334566
9.27643 3.39775 -14.3851 0.410951 0.911461 -0.0189148
10.3867 2.9303 -13.0758 0.414704 0.909522 -0.0281275
10.2295 3.07927 -10.652 0.419451 0.907039 -0.0366235
8.53045 3.7774 -12.6467 0.390785 0.920191 -0.0231546
6.89496 4.40217 -14.5172 0.333781 0.942289 -0.0261243
5.29239 4.87011 -16.2737 0.248136 0.968712 -0.00500512
3.80229 5.22712 -17.8649 0.193623 0.981066 0.00455251
1.04533 5.60137 -18.1046 0.0460509 0.998938 -0.0016066
2.73566 5.43081 -16.364 0.121114 0.992596 0.00921052
4.44228 5.1333 -14.5737 0.240023 0.970754 -0.00501879
6.13276 4.68861 -12.7485 0.302982 0.952994 0.00188185
7.84146 4.12246 -10.8329 0.385937 0.921646 -0.0402519
9.36885 3.53235 -9.06409 0.388274 0.921038 -0.0305457
10.5325 3.04776 -7.69254 0.432022 0.90142 -0.0282654
-1.51269 5.58563 -18.1145 -0.133617 0.987954 0.0780537
0.564297 5.62575 -15.9845 -0.00914541 0.999958 -0.000421355
2.55554 5.49748 -13.9439 0.154222 0.987974 -0.0111224
4.49989 5.1351 -11.8965 0.222688 0.974884 0.00344394
6.60219 4.62697 -9.62451 0.298784 0.953974 -0.0257249
8.3935 3.9998 -7.59219 0.384922 0.922162 -0.0381043
10.366 3.18863 -5.27624 0.421555 0.906544 -0.0216584
11.7615 2.56298 -3.6 0.447999 0.893802 -0.0203802
9.82257 3.48624 -3.30072 0.402186 0.915378 -0.0181288
7.87527 4.25652 -5.57208 0.352978 0.935612 0.0060071
6.08021 4.82314 -7.58036 0.295097 0.955035 -0.0287315
3.91843 5.28935 -9.89977 0.179183 0.983815 -0.00155948
1.76882 5.54044 -12.1375 0.0251248 0.999527 0.0177174
-0.272432 5.57661 -14.2331 -0.0693065 0.997095 0.0316084
-2.29774 5.44944 -16.3265 -0.138118 0.989361 0.0457071
-3.79398 5.10913 -17.9355 -0.289605 0.956951 0.0193492
-5.99368 4.38379 -17.7923 -0.344693 0.937795 0.041557
-4.06535 5.00298 -15.6146 -0.263778 0.964265 0.0247889
-2.24117 5.31471 -13.6666 -0.158807 0.985579 0.058429
-0.00699609 5.48035 -11.3509 -0.0611611 0.997632 0.0314657
1.93979 5.54001 -9.33955 0.0339267 0.999377 0.00972145
3.79245 5.3145 -7.40744 0.170035 0.985425 0.0050326
5.66365 4.94209 -5.4051 0.240324 0.970658 -0.00820455
6.73923 4.67069 -4.22766 0.279681 0.960045 -0.00964674
4.36925 5.23407 -4.16461 0.18809 0.982116 -0.00834222
2.33907 5.48008 -6.30706 0.0752457 0.997141 0.00693762
0.571299 5.48143 -8.14473 -0.0702015 0.997533 -0.000269623
1.56284 5.48618 -4.49274 -0.0300858 0.999306 0.0219771
2.51045 5.44483 -3.48714 0.0282498 0.998258 0.0517907
13.3423 1.87619 6.34323 0.462112 0.886818 -0.00262444
12.9785 2.06251 5.88729 0.463281 0.88619 -0.00621675
12.1222 2.50445 7.49277 0.452413 0.891806 0.00225238
13.4412 1.8255 9.14096 0.465337 0.885132 -0.00148289
13.7264 1.67527 9.4995 0.470688 0.8823 -0.000213267
11.0726 3.0253 8.86016 0.430911 0.902389 -0.00310174
12.4388 2.34925 10.5497 0.459342 0.888258 0.00133416
13.9374 1.55549 12.4351 0.481264 0.876565 0.00434068
14.0208 1.50968 12.5416 0.482147 0.87609 -0.000762609
13.6889 1.67709 14.7965 0.478465 0.878105 0.00171001
12.364 2.38401 13.1246 0.454794 0.890596 0.000713885
10.98 3.08263 11.4045 0.436315 0.899783 0.00441283
9.54265 3.75329 9.65901 0.412843 0.910768 -0.00785035
9.5187 3.76338 9.63067 0.399138 0.916825 -0.0109916
7.72199 4.51344 10.1698 0.352725 0.935527 -0.0193608
9.37239 3.8411 12.1057 0.409063 0.912503 -0.00221245
10.8869 3.12924 13.9504 0.429922 0.902862 -0.00282769
12.4211 2.35134 15.8643 0.453193 0.891368 0.00884948
12.8674 2.11257 16.4294 0.464798 0.885374 0.0086617
11.4582 2.83151 17.335 0.447553 0.894253 0.00280012
9.82536 3.6269 15.3163 0.41702 0.908883 0.00517074
8.41493 4.24109 13.6258 0.393802 0.919191 0.00273941
7.0089 4.75994 12.0003 0.28717 0.957754 0.015515
5.4812 5.1911 10.3147 0.228517 0.973173 0.0267152
5.15572 5.2602 9.9668 0.174037 0.984461 -0.0234184
-7.87008 3.58774 -17.3733 -0.418209 0.907884 0.0291181
-6.07119 4.29221 -15.2521 -0.379136 0.924562 0.0379526
-4.31073 4.82594 -13.2697 -0.28915 0.955722 0.0546702
-3.47113 5.02183 -12.3625 -0.210407 0.977106 0.0315175
-6.57942 4.00168 -13.2188 -0.377473 0.925015 0.0431517
-8.23914 3.3419 -15.1825 -0.423301 0.905295 0.0354677
-9.68264 2.70809 -16.9417 -0.444713 0.895316 0.0252977
-10.9956 2.02448 -15.9076 -0.446915 0.89426 0.0237945
-9.44271 2.72701 -13.9968 -0.4354 0.899808 0.0278067
-8.81324 2.99941 -13.2366 -0.41676 0.908687 0.0244756
-11.0345 1.91989 -13.2972 -0.455788 0.889663 0.0275048
-11.5953 1.65642 -13.9931 -0.471778 0.88119 0.0304794
-2.20226 4.86518 4.79947 -0.242396 0.970164 -0.00507427
-0.4756 5.27429 6.67158 -0.147617 0.987881 -0.0479635
1.27451 5.55288 8.50602 -0.10083 0.994609 0.0242101
3.11146 5.53021 10.43 0.0555637 0.997646 -0.0401899
4.77029 5.36402 12.1808 0.179186 0.983772 -0.00922166
6.41888 4.96236 13.9825 0.308386 0.951202 0.0105989
8.02451 4.39884 15.8214 0.371945 0.928159 0.0133065
9.64972 3.69851 17.7688 0.407735 0.913083 0.00556291
9.87846 3.59566 18.0459 0.41419 0.910169 0.00630709
7.72505 4.51648 18.1177 0.353385 0.935465 0.00490239
6.17667 5.05518 16.3456 0.298185 0.954507 -0.00122225
4.42463 5.49771 14.4384 0.189831 0.98137 -0.0295995
2.57921 5.6615 12.5052 0.0201051 0.999391 -0.0285039
0.60133 5.48335 10.4334 -0.086188 0.995533 -0.0385478
-1.06025 5.20502 8.67326 -0.212876 0.977063 0.00568369
-2.69067 4.78865 6.90216 -0.282606 0.959088 -0.0168536
-3.56747 4.48902 5.91858 -0.30783 0.951306 -0.0160562
-5.06367 3.975 6.84523 -0.354071 0.935152 -0.0111273
-3.4755 4.58041 8.66482 -0.310112 0.950529 -0.0180511
-1.79356 5.10013 10.5232 -0.233245 0.971837 -0.0336158
-0.154026 5.44562 12.2811 -0.163201 0.986106 -0.0309921
1.77724 5.68167 14.3005 -0.0541614 0.998339 -0.0196627
3.67381 5.61984 16.2675 0.175938 0.984309 0.0134903
5.46881 5.25674 18.1949 0.205698 0.978593 -0.00670337
2.72806 5.70849 17.9123 0.0934852 0.994623 -0.0445636
0.970463 5.66658 16.0989 -0.0458997 0.998681 -0.0229894
-0.781854 5.41772 14.2627 -0.190888 0.980515 -0.0463926
-2.8643 4.84267 11.9946 -0.267653 0.963252 -0.0225355
-4.51968 4.22924 10.1196 -0.350568 0.936479 -0.0104469
-6.04478 3.60187 8.3418 -0.374345 0.927266 -0.00668931
-6.5038 3.40966 7.79997 -0.397221 0.917712 -0.00438483
-8.53059 2.50831 8.01026 -0.421878 0.906641 -0.00460305
-6.99927 3.20888 9.85984 -0.405073 0.914279 -0.00294905
-5.29847 3.95092 11.8675 -0.381073 0.924407 -0.0160012
-3.76256 4.57243 13.6335 -0.331271 0.94324 -0.0236219
-2.12489 5.14275 15.4667 -0.265963 0.963543 -0.0291358
-0.381121 5.56011 17.3321 -0.147621 0.988691 -0.0264289
0.201388 5.64111 17.9337 -0.0936545 0.994907 -0.037258
-2.2461 5.19396 17.9776 -0.282771 0.95917 -0.00580742
-4.02785 4.52993 15.986 -0.36392 0.930754 -0.0354739
-5.76421 3.80563 13.9814 -0.384396 0.922978 -0.0187721
-7.37263 3.05179 12.0622 -0.417694 0.908566 -0.00627135
-8.99891 2.29302 10.1001 -0.425271 0.905066 0.00076935
-10.5983 1.52254 8.13345 -0.442735 0.896637 0.00525209
-10.781 1.43365 7.9079 -0.443278 0.896361 0.00641523
-10.806 1.40597 10.5419 -0.449117 0.893473 -0.000763681
-9.35007 2.12664 12.3315 -0.435034 0.900414 -0.000893802
-7.88283 2.83933 14.1073 -0.428597 0.903403 -0.0129372
-6.18873 3.64739 16.1385 -0.406019 0.913789 -0.0117475
-4.75999 4.28153 17.8025 -0.373676 0.927226 -0.0248717
-7.07377 3.25769 17.7456 -0.423183 0.905996 -0.00937636
-8.60643 2.50968 15.8952 -0.436983 0.899458 -0.00455015
-10.5325 1.54558 13.5395 -0.449255 0.89339 -0.00501651
-10.583 1.51984 13.4777 -0.450566 0.892734 -0.00396214
-10.7826 1.42946 15.892 -0.450389 0.89282 -0.00468458
-9.31302 2.17681 17.7091 -0.443483 0.896255 -0.00701602
