-7.40364 39.5399 8.12637 0.330735 -0.941573 0.0612922
-7.67084 39.5104 9.20535 0.339449 -0.935542 0.0976534
-7.92799 39.5137 10.3238 0.375682 -0.923753 0.0744489
-8.03729 39.5717 11.4658 0.381809 -0.91934 0.0950581
-8.01102 39.7214 12.7862 0.392825 -0.913324 0.106282
-7.85141 39.9509 13.8258 0.4572 -0.881214 0.120112
-7.52708 40.2735 14.9925 0.415176 -0.892634 0.175594
-6.98254 40.6616 15.932 0.355997 -0.916057 0.184679
-6.32322 41.0374 16.6585 0.291594 -0.937095 0.186297
-5.61304 41.3426 17.3517 0.177152 -0.970686 0.15778
-4.74818 41.5545 18.0276 0.137836 -0.985549 0.0961757
-3.78914 41.7249 18.8763 0.0516925 -0.994183 0.0942727
-2.7788 41.8025 19.2102 0.0482894 -0.994766 0.0900333
-2.0567 41.8196 19.412 0.00413951 -0.999143 0.0411919
-3.11683 41.8059 19.4143 0.0460665 -0.994452 0.0945723
-4.14355 41.7579 19.468 0.0753686 -0.992063 0.0899779
-5.56844 41.5776 19.4979 0.151609 -0.983986 0.0937311
-6.85422 41.316 19.4718 0.235204 -0.967093 0.097008
-7.89564 41.0024 19.2386 0.344378 -0.937245 0.0437289
-8.10633 40.7727 18.1642 0.372103 -0.906016 0.201679
-8.6673 40.2077 17.192 0.537862 -0.752014 0.359959
-9.53597 39.4995 16.8691 0.602386 -0.762471 0.221774
-10.4533 38.7284 16.9445 0.679122 -0.719147 0.125067
-11.293 37.917 17.0145 0.678424 -0.73269 -0.0495227
-11.9889 37.2476 17.498 0.643125 -0.761699 -0.0787541
-12.3795 36.8285 18.418 0.639745 -0.765454 -0.0693334
-12.7683 36.4385 19.4429 0.638691 -0.768193 -0.0441919
-14.0895 35.3989 19.4495 0.613687 -0.787697 -0.0540474
-14.9262 34.7809 19.3762 0.594178 -0.802382 -0.055863
-16.0661 33.9458 19.3231 0.592705 -0.803265 -0.0588351
-17.1131 33.1724 19.2784 0.603274 -0.795682 -0.0530724
-18.1649 32.345 19.3856 0.619419 -0.783591 -0.0475471
-19.1435 31.5471 19.4541 0.632953 -0.773645 -0.0287071
-20.065 30.7646 19.4604 0.649966 -0.759571 -0.0240548
-21.0104 29.9374 19.4439 0.6594 -0.751521 -0.0201859
-22.0568 28.9902 19.4333 0.676164 -0.736572 -0.0155224
-23.0899 28.0227 19.4199 0.686326 -0.727269 -0.000157455
-23.9615 27.1847 19.3776 0.70327 -0.710897 0.000805855
-24.7319 26.4217 19.3242 0.711464 -0.702676 0.00754063
-25.4724 25.6626 19.3992 0.71654 -0.697535 0.00404599
-26.1814 24.9274 19.338 0.727481 -0.685956 0.00967867
-26.8519 24.1944 19.1111 0.746163 -0.665629 0.0133356
-27.0417 23.9569 17.9783 0.751757 -0.659157 0.0188162
-27.6489 23.2231 17.1717 0.769736 -0.63762 0.0242485
-28.2784 22.4339 16.8687 0.78008 -0.625421 0.00689523
-28.9575 21.5568 16.9105 0.799021 -0.601073 -0.0114476
-29.6191 20.7192 16.9335 0.787129 -0.614308 -0.0552593
-30.304 19.8575 17.1444 0.761267 -0.644839 -0.0682376
-30.8242 19.229 17.8308 0.721409 -0.692137 -0.0227116
-31.157 18.8656 18.8456 0.701635 -0.712076 -0.025613
-31.6511 18.3481 19.3669 0.704108 -0.708896 -0.0412067
-32.8163 17.2746 19.4824 0.67427 -0.738123 -0.0231252
-33.7948 16.4416 19.4789 0.621695 -0.783081 -0.0163133
-34.7268 15.7269 19.4792 0.581109 -0.813564 -0.0206426
-35.563 15.1349 19.4803 0.563871 -0.825484 -0.0244757
-36.7556 14.3546 19.5171 0.522933 -0.851973 -0.0261294
-37.7202 13.7815 19.5893 0.494934 -0.868792 -0.0155367
-38.8429 13.188 19.5649 0.444873 -0.895545 -0.00930355
-39.7859 12.7345 19.547 0.399054 -0.916868 0.0104257
-40.9973 12.2224 19.5135 0.372113 -0.928145 0.00279738
-42.065 11.8 19.4865 0.352253 -0.935875 -0.00737911
-43.0305 11.4481 19.4931 0.312992 -0.949754 -0.00196915
-44.2539 11.0518 19.5775 0.300189 -0.953877 -0.0020918
-45.3984 10.7056 19.5459 0.278643 -0.960386 0.0040901
-46.8282 10.321 19.4285 0.257734 -0.966215 -0.000312228
-48.1293 10.0089 19.4769 0.22623 -0.973974 -0.012291
-49.1647 9.786 19.4794 0.209841 -0.977735 -0.000931048
-50.18 9.58287 19.4624 0.194522 -0.980886 0.00382264
-51.1942 9.39243 19.5755 0.181545 -0.983368 -0.00539565
-52.2484 9.21192 19.5498 0.158798 -0.987291 -0.00629168
-53.5455 9.01362 19.51 0.144132 -0.989521 -0.00686847
-54.7215 8.85159 19.5027 0.123094 -0.992387 0.00393322
-55.843 8.72055 19.5 0.109065 -0.994034 -0.000611849
-57.1427 8.58239 19.4528 0.0989575 -0.995025 -0.0115288
-58.408 8.46512 19.4514 0.0868707 -0.996161 -0.0108106
-59.5894 8.36811 19.4357 0.0732628 -0.99729 -0.00675468
-60.9076 8.277 19.5197 0.0654791 -0.997813 -0.00903739
-62.0052 8.21567 19.424 0.0498672 -0.998696 -0.0109038
-62.8858 8.184 18.6357 0.0392888 -0.999134 -0.0136673
-62.8255 8.20327 17.3053 0.039622 -0.999146 -0.0117609
-62.6314 8.22541 16.2315 0.0463896 -0.998898 -0.00712886
-62.5759 8.23764 15.0255 0.0451371 -0.99894 -0.00883765
-62.6472 8.24876 13.693 0.0458578 -0.998872 -0.0123203
-62.665 8.26342 12.5949 0.0461685 -0.998819 -0.0151237
-62.6939 8.27456 11.4306 0.0453754 -0.998937 -0.00814837
-62.7396 8.28396 10.3291 0.03918 -0.999158 -0.0122088
-62.6127 8.30384 9.21259 0.0424236 -0.998967 -0.0163072
-62.6372 8.32041 8.09305 0.042412 -0.998995 -0.014467
-62.5301 8.3385 7.06652 0.0430861 -0.999004 -0.0115934
-62.3522 8.35989 5.67028 0.0418892 -0.999077 -0.00953676
-62.176 8.37947 4.38663 0.0500525 -0.998711 -0.00838199
-62.0216 8.39788 3.26036 0.0432773 -0.999008 -0.010294
-61.9008 8.41363 2.05048 0.0480048 -0.998811 -0.00835887
-61.8003 8.42814 1.02373 0.0499913 -0.998727 -0.00616667
-61.8675 8.42949 -0.129123 0.0452542 -0.998973 -0.00242523
-61.9195 8.43686 -1.28895 0.0461155 -0.998885 -0.0100627
-61.7857 8.45165 -2.54316 0.0446237 -0.998984 -0.00631511
-61.7911 8.45675 -3.69373 0.0500644 -0.99873 -0.00570947
-61.93 8.45111 -4.69121 0.0435116 -0.999036 -0.0053921
-61.9441 8.45718 -5.90198 0.046062 -0.998932 -0.00366663
-61.8814 8.46347 -7.12308 0.0471451 -0.998888 -0.000963137
-61.9482 8.46524 -8.17999 0.0552457 -0.998467 -0.00331761
-62.0462 8.46362 -9.3753 0.052942 -0.998591 -0.003535
-62.1304 8.46621 -10.6513 0.0518273 -0.998633 -0.00671949
-62.2696 8.46002 -11.7431 0.0475768 -0.998866 -0.000705228
-62.3905 8.45502 -12.8531 0.0508307 -0.998707 -0.000432486
-62.6473 8.44134 -13.9362 0.0515617 -0.99867 -0.000463931
-63.029 8.42339 -14.8737 0.0478773 -0.998852 -0.00117881
-63.3051 8.41153 -15.863 0.0481091 -0.99884 0.00075235
-63.9187 8.38074 -16.6788 0.0429996 -0.999067 -5.99894e-05
-64.5787 8.35083 -17.6491 0.0335636 -0.999436 0.000504207
-64.9258 8.34008 -19.1024 0.0330667 -0.999452 -0.00134784
-63.442 8.39619 -19.3912 0.0431633 -0.999066 0.0019429
-62.3098 8.45186 -19.3501 0.0523697 -0.998626 0.00192244
-61.145 8.51885 -19.3342 0.0600924 -0.998191 -0.00177951
-59.9591 8.60081 -19.3649 0.0774315 -0.996981 -0.00393569
-58.7123 8.70375 -19.3732 0.0875665 -0.996148 -0.00235096
-57.6681 8.79966 -19.3974 0.0913616 -0.995817 -0.00117152
-56.6486 8.90133 -19.3873 0.102593 -0.994722 0.0019014
-55.5283 9.02355 -19.3966 0.117969 -0.993013 0.0028749
-54.4115 9.16357 -19.4543 0.126584 -0.991946 -0.00279413
-53.3743 9.30317 -19.4831 0.135155 -0.990819 -0.00336009
-52.3078 9.46195 -19.4069 0.152156 -0.988356 -0.000491241
-51.096 9.65879 -19.3576 0.161467 -0.986859 -0.0030687
-49.866 9.88774 -19.3823 0.187552 -0.982244 -0.00388255
-48.5836 10.1563 -19.4227 0.215199 -0.976519 -0.00492023
-47.1617 10.4898 -19.4591 0.23797 -0.971272 0.000428104
-46.1178 10.7561 -19.4855 0.256451 -0.966552 -0.00301582
-44.9845 11.0751 -19.5176 0.278944 -0.960303 -0.00279221
-43.9226 11.4078 -19.5749 0.306549 -0.951793 -0.0085333
-42.698 11.8221 -19.4289 0.336716 -0.941594 -0.00485832
-41.4483 12.2945 -19.4442 0.371669 -0.928342 -0.00656689
-40.2575 12.7941 -19.3575 0.403534 -0.914909 -0.0100652
-39.0423 13.3591 -19.4217 0.442588 -0.896566 -0.0169094
-38.0473 13.8729 -19.4528 0.48633 -0.873655 -0.00744944
-36.9685 14.5096 -19.5012 0.553853 -0.832415 0.018212
-36.1032 15.0946 -19.4243 0.580511 -0.813873 -0.0248354
-35.1932 15.7591 -19.4898 0.59869 -0.800696 -0.0213422
-34.3977 16.4025 -19.4783 0.647548 -0.760725 -0.0444828
-34.3173 16.4704 -19.4693 0.647547 -0.760726 -0.044483
-34.1621 16.6225 -20.4467 0.645374 -0.763865 0.00154034
-35 15.9247 -20.5259 0.607228 -0.794394 0.00921331
-36.0829 15.1099 -20.4696 0.579007 -0.81528 0.00704993
-37.1137 14.4138 -20.4606 0.534223 -0.845231 0.0137944
-38.0403 13.8672 -20.5323 0.487364 -0.873146 0.00961489
-38.9622 13.3654 -20.5339 0.444095 -0.895934 -0.00900335
-40.3328 12.7636 -20.4165 0.390326 -0.920571 0.0139194
-41.6312 12.2296 -20.472 0.370452 -0.928819 -0.00778367
-42.6342 11.8437 -20.4558 0.326635 -0.945103 -0.00330048
-43.7353 11.4738 -20.4846 0.308092 -0.951327 -0.00522689
-44.7378 11.1549 -20.4776 0.304455 -0.952502 -0.000106923
-46.1407 10.7485 -20.451 0.265513 -0.964049 -0.00279347
-47.3056 10.4541 -20.4298 0.240619 -0.970612 -0.0016361
-48.5344 10.1714 -20.3851 0.223715 -0.974653 0.00156583
-49.5526 9.95417 -20.4196 0.208599 -0.978 -0.00155817
-50.7502 9.71877 -20.3836 0.17716 -0.984132 0.000251515
-51.7561 9.54779 -20.4109 0.165031 -0.986283 0.000133169
-52.8876 9.37222 -20.4008 0.146075 -0.989241 0.00217444
-54.0877 9.20554 -20.4631 0.131549 -0.991293 0.000733011
-55.1241 9.07391 -20.3814 0.127384 -0.991849 -0.00198146
-56.2945 8.9401 -20.4123 0.109316 -0.994 -0.00369086
-57.7459 8.79362 -20.395 0.0924549 -0.995702 0.00320638
-58.9717 8.6833 -20.3515 0.085541 -0.996328 0.00374296
-60.2973 8.57843 -20.3083 0.0723336 -0.997373 0.00396114
-61.3245 8.50948 -20.2925 0.0601432 -0.99818 -0.000574044
-62.5676 8.43959 -20.3589 0.0493569 -0.998776 -0.0030757
-63.686 8.386 -20.3515 0.0469305 -0.998896 -0.00193176
-64.6925 8.3471 -20.2316 0.0340805 -0.999417 -0.000898893
-66.0011 8.3062 -19.8728 0.0304228 -0.999537 0.000199195
-66.2177 8.30025 -18.8474 0.0294997 -0.999564 -0.000197893
-65.7875 8.31325 -17.8525 0.0262089 -0.999654 0.00208479
-65.2576 8.32903 -16.9315 0.0336967 -0.99943 0.00177999
-64.5737 8.35345 -16.0151 0.0379263 -0.999245 0.00594638
-64.0434 8.37756 -14.8413 0.0391182 -0.999233 -0.00199113
-63.5855 8.3969 -13.5536 0.046936 -0.998898 0.000199115
-63.357 8.40779 -12.5787 0.0453878 -0.998969 0.00069339
-63.2793 8.4118 -11.5686 0.0475771 -0.998866 -0.000705088
-63.142 8.41684 -10.5489 0.0437376 -0.99903 -0.00510133
-63.0626 8.41751 -9.40562 0.0437782 -0.99904 -0.00135351
-62.9398 8.41814 -8.141 0.0442769 -0.999011 -0.00402738
-62.8612 8.41802 -6.91124 0.0426608 -0.999087 -0.00125563
-62.9264 8.41229 -5.54599 0.0399435 -0.999196 -0.00349696
-62.7226 8.41681 -4.23858 0.0392231 -0.999228 -0.00234662
-62.7873 8.40954 -3.07548 0.0417802 -0.999118 -0.00320823
-62.8692 8.40056 -1.94618 0.0421045 -0.999081 -0.00760518
-62.8044 8.39461 -0.934118 0.0360697 -0.99933 -0.00626301
-62.8086 8.38726 0.221665 0.0358955 -0.999331 -0.00695538
-62.8154 8.37774 1.53829 0.0414871 -0.999125 -0.00522632
-62.9839 8.3589 2.99288 0.0383594 -0.999227 -0.00777176
-63.1834 8.33932 4.12184 0.038992 -0.999189 -0.0100023
-63.2831 8.32621 5.14201 0.041201 -0.999114 -0.00846794
-63.361 8.31271 6.28603 0.033642 -0.999392 -0.00914389
-63.5638 8.29274 7.38477 0.0359338 -0.999288 -0.0114601
-63.6077 8.27543 8.49996 0.0340103 -0.999293 -0.0160221
-63.6789 8.25733 9.59667 0.0334312 -0.999351 -0.0134241
-63.7368 8.24197 10.642 0.0358998 -0.999285 -0.0116374
-63.5846 8.23469 11.9225 0.0380056 -0.99923 -0.00971404
-63.6789 8.21597 12.9291 0.0393824 -0.999106 -0.0152477
-63.5573 8.20253 14.2048 0.0382968 -0.999169 -0.0139629
-63.5451 8.19225 15.3848 0.0411754 -0.999114 -0.00818183
-63.5974 8.18236 16.516 0.0382281 -0.999198 -0.0110142
-63.857 8.158 17.6077 0.0417861 -0.999065 -0.0111162
-63.9547 8.14263 18.6713 0.0356216 -0.999271 -0.0137076
-63.6955 8.13891 19.738 0.0381595 -0.999196 -0.0122815
-62.7219 8.17327 20.3503 0.0450835 -0.998952 -0.00787257
-61.6419 8.22703 20.5014 0.0570387 -0.998367 -0.00304445
-60.5241 8.29477 20.5376 0.064466 -0.997897 -0.00676677
-59.4643 8.36956 20.4639 0.0741163 -0.997207 -0.00916528
-58.3425 8.45976 20.4855 0.0864808 -0.996221 -0.00808352
-57.1127 8.57453 20.4358 0.103171 -0.994643 -0.00642467
-56.0017 8.69659 20.4649 0.114703 -0.993359 -0.00895841
-54.9404 8.82347 20.4629 0.122482 -0.992432 -0.00876749
-53.924 8.95225 20.5178 0.135348 -0.990794 -0.0029559
-52.8526 9.10734 20.458 0.151945 -0.98836 -0.00758418
-51.7418 9.2876 20.5929 0.170347 -0.985375 -0.00420626
-50.6481 9.48501 20.5633 0.186852 -0.982361 -0.00726689
-49.6141 9.69005 20.4193 0.198793 -0.979976 -0.0113023
-48.4706 9.928 20.4961 0.206175 -0.978467 -0.00940333
-47.4808 10.1548 20.5003 0.231706 -0.972781 0.00309941
-46.4015 10.4339 20.5159 0.258481 -0.966016 -0.0011672
-45.0489 10.8158 20.5198 0.284248 -0.958678 0.0118322
-43.8593 11.1766 20.5042 0.296283 -0.9551 0.000310891
-42.7531 11.5435 20.4886 0.339259 -0.94067 0.00654034
-41.5437 11.9978 20.5538 0.36691 -0.930232 -0.00674253
-40.1924 12.5535 20.5415 0.401047 -0.916026 -0.00736716
-39.1767 13.0136 20.4601 0.439803 -0.898077 -0.00555209
-38.2677 13.464 20.5486 0.465056 -0.885275 -0.00240102
-37.17 14.0647 20.555 0.49989 -0.865621 -0.0284598
-36.19 14.6798 20.476 0.566056 -0.824128 -0.0198419
-35.2708 15.3151 20.466 0.578251 -0.815472 -0.0244456
-34.4276 15.9164 20.4608 0.626521 -0.779156 -0.019679
-33.5725 16.6022 20.4699 0.640974 -0.767152 -0.00693289
-32.6844 17.3701 20.4591 0.648838 -0.759477 -0.046941
-31.6883 18.2658 20.4146 0.672718 -0.737836 -0.0552094
-30.9154 19.0184 20.4894 0.737101 -0.675466 -0.0205444
-30.4135 19.5837 19.8015 0.722268 -0.691448 -0.0151558
-30.407 19.6262 18.6277 0.708629 -0.705322 -0.0123293
-29.8283 20.3568 17.9006 0.786339 -0.611504 -0.0879468
-29.1838 21.2211 17.8684 0.808759 -0.586519 -0.0393578
-28.5835 22.0413 17.8786 0.803667 -0.594862 0.0153983
-27.9484 22.9038 17.994 0.785624 -0.61645 0.051468
-27.585 23.36 18.7838 0.746406 -0.665294 0.0152773
-27.6077 23.347 19.9359 0.750417 -0.660961 0.00205036
-27.0547 23.9686 20.4521 0.74649 -0.665379 -0.00481324
-26.326 24.7717 20.4066 0.736215 -0.676745 0.00204477
-25.609 25.5326 20.4323 0.715891 -0.698165 0.00813052
-24.8737 26.2859 20.4316 0.715787 -0.698297 0.00555826
-24.0262 27.128 20.3893 0.697461 -0.716612 -0.00404844
-23.2677 27.854 20.3606 0.686682 -0.726927 -0.00232034
-22.4315 28.6329 20.3997 0.681354 -0.731943 -0.00395562
-21.4502 29.5243 20.4591 0.666657 -0.745123 -0.0159615
-20.6892 30.193 20.4193 0.659402 -0.75152 -0.0201867
-19.6712 31.0718 20.401 0.649967 -0.759571 -0.0240557
-18.7422 31.8413 20.3727 0.632954 -0.773644 -0.0287056
-17.7979 32.5927 20.3623 0.61794 -0.785579 -0.0316505
-16.9484 33.2433 20.2883 0.602207 -0.79736 -0.0395375
-15.8424 34.0447 20.4266 0.581919 -0.812114 -0.0429116
-14.7862 34.817 20.394 0.59165 -0.804322 -0.0548793
-13.8425 35.5185 20.451 0.609502 -0.79071 -0.0570503
-13.0234 36.1417 20.5429 0.621131 -0.781609 -0.040355
-12.1613 36.8975 20.492 0.667392 -0.744587 -0.0130571
-11.7363 37.3098 19.8128 0.672657 -0.738488 -0.046565
-11.7127 37.3663 18.7621 0.639956 -0.767544 -0.0364931
-11.2993 37.7949 17.9722 0.739903 -0.651514 -0.129836
-10.616 38.6318 17.8847 0.784911 -0.618511 0.0201919
-9.80799 39.5388 17.8893 0.676525 -0.71195 0.188261
-9.11262 40.3365 18.0965 0.4535 -0.741637 0.494279
-8.8776 40.6223 19.2111 0.372641 -0.925189 0.0718577
-8.81158 40.6899 20.2658 0.448818 -0.893571 -0.00962308
-7.94217 41.0985 20.4543 0.357276 -0.924944 0.103063
-6.85026 41.4129 20.4535 0.223673 -0.968884 0.10457
-5.83236 41.6511 20.454 0.220729 -0.972438 0.0734253
-4.65564 41.8087 20.4764 0.061476 -0.995497 0.0663925
-3.42519 41.8464 20.3746 0.0341988 -0.99809 0.0514534
-2.16147 41.8621 20.4542 0.00681768 -0.999179 0.0398102
-1.00547 41.8474 20.4664 -0.0231644 -0.999184 0.0318312
0.0755939 41.8129 20.459 -0.0449094 -0.998158 0.038407
1.12894 41.7474 20.4134 -0.0728317 -0.996632 0.0367563
2.16804 41.6649 20.4478 -0.0849349 -0.996079 0.0226865
3.18445 41.5602 20.3432 -0.107473 -0.993881 0.0243616
4.37961 41.4231 20.476 -0.122525 -0.992087 0.0268867
5.37385 41.2864 20.4268 -0.136673 -0.990482 0.0163276
6.40681 41.1355 20.4462 -0.140382 -0.990054 0.00931714
7.47492 40.9807 20.4518 -0.144831 -0.989452 0.00300126
8.57266 40.8195 20.1287 -0.144789 -0.98946 0.00211352
8.65199 40.8055 18.9059 -0.143781 -0.989606 0.00249194
8.91903 40.7654 18.1237 -0.145424 -0.989363 0.00346341
7.72982 40.9374 18.1916 -0.140501 -0.99008 -0.000876183
6.67998 41.0837 18.4373 -0.136147 -0.990654 0.00827127
5.67477 41.2209 18.5668 -0.126047 -0.991968 0.0105712
4.47926 41.3738 18.6667 -0.120004 -0.992654 0.0137808
3.24812 41.515 18.6537 -0.104444 -0.994222 0.0221385
2.11196 41.6234 18.6717 -0.075455 -0.996384 0.0335303
1.05963 41.6884 18.8056 -0.0565784 -0.997591 0.0401296
-0.0385269 41.7402 18.7518 -0.0469821 -0.997607 0.0507162
-1.05795 41.7683 18.622 -0.0174841 -0.998053 0.0598713
-2.41352 41.7375 18.2842 0.0500194 -0.994721 0.0895982
-3.39474 41.6488 17.8768 0.05697 -0.993605 0.0974887
-4.33477 41.4905 17.0714 0.108007 -0.983733 0.143543
-5.28601 41.2038 16.2421 0.205742 -0.963931 0.168337
-6.0749 40.8747 15.4737 0.268884 -0.943617 0.193105
-6.64629 40.5616 14.6424 0.303679 -0.939097 0.16086
-6.94701 40.3023 13.6138 0.299829 -0.943413 0.141686
-7.14135 40.0636 12.4876 0.336645 -0.930376 0.145158
-7.09529 39.9319 11.3501 0.349129 -0.931013 0.105833
-6.84502 39.8845 9.98067 0.332804 -0.938621 0.0907323
-6.41926 39.8925 8.55637 0.28474 -0.956527 0.063077
-5.67649 40.0407 7.53664 0.278674 -0.95784 0.0698762
-5.0088 40.1629 6.57107 0.217481 -0.975097 0.0434481
-4.29231 40.284 5.68834 0.201113 -0.978439 0.0438002
-3.39437 40.4051 4.67874 0.167022 -0.984865 0.0440324
-2.41074 40.5115 3.77502 0.150722 -0.987555 0.0447837
-1.5649 40.5781 2.75019 0.113687 -0.9922 0.0511268
-0.667783 40.6433 1.70775 0.0987125 -0.994845 0.0232289
0.305499 40.6919 0.866551 0.0603299 -0.997642 0.0327325
0.87807 40.6876 -0.0265002 0.0446446 -0.998508 0.0295433
1.6359 40.683 -0.771103 0.00578838 -0.999842 0.0168021
2.27621 40.6736 -1.60324 0.00842601 -0.999874 0.0127389
3.20036 40.6465 -2.55246 -0.0216463 -0.99965 0.015118
3.95572 40.5916 -3.41343 -0.0506358 -0.998571 0.0110011
4.75978 40.5099 -4.29622 -0.1013 -0.994792 0.0104792
5.67242 40.3934 -5.0906 -0.124294 -0.992194 0.0100841
6.79141 40.2051 -5.67271 -0.156997 -0.987519 0.0125978
7.74773 39.9945 -5.924 -0.215981 -0.97602 0.0271488
8.87376 39.7051 -6.10299 -0.24132 -0.969903 0.0266593
9.99057 39.3821 -6.12178 -0.304272 -0.950759 0.0524152
10.9348 39.0553 -6.16137 -0.336021 -0.938638 0.0758038
11.9278 38.6908 -5.8438 -0.387558 -0.919583 0.0645477
12.9574 38.273 -5.41859 -0.411694 -0.90801 0.0770924
13.7712 37.9166 -4.91201 -0.441291 -0.895303 0.0607805
14.5638 37.5861 -4.27596 -0.458498 -0.883171 0.0976011
15.2222 37.3171 -3.52271 -0.475105 -0.874564 0.097018
15.7829 37.1099 -2.6365 -0.472964 -0.875829 0.096035
16.2381 36.9665 -1.49897 -0.527048 -0.844699 0.0932679
16.3104 37.0302 -0.336267 -0.488707 -0.868745 0.0786125
16.2549 37.1768 0.740469 -0.519249 -0.850474 0.0836916
16.2607 37.2779 1.79481 -0.509181 -0.856482 0.0846967
16.3316 37.3656 3.14842 -0.518158 -0.849751 0.095245
16.3976 37.4538 4.47936 -0.485403 -0.871658 0.0676957
16.4613 37.4787 5.7302 -0.511584 -0.858641 0.0248136
16.4998 37.5535 7.43494 -0.526737 -0.848322 0.0538207
16.5446 37.5917 8.51221 -0.499118 -0.864466 0.0506272
16.4573 37.7008 9.73077 -0.489834 -0.870887 0.0402203
16.183 37.944 10.8354 -0.515099 -0.854464 0.0675593
15.6992 38.2655 11.7973 -0.456258 -0.888807 0.0421993
15.3383 38.5172 12.8599 -0.448578 -0.892232 0.0509304
14.695 38.8717 13.6165 -0.439678 -0.896372 0.055242
14.1226 39.2111 14.5298 -0.375179 -0.921525 0.0999908
13.3412 39.609 15.3365 -0.370265 -0.923687 0.0984734
12.4964 39.9402 15.9602 -0.301642 -0.949041 0.09129
11.3701 40.3016 16.7989 -0.22812 -0.97107 0.0647209
10.4951 40.5156 17.3363 -0.172386 -0.983218 0.0510642
10.5813 40.5272 17.9081 -0.12765 -0.989727 0.0618276
11.7991 40.3251 17.8404 -0.176609 -0.971155 0.160211
12.6921 40.19 18.2145 -0.402967 -0.90006 0.147711
12.8952 40.1488 19.222 -0.430703 -0.901659 0.0386196
13.0798 40.0839 20.2391 -0.394954 -0.918396 0.0235407
13.9471 39.7102 20.4292 -0.404662 -0.913376 0.0446426
15.0761 39.137 20.4143 -0.455748 -0.888376 0.0555164
16.0147 38.566 20.451 -0.543732 -0.836669 0.0658832
17.1206 37.7947 20.3827 -0.591994 -0.803302 0.0651802
18.1892 36.9652 20.4641 -0.644597 -0.761554 0.0673059
19.2289 36.044 20.4508 -0.690664 -0.723012 0.0153888
20.0131 35.2833 20.452 -0.702218 -0.711791 0.0155996
20.851 34.4115 20.4271 -0.731371 -0.681931 0.00816427
21.6872 33.4891 20.4703 -0.746589 -0.665282 -0.00171191
22.4099 32.6664 20.4546 -0.759456 -0.650547 -0.0038583
23.2523 31.6807 20.4416 -0.761181 -0.648521 -0.00492497
23.9997 30.7968 20.4834 -0.765618 -0.643271 -0.00558797
24.7327 29.9218 20.5314 -0.76731 -0.641247 -0.00605032
25.4599 29.052 20.4845 -0.767294 -0.641266 -0.0060903
26.1942 28.1748 20.4692 -0.766513 -0.642192 -0.00693731
26.9592 27.2609 20.4978 -0.767709 -0.640794 -0.00245154
27.7386 26.3293 20.5552 -0.768063 -0.640367 -0.000503434
28.5586 25.3394 20.5749 -0.76906 -0.639176 -0.000806748
29.2393 24.5163 20.5745 -0.771541 -0.636165 -0.00425206
29.939 23.6631 20.379 -0.776072 -0.630632 -0.000753852
30.1567 23.3928 19.3889 -0.773575 -0.633691 0.00416796
30.1732 23.3534 18.3721 -0.776294 -0.629434 0.0340643
29.8116 23.7748 17.8959 -0.778196 -0.627371 0.0285745
29.0695 24.6952 17.9574 -0.77611 -0.63033 0.0183608
28.2871 25.649 17.8297 -0.773367 -0.633891 0.00920232
27.5518 26.542 17.6847 -0.772082 -0.635458 0.00905203
26.8829 27.3546 17.7234 -0.770665 -0.63724 -0.000850666
26.0622 28.3474 17.4058 -0.771648 -0.636046 -0.00124363
25.3327 29.2312 17.2483 -0.769748 -0.638326 -0.00522271
24.6516 30.0516 17.1264 -0.769075 -0.639139 -0.00493331
24.0148 30.8158 16.8496 -0.764761 -0.644246 -0.00904001
23.2954 31.6681 16.6589 -0.762235 -0.647225 -0.00966359
22.6278 32.4393 16.3884 -0.749336 -0.66212 -0.00581602
21.9124 33.23 16.1284 -0.737597 -0.675182 -0.00897756
21.0852 34.1118 15.6433 -0.71891 -0.695065 -0.00724478
20.4473 34.7635 15.1911 -0.70383 -0.710321 -0.00828458
19.8098 35.3935 14.2842 -0.673735 -0.738972 -0.00121352
19.3 35.8319 13.4508 -0.64405 -0.764885 0.0122577
18.8438 36.1818 12.5881 -0.623392 -0.781409 0.0279659
18.4381 36.4506 11.5503 -0.603218 -0.796453 0.0423241
18.3055 36.4722 10.2892 -0.589913 -0.805474 0.0566822
18.3664 36.3636 8.80424 -0.580369 -0.813932 0.0250933
18.3772 36.2995 7.49092 -0.602766 -0.797112 0.0358621
18.406 36.2207 6.30789 -0.605417 -0.79499 0.0382255
18.3497 36.212 5.02181 -0.595945 -0.802371 0.0324177
18.2694 36.1921 3.77488 -0.594619 -0.801553 0.0619856
18.1837 36.1121 2.57862 -0.584785 -0.805175 0.0985842
18.2395 35.9708 1.57023 -0.578359 -0.811741 0.0810991
18.2517 35.8599 0.531879 -0.558627 -0.824683 0.088508
18.1111 35.845 -0.460186 -0.567102 -0.819551 0.0820413
18.1714 35.6925 -1.50133 -0.575159 -0.811943 0.0997007
18.1817 35.5526 -2.60981 -0.576915 -0.81139 0.0938907
18.175 35.4363 -3.68879 -0.581975 -0.809278 0.0798401
18.3425 35.2137 -4.68117 -0.59934 -0.79494 0.0941391
18.8018 34.7733 -5.47699 -0.609981 -0.785325 0.104289
19.3979 34.1555 -6.36961 -0.610819 -0.78116 0.128939
20.0279 33.5205 -7.03523 -0.645253 -0.752747 0.130427
20.7157 32.8123 -7.7132 -0.646661 -0.751776 0.129084
21.4925 32.0141 -8.20237 -0.676771 -0.723723 0.134927
22.21 31.2416 -8.67795 -0.687184 -0.714564 0.131016
23.0172 30.4004 -8.96062 -0.706846 -0.699128 0.107654
23.8389 29.5729 -8.88654 -0.716325 -0.690702 0.09847
24.6847 28.6684 -8.86868 -0.731804 -0.673974 0.101074
25.337 28.0162 -8.39219 -0.737825 -0.669497 0.0859566
25.9181 27.4004 -7.83844 -0.766001 -0.639707 0.0625809
26.6511 26.5675 -7.18071 -0.771334 -0.633851 0.0571571
27.5987 25.4461 -6.17589 -0.793669 -0.606431 0.0465454
28.1792 24.7308 -5.31568 -0.805426 -0.590744 0.0480682
28.638 24.1619 -4.61906 -0.806365 -0.589139 0.0518698
29.1884 23.4793 -3.90219 -0.802317 -0.594637 0.051899
29.7396 22.7948 -3.24084 -0.801325 -0.595812 0.0537263
30.2907 22.1368 -2.55559 -0.791943 -0.608536 0.0500983
30.8467 21.477 -1.99288 -0.782647 -0.620095 0.054281
31.3995 20.8367 -1.37858 -0.774293 -0.630882 0.0495399
32.1185 20.0374 -0.576878 -0.756026 -0.652326 0.0536874
32.6182 19.5143 0.22067 -0.756357 -0.652962 0.0373735
33.0986 19.0267 1.06079 -0.743188 -0.66734 0.0482682
33.5629 18.5851 1.96542 -0.726305 -0.686367 0.0371475
34.1335 18.0215 2.87462 -0.71307 -0.70029 0.018915
34.8284 17.3742 3.55486 -0.687892 -0.725105 0.032019
35.5039 16.777 4.39312 -0.670674 -0.741565 0.0157433
36.0045 16.4061 5.50821 -0.635913 -0.771276 0.0273658
36.3358 16.151 6.49148 -0.623499 -0.781673 -0.00350597
36.3209 16.188 7.58341 -0.614174 -0.788405 0.0347557
36.423 16.1659 8.82692 -0.614135 -0.788259 0.0385608
36.4553 16.1807 9.8438 -0.624543 -0.780765 0.0185977
36.4658 16.2024 10.9828 -0.627681 -0.778262 0.0175475
36.2443 16.3837 11.9512 -0.635951 -0.771721 -0.00356438
35.7629 16.7767 12.7868 -0.669394 -0.742486 -0.0156011
35.1342 17.3422 13.5485 -0.683108 -0.72999 -0.0218542
34.3776 18.0892 14.2357 -0.704838 -0.709084 -0.0142695
33.8781 18.5882 15.088 -0.736242 -0.675933 -0.0325964
33.3377 19.1718 15.8166 -0.754029 -0.656451 -0.017374
32.8356 19.7292 16.5893 -0.761895 -0.646998 -0.0301366
32.2744 20.4101 17.0929 -0.793105 -0.608599 -0.0243308
31.6314 21.2898 17.5679 -0.81836 -0.574681 0.0054222
31.1838 21.93 17.7842 -0.819011 -0.573639 0.0125821
31.7811 21.0743 17.8757 -0.828921 -0.559135 -0.0160251
32.4242 20.174 17.9213 -0.791948 -0.609362 -0.0386776
32.8364 19.6129 18.5723 -0.748673 -0.662811 -0.0101339
32.8462 19.5806 19.7189 -0.761274 -0.648414 -0.0044898
33.2157 19.1601 20.4219 -0.741018 -0.671415 -0.00971152
34.1515 18.1763 20.534 -0.690692 -0.723082 -0.00982502
35.0854 17.31 20.5848 -0.673254 -0.73927 0.0144865
35.858 16.6278 20.5073 -0.63143 -0.77532 0.00254648
36.8703 15.8223 20.5402 -0.61186 -0.790776 -0.00117866
37.8139 15.1716 20.4804 -0.563828 -0.825732 -0.0162875
38.7393 14.5714 20.5352 -0.51898 -0.854443 -0.00300749
39.6636 14.0678 20.5076 -0.465217 -0.885187 0.00410301
40.5738 13.6214 20.5523 -0.427635 -0.90395 -0.00151767
41.6455 13.1313 20.5567 -0.404224 -0.914484 -0.017937
42.7714 12.6722 20.4259 -0.365395 -0.930771 0.00274797
43.8915 12.2632 20.5139 -0.325038 -0.945701 -0.000710415
44.9708 11.9041 20.5129 -0.300064 -0.953879 0.00868126
46.2118 11.5226 20.4597 -0.28431 -0.958724 0.00186956
47.3012 11.2216 20.5736 -0.252027 -0.967713 0.00369851
48.6554 10.8897 20.4958 -0.231567 -0.972815 0.00273949
50.0545 10.5803 20.5531 -0.206973 -0.978309 0.0085886
51.4391 10.3096 20.5535 -0.184676 -0.98276 0.00874883
52.481 10.1253 20.6251 -0.164659 -0.986281 0.011685
53.5404 9.94928 20.53 -0.14519 -0.989348 0.0103478
54.956 9.7395 20.5478 -0.145679 -0.989297 0.00823364
55.9759 9.60608 20.5716 -0.128616 -0.991686 0.00397513
57.18 9.46366 20.6132 -0.108247 -0.994103 0.0064406
58.2453 9.35605 20.6076 -0.0960026 -0.995377 -0.00292346
59.4874 9.2405 20.6371 -0.0893178 -0.995999 -0.00294076
60.5232 9.15685 20.6597 -0.0734626 -0.997294 -0.00269832
61.8424 9.06741 20.5958 -0.0619073 -0.99808 0.00208898
62.9255 9.00338 20.2424 -0.0528658 -0.998598 0.00282415
64.1019 8.94007 19.6311 -0.0516689 -0.998661 0.00261936
64.9417 8.89933 18.9629 -0.042865 -0.999076 -0.00327554
65.9812 8.85625 18.0731 -0.0375216 -0.999294 0.00172929
66.9167 8.81735 17.2555 -0.0383781 -0.999253 0.00445314
67.6067 8.79172 16.4216 -0.0315987 -0.999494 0.0036177
68.264 8.76681 15.3408 -0.0302161 -0.999535 0.00409355
68.6365 8.74964 14.3415 -0.0280088 -0.999589 0.0054984
68.5113 8.74918 13.3339 -0.0282011 -0.999589 0.00502926
68.3604 8.74723 12.3306 -0.0289713 -0.999564 0.0056421
68.0233 8.74948 11.3256 -0.0277873 -0.99959 0.00688562
67.2145 8.76706 10.405 -0.031646 -0.999453 0.00959623
66.4281 8.78735 9.60181 -0.0358944 -0.999314 0.00893034
65.4624 8.81722 8.91985 -0.0388701 -0.999178 0.0114708
64.4471 8.85155 8.21478 -0.0444586 -0.998955 0.0104763
63.6679 8.87882 7.47319 -0.0459169 -0.998871 0.0121878
62.7312 8.91457 6.58522 -0.0536804 -0.998474 0.0129893
62.1392 8.93328 5.6759 -0.0571838 -0.998246 0.0146693
61.7045 8.94329 4.48399 -0.060013 -0.998116 0.0127404
61.4607 8.94335 3.49533 -0.0634958 -0.997792 0.0194653
61.2932 8.93513 2.48668 -0.0646721 -0.997739 0.0182796
61.1735 8.92476 1.48247 -0.0660222 -0.997654 0.0180868
60.9016 8.9199 0.354342 -0.0615046 -0.997846 0.022831
60.9029 8.89501 -0.744939 -0.0593216 -0.997997 0.0219695
60.8238 8.87482 -1.92585 -0.059324 -0.998041 0.0198559
60.788 8.84864 -3.06712 -0.0576181 -0.99792 0.0289185
60.6911 8.82376 -4.31617 -0.0635069 -0.997692 0.0239015
60.7503 8.7883 -5.60015 -0.0560775 -0.998178 0.0222522
60.8831 8.75182 -6.78177 -0.0601426 -0.997856 0.0257945
61.1373 8.70943 -7.77013 -0.0630907 -0.997604 0.0283749
61.5192 8.65456 -8.84939 -0.0590907 -0.997869 0.0273778
61.885 8.6077 -9.95428 -0.0545261 -0.99822 0.0241678
62.5872 8.54966 -10.7135 -0.0461252 -0.998529 0.0281522
63.2763 8.49764 -11.6304 -0.0447841 -0.998715 0.0237152
64.0388 8.44826 -12.392 -0.0384104 -0.999021 0.0219368
64.7779 8.3995 -13.2835 -0.0374741 -0.999016 0.0237264
65.3641 8.35902 -14.3245 -0.0297845 -0.999402 0.0175658
65.8974 8.32286 -15.4104 -0.0309597 -0.999364 0.0176557
66.1417 8.29979 -16.429 -0.0276431 -0.999492 0.0158617
66.1706 8.28056 -17.6649 -0.0279883 -0.999501 0.0146322
65.7196 8.27911 -18.6173 -0.0298444 -0.999459 0.0136239
65.0258 8.29074 -19.4648 -0.0343095 -0.999351 0.0104909
64.109 8.32034 -19.9937 -0.0431025 -0.999025 0.00932784
62.949 8.36842 -20.4606 -0.0446297 -0.998965 0.00874648
61.514 8.43625 -20.6454 -0.0519619 -0.998587 0.0105216
60.0527 8.52817 -20.641 -0.06467 -0.997868 0.00867546
58.899 8.61475 -20.6474 -0.0749189 -0.997081 0.0147073
57.7184 8.71092 -20.6436 -0.0818599 -0.996505 0.0166582
56.6089 8.8222 -20.5651 -0.0997982 -0.994934 0.0119318
55.5655 8.93112 -20.6982 -0.111436 -0.993666 0.0133897
54.437 9.06869 -20.6572 -0.13318 -0.990889 0.0184027
53.195 9.25111 -20.6426 -0.152858 -0.988179 0.0117281
52.1944 9.41105 -20.5903 -0.165007 -0.986225 0.0115059
50.8087 9.65577 -20.6182 -0.189145 -0.981802 0.0168112
49.5566 9.90919 -20.6361 -0.213554 -0.976805 0.0157135
48.0694 10.2522 -20.5965 -0.239489 -0.970817 0.0126413
46.8912 10.561 -20.512 -0.267596 -0.963303 0.0208945
45.6801 10.9075 -20.5496 -0.294129 -0.955578 0.0184309
44.3401 11.3406 -20.5695 -0.32219 -0.946604 0.0115959
43.2055 11.7365 -20.6242 -0.341147 -0.939993 -0.00558424
41.8328 12.2711 -20.6346 -0.381259 -0.924462 0.00350409
40.3802 12.8943 -20.5834 -0.411764 -0.911291 -0.000187856
39.1414 13.4853 -20.55 -0.460547 -0.887614 -0.00613672
38.1126 14.0485 -20.5373 -0.508506 -0.861033 -0.00656785
36.9678 14.7387 -20.5938 -0.524189 -0.851584 -0.00549914
35.9991 15.3478 -20.5651 -0.560791 -0.827517 -0.00985428
35.0859 16.0008 -20.4871 -0.594739 -0.803918 -0.00105705
34.2329 16.6297 -20.4665 -0.610373 -0.791718 0.00654111
33.1835 17.5001 -20.5124 -0.66015 -0.751023 -0.00220081
32.352 18.2625 -20.6339 -0.701735 -0.711595 0.0232305
31.5611 19.1092 -20.6047 -0.742455 -0.669678 -0.0107711
31.1514 19.5728 -19.7918 -0.742574 -0.669742 0.00544607
31.1258 19.6361 -18.6563 -0.722801 -0.690279 0.0327601
30.6555 20.2853 -17.9569 -0.807327 -0.577497 0.120457
29.9683 21.2701 -17.9493 -0.817468 -0.568282 0.093821
29.3756 22.1345 -17.8539 -0.81719 -0.57121 0.0769379
28.6971 23.0431 -18.0272 -0.790192 -0.610525 0.0534378
28.3435 23.4496 -18.9156 -0.772685 -0.634701 0.00714926
28.3303 23.4489 -20.1196 -0.757137 -0.653197 0.00872352
27.6878 24.1818 -20.4516 -0.753199 -0.657687 0.0117929
26.9686 24.9868 -20.4347 -0.743634 -0.668393 0.0148726
26.2267 25.7984 -20.4901 -0.73338 -0.679382 0.0243805
25.3497 26.7208 -20.5095 -0.716274 -0.696776 0.0381316
24.5081 27.5707 -20.4876 -0.700796 -0.712307 0.0387791
23.7199 28.3308 -20.5193 -0.684791 -0.727493 0.0426068
22.8278 29.1515 -20.5476 -0.668385 -0.742629 0.0419911
21.8047 30.057 -20.5101 -0.653393 -0.755254 0.0516633
20.9339 30.8041 -20.4005 -0.635896 -0.770415 0.0446884
19.9726 31.5971 -20.3713 -0.617989 -0.785049 0.0419231
19.0514 32.3042 -20.4872 -0.603441 -0.795864 0.0495906
18.1781 32.9549 -20.4479 -0.584072 -0.809941 0.0534403
17.233 33.6153 -20.4734 -0.566905 -0.822398 0.0474688
16.3222 34.2191 -20.3991 -0.543055 -0.838449 0.0454408
15.4326 34.787 -20.3983 -0.525512 -0.849788 0.0411843
14.3531 35.4427 -20.4503 -0.516179 -0.855959 0.0200268
13.0442 36.2648 -20.4284 -0.541918 -0.840362 -0.00266928
12.1284 36.8906 -20.3917 -0.581545 -0.813494 -0.00574984
11.4361 37.3861 -19.9861 -0.584867 -0.811125 -0.00260764
11.3618 37.4674 -18.9336 -0.595175 -0.799757 0.0784502
10.9576 37.924 -18.1161 -0.614627 -0.769039 0.175534
10.0443 38.8809 -17.9726 -0.7504 -0.658988 0.00792587
9.27229 39.6941 -17.9289 -0.659634 -0.738017 -0.11981
8.52143 40.3915 -18.4845 -0.288635 -0.947423 -0.138127
8.4127 40.4675 -19.6319 -0.332281 -0.942915 -0.0212633
7.84823 40.6901 -20.4839 -0.351879 -0.93514 -0.0411583
6.74465 41.0516 -20.4511 -0.273724 -0.960042 -0.058262
5.55063 41.3668 -20.5087 -0.225544 -0.969879 -0.0920044
4.41423 41.5861 -20.4611 -0.145955 -0.986878 -0.0559058
3.40679 41.6895 -20.5048 -0.0576012 -0.996099 -0.0645312
2.26419 41.7338 -20.5339 0.00939074 -0.997608 -0.0662632
1.20076 41.7079 -20.5296 0.0411812 -0.996688 -0.0672569
-0.258434 41.5977 -20.3798 0.0685179 -0.995032 -0.0722224
-1.82453 41.4318 -20.5055 0.112605 -0.992685 -0.0433834
-3.22245 41.2488 -20.5256 0.142685 -0.989146 -0.032736
-4.40008 41.0617 -20.4407 0.172191 -0.984154 -0.0375321
-5.61978 40.8278 -20.53 0.188631 -0.981446 -0.0343561
-6.91276 40.574 -20.4959 0.205251 -0.978406 -0.0217757
-8.10626 40.3087 -20.434 0.22193 -0.974876 -0.0168585
-8.6209 40.1803 -19.6501 0.218263 -0.975735 -0.0161081
-8.51569 40.1825 -18.6121 0.189819 -0.981335 -0.0308154
-7.11395 40.4668 -18.6422 0.194207 -0.979096 -0.0604606
-6.11213 40.6671 -18.7443 0.187558 -0.981469 -0.0392487
-4.98827 40.8787 -18.7657 0.174235 -0.983241 -0.0516153
-3.74937 41.0801 -18.7401 0.153469 -0.986093 -0.0637256
-2.61377 41.2397 -18.7129 0.122632 -0.990352 -0.0643854
-1.44597 41.3792 -18.8481 0.0926081 -0.99354 -0.0655921
-0.401334 41.4769 -18.8502 0.0853797 -0.993695 -0.0706352
1.07432 41.5784 -18.7002 0.0650362 -0.995247 -0.0715984
2.14087 41.6034 -18.5234 0.0168678 -0.99683 -0.0748898
3.12054 41.539 -18.0919 -0.0499095 -0.995042 -0.0844849
4.16619 41.3818 -17.4315 -0.145109 -0.987219 -0.0657946
5.32532 41.1034 -16.5307 -0.23094 -0.966629 -0.110886
6.0158 40.8006 -15.6641 -0.293364 -0.948613 -0.118618
6.57545 40.5087 -14.6378 -0.315302 -0.945309 -0.0835132
6.78121 40.3684 -13.6401 -0.282672 -0.955791 -0.0761204
6.94261 40.2297 -12.3732 -0.251842 -0.966323 -0.0528695
6.926 40.1972 -11.2672 -0.263407 -0.964565 -0.0152152
6.5884 40.2563 -10.1973 -0.217855 -0.975652 -0.0253285
6.16611 40.3281 -9.18044 -0.221473 -0.974966 -0.0197786
5.75387 40.3979 -8.19924 -0.178118 -0.983343 -0.0266106
5.0551 40.4643 -7.14625 -0.147383 -0.98872 -0.0135282
4.36486 40.5402 -6.396 -0.105731 -0.994311 -0.012889
3.35891 40.615 -5.36172 -0.0458011 -0.998926 0.00706035
2.66605 40.6504 -4.58465 -0.029497 -0.99943 -0.00469078
1.59646 40.6467 -3.55059 0.0193861 -0.999802 0.0044122
0.862526 40.6319 -2.75174 0.043903 -0.998988 0.00972813
-0.0451439 40.5978 -1.96154 0.0576773 -0.998248 0.0132128
-0.738787 40.5699 -0.98781 0.0703994 -0.997315 0.0156929
-1.44699 40.5137 -0.138408 0.111315 -0.993412 0.0272341
-2.38578 40.4073 0.871323 0.141655 -0.989533 0.0274692
-3.06073 40.3271 1.66552 0.154373 -0.987851 0.0178929
-3.98536 40.2014 2.68149 0.189776 -0.980814 0.0446022
-4.75174 40.0825 3.53594 0.213031 -0.976307 0.035353
-5.57894 39.9226 4.47657 0.248204 -0.968079 0.0348953
-6.30452 39.7526 5.22265 0.295673 -0.954621 0.0357284
-7.05839 39.5504 6.1759 0.299556 -0.953576 0.0309823
-7.93587 39.2897 7.1653 0.351201 -0.935001 0.049295
-9.00261 38.8997 7.49469 0.362917 -0.930916 0.041064
-9.96244 38.5126 7.82413 0.406209 -0.91324 0.0314195
-10.9871 38.0492 7.84675 0.428334 -0.90336 -0.00309777
-12.0354 37.48 7.80365 0.488489 -0.872458 -0.0134951
-12.9113 36.9963 7.58247 0.49387 -0.869337 -0.018585
-14.026 36.3565 7.24915 0.522596 -0.852101 -0.0284271
-15.1111 35.7106 6.65693 0.529298 -0.848018 -0.026618
-15.8258 35.2753 6.04524 0.555425 -0.830786 -0.0360163
-16.5847 34.8143 5.30357 0.564185 -0.823044 -0.0655268
-17.0208 34.5883 4.30787 0.57586 -0.815443 -0.0576518
-17.3871 34.3831 3.37647 0.583996 -0.810308 -0.0484681
-17.5815 34.3318 2.0977 0.593619 -0.802097 -0.0652443
-17.7079 34.3059 1.07037 0.59137 -0.805297 -0.042159
-17.6543 34.431 -0.251724 0.588381 -0.805958 -0.0650616
-17.4987 34.6355 -1.26325 0.588861 -0.804031 -0.0823186
-17.3239 34.8511 -2.30513 0.582658 -0.80979 -0.0687237
-17.2458 34.9897 -3.62796 0.567675 -0.821768 -0.0484178
-17.1138 35.147 -4.78057 0.545793 -0.836432 -0.0495262
-16.9454 35.3291 -5.9469 0.553363 -0.831539 -0.0482383
-16.8276 35.4799 -7.23456 0.553476 -0.832009 -0.0374546
-16.7855 35.572 -8.41287 0.548597 -0.83342 -0.0667248
-16.6928 35.6991 -9.66598 0.549986 -0.833332 -0.0554403
-16.5451 35.8566 -10.7135 0.529057 -0.84677 -0.0554937
-16.3193 36.0537 -11.7289 0.55193 -0.831613 -0.0570621
-15.7335 36.5125 -12.8034 0.50336 -0.860736 -0.0759168
-14.8809 37.1071 -13.9625 0.500827 -0.862179 -0.0762605
-14.1008 37.6223 -14.77 0.482147 -0.872109 -0.0834234
-13.2547 38.1678 -15.6957 0.473695 -0.875774 -0.0928967
-12.48 38.6163 -16.2835 0.421334 -0.899855 -0.109253
-11.7588 39.0127 -16.9149 0.355244 -0.921107 -0.15926
-10.9789 39.3792 -17.5376 0.298925 -0.949613 -0.0942318
-10.7314 39.4949 -17.9033 0.30061 -0.948124 -0.103415
-11.8448 39.1219 -18.0009 0.328997 -0.934679 -0.129612
-12.5277 38.8737 -18.6709 0.511484 -0.858054 -0.0461339
-12.6083 38.8503 -19.7046 0.496704 -0.86786 -0.0101915
-13.0377 38.624 -20.5086 0.475669 -0.879145 -0.0281962
-14.1627 37.9997 -20.6054 0.499688 -0.865404 -0.0372531
-15.2057 37.3905 -20.5802 0.524758 -0.850365 -0.0340981
-16.0879 36.8095 -20.4812 0.600415 -0.798841 -0.0368064
-16.8897 36.1972 -20.4535 0.621277 -0.783033 -0.0295806
-17.7277 35.5317 -20.5206 0.651799 -0.758296 -0.0120467
-18.6662 34.7054 -20.4693 0.666844 -0.744872 -0.0220154
-19.4918 33.9351 -20.5188 0.690371 -0.723441 -0.00457197
-20.3738 33.0641 -20.4985 0.715463 -0.698648 0.00189619
-21.1592 32.2417 -20.4685 0.731059 -0.682312 -0.00164101
-21.853 31.4893 -20.3858 0.739166 -0.673495 -0.00604297
-22.6291 30.6277 -20.4347 0.746014 -0.665916 -0.00308265
-23.5144 29.6286 -20.3807 0.753208 -0.657781 -0.00134927
-24.3665 28.6456 -20.3654 0.757977 -0.652271 -0.00370583
-25.2 27.6721 -20.4395 0.761566 -0.648064 -0.00540625
-25.9238 26.8154 -20.4692 0.766641 -0.642053 -0.00540779
-26.5976 26.0115 -20.6155 0.768342 -0.640001 -0.0065872
-27.3671 25.088 -20.5047 0.768217 -0.640175 -0.00431411
-28.0765 24.2284 -20.5378 0.780602 -0.624992 -0.0046893
-28.7449 23.3872 -19.982 0.782025 -0.623247 -0.000818626
-28.7215 23.3986 -18.8451 0.764407 -0.644441 -0.0194172
-29.0834 22.8608 -18.024 0.816028 -0.56824 -0.105834
-29.7314 21.8809 -17.9748 0.836686 -0.543393 -0.0683059
-30.3012 21.0175 -17.9456 0.836233 -0.545931 -0.0509904
-30.8681 20.1831 -17.9796 0.83066 -0.55568 -0.0199406
-31.2805 19.6143 -18.7318 0.787814 -0.61546 -0.0236231
-31.3871 19.5033 -19.8317 0.773177 -0.634185 0.000199289
-31.7027 19.1187 -20.5113 0.770078 -0.637893 -0.0041273
-32.3777 18.3651 -20.3849 0.731673 -0.681242 -0.0197367
-33.1978 17.5112 -20.4329 0.698146 -0.715793 -0.0152571
-33.9395 16.8143 -20.3918 0.684138 -0.729346 0.00316263
-33.9779 16.7782 -20.3925 0.66474 -0.746616 0.002373
38.995 14.4255 18.559 -0.505368 -0.862725 8.86021e-05
40.3487 13.7374 18.5505 -0.435346 -0.900153 -0.0110469
41.5392 13.1839 18.4765 -0.406452 -0.913387 0.0141834
42.8488 12.63 18.4921 -0.366774 -0.92998 0.00838934
43.8714 12.2568 18.5384 -0.332558 -0.943037 -0.0045375
44.9293 11.9003 18.5064 -0.304071 -0.952533 0.00763619
45.996 11.575 18.5213 -0.282826 -0.959126 0.00411087
46.9919 11.2955 18.5719 -0.261743 -0.965059 0.00799208
48.137 11.0072 18.5353 -0.238796 -0.971002 0.011448
49.134 10.7696 18.4911 -0.226579 -0.9739 0.0126832
50.347 10.5021 18.5297 -0.20448 -0.97875 0.00965975
51.583 10.2637 18.5668 -0.182379 -0.983194 0.00359634
52.6245 10.0864 18.6437 -0.166122 -0.9861 0.00276926
53.7765 9.89832 18.6449 -0.151617 -0.98843 0.0043402
55.0431 9.71553 18.6647 -0.132464 -0.991185 0.00234078
56.1627 9.57442 18.6603 -0.115274 -0.993312 0.0066337
57.2498 9.45531 18.6486 -0.102942 -0.994682 0.00323773
58.2575 9.3531 18.6368 -0.0982745 -0.995155 0.00200508
59.4068 9.24374 18.6823 -0.0863912 -0.996251 0.00390551
60.584 9.14855 18.6773 -0.0748099 -0.997193 0.00318012
61.63 9.07727 18.5097 -0.0619536 -0.998078 0.00115062
62.6815 9.01411 18.0602 -0.0549285 -0.998474 0.00570915
63.7047 8.95572 17.2884 -0.0488738 -0.998785 0.006238
64.48 8.91415 16.6507 -0.047363 -0.998867 0.00454663
65.4356 8.86783 15.9346 -0.0407182 -0.999149 0.00641896
66.1377 8.83344 15.0155 -0.0363475 -0.999311 0.00670105
66.4773 8.81561 13.9535 -0.035492 -0.999352 0.00589553
66.4273 8.81066 12.9216 -0.0375755 -0.999279 0.00476211
65.8471 8.82684 11.8823 -0.0413136 -0.999126 0.00620226
65.035 8.85554 11.0447 -0.0418426 -0.999085 0.00871799
64.1311 8.88696 10.3508 -0.0466955 -0.998855 0.0103422
63.2575 8.92229 9.71747 -0.0485932 -0.998768 0.0100095
62.4649 8.95663 9.05406 -0.0567507 -0.998328 0.010882
61.7007 8.99374 8.36143 -0.0614272 -0.998063 0.00907334
61.0234 9.02984 7.51303 -0.0637596 -0.997904 0.0110735
60.4843 9.05486 6.60459 -0.0682843 -0.997537 0.0160194
59.9877 9.07246 5.45575 -0.0790202 -0.996767 0.01452
59.6786 9.07798 4.2522 -0.0789975 -0.996659 0.0207541
59.4791 9.07499 3.22943 -0.084027 -0.99632 0.0169251
59.2012 9.08143 2.01458 -0.0815504 -0.996609 0.0109434
58.9432 9.07666 0.69259 -0.0812843 -0.996377 0.0249087
58.9191 9.04772 -0.464203 -0.0800119 -0.996511 0.0236599
58.9667 9.01353 -1.82375 -0.0808119 -0.996455 0.0233759
58.8994 8.98859 -3.07071 -0.0838584 -0.996177 0.0244931
58.76 8.96915 -4.25176 -0.0820957 -0.996303 0.0252315
58.8356 8.92681 -5.47257 -0.0771615 -0.996491 0.0324397
58.9493 8.88836 -6.548 -0.0757388 -0.996868 0.0227542
59.0794 8.85637 -7.54093 -0.073296 -0.997058 0.0224339
59.3082 8.80623 -8.7645 -0.0797247 -0.996513 0.0238428
59.7079 8.75139 -9.71175 -0.0684154 -0.997253 0.0283827
60.1797 8.69334 -10.6894 -0.0652443 -0.99753 0.0260223
60.7329 8.6377 -11.5522 -0.0617051 -0.997849 0.022152
61.4283 8.57448 -12.5352 -0.0576095 -0.998094 0.0221347
62.0842 8.51798 -13.3042 -0.0602221 -0.997869 0.0250994
62.9703 8.4516 -14.298 -0.0489298 -0.998626 0.0187238
63.5355 8.41029 -15.12 -0.0453634 -0.99882 0.0172669
64.0008 8.37717 -16.0559 -0.039491 -0.99908 0.0167153
64.1038 8.35339 -17.2518 -0.0359599 -0.999211 0.0168609
63.4252 8.37132 -18.0521 -0.0470178 -0.998809 0.0130207
62.3084 8.41874 -18.5463 -0.0503049 -0.998659 0.0121724
61.1842 8.47639 -18.7034 -0.0557019 -0.998394 0.0102997
60.1448 8.53807 -18.7257 -0.0707085 -0.997427 0.0102013
58.988 8.62919 -18.7159 -0.0828667 -0.996488 0.0119941
57.5131 8.75923 -18.6776 -0.0891165 -0.995914 0.014589
56.2841 8.87561 -18.6167 -0.0993286 -0.994976 0.0125221
55.2154 8.99424 -18.6529 -0.122584 -0.992419 0.00879433
54.2101 9.12701 -18.6759 -0.142883 -0.989669 0.0118607
53.0912 9.2976 -18.5979 -0.155628 -0.987653 0.0179346
52.0836 9.45961 -18.5128 -0.170978 -0.984963 0.0213935
50.9683 9.66481 -18.6036 -0.18618 -0.982181 0.0251764
49.9173 9.86446 -18.6922 -0.193876 -0.980832 0.018192
48.9391 10.0756 -18.6448 -0.21588 -0.976153 0.0228403
47.7949 10.3569 -18.5481 -0.248803 -0.968548 0.00342147
46.6122 10.6754 -18.5159 -0.274251 -0.961632 0.00713245
45.5362 10.9822 -18.5336 -0.273267 -0.961919 0.00575836
44.5391 11.2885 -18.5501 -0.295712 -0.955221 0.0103258
43.1455 11.7646 -18.6312 -0.338187 -0.940936 0.016425
42.2166 12.1283 -18.6363 -0.379612 -0.925045 0.0136766
41.0297 12.6262 -18.5988 -0.393547 -0.919181 0.0150774
40.0389 13.0648 -18.5869 -0.420743 -0.907073 0.0139283
39.0743 13.5271 -18.5755 -0.446952 -0.894524 0.00301404
37.9681 14.1304 -18.547 -0.518587 -0.855022 0.00237902
37.0304 14.7153 -18.5372 -0.539846 -0.841723 0.00830851
36.1283 15.3004 -18.5462 -0.548272 -0.83626 0.00813468
35.2871 15.87 -18.5525 -0.576439 -0.817139 0.00123476
34.2977 16.606 -18.4484 -0.606284 -0.795241 0.00348548
33.4012 17.3313 -18.4292 -0.652258 -0.757686 0.00809372
32.6484 18.0304 -18.5364 -0.697618 -0.715882 0.0269605
32.2636 18.4481 -17.715 -0.731213 -0.681197 0.0358156
31.949 18.8666 -16.8294 -0.753481 -0.654664 0.0594034
32.2109 18.6419 -15.9217 -0.753303 -0.655447 0.054079
32.5817 18.2748 -15.0008 -0.750735 -0.657833 0.0604333
32.7723 18.1322 -14.0314 -0.735582 -0.675726 0.0480929
32.8167 18.2028 -12.8938 -0.706354 -0.704091 0.0729335
32.8582 18.2134 -11.8839 -0.716326 -0.696754 0.0368206
32.8854 18.2781 -10.713 -0.707666 -0.703984 0.0600714
32.7773 18.4721 -9.48334 -0.68916 -0.7221 0.0597922
32.3034 19.0906 -8.3433 -0.72489 -0.684563 0.0766257
31.8146 19.722 -7.58525 -0.748176 -0.659402 0.0733561
31.2134 20.4406 -7.13136 -0.744675 -0.664709 0.06017
30.6436 21.1979 -6.60691 -0.797642 -0.596506 0.0891484
30.0802 22.0525 -5.90992 -0.806253 -0.587845 0.0662852
30.1398 22.0426 -5.27236 -0.797096 -0.599054 0.0741622
30.7514 21.3433 -4.48493 -0.789001 -0.610829 0.0660639
31.5344 20.4587 -3.71179 -0.773714 -0.630236 0.0643839
32.1911 19.7585 -2.943 -0.753927 -0.654512 0.0566421
32.754 19.1701 -2.31245 -0.739604 -0.670909 0.0535381
33.2645 18.6948 -1.53152 -0.724442 -0.687247 0.0520963
33.8404 18.1629 -0.600342 -0.707226 -0.705609 0.0441302
34.4158 17.6453 0.358976 -0.69177 -0.721106 0.0382219
34.9211 17.1975 1.10881 -0.687234 -0.725523 0.0354319
35.5747 16.6337 1.85289 -0.646344 -0.761641 0.0393601
36.2515 16.0989 2.65556 -0.631537 -0.775321 0.00619836
36.8059 15.7028 3.61371 -0.596675 -0.80235 0.0103963
37.3707 15.3095 4.58565 -0.57757 -0.816121 0.0101265
37.6753 15.1275 5.51711 -0.57289 -0.819121 0.0289423
37.8963 15.0035 6.85032 -0.565612 -0.824645 -0.00656537
37.9473 15.0182 8.35084 -0.574608 -0.817229 0.0442996
38.047 14.9821 9.44819 -0.575728 -0.817387 0.0203766
38.0267 15.015 10.9717 -0.57477 -0.818315 -0.000506063
37.8092 15.1436 11.9392 -0.551297 -0.832647 -0.0378508
37.4695 15.3956 12.9803 -0.623988 -0.781319 0.0134058
36.9913 15.764 13.8813 -0.601664 -0.79839 -0.0239551
36.3721 16.2239 14.6646 -0.619435 -0.784767 -0.0187645
35.6454 16.8227 15.4284 -0.674603 -0.737698 -0.0162041
34.8405 17.5813 16.3753 -0.697511 -0.716489 -0.00466235
34.208 18.193 17.3237 -0.693733 -0.719856 -0.0174679
34.1104 18.2537 18.2572 -0.723649 -0.688863 -0.0395278
34.7991 17.592 18.5817 -0.680791 -0.732122 -0.0217805
35.6896 16.7833 18.5192 -0.6563 -0.753817 -0.0199503
36.8067 15.8857 18.5545 -0.611881 -0.790692 -0.00995263
37.8206 15.1508 18.4912 -0.58636 -0.809935 0.0041546
38.8103 14.5378 18.5572 -0.519345 -0.854538 -0.00675065
38.8273 14.5212 19.552 -0.513004 -0.857879 -0.00473103
40.0482 13.8748 19.5751 -0.431399 -0.902149 -0.000761848
41.0397 13.411 19.5196 -0.411346 -0.911444 -0.00468156
42.3623 12.8406 19.4689 -0.380028 -0.924955 -0.00616143
43.4228 12.4296 19.5208 -0.339822 -0.940376 0.0146333
44.4662 12.0655 19.4923 -0.318953 -0.947675 0.0134869
45.5622 11.717 19.5059 -0.287514 -0.9577 0.0120668
46.6185 11.4085 19.5192 -0.276842 -0.960871 -0.00924387
47.7693 11.1037 19.53 -0.237776 -0.971316 -0.00282158
49.0348 10.8002 19.4734 -0.223247 -0.974734 0.00738273
50.3035 10.5232 19.5388 -0.196542 -0.980408 0.0131
51.6668 10.2603 19.5419 -0.178532 -0.983848 0.0130137
52.9363 10.0371 19.6312 -0.165131 -0.986268 0.00251845
54.0786 9.86126 19.6357 -0.14699 -0.989104 0.007003
55.0697 9.71613 19.6247 -0.135056 -0.990763 0.00741963
56.1871 9.57711 19.6324 -0.117359 -0.993079 0.00273797
57.3808 9.44136 19.6289 -0.102499 -0.994727 -0.00341345
58.3921 9.34075 19.6315 -0.0963608 -0.995344 0.0022542
59.4406 9.2418 19.7122 -0.0868916 -0.996201 -0.000383336
60.779 9.13859 19.6788 -0.0704363 -0.997516 0.000260901
62.3065 9.03846 19.3725 -0.0582406 -0.998299 0.00262186
63.2147 8.98485 18.9308 -0.0541782 -0.998526 0.00141577
64.0302 8.94203 18.3647 -0.0515188 -0.99867 0.00181811
65.1548 8.8883 17.4252 -0.041839 -0.999119 0.00322043
66.1735 8.84289 16.5949 -0.0383735 -0.999248 0.00551537
67.0056 8.80746 15.5824 -0.0345277 -0.999397 0.00370029
67.4845 8.78451 14.2736 -0.0320586 -0.999469 0.00589552
67.4527 8.77663 12.7596 -0.0322181 -0.999463 0.00591198
66.942 8.78572 11.5699 -0.0344518 -0.999374 0.00808439
66.1659 8.80747 10.7054 -0.0367907 -0.999307 0.00573
65.2439 8.83615 9.94001 -0.0410764 -0.999104 0.0101704
64.3179 8.86884 9.28532 -0.042864 -0.999043 0.00866823
