-18.701 32.5135 17.6059 0.635685 -0.769802 -0.057535
-19.6039 31.7468 17.675 0.643742 -0.763383 -0.0533219
-18.9104 32.431 16.3853 0.643713 -0.762511 -0.0648959
-18.3748 32.9581 15.3967 0.633172 -0.770242 -0.0762911
-17.8366 33.5004 14.3804 0.633058 -0.770478 -0.0748362
-17.2845 34.0478 13.387 0.611992 -0.787206 -0.0759813
-16.7029 34.5916 12.3808 0.600999 -0.795604 -0.0762612
-16.0448 35.1966 11.2379 0.600189 -0.79631 -0.0752511
-15.3597 35.8011 10.0755 0.589693 -0.804936 -0.065871
-15.049 36.0478 9.59105 0.567955 -0.822461 -0.0313987
-15.72 35.6221 9.10233 0.571753 -0.817415 -0.0702249
-16.3388 35.0841 10.1228 0.60306 -0.793312 -0.0835171
-17.0642 34.4069 11.3869 0.610067 -0.788631 -0.0766776
-17.6379 33.8631 12.3898 0.624733 -0.777425 -0.0729314
-18.3061 33.1882 13.6099 0.6349 -0.768883 -0.0756401
-18.8834 32.6032 14.6951 0.650762 -0.75646 -0.0653993
-19.4664 32.0022 15.8052 0.653177 -0.754563 -0.0632084
-20.0608 31.4016 16.9278 0.653073 -0.755065 -0.0580647
-20.519 30.9493 17.7916 0.654541 -0.75447 -0.0485004
-21.3381 30.2188 17.7509 0.678191 -0.73387 -0.0386365
-20.7694 30.7969 16.6579 0.673452 -0.73764 -0.0484637
-20.2474 31.3309 15.6641 0.667639 -0.742817 -0.0498194
-19.5385 32.0716 14.2951 0.667981 -0.741735 -0.0602531
-18.8839 32.7504 13.0522 0.650757 -0.755763 -0.0730586
-18.2609 33.4075 11.8747 0.642662 -0.762441 -0.0752967
-17.7108 33.9513 10.8887 0.625348 -0.776926 -0.0729795
-17.1391 34.499 9.88672 0.612211 -0.786218 -0.0840179
-16.4261 35.1466 8.68553 0.598917 -0.798168 -0.0650048
-16.3623 35.2031 8.57804 0.593307 -0.803075 -0.0552948
-17.1659 34.6197 8.3311 0.59913 -0.798065 -0.064312
-17.8781 33.946 9.56227 0.624219 -0.776982 -0.0815483
-18.4198 33.4014 10.5342 0.632861 -0.770244 -0.0788125
-18.9527 32.8466 11.5283 0.65184 -0.754022 -0.0809595
-19.5515 32.2022 12.6763 0.667369 -0.741602 -0.068162
-20.1087 31.6043 13.7563 0.665968 -0.743052 -0.0660377
-20.6298 31.0523 14.769 0.675208 -0.735785 -0.0520975
-21.1794 30.477 15.8271 0.680296 -0.731127 -0.0514887
-21.7837 29.8451 17.0131 0.686567 -0.726338 -0.0325307
-22.2102 29.4058 17.85 0.685662 -0.727412 -0.027187
-22.9168 28.7425 17.6455 0.697943 -0.715829 -0.0215489
-22.3052 29.3757 16.4347 0.692367 -0.720803 -0.0327202
-21.7455 29.9744 15.32 0.6915 -0.720944 -0.0454722
-21.2299 30.5294 14.305 0.688642 -0.723522 -0.0478418
-20.6673 31.1398 13.199 0.678897 -0.731709 -0.0608315
-20.1658 31.7035 12.203 0.679816 -0.729015 -0.0799192
-19.6094 32.3229 11.1122 0.656613 -0.749653 -0.0829498
-19.0172 32.9657 9.98408 0.640474 -0.763543 -0.0824263
-18.2967 33.697 8.68081 0.633175 -0.770077 -0.0779169
-17.7545 34.2116 7.73624 0.611441 -0.787453 -0.0778316
-18.1588 33.9891 6.81051 0.615648 -0.784277 -0.0767296
-18.8046 33.3468 7.96239 0.642523 -0.75976 -0.0996425
-19.3543 32.773 8.97164 0.655609 -0.751188 -0.0767675
-19.8696 32.2105 9.95257 0.681957 -0.727412 -0.0761983
-20.4022 31.6104 11.0031 0.677986 -0.731628 -0.0711101
-21.0219 30.8982 12.2449 0.693374 -0.717523 -0.0662868
-21.6599 30.1695 13.5316 0.694736 -0.717128 -0.0553946
-22.197 29.5779 14.6044 0.700665 -0.712608 -0.035469
-22.7769 28.9475 15.7679 0.703209 -0.710303 -0.0310795
-23.3057 28.3887 16.8297 0.697703 -0.71599 -0.0238323
-23.7873 27.8956 17.795 0.700665 -0.713378 -0.012651
-24.5928 27.0939 17.8304 0.703628 -0.710549 -0.0052783
-23.9623 27.7418 16.5625 0.707183 -0.706821 -0.0172338
-23.2741 28.482 15.1637 0.705184 -0.708443 -0.0287113
-22.7245 29.0862 14.0566 0.712424 -0.700718 -0.0380283
-22.1444 29.7485 12.8739 0.708503 -0.703156 -0.0599597
-21.6509 30.3255 11.8622 0.701435 -0.709269 -0.0701845
-20.951 31.1409 10.4424 0.69254 -0.717806 -0.0717143
-20.4433 31.7334 9.41893 0.67901 -0.729125 -0.085566
-19.9376 32.3035 8.43426 0.667893 -0.739609 -0.0830518
-19.3493 32.9654 7.30386 0.656749 -0.748771 -0.089571
-18.7575 33.5829 6.22495 0.611917 -0.786751 -0.0811219
-18.5882 33.7398 5.93846 0.609138 -0.789724 -0.0727131
-19.7959 32.6624 6.49238 0.674613 -0.733894 -0.0793473
-20.3164 32.0858 7.4837 0.666923 -0.740542 -0.0825309
-20.8877 31.3938 8.63895 0.694873 -0.713717 -0.0880896
-21.3821 30.8072 9.64664 0.691129 -0.71909 -0.0724612
-21.9579 30.1224 10.8328 0.696572 -0.713858 -0.0720731
-22.5202 29.4434 12.0122 0.708502 -0.703157 -0.0599628
-22.9953 28.8781 13.006 0.711184 -0.701611 -0.0442653
-23.5425 28.2556 14.1185 0.714 -0.699411 -0.0320639
-24.1263 27.6081 15.3123 0.714383 -0.699463 -0.020202
-24.6753 27.0202 16.4314 0.715056 -0.698995 -0.0100728
-25.2217 26.4579 17.5266 0.710889 -0.703299 0.00282923
-25.329 26.3514 17.7439 0.709205 -0.704988 0.00459696
-25.9163 25.7404 17.3628 0.721725 -0.692122 0.00894732
-25.3335 26.3458 16.1976 0.727096 -0.686535 0.000785919
-24.8098 26.9067 15.1317 0.724826 -0.688867 -0.00950307
-24.2784 27.4935 14.0403 0.72443 -0.688945 -0.0235854
-23.793 28.0532 13.0356 0.723262 -0.689442 -0.0395109
-23.2868 28.6541 11.982 0.72239 -0.689187 -0.0563372
-22.7664 29.2943 10.8722 0.71889 -0.69221 -0.0635746
-22.2376 29.9505 9.7431 0.705244 -0.70556 -0.0693962
-21.7186 30.5786 8.66194 0.70462 -0.705451 -0.076484
-21.2487 31.1676 7.67743 0.699547 -0.709927 -0.0814725
-22.2224 30.1481 8.02155 0.704722 -0.704892 -0.0805878
-22.8138 29.4086 9.28351 0.718507 -0.691627 -0.0734891
-23.3198 28.7633 10.39 0.720701 -0.689454 -0.0724123
-23.8039 28.1516 11.4422 0.734056 -0.677165 -0.0510788
-24.3482 27.4882 12.5917 0.733681 -0.678707 -0.0327028
-24.9177 26.8264 13.7745 0.727768 -0.685358 -0.0252635
-25.4278 26.2543 14.8346 0.731689 -0.681543 -0.0114487
-25.988 25.6513 15.9765 0.735812 -0.677179 0.00305717
-26.5371 25.0779 17.069 0.738747 -0.673824 0.0146246
-26.7057 24.8985 17.4118 0.739081 -0.673233 0.0227034
-27.0401 24.5088 16.5643 0.754134 -0.656314 0.0231003
-26.4834 25.1105 15.4408 0.735949 -0.67703 0.00294709
-25.8696 25.7857 14.1787 0.735702 -0.677249 -0.00874643
-25.3456 26.3792 13.0863 0.736195 -0.676287 -0.0255506
-24.7825 27.0512 11.9171 0.734672 -0.677096 -0.0423956
-24.2253 27.7494 10.7191 0.734944 -0.675652 -0.057886
-23.7253 28.405 9.59348 0.733823 -0.675824 -0.0690362
-23.225 29.0652 8.4757 0.728997 -0.680725 -0.0719498
-23.0292 29.316 8.04747 0.718714 -0.691374 -0.07384
-23.7285 28.582 7.8912 0.732451 -0.677835 -0.0636782
-24.2407 27.8874 9.06395 0.742352 -0.666662 -0.0668973
-24.7415 27.2215 10.2076 0.746236 -0.663292 -0.0563537
-25.2583 26.5651 11.334 0.74563 -0.665047 -0.0418139
-25.8294 25.8708 12.5308 0.746307 -0.665066 -0.026706
-26.3112 25.3058 13.5384 0.744612 -0.667394 -0.011751
-26.9073 24.6265 14.7887 0.748708 -0.662899 -0.00145986
-27.5164 23.9483 16.0299 0.757003 -0.653317 0.0111419
-27.9629 23.4129 15.4649 0.762874 -0.646449 0.0112681
-27.2925 24.1867 14.059 0.756833 -0.653604 0.0025691
-26.6589 24.9306 12.7196 0.746856 -0.664873 -0.0122389
-26.119 25.5831 11.5928 0.749797 -0.66118 -0.0254223
-25.6067 26.2261 10.4934 0.752673 -0.65706 -0.0419074
-25.0021 27.0233 9.12368 0.746939 -0.662159 -0.0602243
-24.472 27.7432 7.89259 0.748791 -0.659486 -0.0662608
-24.4202 27.8138 7.77406 0.748536 -0.659801 -0.0660091
-25.0753 27.0818 7.59591 0.756718 -0.6507 -0.0629913
-25.5229 26.4663 8.64369 0.754476 -0.65382 -0.0573173
-26.0466 25.7685 9.84694 0.753383 -0.655799 -0.0483903
-26.586 25.0774 11.026 0.753154 -0.656843 -0.0362859
-27.0733 24.4752 12.0564 0.755622 -0.654569 -0.0239798
-27.679 23.7477 13.3359 0.758988 -0.651053 -0.00818521
-28.2262 23.0941 14.4911 0.764722 -0.644354 0.00294233
-28.5806 22.6656 15.2887 0.770481 -0.637448 0.0043348
-29.3501 21.7335 15.4114 0.77471 -0.632145 -0.0147174
-28.8392 22.3621 14.2739 0.766956 -0.641497 -0.0161554
-28.3224 22.997 13.1703 0.763158 -0.64611 -0.0115245
-27.7185 23.7366 11.8865 0.758754 -0.651075 -0.0198416
-27.2479 24.3227 10.8796 0.753772 -0.656427 -0.0305131
-26.7685 24.9332 9.8398 0.756684 -0.652472 -0.0413369
-26.2905 25.5662 8.7513 0.758109 -0.650124 -0.0510829
-25.7755 26.2671 7.55328 0.762375 -0.644747 -0.0555567
-25.6123 26.4965 7.16725 0.760531 -0.646547 -0.0597511
-26.2521 25.7509 7.01612 0.765207 -0.641348 -0.0559582
-26.6929 25.1455 8.04659 0.762306 -0.645139 -0.0518219
-27.2564 24.3991 9.3167 0.75943 -0.649388 -0.0395091
-27.7734 23.7321 10.4492 0.75868 -0.650677 -0.0319974
-28.3169 23.0494 11.6285 0.757979 -0.651841 -0.023907
-28.9075 22.3158 12.8876 0.760696 -0.648787 -0.0204322
-29.3737 21.7401 13.8847 0.757074 -0.652906 -0.0235145
-29.9039 21.0792 15.0396 0.756382 -0.653519 -0.0282602
-30.0602 20.8836 15.3783 0.756382 -0.653519 -0.0282602
-30.826 19.993 15.4439 0.761484 -0.646897 -0.0408149
-30.352 20.5875 14.429 0.753956 -0.656245 -0.0298823
-29.8677 21.1877 13.385 0.752877 -0.657738 -0.0236043
-29.3608 21.8106 12.3165 0.751298 -0.659221 -0.0312821
-28.8035 22.5037 11.1271 0.758563 -0.65102 -0.0274647
-28.2502 23.2049 9.92269 0.759961 -0.649019 -0.0351211
-27.7651 23.8333 8.85739 0.761444 -0.647068 -0.0388089
-27.2608 24.494 7.74148 0.76593 -0.64142 -0.0439494
-26.7314 25.2182 6.50032 0.767157 -0.639309 -0.0524781
-27.1672 24.7359 5.89535 0.770375 -0.63601 -0.0448674
-27.598 24.1468 6.90962 0.767721 -0.639581 -0.0392484
-28.0967 23.4862 8.03844 0.76152 -0.647183 -0.0352318
-28.6423 22.7834 9.22904 0.759931 -0.649048 -0.0352413
-29.2299 22.0448 10.4861 0.749243 -0.661577 -0.0308241
-29.6975 21.4663 11.4863 0.750946 -0.659665 -0.0303717
-30.186 20.8671 12.4905 0.748303 -0.662598 -0.0317294
-30.7658 20.1529 13.7163 0.746739 -0.663924 -0.0398227
-31.4394 19.3434 15.1146 0.728849 -0.683602 -0.0383105
-32.0425 18.611 16.3055 0.711227 -0.700657 -0.0568951
-32.5725 17.9684 17.3659 0.694413 -0.715817 -0.0734672
-32.9757 17.5226 18.1298 0.621316 -0.780705 -0.0668269
-33.798 16.8509 17.9367 0.6009 -0.797325 -0.0564934
-33.1622 17.4516 16.8668 0.661821 -0.746264 -0.0712909
-32.5889 18.0996 15.7763 0.695012 -0.716871 -0.0552678
-31.9501 18.8356 14.5527 0.714102 -0.698814 -0.0414548
-31.4358 19.4351 13.5132 0.733317 -0.678901 -0.0365858
-30.795 20.2088 12.1862 0.738125 -0.673388 -0.0414672
-30.2255 20.8954 11.0293 0.746119 -0.665039 -0.032087
-29.7004 21.538 9.92759 0.748043 -0.662986 -0.0296787
-29.0956 22.2853 8.66457 0.757736 -0.651575 -0.0358555
-28.6114 22.9067 7.6075 0.760045 -0.648957 -0.0344353
-28.1274 23.5373 6.519 0.767037 -0.640517 -0.0373147
-27.6738 24.1472 5.465 0.774172 -0.631839 -0.0379232
-28.1609 23.5828 4.98317 0.771557 -0.635266 -0.0337051
-28.7158 22.8459 6.26698 0.767226 -0.64071 -0.0292494
-29.176 22.2629 7.27925 0.759893 -0.649246 -0.0322896
-29.6951 21.6162 8.3803 0.746916 -0.663956 -0.0357731
-30.2526 20.9428 9.52651 0.739838 -0.671792 -0.0365514
-30.9378 20.1214 10.9292 0.731045 -0.681358 -0.0363941
-31.4425 19.5269 11.9299 0.725028 -0.68734 -0.0435712
-32.1387 18.7121 13.3307 0.716427 -0.696679 -0.0370195
-32.6786 18.1213 14.3697 0.705584 -0.707665 -0.0369139
-33.2858 17.4762 15.4618 0.682305 -0.728445 -0.0618762
-33.8536 16.9177 16.4549 0.621601 -0.781409 -0.0548833
-34.5401 16.3263 17.5183 0.584944 -0.809855 -0.0444358
-34.7365 16.1725 17.7963 0.576486 -0.81591 -0.0442051
-35.8626 15.3744 17.8899 0.559254 -0.82858 -0.0262707
-35.1357 15.926 16.8698 0.585026 -0.810511 -0.0285821
-34.4455 16.4962 15.847 0.604632 -0.7959 -0.0310562
-33.6592 17.2048 14.559 0.647079 -0.760664 -0.051768
-33.046 17.8165 13.4761 0.68266 -0.729886 -0.0352255
-32.4597 18.4569 12.3573 0.6968 -0.715407 -0.0516126
-31.8521 19.1434 11.1846 0.713337 -0.69884 -0.0526585
-31.3152 19.7631 10.1379 0.72826 -0.684021 -0.0418725
-30.6716 20.5182 8.85069 0.733249 -0.678977 -0.0365388
-30.0379 21.2668 7.55584 0.743715 -0.668034 -0.0248729
-29.5135 21.8995 6.45501 0.754162 -0.656386 -0.0199393
-28.9768 22.5824 5.25475 0.769291 -0.638103 -0.0318836
-28.6279 23.0411 4.45715 0.768611 -0.639019 -0.0298691
-29.0612 22.5437 3.86905 0.770212 -0.637259 -0.0259509
-29.549 21.9216 4.95932 0.761569 -0.647447 -0.0287163
-30.0101 21.3542 5.96445 0.747544 -0.66382 -0.0228351
-30.4959 20.7791 6.97637 0.743074 -0.668696 -0.0262002
-31.0065 20.1868 8.0025 0.72813 -0.685175 -0.0190258
-31.6364 19.4802 9.23262 0.714902 -0.698625 -0.0289506
-32.2051 18.8488 10.3119 0.711939 -0.700723 -0.0461432
-32.7731 18.2198 11.388 0.696916 -0.715511 -0.0484953
-33.4023 17.5532 12.5451 0.678361 -0.732777 -0.0535219
-34.057 16.9196 13.6808 0.648606 -0.760027 -0.0408601
-34.6498 16.3921 14.6476 0.605414 -0.795165 -0.034438
-35.3612 15.8209 15.6983 0.58839 -0.807502 -0.0416816
-36.196 15.1829 16.8741 0.557823 -0.829327 -0.0323953
-36.8745 14.7045 17.8014 0.519997 -0.853608 -0.0309104
-37.0402 14.5957 18.0183 0.519997 -0.853608 -0.0309104
-38.2341 13.8981 18.0736 0.472184 -0.881322 -0.017697
-37.4926 14.3503 17.1483 0.520884 -0.853189 -0.0273613
-36.7368 14.8556 16.1546 0.532609 -0.846062 -0.0224925
-36.0572 15.341 15.2108 0.560061 -0.827895 -0.0303528
-35.2015 16.0005 13.9905 0.595545 -0.802716 -0.0311988
-34.5125 16.5795 12.9045 0.630887 -0.774791 -0.0410026
-33.8203 17.2357 11.7311 0.657321 -0.752457 -0.0416896
-33.2291 17.8329 10.6827 0.685761 -0.726371 -0.046004
-32.4526 18.6461 9.26487 0.694235 -0.71917 -0.0288563
-31.9344 19.2127 8.28534 0.715828 -0.698128 -0.0143728
-31.3995 19.7919 7.27597 0.727342 -0.685943 -0.021354
-30.7684 20.5103 6.00875 0.739667 -0.672567 -0.0233593
-30.2811 21.0783 5.00419 0.75007 -0.661081 -0.0191564
-29.6472 21.8573 3.62188 0.764385 -0.644403 -0.0214785
-29.4621 22.0905 3.2097 0.763402 -0.645684 -0.0175957
-29.7534 21.7631 2.35618 0.765691 -0.643169 -0.00719945
-30.3748 21.0069 3.65739 0.755797 -0.654594 -0.016673
-30.8757 20.4279 4.71008 0.737545 -0.675147 -0.0143099
-31.3889 19.85 5.73176 0.729743 -0.683352 -0.0225039
-31.931 19.2497 6.80452 0.708467 -0.705643 -0.0119647
-32.5197 18.6318 7.89491 0.697479 -0.716215 -0.0236522
-33.1009 18.0317 8.93991 0.696421 -0.717176 -0.0256102
-33.7183 17.4071 10.0344 0.678827 -0.733748 -0.0284222
-34.367 16.786 11.1458 0.66452 -0.746867 -0.0245338
-35.1219 16.1188 12.3745 0.609403 -0.792305 -0.0296871
-35.8525 15.5478 13.4621 0.582903 -0.812273 -0.0209138
-36.6532 14.9437 14.602 0.561487 -0.827445 -0.00817214
-37.4924 14.3939 15.7205 0.514358 -0.857281 -0.0224799
-38.2874 13.9 16.7218 0.482833 -0.875302 -0.0267931
-39.0844 13.4626 17.6847 0.456044 -0.889679 -0.0222455
-39.4335 13.2797 18.1084 0.450101 -0.892835 -0.0159824
-40.547 12.7497 18.0107 0.395701 -0.918338 -0.00874336
-39.7615 13.1275 17.0933 0.450605 -0.892715 -0.0038135
-39.0064 13.5229 16.1892 0.476478 -0.879115 -0.0112048
-38.1412 14.0289 15.1162 0.493589 -0.869274 -0.0270629
-37.3934 14.4955 14.1493 0.513975 -0.857477 -0.0237132
-36.6338 15.0106 13.112 0.539722 -0.841579 -0.0210987
-35.9301 15.5338 12.109 0.575405 -0.817525 -0.023709
-35.2159 16.0782 11.0395 0.613456 -0.789677 -0.0091166
-34.5872 16.6319 10.0214 0.649423 -0.759382 -0.039862
-33.8407 17.3552 8.74067 0.670642 -0.740844 -0.0372649
-33.0913 18.1006 7.42685 0.689936 -0.723556 -0.0213536
-32.4404 18.7481 6.26238 0.704974 -0.70923 -0.00226568
-31.8036 19.4229 5.04911 0.720796 -0.692983 -0.0150777
-31.2022 20.0807 3.86121 0.728176 -0.685232 -0.0147146
-30.693 20.6722 2.79676 0.753079 -0.657795 -0.0133499
-30.1555 21.2913 1.74485 0.759217 -0.650818 -0.00505132
-30.0533 21.4152 1.53845 0.763937 -0.645291 0.000407865
-30.3865 21.0178 0.7907 0.760824 -0.64894 0.00490041
-30.9987 20.3243 1.98932 0.753835 -0.657063 -0.00117312
-31.5901 19.6845 3.12214 0.728066 -0.685348 -0.0147914
-32.2015 19.0189 4.33862 0.724677 -0.689089 0.000300762
-32.8625 18.3383 5.55607 0.69448 -0.71948 -0.00679248
-33.5402 17.6837 6.74901 0.674707 -0.737941 -0.0146185
-34.1383 17.141 7.74996 0.657453 -0.753266 -0.0186131
-34.9149 16.4224 9.04563 0.623646 -0.780084 -0.0503436
-35.5383 15.8535 10.0634 0.607343 -0.793977 -0.0271067
-36.2792 15.3028 11.1518 0.575721 -0.817628 -0.005452
-36.967 14.8266 12.1104 0.548494 -0.835944 -0.0187675
-37.7223 14.3221 13.1396 0.525008 -0.850874 -0.0194945
-38.6328 13.7806 14.3082 0.491535 -0.870303 -0.0310694
-39.3651 13.3559 15.2202 0.455487 -0.889747 -0.0296831
-40.3629 12.8436 16.4135 0.417933 -0.908448 -0.00743478
-41.1572 12.5035 17.3229 0.37729 -0.92609 -0.00314509
-41.7215 12.2759 17.9519 0.359473 -0.933145 -0.00437312
-42.8522 11.8572 17.8117 0.33816 -0.941088 0.00131932
-41.8407 12.2274 16.7197 0.364973 -0.931018 -0.000774499
-40.907 12.6199 15.6524 0.385985 -0.922254 -0.0215184
-39.9729 13.0671 14.5434 0.434048 -0.900606 -0.0226208
-39.1625 13.5031 13.5481 0.463551 -0.886066 -0.00276317
-38.395 13.9208 12.5932 0.488286 -0.872656 -0.00700345
-37.6042 14.4215 11.5345 0.548047 -0.836309 -0.0152247
-36.8562 14.9288 10.51 0.556513 -0.830466 -0.0248947
-36.0327 15.5488 9.31184 0.57158 -0.817693 -0.0683681
-35.2991 16.1529 8.18217 0.632545 -0.774275 -0.0196016
-34.6822 16.6846 7.18655 0.634005 -0.773006 -0.0223517
-34.0205 17.272 6.09405 0.660454 -0.750867 -0.00041185
-33.3493 17.8741 4.96566 0.676745 -0.736213 -0.00258185
-32.6841 18.5289 3.77022 0.70948 -0.704718 -0.00323335
-32.0136 19.235 2.50128 0.713254 -0.700905 -0.000244914
-31.3187 19.9657 1.20823 0.731072 -0.682185 0.0125507
-30.7393 20.6035 0.0786549 0.745716 -0.66598 0.0194678
-30.6699 20.6742 -0.0534588 0.752813 -0.657647 0.0278182
-30.8325 20.4442 -1.1451 0.760297 -0.649363 0.0166138
-31.3513 19.9114 -0.151584 0.745715 -0.665981 0.0194675
-31.8784 19.3508 0.84476 0.734413 -0.678505 0.0163518
-32.5622 18.6729 2.07015 0.71714 -0.696848 0.0106673
-33.1978 18.0368 3.22281 0.687277 -0.726113 -0.0202741
-33.8155 17.4474 4.30937 0.673386 -0.739288 0.00236086
-34.4124 16.9277 5.30364 0.662138 -0.749375 -0.00328201
-35.1238 16.3257 6.44411 0.639907 -0.768443 0.00371932
-35.9567 15.658 7.73467 0.593251 -0.804776 -0.0196925
-36.6407 15.1244 8.7587 0.574992 -0.817954 -0.0182926
-37.3749 14.6094 9.78806 0.542868 -0.839437 -0.0253177
-38.1375 14.1092 10.8154 0.513029 -0.858045 -0.023663
-38.8408 13.6782 11.7408 0.488286 -0.872656 -0.00700176
-39.6038 13.2753 12.6775 0.440866 -0.897573 -0.000233534
-40.5078 12.829 13.7721 0.429075 -0.903264 -0.0030251
-41.4946 12.4008 14.9254 0.368924 -0.929297 -0.0173954
-42.3636 12.0374 15.9164 0.34384 -0.938936 -0.0131455
-43.2471 11.7175 16.8687 0.330814 -0.943691 -0.00312168
-44.2472 11.3906 17.9261 0.308091 -0.951357 -0.00042558
-44.3677 11.3528 18.054 0.297928 -0.954583 0.00318353
-45.6646 10.9664 18.0825 0.269243 -0.963071 -0.00156789
-44.8121 11.2149 17.1716 0.28595 -0.958223 0.00642319
-43.9144 11.4949 16.2134 0.31085 -0.950459 0.000515546
-42.9383 11.8427 15.1536 0.334391 -0.942377 -0.0104441
-42.0734 12.1706 14.1927 0.358095 -0.933637 -0.00945058
-41.1899 12.5274 13.1872 0.365069 -0.930912 -0.0113322
-40.1766 13.0036 11.9747 0.42251 -0.906339 0.00596284
-39.4123 13.3873 11.0416 0.459214 -0.888286 -0.00842019
-38.4798 13.9411 9.83405 0.499973 -0.86556 -0.0288584
-37.7732 14.3791 8.89482 0.523989 -0.851629 -0.0128306
-36.9864 14.9092 7.80935 0.541279 -0.840823 -0.0057575
-36.3285 15.3825 6.85744 0.602887 -0.797814 0.00443343
-35.6946 15.8675 5.89755 0.618634 -0.785678 0.00146841
-35.0561 16.3832 4.89923 0.638035 -0.769769 0.0191611
-34.3976 16.932 3.83332 0.657195 -0.753709 -0.00431001
-33.8253 17.4545 2.86227 0.665419 -0.746445 -0.00613615
-33.2394 18.0086 1.8414 0.687449 -0.726179 0.00881252
-32.5791 18.627 0.709229 0.711171 -0.702809 0.017185
-31.8684 19.333 -0.586612 0.726928 -0.686286 0.0242146
-31.2977 19.9195 -1.66179 0.735402 -0.677345 0.0197146
-30.9363 20.3018 -2.34481 0.756592 -0.653675 0.0166618
-30.8731 20.2794 -3.79736 0.764385 -0.64349 0.0404444
-31.6273 19.5496 -2.45468 0.728675 -0.684039 0.0335249
-32.2743 18.8818 -1.2501 0.718743 -0.695212 0.00943506
-33.0156 18.196 0.0598508 0.686725 -0.726611 0.0210956
-33.6322 17.6289 1.10519 0.673641 -0.739038 0.0055555
-34.3426 16.9901 2.29069 0.668188 -0.743992 -0.000405788
-34.9764 16.4429 3.32647 0.637134 -0.770749 -0.00242721
-35.7356 15.8166 4.54257 0.620443 -0.783975 0.0208478
-36.5801 15.2034 5.79135 0.578384 -0.815765 0.000414444
-37.2987 14.7155 6.81243 0.543037 -0.839705 0.00264704
-38.0867 14.2018 7.88792 0.52328 -0.852034 -0.0147038
-38.9187 13.7087 8.98031 0.487621 -0.873056 0.000472658
-39.6598 13.2862 9.93063 0.449577 -0.892921 -0.0239385
-40.517 12.8446 10.9858 0.418116 -0.908392 0.00152366
-41.2936 12.5029 11.9058 0.370513 -0.928757 -0.0114215
-42.3562 12.0655 13.1217 0.357747 -0.933818 0.000649238
-43.3879 11.6933 14.2564 0.329277 -0.944125 -0.0142783
-44.3511 11.3563 15.3072 0.305764 -0.952065 -0.00893901
-45.1858 11.0984 16.2078 0.272682 -0.962092 -0.00493344
-46.1267 10.8358 17.2087 0.258613 -0.965973 -0.00392264
-46.9206 10.6332 18.0351 0.23865 -0.971093 0.00487051
-48.1729 10.3415 17.9674 0.214768 -0.976665 -0.000124682
-47.2952 10.5419 17.0706 0.237344 -0.971423 -0.00209671
-46.3354 10.785 16.068 0.250276 -0.968143 -0.00783634
-45.4658 11.0204 15.1387 0.26878 -0.963202 -0.000247299
-44.345 11.3716 13.9244 0.314995 -0.948996 -0.0136265
-43.2859 11.7323 12.7696 0.330596 -0.943771 0.0015586
-42.2813 12.115 11.6415 0.35951 -0.933079 -0.0107446
-41.4833 12.4285 10.7272 0.382708 -0.923855 -0.00510255
-40.4224 12.9282 9.44736 0.430551 -0.901832 -0.0363953
-39.4342 13.4236 8.2244 0.450442 -0.892769 -0.008097
-38.702 13.8583 7.27593 0.501607 -0.864842 -0.0209405
-37.9768 14.2772 6.32477 0.521614 -0.853026 0.016281
-37.1497 14.7993 5.18848 0.55545 -0.831547 -0.00238453
-36.4435 15.2701 4.18312 0.565674 -0.824583 0.0086541
-35.6296 15.9009 2.93026 0.626265 -0.779594 0.0049628
-35.0252 16.4027 1.97068 0.643317 -0.765591 -0.00356156
-34.3881 16.9639 0.928014 0.663721 -0.747974 -0.0030925
-33.6876 17.5605 -0.215271 0.657661 -0.752975 0.0225824
-33.0513 18.1152 -1.2962 0.695949 -0.717667 0.0246663
-32.361 18.7817 -2.52447 0.705188 -0.708772 0.0187838
-31.7903 19.3301 -3.5286 0.716982 -0.696308 0.0330362
-31.2048 19.8789 -4.59895 0.730239 -0.682429 0.0322704
-31.1385 19.9444 -4.72423 0.729737 -0.683093 0.0294563
-31.5244 19.5143 -5.43327 0.715705 -0.698067 0.0216437
-32.0911 18.976 -4.38095 0.710404 -0.703134 0.0304704
-32.6645 18.4464 -3.36956 0.702182 -0.711361 0.0301024
-33.2481 17.9104 -2.36913 0.67416 -0.738359 0.0182965
-34.0781 17.1963 -0.98036 0.65771 -0.752919 0.023039
-34.9141 16.5107 0.360904 0.640681 -0.767682 0.0138638
-35.5169 15.9995 1.3277 0.596052 -0.802915 -0.00708646
-36.2097 15.4646 2.37983 0.607839 -0.793191 -0.0371483
-36.9768 14.8975 3.52203 0.56808 -0.822891 -0.0116382
-37.6866 14.4422 4.51576 0.53104 -0.847212 0.0151221
-38.4 14.0079 5.48012 0.496869 -0.867802 0.00643342
-39.1826 13.5942 6.48173 0.475946 -0.879445 0.00719786
-39.9689 13.1624 7.47976 0.460333 -0.887509 -0.0205346
-40.7952 12.7589 8.49203 0.406274 -0.91364 -0.0142951
-41.6711 12.3746 9.53433 0.371828 -0.928065 -0.020958
-42.6331 11.9841 10.6557 0.343029 -0.939282 -0.00894894
-43.5353 11.6528 11.669 0.303521 -0.952757 -0.0113882
-44.4588 11.3437 12.6794 0.304462 -0.952419 -0.0141669
-45.3043 11.0697 13.5932 0.296742 -0.954942 -0.00540551
-46.1473 10.8303 14.5021 0.258687 -0.965957 0.00274648
-46.9885 10.6215 15.3981 0.232624 -0.972566 -0.00120791
-47.8517 10.4135 16.2909 0.223694 -0.97464 -0.00613446
-48.7781 10.2059 17.2368 0.212753 -0.977099 0.00376781
-49.5398 10.0484 18.0145 0.206353 -0.978464 0.00511195
-50.7737 9.80687 17.9296 0.177382 -0.984086 0.0104707
-49.8523 9.97896 16.9895 0.189645 -0.981843 -0.00426635
-48.9896 10.1634 16.1078 0.209127 -0.977833 -0.0104532
-47.8315 10.4241 14.9137 0.222203 -0.974996 -0.00284289
-46.914 10.6349 13.9588 0.231563 -0.972532 0.0236764
-46.0562 10.8512 13.0496 0.252131 -0.967463 -0.0211273
-45.0307 11.1797 11.9268 0.29026 -0.95672 -0.020886
-44.1734 11.4558 10.9855 0.30866 -0.95115 -0.00658856
-43.315 11.7542 10.0263 0.33217 -0.943207 -0.00482459
-42.514 12.0399 9.12047 0.357234 -0.934009 -0.00330899
-41.7021 12.3767 8.16531 0.379318 -0.925237 -0.00734644
-40.7716 12.7958 7.05163 0.406292 -0.913659 -0.0123903
-39.678 13.3198 5.70394 0.447999 -0.894018 -0.00538091
-38.7616 13.7939 4.54092 0.496868 -0.867802 0.0064306
-38.0082 14.2233 3.54135 0.531041 -0.847211 0.0151233
-37.323 14.6706 2.58455 0.560779 -0.827937 -0.00685905
-36.4473 15.31 1.30275 0.574083 -0.818745 -0.00918548
-35.8033 15.8035 0.327513 0.600232 -0.799664 -0.0161158
-35.1077 16.3364 -0.744263 0.636154 -0.771538 0.00611801
-34.461 16.8477 -1.75904 0.646445 -0.762792 0.0160667
-33.8136 17.388 -2.81872 0.670601 -0.741719 0.0121243
-33.0279 18.0712 -4.13915 0.69346 -0.719965 0.0276314
-32.3235 18.7048 -5.3688 0.696552 -0.716596 0.0361221
-31.9787 19.0035 -5.95916 0.723969 -0.687784 0.0531271
-32.3485 18.5935 -6.6755 0.692188 -0.720122 0.0479458
-32.9864 18.0461 -5.58503 0.695321 -0.718178 0.0273655
-33.6417 17.4852 -4.49496 0.660293 -0.750727 0.0205697
-34.2666 16.972 -3.48112 0.655938 -0.754204 0.0303698
-34.8981 16.4578 -2.46078 0.646868 -0.762274 0.0223527
-35.5724 15.9411 -1.41238 0.611743 -0.791035 0.00584156
-36.3066 15.4123 -0.319887 0.589254 -0.807846 0.0127877
-36.9955 14.9511 0.667525 0.564972 -0.82499 0.0140713
-37.746 14.4394 1.73474 0.521513 -0.852538 -0.0346801
-38.4436 13.9852 2.69792 0.489545 -0.871788 -0.0182001
-39.2513 13.5318 3.75597 0.455716 -0.890062 0.0106492
-40.0668 13.128 4.78089 0.432334 -0.901693 0.00610275
-41.0426 12.6851 5.97651 0.394701 -0.918808 -0.00155681
-41.8226 12.3388 6.91117 0.388756 -0.921225 -0.0146167
-42.6238 12.004 7.84701 0.353463 -0.935388 -0.0106335
-43.5643 11.6639 8.9139 0.336656 -0.941628 -0.000586822
-44.4351 11.3675 9.89324 0.314946 -0.949089 0.00631448
-45.2757 11.1025 10.8156 0.28639 -0.958113 0.000745238
-46.1813 10.8406 11.8001 0.267017 -0.963692 0.000584377
-47.0821 10.595 12.7713 0.225971 -0.974132 0.00178143
-48.2843 10.3255 14.0219 0.218211 -0.975864 0.00852529
-49.1796 10.1296 14.9493 0.210099 -0.977678 -0.00227914
-50.1027 9.93772 15.9031 0.192639 -0.981249 -0.0063578
-51.116 9.74503 16.9381 0.169762 -0.985451 -0.00819218
-52.0264 9.59784 17.852 0.162016 -0.986784 0.00281172
-53.295 9.40256 17.7914 0.146574 -0.989198 -0.00184211
-52.3779 9.5368 16.8688 0.161055 -0.986939 0.00369361
-51.3233 9.71215 15.8086 0.16741 -0.985887 0.000975349
-50.4451 9.87127 14.9082 0.1899 -0.981794 0.00439941
-49.316 10.1025 13.7358 0.210355 -0.977624 -0.00153614
-48.4196 10.2888 12.8015 0.208164 -0.978094 -0.000528181
-47.3691 10.5308 11.6983 0.231765 -0.97276 -0.00481903
-46.4772 10.7572 10.7496 0.244014 -0.96968 -0.0133313
-45.4537 11.0598 9.6348 0.270863 -0.962614 -0.00271204
-44.5958 11.3247 8.6834 0.30277 -0.953025 -0.00858037
-43.6092 11.6499 7.57713 0.311696 -0.950167 -0.00523513
-42.7476 11.9748 6.59183 0.36768 -0.929901 -0.00979303
-41.8177 12.3517 5.50282 0.382215 -0.924049 -0.0066748
-41.039 12.686 4.56751 0.391101 -0.920345 -0.00219328
-40.2589 13.0392 3.61121 0.41201 -0.911175 0.00260735
-39.4853 13.4159 2.64233 0.435446 -0.900204 -0.00449633
-38.6167 13.9078 1.50688 0.50388 -0.863625 -0.0160137
-37.8227 14.3995 0.424533 0.511151 -0.859224 0.0214146
-37.1041 14.8461 -0.570321 0.561684 -0.82694 0.0261027
-36.3886 15.3289 -1.59995 0.588532 -0.808286 0.0174441
-35.6152 15.8617 -2.74529 0.610143 -0.792203 0.011819
-34.8255 16.4909 -3.99534 0.627887 -0.77827 0.00738414
-34.1487 17.024 -5.05353 0.660294 -0.750725 0.0205722
-33.4573 17.5858 -6.17234 0.66938 -0.741505 0.0458418
-32.7514 18.1794 -7.37504 0.683153 -0.730123 0.0149356
-32.721 18.2073 -7.43174 0.686925 -0.726623 0.012329
-33.015 17.9053 -8.31643 0.687541 -0.725682 0.0259265
-33.6863 17.3292 -7.17699 0.666354 -0.74511 0.0279861
-34.4795 16.7087 -5.90386 0.634035 -0.772687 0.0308952
-35.1594 16.2059 -4.86981 0.620209 -0.784328 0.0130664
-35.9552 15.6018 -3.65354 0.596858 -0.802192 -0.0157802
-36.7278 15.0671 -2.51504 0.577137 -0.81594 0.0339651
-37.4182 14.6183 -1.52997 0.541447 -0.840139 0.0316541
-38.2081 14.1547 -0.458 0.507731 -0.861429 0.0122083
-38.9242 13.7481 0.496673 0.455843 -0.889994 0.0108392
-39.8223 13.2558 1.65782 0.453523 -0.891176 -0.0110335
-40.7145 12.8231 2.7703 0.418959 -0.907854 0.0165711
-41.4998 12.49 3.72116 0.38167 -0.924078 0.0201906
-42.4229 12.1129 4.81841 0.368891 -0.929469 0.00268999
-43.3467 11.7626 5.88771 0.338183 -0.941042 -0.0085209
-44.3023 11.4258 6.97201 0.297797 -0.954547 -0.0125554
-45.2973 11.1104 8.08167 0.285404 -0.958316 -0.0132271
-46.231 10.8474 9.10622 0.262006 -0.965049 -0.00572681
-47.0564 10.6253 10.0043 0.247052 -0.968774 -0.0210273
-48.0663 10.3739 11.0764 0.21501 -0.976573 -0.00870511
-49.0362 10.1606 12.0886 0.19677 -0.980432 -0.00593202
-50.2047 9.92778 13.3017 0.184235 -0.982854 -0.00750877
-51.1611 9.74711 14.2924 0.165743 -0.98614 -0.0075113
-52.0775 9.58729 15.2294 0.164526 -0.986354 -0.00609042
-53.1226 9.42328 16.2889 0.140486 -0.990032 -0.0100409
-54.1428 9.28304 17.3152 0.135081 -0.990824 -0.00464752
-54.8671 9.1863 18.0454 0.1146 -0.993407 -0.00313758
-55.9221 9.06753 17.7795 0.098435 -0.995143 -0.0013405
-54.9357 9.18525 16.7873 0.121227 -0.992579 -0.00952498
-53.8646 9.32473 15.7068 0.130342 -0.991444 -0.00700578
-52.7883 9.48278 14.6104 0.150161 -0.988618 -0.00924536
-51.8626 9.63238 13.6613 0.167052 -0.985937 -0.00474844
-50.7385 9.83439 12.4957 0.1731 -0.984903 -0.00182404
-49.864 9.99764 11.5972 0.187242 -0.982313 -0.00157904
-48.791 10.2217 10.4822 0.211425 -0.97737 -0.00681491
-47.9399 10.4242 9.57808 0.223399 -0.974681 -0.00951281
-46.9565 10.6676 8.51262 0.229505 -0.973293 -0.0052375
-46.0223 10.9093 7.49632 0.251509 -0.967805 -0.00984484
-45.1409 11.1701 6.52387 0.291394 -0.956561 -0.00900618
-44.3 11.4457 5.58053 0.303643 -0.952778 -0.00381935
-43.3457 11.7695 4.49794 0.331413 -0.943469 -0.00562117
-42.5112 12.0804 3.52511 0.340913 -0.940092 0.00219613
-41.7051 12.3879 2.56916 0.374956 -0.926995 0.00935821
-40.7157 12.8167 1.37214 0.427687 -0.903841 -0.0124711
-39.9363 13.217 0.386526 0.464953 -0.88533 -0.00314327
-39.119 13.6192 -0.646445 0.475612 -0.87948 0.0175618
-38.3426 14.0522 -1.6773 0.506777 -0.861815 0.0212659
-37.4558 14.5643 -2.88436 0.519394 -0.854501 0.00753611
-36.7908 15.0055 -3.83874 0.583615 -0.81203 0.00110487
-35.9039 15.6329 -5.14548 0.597287 -0.80183 0.0178171
-35.2012 16.1289 -6.18436 0.599866 -0.799674 0.0261196
-34.4877 16.6586 -7.29308 0.629165 -0.776983 0.021189
-33.8489 17.1535 -8.31424 0.638583 -0.769212 0.0229214
-33.1167 17.7789 -9.5253 0.686097 -0.727444 0.00980145
-33.0473 17.8399 -11.0349 0.677819 -0.735067 0.0154335
-33.7509 17.2159 -9.87944 0.645409 -0.763744 -0.0119473
-34.4659 16.6262 -8.72479 0.613442 -0.789113 0.0314781
-35.1489 16.1144 -7.65976 0.614082 -0.788873 0.02416
-35.8335 15.646 -6.6366 0.567884 -0.822806 0.0223045
-36.6392 15.1137 -5.47741 0.553773 -0.832639 0.00690349
-37.3298 14.6544 -4.48327 0.542148 -0.840283 0.000891285
-38.1178 14.1566 -3.38094 0.499248 -0.866459 4.23723e-05
-38.8944 13.729 -2.3485 0.482386 -0.875866 0.0127766
-39.6354 13.3384 -1.38089 0.462719 -0.886413 0.0127687
-40.4383 12.9726 -0.386393 0.435017 -0.900416 -0.00329693
-41.1808 12.6061 0.540666 0.428371 -0.903574 -0.00726189
-42.0136 12.2565 1.53916 0.359529 -0.933134 0.000280452
-42.8094 11.9688 2.46653 0.339988 -0.940424 0.00332273
-43.6047 11.6825 3.39582 0.341837 -0.939759 0.00106711
-44.5579 11.3667 4.48797 0.298833 -0.954082 -0.0206656
-45.4969 11.0826 5.53714 0.277134 -0.960714 -0.0149979
-46.3414 10.839 6.46702 0.259029 -0.965743 -0.0156619
-47.1806 10.6115 7.37575 0.227395 -0.973802 0.00135537
-48.0436 10.4118 8.30541 0.221338 -0.975195 0.00222164
-48.9357 10.2043 9.27014 0.213685 -0.976827 -0.0121899
-49.9431 9.98577 10.3321 0.190067 -0.981771 -0.000204447
-50.9767 9.78998 11.4033 0.177139 -0.984184 -0.00170494
-51.8494 9.64071 12.3024 0.158232 -0.987395 -0.00379225
-52.8681 9.48194 13.3494 0.150501 -0.988604 -0.00327902
-53.779 9.34468 14.2841 0.132419 -0.991155 -0.00874526
-54.665 9.22352 15.184 0.128115 -0.991705 -0.0103781
-55.7288 9.09237 16.2594 0.11032 -0.993896 0.000518355
-56.6718 8.99279 17.207 0.0943527 -0.995537 -0.00167019
-57.3426 8.92844 17.8787 0.0932943 -0.995622 -0.00579143
-58.5866 8.81681 17.8009 0.0749488 -0.99717 -0.00586271
-57.6496 8.90577 16.8628 0.0916836 -0.995775 -0.00503201
-56.6816 8.99888 15.892 0.0942446 -0.995527 -0.00662918
-55.6833 9.10558 14.887 0.10112 -0.994778 -0.0138259
-54.7262 9.22736 13.9117 0.121778 -0.992471 -0.0131032
-53.6219 9.37831 12.781 0.136292 -0.990661 -0.00396572
-52.7538 9.50131 11.8916 0.151199 -0.988485 -0.0060826
-51.8307 9.64848 10.943 0.152926 -0.988222 -0.0055041
-50.9151 9.80688 9.99308 0.171013 -0.985267 -0.00197695
-49.7681 10.0346 8.78505 0.179034 -0.983764 -0.0124632
-48.7927 10.2451 7.73422 0.216505 -0.976281 0.00125253
-47.8744 10.4489 6.75356 0.226218 -0.974077 0.000143219
-46.9683 10.6789 5.77531 0.251752 -0.967788 -0.00289955
-46.048 10.9343 4.76199 0.264718 -0.964326 -4.73369e-05
-45.1943 11.1782 3.81275 0.277732 -0.960644 0.00529666
-44.3407 11.4368 2.84121 0.317368 -0.94828 -0.00659735
-43.3841 11.7576 1.74434 0.311087 -0.950381 9.22293e-05
-42.4102 12.1003 0.617282 0.350684 -0.93643 0.0109522
-41.6188 12.4222 -0.325197 0.391359 -0.920238 0.000860589
-40.8264 12.7779 -1.28798 0.430535 -0.902485 0.0127006
-40.0033 13.1447 -2.31248 0.45435 -0.89081 0.00485703
-39.0935 13.6259 -3.49781 0.473407 -0.880787 -0.0100001
-38.2882 14.0835 -4.57587 0.490583 -0.871047 -0.0246306
-37.5266 14.5267 -5.61467 0.525655 -0.850697 0.00100861
-36.7433 15.0332 -6.737 0.543928 -0.839045 0.0120951
-35.9661 15.5102 -7.84151 0.551359 -0.834248 0.00588834
-35.3193 15.9618 -8.81035 0.590791 -0.806805 -0.00570622
-34.6346 16.486 -9.87369 0.624956 -0.780624 -0.00755706
-34.0196 16.9837 -10.844 0.641013 -0.76751 0.00561794
-33.2433 17.6584 -12.1276 0.673486 -0.73908 -0.0132802
-33.0087 17.8865 -12.5311 0.676955 -0.735689 -0.0222273
-32.1252 19.0286 -15.949 0.776801 -0.627961 -0.0473947
-32.6062 18.3827 -14.8367 0.730729 -0.681238 -0.0441638
-33.1521 17.7875 -13.7713 0.681734 -0.731287 -0.0213966
-33.7022 17.2539 -12.7968 0.666902 -0.745088 -0.00921071
-34.4185 16.6329 -11.6079 0.640696 -0.767445 0.0231807
-35.0574 16.1501 -10.6232 0.592327 -0.805599 -0.0126195
-35.8247 15.5949 -9.46594 0.571796 -0.820329 0.0104977
-36.6758 15.0462 -8.23502 0.540857 -0.840818 0.0223298
-37.4009 14.5994 -7.20328 0.544488 -0.838661 0.0134534
-38.3668 14.0386 -5.87988 0.499482 -0.866304 0.00582971
-39.2533 13.5595 -4.70541 0.472204 -0.881489 -0.000551434
-40.0254 13.1346 -3.68744 0.443486 -0.896141 -0.0158854
-40.8876 12.7449 -2.60777 0.398269 -0.917267 -0.0018411
-41.7743 12.3623 -1.52376 0.383048 -0.923556 -0.0178202
-42.5775 12.0469 -0.572271 0.338148 -0.940993 -0.0137012
-43.4991 11.7153 0.493686 0.31391 -0.949443 0.00438128
-44.3633 11.4376 1.48244 0.303993 -0.952655 0.00598695
-45.2323 11.166 2.46337 0.284469 -0.958678 -0.00374895
-46.0468 10.9336 3.37345 0.249607 -0.968326 -0.00631848
-46.9066 10.7092 4.32204 0.23915 -0.970856 -0.0156968
-47.7648 10.4903 5.26721 0.229534 -0.973223 -0.0122744
-48.6606 10.2683 6.23097 0.216969 -0.976056 -0.0154415
-49.6519 10.0692 7.27972 0.191641 -0.981455 -0.00436039
-50.6601 9.87368 8.35748 0.178188 -0.983996 -0.00134571
-51.8702 9.65487 9.6304 0.154956 -0.987816 -0.0144101
-52.7829 9.5067 10.575 0.145767 -0.989254 -0.0113027
-53.8911 9.34533 11.7125 0.130005 -0.991502 -0.00482521
-54.8157 9.22891 12.6576 0.116784 -0.993109 -0.00980663
-55.7329 9.11678 13.5947 0.102943 -0.994602 -0.0130046
-56.8957 8.98595 14.7766 0.0965325 -0.995267 -0.011227
-57.9196 8.886 15.8085 0.09 -0.995933 -0.00418461
-58.8387 8.80201 16.7332 0.0804935 -0.996728 -0.00734777
-59.7703 8.73183 17.6685 0.066705 -0.997752 -0.00636822
-60.0229 8.71332 17.9221 0.0663304 -0.997771 -0.00726288
-60.741 8.6725 17.3258 0.0554197 -0.99838 -0.0128725
-59.8078 8.73878 16.384 0.0675386 -0.997683 -0.00818059
-58.7246 8.82423 15.2884 0.0736714 -0.997269 -0.00512507
-57.8277 8.90561 14.3814 0.0818987 -0.996551 -0.01337
-56.9274 8.99902 13.4681 0.0925031 -0.995669 -0.00925173
-55.9112 9.10945 12.4286 0.104306 -0.994509 -0.00852881
-54.8307 9.23587 11.322 0.112147 -0.99369 -0.00183683
-53.9387 9.34745 10.4116 0.133468 -0.991031 -0.00669096
-52.842 9.51227 9.28326 0.144357 -0.989456 -0.011735
-51.7472 9.69237 8.13871 0.154484 -0.987968 -0.00729397
-50.6378 9.8854 6.95857 0.17139 -0.985159 -0.00931621
-49.7377 10.0575 6.00996 0.18879 -0.982011 -0.0035141
-48.8743 10.2448 5.09349 0.20821 -0.977884 -0.0197897
-47.9671 10.4536 4.09747 0.217954 -0.975872 -0.0130281
-47.0238 10.6839 3.07319 0.243518 -0.969892 0.00293278
-46.0178 10.9497 1.96233 0.253767 -0.967235 -0.0075994
-45.0857 11.2095 0.92401 0.274387 -0.961619 0.000688317
-44.2582 11.4726 -0.0164339 0.305791 -0.952064 -0.00817662
-43.4316 11.746 -0.962707 0.330503 -0.943793 -0.00473862
-42.5818 12.0637 -1.95786 0.346533 -0.937859 -0.018304
-41.6716 12.4279 -3.05609 0.364506 -0.931197 -0.00277036
-40.8257 12.7726 -4.08992 0.399186 -0.916866 -0.0026323
-39.9759 13.1659 -5.16018 0.465221 -0.885137 0.010047
-39.1062 13.6191 -6.29711 0.483349 -0.875238 0.0182125
-38.1152 14.1612 -7.61897 0.50866 -0.860861 0.0135375
-37.3493 14.6026 -8.67303 0.525139 -0.850909 0.0135189
-36.6175 15.0535 -9.71447 0.554827 -0.831913 0.00932545
-35.8982 15.5431 -10.7754 0.580558 -0.814097 -0.0140974
-35.1417 16.0794 -11.9092 0.600106 -0.79988 0.0080881
-34.3088 16.7387 -13.235 0.64844 -0.761079 -0.0168652
-33.6719 17.3235 -14.3446 0.670935 -0.741048 -0.0263612
-33.112 17.8863 -15.3966 0.707268 -0.706763 -0.0160667
-32.6459 18.4207 -16.3669 0.736927 -0.675329 -0.0294881
-33.0148 18.0546 -17.199 0.704739 -0.70599 -0.0701521
-33.514 17.5338 -16.1859 0.678706 -0.734001 -0.0245232
-34.2003 16.8734 -14.9227 0.651665 -0.757806 -0.0326135
-34.777 16.3569 -13.9209 0.626699 -0.779008 -0.0198629
-35.5932 15.733 -12.6327 0.587239 -0.809145 0.0208644
-36.2662 15.2951 -11.6496 0.574026 -0.818641 0.0179505
-37.0219 14.7851 -10.5423 0.549981 -0.835173 -0.00258565
-37.7604 14.325 -9.50021 0.529094 -0.847509 0.0422971
-38.542 13.9115 -8.45302 0.476135 -0.87937 0.0018719
-39.3764 13.4762 -7.34923 0.455139 -0.890397 0.00652953
-40.1615 13.0862 -6.33392 0.425706 -0.904846 0.00528124
-40.9197 12.7356 -5.37753 0.397747 -0.917379 -0.0145808
-42.038 12.2869 -4.02267 0.370864 -0.928525 0.0173809
-42.8696 11.9743 -3.02058 0.343298 -0.939186 -0.0086992
-43.7059 11.6664 -2.03277 0.322835 -0.946275 -0.0184603
-44.6294 11.3586 -0.971236 0.298306 -0.95447 -0.00106468
-45.5988 11.0676 0.121674 0.273672 -0.961759 -0.0111164
-46.5569 10.8126 1.18453 0.254942 -0.966946 -0.00452777
-47.5364 10.56 2.26886 0.228271 -0.973475 -0.0154648
-48.4379 10.3537 3.24037 0.202374 -0.979261 0.00959555
-49.3958 10.1474 4.28185 0.204163 -0.978917 -0.00628547
-50.3561 9.94356 5.30541 0.178267 -0.983916 -0.0114422
-51.2128 9.79615 6.20192 0.158824 -0.987285 -0.00654932
-52.3322 9.60665 7.38382 0.153979 -0.988043 -0.00785607
-53.2975 9.45547 8.40424 0.137611 -0.990425 -0.0109983
-54.1742 9.32487 9.31249 0.133879 -0.990949 -0.00980518
-55.2099 9.19647 10.3761 0.102986 -0.994649 -0.00816723
-56.1548 9.09607 11.3371 0.10003 -0.994959 -0.00710379
-57.0481 9.00015 12.2496 0.0921263 -0.99568 -0.011538
-57.9756 8.91005 13.1961 0.0819275 -0.996572 -0.0115101
-59.0282 8.81096 14.2639 0.0780349 -0.996847 -0.0143902
-59.9772 8.74018 15.2252 0.0594033 -0.998211 -0.00682066
-60.6471 8.69425 15.9026 0.0575308 -0.998271 -0.0120104
-60.7345 8.69955 14.6626 0.0585708 -0.998264 -0.00625975
-59.8136 8.7631 13.7291 0.0656987 -0.997796 -0.00932494
-58.6653 8.8596 12.5614 0.0787338 -0.996863 -0.00806035
-57.698 8.94823 11.5761 0.0892187 -0.995941 -0.0118735
-56.7784 9.0422 10.6427 0.0924032 -0.995681 -0.00900491
-55.8256 9.14137 9.66621 0.095769 -0.995356 -0.00972168
-54.9339 9.24421 8.74601 0.116653 -0.993135 -0.00860108
-54.011 9.36501 7.78496 0.128417 -0.991639 -0.0127067
-53.0484 9.49993 6.76936 0.142632 -0.989758 -0.00587166
-52.1472 9.6494 5.82793 0.150629 -0.988569 -0.00654744
-51.1831 9.80688 4.81731 0.162777 -0.986645 -0.00591014
-50.2769 9.97569 3.85449 0.190793 -0.981627 -0.00245685
-49.2907 10.1771 2.79418 0.198391 -0.980121 0.00204938
-48.3288 10.3812 1.76448 0.216621 -0.976102 -0.0173033
-47.4015 10.6128 0.738463 0.22934 -0.973281 -0.0112699
-46.4899 10.8422 -0.269879 0.235649 -0.971747 -0.0133408
-45.3286 11.1599 -1.56485 0.279014 -0.960236 -0.00984983
-44.3789 11.4523 -2.64913 0.298644 -0.95424 -0.0154505
-43.2131 11.8447 -4.01722 0.35213 -0.935692 0.0220327
-42.291 12.1684 -5.10959 0.35099 -0.936335 0.00904666
-41.416 12.5322 -6.16382 0.400804 -0.916023 -0.0160664
-40.4489 12.9588 -7.37546 0.397982 -0.917339 0.00994874
-39.7117 13.3039 -8.3215 0.436473 -0.899705 -0.00461498
-38.942 13.6881 -9.32759 0.46297 -0.88637 0.00277745
-38.1873 14.0824 -10.3278 0.494943 -0.868805 -0.0144726
-37.4446 14.5334 -11.3563 0.524488 -0.85131 -0.0135411
-36.6549 15.0265 -12.4918 0.541281 -0.840674 0.0167784
-35.9641 15.4579 -13.4928 0.579626 -0.814879 0.00237755
-35.1775 16.0612 -14.7365 0.624211 -0.780831 -0.0257431
-34.3687 16.7737 -16.1457 0.646102 -0.762753 -0.0275697
-33.6844 17.4416 -17.4403 0.68034 -0.731642 -0.0428741
-33.6071 17.5226 -17.5975 0.680175 -0.731833 -0.0422124
-34.272 16.921 -17.848 0.667073 -0.744991 -0.00108065
-34.8394 16.4075 -16.8163 0.625609 -0.779501 -0.0314696
-35.5859 15.7768 -15.5493 0.612048 -0.789619 -0.0435741
-36.2458 15.279 -14.5097 0.563845 -0.825214 -0.0331646
-36.9778 14.8119 -13.4379 0.524456 -0.851422 0.00520192
-37.7201 14.3585 -12.3769 0.51512 -0.856924 0.0182393
-38.5852 13.8702 -11.2003 0.473803 -0.880621 -0.0042528
-39.3268 13.4978 -10.2361 0.443604 -0.896215 -0.00377971
-40.206 13.0683 -9.08671 0.436367 -0.899752 -0.00542126
-41.2213 12.6191 -7.80478 0.397984 -0.917338 0.00994964
-42.081 12.2781 -6.75376 0.365644 -0.930752 0.0023269
-42.8826 11.9564 -5.79488 0.326685 -0.944904 -0.0208226
-43.7935 11.6307 -4.72609 0.321429 -0.946912 0.00637417
-44.7928 11.3305 -3.57359 0.30277 -0.953063 0.00140087
-45.6259 11.0839 -2.6185 0.26019 -0.96553 -0.00724467
-46.6353 10.8105 -1.49039 0.244067 -0.969755 -0.00240273
-47.5559 10.5909 -0.477468 0.217708 -0.975992 -0.0065476
-48.6974 10.3235 0.782107 0.207188 -0.978269 -0.00791192
-49.5642 10.1292 1.72609 0.196698 -0.980371 -0.0134835
-50.4044 9.95653 2.62469 0.189287 -0.981897 -0.00693867
-51.2559 9.79885 3.53038 0.168186 -0.985574 -0.0189025
-52.1471 9.65164 4.47333 0.148634 -0.988892 -0.000833642
-53.199 9.48918 5.57765 0.139185 -0.990221 -0.00949157
-54.09 9.36855 6.50767 0.121338 -0.992569 -0.00919359
-54.9954 9.25106 7.45341 0.119077 -0.992783 -0.0142294
-55.9716 9.14033 8.46594 0.096036 -0.995308 -0.0117894
-57.0188 9.02951 9.54298 0.0922543 -0.995699 -0.00849772
-57.8927 8.9418 10.4386 0.0839005 -0.996416 -0.0107209
-58.9831 8.84347 11.5504 0.0775683 -0.996942 -0.00946402
-60.0446 8.76037 12.6297 0.0630612 -0.997941 -0.011693
-60.7799 8.70591 13.3776 0.0543617 -0.99845 -0.0119696
-60.7908 8.72047 12.0576 0.0565165 -0.998368 -0.00825919
-59.814 8.79014 11.0655 0.065993 -0.997783 -0.00856202
-58.7542 8.87925 9.98399 0.0773401 -0.996949 -0.0105559
-57.761 8.96701 8.95913 0.0844734 -0.996385 -0.0090328
-56.8519 9.06147 8.02507 0.0949088 -0.995407 -0.0125171
-55.7251 9.18423 6.85607 0.0989244 -0.995022 -0.0120501
-54.79 9.29492 5.88017 0.111763 -0.993708 -0.00733661
-53.92 9.40245 4.97099 0.1258 -0.992029 -0.00729359
-52.7965 9.55614 3.79544 0.135354 -0.990756 -0.00906905
-51.782 9.72098 2.72897 0.15047 -0.988587 -0.00742221
-50.7054 9.90996 1.58474 0.174875 -0.984573 -0.00584023
-49.8619 10.085 0.671702 0.191679 -0.981384 -0.0120349
-49.0178 10.2641 -0.255281 0.200336 -0.979669 -0.0106433
-48.1741 10.4512 -1.18081 0.217551 -0.976045 0.0026475
-47.2593 10.664 -2.18469 0.235651 -0.971833 0.00315055
-46.3488 10.8887 -3.19186 0.262984 -0.9648 0.000905809
-45.5104 11.1238 -4.14891 0.269195 -0.963056 -0.00753643
-44.4352 11.4301 -5.36717 0.274234 -0.961662 -0.000981633
-43.5497 11.7332 -6.39543 0.323034 -0.946384 -0.00253555
-42.664 12.0565 -7.44816 0.345423 -0.938435 -0.00479444
-41.69 12.432 -8.62858 0.373098 -0.92779 -0.00172287
-40.746 12.8325 -9.80859 0.407351 -0.913264 -0.00378014
-39.9831 13.1813 -10.7864 0.434807 -0.900513 0.00423674
-39.2282 13.5479 -11.7596 0.442867 -0.896582 0.00305067
-38.3442 14.0008 -12.9375 0.477018 -0.87889 -0.00246714
-37.5858 14.4466 -13.9916 0.501496 -0.864944 -0.019335
-36.8149 14.9327 -15.107 0.513936 -0.857727 -0.0132192
-36.0413 15.4848 -16.304 0.561897 -0.827206 -0.00125853
-35.3978 15.9725 -17.3505 0.6199 -0.784677 0.00263372
-35.1626 16.1542 -17.7489 0.61835 -0.785876 0.00653615
-35.964 15.5481 -17.8937 0.603374 -0.79696 -0.0281972
-36.6477 15.0588 -16.8165 0.559537 -0.828384 0.0264267
-37.3601 14.6074 -15.7492 0.514321 -0.857595 -0.00233173
-38.0761 14.1809 -14.7262 0.488805 -0.872024 -0.0253654
-38.962 13.6795 -13.5167 0.449104 -0.893383 -0.0131324
-39.8738 13.2309 -12.3182 0.425614 -0.904874 -0.00752965
-40.728 12.835 -11.2288 0.389318 -0.92106 -0.00890431
-41.7411 12.4245 -9.97231 0.355156 -0.934803 -0.00282027
-42.5179 12.1181 -9.01841 0.356273 -0.934309 -0.0116803
-43.2953 11.8284 -8.08447 0.316918 -0.948408 -0.00918571
-44.3145 11.4904 -6.89058 0.306592 -0.951819 -0.00647657
-45.3313 11.1789 -5.73321 0.267515 -0.96355 -0.0027958
-46.1403 10.9502 -4.81691 0.260733 -0.965383 -0.00738569
-46.9962 10.7256 -3.85421 0.237981 -0.971185 -0.0128412
-47.9261 10.4989 -2.82839 0.219838 -0.97552 0.00563038
-48.7825 10.3135 -1.88986 0.217691 -0.976004 0.00510969
-49.6714 10.1308 -0.921567 0.198977 -0.979973 0.00781568
-50.8303 9.90454 0.338371 0.175726 -0.984278 -0.0177961
-51.6684 9.75172 1.24731 0.159339 -0.987188 -0.00840444
-52.6908 9.58857 2.32816 0.13669 -0.99058 -0.00814415
-53.7624 9.4292 3.45123 0.134622 -0.99082 -0.0123508
-54.7752 9.30039 4.5013 0.100148 -0.994972 -0.00111181
-55.6909 9.20154 5.46165 0.100316 -0.994928 -0.00738344
-57.0201 9.06012 6.84544 0.0873495 -0.996055 -0.0156514
-57.9092 8.97304 7.76758 0.0772619 -0.996908 -0.0143262
-58.842 8.88888 8.72945 0.0715249 -0.997312 -0.0159029
-59.9201 8.79942 9.84581 0.0646512 -0.997719 -0.0194142
-60.8815 8.72852 10.8208 0.050445 -0.998657 -0.0117759
-60.8891 8.7491 9.50091 0.0563928 -0.998293 -0.0152197
-59.9624 8.81787 8.54146 0.0585651 -0.998146 -0.0165771
-59.0828 8.88706 7.62947 0.0741811 -0.997208 -0.00850842
-58.2105 8.96136 6.72487 0.076033 -0.997053 -0.0101711
-57.1808 9.05738 5.65664 0.087415 -0.99616 -0.00492994
-56.1746 9.16004 4.60835 0.093299 -0.995617 -0.0064875
-55.301 9.2481 3.70345 0.0986682 -0.995108 -0.00498823
-54.4101 9.35846 2.77701 0.122635 -0.992326 -0.0157978
-53.4619 9.48932 1.7812 0.126315 -0.991946 -0.0093657
-52.282 9.66144 0.526086 0.139043 -0.990234 -0.010155
-51.3978 9.80581 -0.425616 0.1772 -0.984121 0.0103106
-50.3235 10.0035 -1.58288 0.18716 -0.982308 -0.00654802
-49.1877 10.2257 -2.81895 0.196692 -0.98045 -0.00540864
-48.2695 10.4313 -3.82079 0.214039 -0.976737 -0.0131216
-47.4457 10.6219 -4.72952 0.214085 -0.976756 -0.0107457
-46.3688 10.8989 -5.94274 0.252646 -0.967553 -0.00319394
-45.4133 11.1622 -7.01491 0.281032 -0.959698 -0.000297211
-44.4557 11.453 -8.11048 0.280522 -0.959783 -0.0111145
-43.4861 11.774 -9.2374 0.317112 -0.948369 -0.00605616
-42.6228 12.0965 -10.2948 0.340647 -0.940153 -0.00844643
-41.828 12.3976 -11.2714 0.35168 -0.936079 -0.00880959
-40.9187 12.7653 -12.3932 0.374357 -0.927192 -0.0130933
-40.0156 13.176 -13.5386 0.413037 -0.910689 -0.00677609
-39.1932 13.5744 -14.6175 0.462999 -0.886305 -0.00976195
-38.4699 13.9753 -15.5986 0.48107 -0.876528 -0.0164465
-37.6144 14.458 -16.8047 0.502315 -0.86448 0.0188255
-37 14.846 -17.7357 0.527038 -0.849757 -0.0120184
-37.8188 14.3493 -17.9492 0.520778 -0.853566 -0.0146714
-38.5222 13.9483 -16.9431 0.467798 -0.883821 0.00499634
-39.4038 13.4794 -15.7421 0.473701 -0.880636 -0.00935314
-40.1797 13.1015 -14.7268 0.413394 -0.910514 -0.0083262
-40.9994 12.7392 -13.6816 0.376461 -0.926432 -0.000823641
-41.7877 12.4295 -12.7218 0.352548 -0.935697 -0.0134532
-42.6062 12.1158 -11.7222 0.343096 -0.939278 -0.00646038
-43.5003 11.7882 -10.6253 0.311456 -0.95006 -0.0195137
-44.2857 11.5244 -9.68195 0.291229 -0.956589 -0.0110857
-45.3915 11.1862 -8.40749 0.272628 -0.962 -0.015189
-46.2864 10.9133 -7.39829 0.25218 -0.967646 -0.00814299
-47.2677 10.6761 -6.31253 0.23116 -0.97289 -0.00701377
-48.3909 10.4184 -5.06027 0.214743 -0.976658 -0.00503416
-49.3569 10.2035 -3.99612 0.19099 -0.981441 -0.0172086
-50.2801 10.0189 -2.99737 0.173866 -0.984747 -0.00655136
-51.1175 9.86616 -2.08823 0.171935 -0.985044 -0.0112066
