4.94547 5.86582 9.62688 0.229616 0.973246 -0.00813855
3.53605 6.06999 8.98217 0.118362 0.992366 -0.00575317
2.44284 6.12866 8.22231 0.0398221 0.998101 -0.0469958
1.61351 6.08421 7.42866 -0.0370474 0.998573 -0.0384694
0.775628 5.98578 6.39778 -0.111797 0.992394 -0.0515293
0.0222834 5.84553 5.38579 -0.136917 0.990448 -0.0163323
-0.476487 5.75822 3.92688 -0.181378 0.983367 -0.00950924
-0.512627 5.7521 2.58429 -0.164602 0.986278 0.0123356
-1.44461 5.56598 3.06629 -0.252368 0.967627 0.00292286
-2.35668 5.32577 4.22648 -0.272138 0.962023 0.00108847
-3.25009 5.07478 5.18794 -0.300569 0.95294 -0.0395545
-4.18982 4.75506 5.85714 -0.343094 0.939207 -0.0119381
-5.03843 4.43333 6.47835 -0.362725 0.931839 -0.0103225
-5.99754 4.05523 6.98149 -0.380199 0.924873 -0.00765242
-6.9798 3.63477 7.28746 -0.407717 0.913096 -0.00470855
-8.00345 3.17074 7.52554 -0.418944 0.908012 0.00017169
-9.06252 2.67376 7.54562 -0.43003 0.90281 0.00248771
-10.0761 2.18833 7.42529 -0.438926 0.898512 0.00440113
-11.0688 1.69594 7.17805 -0.452432 0.891774 0.00670155
-11.8437 1.29755 7.548 -0.455585 0.890146 0.00905719
-11.87 1.27328 8.65882 -0.456753 0.889559 0.00769283
-11.804 1.29983 9.7818 -0.461276 0.887241 0.00510832
-11.6589 1.36927 11.1167 -0.460348 0.887719 0.00376419
-11.6087 1.3897 12.3855 -0.465457 0.885068 0.00210838
-11.5791 1.40631 13.4867 -0.465929 0.884814 -0.00368396
-11.6648 1.36768 14.8899 -0.464628 0.885494 -0.00457734
-11.6916 1.35881 16.1359 -0.462603 0.886562 -0.00251891
-11.502 1.46128 17.3034 -0.462205 0.886768 -0.00299038
-10.6659 1.89756 17.8167 -0.460688 0.887552 -0.00429024
-9.69364 2.40071 18.0593 -0.450618 0.8927 -0.00550419
-8.52261 2.99362 18.1623 -0.452588 0.891691 -0.00697044
-7.43227 3.53722 18.1457 -0.435917 0.899869 -0.0144581
-6.43613 4.01543 18.0642 -0.416788 0.908799 -0.0189187
-5.23194 4.55725 18.0792 -0.39395 0.918824 -0.0237926
-3.80148 5.14444 18.1749 -0.37733 0.925828 -0.0191694
-2.37961 5.64146 18.1915 -0.288257 0.957383 -0.0180445
-1.1136 5.98677 18.1997 -0.203428 0.977735 -0.0514821
-0.0290999 6.14674 18.2566 -0.125992 0.991409 -0.0301999
1.61905 6.27641 18.2694 -0.0729071 0.996129 -0.0402826
2.87518 6.26286 18.3833 0.0785325 0.996789 0.0156399
4.19488 6.06 18.3788 0.179008 0.983563 0.0236654
5.42556 5.77691 18.3297 0.269937 0.962495 0.0271412
6.70451 5.37414 18.3398 0.332507 0.942906 -0.00696372
7.76671 4.97753 18.3479 0.383859 0.92337 0.00632397
8.78325 4.54779 18.3261 0.393681 0.919183 0.0108205
9.78582 4.09235 18.2621 0.42734 0.904076 -0.00512174
10.9805 3.5024 18.0945 0.452709 0.891624 0.0066012
12.0811 2.93869 17.6229 0.464823 0.885347 0.0100559
12.976 2.46633 17.1025 0.476404 0.879227 0.000378121
13.8384 1.99809 16.4147 0.487363 0.873168 0.00733662
14.4641 1.65341 15.3676 0.494369 0.86924 0.00447967
14.8511 1.44181 14.163 0.493792 0.86955 0.00719654
14.9412 1.40099 12.942 0.495221 0.868737 0.00729061
14.8511 1.46094 11.7851 0.494637 0.86908 0.00580287
14.6464 1.58317 10.508 0.490995 0.871162 0.0012459
14.3385 1.75159 9.15178 0.486091 0.873893 -0.00512038
14.2194 1.81693 7.94648 0.48754 0.8731 0.00118649
14.0761 1.89436 6.73861 0.480846 0.876765 -0.00836869
14.0405 1.90055 5.13713 0.478556 0.878039 -0.00452834
14.0831 1.87146 3.89891 0.488157 0.872739 -0.00540648
14.1882 1.80301 2.80925 0.492219 0.870421 -0.00938164
14.2781 1.73095 1.44609 0.486159 0.873742 -0.0149925
14.1034 1.80349 0.236256 0.488215 0.872544 -0.0171823
13.6562 2.02897 -0.866006 0.482752 0.875476 -0.0219063
12.9078 2.40945 -2.21897 0.469489 0.88282 -0.0138954
12.2349 2.74563 -3.61094 0.469752 0.882611 -0.0182104
11.8076 2.94204 -4.69435 0.452846 0.891256 -0.0243469
11.5024 3.07666 -5.74929 0.442687 0.896409 -0.0156906
11.1129 3.23129 -6.90004 0.439557 0.897719 -0.0297249
10.7312 3.38186 -8.04587 0.442803 0.896164 -0.0284743
10.5923 3.41692 -9.18217 0.444024 0.895626 -0.0264045
10.416 3.45513 -10.2791 0.429336 0.902373 -0.0372845
10.4888 3.38481 -11.3733 0.436594 0.899113 -0.0313257
10.7362 3.21882 -12.6238 0.444191 0.895402 -0.0308103
10.9646 3.06823 -13.7145 0.441064 0.896856 -0.0333347
11.5155 2.74372 -15.0641 0.453383 0.890813 -0.0294897
12.2928 2.30827 -16.2098 0.465323 0.884656 -0.0293053
12.5009 2.16696 -17.1932 0.465003 0.88489 -0.0272389
11.4702 2.6941 -17.4995 0.459083 0.887811 -0.0321655
10.5104 3.16516 -17.7349 0.440639 0.897193 -0.0297121
9.53008 3.63129 -17.9535 0.423964 0.905241 -0.0281622
8.2649 4.21065 -18.1138 0.409195 0.912279 -0.00971359
7.15854 4.68325 -18.1679 0.356631 0.934017 -0.0126238
6.03793 5.09156 -18.2549 0.335509 0.941992 -0.0027586
4.97732 5.45451 -18.2909 0.301396 0.95326 -0.0192287
3.72636 5.80232 -18.2631 0.218514 0.975642 0.0193511
2.21889 6.08275 -18.2595 0.110255 0.993887 -0.00575721
0.668056 6.20862 -18.2581 0.0433806 0.999037 0.00661735
-0.436675 6.21599 -18.2192 -0.0579848 0.996881 0.0534484
-1.89264 6.08324 -18.199 -0.152583 0.986212 0.0640689
-3.10195 5.83571 -18.2345 -0.225999 0.973951 0.0185241
-4.22085 5.52766 -18.1971 -0.305332 0.951467 0.0286529
-5.47118 5.09755 -18.0087 -0.336899 0.941021 0.0136122
-6.66115 4.63195 -17.9633 -0.379896 0.924644 0.0211318
-7.64783 4.18662 -17.8194 -0.443237 0.89596 0.0282144
-8.91301 3.55497 -17.6513 -0.44378 0.895697 0.0280325
-9.94091 3.02182 -17.2569 -0.458791 0.88806 0.029341
-10.9691 2.46669 -16.612 -0.460229 0.887256 0.03109
-12.0177 1.89264 -15.8549 -0.469986 0.882069 0.0315012
-12.6714 1.51266 -14.9894 -0.47569 0.879246 0.0252811
-12.4624 1.57842 -13.4264 -0.474959 0.87965 0.02503
-12.1806 1.69723 -12.2074 -0.47155 0.881434 0.026693
-11.2573 2.1932 -12.455 -0.462846 0.886015 0.027388
-10.2149 2.72921 -12.6974 -0.445965 0.89477 0.0223992
-9.00388 3.33088 -12.9158 -0.43388 0.900605 0.0256554
-7.93376 3.8421 -12.9711 -0.427575 0.903335 0.0341378
-6.70301 4.39235 -12.9522 -0.395192 0.917254 0.0496733
-5.29134 4.9604 -12.7746 -0.350876 0.934508 0.0541932
-4.15452 5.32137 -12.3319 -0.31511 0.947244 0.058597
-3.19321 5.59272 -11.8115 -0.255133 0.966491 0.028334
-2.24028 5.77947 -11.2608 -0.180476 0.982694 0.0396487
-1.19401 5.93208 -10.4957 -0.157019 0.986439 0.0477718
-0.42407 5.9854 -9.52174 -0.0666745 0.997667 0.0146666
0.139284 6.02288 -8.3891 -0.0847239 0.996214 -0.0194787
0.477761 6.05693 -7.32422 -0.103677 0.994308 0.0225224
0.788117 6.03175 -6.23047 -0.0682589 0.996281 0.0525888
1.11478 5.99142 -4.68015 -0.0696522 0.997131 0.0269466
1.05829 5.95972 -3.39487 -0.0143467 0.999193 0.0326916
1.00499 5.93824 -2.18022 -0.0145538 0.999682 -0.000215226
1.99684 5.95608 -2.57364 0.00844552 0.999204 -0.0197822
3.01366 5.93693 -3.17375 0.0426976 0.996673 0.069426
4.38886 5.78256 -3.61255 0.155192 0.987695 0.0170048
5.97067 5.41814 -3.77696 0.279811 0.959284 -0.0289548
7.08488 5.06892 -3.71843 0.298357 0.954207 -0.0206795
8.15213 4.65955 -3.57467 0.372745 0.927867 -0.0111853
9.38137 4.1593 -3.15421 0.401656 0.91552 -0.018829
10.289 3.75031 -2.68632 0.443199 0.896395 -0.00712867
11.28 3.26476 -2.01111 0.454862 0.890526 -0.00797206
12.1667 2.82326 -1.04188 0.466567 0.884361 -0.0148652
12.6537 2.58581 -0.0586552 0.464439 0.885395 -0.0193006
13.0583 2.39216 1.13247 0.470441 0.882351 -0.0119052
13.2403 2.31429 2.46535 0.472897 0.88104 -0.0116682
13.2386 2.33201 3.6627 0.474538 0.880154 -0.0117689
13.0445 2.43832 5.06926 0.472222 0.881479 -0.000414798
12.6284 2.66655 6.15141 0.468007 0.883713 -0.00443575
11.951 3.02007 7.40786 0.4594 0.888229 -0.00119811
11.0825 3.46018 8.27825 0.448497 0.893767 -0.00556151
10.1138 3.94068 8.92519 0.439562 0.898167 -0.00897032
9.11741 4.41426 9.45691 0.417771 0.908475 -0.0118871
8.06398 4.86641 9.82803 0.375875 0.926535 -0.0154761
6.96326 5.289 9.9196 0.317834 0.948144 0.000812071
5.83087 5.65915 9.84646 0.249811 0.967978 0.00321792
5.318 5.7791 9.74319 0.229584 0.973241 -0.00968479
5.49841 5.72895 8.68117 0.21147 0.976898 -0.0204106
6.59979 5.40115 8.76711 0.310253 0.950359 -0.0199565
7.67462 5.01064 8.81679 0.362367 0.931744 -0.0171899
8.84789 4.5203 8.39107 0.397684 0.917259 -0.0151653
9.82814 4.0675 7.82472 0.419335 0.907639 -0.0146046
10.8262 3.58486 7.06265 0.448406 0.89383 -0.000476956
11.5012 3.24601 6.10287 0.448266 0.8939 0.000130051
12.0007 2.98547 4.96547 0.458573 0.888637 -0.00596024
12.2089 2.87671 3.84423 0.460917 0.887419 -0.00265486
12.2816 2.82656 2.68358 0.463638 0.885949 -0.0115538
12.1106 2.89968 1.30035 0.470584 0.882256 -0.0131908
11.585 3.14733 0.0422218 0.455184 0.890111 -0.0223828
10.838 3.49972 -0.986358 0.452276 0.891749 -0.0137392
10.0073 3.9016 -1.56837 0.441934 0.896956 -0.0128169
9.03169 4.33575 -2.1357 0.407689 0.91294 -0.0181963
7.89001 4.7773 -2.53178 0.353593 0.935137 -0.0219753
6.82091 5.17833 -2.68148 0.308849 0.951006 0.000302002
5.66545 5.53016 -2.66311 0.256291 0.965799 -0.017218
4.5829 5.73533 -2.53302 0.144908 0.989406 0.00881961
3.49635 5.89652 -2.20112 0.101441 0.993399 -0.00563507
2.31666 5.96323 -1.50117 0.0504143 0.998569 -0.0172275
1.50426 5.96965 -0.569801 -0.0337472 0.999231 -0.0190773
0.865623 5.92065 0.577771 -0.122643 0.992414 -0.000814012
0.629721 5.90239 1.73386 -0.122474 0.992396 -0.0122442
0.647085 5.89863 2.97264 -0.087915 0.996115 -0.00499627
0.687739 5.9006 4.28555 -0.118421 0.992705 -0.00942802
1.33324 5.98302 5.32691 -0.0836685 0.996353 -0.0167168
2.07003 6.03797 6.16345 0.00366746 0.999993 0.000831773
2.73255 6.06489 7.05647 0.0174432 0.997566 -0.0615548
3.6983 6.02207 7.78868 0.141193 0.988741 -0.0452155
4.68044 5.87978 8.38316 0.193038 0.980697 -0.0309642
5.12172 5.79938 8.57176 0.193291 0.980544 -0.034229
5.55047 5.68553 7.55996 0.225851 0.973055 -0.0314077
4.51367 5.87273 7.01354 0.187008 0.982274 0.0128519
3.41717 6.00564 6.27341 0.135236 0.989515 0.0507074
2.91662 6.05049 5.20046 -0.00649336 0.999889 0.0134067
2.1248 6.00311 4.43778 -0.0560938 0.998036 -0.0192024
1.86154 5.98914 3.13408 -0.0593875 0.998231 0.00289347
1.76056 5.97843 1.965 -0.038243 0.999188 0.0109465
2.01206 5.98808 0.897023 0.0147143 0.999857 -0.00835816
2.57514 5.96966 -0.243825 0.0725633 0.997002 -0.0268639
3.40499 5.91238 -0.95191 0.135075 0.990775 -0.0109673
4.42128 5.75831 -1.3444 0.153443 0.987886 -0.020755
5.49147 5.5813 -1.54084 0.218987 0.973688 -0.00149582
6.5371 5.27012 -1.49704 0.308849 0.951006 0.00030157
7.77974 4.84781 -1.4087 0.352966 0.935201 -0.028243
9.21481 4.28337 -0.90044 0.412959 0.91033 -0.0276401
10.0467 3.9185 -0.18506 0.43835 0.898315 -0.0292135
10.8054 3.56119 0.673565 0.450848 0.892309 -0.0228287
11.1619 3.39723 1.75458 0.455381 0.890216 -0.0114848
11.3475 3.30951 2.86164 0.453145 0.891412 -0.0066634
11.1846 3.40041 4.04106 0.457585 0.889151 -0.00518677
10.77 3.60653 5.12257 0.445086 0.895478 -0.00401638
10.216 3.87514 6.14557 0.424234 0.905553 -6.93298e-05
9.38091 4.25407 6.82059 0.401931 0.915654 0.00540619
8.36133 4.71393 7.3865 0.388385 0.921468 -0.00731847
7.07873 5.21305 7.70531 0.335972 0.94187 0.00201742
5.97548 5.57322 7.60639 0.258916 0.965261 -0.0351177
5.74312 5.6349 7.58859 0.258916 0.965261 -0.0351174
-12.6907 0.834173 10.385 -0.463049 0.886315 0.00560618
-12.6054 0.870662 11.4992 -0.466078 0.884713 0.00736178
-12.53 0.902336 12.6773 -0.468323 0.883545 0.0011069
-12.5704 0.887265 14.2558 -0.471061 0.882088 -0.00467099
-12.7129 0.819904 15.5699 -0.470909 0.882154 -0.00693865
-12.711 0.828125 16.7654 -0.465832 0.88487 -0.00212313
-12.5608 0.90913 17.8355 -0.468617 0.883397 -0.00269641
-11.8849 1.26058 18.6109 -0.467084 0.884201 0.00472938
-10.9334 1.75889 18.9498 -0.464284 0.885685 -0.00171865
-9.97511 2.2577 19.1371 -0.459527 0.888158 -0.00242617
-8.92147 2.80091 19.2931 -0.453929 0.891012 -0.00680877
-7.84208 3.35038 19.3301 -0.452727 0.89162 -0.00727585
-6.46761 4.0169 19.1377 -0.43086 0.902319 -0.0134307
-5.33658 4.53728 19.1876 -0.402107 0.915168 -0.0278873
-4.1744 5.02659 19.2572 -0.374865 0.926765 -0.0241531
-2.98649 5.47032 19.3633 -0.30612 0.950907 -0.0454472
-1.87616 5.81537 19.3272 -0.29004 0.9569 -0.0147795
-0.478089 6.13427 19.3338 -0.16472 0.985257 -0.0335348
0.820173 6.29251 19.4051 -0.0949252 0.993702 -0.0552113
2.24088 6.29689 19.3965 -0.00301598 0.999933 -0.0108758
3.48179 6.20582 19.545 0.155367 0.987548 -0.0246861
4.61945 5.97555 19.4199 0.234295 0.972068 0.0138039
5.76477 5.67855 19.4971 0.272246 0.962205 -0.00284796
6.8938 5.30485 19.4282 0.346706 0.937932 -0.00884137
8.09975 4.83172 19.4547 0.382593 0.923878 0.008509
9.13856 4.38517 19.3965 0.41659 0.909067 0.0070462
10.2628 3.85135 19.3744 0.442053 0.896878 0.0111476
11.3265 3.31886 19.2022 0.454609 0.890639 0.00569594
12.3727 2.77527 18.7569 0.462813 0.88645 0.00330323
13.4015 2.22754 18.1313 0.478321 0.878155 0.00726719
14.3412 1.70975 17.4727 0.485807 0.874056 0.00430645
15.054 1.31231 16.7532 0.491336 0.870965 0.00282913
15.4204 1.10819 15.7319 0.494979 0.868897 0.00373419
15.735 0.932247 14.5789 0.503625 0.863883 0.00827047
15.8848 0.856377 13.3636 0.500291 0.865818 0.00823556
15.8018 0.91727 11.877 0.496943 0.867755 0.0069163
15.6411 1.01936 10.5459 0.495619 0.868532 0.0038348
15.3773 1.17076 9.49186 0.491217 0.871036 -0.00149336
15.1969 1.26887 8.05401 0.490351 0.871524 -0.000342624
15.1223 1.30834 6.87868 0.491373 0.870938 -0.00437535
15.0125 1.363 5.70975 0.49263 0.870203 -0.00789935
15.1077 1.30069 4.56441 0.493616 0.86966 -0.00543406
15.1795 1.24873 3.33963 0.493882 0.869464 -0.010654
15.206 1.21815 2.00149 0.491699 0.870679 -0.0120627
15.2386 1.16901 0.463497 0.494263 0.869102 -0.0190653
14.8389 1.36898 -0.731903 0.497767 0.867167 -0.0157814
14.2976 1.65549 -1.83185 0.486933 0.873273 -0.0160619
13.7789 1.92872 -2.74129 0.479875 0.877228 -0.0132503
13.3082 2.16734 -3.68277 0.479561 0.877346 -0.0168912
12.8582 2.38745 -4.78701 0.473137 0.88077 -0.019493
12.5151 2.54406 -5.98177 0.474624 0.879943 -0.0207975
12.1222 2.71565 -7.15275 0.455512 0.88967 -0.0315666
11.7396 2.8775 -8.15192 0.456329 0.88931 -0.0298684
11.5145 2.95452 -9.26692 0.454478 0.890195 -0.0316656
11.4263 2.93951 -10.8706 0.447411 0.89384 -0.0295638
11.6295 2.80012 -11.9318 0.443677 0.895618 -0.0319116
11.8265 2.66072 -12.9923 0.458529 0.888074 -0.0328095
12.1459 2.45798 -14.0481 0.457676 0.888571 -0.0312035
12.6918 2.13629 -15.0713 0.463736 0.885417 -0.0313839
13.4601 1.70343 -15.8648 0.466107 0.884097 -0.0334121
14.1413 1.30684 -16.6508 0.478059 0.87766 -0.0342603
14.207 1.22734 -17.8605 0.478339 0.877669 -0.0297938
13.0432 1.84184 -18.3196 0.470383 0.882042 -0.0270575
11.9402 2.41842 -18.5112 0.459328 0.887875 -0.0263754
10.7337 3.02161 -18.8903 0.448154 0.893473 -0.0294012
9.60879 3.56141 -19.142 0.43092 0.902218 -0.0176204
8.53792 4.06698 -19.2594 0.424445 0.905317 -0.0157197
7.32928 4.59031 -19.3721 0.370593 0.928599 -0.0191212
6.14386 5.04276 -19.4172 0.33814 0.940995 -0.0137576
4.50656 5.57704 -19.3561 0.289283 0.957041 -0.0196834
3.22312 5.93442 -19.4218 0.237087 0.971063 -0.00478962
1.72316 6.17959 -19.3709 0.13272 0.99047 0.0200756
0.439473 6.30178 -19.4068 0.0144197 0.997178 0.0676327
-0.823159 6.26488 -19.3286 -0.087538 0.994422 0.0476923
-2.06321 6.09054 -19.3327 -0.206065 0.976919 0.0562641
-3.16201 5.85092 -19.3458 -0.237278 0.970427 0.0412618
-4.54738 5.45236 -19.2739 -0.314395 0.948657 0.0290706
-5.92581 4.94346 -19.145 -0.360807 0.932383 0.0219252
-7.17239 4.42278 -19.0462 -0.40422 0.914612 0.00956713
-8.23423 3.92756 -18.9183 -0.433399 0.901135 0.0110159
-9.64187 3.22312 -18.6758 -0.447055 0.894147 0.0253752
-10.6904 2.66469 -18.1067 -0.457858 0.888408 0.033123
-11.6344 2.15102 -17.4568 -0.464206 0.885226 0.0294179
-12.5654 1.62634 -16.7576 -0.476061 0.878825 0.0321364
-13.4813 1.10352 -16.157 -0.481097 0.876318 0.0247548
-13.8065 0.897302 -15.217 -0.482003 0.875766 0.0265644
-13.5241 1.00954 -13.8515 -0.479699 0.877093 0.0238653
-13.3133 1.09666 -12.6155 -0.476874 0.878697 0.021971
-13.0954 1.18214 -11.4053 -0.474278 0.880043 0.0241371
-12.6951 1.37498 -10.5515 -0.472361 0.88109 0.0235641
-11.6798 1.92144 -10.9533 -0.46423 0.885168 0.0310203
-10.7095 2.44419 -11.5263 -0.457511 0.88853 0.03461
-9.53883 3.03453 -11.716 -0.438581 0.898177 0.0304254
-8.3702 3.598 -11.8488 -0.423164 0.905522 0.0310268
-7.24868 4.10362 -11.8569 -0.395736 0.917478 0.0403503
-5.92539 4.64384 -11.7555 -0.370693 0.92743 0.0496087
-4.61288 5.11956 -11.3008 -0.326191 0.94486 0.0289488
-3.57339 5.42977 -10.7832 -0.278261 0.958874 0.055962
-2.615 5.65173 -10.2331 -0.232356 0.970226 0.0683485
-1.77028 5.80102 -9.5298 -0.183667 0.981692 0.0504743
-1.09934 5.86225 -8.48674 -0.130132 0.991051 0.0297179
-0.702714 5.91358 -7.4514 -0.162255 0.986364 0.0161239
-0.408018 5.91767 -6.38532 -0.162835 0.985655 0.044374
-0.128461 5.91125 -5.28142 -0.0977166 0.993375 0.0604737
0.0281706 5.88358 -4.09998 -0.107571 0.994061 0.0164418
-0.112572 5.85422 -3.03107 -0.113752 0.993322 0.0105219
-0.239444 5.81495 -1.90347 -0.126554 0.991752 0.020296
-0.574019 5.73738 -0.565459 -0.190502 0.980999 0.0265928
-1.02656 5.64261 0.632754 -0.159013 0.986709 -0.0041289
-1.88358 5.46208 1.89539 -0.249277 0.968329 0.0141624
-2.77861 5.19661 3.03014 -0.292265 0.956337 0.000241159
-3.62618 4.93395 4.05987 -0.315943 0.948699 -0.0122395
-4.54957 4.61113 4.8552 -0.342583 0.939423 0.0110221
-5.54856 4.22817 5.54958 -0.375055 0.926978 -0.00676303
-6.64366 3.7757 6.0717 -0.405473 0.91407 -0.0082325
-7.93663 3.19737 6.33932 -0.414802 0.909894 -0.00569672
-9.10744 2.65744 6.3943 -0.430852 0.902415 0.00379763
-10.141 2.16208 6.23851 -0.440026 0.897977 0.00367355
-11.0709 1.70634 5.90995 -0.449462 0.893227 0.0112767
-12.0123 1.23322 5.60699 -0.458769 0.888483 0.0113624
-12.8738 0.77856 6.23663 -0.460723 0.887455 0.0125468
-12.7669 0.824278 7.34765 -0.460636 0.887525 0.0106487
-12.7629 0.811079 8.54761 -0.460965 0.887345 0.0113754
-12.7281 0.818211 9.82413 -0.462911 0.886377 0.00694448
-12.7046 0.827796 10.2372 -0.462937 0.886374 0.00546408
-13.6546 0.32822 10.3267 -0.464167 0.885635 0.0129348
-13.738 0.289677 9.24009 -0.467116 0.884186 0.000322595
-13.6934 0.334876 8.15896 -0.458558 0.888596 0.0110165
-13.6817 0.352664 6.94771 -0.469087 0.882987 -0.00419545
-13.8418 0.272192 5.72958 -0.475473 0.879641 0.0125376
-13.5373 0.45439 4.53479 -0.466431 0.884441 0.0142903
-12.5999 0.954714 3.92473 -0.460314 0.887668 0.0122782
-11.6761 1.42664 4.22414 -0.453489 0.891135 0.0140052
-10.8114 1.85195 4.75545 -0.44336 0.896225 0.0132919
-9.84649 2.31773 5.09955 -0.437319 0.899229 0.0118433
-8.79234 2.81718 5.26239 -0.420239 0.907362 0.00962085
-7.68616 3.31762 5.1572 -0.406191 0.91376 0.00712903
-6.5359 3.82345 4.90641 -0.393945 0.919134 -0.00017235
-5.58116 4.22251 4.17895 -0.374916 0.92701 0.00945569
-4.71652 4.55717 3.54063 -0.352779 0.935692 -0.00527727
-3.97654 4.80877 2.73603 -0.323217 0.946315 0.00428651
-3.11116 5.10477 1.68716 -0.289265 0.956899 0.0258821
-2.5015 5.3019 0.734724 -0.281119 0.959669 0.00285247
-1.88618 5.4673 -0.406648 -0.243241 0.969749 0.0203495
-1.4599 5.60005 -1.56444 -0.219481 0.97523 0.0274798
-1.30294 5.66087 -2.9322 -0.170814 0.985209 0.0118884
-1.04573 5.73133 -4.18972 -0.173092 0.984521 0.0275014
-1.4178 5.72041 -5.71324 -0.176878 0.983365 0.0413207
-1.60167 5.72519 -6.81607 -0.202397 0.978323 0.0438039
-1.94951 5.70411 -7.83276 -0.195128 0.978804 0.0621949
-2.50014 5.62484 -8.8174 -0.255376 0.966434 0.0280812
-3.56894 5.37157 -9.52164 -0.269293 0.962209 0.0404495
-4.5771 5.08156 -10.0342 -0.321183 0.945798 0.0480383
-5.52937 4.75874 -10.5372 -0.367757 0.929408 0.0309077
-6.55512 4.35142 -10.7279 -0.38952 0.920198 0.0388521
-7.58622 3.90933 -10.7766 -0.399975 0.915831 0.0356917
-8.71883 3.388 -10.7394 -0.430886 0.901225 0.0458949
-9.73041 2.89169 -10.5778 -0.439394 0.897466 0.0385647
-10.7099 2.39755 -10.3185 -0.444037 0.895241 0.0370677
-11.6499 1.90209 -9.78277 -0.457895 0.88852 0.0293988
-12.5504 1.41465 -9.2071 -0.468487 0.882998 0.0283311
-13.4211 0.919093 -8.16638 -0.474867 0.879774 0.0222705
-13.9728 0.634727 -8.74407 -0.476825 0.878718 0.0222064
-13.9937 0.655238 -9.97353 -0.477139 0.878505 0.023792
-14.046 0.656311 -11.2066 -0.487234 0.873067 0.0188877
-14.3232 0.529947 -12.4138 -0.489454 0.871734 0.0226844
-14.5624 0.429891 -13.7216 -0.487329 0.872918 0.0228885
-14.8629 0.304262 -15.0295 -0.487633 0.872812 0.0175984
-14.7525 0.396639 -16.4831 -0.497471 0.86737 0.013844
-14.0923 0.800539 -17.24 -0.482169 0.875649 0.027425
-13.1411 1.34225 -17.7087 -0.483332 0.875071 0.0253138
-12.3267 1.80401 -18.2738 -0.47679 0.878654 0.0252502
-11.2844 2.38521 -19.0405 -0.470647 0.881987 0.0242975
-10.469 2.82707 -19.6282 -0.456491 0.889457 0.0216818
-9.50201 3.32535 -19.9708 -0.451046 0.892347 0.016572
-8.53428 3.80184 -20.0108 -0.430804 0.902235 0.0193677
-7.51892 4.29112 -20.0872 -0.421532 0.906087 0.0321353
-6.47309 4.75825 -20.2121 -0.387507 0.921428 0.0284479
-5.09399 5.29624 -20.2685 -0.353713 0.934343 0.0434765
-3.87102 5.70141 -20.5064 -0.290623 0.954545 0.0661965
-2.27835 6.1049 -20.492 -0.226454 0.972376 0.0565939
-1.1403 6.31492 -20.4836 -0.14116 0.989042 0.0181645
0.0446693 6.35726 -20.571 0.0378216 0.99922 -0.0113318
1.39819 6.28048 -20.5083 0.0698047 0.99574 0.0541881
2.46861 6.10401 -20.5532 0.185441 0.981799 0.019684
3.54117 5.86743 -20.5124 0.23845 0.97071 0.0124187
4.74563 5.50465 -20.4596 0.291766 0.956434 0.0103291
5.77755 5.16451 -20.4628 0.338728 0.94085 -0.00572229
6.79634 4.79301 -20.4852 0.356827 0.933894 -0.0100849
7.84169 4.36454 -20.4409 0.399327 0.91674 -0.0112669
8.85385 3.90298 -20.3636 0.429957 0.902835 -0.00339499
9.83703 3.43651 -20.2455 0.428028 0.903699 -0.0109567
11.1919 2.76786 -19.971 0.450864 0.892453 -0.015486
12.1281 2.29393 -19.5723 0.459215 0.888212 -0.0141759
13.4515 1.59774 -19.3208 0.475146 0.879616 -0.0219768
14.8702 0.831672 -18.8269 0.485822 0.873585 -0.0287464
15.5363 0.485671 -18.025 0.491714 0.870309 -0.0279266
15.7449 0.407044 -16.9773 0.490923 0.870556 -0.0335717
15.094 0.801231 -16.2082 0.48537 0.87356 -0.0361781
14.3604 1.24414 -15.2491 0.475727 0.878901 -0.0348786
13.5937 1.68216 -14.5308 0.467895 0.883246 -0.0306961
13.0233 2.01948 -13.5227 0.465092 0.884602 -0.0341883
12.6928 2.2339 -12.4739 0.465681 0.884287 -0.0343148
12.5305 2.35739 -11.3994 0.459537 0.887714 -0.0280964
12.4234 2.4532 -10.195 0.461229 0.886742 -0.0309427
12.6536 2.36645 -9.09551 0.462353 0.886118 -0.0317128
12.797 2.33488 -7.93302 0.470131 0.882038 -0.0313886
13.4152 2.04906 -6.49108 0.475828 0.879353 -0.0175048
13.7871 1.86659 -5.34836 0.481959 0.876011 -0.0176249
14.1325 1.69891 -4.33674 0.483548 0.875084 -0.0202272
14.5833 1.46603 -3.37527 0.488234 0.872569 -0.0158452
15.1361 1.16942 -2.38745 0.501227 0.865196 -0.0143949
15.7351 0.843067 -1.2381 0.501423 0.865043 -0.0165955
16.1286 0.643835 -0.0982699 0.497905 0.866955 -0.0218917
16.3419 0.550251 0.980545 0.495224 0.868509 -0.0210944
16.203 0.652065 2.12523 0.494286 0.869255 -0.00841388
16.1694 0.686239 3.55552 0.496253 0.868133 -0.00882009
16.1266 0.722806 4.79691 0.493595 0.869656 -0.0079264
16.0603 0.773446 6.21586 0.493953 0.869454 -0.00779098
16.1181 0.747755 7.48051 0.496688 0.867921 -0.00373632
16.2587 0.672089 8.82073 0.4919 0.87065 0.000434734
16.5137 0.523633 9.88461 0.496767 0.867874 0.00420272
16.7116 0.396561 11.2184 0.501471 0.865141 0.00752949
16.7686 0.346881 12.6653 0.506098 0.862431 0.00859066
16.7905 0.320661 13.8742 0.509548 0.860396 0.00894981
16.5686 0.441902 15.0907 0.511482 0.859289 0.00281462
16.3673 0.560699 16.1704 0.500621 0.865665 -0.00133777
16.103 0.712848 17.2497 0.498289 0.86701 0.00149826
15.2911 1.17513 18.1098 0.49173 0.870746 0.0019592
14.496 1.6182 18.727 0.485844 0.874039 0.00345771
13.6221 2.10035 19.2194 0.478325 0.878177 0.00313683
12.6656 2.61391 19.8483 0.470067 0.882623 0.00366246
11.6332 3.15415 20.3081 0.462748 0.886488 0.00156483
10.6515 3.65176 20.529 0.44396 0.896027 0.00354215
9.5967 4.16435 20.5255 0.432462 0.901625 0.00697713
8.61804 4.60246 20.5704 0.403762 0.914854 0.00420092
7.23996 5.18694 20.4943 0.367348 0.929794 -0.00244234
6.23837 5.55533 20.6212 0.267016 0.963381 -0.0205915
4.9172 5.92527 20.5247 0.244699 0.968979 -0.0194683
3.84059 6.17069 20.6301 0.219296 0.975155 -0.0313259
2.51963 6.32922 20.5217 0.0775214 0.996122 -0.0171069
1.26576 6.3488 20.5211 0.00417518 0.999057 -0.042512
0.127509 6.24936 20.5899 -0.0991654 0.994467 -0.0346544
-1.14933 6.02379 20.4732 -0.185877 0.982449 -0.0156251
-2.3711 5.70864 20.4901 -0.281521 0.958462 -0.0457855
-3.45671 5.33888 20.5504 -0.352848 0.935258 -0.0263747
-4.56797 4.90201 20.4118 -0.378408 0.925103 -0.0314837
-5.82504 4.33916 20.3347 -0.414119 0.910145 -0.0119024
-7.19822 3.68122 20.3873 -0.433663 0.900965 -0.013234
-8.17017 3.19435 20.3738 -0.456051 0.889897 -0.0100579
-9.19513 2.66806 20.4157 -0.460091 0.887855 -0.00535442
-10.6405 1.91413 20.1615 -0.465512 0.885041 -0.00123485
-11.8819 1.25879 19.8399 -0.468982 0.883205 0.0019823
-12.8142 0.758232 19.5158 -0.47624 0.879293 0.00624017
-13.4396 0.430425 18.5176 -0.476653 0.878999 0.012732
-13.8246 0.244435 17.319 -0.463844 0.885915 -0.000180817
-13.7128 0.290039 15.6716 -0.476027 0.879357 -0.0113921
-13.543 0.365464 14.2406 -0.475239 0.879818 -0.00824994
-13.4787 0.389736 13.151 -0.483576 0.875298 -0.0027554
-13.5568 0.364013 12.0298 -0.46758 0.883914 0.00810132
-13.5976 0.3537 10.8214 -0.467259 0.884081 0.00832775
-13.6151 0.3457 10.6851 -0.46726 0.884081 0.00832734
-11.8919 1.90915 -14.2202 -0.474093 0.880073 0.0266001
-11.1167 2.34371 -15.195 -0.464449 0.885204 0.026492
-10.2139 2.84793 -16.3262 -0.459436 0.887604 0.0328186
-8.75681 3.60112 -16.766 -0.446222 0.894341 0.0322412
-9.73293 3.06861 -15.5619 -0.453315 0.890728 0.0332875
-10.671 2.5494 -14.3908 -0.448315 0.893499 0.0259382
-11.5275 2.07722 -13.3153 -0.464085 0.885495 0.0228866
-11.7587 1.94843 -13.0222 -0.470065 0.882321 0.0234164
-10.3089 2.70441 -13.4806 -0.447971 0.893648 0.0267443
-9.35136 3.2219 -14.6695 -0.440982 0.896852 0.034523
-8.39757 3.74282 -15.8477 -0.438348 0.898043 0.0370052
-7.54577 4.19531 -16.8837 -0.436999 0.898525 0.041046
-7.25411 4.35015 -17.2369 -0.408335 0.911383 0.0514181
-5.9955 4.881 -17.3567 -0.365053 0.930804 0.018428
-6.85626 4.49345 -16.3536 -0.414686 0.90939 0.0323218
-7.8592 3.97408 -15.1468 -0.43818 0.897821 0.0437793
-9.00308 3.35563 -13.74 -0.439916 0.897297 0.0364992
-9.11643 3.29615 -13.6002 -0.43388 0.900605 0.0256556
-7.94222 3.86945 -13.6873 -0.428139 0.902753 0.0416308
-7.15258 4.27384 -14.6435 -0.397879 0.916357 0.0445135
-6.31377 4.69349 -15.64 -0.367191 0.926711 0.0798554
-5.45038 5.07345 -16.6373 -0.327583 0.944184 0.0347315
-4.81165 5.3052 -17.3493 -0.310482 0.950513 0.0112126
-3.28555 5.78745 -17.6877 -0.255209 0.966806 0.012382
-4.18188 5.50426 -16.7158 -0.297287 0.954745 0.00912311
-5.02692 5.19941 -15.7769 -0.330228 0.943592 0.0241469
-5.85055 4.83113 -14.8275 -0.383899 0.922147 0.047607
-6.77324 4.40223 -13.7416 -0.391126 0.919504 0.0391528
-6.87974 4.34993 -13.6144 -0.402258 0.914719 0.0384336
-5.64178 4.86485 -13.7245 -0.378292 0.924751 0.0416028
-4.73797 5.27034 -14.768 -0.346835 0.937074 0.0399728
-3.82418 5.59724 -15.781 -0.272246 0.962153 0.0119891
-2.96882 5.85668 -16.7055 -0.232386 0.972424 0.0196885
-2.37268 5.9655 -17.3305 -0.144525 0.988558 0.0431851
-1.0059 6.14007 -17.435 -0.0405409 0.999173 -0.00314494
-2.00916 6.02448 -16.3912 -0.131035 0.991253 0.0157134
-3.03977 5.79739 -15.3057 -0.216233 0.975311 0.0448499
-3.92659 5.51042 -14.335 -0.288191 0.955697 0.0599018
-4.63243 5.23276 -13.5415 -0.325875 0.943667 0.0574236
-3.75994 5.48823 -13.1784 -0.281814 0.958737 0.037464
-2.87029 5.78071 -14.153 -0.217386 0.97493 0.0474808
-1.93325 6.00405 -15.1464 -0.149124 0.987888 0.0428869
-1.01984 6.14938 -16.0968 -0.131283 0.991129 0.0207026
0.0145415 6.18233 -17.1624 -0.0405404 0.999173 -0.00314489
0.329048 6.21824 -17.4877 -0.00640797 0.999492 0.0312305
1.41124 6.14356 -17.2942 0.0812946 0.996292 0.0281507
0.482522 6.21722 -16.3246 0.0306142 0.999431 -0.0141447
-0.689225 6.17286 -15.1246 -0.115113 0.993078 0.0233288
-1.58441 6.01866 -14.1881 -0.17118 0.985023 0.0206512
-2.54668 5.80441 -13.1682 -0.211574 0.976979 0.0273645
-3.05232 5.66247 -12.6254 -0.249932 0.966797 0.0532714
-2.24328 5.82755 -12.1685 -0.180426 0.982158 0.0530347
-1.12465 6.07631 -13.3477 -0.15927 0.987044 0.019429
-0.183677 6.19895 -14.3224 -0.0704371 0.997458 0.0107321
0.845686 6.20137 -15.3889 0.0544615 0.998512 -0.00285099
1.98226 6.11214 -16.567 0.0747215 0.996747 -0.0302017
2.97531 5.9656 -17.6215 0.227591 0.973727 0.00759913
4.04118 5.71571 -17.4517 0.247842 0.968639 0.0176867
3.1054 5.93858 -16.433 0.193676 0.980979 0.01302
2.22752 6.0772 -15.5042 0.131432 0.991269 0.0105874
1.14552 6.18768 -14.3752 0.0431305 0.999029 -0.00896716
0.199664 6.23859 -13.401 -0.0762046 0.995641 -0.0537772
-0.951329 6.05429 -12.209 -0.1512 0.987206 0.0506162
-1.57448 5.91702 -11.5501 -0.180426 0.982158 0.0530347
-0.773193 5.99794 -11.0659 -0.0930993 0.995334 0.0253335
0.557817 6.19692 -12.4605 0.00818705 0.997591 0.0688819
1.66194 6.1672 -13.5944 0.0768593 0.997023 0.00620339
2.58499 6.04899 -14.5582 0.154111 0.987531 -0.0321234
3.5156 5.85349 -15.55 0.221687 0.975038 -0.0124628
4.48324 5.5982 -16.6099 0.260484 0.965473 -0.00318105
5.32602 5.34488 -17.5464 0.319654 0.947516 -0.00588566
6.51573 4.93098 -17.5682 0.34281 0.939053 -0.0257232
5.53133 5.30239 -16.4387 0.313426 0.948682 -0.0420322
4.5653 5.59249 -15.3702 0.22955 0.972482 -0.0398139
3.44291 5.88734 -14.1514 0.186857 0.981693 -0.0369364
2.49992 6.08159 -13.1481 0.1036 0.994244 0.0272994
1.44589 6.12165 -12.0527 0.0623932 0.997005 0.0457057
0.450705 6.06984 -11.016 -0.0428888 0.998898 0.0190585
-0.00774255 6.04069 -10.5366 -0.0692626 0.997012 0.0341976
0.448722 6.04927 -9.6841 -0.062448 0.998026 -0.00660374
1.68207 6.0699 -10.9746 0.0493044 0.998694 0.0133566
2.72633 6.01051 -12.0702 0.150682 0.988543 0.00883453
3.91661 5.81004 -13.3331 0.219263 0.975637 0.00745914
4.79523 5.58455 -14.2842 0.2461 0.968595 -0.0354658
5.77226 5.25262 -15.3745 0.313626 0.949476 -0.0116209
6.68958 4.89956 -16.428 0.341346 0.939573 -0.0261702
7.49117 4.5625 -17.3661 0.398349 0.916868 -0.0259151
8.68671 4.03395 -17.4604 0.409249 0.912106 -0.0240416
7.75832 4.47926 -16.3392 0.396641 0.91735 -0.0338414
6.80683 4.88825 -15.2245 0.33329 0.942404 -0.028157
5.74861 5.30109 -14.0139 0.327244 0.944328 -0.033985
4.83502 5.59676 -12.9981 0.289666 0.957122 -0.00326696
3.86609 5.81354 -11.9538 0.188833 0.98176 -0.0221186
2.77379 5.99306 -10.7912 0.140119 0.990055 -0.0125807
1.574 6.08631 -9.52674 0.0509195 0.9987 0.00223306
0.741659 6.07433 -8.66708 -0.0624488 0.998026 -0.00660417
1.24838 6.0786 -7.87647 0.0157229 0.999848 -0.00751483
2.18146 6.05136 -8.83775 0.0456088 0.998905 0.0104491
3.30563 5.94424 -10.0226 0.125613 0.99187 -0.0204
4.35858 5.7272 -11.1505 0.189455 0.981871 -0.0060578
5.24454 5.48094 -12.1226 0.289385 0.957199 0.00514641
6.12164 5.1889 -13.1025 0.323385 0.946195 -0.0117362
7.03273 4.83355 -14.1459 0.363717 0.931402 -0.0141165
8.06978 4.37889 -15.3649 0.402266 0.915307 -0.0198911
8.8534 3.98603 -16.3159 0.416106 0.909004 -0.0238422
9.6388 3.6011 -17.273 0.425495 0.904577 -0.0263473
10.4672 3.21123 -16.9439 0.437886 0.898657 -0.0259015
9.46713 3.72498 -15.7127 0.41703 0.908358 -0.0311819
8.59922 4.15656 -14.6607 0.416294 0.908857 -0.0260378
7.80434 4.52548 -13.7146 0.393267 0.919029 -0.0269655
6.91701 4.91797 -12.6717 0.376035 0.926342 -0.02211
5.89297 5.27862 -11.5182 0.305977 0.951808 -0.0209554
4.85304 5.60326 -10.3629 0.271231 0.962227 -0.0235339
3.65319 5.87694 -9.06313 0.184314 0.982784 0.0127969
2.54496 6.00229 -7.89656 0.0739523 0.997203 0.010871
1.52422 6.07142 -6.83821 0.013467 0.999751 0.0177676
1.32384 6.07048 -6.63326 0.0134671 0.999751 0.0177672
1.76338 6.06185 -5.76747 -0.0181908 0.999597 0.0218025
2.95162 5.98553 -6.99699 0.112448 0.993357 -0.0244313
4.11763 5.79013 -8.23139 0.188293 0.981894 -0.0207284
5.05739 5.58049 -9.24961 0.239453 0.970825 -0.0127104
5.93544 5.29095 -10.2295 0.311619 0.94975 -0.0294595
6.8011 4.99355 -11.2063 0.305977 0.951808 -0.0209555
7.69161 4.60945 -12.2429 0.384455 0.922501 -0.0344425
8.58158 4.20417 -13.296 0.404643 0.9141 -0.0261644
9.40256 3.79474 -14.2893 0.418843 0.907483 -0.0323356
10.1888 3.39632 -15.2468 0.4415 0.896826 -0.0279499
11.0796 2.92876 -16.3505 0.44524 0.895092 -0.0238959
11.4567 2.72262 -16.8221 0.454773 0.890174 -0.0277733
10.5735 3.23617 -14.3706 0.440579 0.897137 -0.0321786
9.75768 3.65983 -13.3748 0.428145 0.903297 -0.0273371
8.73402 4.16959 -12.1366 0.416239 0.908809 -0.0284729
7.70978 4.66848 -10.9123 0.400037 0.915351 -0.0458666
6.73229 5.04754 -9.79085 0.313805 0.948479 -0.0437502
5.81867 5.36958 -8.76186 0.284688 0.958271 -0.0258829
4.77345 5.66954 -7.60854 0.247192 0.968864 -0.0141055
3.84798 5.86501 -6.61427 0.174212 0.984498 -0.0203527
2.93608 5.99738 -5.66119 0.128221 0.99174 0.00326343
1.71747 6.02324 -4.39502 -0.00172929 0.999051 0.0435158
1.69086 6.02197 -4.36721 -0.0132398 0.998863 0.0457867
2.10804 5.98363 -3.47307 -0.00180029 0.999044 0.0436864
3.03684 5.98305 -4.44286 0.099422 0.994815 0.0214081
4.08793 5.84931 -5.53968 0.161157 0.986066 -0.0412607
5.16688 5.57351 -6.71042 0.239844 0.970771 -0.00885601
6.11686 5.30349 -7.76107 0.30033 0.953467 -0.0265127
7.13801 4.93 -8.91444 0.344632 0.937542 -0.0473655
8.05908 4.54177 -9.9834 0.390141 0.920532 -0.0202696
8.90699 4.13346 -10.999 0.418117 0.907463 -0.0411017
9.83753 3.66264 -12.1276 0.423432 0.905327 -0.0329833
10.0655 3.54567 -12.4049 0.423642 0.905211 -0.0334742
9.57767 3.84752 -10.4617 0.429994 0.902131 -0.0355557
8.59367 4.33002 -9.27863 0.401355 0.915307 -0.0335825
7.79674 4.70243 -8.3354 0.370633 0.928299 -0.0298565
6.82598 5.08038 -7.22605 0.314149 0.949232 -0.0163843
5.77943 5.42107 -6.0563 0.300365 0.953822 0.00197205
4.60563 5.76199 -4.76725 0.272431 0.962171 0.00288113
3.9651 5.86079 -4.09595 0.147088 0.988228 0.0420822
5.5617 5.49598 -4.49143 0.263095 0.964493 -0.0230953
6.66895 5.14862 -5.71806 0.307504 0.951004 -0.0321259
7.53073 4.84067 -6.69626 0.335021 0.942058 -0.0169639
8.40477 4.46851 -7.71148 0.405873 0.913419 -0.030553
9.24191 4.06657 -8.71158 0.401355 0.915307 -0.0335825
9.95467 3.70479 -9.57215 0.428677 0.902615 -0.0390131
9.89113 3.78643 -8.15459 0.42978 0.902437 -0.0299403
9.01683 4.21863 -7.10108 0.405515 0.913141 -0.0416102
8.16418 4.6249 -6.08506 0.349839 0.936369 -0.0287425
7.14997 5.00365 -4.92817 0.331973 0.942839 -0.0291215
6.72868 5.16998 -4.44575 0.314861 0.948727 -0.0279298
7.85421 4.76266 -4.3976 0.369985 0.928734 -0.0237447
8.8222 4.35897 -5.52112 0.406837 0.913304 -0.0189642
9.84188 3.85517 -6.75028 0.431614 0.90168 -0.0261369
10.3712 3.58041 -7.39995 0.438762 0.898224 -0.0261003
10.5403 3.53046 -6.26571 0.438903 0.898182 -0.0251649
9.53295 4.04198 -5.03876 0.416001 0.908991 -0.026044
8.81409 4.38115 -4.18123 0.387344 0.921915 -0.00605569
9.69812 3.99705 -3.89929 0.421208 0.90656 -0.0270716
10.7347 3.46376 -5.16536 0.441745 0.896774 -0.0256466
10.8302 3.41338 -5.28281 0.44134 0.897008 -0.0244139
11.2575 3.23242 -4.46355 0.457779 0.888569 -0.0297271
10.534 3.61676 -3.56933 0.431208 0.901696 -0.0316855
11.1488 3.32177 -2.98259 0.452494 0.891681 -0.0124244
11.619 3.06839 -3.57165 0.462219 0.886604 -0.0169256
-11.3493 1.5387 9.18402 -0.458111 0.888883 0.00456044
-10.5092 1.97201 8.13097 -0.450242 0.892895 0.00458696
-10.3997 2.02749 7.99434 -0.438926 0.898513 0.00440076
-9.42954 2.49862 8.1577 -0.43032 0.902671 -0.00316919
-10.4009 2.01969 9.35892 -0.450857 0.892582 0.00506672
-11.2514 1.58026 10.4261 -0.455404 0.890259 0.00676734
-11.2541 1.57885 10.4295 -0.455849 0.890045 0.0046242
-11.1421 1.63278 11.6497 -0.456389 0.889776 0.00263525
-10.3138 2.05826 10.6114 -0.450173 0.892941 -0.000698939
-9.46745 2.47946 9.56135 -0.438219 0.898868 -0.000610467
-8.55468 2.91912 8.44136 -0.427607 0.903941 -0.0064663
-8.52071 2.93477 8.40009 -0.423936 0.905675 -0.00562588
-6.96345 3.64509 7.87317 -0.407717 0.913096 -0.00470855
-7.96276 3.20145 9.07261 -0.42477 0.905253 -0.00933764
-8.98019 2.71765 10.3165 -0.437658 0.899132 -0.00420819
-9.92335 2.25169 11.4849 -0.448109 0.893978 0.00153298
-10.8594 1.77816 12.6558 -0.457743 0.889084 -0.000680019
-11.066 1.67201 12.9161 -0.457575 0.889168 -0.00235761
-11.1107 1.65314 14.3322 -0.460755 0.887525 -0.00224398
-10.168 2.13365 13.1472 -0.448106 0.89397 -0.004394
-9.28782 2.56927 12.0524 -0.442221 0.896906 -0.000690081
-8.41714 2.99328 10.9783 -0.432357 0.901703 -0.00011606
-7.57137 3.38735 9.94896 -0.414966 0.909813 -0.00652374
-6.70543 3.76944 8.91037 -0.407705 0.913004 -0.0141153
-5.65668 4.20111 7.67677 -0.380966 0.924565 -0.00664147
-5.29864 4.34055 7.26118 -0.362887 0.931778 -0.0101148
-1.36672 5.59578 4.19846 -0.183062 0.983067 -0.00826692
-2.31214 5.36812 5.22671 -0.289762 0.95644 -0.035506
-3.30625 5.08026 6.32488 -0.338051 0.94095 -0.018317
-4.1566 4.78087 7.28644 -0.352701 0.935616 -0.0150057
-5.0827 4.44262 8.34702 -0.363929 0.931176 -0.0215962
-5.94592 4.10286 9.35417 -0.388836 0.921213 -0.0131668
-6.92193 3.68495 10.5158 -0.409098 0.912484 -0.00351692
-7.80064 3.2859 11.5787 -0.425912 0.904758 -0.00342826
-8.87973 2.77072 12.9037 -0.437974 0.898974 -0.00503602
-9.9799 2.2311 14.2715 -0.450805 0.892617 -0.00326446
-10.85 1.79188 15.3652 -0.459625 0.888108 -0.00304895
-11.1354 1.64569 15.726 -0.459263 0.888295 -0.00321865
-10.9855 1.72779 16.8974 -0.45993 0.887948 -0.00363293
-10.1503 2.15119 15.8445 -0.45341 0.891291 -0.00444257
-9.11864 2.66728 14.5523 -0.44566 0.895166 -0.00803296
-8.26813 3.07201 13.5031 -0.439763 0.898076 -0.00819364
-7.41692 3.4734 12.4605 -0.425663 0.904827 -0.00996013
-6.57997 3.84795 11.4511 -0.408159 0.91281 -0.0135857
-5.55003 4.27936 10.2303 -0.386723 0.922164 -0.00770974
-4.74862 4.5888 9.29711 -0.355876 0.934455 -0.0120744
-3.84865 4.90904 8.26827 -0.327343 0.944825 -0.0123563
-2.78737 5.26007 7.07224 -0.318437 0.947935 -0.00408845
-1.76192 5.52901 5.95644 -0.230059 0.972799 -0.0271019
-0.873906 5.69895 5.01002 -0.18317 0.982728 -0.0263397
-0.574151 5.77358 6.02307 -0.156115 0.987579 -0.0177843
-1.47532 5.6212 6.97506 -0.254594 0.967009 -0.0087229
-2.32417 5.39958 7.89929 -0.257439 0.966294 0.000549771
-3.40769 5.0728 9.10826 -0.327344 0.944825 -0.0123561
-4.44037 4.71733 10.2827 -0.334154 0.942169 -0.0256755
-5.25775 4.41479 11.2268 -0.37919 0.925168 -0.0167042
-6.21416 4.02268 12.3568 -0.406666 0.91351 -0.0110166
-7.01982 3.66972 13.3243 -0.428796 0.903372 -0.0072365
-7.80465 3.30979 14.2806 -0.435909 0.899876 -0.0143552
-8.59076 2.936 15.2504 -0.441036 0.897413 -0.0117332
-9.41465 2.52788 16.2786 -0.450027 0.89297 -0.00900629
-10.2251 2.12228 17.2975 -0.456609 0.889651 -0.00536357
-9.27033 2.61066 17.4551 -0.450634 0.892692 -0.00552324
-8.47234 3.00366 16.458 -0.449199 0.893377 -0.00984849
-7.64818 3.40178 15.4365 -0.441045 0.897406 -0.0118998
-6.6904 3.83918 14.2694 -0.425357 0.904895 -0.0154145
-5.90825 4.18029 13.3299 -0.418921 0.907683 -0.0248539
-5.09367 4.50601 12.3706 -0.377761 0.925673 -0.0206453
-3.97972 4.9138 11.0879 -0.34809 0.937039 -0.0281404
-3.05833 5.20432 10.0522 -0.321271 0.946903 -0.0126521
-2.03058 5.4813 8.91925 -0.23868 0.970523 -0.0334209
-1.06227 5.71994 7.8653 -0.21943 0.975622 -0.00349633
-0.08669 5.88859 6.83269 -0.166193 0.984278 -0.0598084
-0.0399025 5.89354 6.78409 -0.163446 0.985006 -0.0552154
0.663138 6.02328 7.37354 -0.097023 0.994499 -0.0394649
-0.362391 5.87163 8.45354 -0.187279 0.982291 -0.00551268
-1.47384 5.6482 9.64318 -0.218554 0.974797 -0.0447701
-2.33146 5.46395 10.5668 -0.28672 0.957619 -0.0275158
-3.17381 5.21038 11.5043 -0.326328 0.94484 -0.0280718
-4.09478 4.899 12.5532 -0.353444 0.935176 -0.022882
-4.94516 4.59689 13.5313 -0.36467 0.930906 -0.020724
-6.0163 4.16104 14.7975 -0.40891 0.912494 -0.0121416
-6.94315 3.7491 15.9184 -0.419001 0.907875 -0.0142035
-7.71828 3.38251 16.8731 -0.439265 0.898321 -0.00805801
-8.17529 3.16029 17.4414 -0.445092 0.895439 -0.00910114
-6.97488 3.74895 17.3056 -0.437863 0.899023 -0.00574308
-6.03665 4.17076 16.1649 -0.40468 0.914323 -0.0157371
-5.12593 4.54773 15.0828 -0.382865 0.923719 -0.0126016
-4.27244 4.87282 14.0886 -0.36467 0.930906 -0.0207241
-3.41749 5.16647 13.1114 -0.348873 0.93689 -0.0229065
-2.24427 5.51459 11.8027 -0.290455 0.956493 -0.0275246
-1.24671 5.7419 10.7182 -0.21341 0.976612 -0.0261851
-0.290438 5.89378 9.71009 -0.17245 0.984796 -0.0209439
0.708044 6.0489 8.65986 -0.126373 0.991939 -0.00931274
1.19716 6.09736 8.15127 -0.0444644 0.998371 -0.0357517
1.87355 6.15035 8.78966 -0.0444644 0.998371 -0.0357516
0.84961 6.06836 9.84337 -0.119692 0.992789 0.00662859
-0.0433764 5.96926 10.7778 -0.157204 0.987176 -0.0277505
-1.14196 5.7996 11.9385 -0.200171 0.979099 -0.0360239
-2.04408 5.60706 12.9127 -0.290359 0.956539 -0.026908
-2.9545 5.3525 13.9189 -0.296432 0.954683 -0.0266144
-3.86369 5.04703 14.9531 -0.348573 0.937011 -0.0225338
-4.7662 4.70858 16.0015 -0.370468 0.928707 -0.0159919
-5.81345 4.28803 17.2383 -0.40468 0.914323 -0.015737
-5.89649 4.25129 17.3388 -0.416802 0.908899 -0.0133591
-4.88949 4.68667 17.4821 -0.377348 0.925873 -0.01917
-3.83709 5.09361 16.2526 -0.359836 0.932451 -0.0324462
-2.91452 5.40589 15.2011 -0.314456 0.94895 -0.0247133
-1.98473 5.65827 14.1764 -0.268436 0.963059 -0.0214351
-0.932964 5.87855 13.0467 -0.207405 0.978051 -0.0200043
0.112707 6.03795 11.9472 -0.16927 0.984325 -0.0495138
1.11687 6.1311 10.8975 -0.109816 0.993308 -0.0357815
2.01186 6.16225 9.96958 -0.0102149 0.999782 0.018208
2.67466 6.14315 9.29425 0.0913382 0.995697 -0.0156581
3.53792 6.07304 9.72742 0.0977311 0.994686 -0.032381
2.60836 6.18447 10.6898 -0.00919449 0.999323 -0.0356167
1.69429 6.21981 11.6364 -0.0291558 0.998767 -0.0401718
0.69565 6.15146 12.668 -0.12672 0.991251 -0.036923
-0.253341 6.03951 13.6519 -0.193208 0.98011 -0.0453269
-1.12537 5.89292 14.5804 -0.245865 0.968716 -0.0337618
-2.05808 5.66728 15.5883 -0.284865 0.957973 -0.0337577
-2.97891 5.41654 16.6058 -0.346014 0.937892 -0.0251497
-3.82757 5.1267 17.5709 -0.362169 0.932019 -0.0131937
-2.6943 5.54509 17.6081 -0.31484 0.949105 -0.00872033
-1.79685 5.7896 16.623 -0.285846 0.957015 -0.0491326
-0.820293 5.96044 15.5834 -0.227856 0.973308 0.0274525
0.284119 6.16331 14.4133 -0.118178 0.992775 -0.0207946
1.49735 6.23546 13.163 -0.0660393 0.99776 0.010657
2.50483 6.24518 12.1349 0.0276941 0.998848 -0.0391975
3.42098 6.134 11.1859 0.0961467 0.994584 -0.039481
4.3476 5.98257 10.2125 0.183415 0.983032 0.00243756
4.38273 5.97611 10.1756 0.183415 0.983032 0.00243763
5.09589 5.8416 10.7586 0.206561 0.978427 -0.00362469
3.98647 6.1095 11.946 0.145218 0.988409 -0.0442746
2.86013 6.25189 13.1007 0.0500762 0.998316 0.0292904
1.91771 6.26003 14.0634 -0.0107521 0.999684 0.0227028
0.965005 6.2214 15.045 -0.0649323 0.997816 -0.0121053
0.00186431 6.10271 16.0446 -0.129145 0.991442 0.0191101
-0.868297 5.98851 16.9577 -0.185094 0.982235 -0.0308807
-1.36736 5.90399 17.4861 -0.19599 0.980441 -0.0179768
-0.138737 6.10289 17.5216 -0.112389 0.993251 -0.0286646
0.779681 6.20411 16.5669 -0.128946 0.991652 -0.000494912
1.79126 6.25095 15.5294 -0.0173663 0.999846 -0.00241584
2.80093 6.25973 14.495 0.0209794 0.999776 0.00287578
3.71202 6.19574 13.558 0.0513927 0.998659 0.00616917
4.63772 6.001 12.5854 0.216955 0.974264 -0.0611525
5.67968 5.68698 11.4555 0.269744 0.962894 -0.00858978
6.38145 5.48364 10.6889 0.317128 0.948362 -0.0062322
7.77353 4.99585 10.4547 0.374979 0.926825 -0.0196592
6.93316 5.30755 11.4065 0.307858 0.951431 -0.00138057
6.09398 5.58471 12.3373 0.300523 0.953421 -0.0259784
5.10128 5.88981 13.4138 0.251506 0.967844 -0.00479377
4.23622 6.07926 14.3324 0.161698 0.986742 0.0139279
3.20701 6.23318 15.4093 0.117303 0.993052 -0.00938051
2.17147 6.26489 16.4692 0.0101241 0.999941 -0.00384489
1.02395 6.22731 17.6419 -0.063828 0.99779 -0.0184717
2.29789 6.27894 17.6592 -0.00655423 0.999894 -0.013027
3.19996 6.22412 16.7359 0.0381712 0.999257 0.00536634
4.28274 6.08696 15.6147 0.17477 0.984578 0.00779866
5.24564 5.85236 14.5897 0.266647 0.963674 0.015224
6.09407 5.61609 13.6724 0.302556 0.952965 -0.0177911
7.26333 5.18899 12.3656 0.344157 0.93885 -0.0107855
8.17089 4.84534 11.3327 0.374349 0.927288 0.000164729
9.07925 4.44134 10.2671 0.411383 0.91145 -0.00471375
9.21371 4.3785 10.1071 0.417759 0.90848 -0.0119175
11.5455 3.23091 8.61142 0.447023 0.894487 -0.00801671
10.6587 3.67981 9.69845 0.442266 0.896862 -0.00622103
9.73642 4.14108 10.8233 0.440517 0.897743 -0.00178581
8.93392 4.50811 11.773 0.410068 0.912055 -0.000194921
8.01229 4.90024 12.8425 0.379677 0.92501 0.0141706
7.20848 5.22093 13.7577 0.366085 0.930578 -0.00264126
6.21947 5.55173 14.8586 0.309132 0.950932 0.0128701
5.338 5.8135 15.8197 0.264514 0.964382 -0.000719926
4.3229 6.0595 16.894 0.214397 0.976399 0.026071
3.71721 6.1569 17.52 0.12417 0.992261 -0.000876044
4.84019 5.93169 17.6807 0.214607 0.976698 -0.00200662
5.81924 5.68211 16.6402 0.266902 0.963704 -0.00608107
6.7246 5.38078 15.635 0.308234 0.951308 0.00220409
7.68364 5.0362 14.5551 0.376994 0.926196 0.00609945
8.55297 4.66762 13.5538 0.403629 0.914923 0.000267809
9.37955 4.30595 12.5852 0.409678 0.912181 0.00948868
10.3392 3.84649 11.4333 0.440517 0.897742 -0.00178602
11.3042 3.36701 10.2538 0.441544 0.897152 -0.0125684
12.1054 2.94714 9.25793 0.462091 0.886817 -0.00525937
12.9763 2.48893 8.17418 0.465627 0.884981 -0.000997658
13.5526 2.18063 7.44931 0.469445 0.882961 -0.00092982
13.7292 2.0869 8.57178 0.477402 0.878681 -0.00269701
12.9122 2.5288 9.60372 0.467581 0.883939 -0.00444851
12.0972 2.96188 10.6192 0.460096 0.887848 -0.00616548
11.3055 3.36475 11.5963 0.456086 0.889909 0.0068281
10.2952 3.86262 12.8255 0.440326 0.897818 0.0060022
9.23833 4.35876 14.0852 0.413052 0.910701 -0.00339816
8.42927 4.71618 15.0299 0.394577 0.918863 -0.000334348
7.56416 5.06568 16.0226 0.361175 0.932492 0.0033351
6.48146 5.4762 17.2442 0.308206 0.951254 -0.0112186
6.30258 5.53461 17.4405 0.304606 0.952447 0.00780595
7.19387 5.21049 17.7804 0.357425 0.933784 0.0171872
8.0907 4.85434 16.7572 0.38582 0.922543 0.00756447
8.93059 4.4873 15.7807 0.40718 0.913344 0.00258109
9.73194 4.12315 14.8357 0.42538 0.905005 0.00427744
10.5158 3.74895 13.8964 0.437352 0.89929 0.000106512
11.2913 3.36471 12.9559 0.449277 0.893392 0.000917425
12.0914 2.95746 11.9697 0.465503 0.885042 0.00268582
12.8668 2.55111 11.003 0.470571 0.882362 0.000744763
13.6232 2.14691 10.0542 0.473568 0.880757 1.79797e-05
13.8473 2.02468 9.7705 0.478658 0.878001 -0.000653806
14.124 1.87356 10.7656 0.477785 0.878477 0.00027513
13.2952 2.3208 11.8133 0.472409 0.881369 0.00427511
12.4124 2.78551 12.9172 0.464687 0.885472 0.00235348
11.6296 3.19242 13.8823 0.457221 0.889349 0.00283005
10.7047 3.65627 15.013 0.451047 0.892489 0.00443552
9.92108 4.02926 15.9515 0.428986 0.903298 0.00481925
8.89673 4.50869 17.1628 0.428021 0.903769 0.000253798
8.456 4.69483 17.673 0.385874 0.92253 0.00625149
9.58075 4.18652 17.6975 0.428649 0.903462 -0.00400302
10.6579 3.67617 16.4138 0.446229 0.894901 0.00569405
11.5123 3.2454 15.3716 0.457883 0.888983 0.00718308
12.3678 2.81152 14.3148 0.457098 0.88941 0.00348909
13.1593 2.39245 13.3351 0.465343 0.88513 -0.000555138
13.9107 1.9846 12.3843 0.488103 0.872771 0.00509704
14.2551 1.79696 11.9463 0.487456 0.873099 0.00920854
14.414 1.69947 13.092 0.493989 0.869433 0.00777819
13.485 2.20678 14.265 0.486392 0.873702 0.00820232
12.6765 2.64159 15.2843 0.47438 0.880304 0.00541456
11.7714 3.10312 16.3968 0.461759 0.886992 0.00485981
11.0525 3.46918 17.2729 0.456507 0.889712 0.00372138
12.6557 2.64005 16.65 0.474172 0.880423 0.00415855
13.535 2.17251 15.5485 0.485754 0.874093 0.00209278
14.1171 1.85144 14.8124 0.485177 0.87441 0.00311358
