23.4218 29.6177 -19.5904 -0.672308 -0.738287 0.0541716
24.3424 28.7591 -19.5943 -0.686236 -0.72588 0.0466859
25.1795 27.9536 -19.6017 -0.70126 -0.711893 0.0376575
26.0025 27.137 -19.5913 -0.710905 -0.702508 0.0331173
26.715 26.4023 -19.5997 -0.723245 -0.690004 0.0284969
27.4672 25.6012 -19.5662 -0.734776 -0.677597 0.0310903
28.1628 24.836 -19.5428 -0.749198 -0.661425 0.0349119
28.7837 24.1401 -19.1742 -0.758745 -0.650916 0.0247654
28.9403 24.0048 -18.2215 -0.771866 -0.634374 0.0420539
29.4845 23.4059 -17.3086 -0.772636 -0.632256 0.057322
30.0867 22.6617 -17.026 -0.800147 -0.595154 0.0744057
30.7319 21.7983 -16.9074 -0.807641 -0.582431 0.0920875
30.8158 21.7958 -16.1836 -0.806601 -0.583954 0.0916065
30.2958 22.5907 -15.5207 -0.786763 -0.609857 0.0952837
29.7993 23.2938 -14.9848 -0.773154 -0.627599 0.0913907
29.3757 23.8809 -14.2744 -0.752672 -0.653849 0.0772487
29.3079 24.0579 -13.327 -0.749549 -0.658728 0.0651435
29.2796 24.1678 -12.1864 -0.770324 -0.634804 0.0602068
29.2708 24.2412 -11.0844 -0.795447 -0.605134 0.0328173
29.289 24.268 -9.97277 -0.810424 -0.585499 0.0169983
29.3569 24.2048 -8.99901 -0.816749 -0.576281 0.0280351
29.6831 23.7913 -8.20376 -0.814996 -0.578205 0.0382148
30.2988 22.9666 -7.82522 -0.809121 -0.585293 0.0524925
30.8778 22.1499 -8.05509 -0.803158 -0.591474 0.0713831
31.5295 21.1866 -8.62823 -0.802725 -0.590855 0.080731
31.9922 20.5189 -9.14253 -0.767473 -0.635065 0.0876203
32.7721 19.5406 -9.87542 -0.73079 -0.676672 0.0890075
33.0781 19.1142 -10.7183 -0.712567 -0.69822 0.068827
33.1527 18.9795 -11.6987 -0.702327 -0.711482 0.0230468
33.173 18.9139 -12.6486 -0.716428 -0.696977 0.0308941
33.1618 18.8775 -13.6298 -0.71614 -0.695718 0.0532468
33.1438 18.8315 -14.6274 -0.750116 -0.661028 0.0191834
33.0208 18.8954 -15.6571 -0.770292 -0.63495 0.0590617
32.8297 19.0274 -16.673 -0.766275 -0.638894 0.0680908
32.7756 18.9917 -17.6366 -0.763727 -0.643182 0.0529444
32.8037 18.9231 -18.644 -0.730491 -0.6827 0.00378113
33.0287 18.6927 -19.4588 -0.708395 -0.705729 -0.0111229
33.78 17.9398 -19.5307 -0.685277 -0.727275 -0.0199126
34.6668 17.1834 -19.6258 -0.618376 -0.7855 -0.0245303
35.4527 16.5901 -19.5855 -0.600059 -0.799909 0.00862873
36.459 15.864 -19.5517 -0.573342 -0.819262 0.00942695
37.2379 15.3308 -19.5672 -0.53737 -0.843206 0.0111376
38.1009 14.7969 -19.6186 -0.509152 -0.860651 0.00547506
39.1504 14.2078 -19.6544 -0.461419 -0.887182 -0.000930185
40.055 13.7685 -19.6241 -0.413045 -0.910703 -0.00381056
41.0633 13.3109 -19.6366 -0.404287 -0.914526 0.0139821
42.3282 12.7703 -19.6274 -0.377622 -0.925947 0.00478363
43.3351 12.3787 -19.6408 -0.344985 -0.938605 -0.00243871
44.5378 11.9628 -19.5993 -0.315531 -0.948896 -0.00606638
45.6 11.6291 -19.6759 -0.300707 -0.953671 0.00932276
46.8005 11.2868 -19.6701 -0.261428 -0.965046 0.0184773
47.7653 11.034 -19.6636 -0.236188 -0.971658 0.00701988
48.7967 10.7907 -19.6227 -0.229356 -0.973302 0.00884901
50.239 10.4889 -19.6109 -0.198345 -0.979953 0.0186882
51.2046 10.2936 -19.6641 -0.197769 -0.980009 0.0214622
52.4003 10.0948 -19.6365 -0.15734 -0.987333 0.0187541
53.6995 9.89919 -19.6442 -0.145582 -0.989251 0.0131962
54.7457 9.75845 -19.6912 -0.132838 -0.991116 0.00652835
55.697 9.64421 -19.6924 -0.114951 -0.993293 0.0118383
56.6472 9.53813 -19.7153 -0.105805 -0.99424 0.0170973
57.7029 9.43809 -19.6249 -0.0832382 -0.996399 0.0161561
58.7892 9.34715 -19.687 -0.0818061 -0.996514 0.0163788
59.8008 9.27379 -19.8228 -0.0622729 -0.998024 0.00834615
60.7839 9.21178 -19.901 -0.0579673 -0.998249 0.0106664
61.918 9.15483 -19.597 -0.0535591 -0.998493 0.0119171
62.9344 9.10738 -19.2923 -0.0487248 -0.99874 0.0119835
63.8268 9.0737 -18.7435 -0.0422582 -0.999011 0.0138082
64.5287 9.06027 -17.8837 -0.0347751 -0.999238 0.0177268
64.709 9.07393 -16.7452 -0.0346618 -0.999268 0.0161084
64.2582 9.11312 -15.3708 -0.0387116 -0.999132 0.0154034
63.6087 9.15888 -14.2894 -0.0424762 -0.998873 0.021171
62.8295 9.21339 -13.3246 -0.0433484 -0.998805 0.0225706
62.0272 9.26847 -12.4996 -0.0495129 -0.998529 0.0220477
61.2862 9.32916 -11.4739 -0.055199 -0.998246 0.0214009
60.8331 9.37714 -10.5588 -0.0619283 -0.997692 0.0278445
60.2968 9.43411 -9.66533 -0.0607055 -0.997799 0.0266844
59.819 9.49427 -8.73105 -0.0692234 -0.997115 0.0311418
59.5535 9.54509 -7.55358 -0.0698735 -0.997261 0.0242286
59.3308 9.59671 -6.20264 -0.0693965 -0.997142 0.0298756
59.2777 9.63439 -4.91989 -0.0780922 -0.996627 0.0252106
59.3977 9.65598 -3.65596 -0.0785036 -0.996634 0.0236225
59.4874 9.67684 -2.52452 -0.0781786 -0.99661 0.0256272
59.4426 9.70884 -1.26572 -0.077676 -0.996801 0.0188351
59.4993 9.73113 -0.115636 -0.0720899 -0.997049 0.0263923
59.6545 9.74792 0.989743 -0.0780263 -0.996766 0.0192119
59.7971 9.7628 2.36472 -0.0780881 -0.996777 0.0183729
60.0477 9.76669 3.57714 -0.0638899 -0.997821 0.0164963
60.3442 9.76279 4.67984 -0.0664059 -0.997742 0.0100924
60.6595 9.75457 5.66623 -0.0628047 -0.9979 0.0158253
61.2012 9.73751 6.79207 -0.0619026 -0.998011 0.0112417
61.8105 9.71052 7.57734 -0.0562836 -0.998363 0.0101374
62.6428 9.67704 8.34964 -0.0493005 -0.998703 0.012654
63.5558 9.63848 8.93375 -0.0495308 -0.998715 0.0106927
64.5676 9.60182 9.66553 -0.0415102 -0.999097 0.00902694
65.3492 9.57772 10.3973 -0.0401779 -0.999146 0.00965244
66.1367 9.55295 11.0931 -0.0356864 -0.999349 0.00535916
66.8255 9.53702 12.1456 -0.0312571 -0.999498 0.00512311
66.9725 9.53914 13.302 -0.0304831 -0.999519 0.00563405
66.9783 9.54658 14.5024 -0.0287669 -0.999567 0.0062257
66.4703 9.5661 15.3368 -0.0346609 -0.999384 0.00433694
65.8625 9.59342 16.4451 -0.0373586 -0.999296 0.0032683
65.0888 9.62446 17.1463 -0.0369628 -0.999308 0.00408735
64.2793 9.66377 17.9359 -0.0459069 -0.998927 0.00612436
63.4889 9.70533 18.5036 -0.0548321 -0.998485 0.00333923
62.6683 9.75052 18.9965 -0.0548215 -0.998496 0.000271912
61.7902 9.80156 19.371 -0.0599824 -0.998196 0.000553666
60.8437 9.86417 19.6712 -0.0685008 -0.997648 0.00256971
59.7742 9.94207 19.7599 -0.0776923 -0.996977 0.000451234
58.5702 10.0437 19.6359 -0.0889919 -0.996032 0.000760475
57.3567 10.161 19.5416 -0.10592 -0.994355 -0.00212541
56.3006 10.2783 19.6015 -0.115306 -0.993278 0.0058409
54.9821 10.4416 19.6295 -0.128844 -0.99163 0.000745312
53.7059 10.6237 19.6595 -0.143057 -0.989713 0.000391874
52.757 10.7717 19.6972 -0.171314 -0.985177 0.00307202
51.748 10.9533 19.6625 -0.181256 -0.983372 0.00957259
50.782 11.1373 19.6864 -0.193132 -0.981122 0.00743529
49.7674 11.3419 19.535 -0.205036 -0.978693 0.00702472
48.5481 11.6177 19.6043 -0.228901 -0.973416 0.00310227
47.3375 11.9125 19.5263 -0.253012 -0.967333 -0.00184831
46.2686 12.204 19.5302 -0.269187 -0.962995 0.00886569
45.2438 12.5015 19.5293 -0.279265 -0.960171 0.00901241
44.1304 12.8649 19.624 -0.321885 -0.946505 0.0198227
43.2114 13.1922 19.6287 -0.375535 -0.926651 0.0170839
21.4802 34.6958 18.5859 -0.734251 -0.678854 -0.00571929
20.6692 35.5219 18.556 -0.713444 -0.700668 0.00635545
19.8476 36.3291 18.624 -0.68526 -0.72766 0.0246966
19.0433 37.0613 18.5738 -0.659861 -0.75086 0.0180091
18.2005 37.7722 18.5243 -0.646126 -0.762751 0.0270615
17.2576 38.5126 18.5637 -0.605803 -0.794961 0.0319367
16.2933 39.1853 18.6359 -0.546171 -0.837253 0.0265381
15.0327 39.9376 18.4483 -0.477799 -0.875712 0.0695489
14.527 40.1837 17.6156 -0.493625 -0.86792 0.0462343
14.891 39.8496 16.5557 -0.403612 -0.901816 0.137234
15.6516 39.3685 15.6579 -0.463963 -0.883014 0.0703136
16.3998 38.8815 14.6188 -0.477469 -0.877074 0.0493868
16.8481 38.5479 13.7455 -0.5425 -0.839124 0.0365286
17.5421 38.0714 13.3785 -0.567937 -0.822764 0.0225002
18.2038 37.6501 14.6063 -0.595977 -0.80241 0.0308131
18.6856 37.3143 15.3967 -0.621549 -0.782531 0.0201692
19.2816 36.822 16.1418 -0.648828 -0.760867 0.0101969
19.9648 36.2117 16.8131 -0.686006 -0.727357 -0.0121593
20.6742 35.5108 17.489 -0.708094 -0.706106 -0.00410424
21.3081 34.8699 17.935 -0.713588 -0.700563 0.00181758
21.4594 34.7162 18.0768 -0.713588 -0.700563 0.00181493
21.7397 34.4301 17.2006 -0.726153 -0.687365 -0.00405339
22.422 33.6848 17.5267 -0.739346 -0.67327 -0.0072556
23.0783 32.95 17.6944 -0.751808 -0.659258 -0.0127775
23.7131 32.2073 17.9997 -0.760881 -0.648761 -0.0129684
24.4337 31.3545 18.1746 -0.763418 -0.645774 -0.0129943
25.1785 30.4708 18.2406 -0.764862 -0.644023 -0.0148234
25.8929 29.6174 18.38 -0.765698 -0.643064 -0.0131901
26.8781 28.443 18.6153 -0.764603 -0.644389 -0.0120336
27.3018 27.9314 19.1871 -0.763189 -0.646118 -0.00854797
27.8604 27.2736 18.8933 -0.764636 -0.644452 -0.00370372
28.6367 26.3553 18.8192 -0.762121 -0.647427 -0.00321098
29.3425 25.5158 18.7687 -0.761769 -0.647638 0.0130854
29.9823 24.7654 18.8115 -0.771438 -0.636253 0.00625032
30.4488 24.198 19.2869 -0.770148 -0.637845 0.0050503
29.8935 24.869 19.6056 -0.768253 -0.640104 -0.00172971
29.2729 25.6032 19.6132 -0.761909 -0.64768 -0.00227227
28.5491 26.4543 19.6487 -0.761974 -0.647601 -0.00274806
27.7755 27.3671 19.657 -0.76246 -0.646982 -0.00830544
27.1431 28.1135 19.606 -0.763918 -0.645254 -0.00879033
26.3692 29.0292 19.5973 -0.763882 -0.645277 -0.0100564
25.6291 29.9101 19.4928 -0.764729 -0.644237 -0.0121376
24.8842 30.7925 19.5411 -0.764437 -0.64461 -0.0106395
24.1757 31.6324 19.5758 -0.764668 -0.644311 -0.0120798
23.3106 32.6444 19.5651 -0.7596 -0.650226 -0.014534
22.4988 33.5708 19.4919 -0.747382 -0.664254 -0.0136741
21.6422 34.5129 19.4833 -0.734069 -0.679049 -0.00592828
20.929 35.2721 19.4912 -0.712406 -0.70169 0.0103432
19.9465 36.2678 19.5772 -0.704765 -0.709103 0.0180134
19.02 37.1238 19.5042 -0.679642 -0.732491 0.039286
17.9986 37.9794 19.5449 -0.642277 -0.765582 0.0356262
17.1498 38.6411 19.5726 -0.613202 -0.788737 0.0433301
16.076 39.4197 19.6286 -0.567983 -0.820777 0.0587359
14.9827 40.0483 19.4996 -0.489386 -0.869844 0.0601342
14.1577 40.4146 18.9739 -0.41073 -0.911298 0.0289418
13.8539 40.4875 18.066 -0.380126 -0.920016 0.0900147
13.2233 40.6115 17.1739 -0.308568 -0.94263 0.127413
13.7716 40.3429 16.4472 -0.345594 -0.933832 0.0804549
14.6837 39.8605 15.4388 -0.438189 -0.89535 0.0731178
15.505 39.3621 14.469 -0.471479 -0.87946 0.0643118
16.094 38.9926 13.3999 -0.445296 -0.893124 0.0635703
16.5912 38.6406 12.5037 -0.508239 -0.858358 0.0701002
17.0342 38.3226 11.6504 -0.527124 -0.847234 0.0597645
17.3659 38.0302 10.5582 -0.544526 -0.837394 0.0453664
17.7333 37.8579 11.6255 -0.551083 -0.83221 0.0611078
18.0733 37.6718 12.6017 -0.594861 -0.803294 0.0293088
18.4794 37.3977 13.436 -0.599051 -0.800162 0.0292896
18.9904 37.0408 14.3744 -0.634605 -0.772675 0.0105527
19.5797 36.556 15.2588 -0.646998 -0.762356 0.0137533
20.3563 35.8373 16.1053 -0.692242 -0.721627 0.00355599
21.0223 35.1668 16.7038 -0.709277 -0.704904 -0.00591152
21.5423 34.6331 17.0739 -0.716112 -0.69798 -0.00278146
-20.053 34.3381 -18.624 0.692716 -0.721077 -0.00649818
-20.6037 33.8007 -18.1251 0.708261 -0.705782 -0.00508145
-18.8161 35.4122 -16.1413 0.667651 -0.744291 -0.0165188
-17.499 36.3445 -13.9558 0.577383 -0.8156 -0.0323615
-15.6716 37.7293 -16.0673 0.520593 -0.849531 -0.0800784
-14.3781 38.6222 -18.1737 0.491668 -0.869581 -0.045735
-16.577 37.261 -18.7505 0.582395 -0.812574 -0.0232387
-18.886 35.3962 -18.6239 0.657571 -0.752593 -0.0280501
-19.9237 34.4593 -18.5831 0.67801 -0.73487 -0.0115645
-20.9514 33.42 -16.3184 0.715695 -0.698412 0.00151365
-19.5131 34.7468 -14.3812 0.666257 -0.745421 -0.0211788
-18.55 35.4418 -11.7275 0.61983 -0.783008 -0.0520437
-18.7368 35.1494 -8.99471 0.587023 -0.808369 -0.0440869
-19.0917 34.728 -6.32781 0.63633 -0.769992 -0.0441814
-19.4514 34.3362 -3.58108 0.621332 -0.782605 -0.0366433
-19.4987 34.1303 -0.858793 0.617471 -0.783887 -0.0610696
-19.7249 33.7071 1.87437 0.618731 -0.781021 -0.0847239
-20.5575 32.7551 4.14591 0.672992 -0.736723 -0.0640927
-22.2999 30.9863 5.38315 0.707458 -0.702565 -0.0759317
-24.2463 28.868 5.57869 0.747613 -0.660969 -0.0647627
-26.0759 26.833 4.44166 0.7697 -0.635674 -0.059003
-27.7768 24.847 2.82651 0.782135 -0.622443 -0.0288095
-28.8777 23.5121 0.760345 0.787548 -0.616104 -0.0135614
-29.5861 22.587 -1.75529 0.794121 -0.607657 0.0111335
-29.6987 22.3287 -4.63244 0.788237 -0.614565 0.0286691
-30.1425 21.6526 -7.31476 0.807216 -0.589974 0.018249
-31.5141 19.8031 -8.7389 0.695998 -0.712207 0.063542
-31.7993 19.5909 -11.3628 0.733529 -0.678965 -0.0298924
-31.5751 20.0731 -13.9001 0.789498 -0.595149 -0.142433
-30.1259 22.0947 -12.7608 0.824088 -0.563838 -0.0544652
-28.8728 23.9401 -13.4763 0.808717 -0.587057 -0.0366048
-27.3981 25.9857 -14.6745 0.790847 -0.611613 -0.0221494
-25.7943 28.0045 -15.5026 0.768971 -0.639254 -0.00547894
-23.9816 30.1471 -16.3159 0.757038 -0.653366 -0.00228426
-22.0036 32.324 -16.5584 0.72621 -0.687461 -0.0034673
-21.1614 33.2014 -16.3632 0.721207 -0.692697 0.00568021
6.1877 41.7495 -18.2802 -0.219017 -0.97175 -0.0754501
6.88758 41.5905 -18.5713 -0.256314 -0.962656 -0.0871523
7.34795 41.3798 -17.7208 -0.264004 -0.957949 -0.112411
6.65989 41.5838 -17.8886 -0.254118 -0.96198 -0.100092
6.32786 41.7007 -18.1696 -0.255152 -0.961762 -0.0995493
-18.1589 35.2332 -2.16188 0.562558 -0.82423 -0.064243
-18.0705 35.3551 -3.41661 0.578036 -0.815379 -0.0304135
-17.9936 35.4893 -4.44799 0.542237 -0.838628 -0.0517874
-17.8343 35.6465 -5.83166 0.532547 -0.845853 -0.0304143
-17.7766 35.7245 -6.83606 0.562341 -0.826446 -0.0275751
-17.6603 35.8535 -7.85382 0.568467 -0.821604 -0.042556
-17.9439 35.7251 -8.85746 0.582071 -0.809578 -0.076008
-18.0224 35.6033 -7.86483 0.56877 -0.82143 -0.0418628
-18.3012 35.3539 -6.74094 0.602008 -0.797285 -0.0438554
-18.4055 35.237 -5.97289 0.597297 -0.801759 -0.0204783
-18.6076 35.0443 -4.77774 0.60468 -0.795561 -0.0380155
-18.6555 34.9526 -3.6986 0.587758 -0.807715 -0.0462269
-18.6239 34.9261 -2.6739 0.589973 -0.806807 -0.0315489
-18.7067 34.7915 -1.48346 0.595872 -0.800844 -0.0566226
-18.3871 34.9762 -0.97947 0.583501 -0.808334 -0.0782447
-18.2494 35.1485 -1.83035 0.57185 -0.817892 -0.0621135
7.9266 41.61 19.5073 -0.133545 -0.991032 0.00428247
7.80354 41.6264 19.5041 -0.131822 -0.991262 0.00473001
9.02366 41.4557 17.9412 -0.133374 -0.991014 0.00922053
9.08852 41.4464 17.8947 -0.132259 -0.991126 0.0132952
-60.4748 9.05026 16.7788 0.0559256 -0.998409 -0.00713308
-59.3274 9.11926 17.959 0.0739609 -0.997221 -0.00891349
-56.8337 9.33574 17.9072 0.0970662 -0.995272 -0.00340734
-58.5356 9.19457 16.1283 0.0854754 -0.996321 -0.00620044
-60.3172 9.08693 14.279 0.0674881 -0.997605 -0.0151267
-60.6265 9.07398 13.9603 0.0567783 -0.998257 -0.016129
-60.3116 9.12573 11.6039 0.0599946 -0.998151 -0.0098017
-58.5376 9.22871 13.4588 0.0771013 -0.996955 -0.0117038
-56.7967 9.35301 15.2808 0.0952825 -0.995429 -0.00657278
-54.9215 9.54571 17.2581 0.121303 -0.992557 -0.0107866
-54.1323 9.63788 18.0993 0.133057 -0.991085 -0.00683833
-51.5492 10.0128 18.194 0.158124 -0.987271 0.0170925
-53.4236 9.7419 16.1822 0.132275 -0.991211 -0.0020834
-55.1576 9.52978 14.3303 0.125677 -0.992056 -0.00555614
-57.203 9.35026 12.1657 0.0919447 -0.995693 -0.011859
-58.9901 9.22614 10.2929 0.071596 -0.997381 -0.0102307
-60.6711 9.1405 8.54222 0.0552357 -0.998386 -0.0132366
-60.4398 9.18122 6.07656 0.0570583 -0.99834 -0.0079076
-58.7418 9.27083 7.85192 0.069182 -0.997528 -0.0123322
-56.7452 9.41552 9.95888 0.0921113 -0.995723 -0.00717449
-54.7573 9.60101 12.0553 0.115079 -0.993317 -0.00888127
-53.0131 9.8116 13.9208 0.142506 -0.989734 -0.0109166
-51.1345 10.0877 15.9583 0.174392 -0.98465 -0.00716558
-49.3453 10.4372 17.9359 0.204192 -0.978931 -0.000454842
-47.0683 10.941 17.8199 0.234723 -0.972058 0.00271619
-48.7365 10.565 15.9077 0.210725 -0.97752 -0.00700573
-50.4027 10.232 14.0493 0.180217 -0.983567 -0.0108309
-52.3352 9.92481 11.9484 0.157506 -0.987488 -0.00775341
-54.1669 9.681 9.97731 0.118648 -0.992928 0.00411564
-56.1541 9.48645 7.87225 0.0919513 -0.995727 -0.00848032
-58.0098 9.34305 5.90575 0.0844955 -0.996417 -0.0038167
-59.71 9.24066 4.13278 0.0630111 -0.997967 -0.00954638
-60.1758 9.21609 3.65305 0.0581309 -0.998285 -0.00690728
-59.8898 9.25334 1.25386 0.0570928 -0.998333 -0.00841023
-58.1689 9.35442 3.0309 0.0686099 -0.997635 -0.00421814
-56.4012 9.48932 4.87869 0.0937491 -0.995576 -0.00632511
-54.5653 9.66077 6.84089 0.112487 -0.993589 -0.0113326
-52.8398 9.86509 8.67672 0.15023 -0.988625 -0.0072516
-51.0754 10.1394 10.5865 0.172889 -0.98494 0.00179816
-49.3771 10.4462 12.4618 0.182468 -0.983211 -0.00125103
-47.4844 10.8553 14.6032 0.23164 -0.972785 -0.00567813
-45.7091 11.293 16.655 0.261334 -0.965231 -0.00581869
-44.4658 11.6664 18.1163 0.296503 -0.955024 0.00391163
-42.3122 12.3968 17.9927 0.339635 -0.940551 0.00332813
-44.0331 11.8031 15.8821 0.309094 -0.951026 -0.00332987
-45.7652 11.2885 13.8156 0.267448 -0.963535 0.0085106
-47.5753 10.8302 11.7388 0.229529 -0.973296 -0.00347607
-49.2094 10.4861 9.89826 0.207966 -0.97811 -0.00712177
-51.0168 10.1561 7.92016 0.159989 -0.987058 -0.0109908
-52.8904 9.87994 5.89573 0.152834 -0.988218 -0.00815708
-54.683 9.66123 3.96844 0.119875 -0.992765 -0.00697237
-56.4201 9.50866 2.15457 0.0953601 -0.995419 -0.00695424
-58.2516 9.36685 0.244365 0.0766252 -0.997029 -0.00782228
-59.8314 9.27433 -1.38803 0.0608116 -0.998103 -0.00956146
-59.8224 9.29463 -4.11257 0.0571807 -0.998354 -0.00434103
-58.1002 9.3986 -2.31668 0.080972 -0.996711 -0.00334764
-56.2116 9.54325 -0.349079 0.0922991 -0.995701 -0.00778564
-54.4861 9.70983 1.46551 0.12035 -0.992687 -0.00935124
-52.7653 9.9167 3.29639 0.143006 -0.989669 -0.010195
-51.0645 10.1716 5.13057 0.165001 -0.986274 -0.00614979
-49.2639 10.481 7.09809 0.184615 -0.982764 -0.00957944
-47.5641 10.8498 8.98358 0.221336 -0.975177 0.00638051
-45.9707 11.25 10.8011 0.271477 -0.962437 -0.00384533
-44.4064 11.7049 12.6542 0.300539 -0.953689 -0.0123934
-42.5147 12.3374 14.9646 0.352866 -0.935631 -0.00900953
-40.9688 12.9156 16.8991 0.401674 -0.915752 -0.00753702
-40.0803 13.3341 18.0586 0.450304 -0.892874 0.00153868
-38.2076 14.287 17.8379 0.484152 -0.874887 -0.0130036
-39.6007 13.5669 15.8854 0.47979 -0.877376 -0.00352529
-41.0659 12.919 13.9751 0.420754 -0.907167 0.00383213
-42.7957 12.2569 11.8116 0.358043 -0.933538 -0.0176605
-44.3468 11.7401 9.92661 0.316682 -0.94853 0.0018025
-45.9712 11.2563 8.02838 0.272196 -0.962193 -0.00969943
-47.7967 10.808 5.96889 0.236648 -0.971517 -0.0123229
-49.7657 10.425 3.79242 0.195604 -0.98065 -0.0081079
-51.631 10.0955 1.76857 0.15573 -0.98777 -0.0076054
-53.3539 9.86108 -0.068667 0.125802 -0.992051 -0.00298075
-55.2577 9.64959 -2.07172 0.109129 -0.993951 -0.012365
-57.0184 9.49365 -3.91823 0.0864361 -0.996229 -0.00753226
-58.758 9.36909 -5.72028 0.0718729 -0.997391 -0.00673104
-59.8487 9.30161 -6.84118 0.0572983 -0.998315 -0.0091491
-59.965 9.30406 -9.66771 0.055187 -0.998474 -0.00221444
-58.2517 9.41695 -7.89353 0.0752931 -0.997147 -0.00541534
-56.5049 9.55721 -6.09243 0.0896196 -0.995975 0.00110471
-54.6408 9.73461 -4.14691 0.12266 -0.992429 -0.00632361
-52.9414 9.9333 -2.36026 0.140363 -0.989969 -0.0161367
-51.0822 10.199 -0.39182 0.177181 -0.984169 0.004381
-49.34 10.516 1.50038 0.194704 -0.98083 -0.00788047
-47.4786 10.9178 3.53507 0.234125 -0.972201 0.00339485
-45.8173 11.3354 5.42295 0.262425 -0.964874 -0.012281
-44.1716 11.8085 7.32452 0.307906 -0.951416 -0.000902426
-42.624 12.3416 9.19968 0.354202 -0.935161 -0.00390046
-41.1134 12.9265 11.096 0.394477 -0.918766 -0.0160433
-39.5452 13.6657 13.1605 0.45775 -0.888921 -0.0168777
-38.13 14.4032 15.1543 0.500456 -0.865624 -0.0154666
-36.8159 15.1557 17.0936 0.563202 -0.82589 -0.026627
-36.4214 15.4067 17.7145 0.561847 -0.826952 -0.0218913
-34.5828 16.7244 17.8623 0.610462 -0.790955 -0.041561
-35.9008 15.8398 15.6657 0.596409 -0.801818 -0.0371994
-37.3637 14.9147 13.4256 0.545582 -0.837383 -0.0336294
-38.7224 14.1352 11.4567 0.484791 -0.874555 -0.0114668
-40.1168 13.4215 9.54244 0.444125 -0.895498 -0.0289138
-41.77 12.6977 7.42692 0.37512 -0.926958 -0.00585812
-43.4536 12.0696 5.37824 0.337589 -0.941278 -0.00543313
-45.1565 11.5209 3.37061 0.285663 -0.958292 0.00856165
-46.7687 11.0845 1.55681 0.237665 -0.971345 0.00217367
-48.494 10.7127 -0.334297 0.21055 -0.977536 -0.00960811
-50.2438 10.3616 -2.23817 0.179816 -0.983693 -0.00368749
-51.9316 10.1076 -4.02694 0.151257 -0.988457 -0.00862316
-53.8073 9.85373 -5.99887 0.124281 -0.992228 -0.00615361
-55.7383 9.64095 -8.01572 0.102604 -0.994699 -0.00685973
-57.7659 9.46229 -10.1093 0.0760814 -0.997094 -0.00392904
-59.6885 9.33249 -12.0886 0.062702 -0.998022 -0.00453598
-60.2864 9.29427 -12.7029 0.0592624 -0.998242 -0.000379718
-33.0104 18.0542 17.6962 0.703312 -0.708052 -0.0633551
-34.1671 17.1651 15.6498 0.664067 -0.747193 -0.0267871
-35.392 16.2859 13.6205 0.607153 -0.794188 -0.0250928
-36.6968 15.4135 11.5686 0.568628 -0.822469 -0.0143886
-38.037 14.5944 9.57294 0.513795 -0.857436 -0.0286094
-39.4823 13.7722 7.53966 0.470506 -0.881945 -0.028215
-41.104 12.9944 5.42946 0.395635 -0.918404 0.0027649
-42.6767 12.3606 3.48337 0.338933 -0.940803 -0.00381415
-44.3818 11.7766 1.47213 0.308731 -0.951141 0.00410793
-46.0071 11.3019 -0.35956 0.259277 -0.965744 -0.0106536
-47.7155 10.8867 -2.26472 0.225656 -0.974195 0.00478478
-49.47 10.5289 -4.15591 0.184964 -0.982677 -0.0115969
-51.4169 10.2077 -6.23837 0.165949 -0.98605 -0.0128991
-53.2483 9.94215 -8.15661 0.143147 -0.989669 -0.00797728
-55.1929 9.70762 -10.156 0.111076 -0.993785 -0.00730167
-57.2381 9.52198 -12.268 0.0869611 -0.996192 -0.00625031
-59.1383 9.3712 -14.2069 0.0764886 -0.997069 -0.00167585
-61.0972 9.24392 -16.1905 0.0599449 -0.998201 -0.000674834
-61.5495 9.22029 -16.6475 0.050455 -0.998722 -0.00287801
-60.1849 9.30913 -17.9249 0.061679 -0.998095 -0.00174004
-58.4404 9.42479 -16.1821 0.0838347 -0.996434 0.00954625
-56.569 9.59171 -14.2801 0.102581 -0.994723 -0.00206709
-54.7767 9.77298 -12.4416 0.116742 -0.993117 -0.00946026
-52.8418 10.0129 -10.4498 0.140292 -0.990104 -0.00355452
-51.1182 10.2666 -8.6556 0.175885 -0.984332 -0.0124656
-49.3959 10.5704 -6.83935 0.181856 -0.98332 -0.00311267
-47.6935 10.9082 -5.0057 0.215785 -0.976429 -0.00490907
-45.7898 11.365 -2.92663 0.256892 -0.96644 -0.000551256
-44.0239 11.8882 -0.906109 0.317207 -0.948353 -0.00243721
-42.3765 12.4621 0.997599 0.347143 -0.937779 0.00787049
-40.7884 13.1445 2.97428 0.415658 -0.909414 0.0139714
-39.2942 13.8665 4.91245 0.465072 -0.885249 0.00652014
-37.654 14.8611 7.23682 0.540751 -0.84118 -0.00205322
-36.2861 15.7598 9.29818 0.569589 -0.821614 -0.0227698
-34.8196 16.8223 11.6467 0.660869 -0.749684 -0.0350038
-33.5621 17.8274 13.8376 0.684465 -0.728124 -0.0366384
-32.4519 18.7756 15.8762 0.717272 -0.694584 -0.0554423
-31.1965 20.1785 15.5132 0.750169 -0.659164 -0.0524313
-32.3035 19.1151 13.2996 0.718031 -0.694357 -0.047951
-33.4601 18.1033 11.1843 0.685936 -0.726489 -0.0412841
-34.64 17.1116 9.10808 0.662266 -0.747628 -0.0495599
-35.8599 16.1706 7.10572 0.638405 -0.769662 -0.00769245
-37.1179 15.2043 5.11186 0.56961 -0.821878 0.00782057
-38.5747 14.2629 3.01338 0.488563 -0.872326 -0.0188162
-40.1527 13.439 0.92071 0.460127 -0.887833 -0.00602732
-41.7059 12.7197 -1.00648 0.388751 -0.920096 -0.0479085
-43.546 12.0604 -3.1803 0.325685 -0.945476 -0.00189515
-45.4993 11.4664 -5.37423 0.267535 -0.963197 -0.0260113
-47.3126 11.0227 -7.35986 0.233955 -0.972137 -0.0146395
-49.0416 10.6711 -9.19481 0.205215 -0.978682 -0.00824822
-50.8638 10.3334 -11.1098 0.178259 -0.983976 -0.00390658
-52.5937 10.0648 -12.9063 0.14475 -0.989405 -0.0111643
-54.3638 9.83729 -14.7235 0.125301 -0.992117 -0.00181325
-56.1334 9.65009 -16.5098 0.104597 -0.994463 -0.0100972
-57.5872 9.51269 -17.9733 0.0882054 -0.996063 -0.00889194
-54.7841 9.814 -17.8135 0.121333 -0.992579 -0.00807156
-52.8273 10.059 -15.834 0.15035 -0.988569 -0.0112332
-51.0815 10.326 -14.057 0.170773 -0.985226 -0.012857
-49.1804 10.66 -12.0868 0.199215 -0.979915 -0.00897934
-47.3596 11.0469 -10.165 0.22133 -0.975152 -0.00959203
-45.5777 11.4855 -8.22978 0.264313 -0.964323 -0.014819
-43.8762 11.9655 -6.33779 0.314934 -0.949089 -0.00683584
-42.2739 12.5124 -4.5105 0.3533 -0.934928 0.0330061
-40.7091 13.1645 -2.62305 0.420404 -0.906995 -0.0249066
-39.2433 13.9178 -0.745974 0.505364 -0.862657 0.0207368
-37.7869 14.8045 1.25639 0.527263 -0.849672 -0.0071797
-36.4431 15.6642 3.2035 0.61014 -0.79226 -0.00729111
-35.0538 16.8437 5.51295 0.649712 -0.76018 -0.00127134
-33.8589 17.8784 7.57929 0.660356 -0.750486 -0.0264666
-32.6116 19.0044 9.86955 0.711842 -0.701852 -0.026175
-31.4998 20.0509 12.0408 0.731565 -0.680803 -0.0363314
-30.2823 21.2981 14.5686 0.765968 -0.642169 -0.0302032
-29.9662 21.6418 15.2747 0.774852 -0.631481 -0.0289108
-28.4357 23.4751 15.7333 0.76028 -0.649589 0.00298321
-29.4206 22.3363 13.4613 0.756631 -0.653497 -0.0212363
-30.4524 21.244 11.2552 0.747778 -0.663513 -0.0240308
-31.5272 20.1737 9.07878 0.733192 -0.679422 -0.0285603
-32.6203 19.0942 6.94573 0.710266 -0.703923 -0.00368834
-33.8921 17.8821 4.58317 0.691485 -0.722297 -0.0116104
-35.2355 16.678 2.24649 0.654697 -0.75589 -0.0014101
-36.6859 15.5366 -0.0385651 0.585899 -0.810296 0.0119702
-38.2568 14.4917 -2.27649 0.519726 -0.854206 0.0147186
-39.7494 13.638 -4.27286 0.467379 -0.884032 -0.00666427
-41.5507 12.8101 -6.4705 0.390984 -0.920384 -0.00503732
-43.5292 12.1073 -8.75111 0.314746 -0.949125 -0.00978454
-45.3802 11.5643 -10.795 0.267316 -0.963541 -0.0114452
-47.2124 11.1077 -12.7732 0.225412 -0.974261 0.00224265
-49.0612 10.7096 -14.6976 0.200205 -0.979686 -0.0115079
-50.8979 10.3785 -16.5823 0.165545 -0.986195 -0.00365357
-52.1068 10.1862 -17.8034 0.153857 -0.988063 -0.0077768
-49.4158 10.6576 -17.7807 0.194072 -0.980972 -0.00540402
-47.4943 11.0541 -15.8146 0.222997 -0.974797 -0.00650235
-45.4676 11.5611 -13.6823 0.281384 -0.959579 -0.00549723
-43.8092 12.0489 -11.8782 0.313925 -0.949444 -0.00271607
-42.1968 12.6014 -10.054 0.344987 -0.938398 -0.0198025
-40.3616 13.3203 -7.89167 0.411212 -0.911428 0.0143119
-38.8232 14.1185 -5.92803 0.500936 -0.865296 0.0180739
-37.3722 15.034 -3.94107 0.561556 -0.826862 0.03088
-36.0841 15.9637 -2.03862 0.60353 -0.797319 -0.00575614
-34.8883 16.9733 -0.102379 0.645122 -0.763141 0.0378678
-33.6313 18.149 2.09647 0.701663 -0.712452 0.00902192
-32.3581 19.4171 4.48851 0.725033 -0.68866 -0.0086103
-31.273 20.5283 6.62503 0.74053 -0.671577 -0.0244843
-30.0954 21.7503 9.01537 0.751192 -0.659348 -0.0311659
-29.0514 22.849 11.233 0.757429 -0.65231 -0.0281549
-28.0978 23.8843 13.3181 0.757086 -0.653178 -0.0133951
-27.1152 24.9929 15.5114 0.744367 -0.667771 0.000106722
-25.9947 26.1962 17.9281 0.72505 -0.688688 -0.00339127
-24.4501 27.7592 17.8924 0.705492 -0.708622 -0.0116874
-25.6649 26.5609 15.458 0.726943 -0.686642 -0.00879056
-26.6426 25.5424 13.3891 0.7451 -0.666684 -0.0189348
-27.7992 24.3199 10.9261 0.756745 -0.652876 -0.0329959
-28.7992 23.2639 8.80711 0.760269 -0.648679 -0.0347283
-29.765 22.2375 6.75125 0.759253 -0.650115 -0.0297444
-30.7851 21.1418 4.64266 0.753751 -0.657008 -0.01415
-31.7896 20.049 2.61284 0.7346 -0.678491 0.00344872
-32.8999 18.8364 0.449723 0.711984 -0.702106 0.0112467
-34.1342 17.5685 -1.82957 0.676121 -0.736245 0.0283606
-35.3467 16.5108 -3.82419 0.620383 -0.78417 0.0142105
-36.6669 15.4871 -5.82218 0.579634 -0.814867 0.00412493
-38.0377 14.5728 -7.73838 0.512039 -0.858956 -0.00308571
-39.4493 13.767 -9.60476 0.45158 -0.892113 -0.0144557
-41.0244 13.0732 -11.5222 0.359327 -0.933058 0.0169115
-42.7076 12.4367 -13.4586 0.331248 -0.943488 -0.0102249
-44.4747 11.8637 -15.3677 0.297897 -0.954575 -0.00661955
-46.2081 11.39 -17.1731 0.265543 -0.96406 -0.00866866
-47.006 11.1937 -18.0076 0.241018 -0.970328 -0.0193327
-44.3887 11.9276 -18.0017 0.296822 -0.95493 -0.00237346
-42.5808 12.4993 -16.096 0.331281 -0.943472 -0.0107079
-40.9294 13.1313 -14.2166 0.397119 -0.91776 -0.00358082
-39.139 13.9462 -12.0642 0.428594 -0.903491 -0.00335196
-37.6508 14.7679 -10.1196 0.537122 -0.843253 -0.0206156
-36.3335 15.6896 -8.24582 0.594624 -0.804003 0.00125063
-35.0195 16.71 -6.25335 0.627432 -0.778595 0.0109028
-33.7958 17.8247 -4.24048 0.677406 -0.735436 0.0159791
-32.6599 18.9971 -2.15886 0.719763 -0.693936 0.0198501
-31.5416 20.274 0.0597052 0.753103 -0.657767 0.0133646
-30.5601 21.4241 2.10331 0.761602 -0.648044 -0.00137559
-29.4799 22.6799 4.4053 0.766904 -0.641343 -0.02318
-28.5152 23.7336 6.43293 0.766723 -0.640936 -0.0365697
-27.4502 24.8559 8.69266 0.761368 -0.646678 -0.0461029
-26.3634 25.9634 10.9777 0.75244 -0.657188 -0.0440201
-25.317 27.0053 13.098 0.734572 -0.677327 -0.0403994
-24.2409 28.0472 15.2403 0.711756 -0.701931 -0.0263931
-23.012 29.1722 17.5678 0.690115 -0.723188 -0.0271972
-22.961 29.2163 17.6598 0.684318 -0.728582 -0.0296103
-21.1045 30.9072 17.9537 0.661997 -0.748406 -0.0405975
-22.3663 29.8756 15.7613 0.687828 -0.724304 -0.0477113
-23.6657 28.7354 13.3775 0.713371 -0.699156 -0.0477725
-24.7203 27.7675 11.3486 0.732168 -0.678755 -0.0567592
-25.746 26.7906 9.27847 0.753259 -0.655068 -0.0590493
-26.7811 25.7624 7.14036 0.762715 -0.644551 -0.0531077
-27.1921 25.339 6.28173 0.768742 -0.637671 -0.0491089
-25.1626 27.6271 7.53688 0.753268 -0.654529 -0.0646422
-24.1195 28.5816 9.60001 0.735817 -0.673693 -0.068644
-22.9738 29.5732 11.7673 0.716706 -0.69471 -0.0609198
-21.7677 30.5747 13.9113 0.687246 -0.724367 -0.0546371
-20.3975 31.6501 16.2438 0.658229 -0.750202 -0.0626981
-19.3226 32.4454 17.9711 0.641235 -0.765455 -0.053817
-17.5815 33.8676 17.8159 0.613902 -0.787138 -0.0594865
-19.0551 32.8658 15.5605 0.641328 -0.763968 -0.07107
-20.4282 31.8706 13.3564 0.663589 -0.743455 -0.0832067
-21.6322 30.9522 11.3092 0.692034 -0.717906 -0.0755014
-22.8051 30.0213 9.22503 0.715762 -0.693918 -0.0784978
-23.3836 29.5345 8.14645 0.723654 -0.686797 -0.0680707
-21.9401 31.0361 7.95321 0.703705 -0.705061 -0.087678
-20.6201 32.0362 10.2305 0.683284 -0.726142 -0.0764244
-19.4151 32.8929 12.2047 0.653355 -0.751835 -0.0887241
-18.1361 33.7586 14.1865 0.629833 -0.772274 -0.0830843
-16.7531 34.653 16.2417 0.608505 -0.789943 -0.0755782
-15.6493 35.357 17.8449 0.605658 -0.792892 -0.067081
-13.884 36.7272 17.5637 0.607754 -0.791467 -0.0649214
-15.3392 35.7979 15.5186 0.600652 -0.79602 -0.0746228
-16.7988 34.8968 13.4292 0.602668 -0.793658 -0.0830507
-18.3581 33.9124 11.0825 0.631845 -0.771658 -0.0729124
-19.5994 33.0671 9.11849 0.655781 -0.75055 -0.081402
-20.6291 32.3511 7.42122 0.66 -0.746819 -0.0816201
-19.5731 33.3846 6.37102 0.640179 -0.764456 -0.0760137
-18.1925 34.3032 8.56161 0.623902 -0.777605 -0.0779501
-16.8691 35.1328 10.5722 0.60221 -0.794711 -0.0760139
-15.5198 35.9422 12.536 0.586238 -0.806382 -0.0779298
-14.114 36.7998 14.5095 0.591091 -0.804206 -0.0621556
-12.9255 37.5933 16.1598 0.610506 -0.790343 -0.0513724
-11.5306 38.7517 15.439 0.624083 -0.781333 -0.00618033
-12.8734 37.759 13.5036 0.585858 -0.809758 -0.0325933
-14.5003 36.7684 11.2293 0.56225 -0.824312 -0.0662193
-15.9118 35.9585 9.21802 0.556951 -0.82782 -0.0672363
-16.2225 35.7749 8.7626 0.575437 -0.816716 -0.0429832
-13.1956 37.6649 10.2785 0.517429 -0.855414 -0.0231117
-11.7174 38.5419 12.3301 0.522377 -0.852713 0.00165493
-10.4149 39.482 14.2057 0.522625 -0.846478 0.101672
-9.79632 39.9939 15.1501 0.532113 -0.837084 0.127071
-9.51929 39.8476 12.5087 0.459482 -0.882485 0.100477
-10.9579 38.9349 10.5304 0.474108 -0.880284 0.017963
-31.2518 20.5255 -2.36942 0.755821 -0.65446 0.0204268
-32.5568 19.0106 -5.00942 0.723949 -0.688775 0.038548
-33.8874 17.6576 -7.33936 0.655496 -0.753659 0.0482013
-35.2887 16.4401 -9.60389 0.596868 -0.802338 0.00181523
-36.9549 15.2517 -12.0459 0.542123 -0.839956 0.024011
-38.7313 14.1982 -14.4 0.476036 -0.879103 -0.0238161
-40.5701 13.2987 -16.6291 0.402477 -0.9153 -0.0154215
-41.7467 12.8309 -17.9606 0.359757 -0.933006 -0.00862986
-39.2026 13.9585 -17.8635 0.455611 -0.890079 -0.0133303
-37.4594 14.9464 -15.6797 0.50208 -0.864809 -0.00452478
-35.9061 15.9142 -13.5259 0.588543 -0.807773 0.0334456
-34.5238 17.0123 -11.3582 0.605601 -0.795768 0.00123805
-33.4532 17.9385 -9.59677 0.663956 -0.747545 0.0184209
-33.493 17.8611 -12.6413 0.678931 -0.733292 -0.0365461
-34.9443 16.7104 -15.0059 0.652113 -0.758011 -0.012995
-36.3737 15.6219 -17.1977 0.593533 -0.804798 0.00436549
-36.8861 15.3157 -17.8749 0.543129 -0.837675 -0.0575473
-34.8578 16.8514 -17.8738 0.678935 -0.734198 0.00106622
-33.5335 18.0062 -15.656 0.692041 -0.721333 -0.0275129
-33.0955 18.4119 -14.844 0.729392 -0.682142 -0.0516773
-28.7981 24.3318 -16.8371 0.79528 -0.605123 -0.036828
-28.68 24.4644 -16.5422 0.794245 -0.605752 -0.0473261
-27.6881 25.7503 -17.4549 0.776266 -0.629573 -0.0324055
-27.9475 25.463 -18.0872 0.775036 -0.631052 -0.0330592
-18.9645 35.3126 -17.9874 0.662183 -0.74916 -0.0164989
-17.9627 36.1258 -16.2904 0.632816 -0.772164 -0.057507
-17.203 36.6231 -15.1373 0.59707 -0.800387 -0.053734
-16.1032 37.4628 -16.3615 0.550964 -0.832867 -0.0526399
-17.2281 36.7385 -18.049 0.60988 -0.792274 -0.0186431
-15.3431 38.0743 -18.0802 0.511031 -0.859018 -0.0305949
-15.046 38.2222 -17.6806 0.485147 -0.873711 -0.0355085
15.9814 39.2309 16.2035 -0.514689 -0.853844 0.0777504
17.1516 38.5615 17.8554 -0.603532 -0.796553 0.0353929
18.7951 37.2398 17.5812 -0.645956 -0.76327 0.0126402
17.5797 38.1556 15.6371 -0.60474 -0.795749 0.0327542
16.9738 38.5206 14.7697 -0.554263 -0.831411 0.0393471
9.25187 40.2118 -8.67159 -0.306865 -0.95133 0.0283858
8.85072 40.3272 -9.13828 -0.308608 -0.950556 0.0347069
9.56995 40.0191 -11.0573 -0.358325 -0.933568 0.00734404
10.9985 39.5463 -9.34006 -0.371201 -0.926149 0.0667719
11.6425 39.3346 -8.56145 -0.383802 -0.921777 0.0549793
9.02958 40.3306 -14.6635 -0.439967 -0.897382 -0.0336855
10.4292 39.6137 -12.8086 -0.433264 -0.90099 0.0223259
11.8749 39.0204 -10.9795 -0.445271 -0.891426 0.0842271
13.3521 38.4662 -9.1304 -0.456814 -0.883134 0.106747
14.7587 37.9716 -7.37237 -0.482148 -0.869006 0.111182
15.1433 37.8216 -6.87709 -0.482291 -0.869315 0.108107
17.1168 36.6414 -6.92701 -0.550891 -0.827719 0.106776
15.6435 37.2629 -8.8754 -0.525676 -0.841977 0.121408
14.2321 37.8061 -10.6761 -0.488266 -0.865037 0.11536
12.7272 38.4178 -12.594 -0.492654 -0.866667 0.0786172
11.3272 39.0692 -14.4102 -0.504461 -0.863365 0.0109438
10.4523 39.5614 -15.6089 -0.516659 -0.85583 0.024859
12.1235 38.3911 -16.0185 -0.552774 -0.825962 0.110576
13.4699 37.7535 -14.2747 -0.531436 -0.837894 0.124542
15.0366 37.0973 -12.2796 -0.522025 -0.84037 0.145837
16.4734 36.524 -10.4189 -0.539434 -0.829811 0.142917
17.7805 35.9294 -8.6321 -0.567975 -0.811495 0.137403
17.9129 35.8642 -8.44332 -0.586995 -0.798252 0.135024
19.0338 34.8468 -9.45024 -0.603721 -0.783397 0.147681
17.5783 35.562 -11.5246 -0.572214 -0.806534 0.148573
16.229 36.1574 -13.3358 -0.544178 -0.826347 0.144986
14.7583 36.7763 -15.2359 -0.536331 -0.831433 0.145149
13.4155 37.3752 -16.949 -0.543557 -0.83067 0.120553
14.6932 36.4023 -17.9731 -0.540117 -0.835568 0.100496
16.1089 35.7454 -16.1035 -0.546045 -0.828759 0.122445
17.5722 35.0907 -14.1497 -0.564435 -0.811926 0.148962
18.8952 34.4452 -12.2823 -0.614734 -0.775468 0.144054
20.1392 33.7859 -10.4343 -0.630436 -0.763208 0.141645
20.1726 33.7679 -10.3837 -0.630559 -0.762782 0.143381
21.2829 32.6565 -11.3193 -0.655619 -0.741469 0.142785
20.0975 33.3317 -13.1558 -0.62904 -0.767132 0.125769
18.7194 34.0728 -15.1921 -0.59556 -0.792651 0.130435
17.4314 34.7202 -16.9947 -0.564576 -0.817543 0.113476
16.7359 35.0673 -17.9483 -0.546275 -0.83191 0.0975139
18.6834 33.7046 -17.9585 -0.588251 -0.803475 0.0915872
19.9893 32.9536 -16.0192 -0.618761 -0.778057 0.108457
21.2803 32.181 -14.0084 -0.653126 -0.747852 0.118924
22.4348 31.4645 -12.1343 -0.672759 -0.728037 0.131748
22.7601 31.2561 -11.5852 -0.680385 -0.721345 0.129373
24.2349 29.7832 -11.7585 -0.705432 -0.699579 0.113819
23.1381 30.5388 -13.6781 -0.684617 -0.719143 0.118879
21.9576 31.3391 -15.6661 -0.666791 -0.739806 0.0898693
20.6999 32.1629 -17.6941 -0.62957 -0.7723 0.0848139
20.6155 32.2186 -17.8278 -0.62812 -0.77461 0.0737842
22.3731 30.7215 -17.8168 -0.662358 -0.745762 0.0715597
23.535 29.877 -15.8126 -0.686288 -0.722684 0.0820733
24.7554 28.9709 -13.623 -0.707397 -0.699849 0.0989983
25.9006 28.1011 -11.487 -0.73247 -0.673304 0.100744
26.1723 27.8841 -10.9621 -0.732433 -0.673319 0.100913
28.4187 25.4528 -9.15993 -0.788897 -0.61327 0.0392771
27.5164 26.3577 -11.1708 -0.752599 -0.654493 0.0723473
26.4461 27.2623 -13.3116 -0.733594 -0.673646 0.0896761
25.419 28.0824 -15.2648 -0.710083 -0.699149 0.0835015
24.3118 28.9683 -17.3241 -0.700258 -0.710457 0.0699173
23.9795 29.2313 -17.925 -0.686614 -0.724269 0.063207
25.4878 27.7411 -18.1038 -0.704086 -0.708118 0.053209
26.6458 26.752 -15.8426 -0.722637 -0.687801 0.0687372
27.7142 25.8214 -13.6922 -0.741058 -0.666515 0.0811779
28.2483 25.35 -12.5931 -0.752077 -0.654443 0.0779962
28.5416 24.7651 -14.9307 -0.745639 -0.662972 0.0670118
27.5454 25.6768 -17.041 -0.737743 -0.672481 0.0592015
27.0702 26.1119 -18.0214 -0.729521 -0.682026 0.0513753
36.4194 17.003 17.8502 -0.605157 -0.796101 -0.00292219
35.6693 17.6797 16.5509 -0.652768 -0.757065 -0.0273343
36.904 16.6168 15.6606 -0.621044 -0.783698 0.0110247
38.2235 15.7017 17.5697 -0.563523 -0.825941 -0.0162328
38.4299 15.5551 17.8614 -0.563607 -0.825887 -0.0160576
40.621 14.3131 17.8077 -0.441689 -0.896715 0.0285282
39.1145 15.1317 15.918 -0.491299 -0.870724 0.0215924
37.7418 15.9887 14.0333 -0.576214 -0.817131 -0.0165765
37.6613 16.0479 13.9138 -0.573871 -0.818929 0.00525048
38.3793 15.5367 12.1303 -0.510709 -0.859207 -0.0306528
39.8022 14.7 14.0058 -0.493092 -0.86982 0.0165498
41.3184 13.9424 15.863 -0.417797 -0.908492 0.00936019
42.9834 13.2641 17.7814 -0.372238 -0.92813 0.00368811
43.3239 13.1321 18.1613 -0.326511 -0.945193 -0.000428531
45.7073 12.3574 18.0071 -0.27519 -0.96139 -0.000610967
43.8479 12.9296 16.0068 -0.323078 -0.946358 -0.00529216
42.3015 13.5126 14.256 -0.37856 -0.925576 -0.000867675
40.7606 14.1881 12.4299 -0.406515 -0.913616 0.00721236
39.3387 14.9722 10.6432 -0.488714 -0.872359 0.0122277
38.6455 15.3714 9.75402 -0.546883 -0.836842 0.0247949
38.6676 15.3038 7.0989 -0.525677 -0.850678 -0.00313708
40.1797 14.4835 8.96826 -0.467044 -0.88395 0.022409
41.7331 13.7082 10.8433 -0.422462 -0.905885 0.029983
43.3769 13.0848 12.7307 -0.343067 -0.939221 0.0130001
45.0875 12.5151 14.6278 -0.317959 -0.948083 0.00635269
46.8463 12.0289 16.5087 -0.254949 -0.9669 0.0102546
48.3682 11.6561 18.089 -0.234278 -0.972138 0.0078258
51.0329 11.077 18.142 -0.187919 -0.982161 0.00678054
49.219 11.4426 16.2775 -0.219726 -0.975532 0.00761982
47.4999 11.8338 14.4871 -0.250255 -0.968091 0.0131012
45.7755 12.2846 12.643 -0.278346 -0.960061 0.0284062
43.9722 12.845 10.6604 -0.326964 -0.944898 0.0161872
42.3966 13.4205 8.87358 -0.390979 -0.919944 0.0289546
40.7829 14.1273 6.98349 -0.443625 -0.896118 0.0130189
39.0961 14.9823 4.93056 -0.519523 -0.854307 0.0160089
37.7029 15.8225 3.11316 -0.568168 -0.822026 0.0381812
36.3381 16.7793 1.16062 -0.653109 -0.755736 0.0480898
35.1751 17.78 -0.731587 -0.70937 -0.70314 0.0488757
34.0652 18.7908 -2.73222 -0.740326 -0.670517 0.048223
33.0468 19.7968 -4.68913 -0.757299 -0.650548 0.0573192
31.9046 20.9406 -6.88916 -0.770033 -0.631396 0.091592
31.8738 20.9697 -6.94756 -0.78126 -0.618559 0.0837677
32.9548 19.604 -7.62788 -0.745143 -0.661317 0.0861502
34.1595 18.5113 -5.43327 -0.720289 -0.692134 0.0462009
35.4259 17.3886 -3.20505 -0.68535 -0.726645 0.0477756
36.6145 16.4067 -1.22797 -0.649395 -0.758616 0.0528097
37.9258 15.554 0.656383 -0.586149 -0.809626 0.0306
39.5338 14.6617 2.73883 -0.470732 -0.881081 0.0459053
41.0851 13.9243 4.60114 -0.429727 -0.902843 0.0144478
42.8174 13.2202 6.61947 -0.368419 -0.929455 0.0195078
44.3749 12.6667 8.39026 -0.32356 -0.946167 0.00878668
46.0071 12.1831 10.1745 -0.281733 -0.959357 0.016155
47.6474 11.7578 11.9285 -0.241201 -0.970255 0.0206585
49.4356 11.3647 13.8104 -0.212307 -0.977084 0.0152326
51.203 11.0235 15.6445 -0.186527 -0.982436 0.0052365
52.8663 10.7455 17.3464 -0.162868 -0.986579 0.0116131
53.6398 10.6279 18.134 -0.146783 -0.989148 0.00640815
55.9852 10.3055 17.8402 -0.117466 -0.993066 0.00467586
54.1345 10.5383 15.9724 -0.140133 -0.990107 0.00709994
52.3686 10.8018 14.1637 -0.167447 -0.985735 0.0169702
50.6916 11.0855 12.4259 -0.187697 -0.982065 0.017862
48.9618 11.413 10.6166 -0.21954 -0.975424 0.0187104
47.1412 11.8381 8.68365 -0.251261 -0.967864 0.0103388
45.3872 12.3117 6.76767 -0.292278 -0.956034 0.0239083
43.6749 12.8453 4.86003 -0.335132 -0.941829 0.0253798
42.1179 13.406 3.07605 -0.397895 -0.917389 0.00879467
40.5507 14.0814 1.20153 -0.436841 -0.899308 0.0203775
38.8481 14.9303 -0.956291 -0.517176 -0.855519 0.024829
37.4689 15.746 -2.8694 -0.580521 -0.813736 0.0287729
36.1226 16.6996 -4.94022 -0.632608 -0.773668 0.0352954
34.7904 17.7456 -7.15587 -0.698795 -0.712666 0.0615915
33.7955 18.5696 -8.91751 -0.709616 -0.701989 0.0604798
34.1985 18.0013 -11.0801 -0.682298 -0.730215 0.0354322
35.3186 17.1245 -9.12542 -0.629134 -0.776528 0.0345558
36.6201 16.2064 -7.04333 -0.58866 -0.807376 0.0402906
37.9769 15.3025 -5.00206 -0.555954 -0.830843 0.0248108
39.5326 14.4501 -2.8843 -0.460705 -0.887346 0.0191583
41.2172 13.6898 -0.77088 -0.418097 -0.907934 0.0291665
42.9442 13.0347 1.27039 -0.381276 -0.92412 0.0251305
44.4963 12.5076 3.0515 -0.336959 -0.941293 0.0206481
46.2316 12.039 4.96978 -0.267474 -0.963138 0.0286658
47.9658 11.6135 6.84223 -0.241957 -0.970058 0.0210687
49.6989 11.231 8.69534 -0.210744 -0.977501 0.00893635
51.4214 10.9182 10.4936 -0.17155 -0.985026 0.0171501
53.271 10.6305 12.4033 -0.159788 -0.987136 0.00549691
55.2325 10.3719 14.4161 -0.134506 -0.990869 0.0093216
56.9824 10.1821 16.1907 -0.10821 -0.994012 0.0151864
58.7854 10.0195 18.0031 -0.0908994 -0.995853 0.00387264
58.9802 10.0033 18.1998 -0.088055 -0.996102 0.00512129
61.3177 9.82781 17.9087 -0.0633927 -0.997979 0.00430178
59.533 9.93816 16.1135 -0.0806225 -0.996704 0.00896186
57.6821 10.0851 14.2412 -0.0991831 -0.995007 0.0111089
55.8292 10.2729 12.3545 -0.116381 -0.993127 0.0123972
53.9472 10.5132 10.4257 -0.148619 -0.988688 0.0202007
52.2216 10.7532 8.63276 -0.170663 -0.985099 0.0213276
50.4991 11.0466 6.81471 -0.194591 -0.980791 0.0135697
48.7851 11.3856 4.99996 -0.221214 -0.975093 0.0160386
47.1268 11.7608 3.20458 -0.256806 -0.966205 0.022348
45.2582 12.246 1.12825 -0.296044 -0.955007 0.0178524
43.4522 12.7851 -0.930608 -0.323246 -0.945602 0.0367201
41.7303 13.4043 -2.96185 -0.389153 -0.921069 0.0138387
40.2318 14.0404 -4.82977 -0.448705 -0.89339 0.022767
38.7275 14.7955 -6.8341 -0.497136 -0.86695 0.0354118
37.2233 15.685 -9.02052 -0.573711 -0.817413 0.0518793
35.7659 16.6504 -11.3012 -0.619245 -0.784428 0.0347642
34.4067 17.6599 -13.5982 -0.669571 -0.742069 0.0317636
34.2521 17.7876 -13.873 -0.669571 -0.742068 0.0317644
33.7434 17.9459 -17.7466 -0.695785 -0.718112 0.0141019
34.9904 17.0299 -15.5264 -0.631415 -0.773053 0.0608644
36.2416 16.1127 -13.3803 -0.632474 -0.773919 0.0320384
37.5338 15.3452 -11.4424 -0.537259 -0.841339 0.0591729
38.8701 14.6103 -9.51142 -0.490189 -0.871219 0.0263189
40.3616 13.8885 -7.50188 -0.457712 -0.888334 0.0369054
41.9114 13.2534 -5.56478 -0.385943 -0.921599 0.0412622
43.5048 12.6772 -3.63815 -0.368673 -0.929376 0.0184735
45.1927 12.1879 -1.71837 -0.291543 -0.955869 0.0363011
46.7713 11.7793 0.042798 -0.258253 -0.965412 0.0358429
48.5087 11.3874 1.95052 -0.2311 -0.972705 0.0209362
50.1517 11.0624 3.72476 -0.207697 -0.977971 0.0208549
51.9045 10.7628 5.58948 -0.177887 -0.983981 0.0117625
53.7914 10.4969 7.56083 -0.131117 -0.991313 0.0103805
55.5969 10.2858 9.43721 -0.122664 -0.992416 0.00798326
57.3349 10.0985 11.2296 -0.0987641 -0.995055 0.0105306
59.0931 9.95174 13.0115 -0.0803154 -0.996673 0.0138819
61.0108 9.83056 14.9568 -0.0608865 -0.998131 0.00521835
62.7037 9.73744 16.6626 -0.0557263 -0.998435 0.00467385
62.8887 9.72811 16.8488 -0.0550141 -0.998471 0.00535053
64.1669 9.6559 15.4967 -0.0397516 -0.9992 0.00432848
62.2459 9.74733 13.5556 -0.0568225 -0.998357 0.00733767
60.1467 9.85889 11.4245 -0.065965 -0.997783 0.00883818
58.2948 9.99079 9.52559 -0.0941829 -0.995516 0.00880605
56.4089 10.16 7.56983 -0.114889 -0.99323 0.0171731
54.7056 10.3397 5.80384 -0.130982 -0.991145 0.0217839
52.9283 10.5554 3.94338 -0.15212 -0.988122 0.0217943
51.0839 10.8436 1.99346 -0.195877 -0.980301 0.0253347
49.3307 11.1507 0.0997471 -0.210467 -0.977354 0.0219934
47.6436 11.501 -1.73586 -0.241496 -0.969702 0.0368566
46.0352 11.8756 -3.52398 -0.270434 -0.962077 0.0356769
44.1892 12.3712 -5.63683 -0.33187 -0.943012 0.0243095
42.6271 12.9026 -7.49508 -0.366912 -0.929277 0.0426699
40.9087 13.5402 -9.64196 -0.401749 -0.914888 0.0397267
39.4725 14.1983 -11.5577 -0.456853 -0.889069 0.0289904
38.0938 14.8688 -13.4816 -0.526602 -0.8493 0.0371423
36.7642 15.6901 -15.4964 -0.582887 -0.812547 -0.00298442
35.5885 16.4829 -17.491 -0.586304 -0.809732 0.0241273
35.3361 16.6523 -17.9351 -0.589963 -0.807411 0.00563465
37.0605 15.4577 -17.9972 -0.560636 -0.82804 -0.00601451
38.4371 14.5994 -15.8492 -0.493969 -0.869477 0.00198124
39.8057 13.9277 -13.9696 -0.461436 -0.886942 0.0202598
41.233 13.3255 -12.0621 -0.388389 -0.921302 0.0188967
42.7031 12.7786 -10.2299 -0.363577 -0.931212 0.0256236
44.2765 12.276 -8.3193 -0.330592 -0.943377 0.027364
46.1696 11.7505 -6.12754 -0.273063 -0.961706 0.0236352
47.9943 11.3516 -4.09972 -0.23991 -0.970207 0.0337895
49.8834 10.9703 -2.02985 -0.214621 -0.976105 0.0340166
51.6104 10.6773 -0.174549 -0.172808 -0.984409 0.0328105
53.2817 10.4556 1.60336 -0.154846 -0.987738 0.0199216
55.1775 10.2299 3.5972 -0.125939 -0.991843 0.0196784
57.2099 10.045 5.71359 -0.0995927 -0.994978 0.0100464
58.923 9.90832 7.48538 -0.0865691 -0.996099 0.0170825
60.612 9.80331 9.22247 -0.0626463 -0.997929 0.0145829
62.3191 9.72305 10.9776 -0.053354 -0.998522 0.0103709
64.1175 9.64647 12.8047 -0.0445458 -0.999003 0.00295573
65.0373 9.61056 13.7356 -0.041594 -0.999117 0.00594133
39.0467 14.2658 -17.8898 -0.451772 -0.892061 0.0113538
40.737 13.474 -15.5768 -0.399444 -0.916178 0.0326086
42.3532 12.8434 -13.4717 -0.360231 -0.932832 0.00766022
44.036 12.2572 -11.4023 -0.319521 -0.947145 0.0286822
45.7007 11.8039 -9.45211 -0.27652 -0.960909 0.0137832
47.5141 11.3794 -7.4028 -0.238132 -0.970761 0.0302823
49.3155 11.0041 -5.39228 -0.217945 -0.975538 0.0287387
51.1693 10.6783 -3.37392 -0.177477 -0.983658 0.0303023
53.0099 10.4123 -1.40216 -0.151082 -0.988285 0.0216166
54.82 10.21 0.50075 -0.124671 -0.991884 0.0249784
56.9136 10.0157 2.70569 -0.0989183 -0.994983 0.0149815
58.7813 9.87875 4.65399 -0.0812857 -0.99659 0.014168
58.8037 9.87737 4.67736 -0.076517 -0.996981 0.0131643
57.9638 9.88559 1.08544 -0.0825526 -0.996283 0.0246013
56.1345 10.0189 -0.832809 -0.1106 -0.993551 0.0249777
54.0795 10.225 -2.98854 -0.136442 -0.990256 0.0278843
52.1062 10.4693 -5.09501 -0.169598 -0.985303 0.0203787
50.102 10.782 -7.28008 -0.208635 -0.977588 0.0281583
48.3127 11.1215 -9.25301 -0.240817 -0.969992 0.0335174
46.5366 11.5209 -11.2608 -0.270112 -0.962457 0.026769
44.7018 12.0193 -13.3977 -0.286202 -0.958107 0.0109269
42.9688 12.587 -15.5397 -0.342809 -0.939132 0.0226451
41.3555 13.1819 -17.5888 -0.39245 -0.919772 -0.00138843
40.9879 13.3398 -18.0749 -0.393937 -0.919115 -0.00634421
43.2979 12.4082 -17.8982 -0.334325 -0.94238 0.0121041
44.9241 11.9011 -15.9081 -0.315019 -0.948709 0.0267304
46.73 11.4177 -13.7823 -0.276276 -0.960857 0.0206108
48.4562 11.021 -11.8247 -0.228392 -0.973213 0.0263399
50.3098 10.6554 -9.79289 -0.207386 -0.977911 0.0261095
52.1985 10.3845 -7.74484 -0.162285 -0.986219 0.0321696
54.0636 10.1466 -5.7324 -0.129742 -0.991128 0.0288365
55.9655 9.97134 -3.70599 -0.110402 -0.993578 0.0247831
57.7806 9.83296 -1.8135 -0.0894547 -0.995677 0.0250074
58.0088 9.81841 -1.57668 -0.0894388 -0.995664 0.025589
57.6708 9.77448 -4.63388 -0.0908344 -0.995504 0.0268509
55.6603 9.92502 -6.76708 -0.11407 -0.993 0.0306475
53.8496 10.1019 -8.69939 -0.14768 -0.9887 0.0257642
52.0684 10.3241 -10.5966 -0.162864 -0.986399 0.0221783
50.0492 10.6481 -12.7824 -0.197655 -0.980038 0.0213962
48.3276 10.9877 -14.7035 -0.222617 -0.974494 0.0283274
46.5703 11.397 -16.7283 -0.272038 -0.962057 0.0210165
45.3329 11.725 -18.1726 -0.298818 -0.954297 0.00493932
47.7177 11.0691 -18.1303 -0.248037 -0.968751 -4.43071e-05
49.4481 10.711 -16.1794 -0.196047 -0.98054 0.0102841
51.3644 10.3665 -14.0589 -0.173458 -0.984752 0.0132656
53.1509 10.1157 -12.1368 -0.153086 -0.987898 0.0249357
