-25.1566 27.607 16.6993 0.712577 -0.701371 -0.0176671
-25.7012 27.0222 17.8246 0.716725 -0.697237 -0.0128889
-26.4225 26.2799 17.719 0.718429 -0.695491 -0.0122876
-25.8288 26.9185 16.483 0.717907 -0.695947 -0.0163885
-25.1092 27.7132 14.9886 0.720782 -0.692462 -0.0311259
-24.5378 28.3798 13.7806 0.720872 -0.691714 -0.0433027
-24.0118 29.0053 12.677 0.72026 -0.691426 -0.0561691
-23.4615 29.6833 11.5011 0.720479 -0.690437 -0.0648591
-22.9733 30.2926 10.4594 0.710403 -0.699698 -0.0758249
-22.351 31.0597 9.15169 0.7048 -0.705292 -0.0762949
-21.8652 31.6516 8.15252 0.688049 -0.720296 -0.0881057
-22.9156 30.5522 8.62647 0.703003 -0.706385 -0.0825043
-23.4576 29.8618 9.79152 0.719377 -0.689965 -0.0802805
-24.007 29.1621 10.9855 0.728383 -0.682121 -0.064571
-24.4982 28.5474 12.0523 0.73011 -0.681106 -0.0550818
-25.021 27.9072 13.1673 0.725583 -0.686928 -0.040738
-25.6413 27.1759 14.4758 0.729681 -0.683206 -0.0281914
-26.2436 26.4988 15.7312 0.728953 -0.684377 -0.0160112
-26.7445 25.953 16.7817 0.732407 -0.680832 -0.00696393
-27.21 25.4489 17.7696 0.727324 -0.686245 -0.0081806
-27.7286 24.8867 17.2617 0.738675 -0.674052 0.00380275
-27.1647 25.5031 16.0606 0.73656 -0.676357 -0.00463193
-26.611 26.12 14.8967 0.733436 -0.679689 -0.00969591
-26.1077 26.7006 13.8407 0.739334 -0.672768 -0.0277029
-25.5605 27.3559 12.6882 0.737669 -0.673932 -0.0407357
-25.066 27.9738 11.6178 0.730108 -0.681108 -0.0550828
-24.5775 28.5942 10.543 0.733809 -0.676564 -0.0615184
-24.025 29.307 9.33185 0.727268 -0.682524 -0.072406
-23.6741 29.7634 8.56519 0.724394 -0.683532 -0.0896552
-24.4251 28.962 8.51431 0.734945 -0.673807 -0.0764125
-25.0099 28.1937 9.81336 0.733054 -0.677153 -0.0640007
-25.5298 27.5203 10.9693 0.743586 -0.666676 -0.0512113
-26.0126 26.9071 12.0282 0.744105 -0.666784 -0.0413073
-26.5015 26.3048 13.0708 0.741185 -0.670415 -0.0344802
-27.0667 25.6342 14.2624 0.744962 -0.666885 -0.0172339
-27.643 24.9792 15.4656 0.745391 -0.666627 -0.000157063
-28.1168 24.4512 16.4846 0.747604 -0.664143 0.00163537
-28.5938 23.897 15.9123 0.763385 -0.645931 0.00412061
-28.0484 24.5241 14.7445 0.751474 -0.659762 -0.00052859
-27.5072 25.158 13.6096 0.750504 -0.660648 -0.0169834
-26.9302 25.8563 12.3844 0.745723 -0.665298 -0.0357126
-26.4476 26.4633 11.3559 0.744685 -0.665781 -0.0466938
-25.9387 27.1257 10.2185 0.746749 -0.662748 -0.0559495
-25.3753 27.8692 8.94752 0.743174 -0.666139 -0.0628617
-24.9753 28.4137 8.03281 0.745344 -0.663064 -0.0693341
-25.7891 27.4737 8.19702 0.753849 -0.654133 -0.0618186
-26.255 26.8442 9.26929 0.750201 -0.658914 -0.0550561
-26.8031 26.1198 10.5168 0.7527 -0.656591 -0.0482778
-27.2826 25.5059 11.5548 0.754409 -0.655341 -0.0373472
-27.8677 24.7774 12.7963 0.751554 -0.659158 -0.0260406
-28.3628 24.1762 13.8505 0.756479 -0.653895 -0.0127022
-28.905 23.5358 14.9975 0.76046 -0.649346 -0.00713745
-29.1562 23.2355 15.535 0.762966 -0.646428 -0.00353896
-29.8121 22.4476 15.4114 0.769786 -0.638154 -0.0137594
-29.3125 23.0636 14.3081 0.761532 -0.648052 -0.00991313
-28.6095 23.9206 12.8308 0.75677 -0.653441 -0.0177027
-28.1145 24.5383 11.76 0.75341 -0.65697 -0.0276388
-27.5638 25.2367 10.591 0.756137 -0.653168 -0.0403547
-27.0632 25.8958 9.46469 0.756888 -0.651431 -0.052519
-26.5664 26.5682 8.30951 0.75888 -0.648618 -0.0582665
-26.2364 27.0197 7.54659 0.753847 -0.654135 -0.0618192
-26.7949 26.3955 7.18293 0.763047 -0.643749 -0.0578535
-27.2374 25.7891 8.20624 0.763167 -0.644312 -0.0493818
-27.8545 24.9628 9.62694 0.758184 -0.650668 -0.0422845
-28.5055 24.1189 11.0471 0.759728 -0.649259 -0.0357201
-29.0849 23.3892 12.3029 0.758147 -0.651518 -0.0271563
-29.6225 22.7223 13.4441 0.761059 -0.648396 -0.0192931
-30.2214 21.9754 14.728 0.767195 -0.641132 -0.0190048
-30.4139 21.7323 15.1574 0.767195 -0.641132 -0.0190056
-31.124 20.8882 15.125 0.756577 -0.652406 -0.0442463
-30.4626 21.7377 13.6872 0.76143 -0.647398 -0.0331789
-29.9082 22.4262 12.538 0.755062 -0.655152 -0.0256384
-29.4343 23.0165 11.5022 0.758328 -0.651232 -0.0289024
-28.8353 23.7809 10.2022 0.760178 -0.648625 -0.0376173
-28.3384 24.4287 9.11072 0.76091 -0.64753 -0.0414837
-27.8528 25.0778 8.00086 0.763451 -0.644183 -0.0465925
-27.3562 25.7562 6.84059 0.766712 -0.639906 -0.0516951
-27.8938 25.1425 6.45255 0.769298 -0.637228 -0.0460491
-28.352 24.5156 7.52966 0.765817 -0.641654 -0.0424763
-28.8819 23.811 8.73782 0.763105 -0.645091 -0.039095
-29.4366 23.0875 9.96482 0.759818 -0.649226 -0.0343766
-29.94 22.4498 11.0444 0.756213 -0.653653 -0.0296439
-30.4587 21.8083 12.163 0.753874 -0.656382 -0.0289093
-30.956 21.1819 13.2095 0.752232 -0.658111 -0.0322137
-31.4603 20.5524 14.2602 0.754804 -0.654895 -0.0371831
-32.0542 19.7929 15.5232 0.742155 -0.667455 -0.0609088
-32.1793 19.6261 15.7981 0.740358 -0.668678 -0.0688548
-34.0621 17.5989 17.82 0.652885 -0.75593 -0.04808
-33.4915 18.1746 16.7999 0.707261 -0.704354 -0.0605545
-32.9764 18.7729 15.7902 0.720243 -0.691307 -0.0578305
-32.3673 19.5198 14.5611 0.740979 -0.669776 -0.04848
-31.7503 20.2718 13.3084 0.74357 -0.667642 -0.0368559
-31.2034 20.952 12.1686 0.748884 -0.661937 -0.0318196
-30.6097 21.6845 10.9275 0.752023 -0.658576 -0.0271691
-30.0833 22.3453 9.79997 0.755723 -0.653938 -0.0353312
-29.5791 22.9909 8.70637 0.762011 -0.646554 -0.036147
-28.9808 23.7742 7.36163 0.765319 -0.64245 -0.0393047
-28.495 24.4305 6.23298 0.770592 -0.635811 -0.0439537
-28.4125 24.544 6.03739 0.770593 -0.63581 -0.0439547
-28.878 24.0127 5.50411 0.772523 -0.63387 -0.0376459
-29.3953 23.3179 6.69814 0.767947 -0.639352 -0.0385696
-29.8838 22.6829 7.79035 0.759244 -0.649751 -0.0370531
-30.3542 22.0835 8.80824 0.75427 -0.655712 -0.0334344
-30.8653 21.4461 9.89589 0.748123 -0.662656 -0.0346327
-31.373 20.8255 10.9483 0.742474 -0.669066 -0.032925
-31.8627 20.226 11.9683 0.736904 -0.674663 -0.0424562
-32.4254 19.5485 13.0881 0.737413 -0.674291 -0.0394106
-33.0528 18.8096 14.3301 0.722908 -0.689673 -0.0418952
-33.6705 18.1004 15.5111 0.695116 -0.716596 -0.057484
-34.2846 17.4797 16.6183 0.639345 -0.768204 -0.0331655
-35.0235 16.8266 17.7687 0.607861 -0.793033 -0.0400435
-36.241 15.9211 17.9988 0.567161 -0.823267 -0.0236573
-35.4971 16.5056 16.9507 0.602203 -0.797883 -0.0270745
-34.8315 17.0657 15.9491 0.6151 -0.788305 -0.0150755
-34.1413 17.7033 14.7894 0.66444 -0.745427 -0.0534565
-33.5932 18.2926 13.7854 0.700191 -0.712681 -0.0426409
-32.9962 18.9854 12.6299 0.718377 -0.693627 -0.0530642
-32.4504 19.6079 11.5898 0.736067 -0.67567 -0.0409287
-31.9593 20.1972 10.5774 0.727252 -0.685124 -0.0413476
-31.4042 20.8683 9.45995 0.738356 -0.673562 -0.033826
-30.9126 21.4684 8.44201 0.747156 -0.66381 -0.033375
-30.423 22.0746 7.3951 0.759029 -0.650485 -0.0272727
-29.8398 22.8201 6.10421 0.764549 -0.643671 -0.0339481
-29.367 23.4474 5.02551 0.772487 -0.634278 -0.030904
-29.7516 23.0132 4.32942 0.770289 -0.637244 -0.0240041
-30.2388 22.3832 5.40757 0.766687 -0.641167 -0.0331154
-30.725 21.7627 6.46811 0.75913 -0.65017 -0.0316344
-31.2606 21.1027 7.6349 0.745842 -0.665705 -0.0235817
-31.8188 20.4454 8.76333 0.741057 -0.670886 -0.0273207
-32.3771 19.7941 9.86177 0.726082 -0.686605 -0.0371185
-32.9313 19.1461 10.9675 0.717772 -0.695019 -0.0418506
-33.5394 18.4635 12.1124 0.690098 -0.722702 -0.0382984
-34.1186 17.8302 13.1711 0.688314 -0.723718 -0.0495634
-34.7283 17.2166 14.2428 0.667077 -0.743424 -0.0482717
-35.3576 16.6751 15.251 0.604273 -0.796326 -0.0268163
-36.1677 16.0193 16.4185 0.582496 -0.812191 -0.0323228
-36.8649 15.5087 17.3931 0.56716 -0.823268 -0.0236603
-37.2217 15.2509 17.8829 0.519607 -0.853748 -0.0335193
-38.3964 14.5464 17.9146 0.4811 -0.876489 -0.0176173
-37.4765 15.1353 16.7532 0.521138 -0.8531 -0.0252194
-36.7564 15.6378 15.767 0.568365 -0.822381 -0.0255261
-35.9786 16.2316 14.6576 0.596458 -0.802263 -0.0247235
-35.297 16.7757 13.6345 0.630945 -0.775325 0.0279208
-34.5796 17.4679 12.4257 0.655602 -0.753174 -0.0539817
-34.0119 18.0531 11.4335 0.681826 -0.730782 -0.03273
-33.4358 18.6693 10.3794 0.704674 -0.708093 -0.0451583
-32.8873 19.2784 9.32211 0.712712 -0.700859 -0.0289649
-32.3578 19.8844 8.29808 0.727692 -0.68534 -0.0278248
-31.8179 20.498 7.24943 0.741802 -0.670408 -0.0168271
-31.2803 21.1377 6.10908 0.74841 -0.662801 -0.0240354
-30.7987 21.7404 5.08753 0.759376 -0.650168 -0.0250948
-30.3015 22.3599 4.02816 0.77029 -0.637242 -0.0240044
-30.0636 22.6676 3.49669 0.772244 -0.635013 -0.0199508
-30.4076 22.2656 2.74289 0.774424 -0.63244 -0.0169251
-31.0939 21.4207 4.21199 0.761632 -0.64786 -0.013958
-31.6238 20.7802 5.30833 0.750268 -0.66066 -0.0250205
-32.1175 20.1968 6.33178 0.7355 -0.677227 -0.0200669
-32.8158 19.4123 7.69767 0.717553 -0.696147 -0.0222908
-33.4798 18.6933 8.91229 0.712136 -0.701409 -0.0297904
-34.1 18.0324 10.0664 0.68271 -0.729937 -0.0331458
-34.7834 17.3466 11.2533 0.663959 -0.747299 -0.0265187
-35.5723 16.624 12.5391 0.625627 -0.778561 -0.0493382
-36.2082 16.0973 13.5171 0.596414 -0.802207 -0.0274604
-36.9404 15.5304 14.5741 0.570388 -0.821369 -0.00318291
-37.7252 15.0119 15.6307 0.517133 -0.855715 -0.0180538
-38.6003 14.4681 16.7346 0.500197 -0.865068 -0.0382082
-39.3706 14.0464 17.6623 0.461773 -0.886883 -0.0143224
-39.4753 13.9898 17.7882 0.452429 -0.891709 -0.0127476
-40.5567 13.4641 17.6558 0.393878 -0.919079 -0.0124223
-39.7001 13.8901 16.6394 0.451697 -0.892144 -0.00703286
-38.7119 14.444 15.4347 0.492398 -0.870228 -0.01575
-37.8557 14.9617 14.3488 0.518788 -0.854681 -0.0194948
-36.9659 15.5633 13.1345 0.549354 -0.835259 -0.0235018
-36.2041 16.1538 12.023 0.593794 -0.803946 -0.0328688
-35.4521 16.8047 10.8391 0.629376 -0.776739 -0.0237234
-34.7456 17.4541 9.66883 0.653699 -0.755562 -0.0424721
-34.056 18.1559 8.44561 0.678697 -0.733636 -0.033891
-33.4086 18.8394 7.2805 0.706649 -0.707402 -0.0151355
-32.7874 19.471 6.15512 0.709294 -0.704686 -0.0178793
-32.2584 20.0781 5.08007 0.730719 -0.682528 -0.0143314
-31.7389 20.6794 4.07015 0.752631 -0.658318 -0.0128078
-31.1704 21.3552 2.87196 0.764719 -0.644326 -0.00698178
-30.7508 21.8672 1.97278 0.765845 -0.642918 -0.0117583
-31.1032 21.4553 1.23387 0.76691 -0.641752 -0.00180365
-31.6397 20.8147 2.3443 0.755273 -0.655326 -0.0105538
-32.1727 20.2066 3.43497 0.737939 -0.674812 -0.00870346
-32.7937 19.5085 4.6462 0.726562 -0.687034 -0.00957657
-33.3759 18.8839 5.75473 0.709262 -0.704884 -0.00929455
-34.0033 18.2556 6.8691 0.683442 -0.729951 -0.00890114
-34.6016 17.6953 7.88499 0.670418 -0.741445 -0.0282811
-35.2174 17.0859 8.95142 0.653715 -0.755562 -0.0422129
-35.884 16.4781 10.0333 0.616705 -0.786882 -0.0221961
-36.7007 15.8174 11.28 0.593793 -0.803947 -0.032869
-37.4406 15.273 12.3323 0.561439 -0.82732 -0.0180875
-38.3641 14.6822 13.5591 0.506003 -0.862526 -0.00319943
-39.2919 14.1287 14.724 0.480502 -0.876674 -0.0236829
-40.1698 13.6674 15.7888 0.420812 -0.907143 -0.00309132
-41.011 13.282 16.7684 0.403613 -0.914904 0.00688009
-41.9526 12.8898 17.8197 0.353563 -0.935325 -0.0126386
-42.0625 12.8466 17.9401 0.348625 -0.937237 -0.0068558
-43.2826 12.4134 17.873 0.321942 -0.946754 -0.00306485
-42.344 12.7419 16.8607 0.360652 -0.932426 0.0226235
-41.3531 13.1283 15.7625 0.377134 -0.92614 -0.0059582
-40.4559 13.5344 14.7133 0.406479 -0.913526 -0.0156433
-39.6775 13.958 13.7665 0.468931 -0.883005 -0.0201289
-38.8534 14.416 12.7524 0.48082 -0.876634 -0.0180086
-38.0411 14.9063 11.6977 0.506518 -0.86165 -0.031613
-37.26 15.4625 10.6068 0.54338 -0.839155 -0.0235888
-36.4485 16.0633 9.42624 0.579183 -0.814792 -0.0257185
-35.7911 16.6433 8.38082 0.641879 -0.766574 -0.0188406
-35.1798 17.1826 7.39534 0.643826 -0.764863 -0.021747
-34.5627 17.7552 6.35583 0.668731 -0.743494 -0.00401715
-33.8518 18.4232 5.12686 0.701076 -0.713085 0.00186195
-33.2324 19.0603 3.99025 0.721483 -0.692377 -0.00874011
-32.6699 19.6738 2.90648 0.730331 -0.683024 -0.00970698
-32.1198 20.269 1.86542 0.754633 -0.65611 -0.00697892
-31.4799 20.997 0.565175 0.760667 -0.649021 0.0125622
-31.4366 21.0477 0.475943 0.76927 -0.638838 0.0104794
-31.5047 20.9312 -0.854632 0.75722 -0.652872 0.0194047
-32.0486 20.3414 0.223759 0.751144 -0.660013 0.0128355
-32.5655 19.7659 1.26413 0.739842 -0.672701 0.0103264
-33.1755 19.1403 2.40989 0.73033 -0.683026 -0.0097035
-33.7965 18.4864 3.55513 0.697178 -0.716787 -0.0126177
-34.5525 17.7598 4.88071 0.670712 -0.741701 0.00492242
-35.1508 17.2239 5.88045 0.654985 -0.755641 0.00125312
-35.8408 16.6377 6.99428 0.64714 -0.76234 -0.00690356
-36.5735 16.016 8.139 0.598412 -0.800585 -0.0310958
-37.4408 15.3722 9.40557 0.557251 -0.829938 -0.0259795
-38.1734 14.8804 10.4142 0.513018 -0.85803 -0.0244576
-38.9337 14.3906 11.4236 0.494936 -0.868749 -0.0176962
-39.9996 13.8088 12.7434 0.454619 -0.890642 -0.00887403
-40.874 13.3618 13.7957 0.426999 -0.904252 -0.000187623
-41.7135 12.994 14.7693 0.371049 -0.92858 -0.00788308
-42.7478 12.5893 15.9207 0.333047 -0.942885 -0.00690923
-43.7022 12.2596 16.95 0.330538 -0.943756 0.00831774
-44.744 11.9301 18.0702 0.291911 -0.956445 0.000124879
-44.7535 11.9274 18.0803 0.274767 -0.961504 0.00352107
-45.7958 11.6286 17.8143 0.262702 -0.964865 0.00481992
-44.9291 11.8627 16.8998 0.282638 -0.959057 0.0180487
-43.9172 12.181 15.8089 0.325885 -0.945395 0.00527086
-43.0432 12.4852 14.8554 0.341667 -0.93982 0.00154982
-42.1107 12.8393 13.8304 0.346657 -0.937901 -0.0130954
-41.2668 13.2014 12.8525 0.395319 -0.91783 -0.0362138
-40.2449 13.69 11.6371 0.427666 -0.903895 -0.00869024
-39.3807 14.1535 10.561 0.494936 -0.868749 -0.0176945
-38.6493 14.6138 9.60083 0.516318 -0.856117 -0.0218946
-37.7736 15.1672 8.42171 0.546764 -0.837251 -0.00775787
-36.9923 15.7229 7.30674 0.612494 -0.790391 0.011593
-36.1529 16.374 6.04309 0.629543 -0.776963 -0.00213622
-35.5323 16.8919 5.04949 0.65495 -0.755671 0.00119376
-34.8219 17.5109 3.87846 0.661226 -0.750186 0.00135558
-34.2363 18.0708 2.86254 0.697176 -0.716789 -0.0126185
-33.675 18.6285 1.86655 0.703987 -0.710021 0.016516
-33.1237 19.165 0.859892 0.723331 -0.690502 -0.000435481
-32.6008 19.7218 -0.159548 0.738155 -0.674511 0.012744
-31.9368 20.4227 -1.43749 0.753079 -0.657763 0.0148502
-31.7286 20.6582 -1.85233 0.760234 -0.648853 0.0321582
-31.878 20.429 -2.94323 0.760101 -0.649003 0.0322844
-32.563 19.725 -1.66574 0.735288 -0.677438 0.0207094
-33.1242 19.1465 -0.612292 0.726188 -0.687314 0.0158343
-33.7034 18.5671 0.470001 0.703653 -0.71041 0.0137687
-34.2808 18.0255 1.48795 0.684591 -0.72892 -0.00318803
-34.9656 17.3909 2.65332 0.680582 -0.732582 0.0115072
-35.7078 16.7319 3.8826 0.647628 -0.761953 0.00233092
-36.4637 16.115 5.08024 0.629317 -0.777018 0.0142493
-37.1369 15.6035 6.0894 0.589601 -0.807609 -0.0117292
-37.8525 15.1187 7.10207 0.549483 -0.835504 0.00152271
-38.826 14.5098 8.40241 0.50559 -0.862752 0.00620751
-39.8575 13.9196 9.72951 0.471692 -0.881365 -0.0264973
-40.9788 13.3399 11.1112 0.42882 -0.903385 0.00296409
-41.9601 12.9191 12.2591 0.367626 -0.929798 -0.0180889
-42.9081 12.5472 13.3225 0.349892 -0.936789 0.00130055
-43.8505 12.1978 14.3569 0.323475 -0.94618 -0.0103686
-44.7306 11.9077 15.3169 0.278494 -0.960351 0.0129236
-45.6989 11.6465 16.3517 0.260324 -0.965502 0.00606004
-46.5761 11.4231 17.2565 0.248863 -0.968536 0.00238049
-47.1064 11.2866 17.7959 0.250648 -0.968067 -0.00466848
-48.3742 10.9899 17.7365 0.226027 -0.974089 -0.00790855
-47.1926 11.2698 16.5296 0.230894 -0.972971 -0.00403546
-46.322 11.4859 15.6339 0.244235 -0.969639 0.0122595
-45.2241 11.7667 14.4828 0.257556 -0.966228 -0.00828124
-44.1965 12.092 13.3679 0.306704 -0.951772 -0.00784744
-43.1854 12.4471 12.2483 0.340346 -0.940297 -0.00263571
-42.2242 12.8249 11.1516 0.359862 -0.933001 -0.00270861
-41.0865 13.3078 9.81649 0.394076 -0.919062 -0.0053851
-40.3185 13.6893 8.87929 0.443527 -0.896189 0.0113426
-39.5245 14.1014 7.8861 0.489759 -0.871687 -0.0172704
-38.7403 14.5751 6.86339 0.511603 -0.859156 0.0106447
-37.8903 15.0723 5.73308 0.543083 -0.839465 0.0189321
-37.1016 15.6232 4.60504 0.592778 -0.805304 0.0100123
-36.4486 16.1085 3.61493 0.650514 -0.759392 0.0124716
-35.6662 16.745 2.37535 0.640646 -0.767716 0.0136313
-35.0421 17.3153 1.33005 0.669174 -0.743052 -0.00889892
-34.4263 17.8706 0.294163 0.67285 -0.739455 0.0218929
-33.8168 18.4222 -0.765641 0.714043 -0.699906 0.0165876
-33.1098 19.1277 -2.06282 0.721223 -0.692491 0.0171533
-32.4987 19.7362 -3.1846 0.734005 -0.678398 0.0318181
-31.9159 20.3166 -4.27364 0.741696 -0.669459 0.0413707
-31.8927 20.2547 -5.76701 0.734098 -0.678071 0.0363411
-32.4719 19.6922 -4.62842 0.735504 -0.676419 0.0386038
-33.0646 19.1208 -3.53994 0.723168 -0.690108 0.0279149
-33.6904 18.5101 -2.4134 0.703296 -0.710424 0.0259293
-34.2997 17.9391 -1.34377 0.681775 -0.730871 0.0317998
-34.9724 17.3559 -0.208794 0.660976 -0.750048 0.0232196
-35.7076 16.7399 0.97912 0.658431 -0.752636 -0.00270761
-36.3752 16.1932 2.03096 0.599967 -0.799891 -0.0146239
-37.0444 15.6423 3.08265 0.587599 -0.808273 -0.0377132
-38.0527 14.9732 4.52527 0.535299 -0.844595 -0.0107503
-38.9733 14.4099 5.76202 0.476746 -0.87902 0.00614658
-39.8559 13.9441 6.87564 0.479981 -0.87722 0.010181
-40.8716 13.4227 8.13644 0.408337 -0.912767 -0.0108593
-41.7655 13.0302 9.19763 0.37219 -0.928104 -0.00993864
-42.752 12.6299 10.3488 0.353302 -0.935506 -0.00247553
-43.6914 12.2822 11.415 0.313318 -0.949384 -0.0223829
-44.5753 11.9787 12.4004 0.299914 -0.953808 -0.0173632
-45.4496 11.7092 13.3445 0.282685 -0.959149 -0.0110222
-46.5493 11.4198 14.5043 0.236429 -0.971601 0.0096001
-47.4263 11.2169 15.4134 0.229298 -0.973351 0.00333714
-48.3381 10.9987 16.335 0.231501 -0.972832 -0.00233917
-49.5509 10.7405 17.5814 0.194161 -0.98096 -0.00434969
-49.9452 10.6599 17.9862 0.194601 -0.980866 -0.00571687
-51.2688 10.4163 17.9785 0.167256 -0.985903 0.00465016
-50.1132 10.6313 16.7993 0.196358 -0.980532 0.000884311
-49.0585 10.8406 15.7237 0.211095 -0.977458 0.00372932
-48.0123 11.0749 14.6525 0.226216 -0.974056 0.00645965
-47.0812 11.2814 13.6912 0.220266 -0.975366 0.0120202
-46.0609 11.542 12.6103 0.256131 -0.96657 -0.0117925
-45.0064 11.8653 11.4636 0.292625 -0.956038 -0.019044
-44.1343 12.1458 10.5002 0.319579 -0.947559 -0.00079162
-43.2452 12.4579 9.49948 0.33048 -0.943803 -0.00435497
-42.247 12.8389 8.35221 0.376868 -0.926265 -0.00192665
-41.3634 13.2138 7.30966 0.402672 -0.915212 -0.015561
-40.5566 13.5904 6.33072 0.428283 -0.903463 -0.0180935
-39.5431 14.1036 5.06483 0.471164 -0.882014 -0.00747281
-38.6581 14.5944 3.91558 0.511288 -0.859332 -0.0115243
-37.816 15.1383 2.74215 0.551279 -0.833424 -0.0386809
-37.1209 15.638 1.72684 0.578692 -0.815354 -0.0176786
-36.4567 16.1493 0.71367 0.597916 -0.801535 -0.00617589
-35.696 16.7345 -0.461778 0.645965 -0.763163 0.0176588
-35.0761 17.2423 -1.46727 0.655446 -0.755204 0.00752357
-34.3903 17.8457 -2.63596 0.678628 -0.734443 -0.00762561
-33.7715 18.3945 -3.66539 0.677654 -0.734774 0.0298602
-33.2015 18.9115 -4.67736 0.721501 -0.691245 0.040223
-32.5232 19.5641 -5.96787 0.730207 -0.682469 0.0321672
-32.4166 19.6683 -6.1763 0.729387 -0.68316 0.0358886
-32.8422 19.1823 -6.76926 0.726783 -0.68584 0.0375415
-33.4072 18.6631 -5.74105 0.710503 -0.702973 0.0318536
-34.0103 18.118 -4.66248 0.680892 -0.731365 0.0386084
-34.7534 17.493 -3.43426 0.674759 -0.737727 0.0214402
-35.401 16.9572 -2.37531 0.629724 -0.776655 0.0159552
-36.0214 16.4498 -1.37025 0.611621 -0.791108 -0.00820498
-36.9108 15.796 -0.0204248 0.588563 -0.808308 0.0152433
-37.6519 15.3021 1.04174 0.56245 -0.826821 -0.00406118
-38.3809 14.7951 2.08644 0.551039 -0.83399 -0.0285708
-39.1756 14.2967 3.16963 0.502434 -0.864282 -0.0240147
-40.0123 13.8612 4.23898 0.433917 -0.900895 -0.0102398
-40.9661 13.4 5.4172 0.403843 -0.914826 0.00200346
-41.8528 13.0116 6.48303 0.40162 -0.915803 -0.00261677
-42.8234 12.6085 7.61893 0.35172 -0.936071 -0.00795977
-43.7641 12.2734 8.68616 0.333631 -0.942704 0.000197237
-44.6739 11.9662 9.70835 0.316421 -0.948613 0.00348599
-45.6739 11.6659 10.8006 0.275163 -0.961394 0.00266235
-46.7352 11.3714 11.941 0.256133 -0.96657 -0.0117909
-47.6939 11.1371 12.9625 0.217637 -0.976006 0.00676632
-48.6163 10.9438 13.918 0.204769 -0.978809 -0.00178944
-49.5687 10.7395 14.8928 0.205965 -0.978471 -0.0131782
-50.4847 10.556 15.8267 0.187206 -0.982321 0.000463314
-51.4888 10.3783 16.8545 0.171826 -0.985112 0.00549086
-52.5214 10.2225 17.9036 0.144025 -0.989573 -0.00110079
-53.9313 10.0203 17.9811 0.133722 -0.990998 -0.00638521
-52.7943 10.1803 16.8338 0.140471 -0.990074 0.00453899
-51.7929 10.3258 15.8133 0.158072 -0.987427 -0.00137213
-50.9065 10.4845 14.908 0.177643 -0.984075 -0.00630392
-49.9393 10.6743 13.9162 0.187188 -0.982281 -0.00925015
-48.9084 10.8838 12.8587 0.193043 -0.981188 0.00200446
-48.013 11.0661 11.9228 0.201342 -0.979516 -0.00320797
-47.1005 11.279 10.9534 0.247521 -0.968882 -0.000460011
-45.9978 11.572 9.77338 0.262355 -0.964907 -0.0111476
-44.8253 11.9317 8.4802 0.295454 -0.955305 -0.00999185
-43.8047 12.2579 7.3304 0.304827 -0.952408 9.80256e-05
-42.8011 12.6313 6.18099 0.365769 -0.930697 0.00395805
-41.802 13.0357 5.01122 0.389015 -0.921214 -0.00567179
-40.7567 13.5163 3.74071 0.423303 -0.905973 -0.00524026
-39.9827 13.8974 2.76869 0.44385 -0.896078 -0.00641844
-39.19 14.3349 1.73363 0.491683 -0.870711 -0.010524
-38.4093 14.813 0.670542 0.523143 -0.852117 0.0147969
-37.6328 15.2981 -0.410086 0.557348 -0.830214 -0.010367
-36.833 15.8429 -1.57516 0.598734 -0.800946 -0.00138661
-36.1558 16.3446 -2.60762 0.626252 -0.779351 0.020497
-35.4854 16.8667 -3.66509 0.63644 -0.771004 0.0222926
-34.6297 17.5451 -5.03033 0.663999 -0.747287 0.0258371
-34.0452 18.0443 -6.03786 0.682971 -0.730228 0.0178184
-33.2812 18.7041 -7.36495 0.698104 -0.715764 0.0182538
-33.6974 18.2826 -8.04589 0.682932 -0.729929 0.0284231
-34.4157 17.6629 -6.80073 0.665495 -0.745779 0.0304958
-35.1043 17.1023 -5.6491 0.65439 -0.755843 0.0217768
-35.9047 16.4991 -4.40741 0.633734 -0.773002 0.0291424
-36.7375 15.903 -3.14998 0.597348 -0.801678 0.0221129
-37.4368 15.4205 -2.12337 0.556048 -0.831133 -0.00531782
-38.1254 14.9842 -1.15002 0.528009 -0.849111 0.0147312
-38.9536 14.4903 -0.0176102 0.494283 -0.869226 -0.011411
-39.9952 13.8958 1.36173 0.480284 -0.876885 -0.0200199
-40.7679 13.5011 2.34206 0.4361 -0.899841 0.0101521
-41.5933 13.1317 3.35392 0.409575 -0.912276 -0.000599205
-42.6685 12.6853 4.62419 0.357985 -0.933712 -0.00531195
-43.5939 12.3368 5.69514 0.339189 -0.940715 -0.00238379
-44.5536 12.0175 6.77843 0.284279 -0.958712 -0.00757811
-45.5212 11.7275 7.8561 0.274257 -0.961562 -0.0135025
-46.5392 11.4419 8.97318 0.259333 -0.965619 -0.0180827
-47.5752 11.167 10.0873 0.224802 -0.974344 -0.0108719
-48.4627 10.9729 11.0218 0.20314 -0.979143 0.00367414
-49.5834 10.7529 12.1886 0.185156 -0.982709 -0.000327872
-50.4661 10.5843 13.1014 0.180852 -0.983476 -0.0082722
-51.478 10.3933 14.1428 0.160621 -0.986934 -0.0127352
-52.4486 10.2297 15.1387 0.143167 -0.989602 -0.0138095
-53.6087 10.0682 16.314 0.131117 -0.991365 0.0019764
-54.5012 9.94998 17.2139 0.120075 -0.99272 -0.00941868
-55.1589 9.86659 17.876 0.116306 -0.993167 -0.00957152
-56.5138 9.72115 17.9017 0.0965108 -0.995316 -0.00568018
-55.4395 9.8403 16.8212 0.112538 -0.993618 -0.00760647
-54.4186 9.96532 15.7936 0.124434 -0.992222 -0.00332066
-53.38 10.1024 14.7416 0.129255 -0.991582 -0.00766509
-52.4742 10.241 13.8141 0.145335 -0.989329 -0.0103139
-51.4596 10.4119 12.7672 0.163429 -0.986534 -0.00637648
-50.5772 10.5722 11.8509 0.172996 -0.984922 -0.00126132
-49.6943 10.7289 10.9322 0.178215 -0.983942 0.0098398
-48.768 10.9115 9.97014 0.20292 -0.979168 -0.00732127
-47.8121 11.1309 8.95512 0.230038 -0.972959 -0.0207919
-46.8606 11.3712 7.92615 0.244458 -0.969585 -0.0120226
-45.7286 11.6805 6.68623 0.266317 -0.963817 -0.0114844
-44.7366 11.9707 5.59015 0.27635 -0.96101 -0.00956292
-43.8776 12.2583 4.6179 0.312118 -0.949975 -0.0114272
-42.9874 12.5764 3.5933 0.353778 -0.935261 -0.0113348
-42.0221 12.9493 2.45652 0.357821 -0.933739 0.00981049
-41.1794 13.301 1.44002 0.417707 -0.908578 0.00241473
-40.2011 13.8026 0.198282 0.452959 -0.891372 -0.0168377
-39.3778 14.2373 -0.871187 0.495434 -0.868135 0.0298001
-38.6043 14.675 -1.91036 0.509465 -0.860434 -0.00990551
-37.8886 15.1148 -2.90118 0.534681 -0.845045 -0.00384058
-37.1243 15.6012 -3.99033 0.56842 -0.821885 0.0374703
-36.2896 16.1737 -5.2281 0.601805 -0.798216 0.026118
-35.5143 16.7382 -6.42842 0.620825 -0.783812 0.0146726
-34.8728 17.2443 -7.46548 0.651484 -0.756465 0.0577005
-34.186 17.8036 -8.60823 0.682936 -0.729925 0.0284281
-34.0695 17.9055 -8.79979 0.682807 -0.730161 0.0253015
-34.0494 17.875 -10.1977 0.673101 -0.738819 0.0328987
-34.68 17.3544 -9.19029 0.652729 -0.757228 0.0234827
-35.3069 16.8579 -8.18438 0.607329 -0.79421 0.0195364
-36.0268 16.3229 -7.05008 0.588745 -0.808203 0.013689
-36.7584 15.8147 -5.94581 0.588657 -0.80838 0.00242029
-37.5628 15.2706 -4.76446 0.562678 -0.826491 0.0174782
-38.4101 14.7881 -3.6029 0.529544 -0.847981 0.0226214
-39.1469 14.3616 -2.60072 0.507867 -0.861435 0.00109476
-39.9859 13.8923 -1.48844 0.480747 -0.876806 0.00970759
-40.8636 13.4769 -0.380869 0.452824 -0.891551 0.00929856
-41.6742 13.0821 0.635034 0.382067 -0.924112 -0.00652704
-42.5725 12.7352 1.69824 0.350468 -0.936574 0.000721809
-43.4513 12.4135 2.73541 0.327624 -0.944051 -0.0378236
-44.4404 12.073 3.85733 0.305107 -0.952308 0.00431441
-45.5376 11.7499 5.08017 0.269085 -0.963105 -0.0046749
-46.3946 11.5119 6.02593 0.249752 -0.96822 -0.0131862
-47.3932 11.2463 7.10825 0.240384 -0.970625 -0.0101096
-48.2916 11.0351 8.07605 0.210181 -0.97762 -0.00913185
-49.1935 10.8316 9.04101 0.19841 -0.980053 -0.0113481
-50.185 10.6364 10.0785 0.179464 -0.983728 -0.00843007
-51.2269 10.46 11.1604 0.172019 -0.98509 -0.00255728
-52.1944 10.2951 12.165 0.161569 -0.986796 -0.011392
-53.1471 10.1478 13.147 0.144191 -0.989548 -0.00177666
-54.0523 10.0204 14.0804 0.121196 -0.992589 -0.00888182
-55.0062 9.89665 15.049 0.124082 -0.992244 -0.00751937
-56.0819 9.77262 16.1324 0.108755 -0.994062 -0.00360817
-56.9797 9.67983 17.0353 0.0876147 -0.996138 -0.00570754
-57.7472 9.60548 17.8044 0.0914533 -0.995785 -0.00697729
-58.945 9.50672 17.673 0.0731423 -0.997305 -0.00570884
-57.9385 9.59797 16.6674 0.0858522 -0.996256 -0.0101549
-56.9149 9.69501 15.6382 0.0942147 -0.995512 -0.00896944
-55.7954 9.81542 14.5051 0.102589 -0.994627 -0.013913
-54.895 9.92474 13.588 0.120276 -0.992656 -0.0129738
-53.8809 10.0529 12.5493 0.116186 -0.993224 -0.00252955
-52.9555 10.18 11.5972 0.142132 -0.98977 -0.0123905
-51.8119 10.3665 10.4085 0.147542 -0.989053 -0.00251655
-50.88 10.5198 9.44337 0.160421 -0.986996 -0.0102158
-49.8981 10.7011 8.41135 0.18963 -0.981817 -0.00873213
-48.6803 10.9601 7.10758 0.207567 -0.978219 -0.00168796
-47.8233 11.1536 6.19239 0.235326 -0.971895 -0.00653066
-46.6985 11.436 4.97241 0.252099 -0.9677 0.00159999
-45.8464 11.6625 4.0323 0.267646 -0.963474 0.00912847
-44.9828 11.9077 3.07625 0.284862 -0.958562 -0.00347288
-43.8491 12.29 1.78686 0.315683 -0.948862 0.00220678
-42.8571 12.6267 0.62955 0.340342 -0.940299 -0.00209152
-42.0423 12.936 -0.330994 0.407255 -0.913229 0.0125025
-41.1668 13.2982 -1.39256 0.419229 -0.907307 0.0322742
-40.1262 13.8249 -2.72288 0.467669 -0.883844 -0.0102919
-39.2665 14.2924 -3.86336 0.491833 -0.870678 -0.00450257
-38.3505 14.7862 -5.09265 0.498891 -0.866301 0.0250858
-37.5383 15.2638 -6.21755 0.564607 -0.825357 0.00208372
-36.7888 15.7725 -7.32823 0.571077 -0.820655 0.0198925
-35.9432 16.3662 -8.61253 0.59864 -0.800795 0.0188962
-35.2596 16.8697 -9.66463 0.617561 -0.786521 -0.0015457
-34.4659 17.5107 -10.9323 0.627854 -0.778247 0.0114211
-34.0991 17.8145 -11.5272 0.651128 -0.758964 0.00258171
-34.2046 17.7396 -12.8151 0.671356 -0.739447 -0.0499856
-34.9719 17.1032 -11.5445 0.616781 -0.787117 -0.00516802
-35.6308 16.5875 -10.496 0.591719 -0.806141 -0.00219765
-36.2982 16.0921 -9.47844 0.585056 -0.810993 -0.00047938
-36.9701 15.6223 -8.4693 0.57105 -0.820792 0.0142599
-37.7645 15.1046 -7.31073 0.54259 -0.839991 0.00337779
-38.5411 14.6469 -6.24142 0.504883 -0.863171 0.00534275
-39.3861 14.194 -5.10927 0.492136 -0.869869 0.03361
-40.4509 13.6515 -3.71463 0.446324 -0.894838 -0.00774577
-41.2956 13.2549 -2.65039 0.402563 -0.915191 0.0191676
-42.1005 12.9161 -1.66895 0.355257 -0.934722 -0.00935975
-42.9641 12.5932 -0.643021 0.341627 -0.93981 -0.00693335
-43.8616 12.2814 0.387803 0.310079 -0.95071 -0.00107284
-44.9164 11.9525 1.60575 0.289104 -0.957296 0.00183996
-45.909 11.6474 2.72143 0.268019 -0.963144 -0.0227916
-47.0378 11.3632 3.95613 0.23179 -0.972766 0.000607873
-48.0437 11.1122 5.05245 0.223682 -0.974591 -0.0117771
-49.0857 10.8781 6.16456 0.204361 -0.978849 -0.00958654
-49.9759 10.7005 7.1101 0.181156 -0.983427 -0.00735313
-51.1774 10.48 8.38589 0.160667 -0.98699 -0.00606649
-52.1094 10.3282 9.36108 0.148919 -0.988809 -0.00889696
-53.1881 10.1622 10.4799 0.138861 -0.99023 -0.012705
-54.0985 10.0344 11.4238 0.112015 -0.993665 -0.0091025
-55.0599 9.91943 12.3997 0.107791 -0.994137 -0.00848659
-56.2003 9.78679 13.5674 0.103065 -0.994568 -0.014592
-57.2435 9.67332 14.6294 0.0858888 -0.996254 -0.0100519
-58.1944 9.58448 15.5908 0.082665 -0.996524 -0.0103359
-59.156 9.4972 16.5572 0.0696394 -0.997518 -0.0104109
-60.053 9.43258 17.4583 0.0639684 -0.997944 -0.00402882
-60.1043 9.42908 17.5098 0.0605388 -0.998156 -0.00437742
-60.179 9.43401 16.2559 0.0569321 -0.998335 -0.00928702
-59.1585 9.51651 15.2257 0.0723968 -0.997248 -0.0159427
-58.1993 9.60275 14.255 0.0760855 -0.996977 -0.0157433
-57.2109 9.69984 13.2486 0.0858459 -0.996271 -0.0085853
-56.172 9.80403 12.1797 0.0910606 -0.995781 -0.0113128
-55.2799 9.90531 11.2666 0.109931 -0.993902 -0.00860039
-54.1539 10.0439 10.119 0.116141 -0.993138 -0.0136912
-53.2751 10.1603 9.20393 0.132308 -0.991183 -0.00710785
-52.3714 10.2987 8.26156 0.14897 -0.9888 -0.00910127
-51.4725 10.4432 7.32159 0.152514 -0.988282 -0.00610846
-50.5999 10.5945 6.3948 0.162349 -0.986692 -0.0090111
-49.5675 10.7902 5.308 0.188705 -0.98197 -0.0111943
-48.4383 11.0436 4.09565 0.206904 -0.978137 -0.0209184
-47.5795 11.2344 3.16457 0.23097 -0.972961 -0.000666632
-46.4006 11.5237 1.87478 0.253604 -0.967308 0.000459507
-45.4753 11.7796 0.840547 0.279003 -0.96027 0.00628775
-44.5836 12.0423 -0.171424 0.316101 -0.948719 -0.00350037
-43.7224 12.3243 -1.15629 0.330041 -0.943939 0.00722307
-42.6356 12.715 -2.44204 0.359209 -0.933233 0.00668871
-41.7452 13.0499 -3.50212 0.374154 -0.927365 -0.0017571
-40.8871 13.4408 -4.57359 0.446565 -0.894725 -0.00687806
-40.0252 13.8345 -5.67358 0.462174 -0.886394 0.0264538
-39.2185 14.2554 -6.73734 0.495384 -0.868644 0.00725428
-38.4003 14.7282 -7.85578 0.506004 -0.862489 0.00849017
-37.5821 15.2086 -8.99261 0.514985 -0.857118 0.0118193
-36.729 15.7834 -10.2396 0.573623 -0.819081 0.00789167
-35.8903 16.4004 -11.5247 0.595335 -0.803463 -0.0048732
-35.1031 17.0084 -12.7724 0.626149 -0.779679 0.00623199
-34.3463 17.6456 -13.9984 0.646072 -0.763109 -0.0160112
-33.7347 18.2758 -15.0994 0.723836 -0.688585 -0.0437333
-33.3474 18.7176 -15.9025 0.759149 -0.650675 -0.0177602
-33.6763 18.3417 -16.7469 0.775102 -0.63139 0.0237633
-34.1943 17.7959 -15.6991 0.733585 -0.679071 0.0267484
-34.8582 17.219 -14.5888 0.651865 -0.758312 -0.00590448
-35.573 16.6269 -13.4368 0.624271 -0.781188 0.00559371
-36.2175 16.1457 -12.4377 0.601781 -0.798157 0.0283593
-37.0559 15.5388 -11.1698 0.593241 -0.805013 0.00448117
-37.8153 15.0506 -10.0785 0.527159 -0.849712 0.00959749
-38.7083 14.5424 -8.85259 0.490879 -0.871178 0.00927623
-39.4455 14.1265 -7.84823 0.478207 -0.878244 0.00223341
-40.1958 13.7374 -6.85462 0.434509 -0.900627 -0.00849241
-41.1065 13.3291 -5.70677 0.402851 -0.915191 -0.0116772
-42.0439 12.9255 -4.54478 0.38731 -0.92193 0.00601917
-43.0608 12.5636 -3.34913 0.333899 -0.942601 0.00377173
-44.0496 12.2224 -2.18429 0.320877 -0.947101 -0.00613598
-45.0104 11.9149 -1.07365 0.270079 -0.962832 -0.00356627
-46.0566 11.6231 0.0996821 0.254305 -0.967089 -0.00827229
-47.0206 11.3705 1.1658 0.231224 -0.972891 -0.00439055
-47.9192 11.1593 2.14756 0.21723 -0.976117 0.00247665
-48.7802 10.9725 3.07791 0.212065 -0.977252 -0.00274627
-49.6623 10.7863 4.03053 0.198672 -0.980062 -0.00283987
-50.6936 10.5901 5.12605 0.162783 -0.986641 -0.0063386
-51.6062 10.433 6.08858 0.153284 -0.988134 -0.00979528
-52.4929 10.2901 7.02016 0.149355 -0.988763 -0.00631996
-53.4413 10.1481 8.00823 0.130368 -0.991434 -0.00797581
-54.6137 9.99541 9.2257 0.112576 -0.99362 -0.00675335
-55.5018 9.89364 10.1495 0.101777 -0.994756 -0.0100516
-56.5484 9.77998 11.2171 0.0904205 -0.995851 -0.0102044
-57.7538 9.66162 12.4498 0.080079 -0.996726 -0.0111699
-58.7281 9.57676 13.448 0.074743 -0.997131 -0.0119371
-59.7907 9.48401 14.5263 0.0637047 -0.997843 -0.0158632
-60.2044 9.45232 14.9451 0.0614788 -0.997973 -0.0164332
-60.0737 9.48298 13.4697 0.0664111 -0.997702 -0.0134527
-58.8585 9.57721 12.2281 0.0646319 -0.997875 -0.00824529
-57.9443 9.65531 11.2919 0.083398 -0.996477 -0.00879648
-57.0566 9.74143 10.3874 0.0911733 -0.995803 -0.00795483
-56.1264 9.83463 9.43 0.09385 -0.995554 -0.00805667
-55.2091 9.93643 8.47715 0.107673 -0.994177 -0.00426058
-54.0832 10.0731 7.31385 0.116288 -0.99316 -0.0105154
-53.0483 10.2159 6.2393 0.137668 -0.990422 -0.0105946
-52.092 10.3676 5.22976 0.148909 -0.98885 -0.00165386
-51.1356 10.5057 4.21336 0.153403 -0.988117 0.00957633
-50.1156 10.6961 3.13353 0.191537 -0.981483 -0.00206844
-49.1757 10.8863 2.12214 0.198007 -0.980187 0.00524339
-48.0047 11.1422 0.8589 0.213872 -0.976813 -0.00976628
-47.1311 11.3564 -0.0965402 0.223934 -0.974558 -0.0094644
-46.2869 11.573 -1.04072 0.251782 -0.967771 -0.00506188
-45.2712 11.8474 -2.18418 0.281729 -0.959475 0.00602554
-44.168 12.1848 -3.45435 0.316558 -0.948572 0.00118461
-43.1318 12.5307 -4.65645 0.327894 -0.944647 0.0112655
-42.1558 12.883 -5.81184 0.368493 -0.929148 -0.0299455
-41.2916 13.2595 -6.88915 0.392658 -0.919682 0.00216383
-40.4606 13.6219 -7.93405 0.420866 -0.907095 -0.00712542
-39.6792 14.0087 -8.96451 0.434871 -0.90049 0.0020626
-38.7632 14.488 -10.1896 0.487845 -0.872738 0.0183095
-37.9236 14.9746 -11.3425 0.528127 -0.849127 -0.00799891
-37.0115 15.5737 -12.664 0.5586 -0.829239 0.0181474
-36.2665 16.0785 -13.7696 0.574253 -0.818647 0.00708148
-35.5646 16.6139 -14.8785 0.646452 -0.762951 -0.00217534
-34.7714 17.2543 -16.1888 0.65674 -0.753322 0.0346365
-34.1532 17.7869 -17.2941 0.709046 -0.705113 0.00831692
-34.0416 17.8966 -17.5126 0.713848 -0.700293 -0.00324176
-34.6605 17.3218 -17.9273 0.603519 -0.796655 0.0332546
-35.3512 16.7836 -16.7237 0.605202 -0.796072 0.000547121
-36.1899 16.1645 -15.3561 0.569129 -0.822162 -0.0119213
-36.8393 15.683 -14.3508 0.53544 -0.844075 -0.0289976
-37.6233 15.1579 -13.1962 0.550601 -0.834764 -0.00270036
-38.3429 14.7237 -12.1827 0.523851 -0.851566 0.020402
-39.2305 14.2457 -10.9888 0.442366 -0.896827 -0.00354577
-39.9847 13.874 -9.99318 0.420603 -0.907208 -0.00816326
-40.8182 13.4705 -8.90039 0.387868 -0.921681 -0.00791378
-41.5984 13.1393 -7.92151 0.370637 -0.92872 -0.0103792
-42.4374 12.8061 -6.89123 0.346092 -0.938193 -0.00384339
-43.2527 12.5042 -5.91346 0.314988 -0.948759 -0.0252655
-44.167 12.196 -4.84847 0.293988 -0.955744 -0.0111672
-45.0026 11.9314 -3.88748 0.275224 -0.961295 -0.0127856
-45.9021 11.6713 -2.86814 0.253392 -0.967362 -0.00198672
-46.9842 11.3956 -1.65694 0.229561 -0.973294 -0.000221548
-48.0806 11.1416 -0.444564 0.223934 -0.974558 -0.00946375
-48.9417 10.9424 0.496924 0.198239 -0.980083 -0.0118054
-49.8594 10.7555 1.48729 0.178962 -0.983785 -0.0117893
-51.0833 10.5192 2.80378 0.180087 -0.983631 -0.00624572
-51.9774 10.3729 3.73897 0.137908 -0.990424 0.00640777
-53.1018 10.216 4.92656 0.144308 -0.989517 0.0055593
-54.0373 10.0893 5.91091 0.123949 -0.992263 -0.00718409
-55.1379 9.95446 7.04883 0.107536 -0.994141 -0.0109435
-56.1593 9.84306 8.10092 0.092972 -0.995629 -0.00887513
-57.3197 9.72517 9.29694 0.0899059 -0.995925 -0.00707112
-58.3878 9.62915 10.3936 0.0732305 -0.997248 -0.0115975
-59.3317 9.55084 11.3582 0.0684199 -0.997629 -0.00746838
-60.2177 9.48851 12.2661 0.0615554 -0.998079 -0.0070613
-60.2186 9.50041 10.9151 0.0579691 -0.998297 -0.006593
-59.244 9.57304 9.91768 0.0683475 -0.997588 -0.0120822
-58.1923 9.65674 8.8419 0.0743605 -0.997209 -0.00668954
-57.2122 9.74736 7.83096 0.087067 -0.996124 -0.0124871
-56.2541 9.84652 6.84595 0.0945387 -0.995452 -0.0117392
-55.0958 9.97414 5.6484 0.101451 -0.994798 -0.00916018
-54.1358 10.092 4.63864 0.120729 -0.992663 -0.00663681
-53.1667 10.2135 3.62025 0.128464 -0.991696 -0.00599358
-52.131 10.3609 2.54041 0.135495 -0.990758 -0.0062814
-51.1805 10.515 1.53128 0.152704 -0.988242 -0.00774682
-50.3165 10.6761 0.601359 0.1871 -0.98232 -0.00648039
-49.1675 10.9091 -0.644243 0.207862 -0.978154 0.002766
-48.1323 11.1339 -1.77427 0.213103 -0.977022 -0.00396738
-47.1912 11.3488 -2.81631 0.236951 -0.971517 -0.00294035
-46.2265 11.5922 -3.89231 0.251441 -0.96776 -0.0147647
-45.4 11.8335 -4.82907 0.270572 -0.962579 -0.0152227
-44.3654 12.149 -6.01209 0.275011 -0.961403 -0.00854494
-43.447 12.4461 -7.09015 0.327693 -0.944775 -0.00420912
-42.6556 12.7337 -8.0396 0.352288 -0.935823 -0.0113427
-41.7684 13.081 -9.13 0.364809 -0.931066 -0.00562181
-40.7629 13.5246 -10.4066 0.379066 -0.925274 -0.0133277
-39.8485 13.9483 -11.5986 0.434359 -0.9007 -0.00848138
-38.848 14.4376 -12.9175 0.46197 -0.886892 -0.00263972
-38.0575 14.9159 -14.0252 0.503119 -0.863332 -0.0391116
-37.3725 15.3638 -15.0217 0.527467 -0.849187 -0.0256855
-36.6084 15.8739 -16.1808 0.558134 -0.829747 -0.00265474
-35.8755 16.3903 -17.357 0.599672 -0.800187 -0.00970383
-35.6973 16.5274 -17.6594 0.599676 -0.800184 -0.00970309
-36.5384 15.9194 -17.7617 0.581584 -0.813357 -0.0144715
-37.2398 15.4508 -16.6746 0.538455 -0.842636 0.00549863
-38.0523 14.9636 -15.4822 0.51673 -0.85575 -0.0261244
-38.7745 14.5258 -14.4567 0.466241 -0.884452 -0.0190595
-39.4917 14.1361 -13.4785 0.43965 -0.897892 -0.0223078
-40.4596 13.6592 -12.2171 0.434716 -0.900534 -0.00782323
-41.2562 13.3248 -11.2057 0.369433 -0.929247 0.00431033
-42.1561 12.9508 -10.0712 0.351 -0.936146 -0.0207407
-42.9596 12.633 -9.08292 0.341225 -0.93979 -0.0189891
-43.8652 12.3158 -8.00401 0.30654 -0.95178 -0.012134
-44.7021 12.0514 -7.02379 0.283875 -0.958851 -0.00435565
-45.552 11.8099 -6.05262 0.262819 -0.964842 -0.00260548
-46.7187 11.4855 -4.73447 0.241241 -0.970406 -0.0106797
-47.8319 11.2114 -3.49536 0.211713 -0.977245 -0.0130448
-48.7177 11.01 -2.51269 0.212263 -0.977203 -0.00427599
-49.7288 10.794 -1.40818 0.198317 -0.980068 -0.0116874
-50.6386 10.6175 -0.431253 0.176943 -0.984217 -0.00291174
-51.4996 10.4708 0.493108 0.158863 -0.987262 -0.00875748
-52.3684 10.3334 1.4214 0.133098 -0.991077 -0.00714936
-53.4288 10.1901 2.53521 0.124507 -0.992184 -0.00828959
-54.5216 10.0492 3.67457 0.114954 -0.993354 -0.00585489
-55.4407 9.94759 4.63543 0.097368 -0.995203 -0.00953735
-56.4298 9.84235 5.66927 0.0953491 -0.995392 -0.0102043
-57.5213 9.73296 6.80427 0.0853608 -0.996286 -0.0113034
-58.6536 9.63268 7.966 0.0640299 -0.997873 -0.0122627
-59.6018 9.55982 8.93851 0.0643918 -0.997867 -0.0107484
-60.2941 9.50764 9.64581 0.0559888 -0.998315 -0.015274
-60.2967 9.52586 8.30688 0.0596299 -0.99814 -0.0127054
-59.213 9.60703 7.19075 0.0631523 -0.99793 -0.0121091
-58.3064 9.6795 6.25796 0.0721164 -0.997369 -0.00741198
-57.1335 9.78225 5.0376 0.0866726 -0.996203 -0.00825459
-56.1566 9.88249 4.01984 0.0896538 -0.995935 -0.00874838
-55.0583 9.99782 2.87531 0.0994236 -0.995013 -0.00796631
-53.9402 10.1333 1.70427 0.117377 -0.993032 -0.0104764
-52.9302 10.2642 0.643067 0.124143 -0.992242 -0.00662811
-51.9464 10.4081 -0.402528 0.155668 -0.9878 -0.00434577
-50.9547 10.571 -1.4605 0.151894 -0.988202 -0.0196093
-49.9958 10.7576 -2.49476 0.183027 -0.982969 -0.0165406
-49.1084 10.9395 -3.47097 0.195243 -0.980676 -0.0124314
-47.9939 11.1866 -4.70381 0.216475 -0.976277 -0.00462099
-47.1566 11.388 -5.6324 0.238896 -0.970969 -0.012126
-46.2011 11.637 -6.7102 0.258801 -0.96593 -0.00152518
-45.2893 11.8944 -7.74536 0.266199 -0.963822 -0.0136137
-44.4717 12.1315 -8.69677 0.274087 -0.961644 -0.0108116
-43.5447 12.4464 -9.77825 0.330478 -0.943647 -0.0177525
-42.5511 12.825 -11.0054 0.348863 -0.936911 -0.0221911
-41.7677 13.1178 -11.9783 0.346503 -0.938048 0.00120509
-40.9967 13.4325 -12.9451 0.388801 -0.921293 -0.00733294
-40.0523 13.8702 -14.1489 0.431077 -0.902311 0.00268514
-39.1843 14.3342 -15.3223 0.482968 -0.875594 -0.00882122
-38.3526 14.7835 -16.4845 0.489081 -0.872101 0.0155078
-37.6251 15.2199 -17.5587 0.522157 -0.852804 -0.00879426
-37.4607 15.3231 -17.8062 0.529318 -0.848359 -0.0105154
-38.4294 14.7265 -17.8027 0.496375 -0.868108 -0.000730164
-39.248 14.2786 -16.6413 0.481239 -0.876588 0.00144251
-39.9994 13.9083 -15.6288 0.443061 -0.896449 0.00871029
-40.8265 13.5135 -14.5557 0.404298 -0.914597 0.00745041
-41.8743 13.0836 -13.2612 0.360113 -0.93273 -0.0182364
-42.6737 12.7828 -12.2691 0.347878 -0.93754 0.000123314
-43.4656 12.4936 -11.2938 0.316172 -0.948655 -0.00946287
-44.284 12.2072 -10.2995 0.295739 -0.955171 -0.0136952
-45.3934 11.877 -9.01947 0.262526 -0.964904 -0.00638932
-46.3901 11.5991 -7.88456 0.258827 -0.965829 -0.0135479
-47.2277 11.3819 -6.94449 0.232261 -0.972594 -0.0107798
-48.2049 11.145 -5.85015 0.215135 -0.976383 -0.0198302
-49.309 10.9141 -4.63715 0.193928 -0.980944 -0.0118433
-50.2577 10.7267 -3.59429 0.174833 -0.984482 -0.0151143
-51.2517 10.5439 -2.51485 0.156345 -0.987512 -0.0193847
-52.282 10.3704 -1.41932 0.146025 -0.989181 -0.0140526
-53.1584 10.2438 -0.488813 0.130982 -0.991374 -0.00463614
-54.0471 10.1303 0.447729 0.115862 -0.993265 0.000816608
-54.9836 10.0194 1.43283 0.0978012 -0.99518 -0.00715583
-55.9495 9.91673 2.44579 0.0925681 -0.995676 -0.00782465
-57.0214 9.80952 3.56153 0.0873634 -0.996112 -0.0112989
-57.9229 9.72346 4.49626 0.0758317 -0.997069 -0.0101906
-59.0598 9.63303 5.67851 0.0662825 -0.997731 -0.0117746
-60.1319 9.55493 6.78632 0.0589876 -0.998223 -0.00840635
-60.1609 9.55293 6.81623 0.0607492 -0.998077 -0.0122908
-59.9526 9.58325 5.24462 0.0577366 -0.998225 -0.0146228
-58.846 9.66047 4.09326 0.0628635 -0.997986 -0.00849465
-57.8026 9.74765 3.01291 0.0790644 -0.996815 -0.0104621
-56.866 9.83521 2.0383 0.0870692 -0.996181 -0.00651002
-55.735 9.94775 0.854548 0.0970704 -0.99527 -0.00375596
-54.8565 10.0387 -0.0662833 0.10302 -0.994674 -0.00320359
-53.9204 10.1459 -1.05645 0.124021 -0.992279 0.000591857
-52.9645 10.2781 -2.06209 0.143298 -0.989586 -0.0135806
-51.9145 10.4531 -3.17784 0.14857 -0.988801 -0.0141139
-51.0458 10.5994 -4.11896 0.170842 -0.985248 -0.00997029
-50.1063 10.7729 -5.14402 0.177929 -0.984003 -0.00892278
-48.9301 11.001 -6.43446 0.180458 -0.983523 -0.010813
-48.014 11.2085 -7.45233 0.212357 -0.977068 -0.0155908
-47.0279 11.4532 -8.55493 0.227541 -0.973645 -0.0155221
-45.9931 11.7278 -9.72647 0.252513 -0.967447 -0.0168419
-45.1694 11.9561 -10.674 0.263219 -0.96465 -0.0128933
-44.3113 12.2197 -11.6886 0.310429 -0.950581 -0.00543574
-43.2319 12.5905 -12.993 0.322692 -0.9465 -0.00269082
-42.4503 12.8762 -13.9582 0.328637 -0.944433 0.00660269
-41.6424 13.1621 -14.9301 0.357643 -0.933855 -0.00243095
-40.7226 13.5604 -16.0865 0.397082 -0.917667 -0.0146099
-39.821 14.0008 -17.2846 0.436393 -0.899689 -0.0109794
-39.4428 14.1905 -17.797 0.454926 -0.890451 -0.0118018
-40.5099 13.6856 -17.7814 0.405285 -0.914107 -0.012309
-41.328 13.311 -16.7243 0.369508 -0.928794 -0.0283797
-42.2599 12.939 -15.5772 0.334692 -0.942036 -0.0234323
-43.0795 12.6529 -14.5836 0.328636 -0.944434 0.0065995
-43.9512 12.3577 -13.5287 0.295955 -0.955152 -0.00975657
-44.9085 12.0558 -12.385 0.280249 -0.959907 -0.00623243
-45.9507 11.7482 -11.1622 0.254441 -0.967041 -0.00958635
-46.872 11.5081 -10.1163 0.242013 -0.970264 -0.00415692
-47.7143 11.3008 -9.17022 0.212839 -0.977037 -0.00989749
-48.5904 11.095 -8.19331 0.206824 -0.978252 -0.0157248
-49.6378 10.8741 -7.04745 0.180491 -0.983572 -0.00304199
-50.6059 10.6902 -5.98642 0.170223 -0.985329 -0.0122541
-51.4803 10.5355 -5.02293 0.157281 -0.987509 -0.00946635
-52.4498 10.3808 -3.97575 0.142465 -0.989795 -0.00314287
-53.3359 10.2447 -3.02273 0.135219 -0.99062 -0.0197194
-54.3264 10.1024 -1.99047 0.108976 -0.993984 -0.0109184
-55.3811 9.98696 -0.87964 0.102813 -0.994697 -0.00280187
-56.3476 9.8904 0.131992 0.0929466 -0.995665 -0.00347838
-57.2648 9.80635 1.08895 0.0826182 -0.996575 -0.00339701
-58.2691 9.72193 2.13408 0.0701835 -0.997509 -0.00714281
-59.4173 9.63128 3.323 0.0622743 -0.998012 -0.00968953
-59.6634 9.61346 3.57668 0.0626045 -0.997996 -0.00922807
-59.6325 9.629 2.19102 0.0588449 -0.998208 -0.0108985
-58.5606 9.70489 1.07652 0.0646177 -0.997903 -0.00379739
-57.6816 9.77518 0.16444 0.0764822 -0.997053 -0.00595058
-56.787 9.85645 -0.773678 0.0898534 -0.995953 -0.00213549
-55.906 9.94101 -1.69274 0.0951118 -0.995428 -0.00876442
-55.0119 10.0341 -2.62807 0.112811 -0.993555 -0.0110639
-54.0443 10.1597 -3.63288 0.121271 -0.992551 -0.0116677
-52.9288 10.3201 -4.83318 0.134537 -0.990885 -0.0068866
-52.044 10.4542 -5.80093 0.148252 -0.98887 -0.0125122
-50.9512 10.6408 -6.99862 0.164609 -0.986353 0.00328178
-49.9478 10.8271 -8.08219 0.18217 -0.983146 -0.0153998
-49.0635 11.0117 -9.04687 0.202352 -0.979282 -0.00772308
-48.0857 11.2257 -10.1373 0.216473 -0.976261 -0.00737607
-47.0226 11.4807 -11.3397 0.232095 -0.972579 -0.0149078
-46.1555 11.7053 -12.3245 0.257823 -0.965842 0.026005
-45.2807 11.9533 -13.3474 0.280553 -0.95982 -0.00597146
-44.3692 12.2315 -14.4132 0.297176 -0.954817 -0.00338634
-43.3511 12.5674 -15.6467 0.314955 -0.949062 -0.00917581
-42.2862 12.94 -16.9366 0.320081 -0.947382 -0.0038989
-41.5482 13.2393 -17.8552 0.382492 -0.923867 -0.0130252
-42.6236 12.823 -17.9153 0.338248 -0.941041 -0.00550824
-43.4432 12.5474 -16.9224 0.318218 -0.947971 -0.00940658
-44.2717 12.2711 -15.9211 0.290391 -0.956828 -0.0123642
-45.2133 11.977 -14.8057 0.282451 -0.95921 -0.0117016
-46.0385 11.7419 -13.8543 0.239877 -0.970712 -0.0133206
-46.9095 11.5163 -12.8461 0.223441 -0.974716 -0.00147213
-48.0148 11.2478 -11.5966 0.232814 -0.972443 -0.0123643
-49.2006 10.9914 -10.2715 0.204031 -0.978964 -0.00123381
-50.0582 10.817 -9.32745 0.180278 -0.983598 -0.00584417
-51.0017 10.6371 -8.30978 0.17499 -0.984536 -0.00825175
-51.9916 10.4764 -7.24536 0.145452 -0.989338 -0.00730099
-52.8816 10.3414 -6.27158 0.142062 -0.989817 -0.00893957
-53.8386 10.2041 -5.23013 0.125024 -0.992133 -0.00643507
-54.778 10.0796 -4.22935 0.115865 -0.993223 -0.00912066
-55.898 9.94529 -3.05883 0.084246 -0.996358 -0.0131666
-56.8778 9.85768 -2.03585 0.0806368 -0.996704 -0.00884621
-57.7529 9.77948 -1.11856 0.0804291 -0.996732 -0.00754405
-58.9107 9.68646 0.0973202 0.0607295 -0.998122 -0.00800997
-59.4554 9.64909 0.655553 0.060985 -0.998134 -0.00316998
-59.3572 9.66652 -0.802905 0.060728 -0.998122 -0.00801151
-58.4371 9.73264 -1.76113 0.0768078 -0.997023 -0.00678898
-57.3565 9.82059 -2.89382 0.08031 -0.996767 0.00252173
-56.4759 9.90248 -3.80554 0.0929985 -0.995614 -0.0101608
-55.5639 9.99961 -4.76589 0.0919958 -0.995687 -0.0120477
-54.2902 10.1572 -6.13345 0.121821 -0.992507 -0.0094143
-53.391 10.2758 -7.10102 0.131803 -0.991237 -0.00883007
-52.4629 10.4096 -8.10524 0.141731 -0.989887 0.00598796
-51.5761 10.5472 -9.05596 0.153703 -0.988091 -0.00721903
-50.5448 10.7343 -10.1646 0.178224 -0.983977 -0.00500631
-49.6808 10.9009 -11.1137 0.189047 -0.98193 -0.00867591
-48.7582 11.0947 -12.1393 0.209025 -0.97783 -0.0125259
-47.7049 11.3374 -13.3298 0.22007 -0.975463 -0.0064377
-46.8278 11.5523 -14.3255 0.239802 -0.970759 -0.0110953
-45.7089 11.8545 -15.6098 0.251225 -0.96787 -0.0106987
-44.8831 12.0939 -16.5738 0.290393 -0.956828 -0.0123632
-44.0509 12.3603 -17.5708 0.296291 -0.955083 -0.00535453
-44.0089 12.3732 -17.621 0.291231 -0.956652 0.000724917
-44.962 12.086 -17.8589 0.280589 -0.959741 -0.0128815
-46.0526 11.7752 -16.5903 0.258869 -0.96588 -0.00793249
-46.9039 11.5493 -15.6136 0.236166 -0.971651 -0.0109047
-47.918 11.2999 -14.4619 0.219896 -0.975455 -0.0115258
-48.9361 11.0668 -13.3174 0.198402 -0.980068 -0.0101614
-49.8351 10.8822 -12.3137 0.187033 -0.9823 -0.0102341
-50.8622 10.6814 -11.1891 0.177855 -0.984054 -0.00213107
-52.0083 10.4861 -9.95642 0.146061 -0.989275 0.000427033
-53.2696 10.301 -8.60393 0.131407 -0.991317 -0.00479087
-54.1585 10.18 -7.64979 0.129415 -0.991585 -0.00335777
-55.0987 10.061 -6.64432 0.126997 -0.991874 -0.00759627
