-23.6655 30.5634 6.99864 0.716559 -0.69349 -0.074933
-24.4896 29.7098 6.84531 0.732119 -0.675086 -0.0908896
-25.3849 28.7394 6.58481 0.742246 -0.66591 -0.0750734
-26.3026 27.7392 6.09819 0.758927 -0.647741 -0.0663076
-27.1316 26.8079 5.50029 0.76875 -0.637014 -0.0565555
-27.843 25.9853 4.95614 0.775279 -0.629534 -0.0512118
-28.5423 25.1685 4.38719 0.773803 -0.632009 -0.0423076
-29.1817 24.4302 3.49937 0.780261 -0.624532 -0.0334385
-29.6709 23.8547 2.71656 0.780596 -0.624554 -0.0241071
-30.1772 23.2508 1.46949 0.784954 -0.619466 -0.0105066
-30.6 22.7301 0.509966 0.783607 -0.621239 -0.00474581
-30.914 22.3235 -0.513509 0.787908 -0.615668 0.0124438
-30.9802 22.2137 -1.77584 0.777564 -0.628706 0.0110984
-31.1115 22.0176 -2.93171 0.785937 -0.61803 0.0184816
-31.2428 21.8126 -4.09025 0.78674 -0.616903 0.0216808
-31.2774 21.7221 -5.41105 0.775167 -0.63145 0.0196609
-31.4375 21.4556 -6.69541 0.782466 -0.621025 0.0455413
-31.7833 20.9566 -7.65367 0.763962 -0.642953 0.0545208
-32.3653 20.2071 -8.22081 0.740733 -0.667647 0.069698
-32.9767 19.4982 -8.84825 0.710912 -0.699629 0.0677298
-33.3106 19.0972 -9.77451 0.692255 -0.719893 0.0487597
-33.3782 18.9829 -10.9351 0.700386 -0.713371 0.0129742
-33.4936 18.892 -12.1974 0.705415 -0.708223 -0.0284635
-33.6573 18.7878 -13.4078 0.720869 -0.691936 -0.0396503
-33.6268 18.8912 -14.5801 0.731419 -0.68034 -0.0452239
-33.214 19.4102 -15.483 0.747524 -0.662348 -0.0488459
-32.4678 20.4086 -15.907 0.810173 -0.580298 -0.0829078
-31.8613 21.241 -15.5921 0.82753 -0.556824 -0.0713707
-31.26 22.0458 -14.844 0.82545 -0.561195 -0.0607674
-30.6649 22.864 -14.3742 0.820921 -0.568419 -0.0545374
-29.9776 23.8575 -14.8241 0.803526 -0.593044 -0.0514156
-29.4064 24.6502 -15.3695 0.79417 -0.606522 -0.0371667
-28.7948 25.4667 -15.8136 0.784523 -0.619278 -0.0291033
-28.051 26.3995 -16.1756 0.77435 -0.632532 -0.0149157
-27.2106 27.4316 -16.4761 0.771651 -0.636004 -0.00349039
-26.5431 28.2286 -16.7623 0.764482 -0.644623 0.0031237
-25.6694 29.2515 -17.2287 0.761967 -0.647551 0.00909233
-24.8277 30.224 -17.3752 0.755507 -0.65505 0.0106919
-24.1201 31.0261 -17.6083 0.750449 -0.660844 0.0104777
-23.2885 31.9605 -17.6381 0.742991 -0.669094 0.0149287
-22.3927 32.9361 -17.6644 0.731396 -0.68184 0.00951918
-21.6556 33.7222 -17.5128 0.718233 -0.695388 0.0144807
-20.8445 34.527 -17.1356 0.697314 -0.716718 0.00122652
-19.9603 35.3537 -16.3221 0.675852 -0.736859 -0.0161052
-19.3474 35.8764 -15.4419 0.65483 -0.755201 -0.0294807
-18.7918 36.3101 -14.5695 0.633786 -0.772652 -0.0363951
-18.2536 36.6738 -13.4838 0.594901 -0.802396 -0.0474718
-17.8606 36.8939 -12.1661 0.583354 -0.81121 -0.0403323
-17.4788 37.1715 -12.2275 0.583354 -0.81121 -0.0403277
-16.7043 37.7254 -13.5245 0.538725 -0.841955 -0.0241548
-16.0535 38.1876 -14.4604 0.513232 -0.855713 -0.0659338
-15.1915 38.7769 -15.5869 0.466217 -0.881183 -0.0782483
-14.3996 39.2767 -16.3615 0.460237 -0.882181 -0.0995736
-13.489 39.837 -17.1174 0.464522 -0.880642 -0.0932137
-13.9058 39.7207 -18.1054 0.480209 -0.872802 -0.0852918
-14.248 39.6489 -19.5292 0.506414 -0.859787 -0.0636364
-15.3927 38.9525 -19.4646 0.529861 -0.84618 -0.0546214
-16.3533 38.3287 -19.4764 0.56953 -0.82038 -0.0444129
-17.5143 37.4875 -19.6228 0.5931 -0.804639 -0.0277284
-18.4839 36.7276 -19.5335 0.635985 -0.770783 -0.0320629
-19.3263 35.9767 -19.535 0.670229 -0.742016 -0.0139202
-20.1933 35.1819 -19.5905 0.694674 -0.71932 -0.00161323
-21.2347 34.141 -19.5678 0.724332 -0.689435 0.00471523
-22.1336 33.1883 -19.5332 0.73072 -0.682623 0.00861971
-22.9718 32.2837 -19.528 0.737916 -0.674872 0.00524069
-23.7173 31.4527 -19.5054 0.747591 -0.664118 0.00728769
-24.5859 30.4674 -19.4623 0.750541 -0.660762 0.00875521
-25.4072 29.5248 -19.4438 0.754589 -0.656172 0.00582353
-26.2042 28.6048 -19.5171 0.757879 -0.652385 0.00369339
-26.9473 27.7379 -19.6592 0.76034 -0.649509 0.00448599
-27.8349 26.6934 -19.6952 0.762915 -0.646497 0.000666669
-28.7031 25.6682 -19.6103 0.762898 -0.646476 -0.00740446
-29.4614 24.7698 -19.46 0.764257 -0.644909 -0.00141827
-29.9924 24.1224 -18.9178 0.77188 -0.635066 -0.0298744
-30.2426 23.7529 -17.8801 0.772273 -0.633631 -0.0455545
-30.7978 22.9704 -17.1513 0.805764 -0.586465 -0.0779627
-31.4303 22.0447 -17.0662 0.822996 -0.564486 -0.0635028
-32.0485 21.1228 -16.9903 0.824577 -0.562934 -0.05638
-32.8121 20.0444 -17.1644 0.823492 -0.566097 -0.0276548
-33.3897 19.3074 -17.7679 0.778305 -0.627653 -0.0170958
-33.8088 18.8409 -18.834 0.762285 -0.646027 -0.0334157
-34.4403 18.1671 -19.4718 0.729061 -0.68118 -0.0668142
-35.2216 17.434 -19.4429 0.658724 -0.750485 -0.0252687
-36.0575 16.7649 -19.4114 0.626204 -0.779405 -0.0191376
-36.982 16.0513 -19.4483 0.609301 -0.792909 -0.00691012
-37.9235 15.4115 -19.4701 0.50924 -0.86061 0.00500092
-38.8912 14.8456 -19.4172 0.454053 -0.890969 0.00325609
-38.9838 14.7915 -20.4874 0.466146 -0.884704 0.00262728
-37.9294 15.4022 -20.4651 0.508986 -0.860763 0.0044964
-36.7474 16.219 -20.5409 0.597616 -0.801701 0.0114537
-35.8766 16.9112 -20.4454 0.639399 -0.768836 0.00778484
-34.9681 17.7104 -20.4958 0.681749 -0.731556 0.00665166
-34.1574 18.5288 -20.5297 0.742137 -0.670185 -0.00920294
-33.3245 19.4734 -20.2889 0.757253 -0.653051 -0.00961134
-33.1834 19.6164 -19.0435 0.776655 -0.628782 -0.0379483
-32.9387 19.8928 -18.0811 0.788639 -0.61461 -0.0169468
-32.2958 20.8515 -18.0246 0.833193 -0.550384 -0.0535474
-31.6147 21.8784 -17.9689 0.83476 -0.547048 -0.0625541
-31.0255 22.7706 -18.0335 0.819658 -0.565975 -0.0885045
-30.6042 23.3715 -18.728 0.764207 -0.644282 -0.0280559
-30.6527 23.3375 -19.8186 0.77302 -0.634365 -0.00306402
-30.2144 23.8693 -20.5221 0.771863 -0.63576 0.00608652
-29.4604 24.7733 -20.5445 0.764258 -0.644907 -0.001418
-28.7026 25.6705 -20.6193 0.763335 -0.646001 0.00131434
-27.9783 26.5237 -20.5945 0.761552 -0.648104 0.000353238
-27.03 27.6362 -20.5681 0.760289 -0.649584 0.00138872
-26.1718 28.6336 -20.5112 0.755592 -0.655032 0.00367805
-25.4687 29.4451 -20.4525 0.754397 -0.656389 0.00620201
-24.7147 30.3102 -20.465 0.751628 -0.659551 0.00697175
-23.8105 31.3364 -20.549 0.748444 -0.663165 0.00663328
-23.0613 32.1744 -20.4465 0.743004 -0.669272 0.00438091
-22.1592 33.1565 -20.5171 0.732472 -0.680797 -0.000415935
-21.3105 34.0623 -20.5517 0.725368 -0.688343 -0.000661176
-20.3189 35.0644 -20.5842 0.695901 -0.718135 -0.00186502
-19.4782 35.8667 -20.5561 0.68579 -0.727118 -0.0314744
-18.6354 36.6187 -20.5056 0.650761 -0.758767 -0.0145012
-17.7467 37.3458 -20.4983 0.616498 -0.787121 -0.0192481
-16.8305 38.032 -20.4678 0.590029 -0.806214 -0.0434167
-15.7036 38.8089 -20.4557 0.547882 -0.835426 -0.0434565
-14.571 39.5074 -20.5577 0.513514 -0.857011 -0.0428056
-13.6505 40.0121 -20.557 0.442639 -0.896665 -0.00787578
-13.3385 40.1591 -19.4991 0.445063 -0.895488 -0.00442489
-12.9272 40.2808 -18.1213 0.408154 -0.888248 -0.179159
-11.8717 40.6492 -17.9866 0.315453 -0.939851 -0.130987
-10.9448 40.9428 -17.8344 0.314396 -0.941364 -0.122427
-11.8188 40.6201 -17.6312 0.32032 -0.939458 -0.12171
-12.4696 40.2465 -16.6585 0.336491 -0.933809 -0.120724
-13.3219 39.7925 -16.0322 0.432008 -0.894335 -0.113438
-14.3002 39.2099 -15.1354 0.45563 -0.886045 -0.0842146
-15.2916 38.5925 -14.0277 0.456719 -0.885537 -0.0850438
-15.8804 38.2097 -13.1379 0.487219 -0.871069 -0.0621025
-16.5097 37.7792 -11.9562 0.523834 -0.850475 -0.0478474
-16.82 37.494 -10.5456 0.539266 -0.84011 -0.0583735
-16.9122 37.3615 -9.46326 0.509623 -0.859133 -0.0440054
-16.8403 37.3439 -8.34978 0.526994 -0.84783 -0.0576246
-16.9684 37.1678 -7.12733 0.525245 -0.849323 -0.0492598
-17.0828 37.0476 -5.92531 0.505669 -0.862149 -0.0274938
-17.2432 36.9269 -4.57959 0.500211 -0.865479 -0.0271044
-17.2923 36.8265 -3.41611 0.542194 -0.8373 -0.0703859
-17.5126 36.6159 -2.18564 0.519483 -0.852315 -0.0607294
-17.5983 36.4824 -1.06929 0.535815 -0.842485 -0.0554427
-17.7706 36.2746 0.381942 0.551967 -0.831235 -0.0659412
-17.8215 36.1588 1.44594 0.557455 -0.827593 -0.064445
-17.6679 36.1734 2.67221 0.564815 -0.823733 -0.0494331
-17.3814 36.3003 3.70722 0.561669 -0.825203 -0.0597327
-16.9953 36.4777 4.88482 0.541504 -0.838851 -0.0557069
-16.3883 36.8105 5.73915 0.531206 -0.844884 -0.0619911
-15.588 37.257 6.64757 0.526512 -0.849588 -0.0313929
-14.6518 37.7908 7.07927 0.497266 -0.866861 -0.032644
-13.379 38.4736 7.71054 0.490156 -0.871348 -0.0191327
-12.1955 39.1132 7.85446 0.469052 -0.883158 -0.00442236
-11.1733 39.6101 8.012 0.430466 -0.90241 0.0188487
-10.0701 40.0681 7.84438 0.361494 -0.931577 0.0385521
-8.8489 40.5222 7.50146 0.352338 -0.935162 0.0364413
-7.74067 40.845 6.83127 0.287079 -0.955781 0.0637792
-7.08251 40.9871 6.01049 0.267226 -0.962416 0.0484358
-6.27201 41.1624 5.25058 0.247649 -0.967912 0.0426115
-5.48481 41.309 4.3199 0.220221 -0.974804 0.0315553
-4.70494 41.4349 3.45294 0.179575 -0.983108 0.0331769
-3.90199 41.549 2.46349 0.161535 -0.98637 0.0313208
-3.17319 41.6379 1.60734 0.150534 -0.988022 0.0339271
-2.44855 41.713 0.713837 0.117755 -0.992885 0.0176705
-1.65851 41.7822 -0.0923374 0.0978291 -0.995084 0.0153899
-0.800108 41.845 -0.858221 0.0791169 -0.996819 0.00958904
-0.120517 41.8847 -1.70245 0.0730054 -0.997208 0.0157255
0.586851 41.9195 -2.55168 0.0354879 -0.999202 -0.0183409
1.32403 41.9551 -3.34094 0.018473 -0.999712 -0.000928433
2.33294 41.9471 -4.3533 -0.0313651 -0.999302 -0.0141327
3.11711 41.9398 -5.12718 -0.0473254 -0.998735 -0.0167454
4.02577 41.8911 -6.02401 -0.0760522 -0.99703 -0.00246706
4.8737 41.8215 -6.83634 -0.101849 -0.994496 -0.0245741
5.72964 41.7218 -7.84369 -0.128795 -0.991405 -0.0179092
6.49409 41.64 -9.28227 -0.213435 -0.976242 -0.0258302
6.93265 41.5808 -10.36 -0.214334 -0.975187 -0.0522715
7.05789 41.621 -11.5935 -0.252364 -0.966266 -0.0500499
7.1183 41.6859 -12.7916 -0.248208 -0.965024 -0.0836424
6.93146 41.8563 -14.0306 -0.249248 -0.963753 -0.0951634
6.51816 42.0922 -15.0747 -0.248711 -0.95952 -0.132155
5.96791 42.353 -16.017 -0.167912 -0.977186 -0.130053
5.02407 42.6046 -16.835 -0.108564 -0.989549 -0.0949011
4.18353 42.7567 -17.5357 -0.0594815 -0.993547 -0.0894303
2.91205 42.8477 -18.2563 -0.00613496 -0.996379 -0.0847974
1.80687 42.855 -18.6035 0.0304048 -0.996789 -0.0740767
0.368569 42.796 -18.6704 0.0609018 -0.995082 -0.0768991
-0.920541 42.7126 -18.8087 0.0774909 -0.994634 -0.0680557
-1.98363 42.6179 -18.8078 0.100778 -0.992491 -0.0693181
-3.40061 42.4505 -18.7672 0.133452 -0.989274 -0.0593946
-4.73285 42.2597 -18.8149 0.159986 -0.98618 -0.0430494
-5.9996 42.0451 -18.6918 0.165357 -0.98524 -0.0442703
-7.08313 41.8621 -18.7075 0.169064 -0.984061 -0.0551432
-8.12278 41.6763 -18.5659 0.173378 -0.983836 -0.0419125
-9.24522 41.48 -18.8488 0.178724 -0.983526 -0.0270896
-9.36791 41.4758 -19.9791 0.192909 -0.981175 -0.00586215
-8.48359 41.6632 -20.5354 0.194316 -0.980756 -0.0178671
-7.37239 41.8863 -20.5315 0.181767 -0.982777 -0.0314782
-6.22041 42.0874 -20.6367 0.165111 -0.986105 -0.0183154
-4.97748 42.291 -20.5264 0.16613 -0.985494 -0.034689
-3.72907 42.4826 -20.5929 0.131824 -0.990732 -0.0327431
-2.61302 42.6215 -20.5382 0.11611 -0.992961 -0.0234064
-1.41003 42.7528 -20.4843 0.0993423 -0.994675 -0.0274211
-0.159959 42.8659 -20.4372 0.0721703 -0.996736 -0.0361704
0.966418 42.9441 -20.4477 0.0650743 -0.997223 -0.0362142
2.46491 43.0015 -20.4967 0.0235108 -0.998635 -0.0466405
3.69562 43.0073 -20.568 -0.015268 -0.999208 -0.0367425
4.76435 42.9454 -20.5535 -0.0637473 -0.995146 -0.0743791
6.03728 42.799 -20.552 -0.20348 -0.978253 -0.0402079
7.3189 42.4876 -20.6444 -0.260389 -0.965182 -0.0249414
8.40036 42.1756 -20.6413 -0.320585 -0.947204 -0.00549678
9.20331 41.845 -20.1382 -0.450352 -0.892751 -0.010913
9.17798 41.8014 -18.908 -0.349817 -0.934722 -0.0626341
9.70812 41.3198 -18.0037 -0.590168 -0.707257 -0.336903
10.6533 40.379 -17.9941 -0.724136 -0.689333 -0.0211256
11.4019 39.5935 -18.0303 -0.685231 -0.715524 0.135955
12.0596 38.8812 -18.5227 -0.497702 -0.86049 0.108856
12.047 38.8335 -19.8585 -0.570495 -0.820726 0.028088
12.6519 38.3736 -20.4881 -0.582882 -0.811155 0.047699
13.7317 37.6377 -20.4579 -0.554127 -0.829736 0.0664858
14.7302 36.9973 -20.4405 -0.538153 -0.840297 0.0655169
15.6472 36.4183 -20.4983 -0.533902 -0.84436 0.0438094
16.5676 35.8532 -20.3763 -0.527647 -0.84824 0.0455802
17.6523 35.1271 -20.4736 -0.553571 -0.830593 0.0600431
18.7046 34.3773 -20.5262 -0.590057 -0.805867 0.0488238
19.7427 33.5995 -20.4871 -0.610898 -0.790015 0.0517687
20.6712 32.8716 -20.4474 -0.628426 -0.776783 0.0410963
21.6616 32.0565 -20.4403 -0.6424 -0.764533 0.0527892
22.598 31.2513 -20.4949 -0.651974 -0.75646 0.0518111
23.4849 30.4638 -20.4748 -0.663963 -0.746646 0.0409006
24.4707 29.5646 -20.4515 -0.679869 -0.732372 0.0375317
25.2613 28.8181 -20.5109 -0.690377 -0.7225 0.037064
26.1334 27.9734 -20.5547 -0.699915 -0.713425 0.033831
26.9229 27.1876 -20.5561 -0.713452 -0.699994 0.0315248
27.788 26.2949 -20.5083 -0.725535 -0.687564 0.0292355
28.701 25.3202 -20.5001 -0.737222 -0.675328 0.020306
29.4276 24.5124 -20.4811 -0.74943 -0.661812 0.0189582
30.2248 23.5942 -20.4318 -0.758654 -0.651387 0.011698
30.3721 23.4378 -19.3132 -0.770287 -0.637637 0.00879932
30.6127 23.183 -18.2003 -0.794278 -0.605706 0.0473639
31.2381 22.3685 -17.8814 -0.803866 -0.588306 0.0877296
31.7681 21.7557 -17.1402 -0.808194 -0.580227 0.100779
31.7669 21.9415 -16.0526 -0.801922 -0.589281 0.0983309
31.24 22.7733 -15.3146 -0.780413 -0.613221 0.119355
30.8624 23.3594 -14.4763 -0.732313 -0.677754 0.0564459
30.7997 23.4545 -13.107 -0.769729 -0.63803 0.0164501
30.82 23.4318 -11.9725 -0.794833 -0.606829 0.000250022
30.8391 23.4099 -10.8844 -0.819766 -0.572636 -0.00850228
30.974 23.2293 -9.88256 -0.83311 -0.551775 0.0383636
31.5717 22.3727 -9.92938 -0.814315 -0.577209 0.0609977
32.1058 21.5611 -10.4931 -0.80675 -0.585493 0.0797019
32.675 20.7151 -11.0535 -0.79136 -0.60577 0.0824157
33.2446 19.9046 -11.6777 -0.764303 -0.627186 0.144014
33.3958 19.6555 -12.6747 -0.726463 -0.686833 0.0226083
33.4345 19.6056 -13.9033 -0.737399 -0.675336 -0.0116567
33.455 19.5912 -14.9706 -0.760425 -0.649419 -0.00312069
33.4465 19.5792 -16.0978 -0.79008 -0.612802 0.0157288
33.2849 19.6655 -17.2854 -0.768969 -0.631055 0.102255
33.2159 19.6074 -18.3552 -0.718798 -0.694686 0.0240616
33.1707 19.604 -19.541 -0.75156 -0.659282 0.0224788
33.4117 19.3413 -20.5086 -0.729694 -0.683647 -0.00525316
34.3093 18.3755 -20.5153 -0.704981 -0.707317 -0.0427873
35.2405 17.5662 -20.5678 -0.630046 -0.776413 -0.00985712
36.1835 16.8297 -20.5135 -0.597345 -0.801747 0.00657867
37.0657 16.1983 -20.5386 -0.567502 -0.823148 -0.0066778
38.0467 15.5498 -20.5372 -0.550878 -0.834509 -0.0113163
39.1669 14.9246 -20.5883 -0.459577 -0.888133 -0.000137351
40.2552 14.3694 -20.6294 -0.426083 -0.904473 0.0181316
41.3945 13.8435 -20.6709 -0.399277 -0.916616 0.00935852
42.6654 13.316 -20.5802 -0.361395 -0.932227 0.0020172
43.7202 12.9286 -20.6043 -0.3465 -0.938019 0.00358503
45.0312 12.4919 -20.65 -0.296858 -0.954848 -0.00721506
46.2645 12.1312 -20.6055 -0.2574 -0.966288 0.00576691
47.3924 11.8351 -20.5696 -0.24333 -0.969913 0.00719962
48.5323 11.5482 -20.5505 -0.233814 -0.972183 0.00861075
49.7846 11.2605 -20.6605 -0.207169 -0.978115 0.0103589
51.0407 11.004 -20.6544 -0.198038 -0.979941 0.0218788
52.2188 10.8026 -20.6347 -0.146225 -0.989108 0.0168151
53.6831 10.5905 -20.5493 -0.137818 -0.990414 0.00931325
54.7486 10.4479 -20.602 -0.124392 -0.99215 0.012817
56.0108 10.3024 -20.5528 -0.109759 -0.993829 0.0160527
57.292 10.179 -20.5625 -0.0930654 -0.995575 0.0129244
58.4843 10.0777 -20.6249 -0.0799331 -0.996701 0.0140863
59.8139 9.98143 -20.6859 -0.0659966 -0.997734 0.0130843
61.0845 9.90142 -20.7725 -0.0554696 -0.998384 0.011498
62.1849 9.85157 -20.506 -0.0461354 -0.998843 0.013454
63.1852 9.81678 -20.0288 -0.0399264 -0.999104 0.0140591
64.0525 9.78716 -19.3746 -0.0388216 -0.99919 0.00963576
65.0332 9.77051 -18.1695 -0.0292534 -0.999497 0.0122094
65.1515 9.78446 -16.8939 -0.0271999 -0.999522 0.01466
64.8422 9.8206 -15.5812 -0.0323551 -0.999282 0.0197001
64.375 9.85979 -14.4064 -0.0329562 -0.999241 0.0207902
63.6274 9.91239 -13.4289 -0.0410062 -0.998855 0.0246569
62.7309 9.97232 -12.4783 -0.0410674 -0.998876 0.0236706
62.0924 10.0237 -11.4976 -0.0453608 -0.998734 0.0217653
61.3891 10.0812 -10.5684 -0.0536398 -0.99822 0.0260846
60.9011 10.1339 -9.56719 -0.0564275 -0.998044 0.0269176
60.4495 10.1884 -8.47906 -0.0575343 -0.998037 0.0246535
60.08 10.2392 -7.28975 -0.0699797 -0.997269 0.0235859
59.8935 10.2887 -5.90774 -0.0668774 -0.997402 0.0267773
59.77 10.3291 -4.65492 -0.0618654 -0.997754 0.0257001
59.7719 10.3603 -3.37749 -0.0669049 -0.997428 0.0257306
59.8203 10.388 -2.27066 -0.0657963 -0.997423 0.0286049
59.9298 10.4149 -0.910729 -0.0674318 -0.99744 0.0237854
60.0226 10.433 0.21533 -0.0637792 -0.997789 0.0186707
60.3216 10.4385 1.4653 -0.068996 -0.997397 0.0209512
60.473 10.4496 2.58641 -0.0637508 -0.99781 0.0176586
60.7697 10.4518 3.90229 -0.0612936 -0.998014 0.0145127
61.0066 10.4553 5.02331 -0.0616666 -0.997966 0.0161519
61.4419 10.4476 6.29647 -0.0529872 -0.998499 0.0138782
62.4041 10.4088 7.33985 -0.0536156 -0.998488 0.0121292
63.4208 10.3717 8.1904 -0.0440384 -0.998993 0.00855817
64.3824 10.3359 8.91935 -0.0378637 -0.999245 0.00812064
65.3096 10.3063 9.57918 -0.0362221 -0.999313 0.00771136
66.3372 10.2805 10.5601 -0.0279506 -0.999581 0.00748634
67.1159 10.2663 11.4698 -0.0256471 -0.999648 0.00672293
67.3737 10.268 12.6192 -0.0259973 -0.999632 0.0077021
67.7097 10.2674 14.0684 -0.026549 -0.99964 0.00391128
67.5006 10.2777 15.2259 -0.0287504 -0.999583 0.00283568
66.8776 10.2983 16.1097 -0.0309317 -0.999512 0.00394259
66.157 10.3241 16.9087 -0.0335692 -0.999435 0.000473033
65.416 10.351 17.6867 -0.0351318 -0.999376 0.00378219
64.6315 10.3853 18.5747 -0.0415633 -0.999122 0.005293
63.4308 10.4443 19.5734 -0.0476861 -0.998856 0.00301305
62.3651 10.4987 20.1815 -0.0573511 -0.998354 -8.2348e-05
61.3796 10.5575 20.5872 -0.0610161 -0.998133 0.00285272
59.9586 10.6562 20.6887 -0.0739979 -0.997255 -0.00276234
58.7644 10.752 20.5942 -0.0888023 -0.996045 0.00301728
57.6088 10.8573 20.5499 -0.0933303 -0.995634 0.00136342
56.2533 11.0062 20.5776 -0.120789 -0.992643 0.00330397
54.8741 11.1848 20.6167 -0.127378 -0.991836 0.00573201
53.4851 11.3829 20.5494 -0.148375 -0.988902 -0.00110819
52.2703 11.5788 20.5728 -0.169818 -0.985437 0.000613614
51.053 11.8022 20.5992 -0.186417 -0.982435 0.00464898
50.0073 12.0063 20.622 -0.200906 -0.979587 0.00678331
48.4404 12.3539 20.5226 -0.222878 -0.974846 0.000625616
47.3275 12.6285 20.5275 -0.239945 -0.970766 0.000767785
46.262 12.919 20.4228 -0.274073 -0.961686 0.00657665
45.2165 13.2308 20.5436 -0.294853 -0.955542 -0.00107996
44.0917 13.599 20.4835 -0.325133 -0.945663 -0.00330111
42.9366 14.0311 20.4894 -0.371323 -0.92849 -0.00500911
41.7071 14.5557 20.5268 -0.422558 -0.906203 0.0155365
40.4224 15.1809 20.57 -0.458669 -0.888384 0.0199353
39.4733 15.6902 20.5541 -0.495571 -0.868526 0.0084883
38.4973 16.3081 20.5433 -0.557529 -0.829674 0.0255075
37.5798 16.9463 20.5883 -0.609396 -0.79269 -0.000889351
36.7426 17.6106 20.524 -0.620371 -0.784255 -0.00920474
35.9394 18.3152 20.596 -0.705406 -0.708052 -0.0326241
35.1674 19.146 20.5681 -0.755963 -0.654587 0.00472828
34.7712 19.5992 19.8724 -0.754084 -0.656744 0.00664786
34.7207 19.6599 18.5767 -0.759227 -0.650793 -0.00626944
34.1909 20.3847 17.9519 -0.817853 -0.574323 -0.0356307
33.5341 21.3345 17.9377 -0.818574 -0.574387 0.00409922
32.9105 22.2276 17.8394 -0.817591 -0.575398 0.0210449
32.4088 22.9288 17.9229 -0.8023 -0.595235 0.0448298
32.1003 23.3627 18.5666 -0.764241 -0.644587 0.0188073
32.1024 23.3728 19.6415 -0.772779 -0.634668 0.00141106
31.7796 23.7582 20.5034 -0.768641 -0.639599 -0.0102191
31.0904 24.5889 20.5649 -0.76863 -0.639611 -0.0102876
30.2428 25.5975 20.4657 -0.757681 -0.652472 -0.0122137
29.3875 26.5676 20.5591 -0.750964 -0.660186 -0.0143448
28.3615 27.7367 20.4838 -0.751787 -0.65928 -0.0128893
27.6463 28.5561 20.487 -0.754825 -0.655815 -0.0120654
26.6383 29.7226 20.5187 -0.757862 -0.652236 -0.0152302
25.694 30.8269 20.4838 -0.760168 -0.649551 -0.015085
24.9057 31.7563 20.5477 -0.762279 -0.647148 -0.0112729
24.1996 32.586 20.5085 -0.759427 -0.650475 -0.0119939
23.4616 33.4415 20.5594 -0.752723 -0.658306 -0.00633529
22.5944 34.4292 20.4718 -0.748152 -0.66348 -0.00786667
21.8621 35.2383 20.496 -0.735248 -0.677775 -0.00560147
21.0956 36.0624 20.4175 -0.729052 -0.684457 -0.00131839
20.3221 36.8684 20.5094 -0.713274 -0.700883 0.00175499
19.5607 37.6272 20.4314 -0.692468 -0.720604 0.0251209
18.6087 38.4553 20.4347 -0.634969 -0.771945 0.0284195
17.6331 39.1824 20.468 -0.58797 -0.807243 0.0509366
16.354 40.0384 20.4804 -0.548042 -0.834185 0.061521
15.2317 40.6932 20.5054 -0.47061 -0.881279 0.0233785
14.0535 41.2573 20.4424 -0.422636 -0.906136 0.0166158
13.6998 41.3991 19.4871 -0.427866 -0.903664 0.0124603
13.5153 41.4783 18.3534 -0.465039 -0.885271 -0.00576973
12.4501 41.6858 17.8794 -0.192871 -0.970715 0.138139
11.331 41.8459 17.9181 -0.13282 -0.989896 0.0496429
10.9078 41.8822 17.5444 -0.137916 -0.988853 0.0556525
11.824 41.7115 17.0026 -0.156586 -0.984351 0.080594
12.8849 41.3888 16.2771 -0.273405 -0.956159 0.104928
13.6018 41.092 15.5558 -0.295511 -0.949012 0.108735
14.4654 40.6648 14.6566 -0.378637 -0.922687 0.0726857
15.1561 40.2757 13.7031 -0.435515 -0.897987 0.062818
15.7668 39.9024 12.6158 -0.435066 -0.898038 0.0651599
16.2551 39.5924 11.5311 -0.431011 -0.900568 0.0566268
16.5392 39.3393 10.2788 -0.473456 -0.876415 0.0879556
16.664 39.2104 9.19723 -0.476319 -0.877932 0.0481016
16.7272 39.1284 8.08835 -0.453211 -0.890389 0.0397939
16.652 39.1062 6.97215 -0.472809 -0.878561 0.0676909
16.588 39.0603 5.78255 -0.47508 -0.878485 0.0506217
16.562 38.9827 4.4672 -0.472044 -0.878981 0.0675821
16.5698 38.893 3.36438 -0.461381 -0.883228 0.0826387
16.5424 38.7602 1.83456 -0.453133 -0.88812 0.0769054
16.5217 38.6639 0.781351 -0.46172 -0.882458 0.0899066
16.3815 38.6328 -0.35785 -0.449166 -0.889865 0.0799394
16.2656 38.5601 -1.80283 -0.457821 -0.885611 0.0780532
15.8257 38.6925 -2.98405 -0.450331 -0.891552 0.0483344
15.2007 38.9407 -3.93053 -0.426496 -0.901465 0.0739015
14.3565 39.2438 -4.71769 -0.383667 -0.920537 0.0733539
13.4879 39.5661 -5.33239 -0.389495 -0.918565 0.0673219
12.3989 39.9828 -5.76267 -0.364781 -0.926617 0.0903962
11.4135 40.3365 -6.01788 -0.358347 -0.929821 0.0837862
10.2372 40.7092 -6.36573 -0.318539 -0.945067 0.0733563
8.98556 41.0676 -6.34563 -0.247734 -0.967411 0.0438099
7.79369 41.3443 -6.01607 -0.209518 -0.977478 0.023003
6.61276 41.5799 -5.58424 -0.161196 -0.986921 0.00172009
5.61842 41.7222 -5.03333 -0.116384 -0.9932 -0.00288597
4.82495 41.7985 -4.18684 -0.0899033 -0.995916 -0.00824677
3.69047 41.8752 -3.08778 -0.0671645 -0.997721 -0.0063949
2.80699 41.9293 -2.0634 -0.036345 -0.999339 0.000322108
2.00244 41.9467 -1.22342 0.00266276 -0.999896 0.0078814
0.975276 41.9544 -0.141044 0.0139718 -0.999833 0.0118049
0.197486 41.943 0.682786 0.0607727 -0.99785 0.0242795
-0.800108 41.9036 1.78085 0.0846543 -0.995906 0.0315931
-1.60679 41.8633 2.70572 0.105265 -0.993437 0.0447517
-2.32178 41.8193 3.49971 0.132072 -0.990262 0.0440209
-3.02097 41.7691 4.36457 0.145937 -0.98791 0.0493366
-3.77401 41.6858 5.18068 0.16175 -0.985555 0.0501761
-4.61253 41.5752 6.04659 0.198079 -0.97819 0.0625225
-5.41644 41.4647 6.90824 0.201378 -0.977717 0.0593045
-6.05165 41.3786 7.84845 0.246305 -0.966928 0.066205
-6.57772 41.3079 8.77729 0.286845 -0.955101 0.0741732
-7.08302 41.2407 9.71637 0.276824 -0.956767 0.0892499
-7.406 41.2558 10.7308 0.285057 -0.952382 0.108217
-7.35427 41.4116 11.8644 0.315683 -0.939128 0.135579
-7.26499 41.5975 12.9692 0.324948 -0.936301 0.133226
-6.9458 41.9033 14.1961 0.280405 -0.946658 0.158782
-6.37107 42.2607 15.404 0.213539 -0.963644 0.157807
-5.49956 42.5941 16.346 0.180549 -0.965646 0.186894
-4.70814 42.7767 17.0468 0.0718497 -0.992306 0.0993669
-3.78586 42.8869 17.68 0.0578432 -0.994396 0.0884862
-2.75158 42.9907 18.2192 0.035107 -0.995056 0.0929072
-1.5037 43.0155 18.4934 -0.0127728 -0.997932 0.0630006
-0.303416 42.9904 18.5645 -0.0376617 -0.997873 0.0532133
1.15935 42.939 18.7221 -0.0418976 -0.99837 0.0385777
2.51793 42.8693 18.7053 -0.0675071 -0.996828 0.0421411
3.63802 42.7788 18.7111 -0.0977135 -0.994628 0.034159
5.06384 42.6281 18.625 -0.105577 -0.993839 0.0337411
6.26099 42.4873 18.6151 -0.113102 -0.993401 0.0184469
7.33847 42.3586 18.46 -0.117314 -0.993037 0.0107563
8.4765 42.219 18.3243 -0.12243 -0.992409 0.0114489
9.46792 42.0969 18.2432 -0.120581 -0.992578 0.0152126
9.38324 42.1133 19.2079 -0.123582 -0.992331 0.00275376
9.18097 42.1399 20.285 -0.127501 -0.991837 0.00174879
8.07807 42.2828 20.562 -0.128577 -0.991698 0.00165579
7.01353 42.4191 20.5758 -0.122728 -0.992415 0.00656221
5.80136 42.5717 20.4623 -0.12499 -0.992093 0.0112431
4.69564 42.7062 20.4343 -0.11357 -0.99341 0.0154307
3.49264 42.838 20.469 -0.0960315 -0.994956 0.0290057
2.12811 42.9463 20.398 -0.0711862 -0.996797 0.0364496
1.01418 43.0146 20.4254 -0.057705 -0.997485 0.0410911
-0.551617 43.0794 20.3005 -0.0353241 -0.99853 0.0402458
-2.03796 43.1181 20.4268 -0.0153816 -0.999037 0.0406069
-3.28624 43.1212 20.4478 0.0141847 -0.998649 0.0467163
-4.36837 43.0681 20.4931 0.0522915 -0.996722 0.0617292
-5.4938 42.9916 20.4663 0.0731256 -0.994061 0.0805935
-6.63557 42.7675 20.4297 0.226117 -0.969368 0.0921457
-7.70966 42.5266 20.4682 0.240351 -0.964921 0.1027
-8.86679 42.1743 20.4142 0.288051 -0.954801 0.0648805
-9.60553 41.9182 19.7061 0.320674 -0.946876 0.0174629
-9.65704 41.8526 18.6102 0.261752 -0.96247 0.0425537
-10.2136 41.3195 17.9739 0.713636 -0.596176 0.362326
-11.0673 40.3395 17.929 0.783073 -0.605039 0.139734
-11.859 39.4029 17.8951 0.743476 -0.668342 -0.0237002
-12.401 38.7787 18.4865 0.665692 -0.743846 -0.0562132
-12.4758 38.6735 19.6569 0.680271 -0.732872 -0.0111484
-12.9279 38.2603 20.4448 0.662114 -0.749258 -0.0147585
-13.7757 37.5267 20.4479 0.646128 -0.762925 -0.0215295
-14.8818 36.6722 20.4128 0.598028 -0.800749 -0.0323486
-16.0295 35.8233 20.3386 0.595175 -0.803115 -0.0278068
-16.9769 35.1194 20.2954 0.595889 -0.802202 -0.0361692
-18.0379 34.321 20.2999 0.609653 -0.791482 -0.0425867
-19.0222 33.5354 20.408 0.629845 -0.77599 -0.0336887
-19.8863 32.823 20.4178 0.640916 -0.767183 -0.0256413
-20.804 32.0427 20.4331 0.655286 -0.754857 -0.0274396
-21.9116 31.0694 20.5142 0.663709 -0.747654 -0.0214765
-22.9656 30.1187 20.523 0.676217 -0.736413 -0.020624
-23.7546 29.3885 20.4906 0.68636 -0.727118 -0.0140179
-24.5734 28.6157 20.4555 0.692032 -0.721785 -0.010024
-25.5123 27.6977 20.5159 0.702634 -0.711523 -0.00624461
-26.5001 26.7096 20.4161 0.712174 -0.702003 -0.000877857
-27.3257 25.8689 20.4698 0.714226 -0.699906 -0.00347494
-28.1081 25.0708 20.5961 0.727655 -0.685722 -0.0153368
-28.904 24.1925 20.4597 0.74477 -0.667262 -0.00893912
-29.6056 23.3855 20.129 0.758398 -0.651788 0.00214271
-29.5803 23.4073 18.981 0.755706 -0.654904 0.00305368
-29.8469 23.0793 18.0503 0.782874 -0.616926 0.0558018
-30.5461 22.1339 17.8546 0.810501 -0.585546 -0.00415215
-31.2469 21.182 17.8385 0.812149 -0.582237 -0.0375877
-31.914 20.2864 17.8971 0.791982 -0.605741 -0.0764352
-32.3865 19.6703 18.6291 0.712488 -0.70151 -0.0105652
-32.3944 19.6429 19.7113 0.712201 -0.701948 0.00506577
-32.9031 19.1302 20.5068 0.713418 -0.700736 -0.00171962
-33.7598 18.2921 20.5574 0.689545 -0.723997 -0.0188507
-34.6794 17.4643 20.5264 0.644949 -0.763296 -0.0376769
-35.7864 16.586 20.5201 0.599868 -0.799602 -0.0196755
-36.7472 15.886 20.5859 0.571442 -0.819712 -0.0301295
-37.7843 15.2242 20.4904 0.520826 -0.852711 -0.0346009
-38.7415 14.6735 20.4859 0.496515 -0.867457 -0.0314833
-39.6917 14.1754 20.4761 0.461017 -0.887249 -0.0158906
-40.7084 13.7216 20.5424 0.398932 -0.916583 -0.0269919
-42.0038 13.201 20.5286 0.362823 -0.931764 -0.0132097
-43.1306 12.8029 20.4482 0.332004 -0.943185 -0.0132347
-44.1899 12.4525 20.4863 0.305478 -0.952135 -0.000326783
-45.8307 11.9688 20.5669 0.263297 -0.964707 -0.00378306
-47.0924 11.64 20.4785 0.233102 -0.972419 0.00243079
-48.3053 11.354 20.4919 0.209435 -0.977821 0.00113533
-49.395 11.1223 20.4126 0.189796 -0.981822 -0.00135013
-50.5258 10.9053 20.4693 0.179013 -0.983844 -0.00211434
-51.8807 10.666 20.4994 0.160609 -0.987008 -0.00168516
-53.1783 10.467 20.5503 0.13968 -0.990183 -0.00512539
-54.303 10.3131 20.5227 0.130392 -0.991462 -0.000605391
-55.5402 10.1629 20.5303 0.110769 -0.993814 -0.00799676
-56.8575 10.0249 20.4675 0.0962147 -0.995345 -0.00551357
-58.065 9.91627 20.4065 0.0811867 -0.996656 -0.00925553
-59.1477 9.8283 20.3977 0.0764055 -0.997052 -0.00697529
-60.4509 9.74031 20.3903 0.0670711 -0.997675 -0.0120781
-61.6062 9.67735 20.2656 0.0547797 -0.998431 -0.0115905
-62.686 9.63128 19.6101 0.0478141 -0.998771 -0.013057
-62.7395 9.64518 18.2777 0.0408532 -0.999066 -0.0140406
-62.5581 9.66589 17.1779 0.0392625 -0.999161 -0.0116921
-62.3529 9.69078 15.8267 0.0394391 -0.999141 -0.0126956
-62.4228 9.70645 14.4774 0.0456508 -0.998846 -0.0147457
-62.4733 9.71857 13.3389 0.0447939 -0.998898 -0.0132315
-62.5263 9.73446 12.0621 0.0460873 -0.998814 -0.0156974
-62.4818 9.76001 10.6134 0.0397017 -0.999056 -0.0176354
-62.4598 9.77468 9.31118 0.0360101 -0.999286 -0.0114733
-62.4932 9.78813 8.0884 0.0395494 -0.99905 -0.0183149
-62.5954 9.80117 6.97495 0.0359479 -0.999281 -0.0120164
-62.2779 9.82591 5.9481 0.0372112 -0.999237 -0.0118284
-62.1492 9.84739 4.72415 0.0443917 -0.998929 -0.0130644
-62.033 9.8647 3.64867 0.0402085 -0.999129 -0.0110685
-61.8845 9.88201 2.53899 0.0428479 -0.99901 -0.0116621
-61.768 9.89726 1.41756 0.0441659 -0.998992 -0.00802131
-61.7643 9.90341 0.0277748 0.0462416 -0.998921 -0.00376268
-61.7487 9.91117 -1.0826 0.0373691 -0.999283 -0.00609037
-61.8329 9.91528 -2.24498 0.0392193 -0.999222 -0.00420699
-61.7591 9.92345 -3.36438 0.0366019 -0.99932 -0.004536
-62.0293 9.91557 -4.51599 0.0376959 -0.999289 -0.00109605
-62.059 9.91986 -5.81221 0.0407387 -0.999167 -0.000196955
-61.7814 9.93165 -6.89766 0.0387587 -0.999248 0.000755358
-62.0851 9.92032 -7.99333 0.0422791 -0.999087 -0.00240657
-62.0684 9.92431 -9.17775 0.0427036 -0.999083 -0.0029897
-62.0102 9.9298 -10.284 0.0440716 -0.999026 -0.00195791
-62.1337 9.92088 -11.3522 0.0411741 -0.999143 0.00343803
-62.399 9.91349 -12.6267 0.0395079 -0.999214 -0.00316979
-62.6224 9.90429 -13.9001 0.0405506 -0.999177 -7.89495e-05
-63.1736 9.88411 -15.3563 0.0380803 -0.999268 -0.00282504
-63.7569 9.85967 -16.4235 0.0342557 -0.999408 0.0026971
-64.3766 9.83843 -17.2977 0.0325573 -0.99947 0.000598116
-65.109 9.81448 -18.3912 0.026155 -0.999657 0.00114525
-65.1921 9.81016 -19.5724 0.0247415 -0.999692 -0.00171506
-64.0214 9.84573 -20.211 0.0321007 -0.999484 -0.00119088
-62.8537 9.8936 -20.2587 0.040028 -0.999198 0.000803043
-61.5489 9.95825 -20.3998 0.0546732 -0.998495 -8.84508e-05
-60.2907 10.0337 -20.3728 0.0655952 -0.997839 -0.00132362
-59.1198 10.1159 -20.4095 0.0795445 -0.996818 -0.00145814
-57.8293 10.2245 -20.426 0.0849451 -0.996376 0.00346419
-56.4394 10.3582 -20.3815 0.102469 -0.99471 -0.00218043
-55.1991 10.4932 -20.2614 0.115812 -0.993233 0.00208105
-53.9731 10.6448 -20.366 0.126538 -0.991905 -0.00680061
-52.8249 10.798 -20.3271 0.13916 -0.990237 -0.00219799
-51.7557 10.957 -20.4037 0.162186 -0.986755 -0.00324731
-50.6991 11.1314 -20.4432 0.179204 -0.983791 -0.00576874
-49.6476 11.3269 -20.4242 0.196092 -0.98058 -0.00171097
-48.6084 11.5381 -20.5632 0.209108 -0.977888 0.00276266
-47.2128 11.847 -20.4458 0.231389 -0.972839 0.00658759
-45.6945 12.2253 -20.4346 0.257888 -0.966044 -0.00611993
-44.5866 12.5448 -20.3785 0.293861 -0.955847 -0.00109918
-43.2724 12.9547 -20.3755 0.300058 -0.953913 -0.00381707
-42.0053 13.4142 -20.3854 0.369868 -0.929002 -0.0123585
-40.9826 13.8341 -20.4613 0.388331 -0.92152 4.53252e-05
-39.972 14.29 -20.5299 0.430127 -0.902756 0.00464249
-39.1978 14.6789 -20.4719 0.466146 -0.884704 0.00262728
43.4964 13.7696 18.6553 -0.343686 -0.938844 0.0159029
44.4934 13.4239 18.634 -0.299841 -0.953715 0.0200164
45.4704 13.1257 18.5675 -0.274675 -0.961459 0.01227
46.424 12.854 18.5265 -0.256694 -0.966467 0.0047683
47.3743 12.6048 18.5534 -0.253857 -0.9672 0.0090159
48.3854 12.363 18.6124 -0.229465 -0.973295 0.00526426
49.6943 12.0652 18.5569 -0.219902 -0.975475 0.00649236
50.766 11.8414 18.6206 -0.20486 -0.978674 0.0151515
51.7412 11.6608 18.6451 -0.174921 -0.984451 0.0160927
52.88 11.4684 18.6408 -0.161321 -0.986774 0.0157395
54.0303 11.2902 18.6352 -0.146904 -0.989055 0.0123058
55.0968 11.1407 18.6442 -0.131992 -0.991183 0.0098784
56.1598 11.005 18.5985 -0.116543 -0.993088 0.00883749
57.2455 10.8916 18.6278 -0.0968543 -0.995241 0.010663
58.2244 10.7964 18.5472 -0.0871177 -0.996179 0.00607115
59.5124 10.684 18.6929 -0.0824501 -0.996578 0.00185608
60.7936 10.5922 18.5658 -0.0698791 -0.99755 0.00305393
61.7762 10.5261 18.2419 -0.0630179 -0.997965 0.00974992
62.6525 10.4714 17.6136 -0.0524129 -0.998625 0.000127489
63.3593 10.4355 16.9611 -0.0446832 -0.999 0.00138651
64.0341 10.4043 16.2257 -0.0449443 -0.998983 0.00310999
64.9732 10.3621 15.2122 -0.0364924 -0.999323 0.00465606
65.5477 10.3335 14.006 -0.0360641 -0.999315 0.00831463
65.3559 10.3328 12.8252 -0.0353332 -0.999365 0.00453556
64.7291 10.3485 11.6956 -0.0397796 -0.999179 0.00772092
63.8602 10.3783 10.8977 -0.0447976 -0.998931 0.0113682
63.048 10.4093 10.2833 -0.047162 -0.998841 0.00960561
62.1865 10.4487 9.69315 -0.0566456 -0.998307 0.0131932
61.3052 10.4904 8.95259 -0.0590893 -0.998177 0.0122836
60.3707 10.5387 8.07282 -0.0691727 -0.997536 0.0116864
59.6559 10.5746 6.97121 -0.0763983 -0.996967 0.014787
59.3161 10.585 6.02447 -0.0743983 -0.997116 0.0148091
59.0351 10.5935 4.98307 -0.0799415 -0.996717 0.0128617
58.8287 10.5877 3.95457 -0.0809831 -0.996477 0.0217207
58.5475 10.5865 2.51537 -0.0812102 -0.996589 0.0145864
58.3024 10.5894 1.29733 -0.080852 -0.996575 0.0169518
57.9623 10.5869 -0.207268 -0.0924468 -0.99543 0.0237578
57.9322 10.5515 -1.56837 -0.0816165 -0.996299 0.026967
57.9238 10.5272 -2.57857 -0.0873349 -0.995728 0.0299841
57.8998 10.4968 -3.67852 -0.0854005 -0.995923 0.0290621
57.9118 10.4704 -4.70159 -0.0811389 -0.996381 0.0253363
57.9327 10.4419 -5.6975 -0.0807939 -0.996344 0.0277719
57.9674 10.4133 -6.65661 -0.0841616 -0.996137 0.0245149
58.1596 10.3732 -7.62503 -0.0857584 -0.995923 0.0279146
58.5099 10.3191 -8.60805 -0.080671 -0.996439 0.0245066
58.729 10.2791 -9.54957 -0.0749053 -0.996694 0.0309767
59.1295 10.2234 -10.4967 -0.0695278 -0.997177 0.0283276
59.7083 10.1589 -11.5039 -0.0611948 -0.997823 0.0245702
60.342 10.0988 -12.3973 -0.0597387 -0.997889 0.0253931
60.9535 10.0361 -13.3565 -0.0633271 -0.99769 0.0245998
61.7239 9.97461 -14.3516 -0.052554 -0.99844 0.0188047
62.487 9.92055 -15.3417 -0.0492018 -0.998635 0.017491
62.9102 9.88516 -16.2078 -0.0438704 -0.998879 0.0177534
63.0836 9.85721 -17.3169 -0.0435936 -0.99887 0.0189158
62.0111 9.89019 -18.2967 -0.0471579 -0.998817 0.0116961
60.915 9.94128 -18.77 -0.0564226 -0.998327 0.0124154
59.645 10.0193 -18.7491 -0.0653211 -0.997768 0.0138803
58.5066 10.0999 -18.6878 -0.074801 -0.997081 0.015326
57.4333 10.1919 -18.6529 -0.0944655 -0.995375 0.0174336
56.2967 10.301 -18.6157 -0.097066 -0.99508 0.019628
55.3183 10.4044 -18.6029 -0.115798 -0.993056 0.020739
54.1644 10.5465 -18.6301 -0.140358 -0.989969 0.0161709
53.0383 10.7087 -18.6513 -0.153493 -0.988006 0.0152666
51.9274 10.8881 -18.6734 -0.160639 -0.986852 0.017771
50.6659 11.1239 -18.6799 -0.189059 -0.981621 0.0252717
49.6425 11.3364 -18.6474 -0.206965 -0.977698 0.0356587
48.2789 11.6379 -18.5576 -0.227551 -0.973735 0.00777951
47.2632 11.8771 -18.5959 -0.233039 -0.972423 0.0093114
46.1601 12.1719 -18.6595 -0.264113 -0.964411 0.0125113
45.1558 12.4659 -18.6622 -0.291832 -0.956205 0.0225206
43.9131 12.873 -18.6859 -0.332054 -0.942902 0.0249182
42.9798 13.206 -18.5484 -0.34697 -0.937784 0.0131795
42.0403 13.5804 -18.6344 -0.38338 -0.923518 -0.0115687
40.8216 14.122 -18.6819 -0.424941 -0.904744 -0.0293781
39.5021 14.7607 -18.6193 -0.450223 -0.892797 -0.0145604
38.45 15.3334 -18.6035 -0.511756 -0.859088 -0.00864854
37.5251 15.9038 -18.5526 -0.545567 -0.837352 0.0346144
36.5635 16.5695 -18.5002 -0.587665 -0.808374 0.0343655
35.6341 17.2604 -18.5338 -0.607246 -0.793801 0.0336593
34.7667 17.9507 -18.5359 -0.656547 -0.753314 0.0382621
34.4993 18.2683 -17.5757 -0.715365 -0.694125 0.0789334
34.6682 18.2163 -16.3266 -0.719359 -0.694031 0.0290499
34.7707 18.1741 -15.2155 -0.683223 -0.729118 0.0399194
34.7961 18.1832 -14.2473 -0.678908 -0.734072 0.0144334
34.7205 18.2573 -13.203 -0.694523 -0.717279 0.0444248
34.7227 18.331 -12.2345 -0.692545 -0.710111 0.126982
34.5597 18.607 -11.0675 -0.704788 -0.706237 0.0670981
34.1124 19.1578 -10.193 -0.729506 -0.678463 0.0866552
33.62 19.7846 -9.59676 -0.74597 -0.65934 0.0938063
32.9961 20.6143 -8.89808 -0.773815 -0.627892 0.0834424
32.3846 21.472 -8.32505 -0.786843 -0.612174 0.0780675
31.8291 22.2402 -7.98411 -0.799664 -0.595694 0.074578
31.1222 23.2151 -7.88763 -0.803368 -0.591716 0.066774
30.4927 24.0458 -8.309 -0.809136 -0.585228 0.0529774
29.969 24.7064 -8.97324 -0.806359 -0.590066 0.0400842
29.7473 24.9217 -10.1051 -0.793136 -0.607358 0.0451862
29.6744 24.9489 -11.1412 -0.785589 -0.617542 0.0384132
29.6358 24.9248 -12.2089 -0.778534 -0.625678 0.0477583
29.6057 24.8645 -13.3688 -0.752974 -0.655555 0.0570613
29.592 24.7856 -14.3701 -0.751606 -0.656344 0.0655834
29.6818 24.5874 -15.3115 -0.746208 -0.661995 0.0702022
29.8844 24.2575 -16.2025 -0.751953 -0.6552 0.0726566
29.6776 24.3984 -17.2035 -0.754597 -0.654015 0.05337
29.3088 24.756 -18.0249 -0.747577 -0.662925 0.0407205
28.5001 25.6307 -18.4547 -0.741577 -0.669192 0.0473843
27.5475 26.6447 -18.5526 -0.72424 -0.687646 0.0511748
26.7858 27.4346 -18.5403 -0.709481 -0.702409 0.05708
25.9627 28.2593 -18.5339 -0.702784 -0.708706 0.0618964
25.2001 29.0082 -18.4955 -0.692378 -0.718899 0.0616164
24.3764 29.7915 -18.4597 -0.680756 -0.730141 0.0588646
23.5198 30.5849 -18.4433 -0.67296 -0.736388 0.0696982
22.6645 31.3474 -18.4569 -0.655581 -0.752079 0.0677514
21.792 32.0993 -18.4743 -0.648189 -0.758229 0.0702882
20.96 32.7899 -18.5051 -0.627634 -0.775322 0.0703645
19.9729 33.5785 -18.5172 -0.611481 -0.78723 0.0796696
19.0524 34.2837 -18.4817 -0.590438 -0.803958 0.0709562
18.0076 35.0378 -18.5169 -0.574169 -0.813628 0.0913185
17.0109 35.7231 -18.446 -0.548577 -0.831672 0.0859282
16.086 36.3153 -18.4802 -0.529588 -0.843328 0.0912879
15.2748 36.8308 -18.4686 -0.536906 -0.838788 0.0903663
14.3456 37.4356 -18.4271 -0.542948 -0.83452 0.0937177
13.5882 37.9543 -18.1888 -0.541168 -0.835739 0.0931551
13.1397 38.4104 -17.1234 -0.572552 -0.80724 0.142714
12.1445 39.2281 -16.2883 -0.556046 -0.823996 0.108829
11.3175 39.87 -16.0882 -0.578042 -0.814014 0.0569954
10.4624 40.4828 -16.0384 -0.557065 -0.829459 -0.0409541
9.284 41.2154 -16.1152 -0.488238 -0.860306 -0.125926
8.30744 41.6616 -16.0028 -0.420357 -0.89542 -0.146527
7.93291 41.9319 -16.875 -0.306534 -0.940169 -0.148402
7.38122 42.2228 -17.7904 -0.25017 -0.962421 -0.103476
6.95425 42.3897 -18.4755 -0.234683 -0.966785 -0.0995775
6.97823 42.3114 -17.6401 -0.250168 -0.962422 -0.10347
7.74125 41.9816 -16.7938 -0.306526 -0.940172 -0.148401
8.30527 41.6624 -16.0017 -0.319023 -0.936715 -0.143176
8.65959 41.3419 -14.9066 -0.414553 -0.90508 -0.083383
8.85027 41.195 -13.7816 -0.385267 -0.920934 -0.0587406
8.9438 41.0781 -12.5239 -0.366802 -0.927804 -0.0680887
8.93141 41.0405 -11.5226 -0.328629 -0.943443 -0.0415244
8.85901 41.027 -10.396 -0.319694 -0.946867 -0.0351857
8.56622 41.1103 -9.28756 -0.269354 -0.962896 0.00323142
8.60132 41.1127 -8.18118 -0.257377 -0.966309 0.000383164
9.74852 40.7752 -8.26273 -0.29974 -0.953687 0.0252356
11.0483 40.3319 -8.16274 -0.342692 -0.938493 0.0423513
12.1917 39.8967 -7.82714 -0.386497 -0.920058 0.0635609
13.3712 39.4278 -7.42933 -0.400701 -0.912686 0.0799665
14.28 39.0584 -6.97331 -0.433989 -0.895317 0.0994012
15.0385 38.7502 -6.43724 -0.453091 -0.885478 0.103142
15.7363 38.4366 -5.84407 -0.486045 -0.869635 0.0865704
16.4422 38.1274 -5.22044 -0.478753 -0.872381 0.098267
17.0368 37.6809 -5.86352 -0.531182 -0.841422 0.0992732
17.464 37.2983 -6.73077 -0.543931 -0.833405 0.0978564
18.0747 36.7813 -7.58792 -0.570183 -0.813391 0.115238
18.7217 36.2101 -8.32563 -0.582121 -0.802291 0.132155
19.4025 35.5884 -9.03918 -0.584918 -0.79757 0.147489
20.1107 34.9304 -9.67787 -0.613187 -0.775469 0.149047
20.8414 34.209 -10.2908 -0.626896 -0.765041 0.147357
21.6255 33.4376 -10.8385 -0.656655 -0.744164 0.122571
22.331 32.7617 -11.119 -0.66451 -0.734776 0.136125
23.0873 32.0402 -11.2998 -0.67499 -0.726585 0.128211
23.9354 31.2189 -11.3829 -0.693341 -0.71006 0.122854
24.6907 30.4958 -11.2702 -0.699235 -0.704663 0.120502
25.5088 29.6922 -11.1013 -0.714021 -0.690334 0.116673
26.3631 28.8513 -10.7077 -0.726872 -0.679852 0.0965731
26.9735 28.2564 -10.2276 -0.732753 -0.672953 0.101031
27.7294 27.4657 -9.64019 -0.752795 -0.651632 0.0930538
28.3314 26.8431 -8.8547 -0.776603 -0.625094 0.0772995
28.8707 26.2238 -8.3088 -0.790019 -0.608375 0.0740747
29.5333 25.4107 -7.67626 -0.797259 -0.60019 0.064419
30.0737 24.7413 -7.03812 -0.804994 -0.590507 0.057279
30.5477 24.1615 -6.33798 -0.805844 -0.589053 0.0602563
31.0488 23.5596 -5.5419 -0.80312 -0.592777 0.0601068
31.5419 22.9564 -4.91469 -0.802688 -0.593319 0.0605334
32.0933 22.2867 -4.29449 -0.797334 -0.600468 0.060797
32.6519 21.6255 -3.58275 -0.790857 -0.609234 0.0581315
33.2169 20.9708 -2.85119 -0.779067 -0.624475 0.0555474
33.8553 20.2431 -2.04824 -0.773218 -0.632691 0.042856
34.4977 19.5304 -1.28826 -0.764314 -0.642772 0.0516468
35.0197 18.972 -0.400386 -0.746552 -0.664066 0.0409395
35.5378 18.4692 0.567681 -0.7237 -0.688427 0.0482314
36.0984 17.9489 1.64336 -0.718187 -0.694757 0.0389989
36.7759 17.3592 2.63753 -0.663853 -0.74711 0.0335627
37.4525 16.8374 3.46216 -0.609298 -0.791089 0.0541733
37.9286 16.5135 4.30518 -0.621917 -0.782315 0.0346827
38.2039 16.3397 5.36746 -0.593185 -0.803317 0.0389036
38.3461 16.2852 6.574 -0.58173 -0.812869 0.028888
38.5177 16.1742 7.9886 -0.569158 -0.821914 0.00909205
38.4735 16.2283 9.25178 -0.589548 -0.807634 0.00264506
38.4196 16.2652 10.4369 -0.547637 -0.836622 0.0112068
38.5047 16.2721 11.4353 -0.569611 -0.819927 0.0571206
38.2447 16.49 12.9912 -0.594593 -0.803807 0.0187913
37.6097 16.9605 14.0805 -0.612717 -0.789388 -0.0315994
36.9367 17.4767 14.6339 -0.632932 -0.773492 -0.0332733
36.3127 17.9995 15.3669 -0.705079 -0.708419 -0.027207
35.7812 18.5399 15.9649 -0.730309 -0.683116 0.00129864
35.3651 18.9678 16.8327 -0.761726 -0.647364 -0.0263342
35.6911 18.5793 17.6635 -0.743735 -0.667378 -0.0382656
36.1766 18.1072 18.5652 -0.690649 -0.723179 0.00406221
37.168 17.2894 18.5646 -0.625606 -0.779732 -0.016744
38.037 16.6166 18.6136 -0.604209 -0.796632 -0.0121431
38.9643 15.9572 18.5741 -0.553364 -0.832369 0.000799379
40.054 15.3296 18.531 -0.449645 -0.893058 0.0163217
41.129 14.7929 18.4836 -0.442893 -0.896363 0.0194583
42.101 14.3348 18.5005 -0.398647 -0.916555 0.0311413
43.0247 13.9488 18.5893 -0.364383 -0.930881 0.0234925
43.2854 13.8498 18.629 -0.35692 -0.93401 0.0152877
43.0593 13.9663 19.5554 -0.373259 -0.927331 0.0271023
44.1731 13.5576 19.5846 -0.324827 -0.945502 0.0226552
45.1505 13.236 19.5445 -0.305285 -0.952139 0.0145819
46.3984 12.8729 19.4945 -0.264787 -0.964174 0.012584
47.4152 12.5996 19.5317 -0.250562 -0.968023 0.00230109
48.4171 12.3574 19.5759 -0.23137 -0.972864 0.00184768
49.723 12.0594 19.5716 -0.207868 -0.978098 0.000623611
50.821 11.8375 19.602 -0.190161 -0.981701 0.00178134
51.8875 11.6461 19.6198 -0.176209 -0.984323 0.00713869
52.9559 11.4672 19.5867 -0.153342 -0.988107 0.0114133
54.3828 11.2519 19.6733 -0.144538 -0.989487 0.00489529
55.5546 11.0913 19.6666 -0.126433 -0.99195 0.00703591
56.6402 10.9602 19.6027 -0.112978 -0.993597 0.000862618
57.7734 10.8404 19.5932 -0.0933433 -0.995633 0.00159841
58.8423 10.7428 19.6313 -0.0885309 -0.996072 0.00158224
59.9985 10.6501 19.6954 -0.075336 -0.997153 0.00230737
61.2483 10.5633 19.5393 -0.065228 -0.997864 0.0014007
62.299 10.5005 19.0942 -0.0561775 -0.998416 0.0027914
63.0862 10.4554 18.5182 -0.0532819 -0.998535 0.00938886
63.906 10.4121 17.8717 -0.0441529 -0.999001 0.00491817
64.7801 10.3743 16.939 -0.0401059 -0.999193 0.00230707
65.6007 10.3423 16.027 -0.0373895 -0.999296 0.00316911
66.3578 10.3118 15.1242 -0.0354086 -0.999361 0.00495355
66.6217 10.2986 14.0226 -0.0298195 -0.999537 0.00612454
66.4358 10.2983 13.0013 -0.0312677 -0.999487 0.00687586
66.04 10.3009 11.6978 -0.0325108 -0.999434 0.00861311
65.2346 10.3196 10.7853 -0.0377072 -0.999227 0.0107543
64.4993 10.3427 10.1637 -0.0426845 -0.999038 0.0100601
63.5498 10.3756 9.42309 -0.0428383 -0.999045 0.00848315
62.5745 10.4182 8.78523 -0.0514429 -0.998614 0.0109561
61.6146 10.4596 7.95749 -0.0551408 -0.998416 0.0111525
60.915 10.4914 7.27572 -0.0644741 -0.997855 0.0113517
60.4219 10.5096 6.26896 -0.0634094 -0.997868 0.0154274
60.0973 10.5177 5.29527 -0.0692924 -0.997512 0.0129723
59.7813 10.5159 3.8826 -0.0724328 -0.997217 0.0176809
59.5586 10.5139 2.80572 -0.075957 -0.996986 0.0157295
59.3777 10.5093 1.72062 -0.077996 -0.996835 0.0152329
59.1817 10.5035 0.617826 -0.0722958 -0.997177 0.0201644
58.9853 10.5005 -0.341084 -0.078909 -0.9967 0.019036
58.898 10.4777 -1.42924 -0.0740411 -0.996942 0.0249743
58.8556 10.4485 -2.62415 -0.0758758 -0.996689 0.0292099
58.8365 10.4184 -3.75433 -0.07614 -0.996807 0.0238856
58.8607 10.3911 -4.81201 -0.0786186 -0.996549 0.0266327
58.912 10.3579 -5.91107 -0.0791126 -0.996523 0.0261459
59.0229 10.3201 -7.06233 -0.0753313 -0.996907 0.0224099
59.3156 10.273 -8.03381 -0.0665341 -0.997383 0.0282803
59.5829 10.2282 -8.98194 -0.0702088 -0.997211 0.0247893
60.0435 10.1717 -10.1158 -0.0617402 -0.997872 0.0209567
60.5885 10.1153 -11.0733 -0.0596778 -0.997944 0.0231811
61.2328 10.0554 -11.9878 -0.0585204 -0.997984 0.024521
61.799 10.0048 -12.88 -0.0486191 -0.998551 0.0230857
62.4307 9.95693 -13.6678 -0.0444778 -0.998768 0.0219933
63.262 9.89966 -14.616 -0.0445752 -0.99879 0.0207767
63.718 9.8623 -15.4966 -0.043897 -0.998879 0.0177224
64.0609 9.83134 -16.4693 -0.0389488 -0.999054 0.0193345
64.1231 9.80931 -17.5403 -0.0342224 -0.999235 0.0189022
63.6215 9.81675 -18.3883 -0.0438119 -0.998967 0.0120314
62.6902 9.8493 -19.0772 -0.0446611 -0.998925 0.0123828
61.6534 9.8903 -19.6068 -0.0480649 -0.998676 0.0183272
60.3613 9.95695 -19.7818 -0.0630435 -0.997847 0.0174327
59.2568 10.0321 -19.6816 -0.0660574 -0.997715 0.0141691
58.2336 10.1082 -19.6303 -0.0769742 -0.99697 0.011181
57.1545 10.2027 -19.6085 -0.0912727 -0.995746 0.012373
56.0662 10.3077 -19.5846 -0.0963727 -0.995247 0.0140248
55.0309 10.4226 -19.5798 -0.111357 -0.993763 0.00597626
53.9573 10.5615 -19.5827 -0.131471 -0.99123 0.0114853
52.6447 10.7552 -19.6258 -0.147074 -0.989011 0.0150492
51.4909 10.9411 -19.6937 -0.167205 -0.985674 0.0211398
50.4912 11.1373 -19.6526 -0.191266 -0.981305 0.0212583
49.4803 11.3384 -19.6752 -0.225113 -0.974233 0.0129151
48.1574 11.651 -19.5724 -0.230567 -0.972883 0.0183599
47.1411 11.9061 -19.598 -0.255117 -0.966878 0.00789236
46.1052 12.1804 -19.6327 -0.257882 -0.966149 0.00720792
44.8935 12.5312 -19.6761 -0.291234 -0.956646 0.00334944
43.9715 12.8374 -19.6096 -0.339441 -0.940625 0.0022793
42.9388 13.2123 -19.5058 -0.361395 -0.932227 0.00201657
41.7386 13.7013 -19.6788 -0.396474 -0.917814 0.00170386
40.8325 14.1141 -19.6857 -0.418993 -0.907969 -0.000305527
39.6896 14.6579 -19.6232 -0.444181 -0.895775 0.00527333
38.8334 15.0996 -19.5689 -0.458253 -0.888752 0.0111103
37.9726 15.5874 -19.577 -0.527114 -0.849311 -0.0046454
37.0806 16.1794 -19.5396 -0.571762 -0.820074 -0.007544
36.1647 16.8518 -19.5313 -0.594706 -0.803897 0.00732114
35.3109 17.4897 -19.585 -0.618125 -0.785566 -0.0166846
34.5185 18.1557 -19.5312 -0.650586 -0.75943 -0.00174988
33.8863 18.809 -19.2399 -0.743321 -0.66882 0.0124172
33.8288 18.9451 -18.0729 -0.731263 -0.679274 0.0619789
33.9571 18.9202 -16.9178 -0.75345 -0.653482 0.0725895
34.0484 18.8775 -15.9222 -0.734386 -0.678635 0.0114688
34.1078 18.8519 -14.9155 -0.745957 -0.665472 0.0243674
34.0861 18.906 -13.7971 -0.720832 -0.69309 -0.00519427
34.0453 18.9567 -12.8103 -0.722225 -0.689447 0.0476782
33.8845 19.2512 -11.3777 -0.717525 -0.69184 0.0776153
33.4667 19.812 -10.64 -0.737669 -0.669728 0.0854982
