35.2832 20.133 -3.25361 -0.789001 -0.612876 0.0431281
35.753 19.453 -4.3715 -0.774526 -0.628638 0.0701717
36.1912 18.8827 -5.34059 -0.728579 -0.683889 0.038325
36.8374 18.1812 -6.56234 -0.659491 -0.750564 0.0415294
37.4199 17.6546 -7.53202 -0.605846 -0.794499 0.0414956
38.0471 17.1038 -8.52106 -0.605619 -0.792477 0.0721584
38.713 16.626 -9.47429 -0.548229 -0.836175 0.0160161
39.4121 16.1479 -10.4332 -0.520009 -0.853982 0.0174714
40.1116 15.7106 -11.3458 -0.477703 -0.87644 0.0604399
40.8257 15.3039 -12.2398 -0.448083 -0.892966 0.042816
41.7456 14.8366 -13.3538 -0.384853 -0.922448 0.0312643
42.5738 14.4737 -14.3121 -0.344913 -0.938084 0.032158
43.4999 14.1062 -15.3482 -0.343204 -0.939069 0.0190071
44.4559 13.7701 -16.3765 -0.298448 -0.953689 0.0375082
45.2793 13.5123 -17.2314 -0.275897 -0.961183 0.00291489
46.1426 13.2589 -18.0735 -0.271771 -0.962328 0.00812975
44.7492 13.6684 -18.0703 -0.298915 -0.95428 -0.000547335
43.7019 14.0049 -16.9655 -0.323504 -0.946194 0.00787256
42.5919 14.4359 -15.7443 -0.348687 -0.937036 0.0195254
41.5999 14.8463 -14.6178 -0.389471 -0.919845 0.046874
40.6417 15.3546 -13.4519 -0.470548 -0.881061 0.0481226
39.9319 15.7549 -12.5635 -0.47578 -0.879211 0.0249362
39.207 16.2075 -11.6217 -0.519339 -0.852361 0.0613821
38.5624 16.6958 -10.7194 -0.556093 -0.830866 0.0205187
37.9308 17.1723 -9.81297 -0.585409 -0.809204 0.0498498
37.2786 17.6633 -8.84027 -0.649885 -0.760024 -0.00358797
36.7085 18.2229 -7.88691 -0.703478 -0.710543 0.0157578
36.1543 18.7957 -6.87194 -0.732274 -0.678215 0.0616358
35.7044 19.3895 -5.88724 -0.760247 -0.648077 0.0449459
35.2421 20.057 -4.78428 -0.788865 -0.611391 0.062395
34.8217 20.6959 -3.72861 -0.800888 -0.596409 0.053627
34.5108 21.1901 -2.90361 -0.803042 -0.593422 0.0545352
34.1464 21.62 -3.59314 -0.807956 -0.586758 0.0540543
34.5712 20.9448 -4.74332 -0.800407 -0.597398 0.0496545
34.9693 20.3284 -5.7516 -0.792244 -0.608382 0.0471179
35.3619 19.7506 -6.71843 -0.782424 -0.620948 0.0472787
35.792 19.167 -7.68964 -0.731568 -0.680934 0.0337194
36.3321 18.5268 -8.73326 -0.686871 -0.725609 0.0412311
36.8789 17.999 -9.66729 -0.621274 -0.783572 0.00586283
37.5081 17.4516 -10.6531 -0.628263 -0.776719 0.0446481
38.164 16.8813 -11.6457 -0.5675 -0.820277 0.0713344
38.8424 16.3786 -12.5962 -0.524749 -0.850558 0.0344921
39.5738 15.9241 -13.551 -0.47946 -0.87736 0.0189056
40.4337 15.412 -14.6385 -0.478739 -0.877255 0.0351016
41.1826 15.0158 -15.5485 -0.414611 -0.909966 0.00778267
42.0957 14.5898 -16.604 -0.400276 -0.915629 0.0374572
42.9957 14.2453 -17.6095 -0.328872 -0.944374 0.00125318
43.3842 14.1113 -18.0349 -0.32933 -0.944209 -0.00336877
42.0602 14.608 -17.9798 -0.380049 -0.924956 0.00431145
41.2172 14.9898 -17.006 -0.450765 -0.892545 0.0131943
40.3667 15.3896 -16.0033 -0.458568 -0.888136 -0.0305043
39.5936 15.8661 -15.0256 -0.503298 -0.863928 0.0179049
38.8568 16.3064 -14.0928 -0.522768 -0.852201 0.0216303
38.1167 16.8088 -13.0894 -0.571921 -0.819315 0.0403636
37.4115 17.3974 -12.0255 -0.635938 -0.767926 0.0766364
36.801 17.9906 -11.0404 -0.62418 -0.779338 0.0550647
36.1807 18.609 -9.97221 -0.673947 -0.737948 0.0350465
35.6778 19.1965 -8.98872 -0.73531 -0.675498 0.0549679
35.2239 19.8102 -7.99533 -0.776477 -0.626982 0.0630636
34.7649 20.5057 -6.87911 -0.791506 -0.609219 0.0486813
34.2802 21.2517 -5.65102 -0.800574 -0.596679 0.0552813
33.9015 21.8583 -4.65213 -0.806968 -0.587958 0.0557556
33.6936 22.1987 -4.06544 -0.80763 -0.587127 0.0549132
33.2874 22.7011 -4.64942 -0.808097 -0.586157 0.0582975
33.651 22.1032 -5.63956 -0.806613 -0.58806 0.0596706
34.0753 21.4241 -6.74492 -0.800609 -0.596524 0.0564332
34.5178 20.7272 -7.87622 -0.791589 -0.607155 0.0689086
34.9802 20.0065 -9.02028 -0.783596 -0.616743 0.0748666
35.4203 19.3521 -10.076 -0.750268 -0.657442 0.0697709
35.9418 18.7488 -11.0909 -0.696437 -0.715282 0.0578559
36.6514 18.0034 -12.3339 -0.659992 -0.749047 0.0577825
37.3314 17.3747 -13.4246 -0.60064 -0.797173 0.0612095
38.0775 16.7946 -14.5174 -0.543045 -0.839103 0.0317677
38.9475 16.2257 -15.6647 -0.504441 -0.863103 0.0243319
39.7345 15.7592 -16.6537 -0.465449 -0.884858 0.01959
40.5318 15.3291 -17.6274 -0.452191 -0.891865 0.00999128
40.7775 15.2012 -17.9197 -0.448253 -0.893906 0.00094019
39.5923 15.8111 -17.9434 -0.459794 -0.887913 0.0141527
38.7766 16.2877 -16.9126 -0.502328 -0.864308 0.0252625
38.004 16.795 -15.9008 -0.552257 -0.833019 0.0330361
37.2999 17.302 -14.9222 -0.55649 -0.830663 0.0178566
36.7012 17.8068 -13.9803 -0.625004 -0.775153 0.0922436
36.6561 17.85 -13.9036 -0.623802 -0.778387 0.0706056
36.6123 17.7892 -15.3804 -0.599354 -0.799844 -0.0320154
37.4576 17.177 -16.5986 -0.592632 -0.805471 -0.00204866
38.1877 16.6383 -17.59 -0.590807 -0.806811 0.00191997
38.4613 16.443 -17.9548 -0.514503 -0.857488 -0.000550521
37.3581 17.2437 -17.9046 -0.610243 -0.792209 0.00272511
36.6579 17.7784 -16.9185 -0.61235 -0.790543 -0.00827046
36.5463 17.8554 -16.7534 -0.585668 -0.809948 -0.031263
32.8657 23.2284 -5.18272 -0.807552 -0.586854 0.0588387
33.2879 22.529 -6.32416 -0.805251 -0.589745 0.061414
33.6988 21.8634 -7.40891 -0.799145 -0.597831 0.0629763
34.1061 21.2042 -8.4682 -0.796048 -0.601754 0.0647955
34.4902 20.5839 -9.44873 -0.789221 -0.610129 0.0697982
34.5676 20.4615 -9.6428 -0.789257 -0.609524 0.0745259
33.7425 21.5967 -9.19874 -0.802995 -0.591745 0.0709647
33.3984 22.168 -8.29167 -0.802797 -0.592796 0.0641174
33.0202 22.7924 -7.28156 -0.805189 -0.589651 0.0631033
32.5937 23.5016 -6.12416 -0.806572 -0.587607 0.0644893
32.5359 23.5984 -5.96574 -0.806571 -0.587609 0.0644876
32.1105 24.1224 -6.51091 -0.806666 -0.587472 0.0645519
32.4509 23.5544 -7.4371 -0.806742 -0.587514 0.0631951
32.8436 22.8978 -8.50196 -0.806585 -0.58751 0.0652063
32.9014 22.8015 -8.65783 -0.802704 -0.592558 0.067394
32.3704 23.5076 -8.89857 -0.807933 -0.585947 0.0625294
31.9975 24.1298 -7.88575 -0.805212 -0.589648 0.062839
31.5906 24.7983 -6.81996 -0.804623 -0.590188 0.0652695
31.574 24.8257 -6.77695 -0.804517 -0.59025 0.0660053
31.1225 25.3825 -7.27312 -0.796485 -0.600755 0.0686006
31.4809 24.7986 -8.18713 -0.804254 -0.591154 0.0609305
31.8432 24.2104 -9.18486 -0.805078 -0.590889 0.0519588
31.862 24.1796 -9.23738 -0.810277 -0.583387 0.0557765
31.4418 24.7015 -9.86544 -0.807276 -0.588141 0.0489542
31.0515 25.3089 -8.82477 -0.795689 -0.603606 0.0503877
30.7708 25.7569 -8.10188 -0.797512 -0.59985 0.0644505
30.2568 26.3683 -8.5697 -0.787334 -0.612678 0.0687835
30.6596 25.7503 -9.58133 -0.782758 -0.619744 0.0566359
31.0271 25.1953 -10.5432 -0.790106 -0.610406 0.0560165
31.0647 25.1358 -10.6482 -0.793521 -0.606391 0.0511236
30.7731 25.4267 -11.676 -0.781963 -0.620782 0.0562366
30.3734 26.0045 -10.6511 -0.771948 -0.633543 0.052152
29.9988 26.5714 -9.70866 -0.767927 -0.636246 0.0740212
29.6869 27.0448 -8.92958 -0.772044 -0.631228 0.0741631
29.187 27.5893 -9.4764 -0.771028 -0.631659 0.0807645
29.6276 26.9232 -10.5865 -0.765888 -0.639404 0.0676573
30.1 26.2361 -11.7665 -0.753007 -0.654283 0.069956
30.4766 25.7039 -12.7169 -0.748234 -0.660376 0.0636433
30.723 25.3618 -13.3372 -0.756384 -0.650322 0.0704577
30.5731 25.3806 -14.7415 -0.75248 -0.654454 0.0739115
30.1395 25.9876 -13.6798 -0.742283 -0.66581 0.0755784
29.7775 26.4973 -12.7741 -0.752659 -0.654268 0.0737347
29.266 27.2258 -11.5099 -0.755574 -0.650281 0.0790102
28.8288 27.8803 -10.42 -0.754385 -0.649092 0.097897
28.7666 27.9763 -10.2626 -0.754624 -0.649031 0.0964454
28.1672 28.605 -10.6209 -0.73593 -0.668769 0.105618
28.6596 27.866 -11.8447 -0.738673 -0.666768 0.0989049
29.0435 27.31 -12.7885 -0.73942 -0.668025 0.083665
29.4466 26.7471 -13.7626 -0.739212 -0.669319 0.0746834
29.8969 26.1285 -14.8396 -0.740961 -0.667428 0.0742711
30.3004 25.5812 -15.801 -0.737416 -0.672322 0.0648186
30.5548 25.2406 -16.3985 -0.73991 -0.669882 0.0615824
30.4026 25.2975 -17.753 -0.741076 -0.669337 0.0528626
29.9124 25.9242 -16.6164 -0.733683 -0.676475 0.063964
29.4534 26.5289 -15.5459 -0.726419 -0.68308 0.0756141
29.0159 27.1156 -14.5175 -0.72835 -0.680093 0.0835427
28.6394 27.6347 -13.6221 -0.728987 -0.678919 0.0874455
28.2456 28.201 -12.6653 -0.738093 -0.666897 0.102307
27.8218 28.8212 -11.6397 -0.726632 -0.678717 0.106531
27.6369 29.0906 -11.1975 -0.728338 -0.676303 0.110175
26.962 29.769 -11.4444 -0.721233 -0.683722 0.111118
27.3554 29.2017 -12.3657 -0.721269 -0.683122 0.114518
27.7545 28.6225 -13.3185 -0.721911 -0.683292 0.109345
28.2821 27.8848 -14.5665 -0.720659 -0.686423 0.0973311
28.7124 27.3044 -15.5763 -0.720762 -0.688424 0.0810829
29.2246 26.6453 -16.7485 -0.72259 -0.688476 0.0621644
29.6536 26.1024 -17.7389 -0.72907 -0.682529 0.0511094
28.8922 26.8966 -17.7159 -0.716918 -0.695068 0.053927
28.46 27.4371 -16.7351 -0.714967 -0.695655 0.0699071
28.0529 27.9583 -15.8131 -0.71285 -0.696785 0.0795969
27.6129 28.5502 -14.7903 -0.714383 -0.692198 0.102566
27.1888 29.1395 -13.7999 -0.715145 -0.690273 0.109955
26.7324 29.7909 -12.7375 -0.718014 -0.686358 0.115623
26.3385 30.3525 -11.8276 -0.711009 -0.692299 0.123241
25.6289 31.0367 -12.0411 -0.700532 -0.701974 0.128402
26.0248 30.4805 -12.927 -0.708431 -0.694981 0.122987
26.5806 29.6987 -14.2029 -0.706849 -0.698154 0.113775
27.0965 28.9945 -15.3832 -0.708926 -0.698313 0.098907
27.5688 28.3777 -16.4568 -0.70943 -0.699972 0.082153
27.9796 27.8575 -17.3802 -0.707727 -0.702537 0.0745985
28.2829 27.4909 -18.0514 -0.707244 -0.704443 0.0597181
27.4447 28.3486 -17.8929 -0.704056 -0.706933 0.0674602
27.0068 28.8872 -16.9265 -0.703036 -0.705649 0.088317
26.3918 29.6803 -15.5502 -0.698201 -0.708524 0.102517
25.9092 30.3312 -14.4573 -0.702523 -0.701566 0.11944
25.4714 30.928 -13.49 -0.695865 -0.707005 0.126157
25.0546 31.5061 -12.5682 -0.68953 -0.711939 0.133009
24.9399 31.6639 -12.318 -0.689531 -0.711938 0.133007
24.2266 32.3078 -12.5554 -0.671179 -0.727215 0.143797
24.6653 31.7055 -13.5057 -0.688438 -0.712511 0.135576
25.0711 31.1623 -14.3789 -0.685757 -0.71723 0.123767
25.4968 30.5942 -15.3077 -0.687038 -0.717356 0.115667
25.9478 30.0111 -16.3022 -0.699122 -0.707911 0.100448
26.4271 29.4119 -17.349 -0.69905 -0.709713 0.0873911
26.7386 29.0351 -18.0282 -0.701002 -0.710149 0.0654575
25.9243 29.8325 -17.966 -0.691584 -0.71921 0.06669
25.4386 30.4217 -16.9169 -0.685766 -0.722252 0.089869
24.899 31.099 -15.764 -0.687971 -0.71777 0.10725
24.3958 31.7515 -14.6901 -0.672122 -0.729029 0.129494
23.9566 32.3279 -13.7602 -0.674118 -0.725381 0.139237
23.4407 33.0083 -12.6865 -0.665246 -0.733753 0.138037
23.1106 33.4417 -12.0283 -0.666159 -0.730092 0.152308
22.0062 34.4779 -11.6347 -0.630322 -0.760431 0.156329
22.462 33.9205 -12.4901 -0.637068 -0.754658 0.156958
22.9634 33.2853 -13.4701 -0.658753 -0.739273 0.139713
23.4315 32.6947 -14.4049 -0.657297 -0.741114 0.136787
23.9034 32.0876 -15.3923 -0.675439 -0.729362 0.108687
24.3875 31.4828 -16.407 -0.679486 -0.726311 0.10378
24.8282 30.9496 -17.3327 -0.685765 -0.722254 0.08987
25.1174 30.608 -17.9433 -0.686927 -0.722587 0.0774598
24.2801 31.3961 -17.8789 -0.673659 -0.734948 0.0776843
23.7275 32.0473 -16.7385 -0.66393 -0.741327 0.0981408
23.2304 32.6498 -15.7184 -0.663188 -0.739291 0.116749
22.788 33.1864 -14.8376 -0.65817 -0.740593 0.135406
22.2213 33.8848 -13.7275 -0.646627 -0.74925 0.143171
21.7187 34.4872 -12.7825 -0.634172 -0.757696 0.15402
21.2132 35.0876 -11.8613 -0.62033 -0.76926 0.153066
20.8739 35.4801 -11.262 -0.61764 -0.770801 0.156165
18.6483 39.6845 17.9158 -0.638151 -0.769792 0.0135046
19.2302 39.1924 17.0025 -0.633352 -0.773824 0.00791778
18.7331 39.5634 16.2608 -0.598035 -0.800339 0.0425677
18.1274 40.0698 17.1787 -0.601871 -0.797193 0.0472737
17.8256 40.3158 17.6331 -0.59865 -0.800888 0.0140593
16.6122 41.1055 17.7715 -0.521218 -0.853225 0.0184277
17.2464 40.6539 16.9384 -0.521353 -0.850722 0.0668077
17.8424 40.2139 16.0977 -0.526067 -0.847598 0.0695079
18.1564 39.9555 15.6239 -0.593723 -0.802785 0.0550367
17.5601 40.3032 14.9893 -0.518561 -0.851818 0.0741644
16.8942 40.7756 15.9222 -0.461785 -0.882225 0.0918369
16.0194 41.3632 17.0653 -0.467745 -0.880418 0.0779673
16.9915 38.8833 -6.74018 -0.468826 -0.87651 0.109231
16.618 39.1504 -6.22397 -0.460501 -0.880692 0.111001
16.011 39.3961 -6.89606 -0.465326 -0.88106 0.0848788
16.7694 38.8521 -7.94395 -0.486077 -0.865499 0.121002
17.5561 38.2149 -9.11151 -0.5113 -0.850095 0.126139
18.4107 37.4707 -10.3957 -0.543863 -0.827691 0.138351
19.1955 36.6989 -11.6622 -0.579726 -0.80021 0.153564
19.8621 35.9775 -12.7807 -0.609258 -0.778605 0.150265
20.5787 35.1867 -14.0422 -0.61701 -0.774773 0.137931
21.1364 34.5583 -15.0495 -0.630685 -0.764972 0.13059
21.6968 33.9128 -16.0958 -0.639182 -0.75959 0.120286
22.368 33.1599 -17.3899 -0.65153 -0.752608 0.0953426
22.5915 32.9116 -17.8225 -0.649096 -0.755358 0.090048
21.7615 33.6084 -17.8871 -0.632467 -0.768646 0.0957534
21.0849 34.3375 -16.6129 -0.620264 -0.77578 0.115923
20.4832 35.0023 -15.5203 -0.615545 -0.776293 0.135918
19.8448 35.6926 -14.398 -0.595069 -0.791354 0.140185
19.2317 36.3486 -13.3362 -0.582513 -0.797461 0.157271
18.6238 36.9813 -12.3402 -0.560908 -0.811989 0.161419
17.9814 37.5994 -11.313 -0.543836 -0.827688 0.138472
17.3338 38.1669 -10.3243 -0.514675 -0.848643 0.122124
16.5626 38.7927 -9.1885 -0.494098 -0.860709 0.122665
15.7279 39.4267 -7.99915 -0.474105 -0.874531 0.102079
15.1233 39.8177 -7.19409 -0.43766 -0.894244 0.0937109
14.6014 39.9983 -7.96933 -0.436381 -0.895578 0.0866732
15.5414 39.37 -9.23775 -0.480084 -0.871204 0.102585
16.4143 38.7054 -10.5097 -0.512511 -0.851905 0.107662
17.1533 38.0821 -11.6182 -0.533826 -0.833801 0.140735
17.879 37.4089 -12.751 -0.554463 -0.817616 0.15516
18.5641 36.7311 -13.8474 -0.557728 -0.816171 0.151011
19.1715 36.1149 -14.8736 -0.580485 -0.801907 0.141359
19.7792 35.4865 -15.9103 -0.587671 -0.798159 0.13261
20.3791 34.8492 -16.9723 -0.615809 -0.778373 0.122128
20.8934 34.307 -17.92 -0.612667 -0.784101 0.0991192
19.9738 35.0307 -17.8938 -0.596438 -0.795943 0.103619
19.2355 35.7671 -16.6101 -0.581275 -0.80469 0.120799
18.5932 36.4046 -15.5431 -0.568794 -0.810284 0.141119
17.8809 37.1038 -14.3642 -0.551606 -0.820306 0.151092
17.1766 37.7802 -13.237 -0.541455 -0.826127 0.156018
16.5068 38.3973 -12.1881 -0.535168 -0.83222 0.14493
15.6719 39.0816 -10.9513 -0.485401 -0.867528 0.10854
14.8121 39.7139 -9.73031 -0.466332 -0.878843 0.100848
13.9085 40.287 -8.5113 -0.43853 -0.895037 0.0812422
13.5806 40.4678 -8.09182 -0.397931 -0.914378 0.0745863
12.6625 40.8354 -8.37629 -0.384952 -0.92031 0.0695854
13.5486 40.3663 -9.49352 -0.422836 -0.902241 0.0846783
14.2767 39.8991 -10.4919 -0.450868 -0.888104 0.0893769
15.1991 39.2362 -11.7867 -0.495088 -0.861567 0.112208
15.9016 38.6623 -12.8413 -0.516909 -0.844764 0.138487
16.5634 38.0639 -13.8707 -0.532916 -0.83357 0.145473
17.3334 37.3426 -15.0976 -0.553362 -0.821353 0.138453
18.0657 36.6455 -16.2923 -0.559509 -0.81849 0.130474
18.8231 35.9244 -17.5278 -0.57814 -0.807709 0.115587
19.0381 35.7235 -17.8827 -0.582123 -0.805481 0.111056
18.0478 36.4197 -17.8556 -0.554321 -0.824663 0.112511
17.3747 37.0294 -16.7852 -0.547211 -0.82522 0.1399
16.7584 37.5998 -15.7908 -0.54043 -0.828802 0.144993
16.0037 38.2956 -14.5943 -0.531891 -0.834968 0.141139
15.1455 39.0449 -13.2758 -0.509602 -0.851146 0.125923
14.4361 39.6119 -12.2161 -0.482035 -0.870495 0.0994047
13.4795 40.2596 -10.8787 -0.452584 -0.888611 0.0744235
12.7115 40.705 -9.86139 -0.398517 -0.915126 0.0610538
11.8079 41.1442 -8.74248 -0.345216 -0.937272 0.0484527
11.6456 41.2141 -8.54763 -0.345841 -0.936796 0.0529837
10.6869 41.5481 -8.78851 -0.328706 -0.944337 0.0134588
11.4987 41.2261 -9.7559 -0.368441 -0.928854 0.038492
12.312 40.8301 -10.7741 -0.409627 -0.910325 0.059276
13.0952 40.3773 -11.8194 -0.452425 -0.888818 0.072895
13.8087 39.8975 -12.8283 -0.488911 -0.866844 0.0977139
14.4732 39.3838 -13.823 -0.520828 -0.845066 0.120834
15.1877 38.762 -14.9111 -0.533583 -0.834668 0.136451
15.958 38.0633 -16.1266 -0.53636 -0.831942 0.142091
16.6522 37.4345 -17.2349 -0.536215 -0.834695 0.125534
16.9853 37.1393 -17.757 -0.539004 -0.832681 0.12695
15.9691 37.792 -17.7605 -0.533416 -0.836697 0.124119
15.2522 38.4344 -16.6267 -0.538144 -0.830624 0.143053
14.5819 39.0461 -15.5576 -0.537875 -0.832501 0.132784
13.901 39.6417 -14.5099 -0.535642 -0.836721 0.113956
13.0328 40.3162 -13.2022 -0.5168 -0.852236 0.0813162
12.2578 40.7938 -12.13 -0.426556 -0.903884 0.0323195
11.2427 41.3057 -10.8273 -0.394339 -0.918538 0.028028
10.0797 41.7606 -9.44065 -0.342506 -0.939511 -0.00295604
9.71497 41.8716 -9.01658 -0.287075 -0.957854 -0.0101489
9.68138 41.9003 -10.3404 -0.298084 -0.954358 -0.0186413
10.5215 41.6063 -11.3211 -0.353329 -0.935487 -0.00473917
11.3631 41.2257 -12.3724 -0.451796 -0.892071 0.00950716
12.2815 40.7148 -13.6095 -0.499988 -0.865472 0.0311601
12.9628 40.2314 -14.6096 -0.527804 -0.846496 0.0697759
13.78 39.5199 -15.8919 -0.545622 -0.828712 0.12463
14.7612 38.6069 -17.4814 -0.539268 -0.830083 0.141958
14.7815 38.5886 -17.5131 -0.53764 -0.832752 0.132162
12.6134 40.3538 -15.612 -0.579753 -0.809632 0.0915617
11.8165 40.9533 -14.4012 -0.508161 -0.860653 0.0323878
10.967 41.4208 -13.2529 -0.441783 -0.897059 -0.010645
10.1775 41.7525 -12.2729 -0.36775 -0.929551 -0.0263735
9.59197 41.9498 -11.5907 -0.322888 -0.946399 -0.0085381
9.58143 41.9957 -12.928 -0.326841 -0.943621 -0.0524898
10.5868 41.6051 -14.1546 -0.416924 -0.908887 -0.0099139
11.3424 41.2159 -15.1635 -0.52011 -0.854096 -0.00238203
11.5506 41.0902 -15.4563 -0.552968 -0.833194 -0.00375788
10.5576 41.725 -15.4365 -0.501202 -0.863554 -0.0554177
9.71579 42.0294 -14.4226 -0.378758 -0.920971 -0.0914079
9.59308 42.0658 -14.281 -0.378758 -0.920971 -0.0914039
9.33011 42.2867 -15.282 -0.342459 -0.934408 -0.0980002
9.61655 42.211 -15.6052 -0.413695 -0.904943 -0.0996765
23.407 32.2014 -17.7743 -0.665981 -0.741261 0.0836713
22.9843 32.6922 -16.9199 -0.666047 -0.738889 0.102097
22.5229 33.2251 -16.0127 -0.651945 -0.749413 0.115533
21.9999 33.8449 -14.9965 -0.640261 -0.756122 0.135445
21.5636 34.3584 -14.1739 -0.63273 -0.761804 0.138954
21.1465 34.8424 -13.4066 -0.625562 -0.768917 0.132057
20.7178 35.3334 -12.6338 -0.620326 -0.769263 0.153065
20.158 35.9683 -11.6558 -0.607982 -0.778645 0.155144
19.7141 36.4464 -10.9109 -0.597198 -0.789839 0.139677
19.0619 37.1169 -9.83723 -0.570743 -0.809753 0.136208
18.4776 37.6663 -8.92304 -0.54228 -0.82979 0.131834
17.8627 38.2015 -7.99313 -0.515706 -0.846662 0.13119
17.3846 38.5909 -7.2927 -0.503052 -0.854006 0.132713
-9.79778 42.1609 15.2761 0.485271 -0.857308 0.171858
-9.78921 42.1632 15.2661 0.404019 -0.897753 0.175521
-9.88946 41.8919 14.1126 0.407324 -0.900317 0.15335
-10.7079 41.6263 15.1102 0.491695 -0.860067 0.136088
-10.9215 41.5377 15.3883 0.575874 -0.809816 0.112102
-11.6662 40.9691 15.1113 0.592247 -0.802567 0.0716237
-10.8856 41.3548 14.0344 0.494537 -0.861954 0.111662
-10.1238 41.6406 13.0762 0.403658 -0.906652 0.122642
-10.0271 41.6685 12.9613 0.403886 -0.906928 0.119822
-10.0766 41.4862 11.6982 0.415215 -0.903472 0.106466
-10.87 41.2103 12.6739 0.469687 -0.875329 0.114864
-11.5938 40.8717 13.6428 0.517553 -0.849619 0.101416
-12.5093 40.3373 15.0039 0.592247 -0.802567 0.0716192
-12.6421 40.2392 15.23 0.647024 -0.762317 0.0152699
-14.1083 39.0845 16.1386 0.609463 -0.790626 -0.0588608
-13.5242 39.5683 15.1693 0.592911 -0.804873 -0.0252206
-12.8468 40.0734 14.0796 0.582964 -0.81233 0.016518
-11.9443 40.6018 12.7466 0.540969 -0.839719 0.0471638
-11.1765 40.9454 11.7309 0.468065 -0.878834 0.0925545
-10.4146 41.2423 10.7701 0.408753 -0.90997 0.0698177
-10.2815 41.2896 10.6069 0.408753 -0.909971 0.0698147
-11.5986 40.685 10.902 0.448906 -0.892747 0.038555
-12.2975 40.3481 11.8381 0.503226 -0.864123 0.0074219
-13.0104 39.9436 12.8744 0.518138 -0.85528 0.00546581
-13.6628 39.5074 13.8527 0.562171 -0.82689 -0.0147202
-14.3087 39.0115 14.8816 0.59693 -0.801411 -0.0376011
-14.8847 38.5104 15.84 0.596995 -0.799537 -0.0658523
-15.5078 37.9525 16.9035 0.609765 -0.789855 -0.0656909
-16.0798 37.4203 17.8981 0.607827 -0.790769 -0.0723263
-16.2713 37.2425 18.2331 0.608645 -0.789233 -0.0816222
-16.9742 36.7426 17.8066 0.606492 -0.791677 -0.0735886
-16.4102 37.2678 16.8179 0.605754 -0.792159 -0.0744724
-15.7892 37.8379 15.7636 0.601555 -0.795638 -0.071353
-15.1916 38.366 14.7643 0.591067 -0.803862 -0.0666783
-14.4481 38.9819 13.5555 0.56498 -0.82417 -0.0392589
-13.5796 39.5834 12.2471 0.533067 -0.84607 0.002187
-12.8357 40.0298 11.1719 0.503405 -0.864029 0.00610137
-12.4746 40.2366 10.6625 0.475568 -0.879405 0.0219747
-13.3728 39.7414 10.4723 0.479943 -0.877286 -0.00491661
-14.1657 39.2403 11.624 0.529794 -0.847921 -0.0186834
-14.8693 38.7432 12.6889 0.560086 -0.827028 -0.0482538
-15.4901 38.2407 13.6761 0.578058 -0.81304 -0.0693929
-16.0948 37.7151 14.672 0.589495 -0.804022 -0.0777416
-16.8123 37.0549 15.8806 0.597768 -0.797189 -0.0846377
-17.5852 36.3293 17.2181 0.606493 -0.791676 -0.0735855
-17.9468 35.9952 17.8471 0.611626 -0.787979 -0.0707341
-18.7275 35.4021 17.5976 0.61717 -0.783825 -0.0686977
-18.1548 35.9516 16.5738 0.615125 -0.784148 -0.0820553
-17.6016 36.4833 15.6107 0.602947 -0.793136 -0.0859663
-17.0161 37.0352 14.617 0.594184 -0.80013 -0.0820754
-16.2271 37.7456 13.2995 0.576628 -0.812954 -0.0812757
-15.465 38.3765 12.0859 0.559678 -0.82656 -0.0596493
-14.7849 38.8703 11.053 0.529042 -0.847921 -0.0338259
-14.3421 39.1696 10.3989 0.521522 -0.852721 -0.0296822
-15.2365 38.6287 10.2291 0.514127 -0.856547 -0.0447279
-15.9432 38.1122 11.2948 0.539338 -0.839965 -0.0597768
-16.6916 37.498 12.4622 0.579034 -0.811684 -0.0767433
-17.3621 36.8907 13.5929 0.590309 -0.802292 -0.0886675
-18.0479 36.2311 14.7632 0.61289 -0.785098 -0.0893743
-18.6898 35.6044 15.8803 0.622516 -0.777676 -0.0877081
-19.2202 35.0806 16.8379 0.628439 -0.774052 -0.0768583
-19.6959 34.6155 17.6887 0.629862 -0.773798 -0.067165
-20.6741 33.7855 17.8425 0.646934 -0.760164 -0.0602243
-19.9343 34.5331 16.4869 0.637567 -0.76698 -0.0724547
-19.3912 35.0813 15.5019 0.62632 -0.774264 -0.090766
-18.7564 35.7214 14.3758 0.619009 -0.779758 -0.0938406
-18.0624 36.4077 13.1671 0.611208 -0.785846 -0.0941912
-17.3748 37.0539 11.9923 0.589575 -0.803536 -0.0820397
-16.7627 37.5765 11.0249 0.568791 -0.818775 -0.0780068
-16.1506 38.0635 10.0856 0.530734 -0.845256 -0.062158
-15.7621 38.3503 9.50312 0.530061 -0.846201 -0.0545735
-16.4749 37.9299 9.05211 0.529364 -0.847093 -0.0469863
-17.2471 37.3245 10.2273 0.561063 -0.824302 -0.0757331
-17.8419 36.7939 11.1787 0.595969 -0.797316 -0.0954376
-18.4371 36.235 12.1799 0.606513 -0.789423 -0.0946201
-19.0414 35.6336 13.2393 0.615485 -0.78268 -0.0926879
-19.6377 35.0216 14.3013 0.633412 -0.767624 -0.0976866
-20.175 34.4605 15.2819 0.63748 -0.765274 -0.089298
-20.8341 33.7742 16.5064 0.64651 -0.758688 -0.0801156
-21.5114 33.071 17.7823 0.660722 -0.748404 -0.0577826
-22.2953 32.3825 17.6482 0.668012 -0.742216 -0.0536246
-21.6679 33.0462 16.4455 0.667661 -0.740751 -0.0742734
-21.0928 33.668 15.3459 0.660688 -0.745991 -0.0836036
-20.4073 34.4125 14.05 0.645446 -0.757908 -0.0947379
-19.8536 34.9987 13.0429 0.639637 -0.762859 -0.0943937
-19.125 35.7441 11.7525 0.616466 -0.7816 -0.0952378
-18.4125 36.4464 10.5376 0.596529 -0.796432 -0.0992409
-17.6595 37.1254 9.32267 0.579417 -0.812413 -0.0652833
-17.0516 37.5978 8.4053 0.536075 -0.842647 -0.0506805
-17.7017 37.2048 7.86296 0.557969 -0.828186 -0.0527066
-18.3193 36.6955 8.81762 0.579418 -0.812412 -0.0652822
-18.9029 36.1679 9.7601 0.599576 -0.795705 -0.0858018
-19.5504 35.5217 10.8694 0.619509 -0.778271 -0.102488
-20.0906 34.963 11.8216 0.631113 -0.769671 -0.0964521
-20.7032 34.3 12.9359 0.637976 -0.763083 -0.103395
-21.4085 33.5089 14.2869 0.66354 -0.742441 -0.0921713
-21.9806 32.8721 15.3947 0.669747 -0.738163 -0.0809567
-22.6134 32.1739 16.6301 0.677717 -0.732056 -0.069233
-23.0802 31.6733 17.5418 0.681358 -0.730429 -0.0471755
-24.1084 30.6776 17.9381 0.686788 -0.725794 -0.0393111
-23.5882 31.2402 16.9105 0.680747 -0.730438 -0.0551716
-23.0732 31.8125 15.8877 0.683478 -0.726641 -0.0696448
-22.4028 32.5793 14.554 0.682959 -0.726129 -0.0793989
-21.8328 33.2363 13.4281 0.663539 -0.742442 -0.0921703
-21.3158 33.8332 12.4234 0.658651 -0.744744 -0.107402
-20.7453 34.4753 11.3642 0.65042 -0.754967 -0.0835455
-20.1317 35.1226 10.2698 0.633101 -0.767869 -0.0977724
-19.5825 35.6844 9.31467 0.620367 -0.778894 -0.092027
-18.9349 36.29 8.24919 0.592593 -0.802642 -0.0678241
-18.299 36.8409 7.25027 0.575599 -0.814646 -0.0709808
-18.8197 36.5354 6.52669 0.564721 -0.822299 -0.0701022
-19.4301 35.9915 7.48839 0.598751 -0.795642 -0.0919301
-20.0825 35.3677 8.56832 0.629149 -0.77254 -0.0857514
-20.8063 34.6158 9.83487 0.642114 -0.760338 -0.0978599
-21.4037 33.9524 10.9355 0.663056 -0.742916 -0.0918265
-22.0054 33.2497 12.0887 0.67588 -0.729786 -0.102946
-22.5429 32.61 13.1565 0.679817 -0.727005 -0.0964955
-23.0666 31.9962 14.2022 0.682299 -0.726303 -0.083376
-23.6999 31.2554 15.4809 0.694519 -0.716154 -0.0690434
-24.2429 30.6405 16.5704 0.691555 -0.720067 -0.0570494
-24.8941 29.9237 17.8779 0.693398 -0.719377 -0.0411852
-24.9184 29.898 17.9258 0.693685 -0.719365 -0.0362642
-25.7029 29.1315 17.8846 0.699469 -0.713706 -0.0369752
-25.1902 29.6944 16.8456 0.698964 -0.713608 -0.0470446
-24.6079 30.3572 15.6608 0.700046 -0.711453 -0.0614023
-24.0879 30.9702 14.5961 0.697812 -0.712324 -0.0751844
-23.5796 31.5744 13.5621 0.691433 -0.717726 -0.0824019
-22.9646 32.3189 12.3136 0.689047 -0.719263 -0.0887407
-22.2735 33.1586 10.9327 0.67967 -0.726996 -0.0975982
-21.7553 33.7654 9.93735 0.662135 -0.743391 -0.0945852
-21.2253 34.3688 8.95268 0.65488 -0.749503 -0.0968356
-20.6914 34.9338 8.01248 0.6294 -0.772292 -0.0861438
-20.5973 35.0282 7.85304 0.628992 -0.772607 -0.0863016
-22.0137 33.6992 8.75884 0.656253 -0.746727 -0.108308
-22.5308 33.0806 9.7544 0.67342 -0.731383 -0.107633
-23.0396 32.4583 10.7645 0.684335 -0.720892 -0.109547
-23.5849 31.7797 11.8746 0.692735 -0.714797 -0.0958284
-24.0965 31.1424 12.9318 0.701714 -0.707783 -0.0814952
-24.6342 30.4829 14.0484 0.702763 -0.707354 -0.0759867
-25.1209 29.8987 15.0567 0.707093 -0.704578 -0.059913
-25.6027 29.3389 16.047 0.705204 -0.707451 -0.0469114
-26.1202 28.7561 17.1089 0.70607 -0.707227 -0.035986
-26.3706 28.4798 17.623 0.706188 -0.707104 -0.0360785
-27.1882 27.6504 17.6796 0.711746 -0.701857 -0.0285277
-26.6639 28.2315 16.6 0.71362 -0.699379 -0.0401975
-26.0076 28.9832 15.2415 0.715881 -0.696365 -0.0508937
-25.5128 29.5774 14.2074 0.710897 -0.699919 -0.0688381
-24.9697 30.2471 13.0686 0.711574 -0.69821 -0.0785166
-24.5146 30.827 12.1025 0.704732 -0.703292 -0.0934499
-24.003 31.4794 11.0315 0.697044 -0.71044 -0.0969791
-23.4707 32.1617 9.93293 0.694528 -0.711544 -0.106473
-23.034 32.7223 9.04081 0.674487 -0.729748 -0.11196
-24.0223 31.6951 9.36041 0.710641 -0.696305 -0.10074
-24.5539 30.9973 10.4772 0.713461 -0.694418 -0.093579
-25.0373 30.3657 11.5056 0.714761 -0.693813 -0.0879788
-25.5337 29.7212 12.5743 0.721325 -0.68792 -0.0803497
-26.0981 29.0134 13.7744 0.71719 -0.693962 -0.0636819
-26.6021 28.4044 14.8318 0.718233 -0.694309 -0.0455703
-27.2018 27.7057 16.0858 0.720105 -0.693131 -0.0319033
-27.8945 26.9244 17.5223 0.721868 -0.691662 -0.0225836
-28.0141 26.7923 17.7724 0.722036 -0.691532 -0.0211635
-28.7821 25.9815 17.7615 0.73281 -0.680286 -0.0141353
-28.2338 26.5959 16.6166 0.731138 -0.681836 -0.0231577
-27.7273 27.1755 15.5623 0.728325 -0.684639 -0.0284902
-27.1518 27.8535 14.3501 0.726428 -0.685646 -0.0468087
-26.6206 28.5084 13.223 0.728657 -0.682677 -0.0548764
-26.1488 29.1142 12.2064 0.725784 -0.68444 -0.0691383
-25.6494 29.7685 11.1168 0.723275 -0.685358 -0.0846034
-25.0953 30.505 9.92196 0.720871 -0.687044 -0.0911892
-24.7979 30.9067 9.27647 0.719457 -0.688056 -0.0946634
-25.5931 30.062 9.27324 0.730586 -0.677151 -0.0878117
-26.1236 29.341 10.4413 0.732415 -0.67613 -0.0801054
-26.5948 28.714 11.4824 0.734935 -0.674421 -0.0709011
-27.05 28.1188 12.4763 0.735607 -0.674638 -0.0612075
-27.5059 27.5385 13.4573 0.737139 -0.674081 -0.0473334
-28.0917 26.825 14.7091 0.737501 -0.674283 -0.0378675
-28.5677 26.2604 15.7109 0.736438 -0.676142 -0.022153
-29.0525 25.7056 16.7234 0.742166 -0.670093 -0.0128611
-29.5669 25.1262 17.8046 0.738024 -0.674768 -0.0031212
-29.9146 24.7461 16.9369 0.746569 -0.665249 -0.00891181
-29.4082 25.3311 15.8755 0.74653 -0.665232 -0.012581
-28.889 25.9464 14.7801 0.747813 -0.663453 -0.0245915
-28.334 26.6184 13.5976 0.741268 -0.670068 -0.0391188
-27.8563 27.2194 12.565 0.739061 -0.671377 -0.0551598
-27.4005 27.8152 11.5806 0.745161 -0.663754 -0.0645433
-26.754 28.688 10.1363 0.739394 -0.668973 -0.0759704
-26.3034 29.3098 9.11602 0.73483 -0.67283 -0.0855839
-26.1229 29.5581 8.7137 0.734831 -0.672829 -0.0855839
-26.8513 28.767 8.61313 0.745746 -0.661601 -0.0784072
-27.3881 28.0193 9.84833 0.744559 -0.663182 -0.0763001
-27.96 27.2281 11.1599 0.745162 -0.663753 -0.0645414
-28.4662 26.5603 12.2511 0.747937 -0.661773 -0.051435
-28.9204 25.983 13.2369 0.748892 -0.661698 -0.0362685
-29.4733 25.3015 14.411 0.74705 -0.664157 -0.0284883
-29.976 24.6961 15.4877 0.752213 -0.658734 -0.015664
-30.358 24.2492 16.2954 0.752125 -0.659002 -0.00481036
-30.8008 23.7379 15.6643 0.76107 -0.6486 -0.00951294
-30.1449 24.543 14.2473 0.754695 -0.655589 -0.0252811
-29.5063 25.3369 12.8951 0.75187 -0.658253 -0.0373459
-28.9848 26.0129 11.7551 0.755264 -0.653316 -0.0524849
-28.4821 26.6812 10.6625 0.754397 -0.653168 -0.0652455
-27.9216 27.4633 9.35762 0.755547 -0.651364 -0.0698131
-27.4945 28.0675 8.35184 0.751473 -0.655011 -0.0790499
-27.3529 28.2702 8.01817 0.752888 -0.653638 -0.07692
-27.9253 27.6527 7.62002 0.764022 -0.641645 -0.0675381
-28.3796 26.9983 8.70525 0.757489 -0.649476 -0.0662727
-28.8323 26.3597 9.77759 0.759889 -0.646862 -0.0643317
-29.3088 25.708 10.8594 0.757854 -0.650335 -0.0521667
-29.7819 25.083 11.887 0.75397 -0.655591 -0.0415835
-30.245 24.4872 12.8984 0.756422 -0.653235 -0.0332997
-30.7344 23.8704 13.9364 0.757242 -0.652619 -0.0259507
-31.2053 23.281 14.968 0.760775 -0.648753 -0.0184802
-31.384 23.0585 15.3512 0.763399 -0.645587 -0.0209606
-32.0511 22.2649 15.2206 0.769487 -0.638357 -0.0197225
-31.5905 22.8509 14.2553 0.763975 -0.644663 -0.0274162
-31.1103 23.4632 13.1743 0.762128 -0.64678 -0.0289181
-30.5814 24.1402 12.0482 0.759415 -0.649531 -0.0374027
-30.093 24.7809 10.9642 0.760936 -0.647095 -0.0473729
-29.6072 25.4399 9.88813 0.761433 -0.645726 -0.0570723
-29.1013 26.144 8.70031 0.762567 -0.644217 -0.058951
-28.6307 26.8148 7.58317 0.766983 -0.638229 -0.06634
-28.5234 26.971 7.32166 0.766982 -0.63823 -0.0663413
-29.0782 26.3378 6.94821 0.771396 -0.633843 -0.0564942
-29.5614 25.6465 8.1033 0.766802 -0.639268 -0.0578934
-30.0835 24.92 9.32218 0.764237 -0.642836 -0.0519932
-30.5347 24.3079 10.3315 0.760936 -0.647095 -0.0473729
-31.0324 23.6495 11.4256 0.760198 -0.648315 -0.0422693
-31.6068 22.9022 12.6669 0.762807 -0.645793 -0.0328265
-32.0575 22.3231 13.6733 0.764116 -0.644443 -0.0286324
-32.5374 21.7008 14.6926 0.765304 -0.642839 -0.0326946
-32.7518 21.4199 15.1561 0.765345 -0.642537 -0.0373164
-33.5492 20.4712 15.2571 0.752989 -0.654798 -0.0651707
-33.0894 21.0629 14.2993 0.759049 -0.650022 -0.0362912
-32.5334 21.7907 13.1005 0.75958 -0.649164 -0.0403033
-32.0795 22.3776 12.1189 0.760218 -0.648585 -0.0374873
-31.5927 23.013 11.0579 0.761597 -0.646843 -0.0395465
-31.114 23.6433 10.0215 0.763259 -0.644617 -0.043634
-30.6345 24.2925 8.94115 0.766149 -0.64098 -0.0464821
-30.1738 24.9289 7.87821 0.769731 -0.636436 -0.0496296
-29.6645 25.6454 6.67292 0.771874 -0.63364 -0.0520639
-29.6569 25.6563 6.65473 0.774089 -0.630778 -0.0538956
-30.1253 25.1275 6.10726 0.772701 -0.632797 -0.0500099
-30.5921 24.4731 7.21447 0.773774 -0.631868 -0.0449056
-31.0624 23.8268 8.29624 0.767319 -0.639605 -0.0461174
-31.6685 23.011 9.6549 0.762925 -0.645178 -0.0411254
-32.2478 22.2529 10.9055 0.759676 -0.649074 -0.0399364
-32.7281 21.6303 11.9323 0.757085 -0.652106 -0.0397504
-33.2329 20.9754 13.0008 0.76165 -0.646504 -0.0438361
-33.7761 20.2912 14.1536 0.745536 -0.665042 -0.0435365
-34.3248 19.5993 15.2466 0.721863 -0.687408 -0.0799021
-34.859 18.9296 16.2948 0.711837 -0.697664 -0.0809457
-35.4394 18.2421 17.4194 0.695318 -0.714232 -0.0800342
-35.7384 17.9044 17.976 0.675987 -0.732834 -0.0774277
-36.6181 17.241 17.8201 0.588221 -0.807275 -0.047997
-36.0358 17.7829 16.8738 0.646823 -0.758568 -0.0787074
-35.4208 18.4249 15.77 0.679058 -0.731291 -0.0639839
-34.7369 19.2374 14.4679 0.726116 -0.685885 -0.0481419
-34.2501 19.8187 13.5185 0.725718 -0.68634 -0.0476516
-33.7795 20.3923 12.5644 0.745749 -0.664741 -0.04447
-33.2822 21.0146 11.544 0.750083 -0.660004 -0.0420704
-32.6868 21.7769 10.2906 0.75698 -0.652272 -0.0390221
-32.1982 22.4121 9.23125 0.759949 -0.648912 -0.0372932
-31.6009 23.2025 7.91856 0.766403 -0.64111 -0.0400435
-31.0839 23.9055 6.73711 0.772079 -0.634272 -0.0399181
-30.6271 24.5396 5.65745 0.777728 -0.627127 -0.0430181
-30.5277 24.6781 5.42164 0.778122 -0.626842 -0.0399549
-30.9311 24.2166 4.75583 0.780924 -0.623442 -0.0384514
-31.407 23.5632 5.86542 0.776385 -0.629173 -0.0369842
-31.8661 22.9425 6.92248 0.769597 -0.637503 -0.0362091
-32.3062 22.3599 7.91504 0.762713 -0.645662 -0.0372797
-32.871 21.6301 9.12279 0.757403 -0.65189 -0.0371466
-33.3683 20.9982 10.1741 0.754872 -0.654825 -0.0370383
-33.9295 20.3056 11.3234 0.744531 -0.666323 -0.0410881
-34.4997 19.6084 12.4636 0.732486 -0.679715 -0.0381033
-35.1787 18.8472 13.7319 0.704965 -0.707645 -0.0475658
-35.6887 18.27 14.6719 0.688499 -0.722925 -0.0578738
-36.2233 17.7141 15.6214 0.649057 -0.760075 -0.0317967
-36.8499 17.1768 16.6021 0.614673 -0.786414 -0.0610737
-37.5158 16.6215 17.5923 0.552681 -0.832092 -0.0465568
-37.8207 16.4129 17.9957 0.539709 -0.841413 -0.0271667
-38.7517 15.828 17.7653 0.524914 -0.851047 -0.0135763
-37.924 16.3957 16.6592 0.565883 -0.823876 -0.0316973
-37.2888 16.8879 15.7461 0.584904 -0.810112 -0.0400797
-36.673 17.397 14.8054 0.627834 -0.777489 -0.0365414
-35.9722 18.0866 13.6228 0.681323 -0.730484 -0.0468192
-35.3837 18.705 12.5826 0.707244 -0.705899 -0.0388834
-34.8674 19.266 11.6339 0.720709 -0.692197 -0.0379808
-34.3518 19.8851 10.6204 0.737054 -0.674454 -0.0431494
-33.8128 20.5371 9.53219 0.741541 -0.670009 -0.034718
-33.3441 21.1155 8.56321 0.754928 -0.654823 -0.0359156
-32.8218 21.777 7.46718 0.760142 -0.649171 -0.0275787
-32.3167 22.4283 6.33509 0.769758 -0.637671 -0.0291352
-31.8459 23.0503 5.28298 0.774789 -0.631498 -0.0301986
-31.3292 23.7509 4.07893 0.784326 -0.619585 -0.0307745
-31.7686 23.2179 3.50849 0.784855 -0.619374 -0.0194382
-32.2031 22.6427 4.51756 0.777936 -0.627868 -0.0244332
-32.669 22.0392 5.52898 0.767739 -0.6405 -0.0183591
-33.1167 21.4683 6.53425 0.760557 -0.649037 -0.0174184
-33.5881 20.8839 7.53562 0.755562 -0.654406 -0.029643
-34.2088 20.1315 8.79361 0.743521 -0.668212 -0.025874
-34.7236 19.529 9.80823 0.725965 -0.686935 -0.0331024
-35.4237 18.7464 11.1184 0.692651 -0.720454 -0.0343468
-36.0002 18.1552 12.1396 0.674805 -0.736919 -0.0398612
-36.6977 17.4674 13.3209 0.640039 -0.767091 -0.0438234
-37.3971 16.8474 14.4256 0.60258 -0.797471 -0.0306058
-38.1787 16.2692 15.5331 0.552892 -0.832859 -0.0256342
-39.075 15.6534 16.7352 0.51104 -0.859328 -0.0198175
-39.9781 15.1476 17.8567 0.452996 -0.891508 0.00297085
-40.0675 15.1037 17.9631 0.436585 -0.899476 -0.0183546
-41.2267 14.5531 17.9125 0.380162 -0.924598 -0.0243926
-40.4796 14.9216 17.0287 0.429956 -0.902754 -0.0131684
-39.6678 15.3248 16.0446 0.466924 -0.883874 -0.0273499
-38.823 15.874 14.9376 0.522246 -0.851994 -0.0369529
-38.0718 16.4122 13.8975 0.567035 -0.822927 -0.0355341
-37.3077 16.994 12.7911 0.59105 -0.805406 -0.0445142
-36.5902 17.6447 11.6368 0.660954 -0.750007 -0.0251097
-35.9266 18.2856 10.4993 0.694318 -0.719209 -0.0257007
-35.2891 18.9626 9.34127 0.71423 -0.699061 -0.0344763
-34.7494 19.5683 8.31733 0.725959 -0.68728 -0.0251113
-34.1991 20.2096 7.23507 0.743865 -0.667821 -0.0260701
-33.7224 20.7818 6.25668 0.748271 -0.663144 -0.0181952
-33.1878 21.4299 5.12611 0.766441 -0.642117 -0.015938
-32.6761 22.0744 4.02624 0.773771 -0.633344 -0.0123915
-32.161 22.7469 2.83888 0.782737 -0.622164 -0.0153244
-32.1235 22.796 2.75033 0.784047 -0.620596 -0.0114119
-32.4044 22.4584 1.82534 0.785536 -0.618748 -0.00918889
-32.8724 21.8564 2.91257 0.778124 -0.628069 -0.00731004
-33.3917 21.2086 4.04756 0.767634 -0.640805 -0.0103592
-33.9973 20.4854 5.32459 0.753011 -0.657862 -0.0138596
-34.5092 19.9066 6.33898 0.739058 -0.672929 -0.0309753
-35.1156 19.2314 7.47148 0.714895 -0.699101 -0.0135364
-35.6758 18.6079 8.52689 0.714232 -0.699024 -0.0351813
-36.3224 17.9291 9.69304 0.692698 -0.721028 -0.0170048
-36.9253 17.3768 10.7003 0.644553 -0.764543 -0.00505041
-37.5274 16.8616 11.6448 0.614709 -0.78837 -0.0246212
-38.1859 16.3604 12.5936 0.5652 -0.824948 -0.00305242
-38.9564 15.8359 13.6534 0.537076 -0.843454 -0.0116539
-39.6962 15.3694 14.6131 0.489273 -0.871181 -0.0406895
-40.6529 14.8455 15.808 0.416561 -0.909107 -0.00121831
-41.4727 14.4889 16.7494 0.395484 -0.918362 -0.0142728
-42.3291 14.1265 17.6954 0.333655 -0.942459 -0.0210871
-43.8822 13.5965 17.9546 0.312262 -0.949945 0.00980754
-43.0083 13.8908 17.024 0.340735 -0.940154 -0.00312656
-42.1516 14.2244 16.0942 0.358442 -0.933237 -0.0242366
-41.3513 14.5598 15.1971 0.381505 -0.924246 -0.0149284
-40.4421 14.9737 14.1289 0.370076 -0.924653 -0.0897783
-39.5739 15.4779 13.0209 0.493905 -0.869432 0.0120752
-38.8087 15.9359 12.0054 0.5652 -0.824948 -0.00305242
-38.1121 16.4466 11.034 0.55849 -0.829168 -0.0238736
-37.3567 17.0314 9.90393 0.600526 -0.79933 -0.020985
-36.6181 17.6823 8.69981 0.681403 -0.730147 -0.0507494
-36.096 18.2414 7.75371 0.683828 -0.727534 -0.0554444
-35.4513 18.9051 6.62968 0.713391 -0.700604 -0.0150727
-34.8751 19.5131 5.56969 0.741392 -0.671062 0.0037071
-34.3768 20.0583 4.58862 0.746792 -0.665058 -0.000302859
-33.904 20.603 3.61098 0.754501 -0.656298 -0.00116831
-33.3872 21.2379 2.50134 0.770131 -0.637815 -0.0094557
-32.9129 21.8284 1.42813 0.778575 -0.62752 -0.00625504
-32.6794 22.1251 0.89177 0.779909 -0.625886 -0.00295033
-32.9884 21.7426 0.060614 0.7717 -0.635979 -0.00308133
-33.4948 21.1227 1.17529 0.771175 -0.636596 -0.00600325
-34.0226 20.4884 2.32432 0.758894 -0.651214 -0.000177735
-34.5015 19.9167 3.3335 0.754502 -0.656296 -0.00116574
-35.1079 19.2547 4.51682 0.738325 -0.674445 -0.000624152
-35.7069 18.6396 5.64597 0.71254 -0.701137 0.026321
-36.432 17.9317 6.8947 0.690015 -0.723795 -0.000185865
-36.9904 17.3959 7.82188 0.649208 -0.759347 -0.0438291
-37.6195 16.8567 8.81523 0.610308 -0.791797 -0.0241189
-38.5253 16.1837 10.1549 0.554904 -0.831827 -0.0121025
-39.2198 15.6957 11.1252 0.533645 -0.845255 -0.0277065
-39.9402 15.2726 12.0598 0.444178 -0.895877 -0.0105575
-40.7327 14.8735 13.0308 0.433591 -0.901047 -0.0106112
-41.5198 14.4938 13.9693 0.390547 -0.920561 0.00639987
-42.5983 14.0515 15.1799 0.36558 -0.930741 0.00847208
-43.7551 13.6362 16.427 0.322975 -0.946407 -0.000621559
-44.7265 13.3265 17.4591 0.283895 -0.958804 0.00994881
-45.1458 13.2069 17.9017 0.28752 -0.95777 0.00292784
-46.5615 12.8172 17.998 0.24997 -0.968218 0.00823991
-45.5909 13.0654 16.9924 0.256656 -0.96636 0.0166374
-44.5142 13.3775 15.849 0.308194 -0.951322 0.0018589
-43.6848 13.6692 14.96 0.326273 -0.945227 -0.00962845
-42.805 13.9757 14.016 0.33868 -0.940902 1.12526e-05
-41.8274 14.3607 12.9071 0.373865 -0.927433 0.00965461
-41.0657 14.7175 12.005 0.436883 -0.899509 0.00404587
-40.3167 15.099 11.0951 0.46329 -0.885904 -0.0231755
-39.3693 15.6323 9.88442 0.494608 -0.869112 -0.00263009
-38.587 16.1191 8.81788 0.58759 -0.809138 0.00584341
-37.8208 16.7473 7.63672 0.619027 -0.785026 -0.0232313
-37.1876 17.2563 6.68389 0.638071 -0.769829 -0.0151409
-36.5128 17.8527 5.59836 0.671841 -0.740315 0.0237126
-35.8661 18.4608 4.45009 0.702162 -0.711585 -0.0248107
-35.3367 19.0136 3.45428 0.724289 -0.689358 -0.0138315
-34.8368 19.571 2.466 0.734821 -0.678185 -0.0101278
-34.2568 20.2285 1.28761 0.753124 -0.657778 -0.0114562
-33.7424 20.8275 0.193463 0.765508 -0.643427 -0.000485675
-33.2111 21.4548 -0.923092 0.769429 -0.638263 0.0244772
-33.0886 21.593 -1.16864 0.775756 -0.630775 0.0180195
-33.1798 21.4487 -2.43403 0.774831 -0.631978 0.0155458
-33.7187 20.8344 -1.31827 0.759885 -0.649805 0.0181243
-34.2964 20.1831 -0.14818 0.757063 -0.653329 -0.00414834
-34.7932 19.6282 0.873389 0.744025 -0.668148 0.00230479
-35.3361 19.0435 1.9398 0.711124 -0.702999 -0.00977139
-35.8893 18.4546 2.98171 0.717082 -0.696763 -0.0177553
-36.4543 17.9021 4.00616 0.671951 -0.740593 0.0018561
-37.2513 17.2013 5.33684 0.625915 -0.779806 0.0115289
-37.8919 16.708 6.30552 0.621587 -0.783162 0.0169349
-38.5231 16.2063 7.25294 0.549659 -0.83135 -0.0820424
-39.2518 15.7079 8.28192 0.515803 -0.856701 0.00319422
-40.0626 15.2637 9.32589 0.46358 -0.88605 -0.00306106
-40.809 14.8687 10.2594 0.437946 -0.898668 -0.0244727
-41.6986 14.4315 11.337 0.376088 -0.926551 -0.00780766
-42.5279 14.09 12.2978 0.35055 -0.936544 0.00105368
-43.4115 13.7577 13.2902 0.328325 -0.944563 0.00184398
-44.2184 13.495 14.1519 0.314088 -0.94939 -0.00274057
-45.0755 13.209 15.0761 0.289417 -0.957198 -0.00307399
-45.9166 12.9689 15.9697 0.253822 -0.967237 0.00525401
-46.984 12.7079 17.0791 0.235742 -0.971813 -0.0022585
-47.7857 12.5237 17.9028 0.209022 -0.977873 0.00858379
-49.0655 12.2535 17.8467 0.19211 -0.981371 -0.00225552
-48.1369 12.4433 16.9058 0.207407 -0.978249 0.00325427
-47.2875 12.6355 16.0375 0.225774 -0.974135 0.00931411
-46.3743 12.8479 15.0841 0.250831 -0.968031 -2.2485e-05
-45.3226 13.1446 13.9636 0.28546 -0.958342 -0.00968138
-44.3028 13.4615 12.865 0.311125 -0.950317 0.00996275
-43.3346 13.7925 11.7949 0.346746 -0.937939 0.00618523
-42.482 14.1116 10.8245 0.364773 -0.931092 -0.00274427
-41.6242 14.4884 9.80957 0.431919 -0.901902 -0.00441718
-40.8222 14.8803 8.8325 0.434292 -0.900743 -0.00726322
-39.9848 15.3129 7.78424 0.466863 -0.884316 -0.00492386
-39.1214 15.8295 6.6342 0.566597 -0.823655 0.0236794
-38.4068 16.3104 5.6275 0.58053 -0.8142 0.00794315
-37.7746 16.7695 4.69941 0.626516 -0.779245 0.0159914
-37.1434 17.2771 3.7015 0.657205 -0.75357 0.0146076
-36.514 17.8543 2.61332 0.69104 -0.722547 -0.0197317
-35.8515 18.5112 1.4246 0.701519 -0.712541 0.0124758
-35.3025 19.0719 0.387315 0.731529 -0.681653 0.0146119
-34.7666 19.6455 -0.672268 0.738502 -0.674247 0.00246963
-34.2723 20.19 -1.64756 0.754208 -0.65629 0.0212891
-33.7615 20.749 -2.67526 0.766001 -0.642421 0.0231998
-33.4454 21.0948 -3.30849 0.771024 -0.636278 0.0259158
-33.5202 20.9503 -4.59517 0.769055 -0.638603 0.0272352
-34.176 20.2325 -3.26037 0.755953 -0.65386 0.0316512
-34.6828 19.7007 -2.26769 0.746323 -0.66502 0.0274023
-35.3571 18.9983 -0.974246 0.7242 -0.689577 -0.00412848
-36.0695 18.2909 0.349785 0.695559 -0.718469 -0.000562045
-36.6684 17.7336 1.39996 0.673179 -0.739245 -0.0186272
-37.3538 17.1059 2.56325 0.652172 -0.757351 -0.0330195
-38.0918 16.5122 3.72867 0.602348 -0.798226 0.00348086
-38.7311 16.0444 4.67221 0.593064 -0.804869 0.0214569
-39.526 15.5797 5.73769 0.487543 -0.873096 0.00224176
-40.2888 15.1514 6.72611 0.472911 -0.881102 -0.00373212
-41.0852 14.7507 7.7234 0.435802 -0.899981 0.0105772
-41.9049 14.3655 8.72102 0.398938 -0.916911 0.0110491
-42.7955 13.9926 9.77677 0.364656 -0.931133 -0.00403565
-43.7207 13.6398 10.8335 0.32088 -0.94695 -0.0179494
-44.7163 13.3213 11.9168 0.306771 -0.951766 0.00573617
-45.6442 13.0571 12.9254 0.271958 -0.962118 0.0191787
-46.6257 12.7729 13.98 0.263062 -0.964775 0.00263827
-47.5439 12.5686 14.9272 0.221855 -0.975031 0.0097556
-48.4472 12.3724 15.8585 0.208299 -0.978044 0.00645972
-49.6147 12.1473 17.0524 0.191391 -0.981514 -0.000654174
-50.4805 11.9825 17.9278 0.17739 -0.984131 0.00439162
-51.642 11.7824 17.7568 0.161746 -0.98683 0.0021
-50.7806 11.9268 16.8838 0.184631 -0.982806 0.00175391
-49.9266 12.0816 16.0079 0.181118 -0.983438 0.00683942
-49.0623 12.2465 15.1201 0.195832 -0.980637 -0.000457982
-48.0199 12.4539 14.0555 0.213859 -0.97685 0.00539142
-47.0659 12.6833 13.0579 0.229753 -0.973103 -0.0168404
-46.2162 12.8901 12.1594 0.240885 -0.970553 -0.00149337
-45.3298 13.1243 11.2063 0.288524 -0.957114 -0.0262156
-44.4694 13.4065 10.2601 0.306524 -0.951761 -0.0139378
-43.6004 13.7036 9.2871 0.339303 -0.940552 0.0153492
-42.6523 14.0417 8.19496 0.35082 -0.936417 0.00697461
-41.7578 14.4198 7.12899 0.40872 -0.912521 0.0159477
-40.7899 14.8842 5.93827 0.474974 -0.879995 -0.00294227
-39.7781 15.4165 4.64516 0.464378 -0.885617 -0.00600425
-39.0571 15.8731 3.66199 0.545345 -0.837944 -0.0211779
-38.3972 16.2992 2.71857 0.5955 -0.803203 -0.0156365
-37.7055 16.8427 1.65391 0.625056 -0.780105 -0.0272176
-37.0591 17.4037 0.582671 0.653409 -0.757005 0.000394594
-36.3774 17.9992 -0.573542 0.653983 -0.756423 -0.0114114
-35.6849 18.6582 -1.82493 0.714773 -0.699074 0.0198765
-35.0997 19.2258 -2.90522 0.717403 -0.696202 0.0252157
-34.5677 19.7642 -3.92158 0.743119 -0.668713 0.0244385
-34.0516 20.3012 -4.93404 0.7404 -0.6716 0.0275886
-33.7391 20.6323 -5.57285 0.766103 -0.64164 0.0371905
-33.8128 20.4637 -6.87013 0.751471 -0.658804 0.0356234
-34.3937 19.8848 -5.70799 0.738325 -0.673483 0.0360059
-34.9186 19.3561 -4.68111 0.715189 -0.698702 0.0178713
-35.4752 18.8124 -3.65045 0.716528 -0.697241 0.0210415
-36.0877 18.2415 -2.54166 0.685917 -0.727147 0.0278195
-36.6705 17.7352 -1.53483 0.659477 -0.751295 0.0254091
-37.2797 17.2288 -0.528515 0.628693 -0.777427 -0.0187635
-37.9154 16.7176 0.489836 0.604649 -0.796144 -0.0235495
-38.5482 16.2525 1.4456 0.576946 -0.816483 -0.0220845
-39.269 15.741 2.5013 0.531741 -0.84683 -0.0114163
-40.0316 15.3162 3.52219 0.487656 -0.873004 -0.00747858
-40.9454 14.804 4.71489 0.464378 -0.885617 -0.00600498
-41.7149 14.4315 5.67341 0.412123 -0.911076 -0.00974109
-42.5492 14.0725 6.66712 0.391167 -0.920018 0.023584
-43.3629 13.7733 7.60462 0.333055 -0.942885 -0.00656978
-44.1731 13.5002 8.52152 0.30882 -0.951095 0.00699794
-44.9711 13.2487 9.4157 0.307664 -0.951462 0.00793913
-45.8242 12.9916 10.3591 0.25949 -0.965613 -0.0160049
-46.7847 12.7503 11.377 0.239295 -0.970944 0.00246103
-47.7302 12.5384 12.3711 0.225851 -0.974146 -0.0054975
-48.6758 12.3233 13.3755 0.205805 -0.978508 -0.0129154
-49.5518 12.1497 14.2727 0.193504 -0.981087 -0.00503927
-50.5237 11.9642 15.2645 0.183136 -0.98302 0.0115258
-51.6143 11.7837 16.3779 0.157188 -0.987567 -0.00166518
-52.6013 11.6323 17.3785 0.14727 -0.989088 0.00393279
-53.1004 11.5594 17.8802 0.142514 -0.989785 -0.00384029
-54.437 11.3823 17.8922 0.120104 -0.99276 -0.00154561
-53.579 11.4949 17.0258 0.132891 -0.99113 0.000704664
-52.7233 11.6141 16.1591 0.142401 -0.989808 0.0015998
-51.8702 11.7409 15.2927 0.155595 -0.987804 0.00571818
-50.9378 11.8924 14.3447 0.166026 -0.986053 -0.0116233
-50.0422 12.0608 13.4256 0.189896 -0.981787 -0.00576822
-48.9128 12.2899 12.2412 0.199341 -0.97993 -0.000843059
-48.0201 12.4628 11.3025 0.213561 -0.976889 0.0089369
-47.0618 12.6788 10.2943 0.232749 -0.97253 0.00373043
-46.1262 12.9202 9.28531 0.260336 -0.965515 -0.0025346
-45.1381 13.2008 8.19898 0.273926 -0.961735 -0.00553254
-44.2546 13.4729 7.21378 0.298524 -0.954325 -0.0121484
-43.3339 13.7649 6.18042 0.306538 -0.951822 0.00835337
-42.5332 14.0971 5.24143 0.371546 -0.928049 -0.0260464
-41.7264 14.4634 4.24675 0.395643 -0.918384 -0.00616459
-40.9386 14.8416 3.2533 0.447766 -0.893994 0.0167396
-40.2055 15.2092 2.31366 0.470785 -0.88223 0.00557337
-39.481 15.6249 1.34056 0.544656 -0.838625 -0.00767894
-38.6822 16.1715 0.185779 0.556646 -0.830749 -0.000956758
-38.0498 16.6235 -0.768151 0.595815 -0.803116 0.00291464
-37.3133 17.1891 -1.93274 0.63528 -0.771706 0.0298216
-36.6808 17.6808 -2.95935 0.660901 -0.750129 0.0227288
-35.9323 18.3485 -4.26721 0.685927 -0.727502 0.0156457
-35.3572 18.8838 -5.30821 0.717531 -0.695808 0.0316315
-34.7793 19.4291 -6.40553 0.723966 -0.688115 0.0486974
-34.2125 19.9742 -7.51906 0.744387 -0.667123 0.028904
-34.1838 20.004 -7.57814 0.75122 -0.659197 0.0335949
-34.6628 19.4622 -8.08009 0.738131 -0.673769 0.0346128
-35.1816 18.9723 -7.07846 0.685956 -0.726559 0.0396942
-35.8358 18.3941 -5.88304 0.700817 -0.71306 0.0200268
-36.5174 17.8055 -4.69721 0.67612 -0.736774 -0.00513353
-37.2702 17.1446 -3.40652 0.632365 -0.773927 0.0339389
-37.9022 16.7021 -2.4397 0.600235 -0.799543 0.0212143
-38.7067 16.1311 -1.21657 0.575383 -0.817588 0.02199
