0.755616 47.2257 -20.4968 -0.0459686 0.998772 0.018486
-0.296445 47.179 -20.4965 -0.0420934 0.998953 0.0179163
-1.62271 47.1198 -20.4635 -0.0472017 0.998765 0.0155036
-2.75405 47.0624 -20.4481 -0.0553948 0.998318 0.0170969
-3.98927 46.9961 -20.4916 -0.0533673 0.998426 0.0172681
-5.11711 46.9313 -20.4883 -0.0597063 0.998023 0.019623
-6.24015 46.8642 -20.4849 -0.0600497 0.997985 0.0205042
-7.67979 46.7745 -20.5141 -0.0654023 0.997567 0.0236209
-9.10046 46.6725 -20.4612 -0.0794919 0.996398 0.0295425
-10.2639 46.5627 -20.5386 -0.107767 0.99411 0.0114694
-11.5715 46.4214 -20.5249 -0.118468 0.992929 -0.00762726
-12.175 46.3398 -19.8157 -0.13383 0.990948 0.0105557
-12.2078 46.295 -18.6704 -0.099596 0.993858 0.0294007
-12.034 46.2845 -18.3357 -0.157119 0.97998 0.122284
-10.7495 46.4427 -18.4899 -0.117118 0.988234 0.097653
-9.57691 46.5606 -18.6906 -0.0872818 0.994909 0.0503749
-8.42522 46.676 -18.7155 -0.0938132 0.994709 0.0397656
-7.17122 46.7689 -18.7691 -0.0714476 0.996993 0.030009
-6.00397 46.8397 -18.7301 -0.0600611 0.997938 0.0224751
-4.89093 46.9076 -18.6594 -0.0622623 0.997779 0.0236677
-3.65522 46.9813 -18.7485 -0.0548942 0.998305 0.0193341
-2.50618 47.0443 -18.7617 -0.053092 0.998372 0.0207472
-1.39392 47.0984 -18.7256 -0.0428902 0.998799 0.0236652
-0.273474 47.1505 -18.9527 -0.0410099 0.998893 0.0230575
0.92388 47.197 -18.8284 -0.0428515 0.998776 0.0246943
2.12488 47.2325 -18.627 -0.0248261 0.999375 0.0251455
3.22966 47.2376 -18.2009 -0.00571452 0.999332 0.0360882
4.36298 47.2137 -17.4788 0.000178383 0.999252 0.0386121
5.20989 47.1585 -16.8068 0.0325797 0.995623 0.0875946
5.91777 47.0629 -15.9904 0.0687997 0.992696 0.0966768
6.55136 46.9022 -14.9176 0.0896701 0.991579 0.0934366
7.02029 46.7688 -13.9824 0.151984 0.979855 0.112574
7.40507 46.5853 -12.724 0.119419 0.987695 0.100979
7.64458 46.4574 -11.5678 0.131936 0.988396 0.0752807
7.56909 46.3829 -10.3511 0.140049 0.987892 0.0667433
7.02958 46.406 -9.33776 0.124386 0.990853 0.0500255
6.42611 46.4224 -8.22686 0.104111 0.993984 0.0340061
5.53303 46.4771 -7.1645 0.0896826 0.995463 0.0317829
4.69191 46.5232 -6.41282 0.0742046 0.996841 0.0274999
3.84959 46.5489 -5.53068 0.0559717 0.998199 0.0215875
2.84899 46.5679 -4.50243 0.0357797 0.99923 0.0161198
1.93224 46.5749 -3.64885 0.0140227 0.999867 0.00831901
0.998603 46.5642 -2.6201 -0.00946499 0.999899 0.00321052
0.260151 46.5454 -1.86403 -0.0248627 0.999691 0.000429978
-0.562442 46.5171 -1.07975 -0.0391772 0.99921 -0.0025314
-1.30754 46.4825 -0.249224 -0.0581779 0.998288 4.54226e-05
-2.12319 46.44 0.63637 -0.0640882 0.997865 -0.0125694
-2.9669 46.3885 1.48769 -0.074051 0.996998 -0.0225935
-3.88044 46.3201 2.48352 -0.102498 0.994409 -0.0245007
-4.89721 46.246 3.62054 -0.119514 0.992153 -0.0354119
-5.68464 46.1728 4.41458 -0.135063 0.989884 -0.042522
-6.38888 46.1044 5.26676 -0.141566 0.988767 -0.0472232
-7.42208 45.9867 6.22461 -0.17843 0.982719 -0.0473121
-8.09048 45.9155 7.12083 -0.189685 0.979421 -0.0689455
-9.02838 45.7648 7.74514 -0.20128 0.977021 -0.0696102
-10.1323 45.5392 8.15299 -0.238111 0.968979 -0.0654225
-11.2575 45.2345 8.12796 -0.271901 0.960239 -0.0623978
-12.5035 44.8407 8.1259 -0.302262 0.952381 -0.0400967
-13.551 44.4768 7.89635 -0.350425 0.93646 -0.0156314
-14.6331 44.0642 7.52553 -0.355764 0.934563 -0.00491142
-15.6074 43.6539 6.95938 -0.393581 0.9192 0.0128439
-16.4996 43.2734 6.35716 -0.402659 0.915285 0.010932
-17.2694 42.9605 5.36775 -0.419426 0.907204 0.031965
-17.8473 42.7364 4.35719 -0.411792 0.910547 0.0362316
-18.0847 42.665 3.32857 -0.42953 0.902404 0.0342097
-18.4101 42.5635 2.04285 -0.429896 0.902379 0.0300311
-18.2581 42.6679 0.883073 -0.407081 0.912921 0.0293265
-18.0868 42.781 -0.303405 -0.406764 0.913117 0.027572
-17.9748 42.8729 -1.58268 -0.401138 0.915323 0.0356725
-17.9981 42.9314 -3.23656 -0.39529 0.917726 0.0386696
-17.8695 43.0343 -4.48942 -0.390948 0.919731 0.0353883
-17.837 43.1054 -5.69441 -0.387445 0.920446 0.0516291
-17.6661 43.2383 -6.94535 -0.388145 0.920564 0.0391558
-17.6487 43.3049 -8.33552 -0.417157 0.907347 0.0519689
-17.5175 43.4693 -9.97852 -0.395744 0.915581 0.0714001
-17.5134 43.5366 -11.0761 -0.436801 0.898651 0.0403839
-17.4464 43.6272 -12.1649 -0.432036 0.899958 0.0580629
-17.0891 43.8693 -13.408 -0.43041 0.900995 0.0541723
-16.54 44.1987 -14.4293 -0.440421 0.895554 0.062526
-15.9283 44.5653 -15.3794 -0.398198 0.913422 0.0841724
-15.0961 45.018 -16.2368 -0.398685 0.90739 0.131665
-14.1566 45.5223 -17.017 -0.328537 0.933988 0.139196
-13.2838 45.9046 -17.6966 -0.310143 0.940717 0.137345
-12.7779 46.0964 -18.0003 -0.229915 0.958071 0.170996
-13.9239 45.7282 -17.9647 -0.331533 0.93698 0.110247
-14.9402 45.3447 -18.0108 -0.384831 0.915649 0.116158
-15.8637 44.9592 -18.2752 -0.541587 0.838381 0.0616507
-16.106 44.8401 -19.305 -0.536681 0.843354 0.0250365
-16.489 44.6359 -20.4477 -0.505251 0.862501 0.0212617
-17.3975 44.0807 -20.4026 -0.539824 0.840888 0.0309918
-18.4579 43.3684 -20.4324 -0.57628 0.816528 0.0244304
-19.3692 42.6942 -20.4834 -0.605044 0.795721 0.0243668
-20.4247 41.8555 -20.5537 -0.642204 0.766476 0.0071768
-21.3694 41.0131 -20.5185 -0.678381 0.734642 -0.0100517
-22.2901 40.1179 -20.4584 -0.713003 0.700811 -0.0221519
-23.1755 39.2097 -20.4186 -0.720562 0.693042 -0.0219697
-23.9242 38.4144 -20.4406 -0.73512 0.677507 -0.0241541
-24.7913 37.4638 -20.4524 -0.743338 0.667845 -0.0375614
-25.5783 36.5875 -20.4291 -0.747868 0.663383 -0.024829
-26.4112 35.6576 -20.4686 -0.740536 0.670174 -0.0497287
-27.1614 34.8267 -20.446 -0.741637 0.669439 -0.0420334
-27.9197 33.9807 -20.5038 -0.743898 0.666942 -0.0419502
-28.6554 33.1722 -20.4408 -0.744448 0.666391 -0.0414638
-29.385 32.3671 -20.3338 -0.749748 0.660682 -0.0347616
-30.1209 31.5056 -20.4334 -0.752531 0.658031 -0.0235572
-30.98 30.5382 -20.4367 -0.736418 0.675994 -0.0268503
-31.7824 29.6922 -20.4867 -0.714402 0.699322 -0.0240521
-32.5326 28.9178 -20.5194 -0.718724 0.695213 -0.0106279
-33.3492 28.0738 -20.5414 -0.720383 0.693474 -0.0116032
-34.1936 27.1907 -20.5424 -0.724571 0.689144 -0.0087719
-34.9359 26.3977 -20.4471 -0.733208 0.679916 -0.010491
-35.4905 25.792 -19.7516 -0.749777 0.661293 -0.0229576
-35.6734 25.6224 -18.6942 -0.756731 0.653313 -0.0232444
-36.1107 25.1721 -17.8736 -0.752735 0.656113 -0.0534951
-36.9387 24.2399 -17.3991 -0.759968 0.649844 -0.0121672
-37.4654 23.6118 -16.5777 -0.774053 0.633098 0.000291032
-37.5718 23.4798 -15.5391 -0.795916 0.605303 -0.00933152
-37.5897 23.4939 -14.2044 -0.796697 0.604034 -0.0204047
-37.6076 23.4973 -13.3422 -0.800823 0.598745 -0.00953926
-37.4987 23.6427 -13.3555 -0.800822 0.598747 -0.00953815
-37.0407 24.2149 -14.2781 -0.794569 0.606783 -0.0215489
-36.5738 24.7824 -15.0556 -0.78215 0.622375 -0.0298452
-35.9232 25.5274 -16.027 -0.772003 0.63446 -0.0383644
-35.2511 26.2758 -16.5513 -0.762844 0.644419 -0.0528566
-34.5345 27.0464 -16.9313 -0.747006 0.661132 -0.0699127
-33.7595 27.8857 -17.1337 -0.740275 0.66622 -0.0902401
-33.0117 28.7205 -17.0402 -0.730808 0.673988 -0.10798
-32.1985 29.609 -17.0484 -0.734513 0.667993 -0.119478
-31.2366 30.5948 -17.4684 -0.73675 0.665901 -0.117372
-30.4203 31.4731 -17.6779 -0.737166 0.669256 -0.0931789
-29.6395 32.3066 -17.9302 -0.745556 0.659142 -0.0983796
-28.6481 33.3995 -18.1582 -0.748629 0.656567 -0.0920588
-27.8009 34.3296 -18.1648 -0.735713 0.670963 -0.0923837
-27.0888 35.1161 -18.2426 -0.743309 0.663323 -0.0865763
-26.3348 35.9511 -18.2137 -0.739293 0.668499 -0.0807115
-25.4746 36.8955 -18.1888 -0.734483 0.673623 -0.0822539
-24.7313 37.7095 -18.0929 -0.726411 0.684592 -0.0604998
-23.8424 38.6734 -17.8502 -0.725601 0.685192 -0.0633658
-23.1117 39.4425 -17.4603 -0.7055 0.706777 -0.0523131
-22.4286 40.1337 -16.7955 -0.677385 0.734381 -0.0428284
-21.6383 40.8846 -15.9763 -0.652772 0.757233 -0.0220629
-21.0475 41.4062 -15.2593 -0.600772 0.799271 0.000746875
-20.3256 41.9655 -14.4115 -0.585973 0.810032 -0.0076332
-19.7664 42.3546 -13.4271 -0.56285 0.826342 -0.0121557
-19.413 42.5591 -12.429 -0.522278 0.852339 0.0272574
-19.3373 42.5688 -11.1184 -0.515552 0.856657 0.0185637
-19.4573 42.4704 -9.99644 -0.485141 0.874378 0.0101032
-19.451 42.4662 -8.8062 -0.46595 0.884577 0.0203644
-19.4555 42.4353 -7.72292 -0.466496 0.884112 0.0269884
-19.5276 42.3385 -6.50555 -0.483711 0.873638 0.0527253
-19.5447 42.2818 -5.1744 -0.469675 0.882442 0.0264863
-19.673 42.1845 -3.87812 -0.453134 0.89117 0.0220588
-19.6903 42.1125 -2.57132 -0.452571 0.890085 0.0541105
-19.7969 42.0237 -1.46906 -0.443557 0.895647 0.0315364
-19.9439 41.9106 -0.17548 -0.432417 0.901213 0.0287933
-20.0429 41.7933 1.08821 -0.450627 0.891583 0.044632
-20.1171 41.6874 2.3756 -0.472698 0.879549 0.0512855
-20.1419 41.6217 3.58019 -0.483768 0.874052 0.044742
-20.4441 41.3541 4.76923 -0.503753 0.861324 0.0659756
-21.0313 40.939 5.65002 -0.510509 0.857244 0.0671886
-21.6765 40.4844 6.35396 -0.529441 0.84454 0.0802838
-22.4302 39.9284 6.89513 -0.561462 0.820088 0.110528
-23.4294 39.1262 7.38466 -0.602436 0.789898 0.114598
-24.5061 38.2422 7.63329 -0.622139 0.772101 0.12963
-25.4751 37.4142 7.81993 -0.636634 0.76105 0.124499
-26.4427 36.6033 7.78942 -0.642385 0.757653 0.115343
-27.334 35.8183 7.53144 -0.69409 0.712772 0.10097
-28.2325 35.0136 7.23476 -0.685134 0.71738 0.126322
-29.0257 34.3209 6.69761 -0.705889 0.696337 0.129748
-29.8059 33.6183 6.20262 -0.722217 0.681191 0.118832
-30.6012 32.8462 5.69925 -0.726182 0.679762 0.102874
-31.406 32.0209 5.28408 -0.753909 0.651073 0.0878917
-32.1338 31.2521 4.58703 -0.768926 0.634136 0.0813879
-32.7953 30.5515 3.75045 -0.772897 0.629719 0.0780003
-33.3116 30.0005 2.96415 -0.780842 0.621425 0.0641642
-33.9096 29.2849 1.87173 -0.803515 0.59471 0.0261495
-34.5106 28.5133 0.727447 -0.818559 0.573517 0.0320249
-35.0238 27.8102 -0.186805 -0.834358 0.550798 0.0211947
-35.413 27.2492 -1.00337 -0.832696 0.553376 0.0197968
-35.7371 26.7637 -1.91868 -0.842364 0.538904 -0.0023533
-35.9622 26.3878 -3.33812 -0.841009 0.540881 -0.0122647
-36.0229 26.2757 -4.50135 -0.840757 0.541135 -0.0160692
-36.0637 26.1679 -5.57107 -0.841381 0.539996 -0.0219461
-36.6079 25.2673 -6.67464 -0.840634 0.540955 -0.0264709
-37.0128 24.6099 -7.73172 -0.835251 0.549372 -0.0233118
-37.3223 24.0957 -8.65956 -0.833379 0.552265 -0.020906
-37.5547 23.7135 -9.63527 -0.827155 0.561616 -0.0195958
-37.6067 23.594 -10.8731 -0.820526 0.571178 -0.021796
-37.7444 23.3612 -11.9066 -0.816364 0.577002 -0.0248753
-38.3315 22.5458 -11.6544 -0.808069 0.589054 -0.00628933
-38.3458 22.5373 -10.3408 -0.820865 0.57112 -0.00161524
-38.3244 22.5795 -9.12221 -0.833385 0.552641 -0.00752113
-38.3381 22.5664 -8.03142 -0.840182 0.542303 -0.000553636
-38.3688 22.5161 -6.77196 -0.843948 0.536419 0.00238981
-38.3609 22.5239 -5.51393 -0.847655 0.530545 0.0019762
-38.3369 22.5579 -4.28963 -0.850136 0.52656 0.000118912
-38.3271 22.57 -3.15829 -0.853182 0.521611 0.00162663
-38.327 22.564 -2.09012 -0.854023 0.520211 0.00481122
-38.3511 22.5109 -1.01332 -0.854667 0.51914 0.0061803
-38.3537 22.4926 0.174896 -0.853283 0.521394 0.00745262
-38.336 22.5061 1.3592 -0.851192 0.524819 0.00609369
-38.3461 22.4767 2.57819 -0.850846 0.525391 0.00503774
-38.3473 22.4629 3.73457 -0.849556 0.527457 0.00653094
-38.3287 22.4769 4.84761 -0.844767 0.535076 0.00786562
-38.3441 22.4334 5.94897 -0.841633 0.539956 0.0093529
-38.3255 22.447 7.00729 -0.83752 0.54637 0.00596259
-38.3033 22.4634 8.16929 -0.831812 0.554965 0.0101205
-38.3038 22.4433 9.23534 -0.827074 0.562065 0.00545229
-38.3053 22.4219 10.4777 -0.818898 0.573704 0.0157263
-38.3176 22.3831 11.5679 -0.814145 0.580559 0.0094611
-38.3157 22.3542 12.6941 -0.804012 0.594187 0.0223625
-38.318 22.3267 13.7919 -0.79147 0.611036 0.0122051
-38.2894 22.3274 14.899 -0.781894 0.623028 0.0218617
-38.3001 22.2553 16.0547 -0.769786 0.637169 0.0380015
-37.9006 22.6614 17.2103 -0.757068 0.652514 0.0327752
-37.2261 23.3938 17.6936 -0.738104 0.673158 0.0445577
-36.3642 24.3236 17.7798 -0.728905 0.681774 0.0619172
-35.6487 25.0459 18.2125 -0.73332 0.676733 0.0653612
-35.4204 25.2369 19.2309 -0.741055 0.670776 0.0160099
-35.1062 25.5353 20.3552 -0.732196 0.680996 0.0116051
-34.2607 26.4189 20.478 -0.717944 0.696052 0.0080423
-33.4023 27.2891 20.4307 -0.706117 0.70797 0.0122663
-32.6007 28.0826 20.4698 -0.703747 0.71026 0.0164479
-31.8085 28.8741 20.4314 -0.711307 0.702553 0.0215125
-30.7854 29.9187 20.3822 -0.714195 0.699849 0.0116781
-29.7919 30.9307 20.472 -0.713383 0.700373 0.0236464
-28.9634 31.7807 20.4439 -0.711654 0.701261 0.0422092
-28.0403 32.721 20.4369 -0.712549 0.699981 0.047954
-27.0559 33.7139 20.4758 -0.705933 0.706472 0.0505562
-26.0752 34.6943 20.44 -0.702675 0.70921 0.0571836
-25.0555 35.6931 20.4198 -0.692614 0.719596 0.0496782
-24.0934 36.5977 20.3993 -0.672537 0.738614 0.0462992
-23.2064 37.4011 20.3759 -0.667584 0.742801 0.0507774
-22.2956 38.2066 20.2246 -0.646789 0.761171 0.0477753
-21.4321 38.9248 20.3337 -0.633777 0.772455 0.0404918
-20.5173 39.6691 20.3435 -0.626497 0.77832 0.0414642
-19.4858 40.4817 20.352 -0.614996 0.787267 0.0443966
-18.5759 41.1891 20.2979 -0.613413 0.788391 0.0462103
-17.6666 41.9032 20.314 -0.618282 0.785212 0.0341925
-16.7751 42.6061 20.3119 -0.618351 0.785695 0.018074
-15.9572 43.274 20.4185 -0.645395 0.763762 0.0115729
-15.4593 43.6988 19.7155 -0.641037 0.767489 0.00565718
-15.4285 43.7273 18.6304 -0.63402 0.772697 0.0214337
-14.8372 44.3106 17.8694 -0.689496 0.72149 0.0636191
-14.0252 45.2156 17.8644 -0.745371 0.657229 -0.110794
-13.266 46.0393 17.8882 -0.721375 0.643379 -0.251377
-12.4837 46.6959 18.4604 -0.118491 0.983593 -0.119062
-12.4749 46.757 19.8068 -0.238735 0.971057 -0.00161447
-11.439 46.9766 20.3609 -0.207005 0.978281 -0.0107177
-10.091 47.1769 20.4253 -0.139916 0.988726 -0.0500245
-8.68202 47.3424 20.4067 -0.104719 0.992928 -0.0559287
-7.60127 47.4239 20.4544 -0.0509319 0.996945 -0.0592219
-6.47224 47.4613 20.4455 -0.0169615 0.999026 -0.0407339
-5.25696 47.4726 20.4415 -0.00242784 0.999002 -0.0446003
-4.13078 47.4743 20.423 -0.00128075 0.999571 -0.0292621
-2.95029 47.4736 20.4628 0.0058449 0.999594 -0.0278102
-1.86441 47.4617 20.4344 0.0141794 0.999511 -0.0278856
-0.568843 47.4387 20.4554 0.0226518 0.99962 -0.0157238
0.603074 47.4123 20.5103 0.0238702 0.999584 -0.0161579
2.00926 47.3789 20.462 0.0261065 0.999562 -0.0132417
3.08947 47.3454 20.437 0.0332009 0.999357 -0.0135278
4.33007 47.3001 20.3774 0.0369338 0.999277 -0.00899949
5.41242 47.2605 20.4268 0.0349826 0.999353 -0.0081948
6.74075 47.2157 20.4344 0.0342876 0.999382 -0.00770733
7.87814 47.1736 20.4306 0.0399447 0.999173 -0.00748424
9.15996 47.1218 20.4173 0.0397326 0.99919 -0.00644959
10.3417 47.0746 20.4401 0.0390599 0.999211 -0.00704601
11.4798 47.031 20.5253 0.0398542 0.999196 -0.00432269
12.1876 47.0012 19.9333 0.0379295 0.999263 -0.00589667
12.1513 46.9951 18.7295 0.0283268 0.999571 -0.00623784
11.4713 47.0037 18.1913 0.0401128 0.99842 -0.0393506
10.0708 47.0677 18.5557 0.0385419 0.999185 -0.0119801
8.57484 47.128 18.7364 0.0405246 0.999103 -0.0122693
7.4628 47.1744 18.8767 0.038179 0.999199 -0.0118717
6.39915 47.2115 18.7571 0.0344673 0.999292 -0.0150314
5.11066 47.2561 18.7758 0.0371659 0.999225 -0.012997
3.9537 47.295 18.708 0.0334958 0.999368 -0.0118627
2.80096 47.3281 18.7176 0.0267701 0.999467 -0.0186928
1.70729 47.3552 18.6502 0.0224345 0.999564 -0.0191997
0.518819 47.3835 18.7308 0.0194184 0.999541 -0.0223641
-0.556481 47.3987 18.7139 0.0180365 0.999438 -0.0280019
-1.64783 47.412 18.7504 0.00478885 0.999351 -0.0356401
-2.73859 47.4135 18.5763 -0.00167585 0.999168 -0.0393533
-3.79182 47.3893 18.2697 -0.0100295 0.998869 -0.0464784
-5.01237 47.3147 17.4882 -0.0288167 0.997752 -0.0604952
-5.79375 47.2339 16.6809 -0.0313961 0.995622 -0.0867169
-6.33992 47.1593 16.1498 -0.0411402 0.994068 -0.100639
24.9559 37.9742 -11.6908 0.620865 0.758593 -0.197644
23.8976 38.8369 -11.5887 0.591713 0.787769 -0.170851
22.9575 39.5716 -11.4004 0.578756 0.795428 -0.179548
21.8738 40.4255 -11.0492 0.570478 0.804965 -0.162485
20.9822 41.1429 -10.3646 0.542378 0.825276 -0.157307
19.9668 41.929 -9.41061 0.511065 0.850104 -0.12587
19.0984 42.5347 -8.55499 0.469055 0.874709 -0.120511
18.3951 42.9752 -7.75898 0.431545 0.897141 -0.0933418
17.7318 43.3744 -6.77934 0.405557 0.91104 -0.0731478
16.9096 43.7533 -6.46813 0.395638 0.915237 -0.0752004
15.8666 44.1576 -7.12278 0.395809 0.916366 -0.0599242
14.9844 44.4662 -7.69387 0.343501 0.938081 -0.0447779
14.0424 44.7792 -8.12379 0.309092 0.950723 -0.0242515
13.0017 45.1037 -8.49279 0.287264 0.957843 -0.00411708
11.9854 45.4009 -8.70877 0.270868 0.962488 0.015746
10.6443 45.753 -9.04326 0.228528 0.972992 0.0299153
9.44407 46.0075 -9.14944 0.201931 0.978734 0.0360265
9.63521 46.0224 -10.3694 0.198092 0.978786 0.0523172
9.72067 46.0834 -11.4655 0.197662 0.977126 0.0784541
9.53178 46.2393 -12.7341 0.215045 0.971201 0.101277
9.2384 46.4141 -13.8436 0.183503 0.978253 0.0957468
8.84755 46.6097 -14.9112 0.174685 0.977512 0.118133
8.49138 46.8069 -15.9857 0.142773 0.982686 0.112954
7.75674 47.0259 -17.1033 0.104182 0.986061 0.12973
7.08587 47.1654 -17.9706 0.0325534 0.995702 0.0867045
7.86306 47.1437 -18.3361 0.072454 0.996808 0.0335303
8.93815 47.0296 -18.2374 0.109778 0.988185 0.106952
10.0065 46.8653 -18.0599 0.154514 0.982026 0.108403
10.6677 46.5631 -16.9116 0.225447 0.956387 0.185737
11.5186 46.1496 -16.1794 0.340005 0.917677 0.205587
12.5953 45.6353 -15.9366 0.48996 0.862902 0.123824
13.5218 45.042 -15.7989 0.541499 0.837398 0.0527103
14.588 44.3974 -15.8949 0.53586 0.84405 0.0208114
15.3978 43.8169 -16.3403 0.562568 0.825093 -0.0523366
16.1411 43.2678 -16.9723 0.54281 0.836263 -0.0775954
16.7528 42.7643 -18.0224 0.556583 0.827677 -0.0715143
17.7044 42.0882 -18.3349 0.560601 0.824511 -0.0768672
18.6407 41.4369 -18.3845 0.573159 0.81557 -0.0795919
19.6524 40.7421 -18.3374 0.570115 0.815377 -0.100643
20.7312 39.9705 -18.2999 0.593358 0.79871 -0.0994444
21.6911 39.2463 -18.264 0.612811 0.784227 -0.0965537
22.5337 38.574 -18.2711 0.626421 0.770344 -0.118141
23.7335 37.5525 -18.3759 0.652766 0.750215 -0.105189
24.6705 36.7174 -18.4157 0.665198 0.738713 -0.108693
25.4809 35.9789 -18.428 0.670255 0.735359 -0.100026
26.2757 35.2413 -18.4186 0.683966 0.722309 -0.102275
27.2184 34.3428 -18.3663 0.69344 0.712861 -0.104733
28.1222 33.4694 -18.31 0.700178 0.703881 -0.119592
28.9004 32.6773 -18.3195 0.734197 0.669015 -0.115648
29.665 31.8707 -18.3639 0.713447 0.693683 -0.098181
30.5149 30.9987 -18.395 0.707346 0.696398 -0.121066
31.2838 30.1986 -18.3952 0.688453 0.718839 -0.0964417
32.0583 29.431 -18.3829 0.715211 0.689441 -0.114459
32.9044 28.5755 -18.4016 0.708311 0.698396 -0.10071
33.7164 27.7534 -18.4192 0.71533 0.690079 -0.10997
34.3207 27.2602 -17.6527 0.713934 0.688024 -0.130083
34.1953 27.531 -16.9512 0.715291 0.681874 -0.152725
33.2823 28.476 -16.9541 0.707274 0.687911 -0.16275
32.5446 29.2747 -16.7624 0.70593 0.687108 -0.171883
31.806 30.1957 -16.1246 0.707215 0.685024 -0.174896
31.3878 30.8744 -15.1817 0.702171 0.684229 -0.196945
31.0611 31.5186 -14.1096 0.702388 0.683949 -0.197144
30.9642 32.0782 -12.5881 0.703476 0.679695 -0.207693
31.1936 32.3084 -11.0415 0.704935 0.678726 -0.205909
31.5167 32.3227 -9.87853 0.712189 0.671424 -0.204785
32.0308 32.0678 -8.85802 0.721861 0.664795 -0.192226
32.8105 31.4773 -7.84718 0.736843 0.667235 -0.108906
33.5102 30.7914 -7.13157 0.758155 0.636589 -0.14115
34.177 30.0669 -6.6214 0.77951 0.612157 -0.132772
34.9344 29.1535 -6.13414 0.811777 0.573807 -0.106895
35.5989 28.2019 -5.96333 0.83294 0.546455 -0.0871654
36.1919 27.2862 -5.92229 0.843161 0.53031 -0.0884586
36.7718 26.3834 -5.83175 0.848898 0.523304 -0.0743327
37.3528 25.4221 -5.87537 0.858959 0.507957 -0.0645718
37.5355 25.2464 -4.53307 0.871045 0.48789 -0.056957
37.6246 25.2204 -3.43711 0.878875 0.475153 -0.0425345
37.6726 25.2478 -2.3261 0.872663 0.48574 -0.0501408
37.6886 25.3189 -1.19177 0.871231 0.489876 -0.0312751
37.5388 25.6912 0.202152 0.870094 0.491493 -0.0366585
37.09 26.418 -0.635172 0.867774 0.495737 -0.0348288
36.614 27.162 -1.53224 0.855554 0.515546 -0.0448204
36.1523 27.8174 -2.38683 0.848082 0.526408 -0.0604059
35.6275 28.5655 -3.26221 0.84644 0.529446 -0.0565177
35.0492 29.304 -4.04097 0.819009 0.567054 -0.0870217
34.3023 30.2024 -4.79557 0.787253 0.610943 -0.0833876
33.6778 30.8919 -5.49757 0.768492 0.633196 -0.0921065
33.0389 31.5366 -6.25035 0.759978 0.640311 -0.111514
32.2595 32.2933 -6.92834 0.732882 0.667912 -0.12945
31.5064 32.8989 -7.87569 0.704976 0.686238 -0.179127
30.5855 33.5603 -8.94939 0.696181 0.69512 -0.17895
29.9092 33.9901 -9.78656 0.691142 0.695274 -0.197239
29.0252 34.6686 -10.4102 0.672558 0.713549 -0.196231
28.2471 35.2147 -11.0603 0.670631 0.712537 -0.206266
27.4424 35.8517 -11.4322 0.661597 0.720707 -0.207052
26.611 36.5581 -11.6095 0.654178 0.727021 -0.208546
25.6434 37.4098 -11.6643 0.643316 0.737572 -0.20505
25.2165 37.7638 -11.6798 0.620863 0.758595 -0.197644
25.2706 37.9924 -10.6304 0.614012 0.76632 -0.18858
26.1195 37.264 -10.6461 0.648265 0.734793 -0.199562
26.989 36.5332 -10.5103 0.657942 0.723786 -0.2079
27.9242 35.7758 -10.1182 0.667791 0.718686 -0.193768
28.8006 35.1273 -9.48968 0.672555 0.717189 -0.182506
29.5984 34.5294 -8.8928 0.677325 0.713985 -0.177359
30.42 33.9809 -7.91032 0.684543 0.711082 -0.160509
31.2112 33.4197 -6.95808 0.705643 0.690734 -0.157967
31.8989 32.8503 -6.11667 0.731874 0.667924 -0.13505
32.7674 32.0427 -5.246 0.748267 0.654088 -0.110746
33.4047 31.3956 -4.52203 0.7795 0.616817 -0.109158
33.9969 30.7408 -3.86922 0.794298 0.59966 -0.0974662
34.59 30.0244 -3.31583 0.802099 0.591914 -0.0792081
35.1741 29.2969 -2.62411 0.819085 0.569439 -0.0695559
35.713 28.579 -1.80679 0.843195 0.534139 -0.0609692
36.1854 27.9196 -0.937132 0.85009 0.52314 -0.0606003
36.6022 27.3074 -0.135246 0.864354 0.499941 -0.0543143
37.0656 26.5881 0.789748 0.871464 0.488376 -0.0451657
37.4045 26.0515 1.70683 0.877299 0.478953 -0.0308247
37.8171 25.3478 2.56397 0.877225 0.479242 -0.0283355
38.2764 24.5324 3.28453 0.884106 0.466677 -0.0233191
38.3329 24.3623 2.27092 0.883736 0.466854 -0.0325293
38.2339 24.4657 1.08221 0.882865 0.468222 -0.0359516
38.144 24.5412 -0.224684 0.876478 0.480983 -0.00853545
38.1658 24.4234 -1.42597 0.886705 0.460739 -0.0383891
38.1231 24.3773 -2.66924 0.880168 0.472307 -0.0472309
38.0582 24.3714 -3.88742 0.878061 0.476154 -0.0477661
37.993 24.3742 -5.12436 0.872644 0.486468 -0.0428535
37.906 24.4159 -6.29723 0.86786 0.494633 -0.0460767
37.7927 24.5002 -7.49104 0.856579 0.513536 -0.0494578
37.2884 25.3835 -7.01181 0.852856 0.518104 -0.0648544
36.4395 26.7461 -6.88539 0.834527 0.54571 -0.0759279
35.6378 27.9527 -7.01734 0.826378 0.553837 -0.101807
34.7743 29.1502 -7.27671 0.804422 0.582322 -0.117293
34.0997 29.9392 -7.76394 0.773739 0.620824 -0.126116
33.2147 30.8377 -8.56255 0.749999 0.642897 -0.153963
32.4893 31.3761 -9.52578 0.730411 0.657396 -0.185282
32.053 31.5434 -10.561 0.716382 0.668129 -0.201
31.7865 31.4821 -11.716 0.713662 0.670273 -0.20352
31.6839 31.2473 -12.8645 0.708978 0.676547 -0.199061
31.8552 30.7481 -13.9413 0.706467 0.678957 -0.199803
32.2064 30.1074 -14.9014 0.706151 0.681269 -0.192934
32.6664 29.4081 -15.7257 0.709868 0.681959 -0.175973
33.4726 28.5162 -15.9465 0.713148 0.679899 -0.170753
34.2718 27.6918 -15.8473 0.720427 0.674265 -0.162335
35.0495 26.9019 -15.5785 0.736715 0.660612 -0.14437
35.7654 26.1773 -15.1147 0.757594 0.640928 -0.123543
36.5922 25.3099 -14.4268 0.773148 0.626884 -0.0962207
37.1865 24.6791 -13.7213 0.787696 0.609124 -0.0921964
37.4061 24.3247 -14.2168 0.784008 0.614369 -0.088529
37.3038 24.2907 -15.3931 0.767422 0.636326 -0.0784384
36.9262 24.615 -16.3978 0.754649 0.648924 -0.0969645
36.2108 25.3586 -16.7868 0.74472 0.658488 -0.107707
35.4892 26.079 -17.2748 0.734356 0.667748 -0.121649
34.8989 26.594 -18.0273 0.719548 0.685393 -0.111744
34.5757 26.8077 -19.0711 0.717942 0.693454 -0.0606162
33.7444 27.6253 -19.458 0.70978 0.703004 -0.0446832
32.9671 28.4119 -19.4656 0.704503 0.708292 -0.0444555
32.1843 29.1961 -19.4289 0.702686 0.710498 -0.0377419
31.2948 30.0788 -19.4647 0.705096 0.708139 -0.0370846
30.446 30.9353 -19.4414 0.704922 0.707421 -0.0504556
29.6618 31.7293 -19.3912 0.71635 0.695078 -0.0588062
28.8519 32.5915 -19.3904 0.717233 0.692961 -0.0714902
27.9386 33.5087 -19.4009 0.702934 0.70652 -0.0816642
26.9306 34.4841 -19.4303 0.689662 0.71969 -0.0800846
26.0003 35.3632 -19.4371 0.677849 0.732002 -0.0685183
25.1717 36.1251 -19.4486 0.673575 0.732879 -0.0958403
24.3038 36.9114 -19.4437 0.667481 0.740586 -0.0774715
23.3744 37.7208 -19.4322 0.64859 0.757123 -0.078075
22.5527 38.4158 -19.3431 0.630754 0.771037 -0.0860896
21.7087 39.1006 -19.3098 0.607574 0.789315 -0.0875803
20.6145 39.9336 -19.3762 0.594343 0.80051 -0.0768855
19.5967 40.6701 -19.3858 0.576665 0.813138 -0.0791449
18.3883 41.512 -19.4389 0.573001 0.816812 -0.066255
17.2525 42.3098 -19.3431 0.568216 0.821301 -0.0508504
16.2266 43.0171 -19.3024 0.565387 0.82325 -0.0509544
15.8275 43.3594 -18.257 0.539138 0.839327 -0.0697123
15.305 43.7878 -17.4288 0.563949 0.821545 -0.0835493
14.4816 44.4337 -16.9122 0.591016 0.804982 -0.052006
13.5975 45.1076 -16.8841 0.578787 0.805774 0.125437
12.7347 45.7472 -16.9991 0.510981 0.839531 0.184625
11.7043 46.3389 -17.2956 0.331758 0.917628 0.218852
11.0975 46.7024 -18.3687 0.210095 0.970135 0.121239
10.3735 46.902 -19.3521 0.138813 0.989937 0.0274799
9.21657 47.057 -19.2844 0.125792 0.990452 0.0563723
7.63874 47.2099 -19.4323 0.0701777 0.994957 0.0686925
6.44951 47.27 -19.3694 0.0432377 0.997644 0.0511147
5.04562 47.303 -19.4548 0.000398574 0.998702 0.0509369
3.77014 47.2928 -19.4488 -0.0182731 0.999199 0.0354441
4.51925 47.2535 -18.4719 0.00256732 0.998773 0.0494483
5.74716 47.2055 -17.7704 0.0183207 0.998786 0.0457331
6.75952 47.0736 -16.6915 0.0683214 0.992693 0.0972221
7.47587 46.8766 -15.5784 0.11177 0.987833 0.108063
7.99504 46.6704 -14.1857 0.122035 0.986418 0.10994
8.41353 46.4716 -12.9876 0.163604 0.980838 0.105788
8.65301 46.3233 -11.8477 0.155005 0.984363 0.0836794
8.6018 46.2153 -10.2578 0.17038 0.982933 0.0693787
8.14985 46.2401 -9.10504 0.153475 0.987312 0.034924
7.76023 46.2423 -7.75163 0.129865 0.991141 0.0256961
8.89774 46.0734 -7.96055 0.16905 0.985231 0.0272459
10.0617 45.8553 -8.00831 0.201834 0.979291 0.0158992
11.2907 45.5727 -7.82411 0.229695 0.973174 0.00161395
12.3769 45.2934 -7.59087 0.259451 0.96571 -0.00824699
13.63 44.9392 -7.20656 0.294914 0.955102 -0.023461
14.8472 44.5672 -6.63307 0.30409 0.952202 -0.0288061
15.9334 44.204 -5.90199 0.366787 0.927949 -0.0644066
16.8088 43.9097 -5.1522 0.372455 0.923875 -0.0879318
17.5408 43.6657 -4.37301 0.378091 0.923632 -0.0622807
18.0237 43.4134 -4.87674 0.403355 0.91122 -0.0835589
18.4355 43.1301 -5.93035 0.421207 0.902628 -0.0885817
18.9979 42.774 -6.87691 0.426252 0.900259 -0.0884
19.9252 42.1706 -7.96954 0.456392 0.882568 -0.112611
20.8589 41.4842 -8.80079 0.518303 0.841996 -0.149682
21.7282 40.7646 -9.77747 0.538236 0.829602 -0.14813
22.8247 39.9195 -10.2596 0.5597 0.812816 -0.161343
23.8464 39.102 -10.5465 0.588865 0.789462 -0.173168
24.698 38.4297 -10.6813 0.600226 0.779025 -0.18104
25.0192 38.18 -10.6716 0.607086 0.773986 -0.179979
-37.0936 24.5864 -3.33317 -0.852118 0.523344 -0.00163948
-37.1596 24.4744 -3.82622 -0.852388 0.522885 -0.00517445
-37.1366 24.5119 -3.83181 -0.851338 0.524559 -0.00791962
-37.1073 24.5629 -3.51276 -0.852428 0.522827 -0.00425558
-19.0775 42.8523 -15.768 -0.550308 0.83382 0.019712
-19.6867 42.4248 -16.4581 -0.582232 0.812981 0.0079727
-20.3152 41.9444 -17.3068 -0.620556 0.783807 -0.0200686
-20.959 41.3918 -18.0555 -0.646219 0.762509 -0.031323
-20.5702 41.7159 -18.3887 -0.644949 0.764152 0.0104745
-19.7529 42.3677 -18.4544 -0.620563 0.784109 0.00865367
-18.9326 42.9804 -18.379 -0.56664 0.823629 0.023546
-17.6442 43.8394 -18.0577 -0.537065 0.84313 0.0225158
-17.1883 44.0671 -17.158 -0.522671 0.849803 0.0681863
-17.8341 43.6004 -15.8781 -0.500704 0.864312 0.0449909
-18.6099 43.1233 -15.3058 -0.520298 0.853618 0.0250312
-19.0094 42.8912 -15.6964 -0.519529 0.854013 0.0273077
-19.5667 42.4949 -14.956 -0.579209 0.815122 0.00964377
-19.0471 42.8278 -14.0437 -0.533057 0.84603 0.00912662
-18.5125 43.1281 -13.1601 -0.482426 0.874879 0.0430314
-18.1597 43.3228 -13.1646 -0.478889 0.876995 0.0388653
-17.7543 43.579 -14.2081 -0.485151 0.873911 0.0282964
-17.1861 43.9347 -15.1986 -0.440424 0.895553 0.0625223
-16.5317 44.3442 -16.1302 -0.443514 0.892527 0.0817971
-15.9381 44.7415 -16.9576 -0.438379 0.887701 0.13992
-16.6599 44.4475 -17.9253 -0.519462 0.853214 0.043647
-16.9267 44.3175 -18.9326 -0.52799 0.848802 0.0275756
-17.8918 43.7111 -19.384 -0.549198 0.834816 0.0382579
-18.9912 42.9457 -19.3978 -0.590079 0.807214 0.0145443
-19.9038 42.2647 -19.4963 -0.610425 0.792038 0.00760007
-20.7176 41.6049 -19.475 -0.645582 0.763682 0.0036435
-21.5816 40.836 -19.47 -0.674044 0.73853 -0.0154035
-22.5696 39.8745 -19.3767 -0.708086 0.705603 -0.0271812
-23.3225 39.1184 -19.0975 -0.718777 0.69405 -0.0406654
-23.9205 38.4916 -19.0536 -0.733213 0.678656 -0.042719
-23.1295 39.3477 -18.6031 -0.719053 0.693717 -0.0414634
-22.2511 40.2437 -17.9726 -0.685918 0.727153 -0.0253778
-21.5622 40.8964 -17.2716 -0.672754 0.739602 -0.0197608
-20.8815 41.5114 -16.5017 -0.637761 0.76987 -0.0236881
-20.29 41.985 -15.7888 -0.592946 0.805109 0.010279
-19.6683 42.4243 -15.0897 -0.57921 0.815122 0.00964093
19.1904 44.3491 16.0931 0.546952 0.83555 -0.0324473
19.7729 43.9319 16.8506 0.605072 0.796163 0.00345282
20.5341 43.3019 17.7464 0.656364 0.754339 0.0125754
20.5251 43.3048 18.1133 0.654677 0.755866 0.00796382
19.5933 44.0917 18.3926 0.640853 0.767655 0.00348197
18.5969 44.8095 18.3435 0.59586 0.801622 0.0350517
17.8875 45.3248 17.8359 0.535686 0.840755 -0.0785647
17.2982 45.5418 16.711 0.510961 0.85064 -0.123818
17.6565 45.2047 15.7554 0.457852 0.879474 -0.129989
18.3219 44.7804 14.9562 0.450225 0.888413 -0.0895497
18.8559 44.529 15.5755 0.509243 0.859222 -0.0470031
19.5097 44.0628 14.9259 0.584054 0.810291 -0.0480577
18.8823 44.3638 13.8713 0.52481 0.847145 -0.0831877
18.029 44.6888 12.4807 0.419001 0.904018 -0.084637
17.6282 45.0215 13.913 0.422647 0.901145 -0.0964788
16.9632 45.4489 15.1284 0.412795 0.901289 -0.128828
16.3993 45.8179 16.056 0.317135 0.935302 -0.156958
15.6462 46.1694 16.8844 0.258331 0.95112 -0.166325
16.693 45.9525 17.443 0.350549 0.917764 -0.184673
17.1964 45.7394 18.4334 0.487333 0.873214 -0.00203491
17.8463 45.3269 19.1982 0.508561 0.859993 0.0414413
18.9921 44.5303 19.4393 0.572784 0.819305 -0.0256466
19.8291 43.8915 19.3564 0.657633 0.752756 -0.0230136
20.9951 42.8776 19.362 0.678326 0.734679 0.00221212
21.9035 42.0086 19.3713 0.711118 0.702837 0.0160927
22.8068 41.0713 19.4147 0.729615 0.683441 0.0236464
23.5981 40.2214 19.4068 0.734026 0.678616 0.0257808
24.4126 39.3033 19.4657 0.747717 0.663034 0.0361351
24.5713 39.1381 19.2108 0.74786 0.662873 0.0361395
23.8989 39.9212 18.9427 0.74227 0.667352 0.0583246
23.1243 40.766 18.7755 0.729737 0.681836 0.0508406
22.387 41.5583 18.2925 0.715156 0.697978 0.0370953
21.6934 42.2663 17.6643 0.697555 0.716143 0.0235791
21.0936 42.8366 17.0117 0.671602 0.740241 0.0315293
20.4611 43.3906 16.2216 0.637051 0.770819 0.00198132
19.7703 43.897 15.2986 0.584054 0.810291 -0.0480577
-34.4269 27.0567 -17.974 -0.735271 0.675328 -0.0575231
-35.1522 26.2636 -17.892 -0.746172 0.664042 -0.0476959
-34.9233 26.4486 -18.9684 -0.736394 0.675698 -0.0325792
-34.2962 27.1081 -19.4704 -0.730741 0.682079 -0.0280334
-33.294 28.1635 -19.4187 -0.720184 0.693399 -0.0231035
-32.4926 29.0027 -19.432 -0.722418 0.690692 -0.0323245
-31.7526 29.7707 -19.4631 -0.720236 0.69184 -0.0511707
-30.9843 30.5907 -19.3918 -0.734681 0.676617 -0.0491445
-30.3109 31.408 -19.0745 -0.776121 0.626097 -0.06489
-29.348 32.497 -19.195 -0.745303 0.663748 -0.0624214
-28.927 32.9486 -19.3394 -0.739903 0.669821 -0.0623173
-29.8243 31.9563 -19.1635 -0.750703 0.657674 -0.0625255
-30.4808 31.2479 -18.7515 -0.756723 0.644806 -0.107481
-31.2098 30.4441 -18.5299 -0.727726 0.677418 -0.107321
-32.0297 29.6221 -18.1416 -0.718141 0.688925 -0.0956061
-32.8084 28.7933 -18.0197 -0.721945 0.687458 -0.0787235
-33.5339 28.0153 -18.0913 -0.733491 0.674696 -0.082325
-34.2608 27.2346 -18.0072 -0.734398 0.676183 -0.0586006
-34.3266 27.164 -17.9961 -0.735268 0.675331 -0.0575212
38.3304 24.714 16.567 0.772841 0.634573 0.00582943
37.51 25.6644 16.7686 0.745248 0.66589 0.0336729
38.1845 24.8976 16.0554 0.776067 0.630507 0.00655728
38.3318 24.7159 16.1663 0.778651 0.627045 -0.0114205
38.9977 23.9062 16.7898 0.779396 0.625029 -0.0327398
39.1914 23.562 15.4325 0.812713 0.581485 -0.0370306
39.2227 23.4721 14.1289 0.825629 0.563341 -0.0285711
39.2101 23.4228 12.9096 0.844982 0.533205 -0.0409123
39.1554 23.4626 11.6929 0.864712 0.501199 -0.0327441
39.0938 23.4982 10.51 0.870566 0.491125 -0.030071
38.8914 23.8311 10.0649 0.87146 0.489217 -0.0349534
38.8845 23.9076 11.2857 0.864278 0.502426 -0.0243342
38.7189 24.2102 12.5812 0.850185 0.526433 0.000244327
38.431 24.6179 13.6833 0.820079 0.571641 0.0189965
37.9679 25.2119 14.7275 0.785742 0.617276 0.0397417
37.3928 25.8704 15.5758 0.755189 0.651819 0.0694357
36.6322 26.6802 16.1787 0.724115 0.684291 0.084248
35.7954 27.5146 16.6718 0.709124 0.695668 0.114821
34.9815 28.2442 17.214 0.700867 0.699844 0.137857
34.0058 29.1 17.7867 0.700708 0.695015 0.161079
34.4104 28.6849 17.8382 0.693947 0.703525 0.153153
35.4049 27.7079 17.8352 0.693679 0.708327 0.130702
36.2754 26.8518 17.8587 0.711481 0.69771 0.0836315
37.161 25.9496 17.8656 0.706337 0.704745 0.0664994
38.0557 25.0312 17.9008 0.728967 0.683928 -0.00679233
38.872 24.0682 17.2079 0.770775 0.636621 -0.0248948
38.9687 23.9429 16.9088 0.769595 0.638459 -0.00968917
31.5085 31.5983 19.1941 0.731262 0.679991 0.0525201
31.6929 31.3915 19.4604 0.723348 0.690011 0.0255272
32.4348 30.6146 19.1781 0.736359 0.674924 0.0473451
31.733 31.3658 19.1685 0.719582 0.692278 0.0543456
31.5784 31.5258 19.1784 0.722497 0.689033 0.0566397
34.3034 29.4889 -8.7223 0.779056 0.61384 -0.127561
35.1556 28.4321 -8.15911 0.807549 0.580269 -0.105357
35.8818 27.4149 -8.02229 0.816675 0.570097 -0.0896173
36.5684 26.4164 -7.91457 0.837427 0.543252 -0.0599482
37.2439 25.3175 -8.18467 0.846883 0.527208 -0.0695841
37.6365 24.5914 -9.00895 0.844727 0.532472 -0.0539379
37.8686 24.1146 -10.1378 0.843773 0.53425 -0.0512304
37.6819 24.305 -11.1859 0.822045 0.566162 -0.0608504
37.3423 24.6955 -12.1179 0.802576 0.59354 -0.0598578
36.7063 25.3884 -13.1186 0.795298 0.598361 -0.0970934
36.1276 25.9988 -13.8068 0.781179 0.613558 -0.115353
35.1312 27.0543 -14.4581 0.756405 0.638603 -0.141555
34.1893 28.0313 -14.8034 0.728694 0.667288 -0.153413
33.323 28.9289 -14.928 0.720481 0.668696 -0.183718
32.7957 29.716 -14.103 0.710323 0.677986 -0.189144
32.4624 30.3595 -13.095 0.715302 0.671742 -0.192631
32.4377 30.7254 -11.9286 0.716455 0.669748 -0.19527
32.7922 30.7455 -10.5835 0.716218 0.668809 -0.199313
33.413 30.342 -9.54113 0.738318 0.649738 -0.180615
34.1827 29.6192 -8.83244 0.776096 0.614048 -0.142757
34.2379 29.56 -8.77948 0.779056 0.61384 -0.12756
-36.8453 24.9686 -0.0948099 -0.850968 0.524875 0.0189593
-36.9069 24.8615 0.104925 -0.850353 0.526012 0.0145122
-36.6113 25.3185 0.969124 -0.846894 0.531468 0.0176938
-37.0042 24.6525 2.22107 -0.846596 0.531975 0.0166774
-36.3343 25.7293 1.89238 -0.843474 0.536874 0.0178014
-36.6772 25.1386 2.99617 -0.844304 0.535247 0.0257205
-36.9727 24.6399 3.93517 -0.842259 0.538765 0.0182097
-36.8357 24.7853 5.31582 -0.836389 0.547219 0.0316935
-36.4423 25.4619 4.07602 -0.836768 0.547171 0.0205481
-36.0443 26.1286 2.83504 -0.83816 0.544606 0.0298674
-35.8783 26.4151 2.30077 -0.8385 0.544229 0.0270739
-35.4759 26.9782 2.93411 -0.82696 0.560772 0.0408758
-35.8719 26.3235 4.15755 -0.822624 0.566978 0.0427177
-36.2864 25.6047 5.44756 -0.831203 0.55457 0.0394291
-36.6409 25.0055 6.52667 -0.830264 0.556325 0.0341217
-36.9241 24.5438 7.36704 -0.823841 0.56598 0.0308493
-36.8163 24.605 8.85986 -0.813987 0.579727 0.036629
-36.4608 25.1798 7.81666 -0.816858 0.575286 0.0423015
-36.1043 25.7746 6.73705 -0.825183 0.563307 0.0419321
-35.7463 26.3686 5.67254 -0.8154 0.576359 0.0541677
-35.4057 26.9651 4.61815 -0.822624 0.566978 0.0427207
-35.0721 27.5144 3.60865 -0.820939 0.569237 0.0450336
-34.7558 27.8853 4.56009 -0.811018 0.581846 0.0608736
-35.2516 27.0308 6.07498 -0.814495 0.576749 0.0629155
-35.6201 26.4124 7.16766 -0.806565 0.588475 0.0561266
-36.0057 25.7806 8.30484 -0.811134 0.582162 0.0561134
-36.4312 25.0652 9.56162 -0.799365 0.598284 0.0554221
-36.7929 24.4831 10.5763 -0.800234 0.597451 0.0517498
-36.7461 24.3974 12.2303 -0.770787 0.635574 0.0439657
-36.3499 25.0008 11.1436 -0.781809 0.619895 0.0671207
-35.9416 25.6638 9.9844 -0.785675 0.613952 0.0760096
-35.5385 26.3369 8.8171 -0.79162 0.606333 0.0754853
-35.138 27.0299 7.62732 -0.800438 0.595526 0.0681714
-34.7286 27.7217 6.41367 -0.810281 0.58269 0.0625806
-34.399 28.2782 5.43549 -0.799638 0.596354 0.0702883
-33.8672 28.9443 5.81448 -0.779598 0.620767 0.0829218
-34.2245 28.3418 6.8595 -0.788379 0.610332 0.077156
-34.6355 27.6173 8.0873 -0.795812 0.596406 0.104801
-35.0248 26.9477 9.22414 -0.782437 0.616026 0.0911245
-35.4794 26.1867 10.5305 -0.781712 0.617665 0.086115
-35.881 25.5272 11.674 -0.771886 0.630497 0.081645
-36.2656 24.9418 12.718 -0.765853 0.639069 0.0711305
-36.65 24.3763 13.7155 -0.762995 0.64342 0.0620438
-36.4069 24.5585 14.813 -0.750612 0.656242 0.076991
-35.872 25.3368 13.4214 -0.765836 0.639263 0.0695594
-35.4198 26.0221 12.2331 -0.772127 0.630569 0.0787597
-35.0335 26.6458 11.1597 -0.774379 0.625244 0.0969923
-34.6502 27.302 10.0587 -0.779192 0.619385 0.0960312
-34.21 28.0448 8.80692 -0.778508 0.61911 0.103095
-33.7961 28.7828 7.58079 -0.777382 0.620915 0.100704
-33.4633 29.3426 6.6374 -0.773125 0.627034 0.0954288
-32.9144 29.9275 7.09532 -0.765049 0.63467 0.10906
-33.3904 29.1326 8.4232 -0.76293 0.637653 0.106473
-33.8619 28.3197 9.76542 -0.766403 0.631574 0.117221
-34.2814 27.5983 10.9523 -0.764506 0.634776 0.112202
-34.6375 26.9916 11.9617 -0.764204 0.637969 0.0948014
-35.0687 26.3078 13.1313 -0.758493 0.644872 0.0939597
-35.4595 25.7185 14.1413 -0.749372 0.657486 0.0784436
-35.8519 25.1593 15.1023 -0.749468 0.657582 0.0767106
-35.3326 25.676 15.5792 -0.736871 0.670906 0.0831013
-34.8288 26.3995 14.3295 -0.737078 0.668205 0.101087
-34.427 27.0156 13.283 -0.746336 0.656235 0.111077
-34.033 27.6671 12.1918 -0.746266 0.65387 0.124667
-33.5929 28.4172 10.981 -0.748668 0.652227 0.118727
-33.1704 29.1396 9.79982 -0.760817 0.637772 0.120017
-32.6936 29.9556 8.4698 -0.758178 0.642101 0.113456
-32.3581 30.5163 7.5417 -0.752786 0.648212 0.11461
-31.792 31.0869 7.99987 -0.746199 0.652999 0.129534
-32.1543 30.4855 8.97938 -0.743365 0.657518 0.122797
-32.6095 29.7084 10.2242 -0.750261 0.64664 0.137713
-32.9667 29.0866 11.2384 -0.740019 0.65649 0.146264
-33.4153 28.3281 12.4439 -0.738754 0.66104 0.131412
-33.9057 27.5163 13.781 -0.734029 0.66734 0.125932
-34.3537 26.8334 14.9261 -0.73708 0.668202 0.101088
-34.805 26.1806 16.0595 -0.720071 0.687794 0.0918518
-34.3198 26.6083 16.6608 -0.721003 0.687976 0.0827228
-33.8376 27.3001 15.4721 -0.725608 0.679226 0.110208
-33.4403 27.9053 14.4628 -0.732559 0.670496 0.11744
-33.0323 28.5666 13.3686 -0.735102 0.664517 0.134323
-32.5826 29.319 12.1617 -0.737 0.660105 0.145234
-32.2291 29.9379 11.1721 -0.741275 0.653983 0.151055
-31.8715 30.5579 10.1978 -0.728837 0.666171 0.158154
-31.4784 31.2114 9.1635 -0.723872 0.674349 0.145819
-31.1222 31.8037 8.19712 -0.739279 0.660605 0.13064
-30.6111 32.2221 8.85521 -0.724221 0.671892 0.155128
-31.031 31.5148 9.9817 -0.723963 0.674247 0.145836
-31.4094 30.8892 10.9627 -0.722721 0.673499 0.155158
-31.7921 30.2295 11.991 -0.73072 0.663596 0.160277
-32.1472 29.6211 12.9692 -0.731636 0.665088 0.149555
-32.5891 28.8906 14.1392 -0.72865 0.6708 0.138189
-33.0274 28.1872 15.3151 -0.723772 0.679138 0.122169
-33.5032 27.4873 16.5061 -0.71896 0.686685 0.107515
-33.9228 26.9061 17.5067 -0.70129 0.708754 0.0765474
-33.9493 26.8743 17.5635 -0.703215 0.707797 0.0671739
-33.3057 27.5102 17.833 -0.713592 0.696948 0.0710609
-32.8194 28.1775 16.6752 -0.721454 0.683359 0.111914
-32.3938 28.8173 15.572 -0.720428 0.683814 0.115681
-32.0114 29.4296 14.5408 -0.720672 0.679243 0.138782
-31.5044 30.2651 13.2066 -0.726998 0.669402 0.152889
-31.0884 30.9681 12.1043 -0.721831 0.673767 0.158109
-30.6356 31.7316 10.9345 -0.728465 0.665265 0.163587
-30.156 32.512 9.69453 -0.715605 0.680319 0.158351
-29.9431 32.8714 9.12366 -0.714609 0.680497 0.16204
-29.2734 33.511 9.38393 -0.710508 0.685714 0.158036
-29.7355 32.7563 10.5681 -0.715386 0.681919 0.152343
-30.1445 32.0808 11.6491 -0.712128 0.683171 0.161715
-30.5323 31.4353 12.6339 -0.717948 0.676985 0.161991
-30.9721 30.6975 13.7814 -0.718421 0.678714 0.152377
-31.4408 29.9449 14.9772 -0.718475 0.681715 0.13805
-31.8458 29.3101 16.0505 -0.717977 0.686459 0.115249
-32.2569 28.6958 17.1368 -0.721456 0.683358 0.11191
-32.4563 28.423 17.6073 -0.724033 0.684834 0.0823337
-31.7799 29.0802 17.8146 -0.705731 0.700669 0.104908
-31.4 29.6489 16.8207 -0.719581 0.685153 0.113001
-30.9286 30.3616 15.5972 -0.717414 0.683868 0.132819
-30.472 31.0824 14.4335 -0.713156 0.684986 0.149007
-30.0335 31.7939 13.3278 -0.713687 0.682025 0.159663
-29.6285 32.4653 12.2892 -0.709634 0.685283 0.16373
-29.2572 33.0871 11.2962 -0.709422 0.685516 0.163672
-28.7491 33.9062 10.0197 -0.709549 0.686684 0.158131
-27.9966 34.652 10.1143 -0.702541 0.692211 0.165166
-28.4816 33.8929 11.2808 -0.704343 0.692042 0.158047
-28.907 33.194 12.3664 -0.709632 0.685285 0.16373
-29.2962 32.5463 13.3897 -0.707979 0.687612 0.16111
-29.7414 31.822 14.5304 -0.712199 0.685695 0.150314
-30.1355 31.2086 15.511 -0.711053 0.689906 0.13577
-30.5686 30.5554 16.6043 -0.716949 0.686312 0.122312
-30.9853 29.9413 17.7001 -0.723403 0.681401 0.111272
-31.0426 29.8553 17.8438 -0.718399 0.686426 0.112788
-30.21 30.7673 17.613 -0.714376 0.691956 0.104231
-29.6576 31.5662 16.2132 -0.713328 0.689763 0.124055
-29.1623 32.328 14.9616 -0.710038 0.687495 0.152308
-28.7521 32.9837 13.9242 -0.707726 0.688844 0.156901
-28.3265 33.6728 12.8445 -0.702776 0.692274 0.163896
-27.8334 34.4629 11.6299 -0.693499 0.701957 0.162221
-27.4152 35.0867 10.657 -0.683429 0.713418 0.154788
-27.2145 35.3845 10.1945 -0.675325 0.718091 0.168168
-26.5026 35.989 10.4647 -0.673702 0.722792 0.153937
-26.9713 35.3296 11.4972 -0.678818 0.71773 0.155146
-27.4465 34.6124 12.6093 -0.690645 0.703601 0.167196
-27.975 33.78 13.9053 -0.70371 0.691651 0.162514
-28.3968 33.1202 14.9394 -0.706949 0.691189 0.149933
-28.7962 32.5064 15.9376 -0.708988 0.693216 0.129567
-29.3246 31.7416 17.2436 -0.717949 0.687622 0.108281
-29.5293 31.4592 17.7454 -0.716354 0.691594 0.0923809
-28.7897 32.2221 17.7568 -0.711783 0.695847 0.0957159
-28.3646 32.8009 16.7488 -0.709336 0.695276 0.115905
-27.8651 33.5427 15.5151 -0.710684 0.689731 0.138563
-27.4145 34.2314 14.4312 -0.700101 0.698565 0.14787
-26.9829 34.8875 13.3912 -0.692729 0.70334 0.159496
-26.5119 35.589 12.306 -0.680427 0.715683 0.157536
-25.9658 36.3461 11.1113 -0.663911 0.732247 0.151779
-25.7863 36.5929 10.7253 -0.665769 0.729483 0.156864
-24.7864 37.5436 10.4041 -0.645043 0.750017 0.146266
-25.3334 36.8271 11.5588 -0.658174 0.736629 0.155516
-25.7861 36.2246 12.5286 -0.66906 0.727068 0.154046
-26.2664 35.5371 13.5976 -0.684244 0.711703 0.159026
-26.7576 34.8187 14.7259 -0.69552 0.703116 0.147916
-27.1719 34.2078 15.7149 -0.701524 0.698842 0.139583
-27.7509 33.3721 17.099 -0.712301 0.692028 0.117151
-28.0264 32.9995 17.7522 -0.709519 0.69851 0.0930919
-27.2098 33.8461 17.623 -0.706839 0.701545 0.0906242
-26.7605 34.4643 16.5794 -0.704773 0.699789 0.116578
-26.2862 35.1336 15.4738 -0.693278 0.707181 0.138781
-25.8081 35.8065 14.3969 -0.677774 0.719793 0.150068
-25.3731 36.4108 13.4392 -0.666721 0.729273 0.153764
-24.9178 37.0197 12.4568 -0.656481 0.740404 0.144342
-24.4059 37.6773 11.3815 -0.640714 0.75361 0.146827
-23.8747 38.3132 10.3384 -0.621098 0.770204 0.144993
-22.82 39.2097 10.023 -0.608728 0.784038 0.121387
-23.3211 38.637 10.9943 -0.618022 0.774373 0.135632
-23.8427 38.0317 11.9957 -0.634272 0.759867 0.142484
-24.5211 37.1859 13.3912 -0.651667 0.744173 0.146754
-25.0265 36.5191 14.474 -0.659678 0.738527 0.139295
-25.4856 35.8985 15.4834 -0.674265 0.725976 0.135375
-26.0141 35.1906 16.6615 -0.696399 0.708776 0.112541
-26.3098 34.794 17.3249 -0.706234 0.700305 0.103952
-25.6451 35.4065 17.6125 -0.694881 0.713629 0.0887364
-25.1328 36.0603 16.4777 -0.679054 0.725709 0.110597
-24.561 36.7941 15.2425 -0.663471 0.737466 0.126293
-24.0452 37.4507 14.157 -0.649211 0.74901 0.13232
-23.5795 38.0314 13.1849 -0.645101 0.752314 0.13367
-23.0865 38.6128 12.2408 -0.619422 0.774712 0.127038
-22.4752 39.2934 11.0877 -0.603991 0.784324 0.14153
-21.8591 39.9418 9.96171 -0.590943 0.800589 0.0992188
-21.6488 40.1333 9.60963 -0.583082 0.80733 0.0907364
-19.528 41.676 7.8117 -0.508161 0.859373 0.0570086
-20.1693 41.208 8.80533 -0.532154 0.84294 0.079143
-20.7728 40.72 9.75164 -0.557274 0.82608 0.0838865
-21.3512 40.1945 10.7197 -0.573095 0.810607 0.12033
-21.8893 39.6466 11.6897 -0.610461 0.783126 0.118535
-22.6047 38.8738 13.0153 -0.623697 0.771746 0.124139
-23.2026 38.1827 14.1525 -0.645105 0.752311 0.13367
-23.777 37.4802 15.3377 -0.651043 0.748428 0.126486
-24.4185 36.6924 16.6797 -0.665557 0.738956 0.104776
-24.8396 36.1815 17.577 -0.686987 0.720445 0.0949126
-24.0229 36.9359 17.5622 -0.667957 0.737913 0.0965304
-23.542 37.4997 16.5747 -0.658474 0.744101 0.112805
-22.9317 38.2193 15.3362 -0.64269 0.756325 0.122154
-22.3338 38.8996 14.1841 -0.634215 0.762706 0.126687
-21.7543 39.5386 13.1066 -0.619327 0.775855 0.120349
-21.1698 40.1413 12.0562 -0.590364 0.798904 0.114991
-20.543 40.7396 10.9477 -0.573772 0.811391 0.111496
-19.8298 41.339 9.82816 -0.535585 0.841142 0.0750253
-19.0589 41.8967 8.64252 -0.492329 0.869114 0.0474608
-18.5206 42.2398 7.8544 -0.465153 0.883733 0.0514592
-17.9485 42.5098 8.54125 -0.472878 0.880241 0.0395327
-18.7223 42.0176 9.67417 -0.495706 0.865375 0.073489
-19.5292 41.4195 10.9138 -0.531801 0.841639 0.093982
-20.1877 40.8537 11.983 -0.563476 0.819824 0.101896
-20.759 40.3087 12.9847 -0.579564 0.807075 0.112857
-21.3577 39.7076 14.034 -0.604893 0.786659 0.123577
-21.9013 39.1111 15.0511 -0.621387 0.775109 0.114387
-22.4263 38.5326 16.0557 -0.636391 0.764503 0.102672
-22.9536 37.9413 17.0903 -0.651387 0.753393 0.0899661
-23.1392 37.7368 17.4592 -0.651387 0.753393 0.0899672
-22.1295 38.6339 17.1579 -0.637382 0.765943 0.0841116
-21.5244 39.277 16.0235 -0.624187 0.774526 0.102469
-20.9643 39.8652 14.9873 -0.604312 0.78798 0.117876
-20.2408 40.5835 13.7201 -0.584238 0.804945 0.103578
-19.5684 41.1962 12.5898 -0.556661 0.826305 0.0857218
-18.7596 41.8519 11.2826 -0.528738 0.845388 0.0758694
-18.1258 42.3062 10.3104 -0.502846 0.863154 0.0459531
-17.2666 42.8534 9.05724 -0.46883 0.882767 0.0303501
-16.5844 43.1963 9.56746 -0.437746 0.898852 0.0210713
-17.3162 42.7521 10.622 -0.488374 0.871177 0.0504183
-18.1641 42.1754 11.9134 -0.532287 0.844346 0.0612448
-18.8673 41.6185 13.041 -0.553494 0.829345 0.07636
-19.4729 41.1017 14.0284 -0.577977 0.812091 0.0803207
-20.0318 40.5825 14.9615 -0.597007 0.795018 0.107371
-20.6815 39.9299 16.1327 -0.610772 0.785273 0.101506
-21.2204 39.3851 17.1152 -0.627819 0.773453 0.0872531
-21.4361 39.1656 17.5089 -0.628181 0.773088 0.0878861
-20.5956 39.8234 17.6202 -0.621261 0.780147 0.07352
-19.9496 40.456 16.4599 -0.599838 0.794893 0.0913196
-19.3327 41.0454 15.38 -0.582869 0.807194 0.0932773
-18.7412 41.5778 14.4042 -0.566807 0.82007 0.078838
-18.1357 42.0772 13.4321 -0.54892 0.83302 0.069031
-17.3212 42.6753 12.1584 -0.506519 0.860722 0.050958
-16.5729 43.1452 11.0326 -0.505921 0.862101 0.0287352
-15.7664 43.5868 9.90415 -0.437742 0.898853 0.0210761
-14.9619 43.9599 10.268 -0.41261 0.910805 -0.0136624
-15.7843 43.564 11.3781 -0.463721 0.885879 -0.0134881
-16.4796 43.1684 12.3903 -0.520037 0.853883 0.0211002
-17.1333 42.7276 13.3989 -0.539099 0.841478 0.0358725
-17.7426 42.273 14.3552 -0.553773 0.830018 0.0663679
-18.3247 41.7744 15.2999 -0.574591 0.813955 0.085575
-18.9066 41.2548 16.2715 -0.590902 0.802497 0.0826644
