-21.7431 39.341 18.0822 -0.637053 0.76748 0.0716745
-22.7179 38.5258 18.0664 -0.650686 0.753504 0.0940195
-23.6776 37.6724 18.198 -0.662366 0.744086 0.0872214
-24.7314 36.7214 18.1282 -0.673082 0.734791 0.0837333
-25.8696 35.644 18.1223 -0.68543 0.721 0.101702
-26.9668 34.5295 18.3049 -0.704632 0.701277 0.108109
-27.8657 33.6267 18.3337 -0.70515 0.701833 0.100897
-28.7683 32.7103 18.2415 -0.713366 0.692897 0.104881
-29.708 31.7568 18.1505 -0.717976 0.688533 0.101861
-30.5717 30.838 18.2565 -0.728611 0.679013 0.0888207
-31.4642 29.8723 18.3616 -0.709821 0.700072 0.0769345
-32.2719 29.0453 18.3641 -0.699502 0.711169 0.0702571
-33.062 28.2538 18.3015 -0.720481 0.689792 0.0710639
-33.8958 27.3862 18.2721 -0.718709 0.692745 0.0590544
-34.2716 27.049 17.6595 -0.718127 0.692243 0.0709687
-33.3975 28.0482 17.137 -0.722702 0.684168 0.098058
-32.9878 28.6375 16.1967 -0.717929 0.685029 0.123746
-32.7279 29.1321 15.0574 -0.718001 0.680943 0.144189
-32.6357 29.5243 13.7248 -0.724411 0.672602 0.151076
-32.8173 29.6369 12.3635 -0.733865 0.660924 0.156814
-33.0905 29.6294 11.0916 -0.743523 0.651154 0.15179
-33.4721 29.4141 10.0345 -0.758599 0.63783 0.13281
-34.0141 29.0113 8.77164 -0.769252 0.627887 0.11833
-34.5995 28.4432 7.94387 -0.772308 0.625074 0.113239
-35.3252 27.578 7.35535 -0.812273 0.577422 0.08147
-36.0431 26.6033 6.85476 -0.820605 0.568616 0.0572654
-36.7674 25.5328 6.82035 -0.828315 0.558538 0.0439337
-37.1672 24.9729 6.21529 -0.836665 0.546302 0.0392416
-37.1985 25.0076 5.0261 -0.846848 0.530152 0.0422664
-37.2858 24.9557 3.44958 -0.850835 0.524915 0.0229055
-37.3424 24.9055 2.25984 -0.855901 0.51679 0.0189914
-37.2849 25.0334 1.04228 -0.857375 0.514553 0.0119156
-37.2757 25.078 -0.47623 -0.859458 0.511151 0.00751155
-37.0684 25.4359 -1.3747 -0.858243 0.51318 0.00805388
-36.8684 25.7606 -0.317863 -0.859135 0.511709 0.00626834
-36.4265 26.4623 0.613654 -0.851933 0.52345 0.0144892
-35.9124 27.2315 1.83686 -0.834554 0.550082 0.0304786
-35.3896 27.9401 2.77032 -0.824274 0.564231 0.0470753
-34.8745 28.6149 3.59572 -0.820214 0.569942 0.0491381
-34.3421 29.2503 4.56521 -0.809678 0.58328 0.0646792
-33.8106 29.8257 5.37925 -0.778929 0.621773 0.0813162
-33.223 30.4421 6.11721 -0.762229 0.640082 0.0959333
-32.5088 31.1768 6.77326 -0.753735 0.647415 0.112465
-31.7506 31.9339 7.41987 -0.747223 0.650914 0.132835
-30.9359 32.7247 7.9395 -0.718067 0.681243 0.142434
-30.1721 33.4286 8.40129 -0.712945 0.685903 0.145759
-29.3721 34.1403 8.92223 -0.706288 0.688234 0.165806
-28.4035 35.0026 9.42686 -0.687943 0.705673 0.169159
-27.4892 35.8168 9.71159 -0.685904 0.709879 0.160022
-26.5533 36.6376 9.92148 -0.659171 0.733625 0.16519
-25.562 37.5049 9.97855 -0.650452 0.743775 0.153981
-24.6923 38.2905 9.80109 -0.63632 0.755257 0.156868
-23.6897 39.1196 9.61062 -0.603243 0.785554 0.136739
-22.7883 39.8097 9.48875 -0.59852 0.791171 0.125504
-21.8774 40.5392 9.0732 -0.568976 0.81496 0.107162
-20.8615 41.2788 8.44953 -0.528872 0.844871 0.0793445
-20.1102 41.7932 7.78955 -0.51064 0.857557 0.0609957
-19.4488 42.2344 6.94122 -0.475943 0.878658 0.0379186
-18.5667 42.6893 7.01147 -0.449817 0.891857 0.0474962
-17.6594 43.1114 7.97857 -0.442471 0.896471 0.0236227
-16.8056 43.5255 8.66581 -0.435425 0.89993 0.0164748
-15.8598 43.9614 9.26237 -0.415019 0.909685 0.00288324
-14.7603 44.4539 9.73265 -0.413812 0.910296 -0.0109792
-13.808 44.8648 10.1065 -0.386233 0.920067 -0.0655876
-12.6221 45.347 10.369 -0.315777 0.943697 -0.0985918
-11.4248 45.7289 10.2854 -0.292193 0.953188 -0.0778196
-10.294 46.0846 10.7103 -0.242849 0.963809 -0.1085
-10.1647 46.2919 12.0685 -0.228076 0.96315 -0.140971
-9.93232 46.5419 13.2281 -0.242164 0.95738 -0.15741
-9.69624 46.8032 14.5602 -0.198036 0.966739 -0.161756
-9.33011 47.0552 15.592 -0.153813 0.975522 -0.157154
-8.73074 47.2975 16.5797 -0.140771 0.979458 -0.144379
-7.72398 47.3468 16.1465 -0.0771844 0.989469 -0.122448
-8.37779 47.1149 15.0397 -0.151985 0.976066 -0.155352
-8.83306 46.8293 13.7364 -0.151302 0.97563 -0.158905
-9.07368 46.5817 12.3767 -0.183523 0.973299 -0.137589
-9.20991 46.3644 10.9166 -0.188897 0.975027 -0.116138
-9.08742 46.2529 9.54919 -0.189311 0.97755 -0.0924822
-9.95794 46.0294 9.24187 -0.224023 0.970853 -0.0851918
-11.2061 45.7077 9.20884 -0.258664 0.962196 -0.0852737
-12.6386 45.2542 9.23662 -0.312517 0.948111 -0.0584628
-13.8168 44.8126 8.97928 -0.356212 0.933084 -0.0486832
-14.8989 44.3743 8.55948 -0.365055 0.930881 -0.0139351
-15.9691 43.9081 8.00172 -0.397877 0.917404 -0.00799892
-17.1096 43.4028 7.11524 -0.410185 0.911679 0.0242825
-17.9553 43.033 6.21682 -0.436728 0.898482 0.0437782
-18.6208 42.7479 5.2043 -0.448002 0.893161 0.0393415
-19.1897 42.4917 4.73111 -0.44659 0.892921 0.0570008
-19.8636 42.0707 5.78631 -0.496559 0.86664 0.048629
-20.4368 41.6814 6.64283 -0.509794 0.858108 0.0613185
-21.1313 41.2057 7.37306 -0.511706 0.855695 0.0770954
-21.9586 40.6247 7.87719 -0.55258 0.82656 0.107019
-22.8592 39.934 8.35292 -0.578113 0.806604 0.123192
-23.8885 39.1413 8.52939 -0.609491 0.783167 0.123167
-24.7298 38.4488 8.72787 -0.631407 0.766368 0.117652
-25.6191 37.6735 8.90051 -0.642714 0.754241 0.133661
-26.6591 36.7709 8.87038 -0.657726 0.739096 0.145127
-27.5452 35.989 8.67133 -0.68421 0.715636 0.140302
-28.4961 35.1489 8.33428 -0.685056 0.713302 0.14798
-29.3247 34.4262 7.81569 -0.703531 0.695757 0.144801
-30.2141 33.6251 7.26882 -0.713111 0.685893 0.144965
-31.079 32.827 6.71557 -0.729934 0.669696 0.136762
-31.8471 32.0633 6.1372 -0.758536 0.640628 0.119215
-32.6044 31.2719 5.52942 -0.765719 0.634344 0.105475
-33.2656 30.5861 4.74335 -0.770416 0.631164 0.0897584
-33.8288 29.9938 3.95625 -0.789152 0.609278 0.0766283
-34.2853 29.4943 3.06543 -0.80042 0.596406 0.0584076
-34.8351 28.7886 2.21806 -0.820705 0.56943 0.0468051
-35.3263 28.1396 1.41334 -0.827158 0.561275 0.0242857
-35.7334 27.5503 0.540566 -0.836761 0.547394 0.0120983
-36.127 26.9516 -0.328296 -0.843612 0.536889 0.00319251
-36.5241 26.3382 -1.45409 -0.845835 0.53335 0.0100283
-36.7756 25.9201 -2.93115 -0.850891 0.525103 -0.0136348
-36.8761 25.7469 -4.06059 -0.856256 0.516544 -0.00289932
-37.0107 25.5039 -5.30852 -0.84778 0.530091 -0.0163992
-37.4499 24.7588 -6.08857 -0.853004 0.521725 -0.00957854
-37.7906 24.2105 -5.61778 -0.853004 0.521725 -0.00957853
-37.8973 24.045 -4.19426 -0.85898 0.512003 -0.00192189
-37.8658 24.0982 -2.98055 -0.860701 0.509102 0.00286609
-37.8573 24.1059 -1.69104 -0.862068 0.506783 0.00307042
-37.8517 24.1048 -0.483336 -0.862737 0.505631 0.0047369
-37.8317 24.1207 0.688959 -0.861099 0.508367 0.0084223
-37.8425 24.0783 1.90763 -0.859172 0.511618 0.00834717
-37.8635 24.018 3.24759 -0.854038 0.520031 0.0134514
-37.8214 24.0413 4.47148 -0.850085 0.526394 0.0162808
-37.734 24.1309 5.74254 -0.845756 0.532922 0.0248044
-37.7542 24.0479 6.83782 -0.835303 0.549299 0.0232377
-37.7472 24.0184 7.94241 -0.829646 0.557803 0.0233044
-37.5142 24.3435 8.29813 -0.81991 0.571832 0.0275148
-36.8442 25.3423 7.90529 -0.821913 0.568077 0.041123
-36.2204 26.2449 7.89123 -0.815984 0.57512 0.0573508
-35.4515 27.2558 8.37308 -0.796541 0.595942 0.100691
-34.7827 28.0246 8.94979 -0.789505 0.603812 0.109972
-34.2662 28.4721 9.94106 -0.770451 0.625209 0.124576
-33.7571 28.8312 11.2497 -0.746114 0.652017 0.134369
-33.5167 28.866 12.3228 -0.734507 0.664124 0.139423
-33.3379 28.7408 13.8183 -0.731886 0.667025 0.13925
-33.4917 28.3522 14.8886 -0.721998 0.677699 0.139278
-33.7675 27.8539 15.9603 -0.721278 0.683131 0.114308
-34.4929 26.9693 16.6712 -0.719216 0.686275 0.108418
-35.2849 26.1603 16.5269 -0.717429 0.689241 0.101205
-36.2072 25.2415 15.9225 -0.738314 0.67013 0.0747022
-37.089 24.362 14.8286 -0.756341 0.650552 0.0668059
-37.5076 23.9756 13.5045 -0.764723 0.641259 0.0623574
-37.5705 23.8533 14.089 -0.762014 0.645393 0.052942
-37.5678 23.7487 15.6418 -0.748883 0.661199 0.0446081
-37.1002 24.1759 16.6377 -0.733433 0.677446 0.0560625
-36.0962 25.2456 16.8795 -0.728645 0.680019 0.081549
-35.5059 25.826 17.3233 -0.72054 0.688894 0.0788271
-35.0501 26.1995 18.2392 -0.715475 0.696016 0.0593195
-34.6013 26.603 19.2454 -0.715699 0.697994 0.0240613
-33.8203 27.3997 19.3239 -0.715988 0.697689 0.0241483
-32.9994 28.2361 19.3795 -0.708067 0.704299 0.0510386
-32.1918 29.0394 19.4172 -0.711535 0.70144 0.039869
-31.4089 29.8336 19.4312 -0.707411 0.705096 0.0490734
-30.626 30.6471 19.3605 -0.730875 0.681341 0.0399607
-29.8536 31.4696 19.276 -0.724452 0.684725 0.0795033
-28.9343 32.4192 19.3187 -0.711951 0.698308 0.0741066
-27.8871 33.4761 19.4031 -0.707939 0.701325 0.0834573
-27.011 34.3611 19.3862 -0.708356 0.701706 0.0764293
-26.2187 35.1642 19.3352 -0.707727 0.703009 0.0699987
-25.3655 36.0041 19.2152 -0.685389 0.725031 0.0676198
-24.5367 36.7752 19.2749 -0.674653 0.734586 0.071753
-23.6784 37.5598 19.2931 -0.663822 0.745316 0.062002
-22.8623 38.2924 19.1866 -0.65032 0.756514 0.0689376
-21.6475 39.3239 19.1741 -0.63296 0.771736 0.0615226
-20.7261 40.0643 19.2733 -0.62552 0.777838 0.0607657
-19.5978 40.9549 19.2585 -0.616965 0.785043 0.0548902
-18.5115 41.7987 19.2209 -0.6129 0.788892 0.0447268
-17.2545 42.7577 19.2605 -0.613159 0.78933 0.0291309
-16.4489 43.4161 18.7715 -0.614556 0.788109 0.0347224
-16.1517 43.7037 17.7383 -0.6203 0.782951 0.0470591
-15.3969 44.347 17.0044 -0.65255 0.757514 0.0187455
-14.5135 45.0674 16.826 -0.675201 0.730789 -0.0964771
-13.2892 46.0022 16.8131 -0.578878 0.795123 -0.180722
-12.2859 46.7243 17.3587 -0.370699 0.881771 -0.291655
-11.5339 47.1319 18.5126 -0.141582 0.985222 -0.0963937
-10.4316 47.3504 19.3412 -0.129714 0.988754 -0.0744242
-9.07839 47.5091 19.3187 -0.105006 0.991897 -0.0715142
-7.76453 47.6354 19.3495 -0.0822439 0.993907 -0.0733782
-6.56794 47.6925 19.3921 0.00603078 0.995658 -0.0928955
-5.40534 47.7023 19.36 -0.00318295 0.999262 -0.0382752
-5.20812 47.6894 19.0072 -0.0127079 0.998477 -0.0512125
-6.03982 47.6208 18.2295 -0.0230278 0.997797 -0.0621827
-6.81208 47.5259 17.368 -0.04991 0.995764 -0.0767301
-7.41589 47.4279 16.6078 -0.0688798 0.992074 -0.10289
-6.4305 47.4296 16.106 -0.0517544 0.993399 -0.10237
-7.01857 47.2788 15.1319 -0.085001 0.989096 -0.120269
-7.62333 47.0913 14.2089 -0.145912 0.977487 -0.152411
-7.83533 46.8804 12.9821 -0.147134 0.980673 -0.128968
-8.1226 46.683 11.8129 -0.147606 0.980491 -0.12981
-8.12029 46.5266 10.4471 -0.16901 0.979974 -0.10529
-7.78377 46.4738 9.33355 -0.169655 0.980952 -0.0946058
-7.11916 46.4981 8.30886 -0.15931 0.983812 -0.082068
-6.18589 46.5582 7.26394 -0.137788 0.98881 -0.0571717
-5.34557 46.6291 6.5458 -0.130725 0.989717 -0.0579672
-4.53142 46.6747 5.59569 -0.112975 0.99204 -0.0556173
-3.64019 46.7315 4.78494 -0.0983375 0.994082 -0.0459539
-2.79815 46.7758 3.90722 -0.0899379 0.995391 -0.0324479
-1.83285 46.8136 2.83602 -0.0683692 0.997123 -0.0327321
-1.02973 46.838 1.95221 -0.0597277 0.997852 -0.0268908
0.0297715 46.8592 0.910992 -0.0397231 0.998744 -0.0305305
0.822046 46.87 0.10737 -0.015188 0.999726 -0.0177898
1.62124 46.8705 -0.751317 -0.00881157 0.999824 -0.0138868
2.43662 46.8595 -1.64491 0.0148317 0.999777 -0.015047
3.37381 46.8365 -2.71745 0.020257 0.999761 -0.00820492
4.23211 46.8006 -3.44906 0.0431552 0.999032 -0.00851313
5.05498 46.7575 -4.21246 0.0670476 0.997747 0.00225213
5.84134 46.71 -5.17228 0.0808779 0.996708 0.00561899
6.70152 46.6397 -5.85324 0.11089 0.993797 0.00823099
7.60123 46.5509 -6.70801 0.116539 0.992999 0.0192428
8.69771 46.3945 -6.86433 0.145979 0.989259 0.00751343
9.82365 46.2045 -7.06494 0.176723 0.984078 0.0172387
11.3276 45.8861 -6.87084 0.206636 0.978245 -0.0183704
12.3507 45.6409 -6.56945 0.261827 0.964756 -0.0263107
13.7424 45.2593 -6.15149 0.283629 0.958434 -0.0305777
14.8348 44.9508 -5.62807 0.296609 0.95412 -0.0394171
15.7989 44.6613 -4.97305 0.330034 0.942783 -0.0468317
16.6932 44.4139 -3.98628 0.348061 0.934973 -0.0663473
17.122 44.335 -2.78787 0.361145 0.930087 -0.0671708
17.3759 44.3274 -1.52994 0.355695 0.931888 -0.0711724
17.2973 44.4457 -0.345753 0.339182 0.937657 -0.0758643
17.2714 44.5501 0.839425 0.361529 0.929756 -0.0696412
17.2879 44.6496 2.20202 0.364641 0.928001 -0.0764954
17.3774 44.7176 3.51042 0.353511 0.932792 -0.0702019
17.3191 44.8278 4.615 0.353858 0.931991 -0.0785907
17.4017 44.8731 5.71351 0.362816 0.93035 -0.0530404
17.4765 44.9095 6.90195 0.349997 0.935001 -0.0572246
17.3796 45.0424 8.10929 0.36023 0.928315 -0.0920104
17.4275 45.1019 9.2423 0.370948 0.927755 -0.0408498
17.4304 45.1727 10.6276 0.367819 0.928165 -0.0567329
17.4398 45.2483 11.758 0.374714 0.922191 -0.0943638
17.0709 45.5222 12.8293 0.365571 0.92475 -0.105693
16.7134 45.7767 13.865 0.360718 0.926794 -0.10457
15.9441 46.1624 14.858 0.317751 0.942281 -0.0991124
15.2457 46.4719 15.7756 0.259805 0.956456 -0.133016
14.4057 46.7819 16.5776 0.197765 0.973553 -0.114384
13.6607 47.0628 17.4692 0.177063 0.97465 -0.136766
14.5058 46.9633 17.8538 0.186247 0.969655 -0.158369
15.7668 46.6982 17.872 0.248501 0.947914 -0.199265
16.5956 46.4805 18.7333 0.524171 0.851571 -0.00845501
16.6623 46.4464 19.8294 0.509159 0.860641 -0.00738983
17.4004 46.0191 20.4379 0.507028 0.861897 -0.00719079
18.4804 45.2932 20.4777 0.567123 0.823565 -0.0105499
19.625 44.46 20.4602 0.60903 0.793128 0.00545416
20.5044 43.7454 20.5141 0.664566 0.7472 -0.00669858
21.5308 42.8068 20.4359 0.688499 0.725218 0.00536749
22.3535 41.9639 20.3761 0.728458 0.685032 0.00898267
23.2608 40.9928 20.4282 0.734987 0.678018 0.00632243
24.0874 40.0876 20.407 0.744211 0.66711 0.0307433
24.8783 39.1993 20.4512 0.745764 0.666048 0.0139181
25.6231 38.3637 20.3246 0.745545 0.666294 0.0146537
26.5007 37.3832 20.4153 0.742154 0.669937 0.0197816
27.4368 36.3584 20.405 0.735563 0.676982 0.025349
28.1918 35.5373 20.4713 0.732242 0.68063 0.0220932
29.0205 34.6677 20.472 0.720392 0.69326 0.020652
29.7841 33.8711 20.505 0.721509 0.692362 0.00744683
30.5585 33.0625 20.4482 0.725958 0.687382 0.0221565
31.3493 32.2241 20.4845 0.729115 0.684292 0.0102729
32.2173 31.2892 20.3641 0.73724 0.675563 0.0095763
32.4089 31.1127 19.1341 0.750221 0.660557 0.0263064
32.2365 31.4069 18.2076 0.744572 0.659596 0.102089
31.3394 32.3503 18.308 0.707219 0.700601 0.0948599
30.4466 33.277 18.5017 0.725107 0.686047 0.05962
29.6387 34.1257 18.5783 0.73312 0.676435 0.0693697
28.8283 34.991 18.5757 0.727903 0.681142 0.0787357
28.0401 35.855 18.4871 0.729828 0.677513 0.0912516
27.2751 36.6783 18.4515 0.718483 0.689796 0.089233
26.5521 37.494 18.2971 0.732174 0.674815 0.0924422
25.8069 38.3066 18.2223 0.731989 0.673652 0.100141
24.8623 39.3882 18.0594 0.743195 0.662784 0.0902457
24.1246 40.204 17.9429 0.734927 0.676075 0.0529692
23.1946 41.2327 17.4577 0.719212 0.692899 0.0512257
22.4617 41.9966 17.1156 0.691175 0.721926 0.0331583
21.8443 42.6154 16.4074 0.674091 0.738131 0.0232398
21.2051 43.2012 15.614 0.655659 0.753978 0.0403519
20.5658 43.6932 14.7809 0.607165 0.794504 0.00860232
20.0404 44.0734 13.8485 0.559956 0.828095 -0.0197755
19.5217 44.3113 12.8257 0.500924 0.864462 -0.0421935
19.2621 44.4054 11.6717 0.500708 0.864598 -0.0419688
19.1084 44.4418 10.5254 0.418894 0.907326 -0.0351921
19.1706 44.3268 9.03367 0.418515 0.906519 -0.0553963
19.1315 44.2626 7.78664 0.421737 0.904825 -0.058545
19.1657 44.1719 6.57565 0.414396 0.908866 -0.046871
19.2043 44.0949 5.37149 0.405355 0.912532 -0.0540914
19.2299 44.0059 4.22262 0.409684 0.909869 -0.0655122
19.1402 43.9602 3.12582 0.403053 0.913112 -0.0602818
19.1765 43.8797 1.98252 0.417723 0.905517 -0.0744672
19.2067 43.7593 0.848276 0.392381 0.916115 -0.0819067
19.1072 43.7078 -0.308954 0.394698 0.915741 -0.0750496
18.9833 43.6676 -1.44952 0.394125 0.916025 -0.0745811
18.9415 43.5666 -3.09842 0.392535 0.917762 -0.0600779
19.0434 43.4277 -4.28377 0.404802 0.910527 -0.0835275
19.3515 43.1557 -5.60204 0.410278 0.907312 -0.0919553
20.0699 42.7082 -6.43291 0.452009 0.886565 -0.098435
20.8529 42.1512 -7.39767 0.505141 0.853977 -0.124724
21.6292 41.5511 -8.25279 0.519124 0.843524 -0.137215
22.4075 40.9278 -8.96432 0.535427 0.831852 -0.146082
23.2924 40.267 -9.33279 0.568888 0.805272 -0.166025
24.1383 39.5922 -9.58313 0.583545 0.79739 -0.153598
25.1302 38.8264 -9.68575 0.596009 0.781317 -0.185014
25.995 38.16 -9.58778 0.614105 0.76879 -0.178428
26.8641 37.4275 -9.54424 0.633235 0.748766 -0.195614
27.7044 36.7936 -9.19303 0.641903 0.741397 -0.195681
28.5091 36.1863 -8.74487 0.674248 0.712981 -0.19234
29.2598 35.6287 -8.13601 0.682028 0.710704 -0.172443
30.1163 35.0707 -7.04565 0.67994 0.713478 -0.169134
31.0183 34.434 -6.02402 0.684895 0.710679 -0.160793
31.6674 33.9208 -5.25997 0.70849 0.691422 -0.141343
32.3557 33.3214 -4.49138 0.732086 0.669543 -0.125507
33.1414 32.576 -3.59521 0.752595 0.651431 -0.0954858
33.8787 31.7876 -3.06719 0.75806 0.644439 -0.100216
34.5949 30.9752 -2.21567 0.801367 0.592706 -0.0780831
35.2333 30.1898 -1.37521 0.81727 0.569634 -0.0859624
35.7431 29.5248 -0.629963 0.839387 0.542319 -0.0363307
36.2166 28.8517 0.173262 0.839856 0.540412 -0.0509524
36.6216 28.2998 1.03144 0.848244 0.528713 -0.0279025
37.1263 27.4962 2.05985 0.8706 0.491595 -0.0197439
37.6671 26.5791 3.17262 0.877871 0.478497 -0.0196006
38.071 25.8687 3.99231 0.880837 0.473052 -0.0179342
38.3817 25.3285 5.01566 0.880834 0.473074 -0.0168342
38.7132 24.7652 6.20724 0.875111 0.483329 -0.0239668
38.8712 24.5244 7.26924 0.874875 0.484002 -0.0183114
39.0736 24.2133 8.48276 0.873254 0.486729 -0.0228602
39.1012 24.2311 9.74085 0.866004 0.499895 -0.0095856
39.1992 24.0925 10.7906 0.860257 0.50967 -0.00834024
39.1028 24.2707 11.8743 0.851309 0.524272 -0.0203056
38.9682 24.4901 13.0508 0.826253 0.563241 0.0081076
38.2806 25.3946 14.7249 0.798712 0.601688 -0.00452355
37.6197 26.1691 15.5726 0.777874 0.62753 0.0334386
36.645 27.2184 16.3291 0.754546 0.65163 0.0777116
35.8093 27.9961 16.9554 0.710211 0.691743 0.130734
35.0138 28.703 17.4539 0.714252 0.684944 0.143861
35.0652 28.5617 17.8529 0.701298 0.695756 0.155201
35.884 27.7657 17.8432 0.701795 0.704302 0.106967
36.7611 26.8871 17.8807 0.719235 0.689625 0.0843683
37.7149 25.922 17.8696 0.707915 0.70474 0.0462553
38.616 24.9711 17.5584 0.709236 0.704046 -0.0207358
39.329 24.0997 16.8566 0.763424 0.644864 -0.034001
39.6684 23.5681 15.622 0.813909 0.579741 -0.0381159
39.6694 23.491 14.267 0.819754 0.57182 -0.029703
39.617 23.5045 13.0061 0.833343 0.55193 -0.030204
39.5692 23.5055 11.8057 0.852129 0.522454 -0.0283791
39.5183 23.536 10.5308 0.86132 0.507679 -0.0189163
39.4744 23.557 9.46292 0.870891 0.490676 -0.0280337
39.4778 23.4814 8.35234 0.87334 0.485901 -0.0341839
39.38 23.5953 7.19853 0.878744 0.476523 -0.0271105
39.3877 23.5053 6.07874 0.882727 0.468886 -0.0306472
39.31 23.567 4.76533 0.887135 0.460505 -0.0297233
39.2731 23.5545 3.64627 0.888484 0.457814 -0.0316469
39.2394 23.5394 2.51236 0.888296 0.458032 -0.0337093
39.1902 23.5499 1.3269 0.892358 0.450067 -0.0337233
39.1465 23.5363 0.076842 0.890836 0.452805 -0.0369345
39.1017 23.527 -1.11679 0.888624 0.457118 -0.0372912
39.0329 23.568 -2.27552 0.886748 0.46079 -0.0367621
38.9953 23.5445 -3.4114 0.885632 0.462537 -0.041423
38.9548 23.5207 -4.52327 0.881445 0.470577 -0.0398395
38.8876 23.5501 -5.75208 0.876322 0.480083 -0.0397555
38.8444 23.5258 -7.03834 0.87075 0.490064 -0.040323
38.5093 24.0909 -7.36199 0.869236 0.492635 -0.0417014
37.7254 25.505 -6.82951 0.861279 0.505935 -0.0472128
37.1347 26.4827 -6.88782 0.84946 0.524086 -0.0612516
36.4437 27.555 -6.96428 0.840498 0.534346 -0.0896472
35.7281 28.5657 -7.3463 0.820526 0.559984 -0.113954
35.0254 29.4859 -7.63588 0.795634 0.593447 -0.121605
34.2168 30.4148 -8.10435 0.76809 0.622834 -0.148712
33.4687 31.1606 -8.7215 0.750626 0.642972 -0.15214
32.7569 31.6905 -9.65598 0.723638 0.661007 -0.19827
32.1908 32.0373 -10.543 0.708688 0.676943 -0.198343
31.9526 31.9281 -11.6853 0.703967 0.676234 -0.217113
32.0995 31.3739 -12.9455 0.701994 0.67939 -0.213622
32.2779 30.7726 -14.271 0.702248 0.680405 -0.209467
32.7025 30.071 -15.1618 0.705877 0.681412 -0.193257
33.3171 29.2616 -15.7707 0.705255 0.685136 -0.182219
34.1583 28.359 -15.836 0.719342 0.672875 -0.172586
34.973 27.5232 -15.7039 0.718837 0.673468 -0.172378
35.7762 26.7559 -15.1823 0.731999 0.664327 -0.151153
36.5261 26.0198 -14.5202 0.756301 0.643415 -0.116547
37.1842 25.3201 -13.9363 0.76856 0.629584 -0.113747
37.6968 24.7685 -13.1025 0.807436 0.58439 -0.0808393
38.2807 24.0037 -12.3719 0.839419 0.540801 -0.0539471
38.595 23.4664 -12.92 0.839158 0.542292 -0.0416194
38.5464 23.4402 -14.0294 0.823518 0.565275 -0.0477806
38.4308 23.5039 -15.3066 0.807331 0.588474 -0.0437655
38.1581 23.7913 -16.5235 0.760772 0.648679 -0.0210197
37.461 24.4696 -17.4845 0.721429 0.68705 -0.0844436
36.6944 25.2288 -17.8709 0.722253 0.681211 -0.119591
35.871 26.078 -17.929 0.714033 0.688908 -0.124447
35.0847 26.8358 -18.0809 0.698915 0.690761 -0.185382
34.6836 27.1527 -19.079 0.72831 0.684583 -0.0301695
34.5181 27.2943 -20.3187 0.706383 0.707769 -0.00744008
33.6698 28.1488 -20.4624 0.712479 0.701598 -0.0115759
32.8655 28.958 -20.5476 0.706714 0.707428 -0.0100843
32.0017 29.8221 -20.4896 0.702369 0.711614 -0.0168461
31.102 30.7215 -20.4848 0.710616 0.703353 -0.0178661
30.3151 31.4973 -20.5854 0.711392 0.702474 -0.0212283
29.5009 32.3025 -20.5502 0.69407 0.718809 -0.039754
28.6577 33.1546 -20.5338 0.707981 0.705186 -0.0384104
27.5685 34.227 -20.4971 0.69942 0.71298 -0.0496964
26.5 35.2646 -20.4707 0.693058 0.719415 -0.0459582
25.6012 36.1088 -20.4068 0.676623 0.733284 -0.0666676
24.6591 36.969 -20.4163 0.66363 0.745931 -0.0564202
23.7604 37.7617 -20.4238 0.655603 0.752896 -0.0577182
22.8472 38.5429 -20.4267 0.633309 0.771596 -0.0596524
21.5221 39.6068 -20.4174 0.612658 0.789107 -0.0442653
20.4269 40.4392 -20.4212 0.592638 0.80214 -0.0731544
19.3211 41.2383 -20.4168 0.574807 0.815475 -0.0678079
18.1904 42.0309 -20.4125 0.572404 0.818363 -0.0513377
17.1665 42.7445 -20.405 0.568231 0.82199 -0.0380169
16.0287 43.5388 -20.4431 0.576971 0.815907 -0.0374302
15.268 44.0968 -19.9725 0.582215 0.812749 -0.0215553
15.2657 44.1407 -18.7977 0.56709 0.822783 -0.0379125
14.7542 44.5925 -17.9802 0.719348 0.683936 -0.101465
13.8489 45.4906 -17.9826 0.675436 0.732971 0.0808672
12.9525 46.3067 -18.0414 0.579854 0.779804 0.235955
12.2363 46.927 -18.5057 0.165113 0.96905 0.182195
12.1507 47.0299 -19.6653 0.299938 0.953856 0.0139768
11.601 47.1735 -20.4847 0.231746 0.972188 -0.00551618
10.3473 47.4295 -20.5452 0.135534 0.989696 0.0448616
8.77139 47.5862 -20.4707 0.0545921 0.996949 0.0557909
7.54518 47.631 -20.4876 0.0183758 0.999023 0.0401902
6.17826 47.6412 -20.4711 -0.00561867 0.999062 0.0429318
4.56512 47.6228 -20.4255 -0.0195226 0.999559 0.0223535
3.3808 47.5929 -20.4936 -0.0371383 0.999024 0.0238954
2.04075 47.5469 -20.5314 -0.0337641 0.999259 0.0184761
0.841798 47.5 -20.4568 -0.0433553 0.998957 0.0143538
-0.603734 47.4366 -20.4819 -0.0446935 0.998913 0.0132402
-1.70434 47.3891 -20.4152 -0.0439905 0.998967 0.0111956
-3.07993 47.3244 -20.4775 -0.0483984 0.998773 0.010486
-4.59349 47.2463 -20.4601 -0.0533578 0.998447 0.0159988
-5.92336 47.1768 -20.5922 -0.0530694 0.998439 0.0174342
-7.17333 47.1081 -20.4205 -0.0553143 0.998321 0.0169676
-8.29978 47.0446 -20.4288 -0.053625 0.99828 0.0237069
-9.45499 46.968 -20.4425 -0.0693128 0.997184 0.0283669
-10.6274 46.8615 -20.5265 -0.0973675 0.995244 0.00304517
-11.9214 46.7273 -20.4439 -0.124843 0.99207 -0.00796908
-12.346 46.6653 -19.3564 -0.140665 0.990018 0.00885092
-12.4515 46.593 -18.3086 -0.0852226 0.98964 0.11554
-11.4005 46.7136 -18.3663 -0.103752 0.990933 0.0853656
-10.1658 46.8446 -18.5442 -0.0726261 0.995302 0.0623779
-8.97389 46.9471 -18.7531 -0.0868844 0.994994 0.0493746
-7.87344 47.0296 -18.7723 -0.061357 0.997705 0.0286436
-6.50893 47.1103 -18.7896 -0.0556679 0.998028 0.0290177
-5.24795 47.1791 -18.7742 -0.0564301 0.998171 0.0217068
-4.11009 47.2455 -18.8112 -0.0556443 0.998269 0.018243
-2.66993 47.3205 -18.8375 -0.0530481 0.998398 0.0196739
-1.50431 47.3746 -18.7874 -0.0436156 0.998911 0.0165449
-0.241079 47.4249 -18.7593 -0.0371892 0.99918 0.0160156
0.849383 47.4717 -18.8418 -0.043264 0.99884 0.0211267
2.27033 47.5092 -18.5499 -0.0248569 0.999323 0.0270897
3.36641 47.5133 -18.1195 -0.0150129 0.999087 0.0399966
4.27968 47.4904 -17.4533 -0.00184082 0.998224 0.0595503
5.25092 47.4369 -16.6594 0.0179616 0.998026 0.0601845
6.12596 47.3263 -15.7469 0.0504072 0.995105 0.0849971
6.67827 47.1836 -14.7757 0.0789979 0.992141 0.0970299
7.20836 47.0105 -13.5413 0.116894 0.987183 0.108652
7.52123 46.8491 -12.3545 0.120533 0.98847 0.0908924
7.74698 46.7237 -11.1574 0.14844 0.986321 0.0708958
7.47584 46.6808 -9.8679 0.130825 0.989941 0.0538714
6.83354 46.6952 -8.57425 0.116301 0.99246 0.0386869
5.99909 46.7482 -7.69219 0.0969679 0.994721 0.0335836
5.02374 46.7996 -6.67491 0.0721202 0.997142 0.0225042
3.97359 46.8421 -5.7595 0.0536158 0.99806 0.0306695
3.20257 46.8569 -4.93196 0.0375545 0.999195 0.0140991
2.27756 46.8653 -4.08194 0.0143811 0.999785 0.0133287
1.42058 46.8602 -3.24601 -0.00230867 0.999872 0.0158015
0.62845 46.8492 -2.35696 -0.0198312 0.999779 0.00602993
-0.231358 46.8244 -1.43784 -0.0310992 0.999505 0.00473788
-1.00038 46.7978 -0.537121 -0.0433014 0.999062 -0.000837929
-1.82345 46.7599 0.360876 -0.060245 0.998139 -0.00941255
-2.78461 46.7024 1.30076 -0.0763955 0.997014 -0.0112858
-3.74928 46.6388 2.33517 -0.101712 0.994513 -0.0244764
-4.63283 46.5715 3.2626 -0.117314 0.992772 -0.0253289
-5.43848 46.5028 4.12873 -0.128441 0.991005 -0.0375902
-6.32903 46.424 5.20064 -0.138049 0.989049 -0.0522027
-7.47062 46.3039 6.30146 -0.150732 0.987051 -0.0539797
-8.30838 46.2152 7.27674 -0.185451 0.980211 -0.0692422
-9.48119 46.0415 8.11681 -0.211379 0.974654 -0.0732737
-10.7635 45.7413 8.11477 -0.237193 0.968875 -0.07083
-11.8819 45.4281 8.26178 -0.297683 0.952031 -0.0706623
-13.0858 45.0357 8.05193 -0.298728 0.953438 -0.0414469
-14.1904 44.6293 7.68406 -0.349624 0.93668 -0.0198245
-15.2465 44.2137 7.18896 -0.38356 0.923288 -0.0132592
-16.4412 43.7081 6.32016 -0.392858 0.919401 0.0163194
-17.2237 43.3914 5.55596 -0.410748 0.911148 0.0318213
-17.8878 43.1278 4.4963 -0.411542 0.911292 0.0134419
-18.2248 43.0082 3.35921 -0.421994 0.905776 0.0386165
-18.3394 42.9985 2.13945 -0.427888 0.903452 0.0261848
-18.3845 43.0126 0.972671 -0.411406 0.911077 0.0261538
-18.1869 43.1451 -0.310817 -0.400807 0.915425 0.036757
-17.9723 43.2899 -1.58342 -0.394689 0.917993 0.0387168
-17.9787 43.3418 -3.01111 -0.392736 0.919127 0.0309172
-17.8497 43.4328 -4.16193 -0.390501 0.920112 0.0300488
-17.7985 43.5134 -5.56174 -0.386278 0.920659 0.0563586
-17.7012 43.6307 -7.06963 -0.364822 0.929719 0.0502708
-17.7523 43.6816 -8.49286 -0.41328 0.908857 0.0563805
-17.6465 43.8015 -9.71403 -0.394595 0.916875 0.0603008
-17.6189 43.8982 -10.8962 -0.416828 0.906883 0.0560523
-17.5665 43.9928 -12.1458 -0.400248 0.915422 0.042481
-17.1981 44.241 -13.3864 -0.437328 0.898644 0.0344062
-16.6365 44.5812 -14.4802 -0.405409 0.912138 0.0603993
-16.0715 44.9066 -15.4113 -0.407938 0.909521 0.0797362
-15.2489 45.3568 -16.1862 -0.336626 0.934182 0.118266
-14.4437 45.7674 -16.9094 -0.31744 0.93344 0.165779
-13.5714 46.1283 -17.4008 -0.2967 0.942915 0.15126
-13.6588 46.1658 -17.782 -0.305286 0.936773 0.171047
-14.8038 45.7658 -17.8791 -0.352859 0.9283 0.116744
-15.9504 45.3319 -18.2393 -0.497939 0.858739 0.0958174
-16.1863 45.207 -19.2959 -0.535786 0.844334 0.00573131
-16.8546 44.7986 -20.3898 -0.532901 0.846119 0.0099684
-18.0342 44.0321 -20.4368 -0.562002 0.826658 0.0281227
-18.9558 43.3918 -20.4367 -0.594212 0.804205 0.012831
-20.1157 42.5211 -20.5022 -0.615798 0.787698 0.0180082
-21.0586 41.7384 -20.4706 -0.66037 0.750593 -0.0125887
-22.0902 40.7692 -20.5046 -0.701273 0.712699 -0.014851
-23.025 39.8215 -20.4535 -0.719496 0.694202 -0.0195071
-23.8319 38.9733 -20.4209 -0.734984 0.677673 -0.0235969
-24.6319 38.1046 -20.3746 -0.739943 0.671396 -0.0413649
-25.3701 37.2804 -20.3957 -0.744318 0.667012 -0.0321173
-26.1439 36.41 -20.4924 -0.741945 0.668539 -0.0507297
-26.9507 35.5092 -20.5512 -0.742781 0.667627 -0.0505031
-27.8279 34.5321 -20.5083 -0.744059 0.666843 -0.0407308
-28.6329 33.646 -20.4722 -0.741593 0.669884 -0.0358644
-29.4035 32.7762 -20.4956 -0.749232 0.660785 -0.0448774
-30.2786 31.7928 -20.5247 -0.735698 0.676825 -0.025521
-31.1669 30.8358 -20.5311 -0.727986 0.684987 -0.0287931
-31.9526 30.0206 -20.4898 -0.71414 0.699611 -0.0233836
-32.8253 29.1209 -20.4272 -0.721524 0.69218 -0.0156123
-33.6607 28.2522 -20.465 -0.723574 0.690171 -0.0092037
-34.4594 27.4071 -20.469 -0.727046 0.686517 -0.00900154
-35.3225 26.4838 -20.4147 -0.734243 0.678871 -0.00457469
-35.6439 26.146 -19.3928 -0.74918 0.662216 -0.0140842
-35.8145 26.0049 -18.2376 -0.75419 0.653327 -0.0635794
-36.5832 25.2024 -17.8799 -0.737064 0.673373 -0.0574874
-37.2823 24.4302 -17.4937 -0.766721 0.641479 -0.0122102
-37.9913 23.5876 -17.1326 -0.772846 0.634586 0.00316267
-38.0937 23.47 -16.0214 -0.781957 0.622888 -0.0220593
-38.1163 23.4903 -14.8783 -0.785639 0.618149 -0.0257522
-38.1028 23.5498 -13.6293 -0.798122 0.602306 -0.011412
-38.1359 23.5202 -12.8988 -0.804932 0.593367 0.000156785
-38.0716 23.6092 -12.8778 -0.810177 0.585387 -0.0305781
-37.6561 24.1354 -13.7823 -0.79964 0.599473 -0.0347681
-37.2205 24.6354 -14.8841 -0.785066 0.6184 -0.0343543
-36.4918 25.4589 -15.8082 -0.766587 0.64054 -0.0451522
-35.8412 26.1655 -16.4841 -0.751643 0.655807 -0.0703495
-35.0722 26.9659 -16.9179 -0.737792 0.67074 -0.0759619
-34.2712 27.8183 -17.1847 -0.740568 0.666229 -0.0877418
-33.4114 28.7683 -17.1589 -0.737771 0.667341 -0.101736
-32.6259 29.6177 -17.1288 -0.73117 0.674186 -0.103936
-31.8524 30.4337 -17.2948 -0.723069 0.681956 -0.109998
-30.9006 31.3871 -17.6869 -0.736346 0.667401 -0.11122
-30.0699 32.2866 -17.8659 -0.749913 0.652689 -0.107363
-29.1924 33.2131 -18.1049 -0.752717 0.652144 -0.0896842
-28.2211 34.2962 -18.3012 -0.744363 0.659315 -0.105927
-27.4241 35.1927 -18.3484 -0.748148 0.657864 -0.0865355
-26.5898 36.1282 -18.3042 -0.73916 0.669152 -0.076079
-25.7892 36.9891 -18.3969 -0.733782 0.674177 -0.0839511
-25.0061 37.8713 -18.2265 -0.733572 0.67604 -0.06848
-24.2802 38.6703 -17.9132 -0.725356 0.685345 -0.0644976
-23.4264 39.5819 -17.4794 -0.712216 0.699763 -0.0554954
-22.7263 40.304 -16.8366 -0.688121 0.724561 -0.0387436
-21.8115 41.1794 -16.1408 -0.664784 0.746295 -0.0332676
-21.1484 41.7753 -15.3802 -0.610116 0.792162 -0.00392498
-20.3553 42.399 -14.4533 -0.585266 0.810758 -0.0111421
-19.7758 42.8201 -13.16 -0.53804 0.842892 0.00676219
-19.2704 43.0848 -11.8122 -0.490685 0.870208 0.0441994
-19.3556 42.9862 -10.709 -0.490286 0.870675 0.0393126
-19.4531 42.9068 -9.5662 -0.480137 0.877194 -0.000241323
-19.4702 42.8762 -8.41457 -0.470536 0.882162 0.0196511
-19.5514 42.7836 -7.03587 -0.459972 0.88638 0.0466605
-19.5894 42.6989 -5.74522 -0.445187 0.894017 0.0504129
-19.6525 42.6321 -4.63067 -0.439135 0.89842 -0.00151416
-19.6863 42.5811 -3.09668 -0.418033 0.907838 0.0327651
-19.7543 42.4785 -1.67845 -0.431095 0.901287 0.0426664
-19.9647 42.3299 -0.284856 -0.426709 0.903843 0.0314114
-20.084 42.2044 1.03243 -0.445565 0.894169 0.0436562
-20.0942 42.1296 2.28949 -0.454448 0.889671 0.0421354
-20.0509 42.0921 3.74836 -0.47151 0.880888 0.0414034
-20.4237 41.8118 4.93705 -0.50134 0.862758 0.0656233
-21.0488 41.3784 5.8491 -0.503267 0.86178 0.0636942
-21.8793 40.8206 6.59828 -0.541852 0.837558 0.0699594
-22.7944 40.1539 7.08342 -0.575772 0.810931 0.104292
-23.7819 39.3784 7.48805 -0.606481 0.786703 0.115223
-24.7958 38.5469 7.71137 -0.624314 0.770967 0.125861
-25.6515 37.8202 7.8503 -0.635352 0.761999 0.125238
-26.5526 37.0583 7.80946 -0.656646 0.743254 0.12802
-27.3758 36.3382 7.64842 -0.680454 0.722463 0.122597
-28.2636 35.5602 7.35513 -0.677498 0.722929 0.135534
-29.1422 34.815 6.80123 -0.699793 0.701432 0.135079
-29.9427 34.1183 6.26855 -0.706433 0.694693 0.135056
-30.719 33.3987 5.79516 -0.724027 0.67695 0.131955
-31.4787 32.6452 5.27773 -0.752542 0.651029 0.0992102
-32.3567 31.709 4.62105 -0.768109 0.633988 0.0898247
-33.0432 30.9979 3.70865 -0.772608 0.629448 0.0828971
-33.5595 30.459 2.87377 -0.780558 0.621286 0.0687932
-34.1968 29.7015 1.86132 -0.800655 0.598313 0.0311838
-34.7247 29.0316 0.9407 -0.819082 0.572824 0.0312731
-35.1837 28.4001 0.0315175 -0.833488 0.552052 0.0231468
-35.6324 27.7384 -0.932614 -0.84406 0.536126 0.0114458
-35.989 27.1953 -1.90525 -0.846312 0.532638 0.00596404
-36.1305 26.9531 -3.04771 -0.845745 0.533244 -0.0177696
-36.2247 26.7807 -4.33814 -0.845435 0.534042 -0.00615689
-36.366 26.5135 -5.7091 -0.841302 0.53984 -0.0279755
-36.86 25.6961 -6.49292 -0.844411 0.534963 -0.0280244
-37.3221 24.9414 -7.27824 -0.84252 0.538326 -0.0191157
-37.6951 24.3266 -8.39214 -0.841707 0.53973 -0.0148278
-37.9368 23.9151 -9.5418 -0.836313 0.547851 -0.0208903
-38.0527 23.708 -10.7211 -0.830631 0.55658 -0.0164512
-38.027 23.7181 -11.7046 -0.81525 0.578678 -0.0223253
-38.3222 23.301 -11.482 -0.823496 0.567268 -0.00783823
-38.3064 23.3395 -10.3844 -0.832823 0.553391 -0.010832
-38.3378 23.309 -9.15501 -0.841699 0.539774 -0.0136529
-38.3613 23.277 -7.91973 -0.84812 0.529805 -0.00014653
-38.3916 23.2283 -6.72688 -0.855143 0.518388 0.00215448
-38.3927 23.2181 -5.47654 -0.857503 0.514461 0.00437977
-38.4053 23.1906 -4.35978 -0.859685 0.510814 0.0031986
-38.3789 23.2283 -3.09975 -0.862072 0.506766 0.00440386
-38.3752 23.2224 -1.82141 -0.863274 0.504702 0.00572797
-38.3829 23.1981 -0.713858 -0.863701 0.503978 0.00525764
-38.376 23.1962 0.458476 -0.863179 0.504857 0.00645763
-38.3892 23.1593 1.56831 -0.862702 0.505648 0.00808144
-38.3685 23.1792 2.78455 -0.862093 0.506713 0.00615025
-38.3792 23.1438 3.9311 -0.85865 0.512522 0.00640866
-38.3407 23.1783 5.05454 -0.850501 0.52595 0.00492239
-38.3234 23.1821 6.20077 -0.843918 0.536456 0.0041883
-38.3539 23.1142 7.44256 -0.838049 0.545506 0.00946094
-38.3455 23.1039 8.55502 -0.83039 0.556941 0.016383
-38.3179 23.1131 9.79401 -0.821907 0.56905 0.0233956
-38.319 23.0853 10.9113 -0.809149 0.58757 0.00625172
-38.3038 23.0767 12.033 -0.792734 0.609145 0.0226961
-38.2717 23.0559 13.2999 -0.773227 0.633256 0.0331283
-38.2587 23.0259 14.5232 -0.756525 0.653418 0.0260555
-38.2658 22.9696 15.634 -0.73512 0.677008 0.0345614
-38.1743 23.0198 16.7312 -0.731787 0.680894 0.0295253
-37.5032 23.6899 17.4381 -0.715972 0.697175 0.0364807
-36.7642 24.4399 17.7962 -0.726799 0.683797 0.0646988
-35.9945 25.2298 18.012 -0.72999 0.679665 0.0719059
-35.5738 25.6021 18.9281 -0.749618 0.660274 0.0305023
-35.3543 25.7973 19.9995 -0.748643 0.662003 -0.00770225
-34.7016 26.4708 20.4025 -0.718002 0.695969 0.00894472
-33.9178 27.27 20.396 -0.711236 0.702839 0.0126576
-33.1038 28.0831 20.4557 -0.706159 0.707823 0.0180489
-32.1999 28.9802 20.4528 -0.706074 0.707857 0.0199647
-31.3461 29.8444 20.4667 -0.714102 0.699602 0.0248314
-30.4056 30.8106 20.4432 -0.716574 0.696682 0.0340149
-29.3667 31.892 20.3674 -0.717996 0.694362 0.0484071
-28.496 32.7706 20.4608 -0.713297 0.698775 0.0540279
-27.6058 33.6776 20.4475 -0.707775 0.704459 0.052721
-26.7371 34.5483 20.4193 -0.706578 0.70503 0.0604898
-25.7596 35.5242 20.3616 -0.705541 0.705574 0.0659464
-24.8187 36.4377 20.2591 -0.692541 0.719394 0.0534776
-23.9182 37.2536 20.4044 -0.676182 0.735326 0.0451088
-23.0032 38.0878 20.3194 -0.669979 0.740547 0.052146
-21.9225 39.0223 20.2278 -0.650457 0.758201 0.0451265
-20.9669 39.7995 20.3363 -0.632501 0.77362 0.0381408
-20.0084 40.5629 20.3738 -0.620891 0.782824 0.0409896
-18.8686 41.4608 20.291 -0.613845 0.78799 0.0474835
-17.725 42.3516 20.3148 -0.615151 0.787633 0.0349679
-16.5928 43.2506 20.2909 -0.62148 0.782757 0.0324668
-15.6622 44.03 20.1575 -0.643621 0.765268 0.00548724
-15.6715 44.0236 19.0254 -0.627425 0.778275 0.0196781
-15.2837 44.3967 17.9798 -0.704942 0.689614 0.113607
-14.4545 45.268 17.8328 -0.751804 0.65457 -0.0616288
-13.6102 46.1083 17.8747 -0.610464 0.747414 -0.260426
-12.8328 46.9218 18.1845 -0.202881 0.888411 -0.348692
-12.5645 47.0553 19.4941 -0.142398 0.988948 -0.0412904
-11.8736 47.1945 20.4308 -0.166468 0.9856 -0.0278518
-10.6166 47.388 20.389 -0.120846 0.991519 -0.0478059
-9.38927 47.5347 20.3855 -0.11202 0.992302 -0.0528108
-8.20254 47.6651 20.4477 -0.0573716 0.996692 -0.057559
-7.08716 47.7233 20.374 -0.0405449 0.99874 -0.029585
-5.98124 47.7404 20.4383 -0.0123666 0.999271 -0.0361192
-4.68976 47.7425 20.391 0.00143025 0.999456 -0.0329395
-3.33665 47.7394 20.3447 0.00338969 0.999685 -0.0248486
-2.18795 47.7323 20.3453 0.00997973 0.999656 -0.0241644
-1.06408 47.7206 20.4943 0.0200066 0.999691 -0.0147534
0.119487 47.6964 20.437 0.02034 0.999692 -0.0142033
1.2645 47.6729 20.492 0.0214112 0.999671 -0.0140922
2.49724 47.6443 20.5227 0.0267315 0.999598 -0.00939589
4.08291 47.5944 20.3691 0.03292 0.999429 -0.00756002
5.21835 47.5563 20.3513 0.0332239 0.999438 -0.00344863
6.37798 47.5207 20.2666 0.0298013 0.999552 -0.00272347
7.50589 47.4898 20.4362 0.0302584 0.999514 -0.00748699
8.82544 47.4477 20.3652 0.0330978 0.9994 -0.00982147
10.034 47.4077 20.3931 0.0333616 0.999416 -0.00735576
11.1321 47.3731 20.466 0.0323674 0.999455 -0.00639615
12.3953 47.3294 20.0524 0.0326299 0.999448 -0.00604017
12.3932 47.3221 18.8888 0.0266978 0.999544 -0.0141303
12.0526 47.3079 18.1228 0.0458159 0.996847 -0.0598962
10.8863 47.3568 18.4016 0.0379908 0.998387 -0.041912
9.62834 47.4024 18.6953 0.0295333 0.99938 -0.0182963
8.35373 47.4445 18.7936 0.034081 0.999323 -0.0138404
7.07959 47.4865 18.7689 0.0308647 0.999476 -0.00960052
5.98199 47.5216 18.783 0.0309812 0.999439 -0.0127612
4.87506 47.5557 18.7167 0.0320889 0.99943 -0.0103202
3.4015 47.6001 18.7404 0.0265468 0.99956 -0.0127043
1.90475 47.6351 18.7209 0.0225184 0.999613 -0.0162723
0.758379 47.6578 18.765 0.0201484 0.999679 -0.0153441
-0.487615 47.6752 18.7189 0.0154156 0.999585 -0.024094
-1.70646 47.6879 18.7513 0.00439259 0.999573 -0.0288474
-3.03405 47.685 18.5087 -0.00658855 0.999151 -0.0406687
-4.17994 47.6617 18.1465 -0.0171265 0.998505 -0.0502197
-5.12648 47.602 17.5552 -0.0274361 0.997481 -0.0651272
-5.88117 47.5219 16.7305 -0.0389897 0.996774 -0.06956
-6.25481 47.4594 16.307 -0.0593843 0.993275 -0.0990358
31.495 33.4253 -8.31397 0.69958 0.693408 -0.171994
30.7611 33.9955 -8.91736 0.688907 0.701467 -0.182543
30.0373 34.4439 -9.79398 0.686105 0.697846 -0.20555
29.1776 35.0652 -10.4993 0.669988 0.713426 -0.205277
28.3229 35.7135 -11.0099 0.669225 0.710527 -0.217459
27.4589 36.4224 -11.3123 0.646878 0.730004 -0.220551
26.4634 37.2245 -11.5761 0.638013 0.742982 -0.202276
25.626 37.9094 -11.6901 0.624669 0.751438 -0.212383
24.6447 38.714 -11.6918 0.60767 0.766669 -0.207022
23.6932 39.4548 -11.6257 0.580201 0.78865 -0.203465
22.7391 40.1842 -11.5033 0.582639 0.794855 -0.169521
21.7822 40.953 -11.0633 0.548361 0.822878 -0.148902
20.9611 41.5709 -10.5545 0.525969 0.838696 -0.141226
20.2925 42.0941 -9.88016 0.517139 0.845692 -0.131807
19.5878 42.6253 -9.01768 0.486533 0.865831 -0.116712
18.8528 43.1125 -8.22061 0.437365 0.892201 -0.112649
18.1574 43.5298 -7.40955 0.414377 0.906486 -0.0810836
17.5707 43.8655 -6.5157 0.394885 0.915462 -0.0774258
16.6756 44.2231 -6.80326 0.369281 0.927066 -0.0645985
15.7696 44.5406 -7.48152 0.361533 0.930757 -0.0543369
14.6946 44.898 -8.06253 0.321715 0.946485 -0.0258179
13.6479 45.2268 -8.4897 0.309611 0.950785 0.0121953
12.5358 45.5755 -8.77264 0.282776 0.959152 0.00806181
11.1278 45.9714 -9.03711 0.258816 0.965557 0.0267286
9.84119 46.2545 -9.21344 0.206196 0.977793 0.0356805
9.77942 46.3206 -10.4033 0.183195 0.981417 0.0550279
9.81513 46.4252 -11.8133 0.187837 0.978333 0.0865564
9.58215 46.567 -12.8429 0.201201 0.974767 0.0966836
9.31608 46.7277 -13.8706 0.185467 0.97529 0.120038
8.90279 46.9519 -15.1054 0.171196 0.977336 0.124521
8.47965 47.158 -16.1334 0.123715 0.982392 0.137837
7.88318 47.3315 -17.0077 0.0825729 0.991767 0.0963772
7.29041 47.4635 -18.0423 0.0605897 0.994529 0.0842965
8.05477 47.4375 -18.335 0.0642208 0.993419 0.0946778
9.50239 47.2978 -18.2165 0.119533 0.98392 0.132712
10.5784 46.9884 -17.3469 0.202869 0.960527 0.189124
11.3647 46.6105 -16.4908 0.33046 0.923307 0.195706
12.3362 46.2008 -16.1529 0.422418 0.895012 0.129391
13.4242 45.5882 -15.9142 0.520681 0.847371 0.0814106
14.4109 44.9501 -15.8021 0.487749 0.872933 0.00938632
15.3396 44.3309 -16.0574 0.56622 0.821824 -0.0604857
16.1719 43.7185 -16.746 0.553212 0.828701 -0.0846459
16.6702 43.3007 -17.6131 0.550052 0.8304 -0.0887637
17.6926 42.5465 -18.2727 0.560978 0.82393 -0.0802675
18.6628 41.9005 -18.2136 0.555525 0.825756 -0.097568
19.6069 41.2566 -18.1713 0.571881 0.814899 -0.0943001
20.5118 40.6059 -18.1972 0.587514 0.803978 -0.091907
21.466 39.8854 -18.239 0.608016 0.788571 -0.0920473
22.3228 39.1933 -18.3631 0.629865 0.771186 -0.0924246
23.2022 38.4747 -18.2825 0.640648 0.760717 -0.104306
24.2218 37.5898 -18.2994 0.654571 0.748948 -0.102942
25.2367 36.6996 -18.2616 0.666116 0.736874 -0.114703
26.1061 35.8846 -18.3352 0.678301 0.727698 -0.101268
26.9 35.1259 -18.3615 0.685382 0.720734 -0.103897
27.8701 34.183 -18.3929 0.691662 0.711443 -0.123751
28.697 33.3711 -18.368 0.705467 0.699642 -0.1124
29.6107 32.4137 -18.3938 0.701213 0.705591 -0.102185
30.43 31.5823 -18.4022 0.706118 0.698267 -0.117557
31.2027 30.7972 -18.3496 0.720183 0.683791 -0.116652
31.954 30.0388 -18.3474 0.695948 0.708588 -0.116444
32.7128 29.2774 -18.3162 0.699647 0.704198 -0.120784
33.4394 28.5834 -18.0792 0.709385 0.692208 -0.132647
32.729 29.3782 -17.6986 0.698813 0.698918 -0.152231
31.8532 30.3391 -17.3836 0.704638 0.689049 -0.168876
31.246 31.2084 -16.3706 0.695554 0.69221 -0.19216
30.8754 31.8752 -15.3671 0.68917 0.695708 -0.202295
30.6235 32.4639 -14.2574 0.685929 0.696017 -0.212272
30.436 32.9921 -13.182 0.68632 0.692536 -0.222168
30.4572 33.3826 -11.9151 0.68531 0.691324 -0.228958
30.6923 33.5449 -10.6233 0.6997 0.684108 -0.205955
31.1566 33.4459 -9.42914 0.694044 0.689516 -0.207015
31.7172 33.1344 -8.55728 0.717437 0.670145 -0.189209
32.2638 32.7423 -7.74526 0.728045 0.666906 -0.158582
32.8009 32.3274 -7.01008 0.725537 0.672838 -0.144176
33.559 31.6035 -6.37169 0.757919 0.640459 -0.123984
34.3737 30.7305 -5.85991 0.761586 0.636571 -0.121504
35.1005 29.8083 -5.51671 0.810039 0.5797 -0.0864672
35.8091 28.8206 -5.21288 0.831434 0.548673 -0.0868949
36.4269 27.8975 -4.95822 0.838982 0.538098 -0.0809939
37.0479 26.8859 -4.86107 0.852061 0.519171 -0.0656623
37.8007 25.6207 -4.67991 0.868749 0.493326 -0.0425158
38.0349 25.2946 -3.62778 0.871566 0.48739 -0.0531381
38.0652 25.3571 -2.48913 0.876523 0.479824 -0.0384257
38.0995 25.4452 -1.09844 0.88111 0.470492 -0.0465323
38.1742 25.4119 0.127759 0.878698 0.474677 -0.0495882
38.1571 25.5473 1.1083 0.885045 0.464827 -0.0251216
37.6694 26.3563 0.181324 0.877732 0.47553 -0.0587254
37.2611 27.0059 -0.614215 0.873798 0.483304 -0.053797
36.7199 27.809 -1.71214 0.863049 0.501018 -0.0642399
36.1037 28.7167 -2.80197 0.858725 0.50933 -0.056338
35.5311 29.4829 -3.57028 0.828376 0.555615 -0.0713081
34.9075 30.2464 -4.32747 0.802695 0.590861 -0.0810133
34.2563 30.9956 -4.99875 0.778025 0.622373 -0.0835747
33.59 31.695 -5.69742 0.753258 0.646429 -0.121339
32.8342 32.405 -6.47368 0.732287 0.664696 -0.148104
32.1935 32.9586 -7.1423 0.730424 0.666104 -0.150926
31.5234 33.4617 -8.03304 0.706529 0.68916 -0.160855
31.1372 34.0481 -7.23008 0.695915 0.699418 -0.162001
32.0113 33.3925 -6.0631 0.723597 0.675405 -0.142165
32.7097 32.7726 -5.38159 0.736954 0.665337 -0.11882
33.4067 32.1186 -4.60652 0.765634 0.63279 -0.113698
34.0767 31.3849 -4.02074 0.785244 0.609628 -0.107426
34.7017 30.6727 -3.30113 0.800877 0.592038 -0.0894768
35.3191 29.9191 -2.57324 0.816662 0.5734 -0.0646111
35.9045 29.1588 -1.7897 0.834415 0.546853 -0.0631798
36.419 28.4219 -0.880426 0.849838 0.524522 -0.0514564
36.8664 27.7886 0.0543905 0.856903 0.512021 -0.0574562
37.291 27.1323 0.86378 0.875052 0.480316 -0.0597211
37.6892 26.4648 1.66896 0.880623 0.472821 -0.0292877
38.1444 25.6543 2.54316 0.883947 0.466607 -0.0302387
38.7917 24.4696 3.4453 0.886255 0.462167 -0.0308743
38.8358 24.3858 3.46116 0.887261 0.460268 -0.0303377
38.7567 24.4796 2.56608 0.886771 0.461384 -0.0276062
38.7025 24.5125 1.32145 0.889269 0.456312 -0.0301539
38.6457 24.4922 -0.118961 0.886688 0.460728 -0.0389153
38.5954 24.489 -1.27724 0.884237 0.465534 -0.0374651
38.5754 24.4286 -2.40441 0.881645 0.469919 -0.0433449
38.5524 24.3683 -3.49939 0.880364 0.471754 -0.0490376
38.459 24.4373 -4.60156 0.879638 0.474036 -0.0390714
38.2939 24.6369 -5.66562 0.874843 0.48198 -0.0483907
37.7259 25.6311 -5.78902 0.865745 0.495785 -0.06773
37.1526 26.5973 -5.85109 0.848247 0.523655 -0.0791304
36.4858 27.6581 -5.93021 0.83913 0.537316 -0.0844704
35.8972 28.529 -6.20189 0.830935 0.548211 -0.0936757
35.2899 29.3757 -6.46914 0.808947 0.575928 -0.115183
34.6289 30.1831 -6.83482 0.785378 0.60383 -0.135214
33.9283 30.9817 -7.20303 0.775767 0.614811 -0.142102
33.2194 31.6934 -7.78731 0.741104 0.649266 -0.169443
32.511 32.2366 -8.6743 0.724994 0.666759 -0.172676
31.9474 32.5953 -9.53706 0.707836 0.675935 -0.205136
31.4494 32.8053 -10.5233 0.700463 0.679893 -0.21702
31.1792 32.6308 -11.9663 0.695271 0.685929 -0.214706
31.287 32.0955 -13.2976 0.695109 0.684999 -0.218167
31.5103 31.5052 -14.4633 0.697899 0.685657 -0.206901
31.8266 30.8781 -15.4646 0.699778 0.684741 -0.203522
32.2753 30.2169 -16.2117 0.705443 0.684791 -0.18279
33.0725 29.2423 -16.7932 0.703539 0.687695 -0.179145
33.834 28.4236 -16.9369 0.711402 0.682064 -0.169399
34.6696 27.5409 -16.9692 0.717232 0.677952 -0.161089
34.4235 27.6327 -17.7217 0.725156 0.671908 -0.150628
34.0551 27.8451 -18.7725 0.71798 0.692736 -0.0679848
33.4366 28.4293 -19.3533 0.710034 0.703152 -0.0378009
32.5276 29.339 -19.4049 0.708682 0.704572 -0.0359657
31.7208 30.143 -19.4135 0.70599 0.707424 -0.0335336
30.8609 31.014 -19.425 0.708684 0.704172 -0.0419426
30.0519 31.8215 -19.5054 0.705512 0.707015 -0.0488122
29.1636 32.7522 -19.3689 0.722263 0.688685 -0.0636294
28.3779 33.5308 -19.4672 0.702698 0.706529 -0.0838585
27.6038 34.2985 -19.4377 0.697821 0.710971 -0.0869866
26.6842 35.1915 -19.428 0.688398 0.721506 -0.0732705
25.8423 35.984 -19.388 0.678303 0.727696 -0.101269
24.9955 36.7739 -19.3527 0.668788 0.738592 -0.0837307
23.9759 37.674 -19.3381 0.658188 0.748961 -0.0764563
23.0663 38.4583 -19.3287 0.638731 0.765769 -0.0749696
22.242 39.1302 -19.4486 0.621025 0.780656 -0.0700328
21.0241 40.1009 -19.2387 0.597622 0.795512 -0.10004
20.0918 40.783 -19.2716 0.577391 0.812247 -0.0811781
19.1749 41.4363 -19.2736 0.567673 0.82068 -0.0643546
18.2222 42.0832 -19.3334 0.562695 0.822831 -0.0794822
17.2468 42.7525 -19.3229 0.566677 0.822184 -0.0536099
16.1845 43.5077 -19.0316 0.56047 0.826505 -0.0518555
15.8796 43.7887 -18.0016 0.557533 0.826316 -0.0797318
15.3158 44.2519 -17.2039 0.576043 0.812785 -0.0844539
14.4267 44.9259 -16.8215 0.6199 0.781414 -0.0413065
13.4857 45.6404 -16.9693 0.607138 0.782953 0.124481
12.5101 46.3137 -17.132 0.53823 0.796641 0.275085
11.6653 46.7992 -17.6142 0.292565 0.925356 0.241086
11.1018 47.1587 -18.695 0.179542 0.967531 0.17788
10.6637 47.3325 -19.3795 0.11973 0.991725 0.0458157
9.44236 47.4551 -19.3565 0.0883427 0.989778 0.111958
8.35425 47.531 -19.4315 0.0544024 0.993528 0.0995247
7.2002 47.5826 -19.3733 0.0277539 0.995824 0.0831779
6.11506 47.5919 -19.3488 0.0173073 0.998422 0.0530488
5.00173 47.5996 -19.347 -0.0151258 0.999166 0.0371882
3.89375 47.5787 -19.3605 -0.0290244 0.998772 0.0392125
3.65618 47.5636 -19.1517 -0.0290198 0.998772 0.0392078
4.5941 47.5603 -18.6226 -0.00874828 0.998571 0.0514966
5.49581 47.5218 -17.9681 0.00753072 0.997762 0.0656649
6.30922 47.4446 -17.1621 0.0494499 0.99568 0.0773499
7.07502 47.3247 -16.325 0.0654963 0.992382 0.103263
7.64545 47.1555 -15.3576 0.111553 0.987198 0.113819
8.11929 46.9609 -14.0607 0.143409 0.982879 0.11224
8.46769 46.7862 -13.0047 0.158872 0.982134 0.100629
8.73661 46.63 -11.8198 0.147 0.985617 0.0833647
8.76098 46.5292 -10.5681 0.189505 0.979468 0.0687732
8.45942 46.5122 -9.51135 0.151034 0.987638 0.0419554
8.08018 46.5331 -8.51628 0.154648 0.98739 0.0338362
8.57655 46.4354 -8.04305 0.161589 0.986087 0.0390055
9.82854 46.2179 -8.13507 0.185858 0.982156 0.0257291
10.9817 45.9725 -7.98872 0.227624 0.973383 0.0266884
12.0544 45.6901 -7.74321 0.262741 0.96458 0.00215736
13.5341 45.2855 -7.37854 0.284402 0.958617 -0.0130192
14.7328 44.9297 -6.86615 0.313385 0.948555 -0.0451019
