-28.4765 33.2999 20.4026 -0.720425 0.691732 0.0496907
-27.6887 34.0931 20.4356 -0.708196 0.703772 0.0562458
-26.7615 35.0197 20.4341 -0.70137 0.710161 0.0612468
-25.9336 35.8391 20.3834 -0.688786 0.72304 0.0520973
-24.9578 36.7735 20.3692 -0.683783 0.72724 0.0590651
-24.07 37.5938 20.4129 -0.674064 0.73727 0.0455055
-23.1461 38.4312 20.4162 -0.657748 0.751988 0.0419386
-22.3152 39.1654 20.3651 -0.650413 0.757789 0.0507069
-21.4754 39.8782 20.2985 -0.639851 0.767438 0.0386346
-20.4591 40.6973 20.3696 -0.620777 0.782791 0.0432846
-19.4687 41.4817 20.316 -0.615893 0.786662 0.042878
-18.5643 42.1854 20.3721 -0.615103 0.787376 0.0410818
-17.6932 42.8707 20.324 -0.62158 0.78256 0.0351934
-16.7978 43.5861 20.2988 -0.641186 0.766824 0.029354
-15.8522 44.3756 20.0849 -0.637963 0.769941 0.00849052
-15.8338 44.3964 18.9554 -0.619324 0.784874 0.015928
-15.4658 44.7498 17.9801 -0.660243 0.7429 0.110358
-14.6371 45.5788 17.8014 -0.742918 0.661317 -0.0818828
-13.8704 46.375 17.846 -0.659286 0.703201 -0.266177
-13.1279 47.134 18.0814 -0.357259 0.794008 -0.491851
-12.7053 47.3561 19.0868 -0.115055 0.99191 -0.0315763
-12.2963 47.4688 20.3873 -0.157578 0.985546 -0.0621929
-11.1502 47.648 20.3598 -0.128895 0.989293 -0.0640639
-9.82875 47.7933 20.4169 -0.101195 0.992744 -0.0646397
-8.73194 47.8953 20.3677 -0.0926317 0.99357 -0.065013
-7.5191 47.9726 20.3966 -0.0445916 0.998061 -0.0420684
-5.95571 48.0067 20.3731 -0.0123963 0.999368 -0.0333124
-4.88986 48.0102 20.3695 -0.000301067 0.999477 -0.0320875
-3.72697 48.0081 20.3426 0.0018254 0.999735 -0.0228776
-2.63107 48.0045 20.4026 0.00663366 0.999738 -0.0219138
-1.54625 47.9955 20.4372 0.0110203 0.99976 -0.0185189
-0.470135 47.9795 20.4826 0.0172581 0.999777 -0.0121409
0.622803 47.9584 20.3689 0.0192921 0.999738 -0.012321
2.02732 47.9324 20.4714 0.0215472 0.999715 -0.00971657
3.48089 47.8955 20.4041 0.0275878 0.999586 -0.00796552
4.74587 47.8593 20.3702 0.0265937 0.99963 -0.00573314
6.06494 47.8255 20.5124 0.0258943 0.999657 -0.00395965
7.1847 47.7997 20.4231 0.0219414 0.999756 -0.00190573
8.3345 47.7717 20.3945 0.0241913 0.999706 -0.0017096
9.41733 47.7447 20.3009 0.0253395 0.999638 -0.00908773
10.5912 47.7169 20.4394 0.0236361 0.99968 -0.00899302
11.8032 47.6863 20.4396 0.0314801 0.999467 -0.00584501
12.596 47.6531 19.7059 0.0345774 0.999348 -0.0103964
12.5559 47.6379 18.6455 0.0216459 0.999033 -0.0382773
12.7971 47.5778 17.8892 0.0748525 0.986226 -0.147495
11.7756 47.6346 18.0377 0.0330534 0.997972 -0.0543949
10.6976 47.6857 18.4375 0.0316221 0.99883 -0.0351326
9.46058 47.7229 18.7267 0.0245723 0.999574 -0.0157459
8.25102 47.755 18.7295 0.0279616 0.999527 -0.0127691
7.1588 47.785 18.692 0.0279434 0.999528 -0.0127566
5.79156 47.8216 18.794 0.0251084 0.999655 -0.00773099
4.69885 47.8496 18.7582 0.0263663 0.999624 -0.00757114
3.56752 47.8789 18.7544 0.0258657 0.999628 -0.00860929
2.42843 47.9036 18.6286 0.0201629 0.999726 -0.0118819
1.06618 47.9284 18.6498 0.0165877 0.999787 -0.0123161
-0.417276 47.9499 18.7211 0.00946288 0.999756 -0.0199611
-1.49245 47.9621 18.8061 0.00188642 0.999616 -0.0276326
-2.59373 47.9597 18.647 0.0035001 0.999616 -0.0274143
-3.75167 47.9423 18.2942 -0.0107209 0.999169 -0.0393306
-4.86848 47.8908 17.7047 -0.0343081 0.99784 -0.0560182
-5.69626 47.8177 17.014 -0.0386659 0.996938 -0.0678324
-6.48613 47.7169 16.1513 -0.0468015 0.993684 -0.101984
-7.06264 47.582 15.2193 -0.0647286 0.991304 -0.114574
-7.58355 47.4022 14.2383 -0.0990199 0.983496 -0.15085
-7.85805 47.2122 13.1773 -0.135613 0.98197 -0.1317
-8.05933 46.9998 11.8346 -0.138271 0.980819 -0.137384
-8.07238 46.8413 10.4345 -0.162912 0.980709 -0.107452
-7.81579 46.7744 9.34553 -0.167522 0.982213 -0.0848225
-7.15187 46.781 8.16632 -0.149736 0.986151 -0.0713124
-6.27506 46.8547 7.3993 -0.143885 0.986762 -0.07482
-5.44209 46.9188 6.51522 -0.131327 0.989609 -0.0585342
-4.66174 46.9667 5.7076 -0.106726 0.992725 -0.0557436
-3.87753 47.0117 4.9078 -0.0953232 0.994491 -0.0435927
-3.02099 47.0521 4.06115 -0.088819 0.995347 -0.0373643
-2.14821 47.095 3.12746 -0.0887603 0.995352 -0.0373516
-1.31524 47.1233 2.2554 -0.0619553 0.997722 -0.0267044
-0.377218 47.1492 1.28185 -0.0427436 0.998746 -0.0260841
0.561629 47.1643 0.408188 -0.0320529 0.999348 -0.0161544
1.61518 47.1687 -0.624012 -0.0189802 0.999744 -0.0123458
2.39187 47.1602 -1.57619 -0.00280844 0.999952 -0.00941041
3.05705 47.1457 -2.46756 0.018667 0.999792 -0.00816823
3.914 47.1211 -3.2395 0.0402336 0.99917 -0.00619413
4.7787 47.0839 -4.09319 0.0505901 0.998701 0.00583168
5.57541 47.034 -4.88452 0.0764385 0.997074 -0.000975784
6.41917 46.9687 -5.65105 0.095587 0.995293 0.0158469
7.2731 46.8909 -6.435 0.116214 0.99308 0.0165075
8.31595 46.7624 -6.90454 0.145172 0.989348 0.0107915
9.38279 46.5937 -7.08024 0.165732 0.985885 0.0237352
10.6493 46.3475 -6.96054 0.201191 0.979409 -0.016769
11.6891 46.1341 -6.78666 0.208101 0.978007 -0.0140324
12.722 45.8782 -6.55859 0.256768 0.966127 -0.0254839
13.8767 45.567 -6.22144 0.275877 0.960681 -0.0309282
14.9414 45.2771 -5.63724 0.288748 0.956519 -0.0396924
15.8852 45.0016 -4.99803 0.319842 0.946334 -0.046064
16.7475 44.7674 -4.06534 0.335333 0.939942 -0.0620218
17.1869 44.6874 -2.79898 0.354469 0.93291 -0.0634723
17.4131 44.693 -1.47898 0.351135 0.933769 -0.0691373
17.3313 44.8089 -0.30359 0.338063 0.938164 -0.0745749
17.3549 44.8903 0.831708 0.340354 0.937445 -0.0731859
17.377 44.9853 2.19446 0.359744 0.930159 -0.0734085
17.3984 45.069 3.41091 0.343073 0.936607 -0.0711971
17.3444 45.1782 4.49067 0.34379 0.935292 -0.0838837
17.3871 45.2733 5.96765 0.357605 0.931866 -0.061194
17.496 45.3123 7.32176 0.347578 0.934467 -0.0755987
17.4177 45.4584 8.5282 0.336584 0.938639 -0.0741481
17.4645 45.5041 9.85845 0.353164 0.933957 -0.0535047
17.4853 45.5836 10.9924 0.352332 0.932795 -0.0758679
17.4007 45.7429 12.3179 0.34894 0.931338 -0.104167
16.9679 46.0211 13.3993 0.347056 0.933128 -0.0939388
16.1729 46.4399 14.7265 0.342413 0.935626 -0.0857792
15.3274 46.832 15.8647 0.25176 0.958934 -0.130627
14.4844 47.1285 16.6243 0.195723 0.971483 -0.132675
13.6521 47.4168 17.4749 0.1525 0.979007 -0.133595
13.9094 47.4184 17.8081 0.172161 0.974824 -0.1417
15.0879 47.1961 17.8121 0.194711 0.966563 -0.166514
16.2779 46.9483 17.9609 0.304637 0.915512 -0.262743
16.8548 46.7474 19.035 0.521307 0.853138 -0.0180719
16.9826 46.685 20.1725 0.496401 0.868071 0.000386215
17.7951 46.2026 20.3695 0.562058 0.826961 -0.0150464
19.2015 45.2171 20.4292 0.574888 0.818111 -0.0139058
20.2461 44.3878 20.4424 0.62277 0.782331 0.0107713
21.095 43.6221 20.4327 0.67833 0.734731 -0.00379064
21.8719 42.885 20.4946 0.709246 0.704674 0.00351515
22.6158 42.1069 20.3585 0.726859 0.686739 0.00231272
23.5224 41.1229 20.331 0.74456 0.667265 0.0196906
24.3521 40.1804 20.5053 0.757501 0.652799 -0.00671139
25.0968 39.3359 20.4458 0.739519 0.672774 0.0197611
25.8701 38.5029 20.3999 0.73209 0.681103 0.0119718
26.6148 37.719 20.3634 0.722686 0.690995 0.015836
27.3592 36.9188 20.3953 0.731889 0.680824 0.0285869
28.1816 36.0336 20.4097 0.73191 0.680871 0.0269004
29.0723 35.0901 20.4464 0.717527 0.696321 0.0170472
29.8218 34.3136 20.5305 0.71921 0.694696 0.0115901
30.6074 33.4996 20.4517 0.724748 0.688767 0.0175227
31.393 32.6677 20.4088 0.72956 0.683913 -0.00228631
31.6526 32.3987 19.2563 0.751074 0.659586 0.02888
31.3664 32.7835 18.4423 0.731308 0.678063 0.0703614
30.4978 33.7056 18.5771 0.725263 0.684932 0.0697305
29.6881 34.5513 18.6428 0.722406 0.688086 0.0683186
28.8854 35.4033 18.6215 0.72307 0.686065 0.0805069
28.1181 36.2485 18.5339 0.726289 0.680516 0.0969602
27.3145 37.1055 18.5662 0.736841 0.67065 0.0850427
26.5732 37.9328 18.3511 0.720371 0.686651 0.0978588
25.8057 38.7294 18.3348 0.719487 0.685988 0.108443
25.039 39.5753 18.2355 0.73353 0.670404 0.110453
24.1522 40.5831 18.1198 0.739469 0.665855 0.099114
23.3237 41.5267 17.5732 0.721328 0.68961 0.0619895
22.5887 42.2989 17.1764 0.685821 0.725981 0.0510001
21.8765 43.0079 16.5452 0.655589 0.75445 0.0317678
21.2621 43.5705 15.7028 0.629966 0.775814 0.00952473
20.4539 44.1766 14.7071 0.601986 0.798311 -0.0122781
19.7365 44.6592 13.169 0.504403 0.861898 -0.0141773
19.3668 44.86 11.9607 0.429034 0.901837 -0.0249671
19.1515 44.8777 10.792 0.40007 0.914138 -0.0655355
19.2235 44.7576 9.51186 0.428648 0.901474 -0.057661
19.2514 44.645 8.06019 0.415399 0.906951 -0.0698807
19.2251 44.5779 6.94017 0.416436 0.90723 -0.0592827
19.2547 44.501 5.78783 0.391447 0.918812 -0.0505285
19.2424 44.4347 4.67222 0.392128 0.917402 -0.0678973
19.1853 44.3746 3.60455 0.394335 0.915709 -0.0773103
19.1852 44.2992 2.52839 0.393746 0.917802 -0.0510154
19.2326 44.1955 1.43034 0.384285 0.91909 -0.0871677
19.1974 44.1054 0.223305 0.387449 0.918963 -0.0734175
19.0392 44.0529 -1.23701 0.390361 0.917632 -0.0746328
19.0469 43.9415 -2.68439 0.393379 0.917278 -0.062014
18.9299 43.9237 -3.78985 0.399687 0.915323 -0.0483864
19.3089 43.6363 -5.21965 0.420059 0.903051 -0.0897218
19.8092 43.2917 -6.16288 0.441336 0.893495 -0.0829998
20.5257 42.8455 -6.87414 0.46677 0.877696 -0.10771
21.2093 42.3355 -7.6715 0.504862 0.853878 -0.126408
21.8298 41.8407 -8.44923 0.531995 0.833389 -0.149813
22.6421 41.2257 -8.99255 0.542792 0.827919 -0.14047
23.6013 40.4925 -9.38579 0.560805 0.811332 -0.164861
24.4526 39.8388 -9.55331 0.579718 0.794659 -0.18012
25.5698 38.9815 -9.63672 0.59474 0.78014 -0.194077
26.5214 38.2338 -9.54431 0.630993 0.746943 -0.209569
27.5611 37.4459 -9.21616 0.628672 0.749132 -0.208732
28.365 36.8959 -8.7785 0.638966 0.738537 -0.214482
29.0888 36.4168 -8.15052 0.658146 0.729766 -0.185163
29.8768 35.8646 -7.36688 0.675801 0.719724 -0.158968
30.5461 35.4026 -6.59791 0.677309 0.713847 -0.177975
31.268 34.9202 -5.65271 0.700275 0.701459 -0.131015
31.9618 34.3751 -4.82567 0.710198 0.690511 -0.13716
32.6453 33.7876 -4.08372 0.73595 0.670243 -0.0956615
33.2839 33.1595 -3.45183 0.749715 0.65596 -0.0874306
33.949 32.4824 -2.86346 0.761542 0.639918 -0.102757
34.6268 31.73 -2.15295 0.794346 0.60337 -0.0704192
35.2618 30.9442 -1.49068 0.810658 0.581043 -0.0714636
35.8733 30.1985 -0.489576 0.828843 0.557947 -0.0414097
36.2893 29.6397 0.322732 0.834396 0.547419 -0.0641578
36.8379 28.8739 1.33578 0.843652 0.535956 -0.0316619
37.2654 28.2033 2.09405 0.860331 0.509217 -0.0184673
37.6925 27.5019 2.90017 0.87604 0.481163 -0.0288822
38.1315 26.7158 3.67848 0.882104 0.470512 -0.0226195
38.5469 25.9668 4.67094 0.888527 0.458312 -0.0215417
38.8047 25.5021 5.65086 0.88356 0.467901 -0.0177719
39.0684 25.0628 6.65439 0.880613 0.473326 -0.0220006
39.2184 24.8239 7.70313 0.880759 0.473139 -0.0200067
39.3743 24.6023 9.01019 0.877633 0.478407 -0.0297861
39.5124 24.3906 10.1252 0.874271 0.485329 -0.0102869
39.4991 24.425 11.305 0.867836 0.496491 -0.0133047
39.3645 24.6743 12.3557 0.850358 0.526112 -0.00123183
39.1337 24.9833 13.5348 0.821894 0.568707 0.0210249
38.734 25.5292 14.5661 0.811395 0.584487 0.00245565
37.9628 26.4548 15.775 0.802305 0.594047 0.0584446
37.1962 27.2641 16.2843 0.737948 0.664233 0.119281
36.4193 27.9902 16.8398 0.715338 0.68329 0.146306
35.604 28.6741 17.4284 0.68796 0.70621 0.167266
34.8187 29.3675 17.7735 0.690184 0.700522 0.181425
34.6762 29.4717 17.9127 0.689204 0.700978 0.183321
35.5827 28.596 17.8295 0.687064 0.703193 0.18293
36.461 27.746 17.8337 0.699688 0.700606 0.139958
37.2184 26.9878 17.8705 0.707137 0.699576 0.102652
37.9774 26.234 17.8243 0.697565 0.713451 0.0662695
38.8111 25.3627 17.6772 0.69521 0.714235 -0.00362314
39.4882 24.5745 17.3741 0.742357 0.667704 -0.0504342
40.0012 23.8724 16.6008 0.789617 0.610368 -0.0558838
40.1697 23.5449 15.5088 0.822186 0.567011 -0.0488045
40.1163 23.5394 14.3155 0.836296 0.547656 -0.0239799
40.0547 23.5788 13.1086 0.848453 0.52801 -0.0338355
40.0339 23.5402 11.9776 0.865071 0.50089 -0.0276118
39.9851 23.5708 10.963 0.870266 0.49166 -0.0293228
39.9445 23.5924 9.86633 0.881258 0.472185 -0.0194724
39.9089 23.579 8.61445 0.882602 0.468967 -0.032886
39.8817 23.5533 7.49355 0.888917 0.457131 -0.0292703
39.8557 23.5288 6.4032 0.890129 0.453974 -0.0396723
39.836 23.4902 5.30188 0.893707 0.447263 -0.034394
39.7309 23.6041 4.07351 0.895543 0.443558 -0.0354451
39.7066 23.5708 2.95825 0.894691 0.445395 -0.0339197
39.6763 23.5429 1.79988 0.896288 0.442046 -0.0354922
39.5969 23.6126 0.65579 0.897999 0.438316 -0.0384182
39.5846 23.5505 -0.417939 0.894007 0.446576 -0.0363198
39.5415 23.5336 -1.64716 0.895252 0.444119 -0.0357881
39.4989 23.5085 -2.9442 0.894074 0.446073 -0.0406342
39.43 23.5517 -4.03339 0.892584 0.449199 -0.0389082
39.3905 23.5271 -5.21526 0.886222 0.461753 -0.0373411
39.3559 23.5053 -6.30786 0.882528 0.468603 -0.0394387
39.1403 23.8641 -6.8027 0.87962 0.473731 -0.0429821
38.7425 24.666 -6.13314 0.879611 0.473329 -0.0473638
38.2397 25.6338 -5.70847 0.871907 0.486378 -0.0556104
37.692 26.5932 -5.71417 0.866269 0.495604 -0.062883
36.9636 27.8076 -5.8355 0.851774 0.520299 -0.0614059
36.3823 28.6677 -6.22346 0.835314 0.541936 -0.0924963
35.7915 29.4876 -6.67337 0.820765 0.558604 -0.119365
35.0902 30.3404 -7.09863 0.774515 0.615924 -0.143484
34.4224 31.0321 -7.5674 0.757548 0.634644 -0.152784
33.6319 31.7749 -8.24852 0.745818 0.64141 -0.179858
32.8523 32.4208 -9.01793 0.724261 0.665301 -0.181167
32.1861 32.9093 -9.78216 0.705595 0.676544 -0.21077
31.8692 32.8822 -10.8846 0.701271 0.676078 -0.226137
31.8159 32.5959 -11.9164 0.696205 0.682731 -0.221759
31.903 31.9914 -13.4266 0.697785 0.675701 -0.237742
32.1513 31.3055 -14.7107 0.702599 0.677133 -0.21867
32.5151 30.6616 -15.5795 0.696363 0.6884 -0.202938
33.1627 29.8132 -16.2264 0.703581 0.684677 -0.190233
33.8541 29.0112 -16.5507 0.708697 0.681514 -0.182447
34.6281 28.2608 -16.3417 0.713348 0.677894 -0.177748
35.6749 27.2861 -15.8202 0.725771 0.669219 -0.159378
36.5465 26.4439 -15.3019 0.738078 0.661511 -0.132832
37.3557 25.6095 -14.7145 0.770962 0.628089 -0.105462
38.0313 24.8939 -13.9696 0.794205 0.601727 -0.0792838
38.6402 24.0954 -13.1768 0.830065 0.554426 -0.0600321
39.0074 23.5458 -13.0158 0.840516 0.539483 -0.0499063
39.0041 23.4586 -14.0991 0.826321 0.560372 -0.0563457
38.9246 23.4909 -15.1897 0.817981 0.57372 -0.0418661
38.5557 23.8948 -16.6643 0.789507 0.612695 -0.0358197
38.006 24.5022 -17.4267 0.743219 0.668337 -0.0308374
37.2141 25.2758 -17.8239 0.70088 0.70428 -0.110411
36.3734 26.0939 -17.9857 0.701416 0.700674 -0.130657
35.607 26.8571 -17.9536 0.684395 0.709917 -0.166198
34.6874 27.7794 -17.9288 0.705424 0.685336 -0.180676
34.0321 28.367 -18.4795 0.737782 0.665773 -0.111154
33.9504 28.3602 -19.6294 0.719178 0.694019 -0.0334757
33.5355 28.7641 -20.4362 0.714659 0.699403 -0.00991072
32.7361 29.5741 -20.4673 0.710763 0.703274 -0.0148776
31.8851 30.4232 -20.5163 0.707039 0.707035 -0.014031
30.9288 31.3771 -20.5504 0.699936 0.714071 -0.0138317
30.1014 32.1894 -20.5273 0.694472 0.718987 -0.0273206
29.2603 33.0094 -20.5127 0.707055 0.705915 -0.0419177
28.4262 33.8305 -20.5143 0.70457 0.709059 -0.0285835
27.6189 34.6482 -20.5436 0.708386 0.7043 -0.0456758
26.8109 35.4399 -20.5039 0.696901 0.715004 -0.0556044
25.9519 36.2591 -20.4756 0.683585 0.727128 -0.0632003
25.1147 37.052 -20.3499 0.663011 0.745841 -0.0643249
24.1809 37.8666 -20.4736 0.657942 0.7506 -0.0609028
23.1421 38.7566 -20.4229 0.637792 0.768172 -0.0559638
22.3028 39.4431 -20.4493 0.627056 0.775453 -0.0739832
21.16 40.338 -20.4392 0.607257 0.791854 -0.0648594
20.243 41.0205 -20.4334 0.589041 0.805576 -0.0638615
19.2828 41.701 -20.4022 0.574515 0.817053 -0.0481587
18.2723 42.4074 -20.3837 0.570434 0.81999 -0.047132
17.068 43.2357 -20.4196 0.564092 0.824655 -0.0417616
16.1834 43.8613 -20.4665 0.583342 0.811323 -0.0382985
15.4777 44.4073 -20 0.618809 0.785225 -0.0222785
15.459 44.4583 -18.9416 0.581603 0.811211 -0.0591866
15.004 44.8906 -18.0571 0.631149 0.75335 -0.184702
14.1939 45.6496 -17.9328 0.641613 0.765019 0.0554869
13.3666 46.4124 -17.9617 0.642718 0.72815 0.238141
12.564 47.07 -18.0805 0.191397 0.92486 0.328635
12.3521 47.255 -19.1092 0.137579 0.990163 0.0254686
12.2722 47.3032 -20.1823 0.201941 0.979352 0.0075893
11.1218 47.5062 -20.4408 0.142251 0.987943 0.0553371
9.96122 47.6746 -20.4103 0.105758 0.991372 0.0774448
8.75889 47.8056 -20.4486 0.0896175 0.99255 0.0810691
7.5699 47.8595 -20.5052 0.0356768 0.998135 0.0495368
6.20291 47.8846 -20.4454 0.00221976 0.998945 0.0458776
5.13323 47.8876 -20.4701 -0.023697 0.99899 0.0374706
3.7757 47.8679 -20.4851 -0.0228538 0.999429 0.0233838
2.68305 47.8282 -20.3978 -0.0333078 0.999247 0.0196406
1.6161 47.7954 -20.5273 -0.0344215 0.999277 0.0161247
0.173975 47.7368 -20.3584 -0.0413443 0.999023 0.0155805
-1.18308 47.6833 -20.4814 -0.0418737 0.999042 0.0122172
-2.27594 47.6361 -20.4862 -0.0432145 0.999024 0.00912886
-3.63987 47.5764 -20.4872 -0.0450326 0.998918 0.0112575
-5.08276 47.5095 -20.4348 -0.0452049 0.998872 0.0145332
-6.25285 47.4586 -20.4628 -0.0422312 0.998993 0.0151648
-7.6057 47.3999 -20.4299 -0.0429814 0.998927 0.0172148
-8.72153 47.3513 -20.4602 -0.0472941 0.998708 0.018589
-10.2447 47.2579 -20.4953 -0.0799438 0.996792 -0.00383804
-11.3195 47.1644 -20.5647 -0.11164 0.992098 -0.0572593
-12.4544 47.0175 -20.1943 -0.168274 0.98574 -0.000608433
-12.51 46.9838 -18.9642 -0.119931 0.991681 0.0467492
-12.2817 46.9457 -18.2191 -0.123126 0.984379 0.125849
-10.9985 47.1212 -18.4409 -0.0936599 0.990614 0.0995581
-9.90392 47.2201 -18.6254 -0.0452295 0.99742 0.0557398
-8.41082 47.3242 -18.8056 -0.0626348 0.997043 0.0413595
-7.27176 47.3801 -18.8266 -0.0479747 0.998395 0.0301113
-5.86895 47.4441 -18.8457 -0.0447674 0.998783 0.0202742
-4.76366 47.4968 -18.7793 -0.0486462 0.998605 0.020554
-3.50324 47.5586 -18.7946 -0.0457827 0.998849 0.0143382
-2.35326 47.6114 -18.7487 -0.0473367 0.998766 0.0150206
-0.999506 47.6676 -18.7724 -0.0368701 0.999225 0.0137557
0.269948 47.7163 -18.8228 -0.0368342 0.999197 0.0157841
1.54998 47.7623 -18.7539 -0.0308421 0.999309 0.0194744
2.65777 47.7844 -18.5412 -0.0240888 0.999492 0.0208519
3.72143 47.7877 -18.0333 -0.0208113 0.999221 0.0335257
4.72437 47.7617 -17.3324 0.0022273 0.998959 0.0455518
5.49589 47.6989 -16.4905 0.0430446 0.996167 0.0760414
6.38299 47.5896 -15.6349 0.0461578 0.995705 0.080255
6.80335 47.4646 -14.6216 0.0663579 0.99288 0.09854
7.29922 47.3129 -13.6011 0.124546 0.984981 0.118109
7.64585 47.1466 -12.3893 0.104324 0.988652 0.108094
7.77697 47.0226 -11.0622 0.145137 0.986985 0.068501
7.44666 46.9934 -9.87662 0.127784 0.990379 0.0531069
6.91238 47.0136 -8.93768 0.115306 0.991899 0.0515399
6.20092 47.0411 -7.88186 0.0978642 0.994594 0.0346822
5.43737 47.0801 -6.86546 0.0803544 0.996289 0.0308511
4.44305 47.1315 -6.10138 0.0622579 0.997736 0.023792
3.70055 47.1497 -5.31961 0.0484752 0.998444 0.0266563
2.97046 47.1586 -4.4446 0.0314984 0.999377 0.0159428
2.04135 47.1637 -3.61064 0.0147379 0.999863 0.00749615
1.06749 47.1543 -2.68247 -0.00786084 0.999926 0.0025024
0.323248 47.1382 -1.87277 -0.0217241 0.999764 -0.000614263
-0.599317 47.1113 -0.988512 -0.0367493 0.999297 -0.00281005
-1.41144 47.078 -0.100801 -0.0522937 0.998508 -0.0124385
-2.36639 47.0276 0.849924 -0.058327 0.998281 -0.00574582
-3.21063 46.9769 1.81359 -0.0825798 0.99632 -0.0229553
-3.9384 46.9278 2.65752 -0.0960318 0.994964 -0.0287248
-4.90685 46.8505 3.6693 -0.106878 0.993872 -0.0274013
-6.02842 46.748 4.74461 -0.133238 0.990294 -0.0374333
-6.67714 46.7019 5.65274 -0.151492 0.987725 -0.038078
-7.4646 46.62 6.4416 -0.157901 0.98592 -0.0543206
-8.51213 46.4885 7.3207 -0.165333 0.983972 -0.0650846
-9.52028 46.3482 8.14458 -0.193499 0.977697 -0.081266
-10.6431 46.1073 8.17403 -0.227017 0.970869 -0.0749154
-11.6839 45.8362 8.23046 -0.267609 0.960593 -0.0746058
-13.1871 45.3761 8.03891 -0.287826 0.956807 -0.0407577
-14.1768 45.0209 7.71507 -0.340716 0.939904 -0.0221718
-15.1558 44.6494 7.35376 -0.355594 0.934413 -0.020634
-15.4176 44.5468 7.2197 -0.355967 0.934359 -0.0152177
23.1341 39.008 -18.2385 0.639847 0.761806 -0.101226
21.9784 39.9376 -18.2987 0.621282 0.775715 -0.110791
21.0814 40.6257 -18.2494 0.5986 0.793865 -0.106948
20.1027 41.3496 -18.1375 0.570269 0.815197 -0.10118
18.858 42.2013 -18.2157 0.556085 0.824507 -0.104673
17.8679 42.8628 -18.294 0.561713 0.822386 -0.0903368
17.0329 43.4717 -17.9142 0.556271 0.825487 -0.0955715
16.5719 43.8889 -16.9527 0.552643 0.82843 -0.0910444
15.8748 44.4275 -16.2732 0.564637 0.824195 -0.0434455
14.7114 45.2093 -15.9452 0.562033 0.826333 -0.0128605
13.5697 45.8903 -15.7522 0.446899 0.890893 0.0811844
12.2513 46.5728 -15.9393 0.331541 0.930039 0.15198
11.3343 46.9859 -16.4152 0.275887 0.940011 0.190469
10.6099 47.3602 -17.5839 0.204381 0.96085 0.18625
9.52769 47.5526 -18.1266 0.0921339 0.989904 0.105793
8.31828 47.6556 -18.2693 0.0727024 0.993911 0.0827825
7.52118 47.694 -18.0562 0.065405 0.99606 0.0598847
8.10567 47.5723 -16.9853 0.101357 0.991001 0.0871469
8.62697 47.4122 -15.9028 0.108644 0.989025 0.100129
9.19553 47.1463 -14.4366 0.162104 0.979605 0.118642
9.62152 46.9234 -13.1946 0.205367 0.972495 0.109902
9.90421 46.7514 -12.0442 0.193687 0.976603 0.0932702
9.85238 46.6339 -10.5066 0.183661 0.980366 0.0714719
9.78917 46.5926 -9.35606 0.190304 0.980611 0.0443399
10.9143 46.3543 -9.19415 0.212107 0.976647 0.0315112
12.0754 46.0508 -8.96098 0.269789 0.962348 0.027598
13.1828 45.7303 -8.7771 0.288614 0.957284 0.0107467
14.3701 45.3581 -8.40097 0.300625 0.95327 -0.0265899
15.6109 44.9589 -7.7584 0.348162 0.93579 -0.055502
16.8202 44.55 -6.86373 0.368857 0.927595 -0.0572919
17.641 44.2144 -6.74384 0.386184 0.919785 -0.0691941
18.4956 43.7552 -7.75973 0.424176 0.901064 -0.0883715
19.2471 43.3029 -8.52863 0.440916 0.891871 -0.100555
20.0102 42.7569 -9.49999 0.487272 0.865829 -0.113552
20.7736 42.1773 -10.3466 0.508608 0.851251 -0.129012
21.7799 41.4777 -10.867 0.542438 0.828672 -0.135592
22.6672 40.7942 -11.1974 0.5747 0.803669 -0.15439
23.5716 40.0882 -11.4346 0.583994 0.791672 -0.179463
24.5714 39.26 -11.6919 0.616023 0.762627 -0.197136
25.693 38.3175 -11.7776 0.625768 0.752668 -0.204556
26.7577 37.4659 -11.5851 0.636924 0.742891 -0.205983
27.9825 36.5166 -11.1561 0.646716 0.730805 -0.218363
28.9938 35.7614 -10.6452 0.661545 0.715982 -0.222996
29.8484 35.1982 -9.89675 0.667673 0.712082 -0.217143
30.5478 34.7851 -9.04382 0.680804 0.70547 -0.197024
30.6211 34.5236 -9.6633 0.681898 0.698373 -0.217463
30.385 34.3148 -11.1112 0.673669 0.709586 -0.206538
30.3391 33.9177 -12.4481 0.683851 0.688371 -0.241855
30.3301 33.4881 -13.6976 0.684229 0.690224 -0.235417
30.4542 32.9422 -14.964 0.695505 0.684633 -0.218061
30.6939 32.3952 -15.9758 0.693232 0.692749 -0.198815
31.1735 31.6437 -16.9108 0.697851 0.696506 -0.166983
31.803 30.8184 -17.6974 0.7075 0.689415 -0.155356
31.7867 30.7122 -18.2325 0.707369 0.689072 -0.157508
30.8802 31.6206 -18.3798 0.703954 0.700366 -0.11805
30.0891 32.4155 -18.3708 0.710038 0.693653 -0.120635
29.1185 33.3715 -18.374 0.703324 0.700359 -0.121788
28.1848 34.2817 -18.3682 0.689428 0.711536 -0.135668
27.3628 35.1177 -18.3864 0.702018 0.702557 -0.106956
26.5542 35.9303 -18.3485 0.693642 0.713249 -0.0995728
25.6109 36.848 -18.1649 0.679986 0.725111 -0.108261
24.697 37.6811 -18.1506 0.662894 0.740106 -0.113199
23.7933 38.4605 -18.1957 0.650257 0.750188 -0.119819
23.2884 38.8801 -18.2253 0.635695 0.763342 -0.114085
23.2621 38.7594 -19.3368 0.636557 0.765311 -0.0953694
22.3567 39.498 -19.3963 0.624704 0.777159 -0.0759507
21.4187 40.2363 -19.3544 0.594733 0.800314 -0.0760878
20.5291 40.9103 -19.2762 0.594154 0.798225 -0.0985783
19.6125 41.5603 -19.2834 0.578947 0.811916 -0.0749119
18.4424 42.3586 -19.3456 0.560005 0.824739 -0.0780834
17.4714 43.0261 -19.345 0.565908 0.822148 -0.0612296
16.3983 43.7892 -19.115 0.56343 0.82342 -0.0672752
15.9849 44.2009 -17.831 0.57458 0.813035 -0.0937571
15.1338 44.8996 -17.0667 0.612422 0.788676 -0.0533079
14.1015 45.6351 -16.8771 0.555594 0.83132 0.0148667
12.7859 46.5127 -16.9241 0.477123 0.848289 0.229695
11.6993 47.1347 -17.5964 0.252199 0.945564 0.205681
11.2646 47.409 -18.68 0.165854 0.979728 0.105
9.99556 47.5888 -19.2489 0.0982981 0.993374 0.0595377
8.29874 47.7517 -19.3936 0.0743085 0.993758 0.0832051
6.94807 47.8131 -19.3091 0.0244525 0.99773 0.0627455
5.60197 47.8437 -19.3299 0.0178503 0.999347 0.0314298
4.38743 47.8506 -19.4144 -0.01067 0.999388 0.0330008
4.992 47.8065 -18.3133 0.000793154 0.998742 0.05013
5.95228 47.7507 -17.647 0.040822 0.997513 0.0574583
6.83487 47.6599 -16.8664 0.0561763 0.996057 0.0686063
7.52355 47.5237 -15.838 0.103201 0.989851 0.0976038
7.91971 47.3692 -14.689 0.115581 0.989891 0.0821951
8.40991 47.1745 -13.5976 0.135133 0.985035 0.106039
8.71157 47.0019 -12.4858 0.145006 0.984507 0.097377
8.87236 46.8708 -11.2307 0.185079 0.978762 0.0873809
8.62408 46.8263 -10.0008 0.15815 0.985428 0.0622536
8.18002 46.8452 -8.90584 0.155504 0.987073 0.0388113
8.04585 46.8313 -7.99748 0.134541 0.99048 0.0234116
9.24099 46.6452 -8.17091 0.16486 0.985557 0.0380634
10.4404 46.423 -8.12309 0.199488 0.979385 0.0239095
11.7343 46.1164 -7.91611 0.255906 0.966403 0.0225061
12.9826 45.7884 -7.61677 0.261463 0.964945 -0.0161919
14.0296 45.4905 -7.35942 0.281982 0.95916 -0.0202837
15.1562 45.1577 -6.77517 0.305732 0.951055 -0.0449659
16.1791 44.8509 -6.06984 0.336387 0.939941 -0.0517492
17.0018 44.5896 -5.27444 0.35618 0.931855 -0.0690066
17.8585 44.3408 -4.22638 0.360149 0.930984 -0.0588718
18.3271 44.052 -5.36477 0.381002 0.919571 -0.0955154
18.8833 43.6759 -6.68921 0.404224 0.909321 -0.0986811
19.7473 43.1739 -7.54778 0.450081 0.885513 -0.112744
20.4313 42.6986 -8.31148 0.487354 0.86302 -0.131486
21.2623 42.0383 -9.38805 0.514072 0.846709 -0.136566
22.1171 41.4254 -9.84387 0.542788 0.827922 -0.140466
22.9622 40.7739 -10.2371 0.570704 0.805044 -0.161864
24.1623 39.8487 -10.5236 0.593418 0.786517 -0.170376
25.1986 39.0147 -10.6807 0.598674 0.780314 -0.180828
26.2633 38.1462 -10.6396 0.631264 0.748683 -0.202434
27.2797 37.3511 -10.4013 0.631304 0.744314 -0.217836
28.4775 36.4889 -9.79597 0.650628 0.727065 -0.219226
29.4684 35.8242 -8.9858 0.669188 0.715189 -0.201724
30.4436 35.1685 -8.01185 0.681306 0.710503 -0.175763
31.1782 34.6423 -7.21434 0.690873 0.704868 -0.160794
31.8202 34.2074 -6.34382 0.714207 0.683248 -0.151481
32.4885 33.6823 -5.54857 0.725096 0.67071 -0.155952
33.1831 33.0593 -4.85993 0.740893 0.658393 -0.13233
33.9402 32.309 -4.11557 0.759227 0.644727 -0.0888871
34.7941 31.3678 -3.31788 0.794922 0.601657 -0.078065
35.4551 30.55 -2.63901 0.813585 0.578192 -0.06142
36.0113 29.8607 -1.67887 0.819839 0.568224 -0.0706063
36.4969 29.2213 -0.764197 0.849974 0.524016 -0.054322
36.9345 28.594 0.0530467 0.852553 0.517971 -0.0697107
37.4135 27.868 0.854221 0.868537 0.493661 -0.0435595
37.8588 27.1268 1.71623 0.877828 0.477795 -0.032419
38.401 26.1425 2.59232 0.888832 0.457042 -0.0330227
38.7777 25.458 3.44767 0.892255 0.45035 -0.0326599
39.0857 24.9135 4.45418 0.886502 0.462088 -0.0240398
39.2696 24.5483 4.31622 0.891007 0.452897 -0.0314727
39.2351 24.5155 2.94896 0.892961 0.448981 -0.0321548
39.1749 24.5428 1.50436 0.893102 0.449148 -0.0250023
39.1073 24.5722 0.331923 0.893066 0.447426 -0.0468114
39.1041 24.4374 -1.28498 0.891599 0.451276 -0.0372643
39.0825 24.3855 -2.42146 0.891403 0.451544 -0.0386712
38.9711 24.4803 -3.6912 0.883102 0.466385 -0.0510994
38.8805 24.5359 -4.8308 0.88385 0.465938 -0.0413556
38.3267 25.5825 -4.61494 0.87642 0.479244 -0.0470495
37.6739 26.7499 -4.60046 0.866974 0.49576 -0.0507664
37.0265 27.856 -4.72898 0.857951 0.506334 -0.0868653
36.358 28.8899 -5.1414 0.838691 0.537347 -0.0879139
35.7129 29.7831 -5.65102 0.82803 0.550276 -0.105016
34.7697 30.9402 -6.23079 0.768981 0.614298 -0.176935
33.8475 31.8548 -6.96257 0.752351 0.642717 -0.144505
33.0614 32.5684 -7.59423 0.72194 0.672787 -0.161741
32.3935 33.1153 -8.31662 0.72629 0.665525 -0.171988
31.7454 33.5768 -9.11267 0.694812 0.688873 -0.206617
31.2693 33.7484 -10.1043 0.68486 0.696063 -0.215551
31.0948 33.5587 -11.2733 0.695955 0.683792 -0.219261
31.0936 33.1731 -12.4131 0.691624 0.680191 -0.24289
31.1168 32.6709 -13.7892 0.69207 0.682536 -0.234911
31.297 32.1094 -14.9381 0.69218 0.688195 -0.217299
31.7896 31.2251 -16.1629 0.700545 0.683103 -0.206413
32.429 30.3772 -16.9234 0.703973 0.685138 -0.187094
33.1954 29.4374 -17.5328 0.706571 0.69112 -0.151742
33.4093 29.0719 -18.2366 0.713212 0.689203 -0.12778
32.9602 29.3837 -19.3729 0.712655 0.700386 -0.0394039
32.0102 30.3376 -19.4057 0.707691 0.705824 -0.0313264
31.1549 31.2053 -19.4349 0.708687 0.704294 -0.0398599
30.3207 32.0367 -19.4458 0.700586 0.712108 -0.045618
29.416 32.9338 -19.4463 0.705422 0.705974 -0.0630911
28.5455 33.7816 -19.4446 0.700706 0.710505 -0.0636278
27.6706 34.6715 -19.4343 0.711246 0.700815 -0.0546648
26.7734 35.5676 -19.4389 0.692321 0.717982 -0.0720648
25.9036 36.4107 -19.3394 0.683351 0.723536 -0.097605
24.9331 37.3201 -19.2682 0.657809 0.746804 -0.0977907
24.0569 38.0888 -19.3156 0.656597 0.748462 -0.0930691
23.4502 38.6035 -19.3327 0.636557 0.765311 -0.0953694
-19.2533 43.6148 -15.9701 -0.554183 0.831545 0.00661981
-20.122 42.9695 -17.0757 -0.607976 0.793262 -0.0296843
-20.7233 42.4617 -17.8193 -0.621963 0.781912 -0.0405401
-20.3927 42.7139 -18.3371 -0.626065 0.779613 -0.015663
-19.3739 43.5027 -18.2058 -0.596586 0.802275 -0.0209616
-18.3393 44.2182 -18.0158 -0.557448 0.830183 -0.00691474
-17.4996 44.7173 -17.0241 -0.521978 0.850797 0.0606939
-18.0801 44.314 -15.8222 -0.503243 0.86347 0.033563
-18.8949 43.8239 -15.522 -0.521759 0.852749 0.0229885
-18.9796 43.7745 -15.627 -0.527785 0.848985 0.0258348
-19.5976 43.3751 -14.8353 -0.550243 0.834362 0.00885829
-19.0606 43.6821 -13.9308 -0.516112 0.856195 0.0236228
-18.5299 43.9693 -13.3879 -0.448448 0.892781 0.0427576
-17.8692 44.3489 -14.4019 -0.476139 0.877987 0.0434077
-17.1126 44.8459 -15.7213 -0.449127 0.891148 0.0613823
-16.3591 45.3094 -16.6661 -0.427154 0.896499 0.113544
-16.6723 45.2532 -17.4751 -0.485819 0.868471 0.0878954
-17.2092 44.9628 -18.3652 -0.552681 0.833162 0.0196089
-18.3752 44.1994 -19.2363 -0.558519 0.829309 0.0174024
-19.3496 43.5044 -19.2918 -0.610569 0.791874 0.0118608
-20.2149 42.8381 -19.3813 -0.630275 0.776021 0.00928029
-21.0809 42.1199 -19.4475 -0.637118 0.770736 -0.00681213
-21.9957 41.3069 -19.4503 -0.673552 0.739104 -0.00723678
-22.8575 40.4661 -19.4135 -0.706243 0.707577 -0.0235675
-23.6875 39.6228 -19.3613 -0.71863 0.694228 -0.0402254
-23.7814 39.5541 -18.9306 -0.720898 0.690847 -0.0551044
-23.1295 40.2402 -18.6696 -0.705823 0.706763 -0.0477119
-22.4451 40.9418 -17.9448 -0.68345 0.728674 -0.0419825
-21.6945 41.6709 -17.3444 -0.658065 0.751246 -0.0485323
-21.0505 42.2527 -16.679 -0.630788 0.774487 -0.0477078
-20.433 42.7665 -15.9564 -0.59208 0.805566 -0.0213971
-19.8556 43.1963 -15.2027 -0.579183 0.815135 -0.00210697
19.9903 44.571 17.2346 0.582438 0.812438 -0.0206208
20.6702 44.0158 18.0616 0.651221 0.758737 -0.00151155
20.1623 44.4478 18.2908 0.624132 0.780827 -0.0085821
19.0319 45.3057 18.2932 0.602816 0.797795 -0.0116691
18.2884 45.7749 17.5967 0.550531 0.830516 -0.0846109
17.7528 45.9725 16.4171 0.465839 0.878405 -0.106765
18.1684 45.6373 15.3653 0.458231 0.885157 -0.0798474
18.9609 45.2087 15.8903 0.526027 0.84923 -0.0456439
19.6712 44.7856 16.8864 0.569486 0.821858 -0.0153401
20.2384 44.3505 16.0501 0.592112 0.805802 -0.00932518
20.9842 43.7642 16.9174 0.653645 0.756619 0.0166138
21.717 43.0956 17.7579 0.663132 0.747748 0.033599
22.4769 42.3358 18.3724 0.708654 0.704425 0.0359194
23.3219 41.4202 18.7779 0.732759 0.678846 0.0472384
23.2903 41.4262 19.1807 0.729276 0.68242 0.0492949
22.4365 42.3299 19.3193 0.725366 0.687859 0.0234748
21.4732 43.2782 19.3844 0.676993 0.735773 0.0178829
20.2299 44.4062 19.3742 0.636265 0.770512 -0.00966821
19.2652 45.1483 19.4263 0.594887 0.803344 -0.0183726
18.178 45.9286 19.2484 0.565248 0.824411 0.000371883
17.6788 46.2319 18.4099 0.526724 0.849247 -0.0366172
17.0828 46.4605 17.3671 0.47896 0.869382 -0.121433
16.1604 46.767 16.8743 0.353072 0.921762 -0.159883
16.7142 46.409 15.8465 0.316308 0.936695 -0.150028
17.4587 45.9206 14.6734 0.399045 0.911598 -0.098751
17.8956 45.6341 13.6122 0.414765 0.907196 -0.0704673
18.5326 45.2705 12.6474 0.39217 0.917915 -0.0593862
19.1698 45.0092 14.2824 0.504403 0.861899 -0.0141712
19.6733 44.7251 15.2215 0.546138 0.836167 -0.0505737
20.1635 44.4043 15.9454 0.592112 0.805802 -0.00932588
38.5801 25.3432 -2.42572 0.881365 0.47085 -0.0386807
38.6212 25.4084 -0.972557 0.890486 0.453157 -0.0407281
38.66 25.4455 0.149604 0.887067 0.458076 -0.0567263
38.6939 25.486 1.25224 0.890477 0.454321 -0.0253651
38.262 26.312 0.938208 0.881372 0.469897 -0.0474527
37.6551 27.3133 -0.104901 0.878519 0.473503 -0.0632472
37.1793 28.0696 -0.912081 0.866921 0.493505 -0.0700015
36.7018 28.7701 -1.8473 0.861046 0.503833 -0.0689381
36.1884 29.473 -2.82946 0.831173 0.551407 -0.0714323
35.7071 30.0771 -3.62675 0.815047 0.57425 -0.0770433
35.0221 30.9221 -4.35842 0.795647 0.599704 -0.0854446
34.303 31.7309 -4.96615 0.768276 0.630228 -0.112083
34.6835 31.2246 -5.21927 0.766322 0.633164 -0.108878
35.3463 30.4532 -4.77912 0.804014 0.591051 -0.0649592
35.9495 29.6371 -4.34242 0.817338 0.572414 -0.0642585
36.6774 28.5827 -3.8427 0.843802 0.530013 -0.0841705
37.2652 27.5998 -3.5736 0.864665 0.498079 -0.065343
37.9883 26.3201 -3.50275 0.873139 0.483842 -0.0591995
38.5633 25.3162 -3.1369 0.878359 0.475372 -0.0487442
38.5402 25.3932 -2.72614 0.881365 0.470849 -0.0386842
33.7369 32.2989 -5.48133 0.749578 0.648636 -0.131923
33.1264 32.8341 -6.18198 0.731767 0.663267 -0.156825
32.4519 33.4314 -6.79796 0.725483 0.670255 -0.156069
33.1721 32.7256 -6.42774 0.732083 0.662905 -0.156877
33.8303 32.1534 -5.66528 0.749552 0.648331 -0.133565
33.8623 32.1737 -5.38489 0.749581 0.648633 -0.131923
-33.4692 29.0447 -18.4283 -0.725695 0.683271 -0.0805889
-34.2549 28.1813 -18.6748 -0.746836 0.663075 -0.0506711
-33.6818 28.7463 -19.4124 -0.727986 0.684193 -0.0437445
-32.866 29.6127 -19.375 -0.726196 0.686662 -0.0336793
-32.1055 30.4105 -19.3147 -0.723318 0.688832 -0.0481786
-31.2413 31.3371 -19.2448 -0.728361 0.683273 -0.0512519
-30.4889 32.1305 -19.2877 -0.726198 0.685106 -0.0571496
-29.9165 32.7391 -19.3458 -0.712659 0.69945 -0.0528066
-29.0684 33.6237 -19.3576 -0.737617 0.674064 -0.0369553
-28.3569 34.414 -19.4433 -0.753137 0.656316 -0.0431539
-28.878 33.8351 -19.3984 -0.740987 0.670976 -0.0270211
-29.6091 33.062 -19.2706 -0.715771 0.696906 -0.0446538
-30.3442 32.3153 -18.964 -0.735406 0.673702 -0.0720271
-31.1936 31.4304 -18.722 -0.727911 0.682873 -0.0618851
-31.9374 30.6623 -18.449 -0.726783 0.683674 -0.0661552
-32.704 29.8697 -18.3741 -0.729466 0.679976 -0.0742496
-33.3113 29.2165 -18.4024 -0.728023 0.681015 -0.0787437
37.1484 25.6439 -16.0376 0.728906 0.675008 -0.112977
37.808 24.9568 -15.457 0.774762 0.625759 -0.0903857
38.2571 24.3819 -15.4712 0.793793 0.60374 -0.0731451
37.8336 24.8141 -16.349 0.765582 0.639548 -0.0697343
37.1722 25.466 -16.9436 0.723691 0.680293 -0.115963
36.161 26.5107 -16.9567 0.710727 0.688223 -0.145537
37.0777 25.706 -16.1068 0.717115 0.687301 -0.115602
-37.6775 24.2863 15.0658 -0.7505 0.658308 0.0567841
-37.1298 24.7761 16.1748 -0.742142 0.665958 0.0756601
-37.6111 24.2787 15.9598 -0.720425 0.691203 0.05679
-37.7668 24.1742 15.1601 -0.749096 0.660783 0.0434371
39.5631 24.3779 14.6443 0.811395 0.584487 0.00245565
39.5089 24.4752 15.7181 0.789288 0.613658 -0.0211832
38.7499 25.4258 16.4369 0.766039 0.642698 -0.0110575
39.0653 25.0694 15.6422 0.793589 0.60712 0.019719
39.3021 24.7404 15.1035 0.811484 0.584375 -0.000131647
24.686 39.8318 19.228 0.744705 0.664301 0.0641667
24.2212 40.3709 19.4162 0.756016 0.653842 0.0242809
24.8989 39.5951 19.316 0.731781 0.680873 0.0301265
24.781 39.7258 19.2261 0.737853 0.673047 0.0469101
-37.1137 26.1497 1.00156 -0.858563 0.512451 0.0162117
-37.1881 26.0171 1.25099 -0.860542 0.509113 0.0164671
-36.7806 26.6849 1.70816 -0.858228 0.513032 0.0156049
-37.1549 26.0042 2.97455 -0.854675 0.518077 0.0335675
-37.2179 25.8855 3.20164 -0.854674 0.518079 0.0335661
-37.0374 26.115 4.47141 -0.853896 0.519894 0.0238992
-36.7463 26.6451 3.48452 -0.854827 0.518055 0.0298445
-36.4775 27.1318 2.55495 -0.850327 0.525435 0.0293509
-36.0589 27.7498 3.09429 -0.831261 0.55434 0.0413646
-36.3781 27.2055 4.13904 -0.843677 0.536333 0.0235915
-36.5802 26.8099 4.85534 -0.840105 0.539655 0.0547349
-36.0785 27.5563 5.13222 -0.82896 0.556098 0.0598328
-35.7785 28.1019 4.12571 -0.827805 0.560287 0.0285931
-35.6539 28.3027 3.75241 -0.826222 0.562705 0.0268256
-35.3203 28.7152 4.65097 -0.809204 0.584935 0.05514
-35.5945 28.2375 5.50624 -0.82896 0.556097 0.0598377
-35.076 28.8862 5.89896 -0.798913 0.594414 0.0917067
-34.7955 29.3825 5.04128 -0.791998 0.60452 0.0854068
-34.303 29.9454 5.58357 -0.784691 0.610773 0.105909
-34.5185 29.5572 6.23696 -0.783367 0.612518 0.105632
-33.9634 30.201 6.61696 -0.781356 0.613513 0.114392
-33.8359 30.4328 6.23548 -0.781747 0.613537 0.111554
-33.363 30.891 6.90414 -0.748627 0.650676 0.127195
-33.4278 30.7816 7.08239 -0.748625 0.650677 0.127197
-32.8946 31.2891 7.63805 -0.743344 0.657255 0.124319
-32.9696 31.1668 7.83683 -0.746826 0.653511 0.123186
-32.6015 31.3727 8.85305 -0.734185 0.665643 0.133763
-32.2566 31.9557 7.92922 -0.74093 0.658285 0.13298
-32.2123 32.028 7.81164 -0.742944 0.657897 0.123315
-31.5821 32.6532 8.15776 -0.700249 0.69906 0.1448
-32.0238 31.8988 9.33834 -0.71783 0.67655 0.164317
-32.1985 31.6073 9.78385 -0.72107 0.67379 0.161444
-31.8925 31.6425 10.976 -0.711162 0.681103 0.174206
-31.4123 32.4418 9.77383 -0.717832 0.676548 0.164315
-31.0657 33.037 8.8342 -0.711524 0.682435 0.167382
-30.9889 33.168 8.62657 -0.711944 0.68523 0.153606
-30.5439 33.4168 9.49767 -0.709957 0.683469 0.169798
-30.9809 32.6856 10.6369 -0.708025 0.687043 0.16332
-31.3862 31.9959 11.667 -0.715656 0.674288 0.182133
-31.591 31.6416 12.1792 -0.71426 0.675651 0.182558
-31.5337 31.1984 14.0511 -0.709097 0.683689 0.172484
-31.0876 31.9846 12.8707 -0.711903 0.678137 0.182551
-30.6784 32.6935 11.8319 -0.706787 0.683895 0.180944
-30.2479 33.421 10.717 -0.706224 0.685725 0.176151
-29.8086 34.1536 9.5988 -0.706109 0.688034 0.167388
-29.7445 34.2567 9.4399 -0.703581 0.691255 0.164744
-29.0765 34.8589 9.75382 -0.700294 0.69363 0.168717
-29.4479 34.2581 10.6658 -0.703906 0.688847 0.173224
-29.9842 33.3602 12.023 -0.708148 0.683519 0.176997
-30.4104 32.6278 13.1149 -0.707851 0.682222 0.183084
-30.7669 32.0025 14.0515 -0.712706 0.677221 0.182815
-31.1148 31.3982 14.9721 -0.716492 0.67916 0.159313
-31.4713 30.824 15.8849 -0.724618 0.672886 0.148839
-32 30.0104 17.2515 -0.718027 0.683495 0.131425
-32.0919 29.8618 17.4911 -0.719936 0.678687 0.145179
-31.4287 30.5278 17.7182 -0.725325 0.67637 0.128166
-31.0088 31.157 16.6243 -0.711083 0.693592 0.115288
-30.6191 31.7634 15.6528 -0.71932 0.67682 0.156502
-30.2261 32.4214 14.6242 -0.712052 0.678842 0.179321
-29.8713 33.0306 13.7057 -0.70925 0.681644 0.179795
-29.4836 33.6902 12.727 -0.697355 0.693301 0.181743
-29.1093 34.3066 11.7971 -0.694213 0.697332 0.178315
-28.6328 35.083 10.6368 -0.685917 0.705747 0.177309
-28.3795 35.4683 10.0447 -0.684063 0.709807 0.168024
-27.8309 35.8403 10.6716 -0.673077 0.719938 0.169282
-28.23 35.227 11.6032 -0.691499 0.700429 0.176716
-28.6595 34.5381 12.6394 -0.693351 0.698522 0.177007
-29.0884 33.8338 13.7014 -0.699627 0.692552 0.175765
-29.4626 33.2122 14.6383 -0.708591 0.683406 0.175655
-29.8472 32.5744 15.622 -0.700738 0.696764 0.153254
-30.2252 31.9866 16.5758 -0.729704 0.672748 0.12224
-30.608 31.4177 17.5451 -0.722673 0.683937 0.0998697
-30.6431 31.3676 17.6334 -0.722673 0.683937 0.0998698
-29.7688 32.3429 17.3079 -0.725981 0.678415 0.112714
-29.3234 32.9946 16.2154 -0.71335 0.689299 0.126487
-28.9164 33.6366 15.2047 -0.706953 0.689433 0.157795
-28.4904 34.327 14.1503 -0.700978 0.692384 0.170981
-28.0762 34.9916 13.1376 -0.691226 0.700644 0.176932
-27.6864 35.6091 12.2146 -0.687841 0.70246 0.182823
-27.2882 36.1967 11.3245 -0.674743 0.719009 0.166577
-26.9629 36.6686 10.5803 -0.660163 0.731875 0.168946
-26.1722 37.356 10.6958 -0.656269 0.735218 0.169606
-26.5886 36.7668 11.6208 -0.659765 0.732408 0.168192
-26.999 36.1787 12.5298 -0.673667 0.717642 0.17653
-27.4997 35.4243 13.6669 -0.682839 0.709812 0.172912
-27.9463 34.7349 14.7292 -0.696363 0.69771 0.168166
-28.3286 34.1371 15.6542 -0.705087 0.694258 0.144424
-28.8603 33.3501 16.9294 -0.710079 0.694357 0.116859
-28.8759 33.3281 16.9659 -0.711045 0.693282 0.117368
-28.3096 33.8213 17.4452 -0.70361 0.699909 0.12272
-27.91 34.3919 16.5032 -0.704489 0.697505 0.131078
-27.5303 34.9605 15.5983 -0.690955 0.708173 0.145165
-27.0342 35.6916 14.4475 -0.682657 0.712898 0.160486
-26.5643 36.3809 13.3945 -0.67465 0.718781 0.167932
-26.1107 37.0272 12.3924 -0.663234 0.730684 0.161932
-25.6146 37.7077 11.3134 -0.653972 0.737806 0.167221
-25.3274 38.1014 10.6993 -0.641094 0.750399 0.160932
-24.3806 38.9 10.5881 -0.612338 0.777385 0.143925
-24.8375 38.348 11.4728 -0.629779 0.761507 0.15325
-25.4528 37.5412 12.7678 -0.658493 0.73569 0.158576
-25.9263 36.8837 13.8008 -0.668715 0.72506 0.164647
-26.3465 36.2902 14.7208 -0.679085 0.717154 0.156631
-26.8427 35.5782 15.8382 -0.687582 0.710939 0.147641
-27.2913 34.954 16.866 -0.699566 0.704059 0.122102
-27.6033 34.5054 17.603 -0.706942 0.6976 0.116567
-26.796 35.3266 17.5349 -0.698689 0.707087 0.108915
-26.3951 35.8647 16.6294 -0.68714 0.716146 0.122366
-25.9467 36.477 15.6388 -0.679349 0.719427 0.1446
-25.5399 37.0395 14.7524 -0.670295 0.727165 0.148108
-25.0586 37.6908 13.7175 -0.654198 0.740313 0.154796
-24.4947 38.4211 12.5289 -0.637643 0.754043 0.157578
-23.8152 39.2312 11.2117 -0.612335 0.777704 0.142204
-23.4646 39.6291 10.5496 -0.600971 0.787184 0.138477
-22.149 40.7268 9.83643 -0.572697 0.811639 0.115154
-22.6629 40.2096 10.7482 -0.604395 0.787257 0.122202
-23.1629 39.6694 11.6614 -0.612754 0.778395 0.136503
-23.6442 39.1095 12.5831 -0.624596 0.765442 0.154849
-24.0991 38.5674 13.4811 -0.645652 0.751014 0.138244
-24.548 37.9967 14.4171 -0.653388 0.744357 0.137903
-25.0312 37.3679 15.434 -0.666283 0.733443 0.134638
-25.4503 36.8136 16.3298 -0.682204 0.71987 0.128007
-25.8941 36.2358 17.2965 -0.687326 0.718622 0.105672
-25.1806 36.8877 17.4797 -0.685193 0.720663 0.105622
-24.6327 37.5731 16.3316 -0.667953 0.733568 0.12537
-24.1016 38.2397 15.232 -0.656188 0.742872 0.132506
-23.5919 38.8642 14.2019 -0.637549 0.758229 0.136453
-23.1426 39.3979 13.3136 -0.630349 0.764973 0.132202
-22.6743 39.9307 12.4248 -0.624045 0.771133 0.126177
-22.1495 40.4779 11.4858 -0.588261 0.799836 0.11921
-21.6321 40.9871 10.5786 -0.573146 0.811605 0.11314
-21.0602 41.5 9.62747 -0.560663 0.82293 0.0918923
-20.7277 41.7708 9.10279 -0.547723 0.833591 0.0715965
-18.8051 42.9821 7.76396 -0.459438 0.887363 0.0387875
-19.6048 42.4795 8.9258 -0.498479 0.864408 0.0657029
-20.2676 41.9911 9.92567 -0.516951 0.852231 0.0804048
-20.8609 41.5011 10.8717 -0.571682 0.814494 0.0988914
-21.3666 41.0196 11.7493 -0.589949 0.799751 0.111167
-21.9875 40.3943 12.8519 -0.598668 0.790636 0.128416
-22.4971 39.8441 13.7868 -0.628747 0.767575 0.124525
-22.9991 39.272 14.7435 -0.636352 0.760296 0.130407
-23.5324 38.6415 15.7986 -0.648471 0.750069 0.129931
-24.0182 38.0562 16.7792 -0.661191 0.740206 0.122153
-24.4299 37.5628 17.6172 -0.670382 0.734374 0.106217
-23.5513 38.3608 17.5404 -0.653759 0.750422 0.0972955
-22.9578 39.0383 16.3762 -0.641473 0.759106 0.110769
-22.4599 39.6012 15.4172 -0.626051 0.7708 0.118017
-21.9356 40.1805 14.4412 -0.61224 0.78025 0.127952
-21.3319 40.8114 13.3403 -0.599007 0.791105 0.123872
-20.7819 41.3584 12.366 -0.568212 0.814618 0.116328
-20.1868 41.8918 11.3595 -0.544746 0.833564 0.0917801
-19.6291 42.3296 10.4881 -0.522509 0.849754 0.0700158
-18.9311 42.83 9.44849 -0.492272 0.868437 0.059043
-18.2783 43.2222 8.52696 -0.456486 0.889041 0.0350365
-17.5038 43.5999 8.94022 -0.449368 0.893061 0.0225951
-18.1593 43.2243 9.84274 -0.477247 0.877836 0.0404925
-18.8859 42.7453 10.8886 -0.504444 0.860525 0.0709373
-19.5588 42.2322 11.932 -0.534236 0.841139 0.084124
-20.2317 41.6429 13.0617 -0.568212 0.814618 0.116328
-20.8449 41.0596 14.1339 -0.588624 0.800521 0.112638
-21.3678 40.5269 15.0733 -0.606926 0.785798 0.119005
-21.8564 40.0097 15.9671 -0.61446 0.781465 0.108399
-22.3481 39.4805 16.886 -0.627454 0.772112 0.100726
-22.617 39.1814 17.4033 -0.641759 0.761603 0.0900312
-21.7769 39.8697 17.4887 -0.631534 0.769297 0.0966833
-21.2939 40.3651 16.6048 -0.615805 0.78174 0.098317
-20.7435 40.9253 15.6052 -0.602767 0.79098 0.104989
-20.1633 41.4955 14.5855 -0.585926 0.804035 0.101082
-19.5585 42.0427 13.5565 -0.560056 0.823473 0.0907126
-18.9372 42.5671 12.5214 -0.527368 0.846385 0.0742663
-18.3413 43.0033 11.5983 -0.505197 0.859412 0.0786528
-17.7337 43.4121 10.7215 -0.4766 0.877538 0.0527202
-16.9697 43.8494 9.66905 -0.450772 0.892053 0.0323418
-16.9291 43.8712 9.61392 -0.431348 0.902021 0.0172516
-16.1505 44.2321 10.0063 -0.427589 0.903806 0.0173913
-17.0252 43.7565 11.2016 -0.482762 0.875314 0.0276893
-17.6805 43.3454 12.1483 -0.493489 0.868137 0.0529802
-18.4648 42.7782 13.369 -0.531077 0.842944 0.0860455
-19.048 42.3114 14.3168 -0.568589 0.818706 0.0801707
-19.7778 41.658 15.539 -0.588488 0.802397 0.0992026
-20.2873 41.1695 16.4388 -0.605372 0.790041 0.0967431
-20.9063 40.5622 17.5508 -0.617585 0.781622 0.0875018
-19.951 41.3095 17.4815 -0.608259 0.790243 0.0744139
-19.3517 41.8757 16.425 -0.586931 0.805215 0.0844997
-18.742 42.4219 15.3999 -0.583183 0.808415 0.0797713
-18.1821 42.8897 14.4833 -0.556352 0.8282 0.0674999
-17.6273 43.3087 13.5918 -0.541575 0.838755 0.0564469
-16.885 43.8123 12.4612 -0.503115 0.863957 0.0213002
-16.2298 44.1844 11.5405 -0.483925 0.874925 0.0179733
-15.5296 44.5289 10.6008 -0.423957 0.90556 -0.0148798
-14.5491 44.9729 10.7327 -0.421165 0.906192 -0.0378823
-15.4042 44.6068 11.848 -0.446431 0.894341 -0.0292035
-16.0783 44.2629 12.7732 -0.491444 0.870895 -0.00488016
-16.7147 43.8702 13.7134 -0.530109 0.847392 0.0301971
-17.3149 43.4489 14.6491 -0.54731 0.836029 0.0388265
-17.9251 42.9712 15.635 -0.570532 0.818427 0.0683434
-18.4845 42.4985 16.5704 -0.59633 0.799771 0.0689694
-19.0284 42.0176 17.4811 -0.589106 0.806319 0.0529435
-19.0566 41.9941 17.5266 -0.596493 0.800305 0.0608868
-18.0828 42.7305 17.4856 -0.605975 0.794007 0.0484487
-17.4237 43.2861 16.3813 -0.584582 0.810248 0.0419771
-16.8829 43.711 15.4939 -0.568909 0.822331 0.0106984
-16.2039 44.1814 14.4334 -0.543065 0.839686 0.00269929
-15.5905 44.5503 13.5246 -0.506314 0.862268 -0.0118414
-14.9452 44.8721 12.6332 -0.454981 0.888868 -0.053901
-14.265 45.1559 11.7487 -0.4218 0.905066 -0.054229
-13.5233 45.4204 10.8238 -0.383972 0.920977 -0.066089
-12.7981 45.756 11.2871 -0.344396 0.935189 -0.0825395
-13.5823 45.5237 12.2362 -0.40906 0.909102 -0.0787584
-14.3221 45.2341 13.1845 -0.468661 0.881342 -0.0599481
-15.0462 44.9007 14.1735 -0.5335 0.844411 -0.0484497
-15.7033 44.5218 15.1432 -0.555935 0.830716 -0.0291047
-15.8813 44.4121 15.4136 -0.555935 0.830716 -0.029105
-14.7908 45.1381 15.2075 -0.53283 0.842434 -0.0799867
-14.0011 45.496 14.1195 -0.451922 0.88775 -0.0875537
-13.2662 45.7489 13.1907 -0.420843 0.89864 -0.123845
-12.3009 46.0132 12.0365 -0.343803 0.934079 -0.0964171
-11.4284 46.1674 11.0427 -0.270139 0.954539 -0.126016
-10.9834 46.4023 11.8713 -0.272882 0.954421 -0.120899
-11.9525 46.2567 12.9491 -0.342778 0.930065 -0.132221
-12.8255 46.0469 13.9725 -0.383823 0.912067 -0.144269
-13.7352 45.7863 15.0863 -0.481567 0.860524 -0.166108
-12.7646 46.2976 15.1802 -0.434041 0.873588 -0.22012
-11.9943 46.4612 14.2907 -0.346688 0.922792 -0.168116
-11.1198 46.6082 13.3097 -0.298148 0.939565 -0.168304
-10.7502 46.6345 12.9165 -0.239726 0.958017 -0.157276
-10.5625 46.88 14.0067 -0.260899 0.948096 -0.181783
-11.6511 46.7788 15.1751 -0.355663 0.910832 -0.209496
-12.0149 46.7335 15.568 -0.349596 0.911038 -0.218617
-11.3083 47.1052 16.0524 -0.272697 0.937936 -0.214271
-10.3215 47.1503 15.0344 -0.237232 0.948716 -0.208946
-9.85896 47.403 15.8382 -0.122942 0.978918 -0.16311
-10.6109 47.4071 16.5894 -0.188055 0.970287 -0.152245
-9.96429 47.5618 17.2357 -0.127786 0.989214 -0.0715933
-9.38 47.5859 16.6441 -0.102938 0.983643 -0.147816
10.038 47.3742 -17.1508 0.123169 0.981615 0.145815
9.19094 47.3823 -16.2909 0.157441 0.982499 0.0995358
9.6142 47.2054 -15.4216 0.171361 0.976135 0.133399
