-22.6846 41.2649 10.1837 -0.568631 0.813591 0.121361
-21.755 41.9863 9.60854 -0.553056 0.825188 0.114868
-20.8069 42.6769 8.88709 -0.514863 0.853289 0.0825501
-19.7706 43.3354 8.22781 -0.471068 0.879826 0.0595427
-18.8129 43.8532 7.64167 -0.432732 0.90092 0.0326565
-17.8514 44.2898 8.49714 -0.436567 0.89941 0.0202378
-16.8903 44.7313 9.19785 -0.407887 0.912759 0.0223557
-15.5132 45.3428 9.95526 -0.391637 0.920083 -0.00821458
-14.3503 45.8424 10.488 -0.35768 0.931519 -0.0658665
-13.113 46.3346 10.7598 -0.331379 0.939599 -0.080293
-12.5032 46.5361 10.8179 -0.300107 0.949415 -0.0924445
-12.273 46.4926 9.60131 -0.267559 0.959949 -0.0794121
-10.8438 46.8652 9.68078 -0.217175 0.971756 -0.0923301
-9.31214 47.1833 9.65437 -0.19058 0.97752 -0.0901931
-9.42789 47.2964 10.9056 -0.178603 0.977818 -0.108405
-9.39927 47.4611 12.2059 -0.159445 0.97972 -0.121325
-9.13914 47.6786 13.4546 -0.150426 0.976757 -0.152294
-8.70326 47.9256 14.6789 -0.120003 0.979843 -0.159707
-8.1817 48.1482 15.9793 -0.071442 0.992193 -0.102225
-7.55336 48.3038 17.2189 -0.033273 0.995321 -0.0907193
-6.49424 48.418 18.208 -0.0210451 0.996511 -0.0807662
-6.34593 48.4926 19.1646 -0.00332626 0.998574 -0.0532802
-7.58122 48.4407 18.9679 -0.0443131 0.995916 -0.0786666
-8.96795 48.3595 18.954 -0.0693723 0.994813 -0.074397
-10.5165 48.213 18.9112 -0.109683 0.991232 -0.0736758
-11.8232 48.0248 18.4512 -0.103526 0.984399 -0.142258
-12.4949 47.7198 17.3581 -0.25287 0.924687 -0.284622
-13.6938 47.0089 16.6762 -0.444172 0.848764 -0.286899
-15.1313 46.002 16.5585 -0.582362 0.806758 -0.0999767
-16.1828 45.1731 16.862 -0.61291 0.788895 -0.0230655
-16.9342 44.5633 17.7078 -0.602668 0.797213 0.0340833
-17.3617 44.1681 18.8812 -0.608265 0.792119 0.050385
-18.6128 43.197 18.9659 -0.609205 0.791147 0.0543721
-19.6258 42.4142 19.0234 -0.609427 0.791183 0.0512668
-20.6243 41.6361 19.0621 -0.614985 0.78618 0.0609515
-21.6687 40.7925 19.119 -0.631832 0.772352 0.0652076
-22.8315 39.8282 19.0024 -0.657439 0.749429 0.0780526
-23.843 38.9232 19.07 -0.673273 0.734904 0.0807997
-25.0362 37.8128 19.0988 -0.686392 0.724152 0.0667899
-26.0542 36.8235 19.1809 -0.698956 0.711178 0.0751991
-27.0096 35.8986 19.0583 -0.713244 0.697396 0.0701584
-28.2941 34.5949 19.0296 -0.708367 0.701617 0.0771371
-29.325 33.53 19.0417 -0.721088 0.687316 0.0870973
-30.2206 32.5812 19.0731 -0.7181 0.692393 0.0686571
-31.1397 31.6577 19.0787 -0.710597 0.701417 0.0553679
-32.1329 30.6477 19.0625 -0.715061 0.697223 0.0506809
-33.1504 29.6085 19.0353 -0.720998 0.691467 0.0451127
-33.5561 29.2774 18.1357 -0.707943 0.700809 0.087431
-32.9327 30.0628 17.2846 -0.706363 0.689453 0.160306
-32.239 30.9923 16.3945 -0.705351 0.687668 0.171838
-31.9585 31.6482 15.0289 -0.703286 0.684778 0.190964
-31.8725 32.1809 13.486 -0.702431 0.682508 0.201911
-31.856 32.6199 12.0734 -0.704251 0.680049 0.203761
-32.0185 32.8224 10.7946 -0.704771 0.683676 0.189431
-32.415 32.7534 9.49587 -0.71104 0.683448 0.165291
-33.1044 32.3831 7.95638 -0.719527 0.675997 0.158838
-33.8118 31.8055 6.91948 -0.74891 0.647099 0.142685
-34.5827 31.0026 6.19377 -0.77737 0.615229 0.131105
-35.4202 30.0228 5.69022 -0.785481 0.609754 0.105535
-36.2024 29.0526 5.17568 -0.807161 0.583494 0.0889136
-36.9094 28.0663 4.80727 -0.837246 0.54004 0.0839711
-37.7504 26.6909 4.51477 -0.86457 0.500983 0.0379863
-38.5254 25.3275 4.76049 -0.872473 0.488241 0.019513
-38.8942 24.6921 4.16996 -0.876122 0.481956 0.0112058
-38.8931 24.7383 2.55342 -0.878831 0.476886 0.0153256
-38.9251 24.7171 1.19699 -0.88193 0.471297 0.00868626
-38.9566 24.6815 -0.189964 -0.884044 0.467329 0.00834491
-38.9762 24.6655 -1.47049 -0.884437 0.466597 0.00760614
-38.9858 24.6634 -2.83223 -0.884773 0.465985 0.00587191
-38.9744 24.692 -4.22076 -0.882139 0.47094 -0.0057115
-38.9229 24.7681 -5.6147 -0.879043 0.476705 -0.00452183
-38.6119 25.3388 -5.49103 -0.874855 0.484154 -0.0149453
-38.1036 26.2823 -4.49411 -0.872211 0.488973 -0.0108785
-37.7114 27.0205 -3.25505 -0.876873 0.480605 -0.0103533
-37.502 27.3791 -1.86159 -0.862923 0.505239 0.00988898
-37.2525 27.7773 -0.670442 -0.863177 0.504225 0.0250611
-36.7718 28.5216 0.606679 -0.842283 0.53858 0.0221476
-36.2284 29.3307 1.43732 -0.837002 0.546693 0.0235302
-35.6654 30.1021 2.26771 -0.80204 0.59579 0.0420215
-35.0638 30.8243 3.18946 -0.793871 0.604814 0.0630013
-34.3201 31.6505 4.25874 -0.779186 0.621456 0.0811879
-33.6368 32.3506 5.112 -0.762949 0.640222 0.0895839
-32.6746 33.2593 6.03674 -0.728391 0.673894 0.123747
-31.8839 33.9894 6.67547 -0.726421 0.67339 0.137324
-30.9353 34.8571 7.24341 -0.702338 0.693962 0.15835
-29.956 35.6646 7.93825 -0.690407 0.706928 0.153594
-29.0091 36.4295 8.49992 -0.67954 0.714108 0.168149
-28.0558 37.2473 8.85704 -0.673488 0.723556 0.148938
-26.6705 38.3668 9.15362 -0.62485 0.765575 0.15316
-25.3777 39.4334 9.16821 -0.627082 0.760805 0.167165
-24.2727 40.3124 9.10053 -0.599397 0.787403 0.143098
-23.0703 41.1843 8.97275 -0.569365 0.812335 0.126209
-22.1144 41.9141 8.37264 -0.542555 0.83412 0.0973089
-21.1714 42.5703 7.66298 -0.521021 0.849921 0.0785544
-19.9816 43.3037 6.80907 -0.464154 0.884452 0.0480149
-19.3681 43.6666 5.56968 -0.437692 0.898379 0.0366148
-18.7125 43.9716 5.79165 -0.417266 0.908326 0.028849
-17.8737 44.3206 6.85797 -0.408215 0.912777 0.0140769
-16.9445 44.7278 7.73349 -0.401549 0.915806 0.00122711
-15.9219 45.1581 8.36294 -0.361726 0.932283 0.00141384
-14.8418 45.5861 8.90619 -0.362218 0.931523 -0.0297825
-13.6552 46.0322 9.369 -0.315003 0.947277 -0.0571823
-12.4686 46.4289 9.55519 -0.300207 0.951052 -0.0722694
-12.2069 46.4071 8.31335 -0.269568 0.961046 -0.0581056
-13.502 46.0078 8.13413 -0.293308 0.953851 -0.0632204
-14.7978 45.5609 7.61343 -0.315558 0.948739 -0.0174206
-16.1684 45.0478 6.81273 -0.373167 0.927743 0.00624884
-17.2968 44.5962 5.7315 -0.386327 0.921957 0.027323
-18.1017 44.2927 4.60255 -0.399677 0.916078 0.0324953
-18.4028 44.2038 3.27986 -0.405278 0.913653 0.031432
-18.527 44.1848 1.9853 -0.372937 0.927599 0.0218631
-18.445 44.2493 0.658947 -0.374426 0.926999 0.0218685
-18.3417 44.3369 -0.624816 -0.372844 0.927153 0.0370263
-18.2802 44.4124 -1.93028 -0.366943 0.929739 0.0306408
-18.2037 44.4976 -3.38202 -0.370591 0.927513 0.0488026
-18.1601 44.5719 -4.69002 -0.374194 0.926814 0.0315482
-18.0593 44.6634 -5.941 -0.374688 0.92618 0.0424284
-18.0057 44.7637 -7.56919 -0.351115 0.935334 0.0432304
-17.9226 44.8396 -8.85793 -0.387726 0.920632 0.0414832
-17.8037 44.9627 -10.1046 -0.406119 0.912748 0.0442116
-17.7166 45.074 -11.6002 -0.40979 0.911179 0.0426774
-17.5943 45.2101 -13.1143 -0.40757 0.91152 0.0549292
-16.9941 45.5989 -14.244 -0.431481 0.898879 0.0763696
-16.4138 45.9445 -15.3095 -0.40584 0.910744 0.076228
-15.6457 46.3505 -16.2847 -0.340249 0.935605 0.0942033
-14.7636 46.8198 -17.1998 -0.343092 0.926807 0.152698
-13.9906 47.1371 -17.5304 -0.30627 0.936156 0.17114
-14.9437 46.87 -17.9168 -0.344588 0.92696 0.14834
-16.1837 46.3618 -17.9145 -0.394907 0.906225 0.151011
-16.8795 46.0564 -18.9141 -0.532598 0.846302 0.00648352
-16.9932 45.9842 -20.1951 -0.533427 0.845817 0.00704357
-18.0198 45.3262 -20.3996 -0.562136 0.826601 0.00895037
-19.1516 44.5131 -20.3598 -0.58021 0.814399 -0.00189366
-20.3477 43.5781 -20.4253 -0.62886 0.777467 -0.00892355
-21.3407 42.7306 -20.4073 -0.665115 0.746687 -0.0089172
-22.4431 41.7146 -20.4811 -0.692098 0.721448 -0.0226709
-23.3847 40.7777 -20.356 -0.716614 0.697254 -0.0147178
-24.3238 39.7935 -20.2887 -0.726278 0.687165 -0.0180068
-25.2852 38.7498 -20.3282 -0.743352 0.667576 -0.0420763
-26.3099 37.6277 -20.3595 -0.725962 0.686983 -0.0321466
-27.2628 36.6029 -20.2399 -0.737356 0.674276 -0.0407108
-28.1633 35.6071 -20.1967 -0.737711 0.674708 -0.0223737
-29.0206 34.6536 -20.3528 -0.73986 0.672567 -0.0158938
-29.9531 33.6341 -20.3821 -0.728688 0.684578 -0.019179
-30.8224 32.7058 -20.364 -0.732912 0.679741 -0.0254738
-31.7379 31.7374 -20.3369 -0.729452 0.683719 -0.0205146
-32.7502 30.6708 -20.4102 -0.716598 0.697416 -0.00996209
-33.3596 30.0414 -19.7756 -0.731998 0.681115 -0.0116431
-33.4962 29.986 -18.4159 -0.758643 0.642114 -0.105664
-33.5069 30.1415 -17.6466 -0.72916 0.664225 -0.164715
-32.6288 31.0681 -17.6747 -0.715161 0.683507 -0.1461
-31.6736 32.0184 -17.9339 -0.706398 0.688027 -0.16532
-30.7836 32.977 -18.0926 -0.734951 0.665818 -0.127371
-29.7515 33.997 -18.3858 -0.737951 0.663067 -0.123001
-28.873 34.9588 -18.4119 -0.715842 0.682114 -0.149301
-27.9078 36.0328 -18.5392 -0.732265 0.676229 -0.0806361
-26.7364 37.3315 -18.6538 -0.735962 0.67271 -0.0734634
-25.8376 38.3136 -18.5434 -0.736465 0.670916 -0.0862555
-24.7375 39.5278 -18.0766 -0.718308 0.690458 -0.0854442
-23.776 40.5368 -17.7223 -0.706985 0.700512 -0.0972375
-22.9211 41.4333 -17.1826 -0.689179 0.72108 -0.0708972
-21.9744 42.3813 -16.3899 -0.67498 0.735356 -0.0604417
-21.1555 43.1004 -15.5466 -0.591835 0.80586 -0.0179252
-20.3496 43.7025 -14.4008 -0.567663 0.823128 -0.0147957
-19.6924 44.1309 -13.1139 -0.512719 0.85853 0.00668337
-19.505 44.1884 -11.8604 -0.489545 0.871926 0.00955389
-19.416 44.208 -10.5683 -0.466334 0.884441 0.0172227
-19.5829 44.0841 -8.86046 -0.447056 0.894139 0.0178282
-19.5679 44.0478 -7.37707 -0.42117 0.906103 0.0399061
-19.6334 43.9775 -6.0761 -0.427717 0.903817 0.0131692
-19.681 43.9319 -4.7989 -0.425323 0.904378 0.0233999
-19.7678 43.8313 -3.56227 -0.441196 0.895956 0.051084
-19.8729 43.7458 -2.13722 -0.427966 0.903239 0.030782
-19.9741 43.6317 -0.396018 -0.405747 0.913139 0.0393189
-20.0811 43.5063 1.18351 -0.433255 0.900598 0.0348438
-20.101 43.4478 2.51666 -0.436607 0.899067 0.0324542
-20.128 43.3921 3.83508 -0.445453 0.894656 0.0325151
-20.4915 43.1293 5.20341 -0.464095 0.883689 0.0609006
-21.1241 42.7051 6.29009 -0.497032 0.864141 0.0788603
-22.2691 41.963 7.00712 -0.52027 0.849684 0.0848521
-23.2017 41.2913 7.60367 -0.556039 0.823121 0.115069
-24.2317 40.5637 7.75118 -0.562923 0.818742 0.113041
-25.2357 39.7753 7.90879 -0.609064 0.783391 0.123431
-26.4553 38.7852 7.9413 -0.619818 0.768966 0.156432
-27.5564 37.8812 7.83104 -0.636962 0.753488 0.162894
-28.6978 36.9522 7.44334 -0.659434 0.737874 0.143646
-29.5892 36.2415 6.85602 -0.676159 0.723098 0.141204
-30.4894 35.4961 6.23884 -0.685987 0.715127 0.134218
-31.3535 34.7522 5.65334 -0.716983 0.685922 0.12428
-32.2655 33.8821 5.09581 -0.726045 0.676586 0.122841
-33.0623 33.1233 4.3308 -0.738661 0.667863 0.0907476
-33.8562 32.3381 3.26348 -0.76405 0.642472 0.058184
-34.5104 31.6226 2.38527 -0.781221 0.621663 0.0543541
-35.1943 30.8007 1.35109 -0.799236 0.599529 0.0420252
-35.8724 29.9374 0.355065 -0.817635 0.574839 0.0321489
-36.4096 29.1541 -0.496118 -0.848942 0.527888 0.0251307
-36.8567 28.4648 -2.09755 -0.852306 0.523039 0.00223819
-37.0563 28.0834 -3.72239 -0.850316 0.525798 -0.0223205
-37.273 27.6925 -5.00905 -0.859991 0.510086 -0.0146178
-37.9686 26.4575 -6.06273 -0.86687 0.49796 -0.0239091
-38.4859 25.5137 -7.07862 -0.860498 0.508884 -0.0240856
-38.8259 24.8921 -8.11577 -0.866263 0.499247 -0.0184731
-39.092 24.3896 -9.57619 -0.861602 0.507331 -0.0160245
-39.5227 23.6508 -9.91342 -0.862245 0.506452 -0.000842221
-39.5169 23.6758 -8.53887 -0.868366 0.495871 -0.00717692
-39.534 23.6491 -7.23316 -0.877606 0.479377 0.00246193
-39.5482 23.612 -5.85136 -0.879529 0.475833 0.00117616
-39.5314 23.6397 -4.56778 -0.882512 0.470278 -0.000569788
-39.5233 23.6446 -3.07387 -0.884916 0.465719 0.00540469
-39.5184 23.6368 -1.747 -0.885053 0.465441 0.00673407
-39.5044 23.644 -0.346826 -0.884374 0.466746 0.00549224
-39.494 23.6466 0.950667 -0.884317 0.466835 0.0069119
-39.4695 23.6694 2.33915 -0.883234 0.468872 0.00720684
-39.495 23.6026 3.6324 -0.88095 0.473166 0.0064097
-39.4689 23.6284 5.08794 -0.876424 0.48148 0.00753079
-39.4109 23.6994 6.35074 -0.86899 0.494558 0.0163884
-39.0451 24.3345 6.58121 -0.867537 0.497137 0.0142424
-38.3527 25.5604 5.90582 -0.864226 0.50075 0.0486049
-37.5611 26.8921 5.74796 -0.850764 0.521674 0.0636992
-36.8682 27.9289 6.07422 -0.814266 0.574081 0.0860399
-36.0986 28.9589 6.48611 -0.80571 0.58278 0.105815
-35.3256 29.9101 7.04526 -0.775912 0.621103 0.11008
-34.5184 30.8074 7.59569 -0.769608 0.625232 0.128855
-33.8688 31.3946 8.4989 -0.755191 0.641065 0.136826
-33.3223 31.7597 9.63038 -0.733044 0.660544 0.162261
-32.9201 31.8458 10.8649 -0.717217 0.671186 0.187375
-32.7447 31.6161 12.2991 -0.712682 0.673247 0.197033
-32.766 31.1711 13.769 -0.713475 0.673129 0.194554
-32.847 30.7411 14.9973 -0.710776 0.678329 0.186189
-33.3312 29.9548 16.0688 -0.704604 0.687456 0.175892
-33.9052 29.1643 16.8441 -0.71108 0.683682 0.164148
-34.674 28.202 17.5293 -0.716037 0.680874 0.153955
-34.4163 28.3167 18.5848 -0.751033 0.654864 0.0805663
-34.343 28.3293 19.9345 -0.723481 0.689839 0.0264075
-33.5322 29.1512 20.3209 -0.713305 0.70083 0.00574799
-32.6293 30.0772 20.2896 -0.718916 0.694816 0.0197827
-31.5787 31.1444 20.3369 -0.708858 0.704753 0.0289134
-30.601 32.1146 20.3331 -0.701991 0.711519 0.0308213
-29.5094 33.2183 20.2993 -0.72009 0.69274 0.039111
-28.5855 34.1897 20.2781 -0.71029 0.702627 0.0418229
-27.5181 35.2727 20.3248 -0.711274 0.700865 0.0532935
-26.5969 36.2015 20.2882 -0.704543 0.707963 0.0484534
-25.6059 37.1631 20.3539 -0.696558 0.715851 0.0486145
-24.398 38.3143 20.2825 -0.687102 0.724493 0.0535304
-23.4384 39.1961 20.2428 -0.666816 0.743154 0.0544473
-22.4457 40.0629 20.3019 -0.645154 0.762447 0.0495099
-21.4757 40.8746 20.2767 -0.633722 0.772436 0.0417011
-20.3642 41.7601 20.3365 -0.620451 0.782836 0.046984
-19.365 42.5372 20.2752 -0.61175 0.790179 0.0371341
-18.2991 43.3511 20.2554 -0.606868 0.792987 0.0536883
-17.1129 44.2815 20.2469 -0.638758 0.768422 0.0389401
-16.2704 44.9977 20.0006 -0.647766 0.761702 0.013674
-16.253 45.0554 18.6614 -0.626617 0.778701 0.0181819
-15.6322 45.6417 17.8078 -0.691353 0.720535 0.0534728
-14.7052 46.5632 17.7487 -0.758963 0.634456 -0.146377
-13.6324 47.5494 17.9217 -0.430812 0.736866 -0.520988
-12.9864 47.96 18.8411 -0.0838775 0.991567 -0.0714394
-12.9551 48.0326 20.075 -0.168123 0.981745 -0.0889512
-11.408 48.2765 20.2523 -0.126166 0.986914 -0.0990442
-9.8401 48.3973 20.2097 -0.0780458 0.993113 -0.0873837
-8.57998 48.4709 20.2092 -0.0581514 0.995144 -0.079414
-7.29401 48.5251 20.25 -0.0287148 0.998728 -0.0414407
-5.96336 48.544 20.2911 0.00296656 0.999485 -0.0319516
-4.65811 48.5428 20.3079 0.00465358 0.999686 -0.0245419
-3.34333 48.5387 20.2483 0.00286658 0.999802 -0.0197142
-1.9215 48.5314 20.224 0.00805104 0.999822 -0.0170861
-0.667244 48.5224 20.2419 0.0122991 0.999892 -0.00803373
0.735233 48.5016 20.2324 0.0164308 0.999831 -0.00821514
2.11836 48.4788 20.2608 0.0202714 0.999773 -0.00652653
3.31637 48.4528 20.0464 0.0213136 0.999753 -0.00629091
4.72679 48.4246 20.1435 0.0196266 0.999795 -0.00496895
6.02889 48.4018 20.3936 0.0156412 0.999872 -0.00228963
7.29741 48.3847 20.334 0.0143417 0.999879 -0.00600574
8.84361 48.3656 20.2996 0.0143044 0.999854 -0.00896911
10.0879 48.3473 20.3019 0.014792 0.999859 -0.00800805
11.406 48.3278 20.3332 0.0152773 0.999839 -0.00945767
12.7498 48.3036 20.2448 0.0158461 0.999846 -0.00675232
12.8586 48.2916 18.9761 0.00391158 0.999897 -0.0137969
13.2271 48.1864 17.724 0.0221951 0.991521 -0.121536
12.3116 48.2677 18.1625 0.0193819 0.998627 -0.0482566
10.6468 48.317 18.5859 0.0159169 0.999723 -0.01736
9.34999 48.3391 18.7652 0.0135246 0.999812 -0.0138694
7.99294 48.3648 18.9345 0.0193139 0.99973 -0.0128804
6.73794 48.3841 18.9306 0.0170709 0.999817 -0.00865394
5.49059 48.4042 18.878 0.0164121 0.999829 -0.00847476
4.17162 48.4288 18.8071 0.019152 0.999801 -0.00552631
2.71171 48.4575 18.8091 0.0201083 0.99978 -0.00597644
1.13873 48.4834 18.8507 0.0150911 0.999834 -0.0102549
-0.447027 48.5037 18.8576 0.0132114 0.999827 -0.0130724
-1.73291 48.5101 18.9706 0.00260132 0.999859 -0.0165756
-3.22322 48.5063 18.6918 0.00279422 0.999758 -0.0218318
-4.42577 48.4709 18.1319 -0.0104298 0.999305 -0.0353623
-5.48991 48.395 17.3615 -0.0395844 0.997438 -0.0590782
-6.60781 48.2733 16.3132 -0.0514154 0.994361 -0.0921268
-7.14609 48.1296 15.1969 -0.0631395 0.989854 -0.12592
-7.74525 47.8953 13.7021 -0.10464 0.986633 -0.124505
-8.16522 47.6418 12.0978 -0.129223 0.984072 -0.122084
-8.23719 47.4859 10.8074 -0.151563 0.983268 -0.100484
-7.83602 47.4017 9.31079 -0.15069 0.984313 -0.0917685
-7.27585 47.3992 8.19547 -0.136314 0.987989 -0.072276
-6.32496 47.4653 7.19627 -0.13125 0.989231 -0.0647763
-5.40358 47.5327 6.28599 -0.120751 0.991293 -0.0525084
-4.26943 47.5981 5.16431 -0.100564 0.993548 -0.0524314
-3.03745 47.6712 4.06482 -0.0856186 0.995543 -0.0392776
-2.14395 47.7046 3.02989 -0.0674789 0.997051 -0.0355657
-1.25171 47.726 1.94278 -0.057188 0.997905 -0.0297085
-0.204232 47.7501 0.958954 -0.037534 0.998953 -0.0261103
0.932126 47.7608 -0.252962 -0.0227528 0.999626 -0.0151742
1.98691 47.7593 -1.39765 -0.00611625 0.999964 -0.00592757
2.88226 47.7483 -2.32917 0.0152997 0.999835 -0.0057434
3.92665 47.7165 -3.21404 0.0378642 0.999253 -0.0071437
5.01154 47.6636 -4.37272 0.055494 0.998459 0.000724622
6.12636 47.5915 -5.52998 0.0793608 0.996781 0.0114227
7.09629 47.5174 -6.38039 0.103758 0.994496 0.0145538
8.25828 47.3969 -6.93732 0.131625 0.991155 0.0169281
9.7157 47.1849 -7.20351 0.150595 0.988279 0.0238677
11.2469 46.8956 -7.05441 0.190544 0.981516 -0.0178645
12.5531 46.6162 -6.81095 0.241786 0.969861 -0.0301635
14.1196 46.2208 -6.33135 0.260285 0.964892 -0.0351439
15.559 45.8276 -5.53639 0.306318 0.950931 -0.0435799
16.6869 45.5106 -4.46526 0.322036 0.943982 -0.0720494
17.2855 45.3757 -3.23949 0.337932 0.939583 -0.0527419
17.5263 45.3982 -1.66234 0.350228 0.933671 -0.0744513
17.4704 45.5262 -0.34211 0.318924 0.943435 -0.0884806
17.4986 45.6196 1.00849 0.342882 0.937714 -0.0554076
17.5319 45.6897 2.25659 0.322673 0.944783 -0.0571667
17.5335 45.796 3.72195 0.32842 0.941602 -0.0743384
17.5266 45.9204 5.36124 0.339876 0.938589 -0.0572026
17.5776 45.9865 6.86212 0.312044 0.948707 -0.0508266
17.5103 46.1438 8.45252 0.334757 0.938995 -0.0789083
17.5419 46.2445 9.81124 0.325252 0.942553 -0.0742663
17.5064 46.3671 11.2351 0.347346 0.933901 -0.0847299
17.3341 46.5274 12.4916 0.362447 0.929174 -0.072587
16.9497 46.7807 13.7016 0.313635 0.945224 -0.0904693
16.2576 47.1456 14.9077 0.312467 0.941872 -0.122202
15.3761 47.5555 15.9337 0.216097 0.963208 -0.159787
14.4566 47.8872 16.789 0.191726 0.971389 -0.140161
14.084 48.0672 17.537 0.14418 0.980154 -0.133351
15.1966 47.8949 17.7685 0.18537 0.972771 -0.139123
16.4313 47.6149 17.858 0.276201 0.934206 -0.225768
17.2356 47.3091 18.837 0.552569 0.83301 -0.0200697
17.3912 47.2369 20.1008 0.525567 0.850304 -0.0275943
18.5803 46.4624 20.2345 0.545455 0.835774 -0.0629435
19.9413 45.461 20.1958 0.593215 0.803492 -0.049968
20.9192 44.6457 20.271 0.668088 0.74325 -0.00345333
21.8328 43.7606 20.3759 0.698494 0.715608 0.00343055
22.9087 42.6568 20.293 0.724879 0.688767 0.00449343
23.8181 41.679 20.3178 0.735988 0.676985 0.00360538
24.7258 40.6896 20.3349 0.740766 0.67174 0.00563428
25.6326 39.7099 20.3531 0.730003 0.68326 0.0158612
26.6083 38.6611 20.3958 0.727184 0.686342 0.00890289
27.6542 37.5573 20.3819 0.730631 0.682464 0.0204387
28.536 36.6136 20.3849 0.730111 0.683134 0.0162925
29.4768 35.6087 20.3982 0.724644 0.689082 0.0075458
30.1878 34.8701 19.8911 0.730504 0.682452 0.0249704
29.9906 35.1602 18.7783 0.740827 0.665765 0.0870297
28.9893 36.2393 18.7351 0.728954 0.676889 0.101859
28.1083 37.1891 18.6222 0.709203 0.699009 0.091745
27.2038 38.1425 18.5929 0.708161 0.701208 0.0821634
26.256 39.1155 18.4675 0.712266 0.695257 0.0964116
25.3306 40.157 18.2925 0.726382 0.675522 0.126643
24.4999 41.0829 18.1379 0.722118 0.683671 0.105548
23.5786 42.0956 17.9266 0.71541 0.692305 0.0943535
22.7982 42.9485 17.3169 0.691073 0.71902 0.072477
21.7704 43.9447 16.4782 0.646026 0.761469 0.053055
21.0705 44.543 15.4104 0.605074 0.796165 0.00254189
20.3059 45.085 14.2451 0.538827 0.84198 0.0271153
19.7225 45.4526 13.178 0.492611 0.869989 -0.0213069
19.3088 45.6298 11.8444 0.412645 0.909567 -0.0491146
19.222 45.596 10.4979 0.423987 0.904367 -0.04853
19.2484 45.4903 8.85445 0.395688 0.91539 -0.0740287
19.1997 45.3745 7.31361 0.371801 0.92521 -0.0699849
19.2101 45.2996 6.01306 0.395202 0.916944 -0.0550354
19.2683 45.1889 4.6348 0.389979 0.919398 -0.0503692
19.2232 45.1171 3.14041 0.39283 0.91677 -0.0722255
19.1898 45.0458 1.85317 0.355232 0.932412 -0.0664713
19.1728 44.9483 0.494927 0.365969 0.927304 -0.0776787
19.1196 44.8631 -0.754265 0.392515 0.915899 -0.0840271
19.1348 44.7327 -2.07866 0.389544 0.9171 -0.0847512
18.923 44.7301 -3.33396 0.398888 0.914571 -0.0667014
19.0391 44.5807 -4.61372 0.403889 0.911123 -0.0820333
19.5828 44.2247 -5.86965 0.416069 0.906229 -0.0750756
20.5331 43.6541 -6.97624 0.451651 0.886337 -0.10067
21.3996 43.0675 -7.79721 0.49822 0.858576 -0.120418
22.3075 42.4061 -8.58395 0.518015 0.844719 -0.134365
23.4575 41.5406 -9.30923 0.544005 0.823715 -0.159853
24.4384 40.8097 -9.55847 0.573453 0.799758 -0.177119
25.5994 39.9345 -9.63211 0.592901 0.783739 -0.184944
26.8909 38.9671 -9.51709 0.60625 0.774218 -0.181713
27.8983 38.2323 -9.16341 0.614458 0.763494 -0.198642
28.9546 37.5474 -8.43165 0.636648 0.748774 -0.184435
29.8686 36.9532 -7.60141 0.65592 0.733911 -0.176475
30.7074 36.4717 -6.48865 0.65481 0.735828 -0.17257
31.5556 35.9268 -5.45283 0.677239 0.725655 -0.121543
32.3494 35.2888 -4.60361 0.708124 0.696003 -0.118917
33.1981 34.5833 -3.80237 0.71589 0.690145 -0.102671
34.1452 33.6557 -2.84603 0.757849 0.646261 -0.0891167
35.0921 32.6531 -1.99351 0.768873 0.63302 -0.0901142
35.9949 31.6722 -0.837509 0.799768 0.594993 -0.0797131
36.5613 31.0181 0.178442 0.81088 0.582614 -0.0550716
37.1503 30.2475 1.07484 0.844455 0.535228 -0.0206434
37.6778 29.4335 2.06465 0.860089 0.509614 -0.0178282
38.2142 28.5298 2.88508 0.874871 0.483726 -0.0243761
38.6863 27.7279 3.79957 0.875261 0.482839 -0.0280209
39.2145 26.7607 5.16735 0.897461 0.440636 -0.0198769
39.5969 26.0484 6.43207 0.893283 0.448836 -0.0243388
39.8609 25.5972 7.79053 0.894776 0.445847 -0.0244302
40.0836 25.2201 9.02667 0.897214 0.440489 -0.0312585
40.1496 25.102 10.3135 0.887824 0.46016 0.00463321
40.1001 25.2112 11.7221 0.877901 0.478688 -0.0121543
40.0144 25.3563 13.0063 0.860832 0.508687 -0.0140963
39.4266 26.1346 14.6176 0.801279 0.597649 -0.0150201
38.4867 27.1751 16.0613 0.774417 0.629805 0.0601962
37.4868 28.1147 16.5076 0.685068 0.711496 0.156297
36.5897 28.8607 17.073 0.687483 0.703869 0.178707
35.7014 29.6631 17.3342 0.685814 0.703117 0.187844
35.2381 29.9832 17.8404 0.689063 0.700809 0.184553
35.969 29.2732 17.8225 0.685243 0.704451 0.184908
36.8989 28.3958 17.7636 0.679907 0.71331 0.170045
37.8645 27.4716 17.7736 0.687697 0.70887 0.156766
38.9049 26.612 17.7623 0.518922 0.846769 0.116904
40.0072 25.8235 17.7748 0.669097 0.712187 -0.212365
40.7273 24.8221 17.6332 0.865934 0.458948 -0.19881
41.0632 23.9504 16.7435 0.881143 0.463451 -0.0938089
41.1199 23.6313 15.3802 0.874733 0.480111 -0.065741
41.0417 23.6227 13.9546 0.874499 0.482627 -0.0436537
40.9406 23.6779 12.5145 0.889078 0.456061 -0.0393486
40.899 23.6654 11.2253 0.896151 0.442356 -0.035127
40.8719 23.6328 9.93596 0.902347 0.43001 -0.0293368
40.8389 23.6165 8.68473 0.906497 0.420781 -0.0347297
40.7827 23.6171 7.23637 0.907446 0.418551 -0.0368425
40.7321 23.6134 5.94537 0.908614 0.41615 -0.0352155
40.6699 23.6404 4.5996 0.909779 0.413595 -0.0352224
40.6346 23.6116 3.1277 0.914129 0.40424 -0.0309091
40.583 23.6095 1.80257 0.914241 0.40343 -0.0374566
40.4923 23.6855 0.459623 0.912695 0.407109 -0.0350459
40.4862 23.5663 -0.916156 0.909749 0.41309 -0.0413809
40.3781 23.6661 -2.3019 0.9064 0.420561 -0.0396001
40.3132 23.6748 -3.64781 0.904741 0.424142 -0.0393368
40.2879 23.5918 -5.14047 0.900711 0.43237 -0.0418805
39.7671 24.6934 -4.91489 0.899869 0.433762 -0.0456625
39.2622 25.8023 -4.31389 0.896817 0.439548 -0.0496063
38.715 26.9437 -4.03974 0.890721 0.450226 -0.0616817
37.9479 28.3282 -4.00313 0.856585 0.51048 -0.0753131
37.252 29.4397 -4.18178 0.836642 0.538988 -0.0965068
36.5451 30.3706 -4.9391 0.816745 0.568104 -0.0986002
35.8652 31.1884 -5.60897 0.801915 0.586855 -0.111482
35.138 31.9496 -6.29585 0.751381 0.64822 -0.122731
34.329 32.7395 -6.98132 0.738594 0.657885 -0.147109
33.1974 33.6857 -7.98382 0.713851 0.669899 -0.203412
32.2687 34.3602 -8.92547 0.701688 0.684239 -0.198624
31.6598 34.5762 -10.1034 0.665911 0.711842 -0.223256
31.3827 34.388 -11.4415 0.678072 0.694716 -0.239974
31.337 33.9258 -12.7945 0.672083 0.69172 -0.26425
31.7701 32.9527 -14.2293 0.674462 0.690105 -0.262403
32.1772 32.1356 -15.3644 0.689512 0.684319 -0.237235
32.7183 31.2811 -16.2252 0.696747 0.674476 -0.244183
33.4093 30.3729 -16.8146 0.706816 0.676197 -0.207551
34.269 29.3749 -17.3672 0.682503 0.702601 -0.20135
34.9361 28.754 -17.2608 0.688963 0.699135 -0.191156
35.8856 27.9092 -16.8667 0.69666 0.694701 -0.17904
37.0293 26.8882 -16.2053 0.714819 0.682757 -0.151253
37.9645 25.9571 -15.6154 0.739499 0.664114 -0.108698
38.7978 24.9965 -14.8317 0.792564 0.600189 -0.107777
39.5704 23.9976 -14.0678 0.82161 0.566411 -0.0643022
39.8006 23.598 -14.8282 0.813584 0.580483 -0.030746
39.681 23.725 -16.136 0.797466 0.603295 -0.00905532
39.1565 24.4069 -17.2245 0.753526 0.655884 -0.0249317
38.2818 25.3117 -17.7546 0.71283 0.695556 -0.0862462
37.3426 26.2395 -17.8229 0.698521 0.701214 -0.14228
36.2719 27.2631 -17.9125 0.684548 0.710456 -0.163236
35.2509 28.2802 -17.8853 0.698712 0.693369 -0.176182
34.4202 29.0861 -17.8872 0.666461 0.721883 -0.186319
33.413 30.048 -17.8899 0.690608 0.692649 -0.208081
32.684 30.6809 -18.5583 0.759469 0.646596 -0.0715577
32.5907 30.6913 -19.9384 0.716166 0.697731 -0.0166543
31.8556 31.4343 -20.4099 0.708144 0.70586 -0.0159366
30.8273 32.4548 -20.4066 0.696788 0.716846 -0.0246434
29.8392 33.419 -20.4824 0.706347 0.70689 -0.037155
28.9279 34.3069 -20.4316 0.693386 0.720071 -0.0265347
27.8667 35.343 -20.4348 0.696356 0.716448 -0.0421869
26.9232 36.2426 -20.4725 0.6852 0.726243 -0.0554293
25.9915 37.1367 -20.4451 0.694689 0.717503 -0.0509503
24.8596 38.1895 -20.4321 0.668128 0.741611 -0.0599901
23.7293 39.2031 -20.327 0.653095 0.754745 -0.0610388
22.5402 40.204 -20.3371 0.635896 0.768866 -0.0669438
21.352 41.1598 -20.2933 0.611024 0.788661 -0.0678446
20.1765 42.034 -20.3996 0.591214 0.80389 -0.0643382
19.1327 42.7881 -20.3216 0.574067 0.816612 -0.0592531
17.8742 43.6766 -20.2741 0.579638 0.813963 -0.0385287
16.6361 44.5454 -20.3564 0.588012 0.808723 -0.0144694
15.908 45.0739 -19.7263 0.583647 0.811968 0.00136325
15.7616 45.2125 -18.3815 0.559515 0.826046 -0.0677634
14.8615 45.9966 -17.8489 0.700393 0.708415 -0.00770395
13.8151 46.9996 -17.9398 0.582902 0.747833 0.31776
12.8408 47.7793 -18.4306 0.159563 0.709658 0.68624
12.5939 47.8876 -19.9195 0.131237 0.991017 0.0230464
11.5107 48.0531 -20.3336 0.125971 0.991271 0.0361246
9.64914 48.2809 -20.3704 0.108365 0.992202 0.0590203
8.26097 48.3918 -20.3445 0.0801744 0.994042 0.0738467
6.96206 48.4371 -20.4226 0.0146374 0.99794 0.0613206
5.67694 48.4425 -20.3775 -0.00448032 0.99887 0.044276
4.41574 48.421 -20.418 -0.0246714 0.999222 0.0296235
3.13551 48.3805 -20.4016 -0.0341872 0.999159 0.0223469
1.85433 48.3344 -20.2957 -0.0340127 0.999286 0.0161113
0.220613 48.2746 -20.3541 -0.0383076 0.999188 0.0124817
-1.04828 48.2278 -20.4147 -0.0379118 0.999235 0.009596
-2.34121 48.1795 -20.4221 -0.0375729 0.999272 0.00654815
-3.79365 48.1247 -20.4355 -0.0386654 0.999203 0.00990954
-5.12135 48.0726 -20.3927 -0.0390418 0.999188 0.00992544
-6.68899 48.0137 -20.3601 -0.0374331 0.999188 0.0149176
-8.03185 47.9608 -20.4047 -0.0447371 0.998799 0.0189621
-9.40431 47.8953 -20.3874 -0.0574921 0.997827 0.0299511
-11.1117 47.7682 -20.3839 -0.0793197 0.996348 0.0313017
-12.5376 47.6386 -20.366 -0.088962 0.995774 0.0222395
-12.8667 47.5915 -19.1989 -0.0729041 0.996979 0.0267948
-13.1138 47.5028 -18.0693 -0.159334 0.959556 0.213394
-11.6926 47.6509 -18.3875 -0.0774883 0.995591 0.0483922
-10.4502 47.7512 -18.6345 -0.0693134 0.996424 0.0483185
-9.04666 47.8649 -18.9457 -0.0710496 0.996354 0.0471927
-7.27676 47.963 -18.8976 -0.0492904 0.998537 0.022237
-5.91768 48.0196 -18.8865 -0.0397587 0.999087 0.0154087
-4.53008 48.0771 -18.7778 -0.0442324 0.998918 0.0142356
-3.22565 48.1313 -18.8688 -0.0388619 0.999196 0.00989645
-1.91981 48.1826 -18.7954 -0.0375314 0.999249 0.00928413
-0.417344 48.2349 -18.8761 -0.0345994 0.999348 0.0102873
0.913739 48.2812 -18.9659 -0.032269 0.999397 0.012852
2.15645 48.3108 -18.6835 -0.0236156 0.999515 0.0202885
3.78718 48.3269 -18.0886 -0.0203108 0.999247 0.0330455
4.93281 48.2946 -17.2418 -0.00107287 0.998735 0.05006
5.98651 48.1984 -16.1509 0.0347485 0.996788 0.0721585
6.82607 48.0532 -14.8514 0.0507992 0.994366 0.0930402
7.56801 47.8643 -13.4642 0.0943219 0.991633 0.0881277
7.76475 47.7198 -11.9817 0.126746 0.988191 0.0860338
7.74752 47.616 -10.6079 0.124804 0.990169 0.0631691
7.33606 47.5877 -9.21564 0.101036 0.993739 0.0476888
6.57317 47.6185 -8.08975 0.089461 0.99515 0.0409114
5.65574 47.6658 -7.1599 0.0768117 0.996641 0.0270395
4.55338 47.7114 -6.05633 0.059114 0.997906 0.0246173
3.37078 47.7449 -4.97405 0.0382637 0.999174 0.0126424
2.43344 47.7564 -3.98591 0.0129449 0.99979 0.0146274
1.66004 47.7572 -2.99351 -0.00352937 0.999976 0.00593863
0.665875 47.7446 -2.12764 -0.0183009 0.999803 0.0056261
-0.274641 47.722 -1.17635 -0.0307915 0.999514 -0.00491613
-1.32034 47.6871 -0.0843408 -0.0476072 0.998783 -0.0110937
-2.23786 47.6449 0.82722 -0.0543598 0.998489 -0.00803509
-3.11144 47.602 1.99754 -0.0769049 0.996772 -0.0230548
-4.03906 47.5448 2.92117 -0.0914206 0.995395 -0.0288367
-5.2985 47.4474 4.00015 -0.111923 0.993114 -0.0337114
-6.26394 47.372 5.05417 -0.124536 0.991351 -0.0401122
-7.15402 47.2941 6.06331 -0.131256 0.99029 -0.045801
-7.892 47.2281 7.07502 -0.153537 0.986983 -0.0478685
-9.21808 47.0583 7.99358 -0.186387 0.979303 -0.0789028
-10.4861 46.8288 8.32348 -0.208699 0.975547 -0.0689167
-12.0721 46.4432 8.32921 -0.252009 0.965873 -0.0598348
-19.6234 44.2081 -17.1064 -0.590082 0.807336 0.00330999
-18.9706 44.6378 -16.1664 -0.529578 0.847873 0.025649
-18.2677 45.0886 -16.7903 -0.524565 0.850774 0.0306328
-18.7881 44.8161 -17.8334 -0.561334 0.827318 -0.0136648
-20.0237 43.9171 -17.6045 -0.602109 0.798028 -0.0189856
-19.9215 43.9916 -17.4349 -0.588298 0.808637 0.0011015
-20.6086 43.4784 -16.5848 -0.597355 0.80146 -0.0287829
-21.4133 42.792 -17.452 -0.638537 0.76826 -0.045237
-22.5078 41.74 -18.3675 -0.685641 0.726209 -0.0501644
-23.3355 40.8922 -18.732 -0.712451 0.700139 -0.0453612
-22.4434 41.7557 -19.1959 -0.68396 0.729211 -0.0212056
-21.2138 42.8657 -19.1764 -0.652337 0.757328 -0.0295382
-20.0724 43.8128 -19.1509 -0.62225 0.782153 -0.0253292
-19.0867 44.5771 -19.0806 -0.575493 0.817757 -0.00806758
-18.0952 45.2719 -19.0613 -0.559085 0.828912 -0.00304676
-17.6644 45.5458 -17.976 -0.518178 0.851286 0.0806061
-16.965 45.843 -17.023 -0.480366 0.873113 0.0824402
-17.4488 45.488 -15.7679 -0.463619 0.88503 0.041875
-18.1381 45.0531 -14.5263 -0.484472 0.872191 0.0676021
-18.8803 44.6366 -14.2236 -0.486375 0.872468 0.0257125
-19.6441 44.1929 -15.2866 -0.548358 0.835428 0.00688247
-20.3084 43.7142 -16.2103 -0.586673 0.809676 -0.0110112
-20.3607 43.6742 -16.2775 -0.596168 0.802534 -0.0216814
-35.929 29.6427 3.55125 -0.814925 0.576681 0.0550314
-35.2238 30.473 4.40941 -0.786187 0.611924 0.08636
-36.0501 29.4204 4.01085 -0.80867 0.584123 0.0696568
-36.913 28.1618 3.53765 -0.843036 0.536614 0.0360287
-37.6872 26.8961 3.35417 -0.864875 0.499787 0.0469446
-38.2792 25.8435 3.0729 -0.877145 0.479801 0.0201645
-38.3629 25.7376 1.79957 -0.876362 0.481435 0.0145049
-38.3786 25.7483 0.333074 -0.878725 0.477208 0.00888144
-38.3431 25.8496 -1.26274 -0.880105 0.47459 0.0133843
-38.3444 25.864 -2.3392 -0.881341 0.472456 0.0047825
-38.0187 26.4484 -1.38513 -0.875234 0.48356 0.0116001
-37.778 26.83 0.0232753 -0.872393 0.488593 0.0131727
-37.2977 27.6479 1.34646 -0.869025 0.494697 0.00645577
-36.7607 28.4769 2.28913 -0.837851 0.545195 0.0252119
-36.1958 29.2882 3.12533 -0.821711 0.568233 0.0434913
-36.0652 29.4614 3.3394 -0.821181 0.569236 0.040406
38.8275 27.0457 -1.62496 0.893458 0.446458 -0.0455773
38.1982 28.2453 -1.50449 0.863992 0.498826 -0.0684864
37.8562 28.8765 -1.19209 0.863952 0.499965 -0.0601856
38.3385 28.1063 0.102851 0.880048 0.473862 -0.0311068
38.8389 27.218 0.921436 0.886903 0.460045 -0.0419631
39.3367 26.3003 1.70277 0.89503 0.445281 -0.0241221
39.5029 25.8831 0.867291 0.900567 0.431872 -0.0496475
39.46 25.8019 -0.811902 0.903389 0.426313 -0.0456265
39.0327 26.6213 -1.57007 0.902808 0.427398 -0.0473351
38.9935 26.5274 -2.84689 0.900699 0.429619 -0.0645594
39.6054 25.217 -3.19257 0.900921 0.431232 -0.0486546
39.8688 24.7828 -2.07462 0.902302 0.428669 -0.0457587
39.9914 24.6863 -0.550758 0.905966 0.420709 -0.0471438
40.0261 24.7481 0.741993 0.910634 0.41109 -0.0418336
40.1466 24.6241 2.14506 0.910687 0.411401 -0.0373997
40.1317 24.7608 3.64333 0.907195 0.420124 -0.0222305
40.1664 24.7632 4.95588 0.90718 0.419691 -0.0297415
40.1755 24.798 5.73101 0.903754 0.426744 -0.0334264
39.7697 25.5928 4.69048 0.903402 0.428186 -0.0228276
39.4154 26.2691 3.62214 0.897595 0.439975 -0.0258711
38.9912 27.0452 2.62994 0.893797 0.447283 -0.0326363
38.374 28.1708 1.66899 0.884382 0.465261 -0.0374123
37.8531 29.0613 0.737742 0.872495 0.487101 -0.0346832
37.3207 29.8883 -0.290555 0.837696 0.54273 -0.049522
36.6047 30.7654 -1.53 0.808545 0.583678 -0.0746608
35.9898 31.4689 -2.41957 0.793326 0.602811 -0.0851641
35.1093 32.4488 -3.29032 0.77114 0.630813 -0.0861284
34.3416 33.2527 -4.21719 0.76813 0.634783 -0.0836967
33.4562 34.1036 -5.02289 0.719856 0.682919 -0.121511
32.4559 34.93 -5.97277 0.695366 0.70696 -0.12913
31.7494 35.4077 -6.92197 0.685676 0.709826 -0.161232
30.8749 35.939 -7.99158 0.665072 0.718732 -0.202628
29.9978 36.4931 -8.87572 0.663505 0.7174 -0.212324
29.0554 37.0847 -9.75422 0.645135 0.730026 -0.22553
27.8477 37.9273 -10.3918 0.621304 0.753493 -0.215013
26.7302 38.7539 -10.7441 0.626645 0.749862 -0.212185
25.6002 39.6274 -10.9167 0.595882 0.781364 -0.185459
24.5766 40.4365 -10.8125 0.592533 0.785825 -0.176741
23.4285 41.3039 -10.5621 0.563282 0.809765 -0.164273
22.2818 42.1844 -10.0236 0.540964 0.828699 -0.142651
21.0774 43.0583 -9.18191 0.505508 0.854639 -0.118543
19.9409 43.8166 -8.14895 0.466306 0.878417 -0.104606
19.0743 44.3535 -7.05662 0.41326 0.906862 -0.0809921
18.2922 44.7865 -5.84352 0.388394 0.918879 -0.0693581
17.2386 45.2299 -5.65307 0.367326 0.928562 -0.0533322
16.25 45.5543 -6.50403 0.341978 0.938277 -0.0502569
14.9404 45.9392 -7.3447 0.288319 0.956028 -0.0536929
13.4427 46.3671 -7.91251 0.271582 0.962021 -0.0253706
12.1184 46.715 -8.14167 0.253049 0.967226 0.0209872
10.8307 47.0148 -8.38217 0.213249 0.976504 0.0304505
9.17979 47.3053 -8.46413 0.151285 0.987802 0.0368905
8.72103 47.3942 -8.96491 0.148985 0.987972 0.0411265
9.06975 47.4039 -10.2041 0.141733 0.987486 0.0689983
9.0844 47.5118 -11.7121 0.151304 0.983876 0.0953692
8.86371 47.7159 -13.53 0.134235 0.986759 0.0910363
8.37734 47.8991 -14.717 0.103923 0.990446 0.0906465
7.65418 48.1223 -16.2695 0.0915999 0.991591 0.0914154
6.77559 48.2435 -17.2908 0.0476905 0.996641 0.0665758
5.75933 48.3314 -18.1787 0.0326778 0.997722 0.0590012
4.72627 48.3729 -18.952 -0.00256605 0.99881 0.0487078
5.51235 48.3806 -19.1228 0.00961313 0.998936 0.0451075
6.91589 48.3485 -19.0618 0.0248896 0.997637 0.0640429
8.27809 48.2885 -19.0053 0.0645316 0.994455 0.082764
9.83877 48.1756 -19.1115 0.0930627 0.994184 0.0542021
11.3281 48.0065 -18.7526 0.112385 0.992677 0.0442832
12.1228 47.6762 -17.6502 0.252706 0.938523 0.235188
12.9701 47.196 -16.9415 0.401845 0.891248 0.210231
14.0355 46.555 -16.6984 0.595114 0.789085 0.145352
15.1363 45.7894 -16.7268 0.58242 0.812556 0.0232245
16.2632 44.9677 -17.221 0.563535 0.823026 -0.0711094
16.7558 44.512 -18.3354 0.447543 0.884591 -0.131163
17.6984 43.8586 -18.9674 0.555108 0.83009 -0.0522559
18.912 43.0338 -19.0122 0.569181 0.819694 -0.0643047
20.0889 42.1991 -19.1027 0.578768 0.809952 -0.0948918
21.4874 41.1677 -19.0837 0.602638 0.792444 -0.0941305
22.6103 40.263 -19.1552 0.633699 0.767555 -0.096139
23.8716 39.1994 -19.0468 0.655694 0.749668 -0.0897936
24.8422 38.3314 -19.1335 0.666769 0.740115 -0.0873056
25.8436 37.3909 -19.2414 0.700897 0.70582 -0.102768
26.7744 36.4986 -19.272 0.683676 0.724219 -0.0899562
27.7275 35.5731 -19.2117 0.697806 0.712736 -0.0712326
28.6523 34.6649 -19.2073 0.70104 0.708506 -0.0810004
29.7175 33.6284 -19.2324 0.692463 0.716526 -0.0837596
30.7303 32.6411 -19.1126 0.702524 0.704794 -0.0985818
31.7002 31.6849 -19.0235 0.710999 0.697096 -0.092398
32.1326 31.4247 -17.866 0.714194 0.681879 -0.158013
31.8232 31.9943 -16.9024 0.68632 0.703912 -0.182956
31.3203 32.8004 -15.9021 0.682053 0.698937 -0.215152
30.8473 33.6416 -14.8164 0.686197 0.684638 -0.245741
30.5058 34.3664 -13.7577 0.66783 0.701505 -0.248772
30.4457 34.9081 -12.4676 0.665714 0.697 -0.266463
30.5532 35.3452 -10.9059 0.658209 0.716664 -0.230551
30.8694 35.5026 -9.48588 0.659795 0.717625 -0.222903
31.6657 35.1351 -8.22954 0.67079 0.713881 -0.200844
32.698 34.4338 -7.14852 0.689848 0.702379 -0.174791
33.5704 33.7414 -6.35766 0.714143 0.6804 -0.162857
34.6079 32.7322 -5.41877 0.742602 0.659697 -0.115512
35.4004 31.9079 -4.67956 0.77503 0.626924 -0.0793417
36.1496 31.0508 -3.95916 0.794372 0.600342 -0.0925345
37.0013 29.9865 -3.03632 0.823495 0.562056 -0.0771274
37.7056 28.9242 -2.69981 0.854795 0.513773 -0.0731719
38.5237 27.466 -2.87175 0.879214 0.471239 -0.0692518
38.7439 27.0515 -2.84265 0.891969 0.447264 -0.0629014
10.6702 47.9589 -17.3828 0.141302 0.980391 0.127306
9.44031 48.1097 -17.7815 0.0611584 0.993705 0.0938628
8.69637 48.1092 -17.1734 0.0881651 0.99296 0.0790994
9.30663 47.9111 -15.6564 0.0924731 0.990295 0.103574
9.89284 47.6793 -14.5605 0.16464 0.980126 0.108959
10.1921 47.4744 -13.321 0.185252 0.975303 0.120273
10.32 47.3163 -11.9994 0.19338 0.976373 0.0964162
10.3562 47.2029 -10.5898 0.181505 0.980784 0.071378
11.2109 46.9776 -9.62125 0.207159 0.977253 0.0443308
12.9319 46.513 -9.40145 0.281314 0.959263 0.0260107
14.6891 45.9719 -8.86576 0.321779 0.946616 -0.0194058
15.9426 45.5697 -8.10452 0.344341 0.938094 -0.037521
17.1864 45.1514 -7.27245 0.375655 0.924554 -0.0613519
18.1815 44.6815 -7.83766 0.40508 0.911471 -0.0716352
19.0919 44.1449 -9.01537 0.43829 0.893551 -0.0973066
19.9385 43.6185 -9.81948 0.459175 0.881213 -0.112291
20.8074 43.03 -10.5347 0.541174 0.827539 -0.149368
21.7476 42.3203 -11.2338 0.533776 0.832018 -0.150214
22.9125 41.4421 -11.6951 0.569587 0.805522 -0.163251
24.0448 40.564 -11.9587 0.578201 0.794669 -0.184874
25.2841 39.5389 -12.1795 0.618904 0.75624 -0.212271
26.2974 38.7459 -12.0375 0.627775 0.74614 -0.221745
27.4392 37.8756 -11.7112 0.632139 0.743727 -0.217417
28.6822 36.9407 -11.261 0.641564 0.730462 -0.234078
29.5923 36.1646 -11.1374 0.651555 0.719204 -0.241149
29.5353 35.6482 -12.7592 0.659968 0.707392 -0.25306
29.5818 35.1841 -13.9388 0.668183 0.700427 -0.250865
29.8504 34.4787 -15.2328 0.679391 0.695636 -0.233491
30.331 33.6503 -16.2903 0.689041 0.686758 -0.231486
30.8825 32.7959 -17.3547 0.679055 0.714509 -0.167224
30.3202 33.2104 -17.9182 0.694297 0.711135 -0.110625
29.4108 34.0981 -17.9945 0.681037 0.720798 -0.128944
28.434 35.0704 -18.0078 0.700964 0.699567 -0.138737
27.5299 35.9422 -18.0179 0.684375 0.715234 -0.14154
26.6059 36.8568 -18.045 0.695413 0.702875 -0.14956
25.6989 37.7309 -17.957 0.65924 0.739311 -0.137192
24.6334 38.6987 -17.8654 0.658504 0.742888 -0.120368
23.6127 39.5984 -17.8445 0.645634 0.753749 -0.122419
22.4188 40.5852 -17.9075 0.631678 0.765403 -0.123047
21.3521 41.4307 -17.8461 0.600061 0.792158 -0.110471
20.0315 42.3921 -17.7762 0.565441 0.816876 -0.113973
18.7156 43.2991 -17.6946 0.553543 0.827397 -0.0948874
17.5918 44.0461 -17.562 0.541766 0.835287 -0.0937299
16.83 44.6825 -16.1592 0.527578 0.846048 -0.0761765
15.5622 45.5169 -15.6342 0.524391 0.851329 -0.0101364
14.1914 46.3374 -15.5219 0.524332 0.84878 0.0681726
12.9237 46.9486 -15.467 0.397974 0.907561 0.124345
11.7412 47.488 -16.2031 0.316332 0.93002 0.187077
10.739 47.9269 -17.2821 0.201969 0.963546 0.175247
18.6289 46.187 15.7883 0.5021 0.862736 -0.047046
19.3043 45.8189 17.0168 0.552771 0.832429 -0.0197161
19.778 45.4958 17.7624 0.577992 0.815469 -0.0305846
18.7918 46.1746 17.3807 0.56625 0.822084 -0.0594766
18.2411 46.4327 16.1506 0.473036 0.873826 -0.112479
18.4363 46.2813 15.66 0.461129 0.885043 -0.0617872
17.5638 46.6526 14.9791 0.405592 0.909274 -0.0933622
18.1323 46.3069 13.8272 0.436112 0.896438 -0.066493
18.942 45.8918 14.1181 0.457254 0.887771 -0.0426844
19.5689 45.5814 15.2523 0.529974 0.847551 -0.0280154
20.1943 45.1834 16.1621 0.592438 0.805584 -0.000364093
20.8654 44.6786 17.0486 0.635055 0.77147 0.0392227
21.8409 43.7782 18.1254 0.676083 0.735613 0.0336133
22.6046 43.0302 18.572 0.705721 0.707083 0.044618
22.2708 43.3449 19.113 0.69824 0.715272 0.0290865
21.2522 44.2979 19.1124 0.670914 0.740942 -0.00977495
20.1913 45.2061 19.0589 0.616305 0.786283 -0.0438925
18.9877 46.1164 19.0508 0.588893 0.807499 -0.0339209
18.0345 46.7447 18.0897 0.548229 0.8344 -0.0567511
17.3706 47.0359 17.0944 0.461824 0.876248 -0.133256
16.7822 47.1775 16.2225 0.378875 0.910783 -0.154166
17.4726 46.7106 15.1476 0.415573 0.904167 -0.0981474
-38.6658 24.6904 -16.2547 -0.786079 0.617725 -0.0187734
-38.4957 24.8894 -16.4805 -0.775076 0.631172 -0.0296528
-38.0024 25.5703 -15.6126 -0.770982 0.632776 -0.0717554
-38.6132 24.8936 -14.4902 -0.787328 0.615142 -0.041412
-38.9979 24.4181 -13.1629 -0.828136 0.559619 -0.0318915
-39.1803 24.1727 -11.9818 -0.843826 0.536437 -0.0138799
-39.2108 24.1773 -10.6826 -0.862413 0.505796 -0.0108127
-39.5316 23.6281 -10.7756 -0.854325 0.519566 -0.0134586
-39.5054 23.655 -12.2213 -0.84805 0.529763 -0.0084072
-39.5202 23.6158 -13.4221 -0.842819 0.53819 -0.0027228
-39.5171 23.5958 -14.7 -0.831445 0.555484 -0.0106046
-39.5173 23.5689 -15.9266 -0.821273 0.570341 0.00104237
-39.2485 23.9596 -17.0273 -0.782889 0.621432 0.0301098
-38.6465 24.6854 -17.7568 -0.754885 0.655781 -0.00660999
-37.7709 25.6136 -17.8567 -0.722991 0.688726 -0.0542305
-36.8643 26.5545 -17.8769 -0.722613 0.683737 -0.101658
-36.1076 27.4351 -17.4072 -0.718839 0.684131 -0.123429
-36.9047 26.6692 -16.8739 -0.736748 0.668629 -0.100688
-37.624 25.9624 -16.1873 -0.757324 0.647277 -0.0842694
-37.9049 25.6756 -15.7232 -0.767507 0.637133 -0.0706719
40.5344 24.6217 15.2439 0.841802 0.534924 -0.0713149
40.333 24.8578 14.5068 0.853193 0.519478 -0.0398907
39.8296 25.6779 15.9131 0.766255 0.639095 0.000751019
39.9747 25.5784 16.4183 0.738324 0.652226 -0.139702
40.5036 24.7575 15.9046 0.845289 0.527985 -0.0818306
40.5381 24.6393 15.4308 0.847906 0.525944 -0.0666133
-39.2587 23.5973 16.2275 -0.760978 0.648368 0.0189502
-38.5874 24.2946 17.342 -0.717146 0.694438 0.0588078
-37.608 25.2372 17.74 -0.700671 0.70926 0.0775283
-36.5427 26.2958 17.7481 -0.699843 0.705271 0.113192
-36.1205 26.7981 17.2442 -0.697701 0.702717 0.13929
-37.1719 25.8662 16.4615 -0.705765 0.700372 0.106501
-37.8597 25.2533 15.4663 -0.725133 0.686284 0.0565407
-38.5236 24.5812 14.5931 -0.783099 0.616695 0.0802704
-39.0376 24.0345 13.5241 -0.81392 0.580965 0.00363294
-39.3295 23.6236 13.5698 -0.817751 0.575094 0.0228448
-39.3408 23.5356 14.994 -0.779946 0.625207 0.0247333
-39.2968 23.5561 16.057 -0.770862 0.636842 0.0132875
-35.5354 27.266 17.8032 -0.694621 0.705767 0.138803
-35.4488 27.4423 17.3754 -0.700022 0.698965 0.146342
-35.0641 27.746 17.7533 -0.701094 0.693593 0.164722
-35.413 27.4012 17.7425 -0.700022 0.698967 0.146339
-37.9442 26.4919 2.022 -0.876135 0.481823 0.0152969
-37.7707 26.8167 1.3698 -0.869038 0.494703 0.00645174
-37.4956 27.2939 2.25823 -0.866968 0.498257 0.0103103
-37.5742 27.1485 2.55893 -0.867836 0.496678 0.0130892
-30.656 34.1946 10.8446 -0.695026 0.693769 0.188745
-30.2569 34.8678 9.84796 -0.693122 0.694762 0.192063
-29.6004 35.4179 10.2268 -0.692356 0.694802 0.194661
-30.1026 34.5715 11.4718 -0.688255 0.699736 0.191507
-30.478 33.9235 12.4218 -0.694236 0.689424 0.206717
-30.4565 33.36 14.4222 -0.701322 0.68529 0.196277
-30.055 34.0681 13.3788 -0.694699 0.690897 0.200137
-29.5984 34.8574 12.2164 -0.687466 0.698959 0.197099
-29.1707 35.5769 11.1593 -0.687169 0.698759 0.198833
-28.9424 35.9561 10.6047 -0.678895 0.711054 0.183042
-28.1735 36.6516 10.7491 -0.677461 0.712307 0.183481
-28.608 35.9636 11.7528 -0.687994 0.698617 0.196462
-29.0184 35.2758 12.7623 -0.689686 0.698239 0.191822
-29.4253 34.5898 13.781 -0.694223 0.692507 0.196186
-29.8753 33.8025 14.9539 -0.699295 0.687607 0.195406
-30.2735 33.1078 16.0011 -0.707222 0.687643 0.164268
-30.6723 32.4408 17.0679 -0.719469 0.67886 0.146672
-30.7068 32.3878 17.1527 -0.714742 0.686131 0.135526
-29.9385 33.2043 17.1337 -0.719468 0.678861 0.146673
-29.5165 33.8809 16.0478 -0.705099 0.686075 0.179267
-29.0876 34.6116 14.9386 -0.699396 0.690194 0.185679
-28.6699 35.3172 13.8727 -0.692194 0.697304 0.186102
-28.1721 36.1331 12.6575 -0.682035 0.705602 0.192235
-27.7263 36.8509 11.6174 -0.671347 0.717381 0.186167
-27.3643 37.3856 10.8314 -0.660509 0.73112 0.170855
-26.568 38.0437 11.0182 -0.637388 0.748076 0.184713
-27.1546 37.2107 12.2438 -0.66429 0.722054 0.19328
-27.6463 36.457 13.343 -0.680859 0.707453 0.18958
-28.0807 35.7599 14.3888 -0.689008 0.701126 0.183548
-28.5101 35.057 15.4681 -0.705314 0.68781 0.171608
-28.9249 34.379 16.5204 -0.711586 0.685711 0.153121
-29.1638 34.0094 17.1123 -0.71036 0.689065 0.143451
-28.3668 34.8401 17.0546 -0.707217 0.692069 0.144515
-27.9266 35.5326 15.9605 -0.697486 0.696624 0.168015
-27.4921 36.2043 14.9009 -0.689313 0.703263 0.173981
-26.9777 36.9951 13.7163 -0.673159 0.716399 0.183385
-26.4947 37.7018 12.6764 -0.66026 0.730061 0.176262
-25.9726 38.4182 11.6055 -0.644425 0.744156 0.175921
-25.8295 38.6057 11.3216 -0.635154 0.754571 0.164931
-24.9004 39.3986 11.2339 -0.618117 0.770494 0.155789
-25.4076 38.7637 12.233 -0.639173 0.751417 0.163799
-25.9537 38.03 13.351 -0.661998 0.72902 0.174035
-26.5144 37.2276 14.5465 -0.669674 0.721043 0.177855
-26.9615 36.5685 15.5489 -0.685363 0.709522 0.163878
-27.447 35.846 16.706 -0.693332 0.70836 0.132355
-27.618 35.6017 17.1066 -0.703828 0.697006 0.137145
-26.7103 36.5397 16.8388 -0.691055 0.710793 0.13121
-26.2237 37.2226 15.7525 -0.672473 0.721761 0.163835
-25.7558 37.8853 14.7415 -0.671169 0.723494 0.161518
-25.2637 38.5544 13.7104 -0.65256 0.739732 0.164204
-24.7143 39.2642 12.6065 -0.635707 0.75616 0.15524
-24.1798 39.9 11.5883 -0.611623 0.774955 0.159252
-23.9249 40.201 11.1025 -0.602831 0.783567 0.150392
-23.1097 40.7718 11.3085 -0.586764 0.796852 0.143997
-23.71 40.1201 12.4035 -0.620751 0.772632 0.133072
-24.2833 39.4479 13.483 -0.635826 0.756435 0.153397
-24.8425 38.7324 14.6092 -0.653011 0.741564 0.153819
-25.3543 38.0481 15.6915 -0.668801 0.728921 0.146214
-25.8164 37.4162 16.6925 -0.681572 0.718707 0.137548
-26.0447 37.1159 17.1733 -0.686356 0.718095 0.115133
-25.1907 37.9354 17.1292 -0.676622 0.726191 0.121775
-24.6297 38.6575 15.9437 -0.656504 0.741614 0.137881
-24.0513 39.3937 14.7576 -0.640169 0.754592 0.144137
-23.5091 40.0547 13.7156 -0.622333 0.768834 0.146956
-22.9459 40.6738 12.6999 -0.607583 0.783451 0.130567
-22.3896 41.2468 11.6909 -0.592473 0.797586 0.113281
-21.7113 41.9085 10.4903 -0.578804 0.806894 0.117933
-21.6965 41.9218 10.4654 -0.557705 0.824792 0.0931804
-19.7136 43.3071 8.94153 -0.485114 0.871379 0.0732303
-20.5821 42.678 10.2488 -0.50739 0.857974 0.0802253
-21.357 42.0178 11.5263 -0.568637 0.815045 0.111148
-21.9238 41.4664 12.5334 -0.584953 0.801694 0.122952
-22.5692 40.7954 13.6937 -0.597788 0.79137 0.127997
-23.2027 40.0916 14.8488 -0.628277 0.764208 0.145789
-23.8978 39.2654 16.1918 -0.644796 0.75372 0.127064
-24.2153 38.8722 16.8406 -0.66466 0.73652 0.125561
-23.4814 39.4802 17.094 -0.655449 0.746971 0.111451
-22.8745 40.1737 15.9315 -0.628895 0.766359 0.131094
-22.2156 40.904 14.7169 -0.620128 0.773535 0.130713
-21.6472 41.4917 13.7076 -0.590169 0.799706 0.110324
-20.9771 42.139 12.5324 -0.559065 0.822517 0.104458
-20.279 42.7454 11.363 -0.522938 0.847225 0.0935183
-19.4098 43.3898 10.0247 -0.50219 0.862324 0.064836
-18.5625 43.9224 8.82249 -0.45517 0.889783 0.0332659
-17.8195 44.2871 9.28352 -0.457891 0.888413 0.0325162
