-42.7817 24.6332 -9.66289 0.817319 -0.570652 0.0796678
-42.739 24.571 -10.9382 0.882975 -0.458806 0.0546585
-42.7973 24.6056 -12.1376 0.851155 -0.465373 -0.242823
-42.917 24.6773 -13.461 0.846787 -0.526528 -0.0756298
-42.8239 24.9688 -14.7197 0.839252 -0.541352 -0.0503199
-43.0902 24.6016 -15.3294 0.83243 -0.551971 -0.0453493
-43.9383 23.5706 -15.5176 0.690887 -0.717516 0.0571081
-45.1029 22.9604 -16.2816 0.381336 -0.924152 0.0229433
-45.8504 22.6817 -17.4409 0.324768 -0.944735 -0.0447283
-47.0433 22.3372 -17.6429 0.236264 -0.969943 -0.0340749
-48.3928 22.0863 -17.598 0.169391 -0.985539 0.00416455
-49.827 21.8447 -17.6139 0.162132 -0.986754 0.00542297
-51.1479 21.6304 -17.6191 0.157495 -0.987469 0.00991259
-52.4139 21.4265 -17.6529 0.159475 -0.987171 0.00783509
-53.9475 21.179 -17.5724 0.159936 -0.987098 0.00751806
-55.4298 20.9467 -17.4687 0.155352 -0.98783 0.00754816
-56.8806 20.7308 -17.5685 0.140414 -0.990085 0.00403236
-57.9346 20.5896 -16.9821 0.128231 -0.991738 0.00366521
-57.4366 20.6628 -15.7449 0.131568 -0.991298 0.00434812
-57.225 20.6968 -14.5601 0.14083 -0.990013 0.00640936
-56.9317 20.7498 -13.3648 0.14629 -0.989166 0.0121554
-56.7781 20.783 -12.1918 0.152944 -0.988213 0.00652689
-56.6791 20.8094 -10.9336 0.15287 -0.988162 0.0129094
-56.6974 20.8133 -9.6574 0.159278 -0.987219 0.00335646
-56.7587 20.8031 -8.17292 0.168895 -0.985628 -0.000353424
-57.0044 20.761 -6.6866 0.159424 -0.98721 -0.000329991
-56.7879 20.7948 -5.46061 0.156349 -0.987681 -0.00394452
-56.4272 20.8447 -4.33229 0.164139 -0.986437 -0.000207844
-56.0668 20.8982 -3.07303 0.16515 -0.986206 -0.0108093
-55.97 20.8905 -1.75578 0.161411 -0.986663 -0.0207489
-56.0419 20.8553 -0.389623 0.15722 -0.987469 -0.0136911
-55.8891 20.8608 0.938421 0.156289 -0.987609 -0.014256
-55.6895 20.8743 2.14914 0.164998 -0.986229 -0.0113279
-55.5645 20.8814 3.39877 0.161136 -0.986837 -0.0136328
-55.7264 20.8349 4.75098 0.16307 -0.986454 -0.0177795
-55.9474 20.7695 6.19338 0.164316 -0.986193 -0.0205712
-55.9688 20.7385 7.46234 0.159632 -0.986903 -0.0222623
-55.9314 20.7159 8.80014 0.15477 -0.9877 -0.0222119
-55.896 20.6924 10.243 0.163691 -0.986309 -0.0200088
-55.8026 20.6806 11.6883 0.158363 -0.987259 -0.0136607
-55.687 20.6802 13.1844 0.158622 -0.987234 -0.0144294
-55.8261 20.6401 14.3755 0.158971 -0.987161 -0.0155496
-56.2147 20.5598 15.5468 0.15934 -0.987115 -0.0146471
-56.5131 20.496 16.884 0.147888 -0.988867 -0.016491
-55.9193 20.5737 17.7775 0.15171 -0.988308 -0.0151969
-54.603 20.7883 17.6976 0.163906 -0.986343 -0.0161821
-53.0735 21.0432 17.7082 0.164213 -0.986263 -0.0178609
-51.868 21.2412 17.6831 0.159993 -0.986949 -0.0182602
-50.4583 21.4663 17.7605 0.155304 -0.987762 -0.0140081
-49.0263 21.6952 17.7379 0.170926 -0.985196 -0.0131451
-47.7174 21.9569 17.6585 0.221781 -0.974759 0.0256548
-46.5051 22.2487 17.6577 0.245504 -0.968966 0.028856
-45.5574 22.457 16.6558 0.315903 -0.94522 0.078858
-44.6797 22.6969 15.4725 0.32874 -0.942095 -0.0662364
-45.0724 22.5646 14.459 0.363692 -0.931132 0.00724888
-45.7192 22.3244 13.4411 0.239738 -0.970591 0.0218954
-46.3595 22.1904 12.4566 0.155835 -0.987062 -0.0377397
-47.1831 22.1134 11.2922 0.165042 -0.984739 -0.0552234
-47.7797 22.0591 10.2765 0.171899 -0.984453 -0.0361011
-48.5096 21.9644 9.26774 0.169973 -0.98497 -0.0304864
-49.6415 21.8061 8.08708 0.158926 -0.98705 -0.0217716
-50.3585 21.7117 7.11331 0.160305 -0.986791 -0.0232948
-51.0435 21.6253 6.12477 0.165277 -0.985986 -0.0226467
-51.9165 21.498 5.22917 0.164814 -0.986091 -0.0214477
-52.7828 21.3619 4.36187 0.177709 -0.983931 -0.0172909
-53.5512 21.2378 3.45746 0.182081 -0.983166 -0.0151551
-53.7757 21.2142 2.25047 0.179668 -0.983637 -0.0131652
-53.9003 21.2161 0.795932 0.183121 -0.982943 -0.0169839
-54.0951 21.2034 -0.498772 0.182491 -0.983068 -0.0165261
-54.1446 21.2136 -1.6829 0.183922 -0.982799 -0.0167265
-53.9033 21.2789 -2.87109 0.18108 -0.983344 -0.0156146
-53.3809 21.3933 -4.00869 0.184905 -0.982661 -0.0135384
-52.5465 21.5669 -5.40929 0.185301 -0.982607 -0.0121064
-51.5369 21.7469 -6.22964 0.17094 -0.985275 0.0035944
-50.4487 21.9314 -6.86435 0.15302 -0.988188 -0.000956878
-49.2331 22.1067 -7.09319 0.127317 -0.991764 0.0115891
-48.8585 22.1514 -7.15234 0.119884 -0.99274 0.00979491
-48.548 22.1944 -6.02232 0.124514 -0.992186 -0.000727088
-49.8901 22.0162 -5.74053 0.137991 -0.990394 -0.00181249
-51.0416 21.8273 -5.16572 0.164819 -0.98629 -0.00670386
-51.9984 21.6521 -4.15954 0.180276 -0.983491 -0.0156759
-52.5337 21.5357 -3.03702 0.183323 -0.982948 -0.0143676
-52.9371 21.4384 -1.58028 0.183911 -0.982828 -0.0150233
-52.8493 21.4332 -0.381857 0.183946 -0.982751 -0.0190958
-52.6367 21.4513 0.781849 0.17918 -0.983646 -0.0183293
-52.6139 21.434 1.99091 0.174765 -0.984485 -0.0156869
-52.0648 21.5081 3.4714 0.174614 -0.984519 -0.0152431
-51.03 21.6664 4.32806 0.16491 -0.986033 -0.0233221
-50.1131 21.7918 5.2839 0.155575 -0.987576 -0.0221434
-49.2251 21.9047 6.64472 0.159033 -0.987078 -0.0196462
-48.4477 22.0111 7.64122 0.165219 -0.98611 -0.0167411
-47.4347 22.1807 8.74617 0.191704 -0.981034 -0.0283208
-46.6137 22.295 9.68168 0.179614 -0.982339 -0.0524225
-45.9873 22.3649 10.7826 0.250436 -0.962205 -0.106978
-45.234 22.4742 11.9682 0.294876 -0.954401 -0.00847525
-44.5984 22.7458 12.9862 0.373679 -0.925859 0.0561237
-43.9902 23.1189 13.9227 0.579643 -0.814847 0.00616963
-43.2862 23.6581 14.842 0.735107 -0.675653 -0.0557678
-42.9045 24.1332 15.9192 0.814435 -0.579892 0.0118875
-43.731 23.1428 16.0782 0.646037 -0.746509 -0.0873987
-44.5305 22.8398 17.0925 0.347273 -0.934405 0.0746471
-45.0083 22.7557 18.4893 0.335733 -0.939544 0.0651324
-45.9462 22.453 18.9478 0.350862 -0.934313 0.057693
-47.2136 22.0946 18.9232 0.26859 -0.963203 0.0100019
-48.3937 21.8263 18.9214 0.214916 -0.976616 0.00403496
-49.6811 21.5871 19.0129 0.178505 -0.98388 0.00438234
-51.1706 21.336 18.9094 0.161726 -0.986768 -0.0104933
-52.5345 21.1118 18.9401 0.162521 -0.986577 -0.0158686
-54.0306 20.864 18.9488 0.161901 -0.986697 -0.0147255
-55.45 20.6312 19.029 0.158137 -0.987351 -0.0114577
-56.7813 20.4266 18.974 0.142492 -0.989641 -0.017541
-58.1646 20.2472 18.2957 0.132513 -0.991047 -0.0163143
-57.8176 20.3088 17.1174 0.132142 -0.991197 -0.00815841
-57.5296 20.3603 15.8545 0.131856 -0.99118 -0.0132934
-56.9948 20.4609 14.2668 0.141856 -0.98965 -0.021691
-56.9193 20.4997 12.7019 0.144203 -0.989396 -0.0173421
-56.9966 20.5004 11.5201 0.13543 -0.990697 -0.0132724
-57.0807 20.5151 9.93026 0.149853 -0.988451 -0.0225412
-57.1334 20.5365 8.6446 0.141876 -0.989575 -0.0247319
-57.2071 20.5494 7.18682 0.147804 -0.988876 -0.0143104
-57.1438 20.5947 5.56148 0.142402 -0.989633 -0.0186569
-56.905 20.6631 4.13154 0.143384 -0.989326 -0.0259996
-56.8697 20.6815 2.69837 0.140075 -0.990028 -0.0126649
-57.0367 20.6776 1.33639 0.149125 -0.988726 -0.0135173
-57.2635 20.6675 -0.0412274 0.142459 -0.989514 -0.0238372
-57.1785 20.699 -1.29122 0.13863 -0.990192 -0.0173609
-57.2408 20.707 -2.64341 0.146172 -0.989244 -0.00529204
-57.6701 20.6481 -4.0153 0.148178 -0.988959 -0.00184527
-58.0048 20.6031 -5.25042 0.129795 -0.991512 -0.00675829
-58.2792 20.5703 -6.69519 0.134936 -0.990853 0.00147165
-58.0297 20.6074 -8.16231 0.150068 -0.988655 -0.00641329
-57.8991 20.6267 -9.41425 0.151559 -0.988388 0.0108724
-57.9369 20.6191 -11.0417 0.144557 -0.989452 0.00943498
-58.0837 20.59 -12.4871 0.141221 -0.989978 0.000966913
-58.3209 20.5505 -13.9141 0.127192 -0.991876 0.00183613
-58.5839 20.5133 -15.397 0.128686 -0.991675 0.0044542
-59.1912 20.4288 -16.6259 0.127687 -0.991806 0.00417216
-59.7557 20.3584 -17.6855 0.120021 -0.992771 -0.000858313
-60.3545 20.2899 -18.8809 0.108468 -0.994096 0.00225067
-59.0252 20.4404 -18.798 0.121923 -0.992502 0.00593977
-57.7277 20.6075 -18.8293 0.132863 -0.991069 0.00921364
-56.1237 20.8348 -18.75 0.146592 -0.989178 0.00592263
-54.8923 21.0228 -18.6947 0.155239 -0.987858 0.00612088
-53.574 21.2319 -18.8214 0.159733 -0.987149 0.00432239
-51.9361 21.497 -18.8165 0.159126 -0.987256 0.00225262
-50.6276 21.7073 -18.9291 0.160034 -0.987103 0.00363738
-49.0877 21.9777 -18.8351 0.183693 -0.982955 -0.00744264
-47.7682 22.2271 -18.8687 0.196789 -0.980213 -0.0213773
-46.6233 22.5173 -18.8792 0.287013 -0.956512 -0.0520477
-45.4851 22.8961 -18.9255 0.33868 -0.939178 -0.0569329
-44.7604 23.0893 -17.9387 0.372521 -0.926373 -0.0423239
-44.1387 23.3879 -16.8407 0.675227 -0.736745 -0.0357073
-43.2298 24.4625 -16.5054 0.831107 -0.540893 -0.129213
-42.6171 25.5684 -16.6938 0.852943 -0.511528 -0.104017
-41.8018 26.7917 -16.5744 0.791072 -0.595676 -0.131463
-41.804 26.6927 -15.9206 0.783867 -0.614325 -0.0903167
-42.0504 26.161 -14.8224 0.834331 -0.548532 -0.0548085
-42.2558 25.7071 -13.2911 0.839543 -0.541161 -0.0477928
-42.2166 25.6739 -12.1061 0.891637 -0.450655 -0.0435167
-42.215 25.6142 -10.8591 0.901608 -0.431544 0.020289
-42.2093 25.7374 -9.67722 0.894948 -0.440612 0.0645039
-42.0975 26.111 -8.33839 0.897723 -0.439251 0.0281049
-41.8516 26.6916 -7.0804 0.912373 -0.408572 0.0195468
-41.4151 27.743 -5.77686 0.905189 -0.423532 0.0352022
-41.0832 28.5255 -4.94828 0.885819 -0.458983 0.0626762
-40.6175 29.4982 -4.12912 0.856358 -0.513937 0.0496254
-40.0608 30.4474 -3.48013 0.843398 -0.53637 0.0314245
-39.5438 31.2326 -2.64325 0.80512 -0.59294 0.0140192
-38.9187 32.0836 -1.27704 0.793171 -0.608995 -0.00221431
-38.5147 32.6146 -0.263678 0.782846 -0.621733 0.0245204
-38.5542 32.5704 0.242816 0.798374 -0.601009 -0.0215906
-39.1062 31.8339 -0.136139 0.792997 -0.609209 -0.0043439
-39.8371 30.8707 -0.56294 0.816296 -0.576713 -0.0191526
-40.4248 29.9193 -0.913381 0.874035 -0.485146 -0.0261707
-40.968 28.9246 -1.35158 0.896478 -0.441947 -0.0267315
-41.5804 27.6686 -1.47775 0.899866 -0.435502 -0.0216182
-42.06 26.5047 -1.65262 0.927769 -0.372269 0.0256658
-42.7295 25.0462 -1.67741 0.893503 -0.443728 0.0631589
-43.3637 24.0353 -1.43694 0.848815 -0.522473 0.0532723
-44.0043 23.2159 -1.92782 0.690664 -0.704452 0.150484
-44.6177 22.4561 -2.72584 0.602308 -0.721582 0.341386
-45.2175 22.4006 -3.73176 0.0286397 -0.917466 -0.396782
-46.0429 22.6127 -4.95589 0.271921 -0.947448 -0.168528
-47.2517 22.3812 -5.7404 0.146403 -0.989152 -0.0119821
-48.3415 22.2191 -6.02991 0.139717 -0.989928 0.00751108
-48.1854 22.231 -4.84895 0.1356 -0.990632 -0.0111783
-47.1643 22.3342 -4.236 0.106885 -0.991813 -0.0686368
-46.2822 22.3476 -3.3346 0.054595 -0.993594 -0.0989457
-45.7383 22.3476 -2.13389 0.134449 -0.960315 0.187784
-44.5366 22.997 -0.904701 0.295826 -0.940605 0.141391
-43.7536 23.4513 -0.0551324 0.574049 -0.813005 0.0679069
-43.1269 24.3979 -0.258375 0.863744 -0.502202 -0.0406266
-42.5012 25.5846 -0.498018 0.885536 -0.464491 0.00862743
-41.9017 26.8952 -0.352267 0.915191 -0.402472 -0.0101384
-41.3755 28.0288 -0.245899 0.897014 -0.440837 -0.0275653
-40.79 29.1565 0.0531998 0.886857 -0.459727 -0.0448698
-40.1427 30.2754 0.484557 0.850357 -0.521782 -0.0680839
-39.4919 31.2517 0.939698 0.815665 -0.577956 -0.0256337
-38.7299 32.2321 1.56053 0.790593 -0.609979 -0.0537215
-37.9339 33.1603 2.37138 0.752323 -0.654876 -0.0711801
-37.2225 33.8581 3.23641 0.740194 -0.667548 -0.080573
-36.4952 34.5577 3.96013 0.729 -0.678133 -0.0932435
-35.8482 35.1284 4.83281 0.718718 -0.689047 -0.0930567
-34.7605 36.0689 5.81328 0.689775 -0.712241 -0.12974
-33.6906 36.8937 6.73553 0.67596 -0.716752 -0.171306
-32.9867 37.3429 7.65386 0.677746 -0.716452 -0.165397
-32.2829 37.6781 8.88623 0.654205 -0.731605 -0.191753
-31.9179 37.6555 10.0103 0.652956 -0.72075 -0.232742
-31.7501 37.3244 11.4387 0.646173 -0.716064 -0.263833
-31.7639 36.725 12.8738 0.657591 -0.694737 -0.291318
-31.9766 36.0986 13.8603 0.660707 -0.687508 -0.301329
-32.2699 35.357 14.9482 0.665314 -0.687633 -0.29072
-32.7031 34.5207 15.9314 0.665156 -0.686438 -0.293873
-33.2223 33.6118 16.9296 0.670273 -0.701064 -0.243402
-33.3162 33.2031 17.8345 0.685065 -0.691758 -0.228379
-32.4742 34.0302 17.7767 0.673864 -0.707784 -0.211701
-31.5577 34.9315 17.7481 0.69188 -0.673624 -0.25911
-30.6829 35.7858 17.7866 0.688294 -0.68005 -0.252556
-29.8346 36.58 18.0761 0.784218 -0.565098 -0.232834
-29.5068 36.7772 19.1883 0.752945 -0.656115 -0.0508592
-29.327 36.9184 20.2812 0.726576 -0.686964 -0.0129438
-28.3765 37.9069 20.4077 0.715059 -0.698673 -0.0230935
-27.401 38.8929 20.3862 0.706599 -0.707206 -0.0239084
-26.4168 39.8764 20.3853 0.702596 -0.711207 -0.0233204
-25.5315 40.7554 20.3832 0.701469 -0.712336 -0.0220003
-24.6751 41.5928 20.3525 0.695414 -0.717932 -0.0304704
-23.6672 42.5419 20.3558 0.67569 -0.736204 -0.0380251
-22.6102 43.4778 20.3148 0.653643 -0.756229 -0.0280943
-21.7132 44.233 20.1918 0.632628 -0.773848 -0.028487
-20.7413 44.9949 20.366 0.602126 -0.797793 -0.0311492
-19.7719 45.7283 20.2994 0.599259 -0.799966 -0.0302923
-18.719 46.52 20.3556 0.602374 -0.797491 -0.03396
-17.7745 47.2556 20.2446 0.614983 -0.788262 -0.020389
-17.6127 47.4019 19.0128 0.603368 -0.797268 -0.0123074
-17.239 47.7188 17.9641 0.644682 -0.761958 -0.0616897
-16.1717 48.632 17.7715 0.671727 -0.730515 0.105089
-15.2036 49.4029 17.8526 0.507373 -0.758794 0.39742
-14.3082 49.9547 18.4867 -0.0692229 -0.988904 0.131439
-14.2062 50.0461 19.6921 0.0694755 -0.99663 0.0435981
-13.3102 50.1293 20.2278 0.0836051 -0.994378 0.0649798
-11.9187 50.2034 20.2665 0.0376113 -0.9973 0.0630685
-10.5253 50.2541 20.2823 0.0375913 -0.997745 0.0547394
-8.91635 50.2886 20.3382 0.0116915 -0.999162 0.0392281
-7.58363 50.2983 20.3546 -1.19678e-06 -0.999497 0.0317096
-6.33945 50.3006 20.3475 0.000522328 -0.999845 0.0175988
-4.95576 50.3041 20.2203 0.00193423 -0.99994 0.0107742
-3.72462 50.3091 20.273 0.00490116 -0.999954 0.00780011
-2.39022 50.3171 20.254 0.00440198 -0.999971 0.00614841
-0.970233 50.3221 20.4325 0.00249856 -0.999994 -0.00248295
0.334425 50.3276 20.2813 0.00379303 -0.999979 -0.00522939
1.55699 50.3334 20.3954 0.00694468 -0.999943 -0.00800549
3.08139 50.3432 20.3125 0.00697683 -0.99994 -0.00843827
4.40386 50.3543 20.2356 0.00784306 -0.999934 -0.00842905
5.64275 50.3667 20.3415 0.0111713 -0.999892 -0.00955341
6.92352 50.3896 20.3719 0.0216721 -0.999736 -0.00690917
8.27867 50.4212 20.2439 0.022307 -0.999746 5.91815e-05
9.63069 50.455 20.2817 0.0234539 -0.999717 0.0040152
10.9008 50.4862 20.3492 0.0246186 -0.999673 0.00688553
12.1404 50.5122 20.3447 0.0199715 -0.999727 0.0121094
13.4833 50.5386 20.2419 0.0238762 -0.999618 0.0134655
14.1877 50.5522 19.6067 0.0369764 -0.999303 0.00510932
14.3014 50.5084 18.3325 0.0489436 -0.994346 0.0835217
15.4094 50.3012 17.7748 -0.170825 -0.962611 0.209525
16.5691 50.0335 17.8085 -0.246045 -0.952594 0.178959
17.7511 49.6922 17.883 -0.423062 -0.86799 0.260021
18.4523 49.4227 18.7738 -0.540396 -0.839706 0.053535
18.4227 49.4931 19.9538 -0.509323 -0.859584 0.0412836
19.4754 48.869 20.3347 -0.557701 -0.827482 0.0587945
20.4641 48.1524 20.3777 -0.612894 -0.789847 0.0224083
21.5146 47.2732 20.3434 -0.676402 -0.736519 -0.00446845
22.3836 46.4322 20.3556 -0.708503 -0.705691 -0.00223195
23.3015 45.4933 20.3084 -0.717338 -0.696691 -0.00671002
24.2726 44.481 20.3788 -0.723253 -0.690514 0.00976122
25.0762 43.6251 20.2476 -0.734824 -0.678247 -0.00376109
25.2067 43.5072 19.0268 -0.739215 -0.671909 -0.0408226
24.6922 44.1422 18.2655 -0.717509 -0.691308 -0.0852862
23.9151 45.0002 17.7949 -0.714858 -0.694485 -0.0816156
22.8759 46.0695 17.0477 -0.698194 -0.714446 -0.0451806
21.8585 47.0002 16.1311 -0.637335 -0.767525 -0.0686225
21.1154 47.5386 15.1735 -0.540681 -0.840119 0.020833
20.4481 47.8925 14.2495 -0.488541 -0.871297 0.0204487
19.8197 48.1555 12.889 -0.436683 -0.894555 0.0781907
19.6467 48.1537 11.6164 -0.392587 -0.918986 0.0366015
19.4747 48.1586 10.3373 -0.381437 -0.923019 0.050407
19.3691 48.0996 8.80181 -0.33497 -0.940129 0.060629
19.6565 47.9432 7.63219 -0.348212 -0.936038 0.0477731
19.5811 47.8846 6.32508 -0.357979 -0.932331 0.048958
19.4824 47.8573 5.12593 -0.336998 -0.940418 0.0444077
19.5356 47.7855 3.90431 -0.319137 -0.946573 0.046386
19.4872 47.699 2.45444 -0.32402 -0.942679 0.0796981
19.5576 47.5673 1.12494 -0.344449 -0.934905 0.0837015
19.4456 47.4978 -0.235536 -0.338281 -0.938084 0.0745953
19.3933 47.4223 -1.41565 -0.334364 -0.938405 0.0871573
19.3242 47.3102 -3.10789 -0.341359 -0.937468 0.0680323
19.4043 47.1891 -4.42682 -0.356826 -0.931359 0.0724273
19.8282 46.9362 -5.54668 -0.376319 -0.924516 0.0604538
20.6053 46.5458 -6.45367 -0.391442 -0.917409 0.071651
21.52 46.0713 -7.25821 -0.421138 -0.903698 0.0766585
22.4586 45.4935 -8.0844 -0.457133 -0.881356 0.118844
23.5352 44.8225 -8.67561 -0.492409 -0.859647 0.135376
24.7225 44.0278 -9.02323 -0.526961 -0.833341 0.166897
25.8287 43.2762 -9.2497 -0.530472 -0.828715 0.178412
26.9887 42.5099 -9.17945 -0.55614 -0.807854 0.195142
27.9695 41.893 -8.90651 -0.557751 -0.803216 0.209183
28.9638 41.3128 -8.49372 -0.588166 -0.784106 0.197081
29.8778 40.8338 -7.7053 -0.584357 -0.787395 0.196177
30.8574 40.3234 -6.65922 -0.58467 -0.792957 0.171407
31.5676 39.9803 -5.62953 -0.633665 -0.765068 0.114627
32.3961 39.4603 -4.74132 -0.616563 -0.776423 0.130387
33.1577 38.9756 -3.94267 -0.62339 -0.771854 0.125006
33.8617 38.534 -3.06121 -0.638051 -0.764238 0.093972
34.7564 37.8341 -2.42652 -0.659262 -0.746976 0.0860252
35.7096 37.1127 -1.45305 -0.674425 -0.733667 0.0803785
36.4382 36.4866 -0.743599 -0.688912 -0.721951 0.064708
37.2067 35.8236 0.193092 -0.706454 -0.705898 0.0507582
37.8893 35.1822 1.08136 -0.72587 -0.686639 0.0404959
38.6438 34.4436 2.01652 -0.72374 -0.68919 0.0330677
39.5673 33.442 2.95267 -0.75165 -0.659253 -0.0202019
40.2071 32.65 3.763 -0.775391 -0.631172 -0.0197597
40.8745 31.8055 4.74077 -0.787461 -0.616364 -0.00125149
41.3823 31.162 5.85978 -0.794616 -0.606666 0.0105817
41.9588 30.3772 6.82704 -0.812628 -0.582725 -0.00821588
42.4138 29.7482 7.80699 -0.809007 -0.587762 0.00655393
42.8394 29.1378 8.96418 -0.817973 -0.575234 -0.00296106
43.0591 28.8304 10.3117 -0.809723 -0.586807 0.00256277
43.0364 28.847 12.0318 -0.796131 -0.605124 -0.00117751
42.871 29.0631 13.3442 -0.795244 -0.605965 0.0135073
42.4973 29.6024 14.5394 -0.76094 -0.647619 0.0394953
41.8208 30.4487 15.5892 -0.691776 -0.716174 0.0797553
41.04 31.1664 16.2386 -0.609359 -0.791573 0.042911
40.1425 31.7245 16.9038 -0.451171 -0.888496 -0.0474844
39.1453 32.1333 17.4056 -0.41662 -0.897337 -0.136255
37.9565 32.5662 17.7247 -0.307354 -0.926494 -0.201704
36.8888 33.0037 17.9999 -0.514291 -0.805847 -0.285086
35.8036 33.6868 18.3438 -0.570846 -0.808721 -0.141792
34.675 34.397 18.6409 -0.522594 -0.843159 -0.126405
34.3469 34.5209 19.9415 -0.554768 -0.830655 -0.0357169
35.2477 33.8787 20.3331 -0.576673 -0.816672 -0.0206684
36.2414 33.1793 20.3489 -0.571646 -0.819775 -0.0344885
37.3367 32.5162 20.3774 -0.471448 -0.880976 -0.0402114
38.4793 31.9895 20.3276 -0.332172 -0.933335 -0.122763
39.792 31.6172 20.2962 -0.280886 -0.956423 -0.0790173
41.0996 31.1902 20.3447 -0.309859 -0.949499 -0.0493903
42.2049 30.6127 20.337 -0.499232 -0.863617 -0.0686575
42.5529 30.5131 19.1744 -0.56415 -0.823954 -0.0532392
42.7564 30.2007 18.0712 -0.652643 -0.59847 0.464641
43.2542 29.1622 17.7615 -0.842751 -0.491317 0.213568
43.7657 28.0703 17.7555 -0.911588 -0.410892 -0.0130633
44.2722 26.9436 17.7616 -0.922353 -0.377226 -0.0699341
44.8198 26.065 18.4472 -0.646513 -0.753132 -0.121709
44.8473 25.9725 19.841 -0.704721 -0.709315 -0.013511
45.6845 25.3248 20.3002 -0.58298 -0.812472 0.00491753
46.8812 24.5857 20.2988 -0.485564 -0.873541 0.0339514
48.105 23.9846 20.276 -0.420097 -0.907367 0.0142919
49.2579 23.548 20.2509 -0.319211 -0.946853 -0.0149741
50.4207 23.1939 20.2138 -0.286535 -0.957966 -0.00874083
51.8192 22.7864 20.1938 -0.274943 -0.961278 -0.0177152
53.0154 22.4638 20.1303 -0.256519 -0.96639 -0.0161955
54.2815 22.148 20.2055 -0.239704 -0.970738 -0.0144853
55.5849 21.8391 20.2335 -0.215332 -0.976536 -0.00313379
57.0054 21.5384 20.3499 -0.205545 -0.9786 -0.00968134
58.4667 21.267 20.3823 -0.172161 -0.985051 -0.00584875
59.9851 21.0242 20.2836 -0.151049 -0.988518 -0.00404544
61.324 20.8378 19.5872 -0.132758 -0.991091 -0.00671211
62.0832 20.747 18.6833 -0.108116 -0.994062 -0.0123342
62.8467 20.6681 17.5896 -0.100105 -0.99491 -0.00292269
63.3656 20.6239 16.4317 -0.0954717 -0.99542 -0.00496432
63.4613 20.6228 15.212 -0.102172 -0.994704 -0.0108983
63.1484 20.6685 13.9359 -0.108925 -0.993995 -0.00798121
62.6758 20.7234 12.716 -0.116655 -0.99317 -0.0021499
61.6937 20.8437 11.5631 -0.119641 -0.992817 -0.000890732
60.9326 20.9314 10.5795 -0.132389 -0.991134 0.0100209
60.0571 21.0394 9.60982 -0.141798 -0.989873 0.00670807
59.3131 21.1423 8.70397 -0.166728 -0.985972 0.00782388
58.4771 21.2603 7.32369 -0.179339 -0.983567 0.0207974
58.2546 21.266 5.94905 -0.170505 -0.984958 0.0280194
58.0872 21.2744 4.73753 -0.191647 -0.981397 0.0114205
57.8539 21.3016 3.28376 -0.178634 -0.983678 0.0216367
57.7482 21.2936 1.89064 -0.184586 -0.982636 0.0188243
57.765 21.2489 0.493711 -0.194123 -0.980479 0.031112
57.6589 21.2292 -0.748759 -0.175242 -0.983992 0.0323932
57.6165 21.1982 -2.11075 -0.187748 -0.981514 0.0371697
57.5862 21.1524 -3.42562 -0.18821 -0.980901 0.0482247
57.6466 21.0751 -4.91002 -0.170252 -0.985154 0.019152
57.609 21.0572 -6.12616 -0.182599 -0.982856 0.0254536
57.6307 20.9956 -7.68365 -0.191118 -0.980787 0.0390617
57.7037 20.9385 -8.94337 -0.180396 -0.982984 0.0345228
57.9856 20.8484 -10.1186 -0.167122 -0.985411 0.0308011
58.3639 20.7521 -11.5139 -0.156519 -0.987369 0.0245762
58.832 20.6296 -12.7027 -0.132882 -0.990601 0.0324344
59.6407 20.473 -13.9006 -0.132237 -0.990579 0.0351441
60.3001 20.3557 -15.0978 -0.117909 -0.992496 0.0323974
60.9247 20.25 -16.0976 -0.108826 -0.993513 0.0329926
61.1511 20.2015 -17.3714 -0.109047 -0.993894 0.0168362
61.155 20.1751 -18.7957 -0.108981 -0.993807 0.021708
60.6021 20.2094 -20.0733 -0.119741 -0.99261 0.0178145
59.32 20.3702 -20.4461 -0.134284 -0.99077 0.0180399
58.0126 20.5593 -20.4817 -0.154576 -0.987897 0.0128421
56.5773 20.7967 -20.3669 -0.168895 -0.985508 0.0156211
55.4291 20.9993 -20.1831 -0.186324 -0.982315 0.0183901
54.0877 21.2583 -20.0342 -0.195149 -0.980536 0.020026
52.9135 21.5029 -20.1105 -0.207196 -0.978094 0.0200405
51.534 21.7991 -20.1472 -0.211615 -0.977127 0.0210013
50.2077 22.0852 -20.1878 -0.213257 -0.976873 0.0154764
48.9573 22.3618 -20.1504 -0.212061 -0.977188 0.00953649
47.6323 22.6551 -20.1483 -0.205378 -0.978419 -0.0120742
46.375 22.9664 -20.2129 -0.306552 -0.947762 -0.0625527
45.2442 23.3937 -20.223 -0.41723 -0.899494 -0.103994
44.0652 24.0687 -20.2813 -0.516579 -0.8535 -0.0684389
43.7433 24.1809 -19.1463 -0.647893 -0.757458 -0.080569
43.4134 24.5516 -18.0096 -0.744207 -0.645483 0.171778
42.8293 25.6423 -17.8766 -0.920438 -0.390531 -0.0154148
42.2921 26.9497 -17.8567 -0.905258 -0.413385 -0.0826062
41.7476 27.9514 -17.9069 -0.739931 -0.536336 -0.406013
41.3411 28.3991 -18.9662 -0.352963 -0.935468 0.0178094
41.191 28.428 -20.2234 -0.356547 -0.934105 0.0179365
40.1489 28.8476 -20.3878 -0.373933 -0.927435 -0.00563588
38.8091 29.4322 -20.3833 -0.435703 -0.899605 0.029549
37.7026 29.9909 -20.3932 -0.464569 -0.884499 0.0428435
36.7624 30.4923 -20.0341 -0.43914 -0.897235 0.0460981
36.7714 30.6009 -18.7987 -0.41921 -0.897164 0.139142
37.9538 30.0455 -18.4523 -0.475059 -0.859544 0.183915
39.0697 29.4992 -18.1588 -0.454396 -0.873263 0.173591
40.1459 28.9498 -17.8604 -0.463992 -0.883676 0.0541996
41.303 28.2358 -17.6234 -0.49436 -0.843877 -0.185081
41.7523 27.6872 -17.1794 -0.701635 -0.686974 -0.189143
42.3107 26.6857 -16.6773 -0.874156 -0.485021 -0.0246108
43.0083 25.5024 -16.0394 -0.839847 -0.537003 0.0770766
43.6524 24.6719 -15.4848 -0.697587 -0.705604 0.061977
44.755 23.9713 -15.2436 -0.469595 -0.877449 0.0883156
46.1029 23.4464 -14.8978 -0.346358 -0.934822 0.0770143
47.2622 23.056 -14.7188 -0.276185 -0.95607 0.0947076
48.4956 22.7543 -14.4485 -0.253902 -0.963631 0.0833618
49.7034 22.496 -13.9127 -0.241835 -0.967074 0.0792702
50.8632 22.2644 -13.2261 -0.236569 -0.968786 0.0740839
51.6356 22.1327 -12.334 -0.242002 -0.96819 0.0635553
52.262 22.0444 -11.2372 -0.24416 -0.967937 0.0589943
52.874 21.9558 -10.0769 -0.2448 -0.968087 0.0536631
53.0919 21.9718 -8.68423 -0.24437 -0.968566 0.0465117
53.1934 22.0127 -7.26688 -0.253085 -0.9663 0.0470365
53.2369 22.0634 -5.95439 -0.253252 -0.966396 0.0440639
53.4988 22.0603 -4.43762 -0.260066 -0.964691 0.0416727
53.6389 22.0811 -3.08735 -0.26009 -0.964676 0.0418679
53.5495 22.1628 -1.63142 -0.259601 -0.965034 0.0362781
53.0225 22.3539 -0.224496 -0.270543 -0.962098 0.034258
52.7467 22.4856 1.27475 -0.27641 -0.960354 0.0362916
52.4653 22.6177 2.87097 -0.278138 -0.960174 0.0265408
52.1795 22.7348 4.04297 -0.290658 -0.956367 0.0296536
51.2761 23.0249 4.89187 -0.288241 -0.957279 0.0230406
50.1482 23.3969 5.54973 -0.311305 -0.949752 0.0325661
48.8624 23.8468 5.69748 -0.337815 -0.939848 0.0506693
47.7576 24.2505 5.65039 -0.352359 -0.934843 0.0437241
46.6472 24.7713 5.51114 -0.545923 -0.837029 0.00911966
45.6429 25.5306 5.09193 -0.642108 -0.765578 0.0262596
44.8298 26.3647 4.78853 -0.741818 -0.666523 0.062266
44.0867 27.2265 4.37891 -0.823062 -0.561841 0.0830902
43.3976 28.1946 3.77103 -0.838784 -0.542695 0.0438481
42.7373 29.1558 2.92859 -0.83688 -0.545808 0.0411409
42.1706 30.0026 2.25374 -0.84461 -0.533982 0.0387008
41.4685 31.0067 1.76478 -0.80642 -0.590956 0.021146
40.6969 32.0136 1.41749 -0.777766 -0.62807 0.0239685
40.0865 32.7258 0.683129 -0.766258 -0.640848 0.0455382
39.4175 33.4648 0.0465447 -0.738401 -0.671262 0.064594
38.8396 34.0132 -0.887324 -0.737542 -0.672723 0.058948
38.2371 34.5877 -1.73437 -0.728655 -0.681221 0.0707147
37.2556 35.5199 -2.63367 -0.708634 -0.700932 0.080825
36.5713 36.0792 -3.45278 -0.672392 -0.733661 0.0981351
35.8511 36.6176 -4.28153 -0.666161 -0.738024 0.107466
35.0033 37.2297 -5.16938 -0.658113 -0.742022 0.12758
34.1705 37.7718 -6.06874 -0.643151 -0.74846 0.161504
33.3327 38.3001 -6.82136 -0.630193 -0.756553 0.1746
32.4087 38.863 -7.77655 -0.609614 -0.770686 0.185511
31.3681 39.403 -8.76424 -0.59668 -0.77451 0.209852
30.7986 39.4445 -10.0461 -0.591916 -0.762825 0.259381
30.5376 39.1972 -11.3255 -0.606308 -0.745099 0.277515
30.6947 38.5847 -12.537 -0.608236 -0.733945 0.302203
30.8977 37.9504 -13.6441 -0.617276 -0.722326 0.31156
31.3883 37.0112 -14.7729 -0.627093 -0.706176 0.328638
31.9474 36.0914 -15.6799 -0.628481 -0.705043 0.328439
32.6121 35.1052 -16.4977 -0.623814 -0.702545 0.342471
33.2886 34.1766 -17.2411 -0.634932 -0.708763 0.307405
33.9167 33.327 -17.8491 -0.642633 -0.69016 0.332718
33.4547 33.7238 -17.919 -0.644355 -0.698947 0.310288
32.5015 34.6219 -17.8357 -0.6373 -0.71552 0.286146
31.6152 35.4086 -17.9077 -0.660232 -0.699629 0.273152
30.7146 36.2607 -17.9269 -0.665666 -0.69633 0.268246
29.8417 37.1039 -17.8372 -0.65492 -0.700764 0.28286
28.9023 37.9399 -17.9492 -0.649316 -0.708291 0.276971
28.1714 38.4762 -18.6376 -0.757515 -0.642194 0.102213
27.9885 38.6014 -19.8496 -0.707906 -0.705277 0.0339567
27.2233 39.3255 -20.3847 -0.689541 -0.723824 0.0247557
26.345 40.1419 -20.4788 -0.680525 -0.732107 0.0300969
25.4164 41.0027 -20.3854 -0.672473 -0.739323 0.0343771
24.5144 41.8231 -20.4882 -0.676855 -0.734805 0.0438791
23.487 42.7515 -20.5142 -0.647069 -0.760621 0.0525166
22.4621 43.6172 -20.4538 -0.626728 -0.777542 0.0513808
21.1531 44.6563 -20.3952 -0.609203 -0.791599 0.0473596
20.1673 45.3987 -20.3842 -0.58961 -0.80654 0.0430506
19.1437 46.146 -20.3657 -0.575973 -0.817373 0.0122518
18.0428 46.923 -20.3794 -0.572766 -0.819577 0.0144393
17.2732 47.4586 -19.8096 -0.563604 -0.826002 0.00830326
17.1699 47.5414 -18.6247 -0.550581 -0.83478 0.00192945
16.3543 48.1693 -18.0423 -0.644206 -0.764814 0.00762939
15.1745 49.138 -17.8977 -0.55702 -0.815968 -0.154679
14.1646 49.8803 -18.2877 -0.0807461 -0.941936 -0.289027
13.8933 49.9556 -19.4831 -0.0272565 -0.999443 -0.0192516
13.1181 50.0112 -20.3403 -0.0618116 -0.997949 -0.0138794
11.5172 50.1047 -20.4095 -0.0551422 -0.998108 -0.0269877
10.0559 50.1648 -20.4026 -0.0373594 -0.998409 -0.0420582
8.72891 50.1926 -20.453 -0.0133656 -0.999654 -0.0226387
7.44378 50.19 -20.2948 0.00166769 -0.999663 -0.0259169
6.20751 50.1842 -20.3189 0.0064512 -0.999572 -0.028531
4.98753 50.1694 -20.408 0.0155759 -0.999705 -0.0181868
3.77865 50.1462 -20.3943 0.0207188 -0.99972 -0.011428
2.38968 50.1187 -20.4472 0.0214582 -0.999747 -0.00670821
1.03082 50.0929 -20.3653 0.0190105 -0.999818 -0.00132864
-0.228774 50.066 -20.4078 0.0218423 -0.99976 -0.00187081
-1.86537 50.0397 -20.4179 0.0155962 -0.999867 0.0045057
-3.27588 50.0208 -20.4215 0.0121736 -0.999913 0.0050146
-4.47076 50.0057 -20.4851 0.0111653 -0.999928 -0.00446879
-5.72983 49.9949 -20.4272 0.00503733 -0.999985 -0.0020962
-7.56778 49.9857 -20.378 0.00336057 -0.999945 -0.00994463
-9.02643 49.9742 -20.3822 0.0187938 -0.999723 -0.0137741
-10.2547 49.9537 -20.3823 0.0222961 -0.999542 -0.0194528
-11.6435 49.915 -20.3622 0.0272953 -0.999361 -0.0230936
-13.2056 49.8635 -20.4157 0.0392451 -0.999056 -0.0186113
-14.0955 49.8205 -19.8625 0.0341899 -0.999337 -0.0114038
-14.1254 49.7911 -18.6385 -0.00427205 -0.999684 -0.016768
-14.8966 49.5506 -17.87 0.262991 -0.912037 -0.293651
-16.0267 49.1647 -17.8721 0.339944 -0.931489 -0.129485
-17.2015 48.6963 -17.8972 0.406347 -0.905644 -0.121206
-18.0754 48.2949 -18.5513 0.548447 -0.836181 0.00262471
-18.1853 48.2298 -19.774 0.553045 -0.833117 -0.00763904
-19.155 47.5996 -20.4808 0.548801 -0.835829 -0.0143737
-20.1054 46.914 -20.2902 0.594086 -0.804243 -0.0159663
-21.0345 46.1926 -20.4607 0.630542 -0.77547 -0.0325935
-22.3091 45.1039 -20.4496 0.665178 -0.746511 0.00239474
-23.2805 44.1733 -20.4342 0.70169 -0.71231 0.0150556
-24.3029 43.1462 -20.4353 0.71476 -0.699091 0.019294
-25.1622 42.2528 -20.3961 0.726602 -0.686572 0.0258465
-26.0375 41.3245 -20.472 0.725818 -0.687839 0.00817133
-26.8537 40.4415 -20.4414 0.736335 -0.676583 0.00601152
-27.862 39.3327 -20.4704 0.744231 -0.667822 0.011591
-28.3877 38.7502 -19.7671 0.75394 -0.656513 0.0236275
-28.17 39.0787 -18.7758 0.753779 -0.649537 0.0977646
-27.3689 39.9928 -18.6666 0.74111 -0.665608 0.0878758
-26.5504 40.8766 -18.7076 0.725299 -0.681492 0.0973718
-25.7536 41.7466 -18.6699 0.739975 -0.666972 0.0870923
-24.8832 42.7107 -18.2449 0.711548 -0.696529 0.0924374
-24.0533 43.608 -17.6947 0.694813 -0.712854 0.0952574
-23.0527 44.613 -16.9764 0.654372 -0.752526 0.0741776
-22.2183 45.3689 -16.3008 0.623335 -0.780281 0.0511347
-21.5232 45.951 -15.4776 0.589809 -0.807543 0.000209028
-20.8135 46.4532 -14.6536 0.544026 -0.838869 -0.00970489
-20.2469 46.8154 -13.6133 0.529926 -0.84786 0.0176871
-19.8667 46.9925 -12.4174 0.471233 -0.881481 -0.0305073
-19.7671 46.9967 -11.1572 0.401685 -0.91471 -0.0442075
-19.8563 46.9148 -9.81196 0.386587 -0.922232 -0.00612189
-19.8638 46.9059 -8.59014 0.386226 -0.9224 -0.00257866
-19.8487 46.8727 -7.38777 0.391013 -0.918624 -0.0569039
-19.8175 46.8268 -6.13041 0.36668 -0.929554 -0.0383985
-19.9621 46.7055 -4.53969 0.360787 -0.931657 -0.0422607
-19.8931 46.6969 -3.34927 0.359413 -0.932802 -0.0264836
-20.0519 46.5975 -2.17945 0.352881 -0.93472 -0.0418364
-20.0047 46.5597 -0.704635 0.349647 -0.936403 -0.0299422
-20.0705 46.4922 0.48781 0.35931 -0.93264 -0.0328595
-20.1516 46.4123 1.81072 0.372247 -0.927386 -0.0372581
-20.1844 46.3625 3.07299 0.3714 -0.928319 -0.0169413
-20.2839 46.2936 4.26692 0.376428 -0.926067 -0.0264965
-20.6473 46.1081 5.42959 0.40355 -0.914019 -0.0396423
-21.4347 45.6925 6.32046 0.434681 -0.898503 -0.0611987
-22.4788 45.1232 7.05437 0.463881 -0.882368 -0.0760064
-23.5198 44.461 7.61465 0.513087 -0.852934 -0.0955997
-24.6327 43.7475 7.79914 0.525724 -0.843062 -0.112925
-25.8234 42.9782 7.85659 0.566919 -0.813293 -0.130984
-26.9969 42.1766 7.7156 0.572778 -0.809461 -0.129188
-28.0217 41.4726 7.55188 0.592985 -0.788123 -0.164448
-29.0182 40.766 7.19503 0.609199 -0.781195 -0.136323
-30.0458 40.039 6.77165 0.604742 -0.783065 -0.145246
-31.0204 39.3679 6.23051 0.629727 -0.762793 -0.146248
-31.9244 38.6957 5.58905 0.653232 -0.746347 -0.12747
-32.8944 37.9829 4.72895 0.66265 -0.741951 -0.100142
-33.7186 37.3628 3.95537 0.65751 -0.74756 -0.0939433
-34.4298 36.8047 3.15648 0.703337 -0.707071 -0.0732703
-35.2045 36.1287 2.34495 0.698066 -0.713828 -0.0561525
-35.9197 35.4505 1.53673 0.726344 -0.684583 -0.0613743
-36.6094 34.7621 0.755101 0.732995 -0.679571 -0.0299588
-37.2273 34.1283 -0.096312 0.740035 -0.672035 -0.0255816
-37.822 33.4604 -0.898275 0.771561 -0.635786 0.0216846
-38.3198 32.8219 -2.24875 0.780565 -0.625073 0.00171721
-38.7552 32.2587 -3.2683 0.787395 -0.616275 0.0146152
-39.2537 31.5684 -4.09292 0.818535 -0.574144 0.0189663
-39.8429 30.6717 -4.7508 0.830757 -0.554386 0.0499985
-40.4211 29.6779 -5.41677 0.857576 -0.510628 0.0618232
-40.8355 28.8717 -6.23404 0.877835 -0.476744 0.0460568
-41.2152 27.995 -7.33045 0.8951 -0.442711 0.0522314
-41.5275 27.2648 -8.32877 0.888643 -0.454432 0.0616818
-41.6719 26.851 -9.61681 0.898713 -0.436492 0.0422475
-41.6584 26.7568 -10.8495 0.88348 -0.467629 0.0269143
-41.6274 26.7592 -12.1617 0.881401 -0.472049 0.0173682
-41.5646 26.8544 -13.4175 0.852058 -0.523126 0.0100161
-41.2916 27.2666 -14.6876 0.812147 -0.582474 -0.0338017
-40.8186 27.907 -15.7031 0.736079 -0.676887 -0.00349498
-39.9008 28.7139 -16.849 0.597005 -0.797469 0.0873333
-38.8714 29.3309 -17.5355 0.553731 -0.80835 0.199666
-37.8739 29.8427 -18.0301 0.466098 -0.859762 0.208717
-37.4542 29.8756 -19.1135 0.456385 -0.886717 0.0666031
-37.6459 29.7401 -20.2515 0.504644 -0.862859 0.0284551
-38.7578 29.1105 -20.4143 0.469973 -0.882461 0.0116189
-40.0245 28.5265 -20.4541 0.386812 -0.922029 0.0154434
-41.1706 28.0819 -20.2991 0.32941 -0.944115 0.0116522
-41.4895 27.9896 -19.2666 0.307575 -0.951134 -0.00560094
-41.7015 27.6072 -18.1347 0.631685 -0.701465 -0.330033
-42.3548 26.4384 -17.8045 0.868604 -0.448439 -0.209515
-42.8658 25.376 -17.8617 0.897594 -0.421432 -0.124526
-43.4294 24.1922 -17.4626 0.873021 -0.48377 -0.0376493
-43.8657 23.6667 -18.4027 0.625044 -0.767848 -0.140462
-43.97 23.754 -19.6713 0.550379 -0.82607 -0.121207
-45.0207 23.206 -20.2479 0.482542 -0.871695 -0.0784736
-46.1461 22.7154 -20.1237 0.387725 -0.921177 -0.0332067
-47.3136 22.3731 -20.1896 0.247903 -0.966799 -0.0431824
-48.4754 22.1095 -20.0618 0.220003 -0.975265 -0.021383
-49.6774 21.8779 -20.0959 0.179825 -0.983545 -0.011394
-50.9909 21.6564 -20.1217 0.162368 -0.986701 -0.00709196
-52.3987 21.4232 -20.0031 0.162084 -0.986772 -0.00186519
-53.6463 21.2172 -20.0595 0.161536 -0.986866 0.000949941
-54.8942 21.0169 -19.8592 0.156544 -0.987664 0.00367961
-56.598 20.7566 -20.032 0.143189 -0.989659 0.00813081
-58.3037 20.5224 -20.0686 0.127196 -0.991816 0.0110893
-59.5294 20.3689 -20.2414 0.118673 -0.992895 0.0086909
-60.9354 20.2168 -20.2059 0.102757 -0.994638 0.0116704
-62.0344 20.117 -19.8254 0.0809529 -0.996698 0.00615029
-61.8642 20.1388 -18.7889 0.0907329 -0.995855 0.00625232
-61.1325 20.2108 -17.5736 0.0951546 -0.995448 0.00211149
-60.3257 20.3007 -16.3352 0.106855 -0.994219 0.0092479
-59.8258 20.3612 -15.2737 0.112955 -0.993583 0.00509993
-59.6047 20.3923 -13.9654 0.11525 -0.993335 0.0017623
-59.3822 20.421 -12.6505 0.120418 -0.992721 -0.00233148
-59.2951 20.4318 -11.4381 0.122193 -0.992506 0.000431233
-59.1231 20.4611 -10.2451 0.121465 -0.992573 0.00393576
-59.1529 20.4595 -8.82932 0.130841 -0.991399 -0.00296064
-59.3974 20.4288 -7.47849 0.115635 -0.993283 0.00406133
-59.4697 20.4219 -5.96692 0.118229 -0.992985 -0.00182749
-59.1987 20.4458 -4.81138 0.109236 -0.994016 -0.000414524
-58.7744 20.5 -3.2025 0.120787 -0.992661 -0.00122636
-58.4114 20.5378 -1.93108 0.12393 -0.992279 -0.00489365
-58.4813 20.5164 -0.71015 0.129223 -0.991562 -0.0103377
-58.4245 20.5039 0.602062 0.121734 -0.992408 -0.0175177
-58.1426 20.5201 1.95448 0.130382 -0.991393 -0.0118796
-58.1133 20.5097 3.24969 0.126025 -0.991976 -0.0100633
-58.2919 20.4517 4.86776 0.127678 -0.991389 -0.0290845
-58.5516 20.3849 6.33239 0.128252 -0.991349 -0.0279194
-58.3973 20.3818 7.74263 0.125664 -0.992035 -0.00863445
-58.2862 20.3679 8.94731 0.136546 -0.990434 -0.0197194
-58.2502 20.3453 10.5317 0.13332 -0.990926 -0.0170825
-58.0819 20.346 12.0301 0.129183 -0.991536 -0.0129337
-58.0439 20.3138 13.621 0.132113 -0.990872 -0.0268103
-58.5321 20.2393 14.9042 0.131402 -0.991259 -0.0117672
-58.7696 20.1948 16.0631 0.118819 -0.992837 -0.012132
-59.1582 20.1356 17.1994 0.125707 -0.992023 -0.0093104
-59.522 20.0775 18.3684 0.124025 -0.992182 -0.0133068
-59.2122 20.0894 19.8015 0.123703 -0.992161 -0.0176968
-57.6321 20.2868 20.1601 0.134475 -0.990743 -0.0185728
-56.4373 20.4616 20.2206 0.153738 -0.987934 -0.0187563
-54.7976 20.7202 20.2158 0.157426 -0.98744 -0.0133963
-53.5119 20.9292 20.2999 0.163847 -0.986394 -0.0133746
-52.1705 21.1525 20.2405 0.162278 -0.986667 -0.0123759
-50.5349 21.4238 20.2054 0.164084 -0.98638 -0.0110391
-49.0168 21.7001 20.1606 0.184974 -0.982696 -0.00631912
-47.7625 21.9634 20.1365 0.205392 -0.978543 -0.0163468
-46.0998 22.4404 20.1702 0.290485 -0.956868 -0.00323154
-44.8358 22.8968 20.177 0.340756 -0.939982 -0.0178702
-43.842 23.3602 20.0727 0.452461 -0.891059 0.0354839
-43.7657 23.3272 18.893 0.419785 -0.904579 0.0742724
-43.6501 23.2288 17.6358 0.402613 -0.911292 0.0863085
-43.0888 23.7958 16.9253 0.837208 -0.542076 -0.0554676
-42.5749 24.7171 17.5954 0.908497 -0.404761 0.0713291
-42.0682 25.8726 17.8219 0.883056 -0.397352 0.2404
-41.4322 27.0072 17.9579 0.707244 -0.496953 0.476346
-41.1173 27.4057 19.0334 0.326147 -0.945133 0.0119709
-40.7755 27.4861 20.1786 0.312406 -0.949902 -0.00530025
-39.8557 27.7876 20.4598 0.310236 -0.950658 0.00136353
-38.7743 28.1377 20.1202 0.307387 -0.951533 -0.00203745
-38.6189 28.2123 18.9359 0.253197 -0.96441 -0.0761953
-38.9652 28.2385 18.003 0.328365 -0.930708 -0.161117
-39.9384 27.8593 17.4735 0.511169 -0.857642 -0.0561848
-40.8278 27.129 16.8996 0.701348 -0.673132 0.233979
-41.3893 26.393 16.1478 0.779314 -0.623284 0.0383236
-41.8952 25.605 15.3179 0.820052 -0.568189 0.0582469
-42.5664 24.6115 14.3543 0.828574 -0.559755 0.00629646
-43.0929 23.8784 13.3727 0.787682 -0.615987 -0.0107766
-43.5873 23.2352 12.4113 0.478589 -0.874334 0.069395
-44.2597 22.8734 11.2867 0.436468 -0.899496 -0.0200677
-44.9523 22.7111 9.92662 0.430223 -0.895215 -0.116178
-45.6412 22.5915 8.82322 0.243664 -0.968619 -0.0490333
-46.4841 22.4142 8.00221 0.251473 -0.967035 -0.040056
-47.5639 22.1891 6.89875 0.189426 -0.981522 -0.0240042
-48.3831 22.0602 5.68142 0.15903 -0.987162 -0.0131039
-49.0276 21.9753 4.57256 0.146057 -0.989012 -0.0228562
-49.9185 21.8554 3.73841 0.156511 -0.987465 -0.0204134
-51.041 21.6919 2.97036 0.161031 -0.986674 -0.0233301
-51.4476 21.6421 1.866 0.170437 -0.985132 -0.0215959
-51.3749 21.6802 0.60625 0.171739 -0.984991 -0.017274
-51.6112 21.6643 -0.555565 0.178327 -0.983738 -0.0212532
-51.6862 21.6704 -1.7772 0.178477 -0.983805 -0.0165033
-51.2609 21.7684 -2.97242 0.176613 -0.984141 -0.0161033
-50.5952 21.9003 -4.0942 0.170158 -0.985387 -0.00646176
-49.5566 22.0584 -4.58373 0.124787 -0.992181 -0.00118071
-48.5071 22.1902 -4.79947 0.124275 -0.992207 -0.00897841
-10.4849 50.1059 17.864 0.0429686 -0.995962 0.0788299
-11.7259 50.0177 17.7917 0.0691378 -0.989849 0.124176
-12.5395 49.7809 16.8173 0.138824 -0.978338 0.153565
-13.5332 49.4779 16.0639 0.216313 -0.953317 0.207237
-14.8637 48.9111 15.5108 0.361178 -0.908179 0.211569
-16.0219 48.3126 15.3498 0.458272 -0.883965 0.0927012
-17.3113 47.6076 15.4626 0.503131 -0.862118 0.0600955
-18.3734 46.9303 16.2447 0.57248 -0.819414 -0.0287617
-19.14 46.3488 17.213 0.58386 -0.811054 -0.0360353
-20.2183 45.5335 17.7724 0.58822 -0.807069 -0.0513553
-21.3363 44.6884 17.8255 0.610078 -0.789065 -0.0704267
-22.6179 43.6548 17.8018 0.640127 -0.765354 -0.0668702
-23.6651 42.7398 17.9393 0.667577 -0.740296 -0.0793928
-24.5979 41.8709 17.9467 0.689296 -0.716203 -0.109194
-25.7028 40.8 17.9722 0.681904 -0.718984 -0.134424
-26.6291 39.9034 17.9507 0.696554 -0.710327 -0.098943
-27.5608 38.9659 17.9701 0.691253 -0.705339 -0.157057
-28.5808 38.2214 17.0246 0.681821 -0.702984 -0.202321
-29.604 37.6053 15.8615 0.674282 -0.695559 -0.248074
-30.1249 37.4893 14.8081 0.664799 -0.696524 -0.269995
-29.9213 38.165 13.5446 0.650091 -0.709269 -0.272615
-29.8981 38.6402 12.3545 0.636206 -0.720505 -0.275801
-30.0084 39.0701 10.8816 0.622329 -0.740556 -0.25328
-30.1686 39.3459 9.48254 0.637318 -0.748141 -0.184693
-29.2544 40.0782 9.57259 0.609952 -0.775298 -0.163762
-28.1492 40.8311 9.99196 0.606705 -0.768349 -0.203708
-27.158 41.5618 10.1237 0.596606 -0.782877 -0.176517
-26.1615 42.3006 10.2636 0.599908 -0.783326 -0.162822
-24.9219 43.1842 10.291 0.558829 -0.816015 -0.14772
-23.8871 43.9122 10.174 0.56014 -0.81573 -0.144319
-22.8366 44.5933 10.0075 0.512473 -0.852546 -0.102649
-21.6547 45.3586 9.38156 0.48528 -0.871535 -0.0701878
-20.5746 45.9704 8.71112 0.436149 -0.898659 -0.0467537
-19.6976 46.4137 7.93712 0.40334 -0.914249 -0.0382905
-18.7333 46.8395 7.81072 0.393461 -0.919086 -0.0216727
-17.7151 47.2369 8.76946 0.363044 -0.931634 -0.0160164
-16.7469 47.61 9.45591 0.343928 -0.938657 0.0215501
-15.6261 48.031 10.0035 0.317229 -0.947469 0.0372612
-14.338 48.4379 10.4102 0.274696 -0.959351 0.0635968
-12.8514 48.8433 10.6981 0.232347 -0.968828 0.0853464
-11.4786 49.1486 10.8711 0.181659 -0.978796 0.0930757
-10.7764 49.3447 11.665 0.168473 -0.980446 0.101699
-10.6623 49.4935 12.897 0.135933 -0.984601 0.109923
-10.1289 49.7819 14.6526 0.12088 -0.985216 0.1203
-9.40256 50.0145 16.1953 0.0637472 -0.994459 0.0835144
-8.9604 50.1337 17.4073 0.0373819 -0.996061 0.0804075
-9.62973 50.1416 17.8476 0.0430502 -0.995893 0.0796524
-10.109 50.1221 17.862 0.0432182 -0.99592 0.0792183
-10.2496 50.2083 19.0787 0.0205946 -0.998654 0.0475616
-11.6225 50.144 19.0849 0.0499225 -0.996853 0.0615817
-12.912 50.0661 18.8894 0.066917 -0.991326 0.103663
-13.5634 49.7634 17.4215 0.0840462 -0.975037 0.205522
-14.6439 49.3187 16.8206 0.415653 -0.874467 0.249309
-15.6931 48.7135 16.6003 0.526717 -0.838519 0.136076
-16.8266 48.006 16.5695 0.539703 -0.837447 0.0780039
-17.8923 47.2502 17.1545 0.607041 -0.794546 -0.0140485
-18.4976 46.7696 18.2766 0.593644 -0.804143 -0.0306114
-19.3875 46.0811 18.9337 0.596975 -0.801571 -0.0332405
-20.3817 45.325 19.0729 0.602874 -0.796718 -0.0422246
-21.437 44.5173 19.0355 0.622399 -0.781205 -0.0474278
-22.7682 43.4151 19.0526 0.647409 -0.75977 -0.058477
-23.8135 42.4861 19.117 0.674735 -0.7349 -0.0681613
-24.764 41.5706 19.1392 0.702264 -0.708523 -0.0688901
-25.8635 40.5007 19.1698 0.695608 -0.716261 -0.0549196
-26.8579 39.5207 19.1842 0.703354 -0.706898 -0.074731
-27.9358 38.4238 19.1557 0.713819 -0.69794 -0.0573584
-28.7691 37.6441 18.7101 0.704198 -0.701866 -0.107192
-29.3121 37.3437 17.4695 0.706922 -0.677505 -0.203098
-30.2759 36.6179 16.6962 0.683785 -0.679686 -0.265405
-31.2554 35.6691 16.6078 0.678726 -0.683307 -0.269114
-31.3844 35.9006 15.7212 0.671816 -0.686049 -0.279286
-31.0461 36.7867 14.3573 0.670626 -0.68669 -0.280567
-30.8337 37.4444 13.2346 0.647471 -0.705559 -0.288042
-30.8025 37.9455 12.0513 0.646256 -0.712517 -0.273263
-30.9449 38.3373 10.6547 0.648195 -0.715534 -0.260442
-31.1803 38.527 9.33162 0.642167 -0.739783 -0.200852
-31.6334 38.4462 8.07004 0.640753 -0.747899 -0.173446
-32.3828 38.0723 6.84044 0.646054 -0.74572 -0.162809
-31.5941 38.6858 7.14692 0.646091 -0.745529 -0.163556
-30.5255 39.4386 7.80987 0.625792 -0.759695 -0.176769
-29.5606 40.1197 8.25297 0.610973 -0.771975 -0.175403
-28.4775 40.8882 8.63003 0.608901 -0.774425 -0.17177
-27.1787 41.8174 8.89439 0.584624 -0.79554 -0.159151
-26.1757 42.5101 9.12229 0.583155 -0.797625 -0.153994
-24.9667 43.3545 9.06001 0.556984 -0.820293 -0.12986
-23.7466 44.1687 8.91431 0.532937 -0.839497 -0.105902
-22.5569 44.9294 8.53151 0.508631 -0.856404 -0.0886931
-21.6291 45.4965 7.95667 0.452703 -0.889633 -0.0572602
-20.4528 46.1067 6.99736 0.416726 -0.90795 -0.0431382
-19.5678 46.5456 5.8163 0.38486 -0.922613 -0.025477
-18.7929 46.8535 5.92674 0.345504 -0.938355 -0.00975308
-17.8671 47.1872 6.99201 0.344018 -0.938944 -0.00601235
-16.9688 47.5104 7.82041 0.320208 -0.947327 0.00616316
-15.977 47.857 8.48245 0.310742 -0.949453 0.037241
-14.6987 48.2666 9.04553 0.268855 -0.962055 0.0446019
-13.4304 48.6195 9.36582 0.22563 -0.971431 0.0714623
-11.9127 48.9516 9.61218 0.191626 -0.979183 0.0666758
-10.3784 49.2136 9.47128 0.156253 -0.985684 0.0633489
-9.46049 49.3914 10.0449 0.143271 -0.986998 0.0727283
-9.59649 49.5046 11.5568 0.144645 -0.98544 0.0893587
-9.40048 49.6692 12.9611 0.112299 -0.98868 0.0994973
-8.99885 49.8388 14.1202 0.0976552 -0.988737 0.113386
-8.27621 50.0389 15.659 0.061535 -0.994814 0.0809848
-7.58153 50.163 16.9956 0.04212 -0.997252 0.0609453
-6.73683 50.2329 17.9494 0.0205492 -0.998867 0.0412672
-5.84307 50.2776 18.7898 0.0225954 -0.999288 0.0302271
-7.06361 50.2629 19.0397 0.0137232 -0.999406 0.0316016
-8.35255 50.2485 19.0871 0.0164529 -0.999037 0.0401114
-9.68223 50.2206 19.084 0.0212482 -0.998739 0.0454842
20.5685 46.2631 -9.68815 -0.433102 -0.896757 0.090741
19.6455 46.7685 -8.81536 -0.389711 -0.91815 0.0716023
18.7142 47.215 -7.95808 -0.379034 -0.922999 0.0662
17.5452 47.6659 -7.66403 -0.335533 -0.940534 0.0530488
16.1656 48.0728 -8.52524 -0.285116 -0.95805 0.0272134
14.8851 48.4337 -8.99057 -0.2685 -0.963268 -0.00473293
13.7064 48.7383 -9.3823 -0.244506 -0.969639 -0.00407435
12.3718 49.0295 -9.66087 -0.198429 -0.979972 -0.0167802
10.8568 49.2831 -9.92289 -0.140771 -0.989392 -0.0358855
10.5472 49.3875 -11.1114 -0.142805 -0.988174 -0.0555358
10.378 49.5378 -12.8509 -0.138516 -0.986683 -0.0844019
10.0643 49.7132 -14.2934 -0.106483 -0.989057 -0.102113
9.31835 49.9118 -15.7423 -0.0885331 -0.9933 -0.0740285
8.62319 50.0425 -17.1096 -0.040489 -0.996564 -0.0722105
8.83978 50.0853 -17.9272 -0.0170229 -0.998568 -0.0507227
10.3266 50.0349 -17.9656 -0.0380008 -0.996771 -0.070732
11.94 49.9175 -17.6413 -0.0524095 -0.993269 -0.103291
12.8201 49.6322 -16.4999 -0.202802 -0.963319 -0.17575
14.14 49.1185 -15.7215 -0.295732 -0.935338 -0.192118
15.356 48.5861 -15.4018 -0.394046 -0.912242 -0.11199
16.5491 48.0047 -15.3589 -0.449495 -0.893214 -0.0111175
17.7769 47.2982 -16.0366 -0.525389 -0.849556 0.0465512
18.6473 46.6783 -16.8336 -0.544645 -0.835811 0.0691497
19.4099 46.1024 -17.7458 -0.55591 -0.829612 0.0520445
20.6571 45.2247 -17.8088 -0.573904 -0.815025 0.0780033
21.7976 44.3946 -17.7753 -0.600418 -0.794024 0.0945368
22.9422 43.4602 -17.8938 -0.630693 -0.768151 0.110269
23.8949 42.6296 -17.992 -0.665418 -0.735869 0.124171
24.9394 41.6751 -17.9929 -0.649476 -0.746778 0.143182
25.9008 40.8062 -18.0271 -0.67644 -0.71779 0.16494
26.8586 40.0054 -17.6332 -0.660867 -0.726602 0.187896
27.8401 39.4949 -16.4294 -0.644371 -0.720875 0.25483
28.7784 38.9611 -15.6452 -0.632826 -0.725658 0.270096
29.0072 39.1563 -14.6179 -0.629232 -0.723843 0.283051
28.6182 40.0517 -13.1363 -0.609459 -0.739159 0.286714
28.6543 40.509 -11.831 -0.594579 -0.751666 0.285437
27.7631 41.3424 -11.3638 -0.584379 -0.76957 0.257034
26.6185 42.1278 -11.5607 -0.570193 -0.78906 0.228585
25.4395 42.9431 -11.6666 -0.572966 -0.790529 0.215961
24.2254 43.8563 -11.4473 -0.556533 -0.807004 0.197464
23.1444 44.62 -11.1252 -0.529295 -0.831774 0.16733
22.0773 45.3469 -10.739 -0.501454 -0.846085 0.180787
20.9061 46.0716 -9.98414 -0.45022 -0.886793 0.101382
21.4546 45.9132 -8.8492 -0.459809 -0.883012 0.0941632
20.5163 46.466 -7.96052 -0.411415 -0.907368 0.0804626
19.3328 47.0401 -6.94151 -0.377815 -0.923001 0.0729776
18.6539 47.3741 -5.84017 -0.338546 -0.938202 0.0718543
18.0739 47.6025 -5.47344 -0.308501 -0.949888 0.0504018
17.0835 47.86 -6.49228 -0.291984 -0.955747 0.0359565
15.9855 48.1651 -7.21865 -0.287453 -0.957348 0.0292422
14.5754 48.5265 -7.85938 -0.246058 -0.968969 0.0235666
13.3425 48.8124 -8.18331 -0.209236 -0.977799 0.0113686
12.0039 49.0723 -8.53132 -0.165573 -0.986176 -0.00650957
10.4453 49.3119 -8.62335 -0.129215 -0.991417 -0.0156952
8.96434 49.5043 -9.24716 -0.109224 -0.993629 -0.0277882
9.40934 49.514 -10.708 -0.114723 -0.991863 -0.0551711
9.17256 49.6302 -12.1047 -0.110536 -0.991507 -0.0679834
8.97647 49.7514 -13.6076 -0.0993579 -0.990901 -0.0886458
8.44951 49.9065 -14.8237 -0.0554791 -0.994116 -0.0930364
7.73459 50.0187 -16.0514 -0.0338267 -0.998155 -0.0503924
7.05337 50.0876 -17.2376 -0.0226744 -0.999158 -0.0341646
6.03664 50.1344 -18.314 -0.0116032 -0.999477 -0.0301884
