20.7364 47.0141 -20.5109 -0.582708 -0.812192 0.0278417
19.286 48.0055 -20.4372 -0.564132 -0.825683 -0.00138811
18.2731 48.671 -20.3905 -0.542643 -0.839929 -0.00711689
18.016 48.8384 -19.2717 -0.533611 -0.845697 0.00744553
17.6996 49.0507 -18.1406 -0.545366 -0.837583 0.024641
16.6592 49.8137 -17.9545 -0.6044 -0.7868 -0.125089
15.6493 50.5017 -17.9296 -0.504573 -0.812832 -0.291051
14.7379 51.0584 -18.3936 0.0630864 -0.981721 -0.179566
14.5623 51.1148 -19.6799 5.78859e-05 -0.999766 -0.0195697
13.5198 51.1429 -20.4249 -0.0196038 -0.999448 -0.0264865
11.7962 51.1648 -20.3783 -0.00926564 -0.999343 -0.0349352
10.3624 51.1755 -20.4601 -0.00103554 -0.999443 -0.0333483
9.07439 51.1723 -20.352 0.00616609 -0.999623 -0.0267402
7.76013 51.162 -20.2935 0.00700629 -0.999608 -0.0271174
6.35045 51.1489 -20.2844 0.00701387 -0.999795 -0.018983
4.96959 51.1365 -20.4829 0.00610551 -0.999926 -0.0105039
3.37477 51.1208 -20.4518 0.0140655 -0.999879 -0.00665919
2.08911 51.108 -20.5442 0.0112762 -0.999936 -0.0012352
0.754072 51.1015 -20.475 0.00649036 -0.999954 0.00700358
-0.571317 51.0961 -20.3493 0.00785941 -0.999925 0.00914814
-1.96586 51.0829 -20.4527 0.00822392 -0.99988 0.0131401
-3.18903 51.0757 -20.4135 0.0044271 -0.999983 0.00320867
-4.58176 51.0694 -20.4116 0.00121555 -0.999983 0.0027157
-5.79944 51.0734 -20.3981 -0.0057308 -0.999979 -0.00290414
-7.10147 51.0798 -20.4008 -0.00393037 -0.999986 0.0026982
-8.41901 51.0841 -20.4419 -0.00143735 -0.999999 0.000487189
-9.80507 51.0916 -20.4465 -0.00896605 -0.999939 -0.00650167
-11.4285 51.0969 -20.4332 -0.00163513 -0.999886 -0.0150086
-12.9568 51.0922 -20.4059 0.00531205 -0.999893 -0.0136447
-14.2606 51.0858 -20.4437 0.0106134 -0.999931 -0.00496853
-14.8876 51.0774 -19.6043 2.03955e-05 -0.999732 -0.0160862
-15.0195 50.9938 -18.3811 0.0487192 -0.979188 -0.176673
-16.1123 50.6737 -17.8369 0.294955 -0.936731 -0.188513
-17.2719 50.2592 -17.9316 0.385177 -0.915061 -0.119589
-18.48 49.7465 -18.1488 0.458304 -0.88131 -0.115108
-18.9046 49.5583 -19.4263 0.482645 -0.875808 -0.00371884
-19.4608 49.24 -20.4242 0.502355 -0.864572 0.010091
-20.5781 48.532 -20.411 0.541078 -0.840853 -0.0141523
-21.6038 47.7188 -20.4559 0.660867 -0.750384 -0.0133615
-22.5504 46.8461 -20.3739 0.689049 -0.724666 0.00758289
-23.4645 45.9546 -20.45 0.700528 -0.713541 0.0109571
-24.3398 45.0836 -20.4482 0.710931 -0.703181 0.0105534
-25.1551 44.249 -20.0658 0.723692 -0.690093 0.00457208
-25.3269 44.1203 -18.6858 0.764296 -0.639363 0.0799927
-24.6496 44.9057 -18.1815 0.720225 -0.689313 0.0782568
-23.8413 45.7732 -17.556 0.680829 -0.726209 0.0953607
-22.8228 46.7698 -16.7132 0.655692 -0.752683 0.0594583
-22.0214 47.4546 -15.8995 0.59204 -0.805317 0.0304477
-21.2597 47.9922 -15.0813 0.515511 -0.856489 -0.0259475
-20.6143 48.3324 -14.0664 0.490086 -0.871189 -0.0290615
-20.0808 48.5937 -13.0126 0.409338 -0.912227 -0.0168399
-19.8809 48.6723 -11.7356 0.381129 -0.923685 -0.0140042
-19.964 48.5995 -10.5099 0.352216 -0.935492 -0.0282598
-19.9555 48.544 -9.05852 0.358498 -0.932553 -0.0427027
-20.049 48.4458 -7.60032 0.351861 -0.935109 -0.0420049
-20.0415 48.4282 -6.37267 0.33894 -0.940528 -0.0221438
-20.1202 48.3477 -4.90919 0.327714 -0.944105 -0.0356256
-20.1657 48.2868 -3.61969 0.329062 -0.943894 -0.0279812
-20.1807 48.2382 -2.32681 0.325797 -0.943314 -0.0633564
-20.1315 48.1713 -0.90724 0.333204 -0.941329 -0.0536229
-20.3079 48.0635 0.630563 0.345783 -0.937749 -0.0325581
-20.2728 48.0295 2.17882 0.358628 -0.933273 -0.0196664
-20.4269 47.9309 3.72045 0.358871 -0.932934 -0.029085
-20.8277 47.7301 5.12626 0.355515 -0.934102 -0.0325903
-21.7498 47.2845 6.42795 0.39707 -0.916841 -0.0416987
-22.7787 46.7625 7.14675 0.438316 -0.8967 -0.0605555
-23.8466 46.1339 7.88254 0.487192 -0.869246 -0.0826098
-25.1439 45.3447 8.02492 0.50325 -0.858711 -0.095755
-26.2477 44.6974 7.82803 0.535608 -0.836319 -0.116113
-27.2574 44.0281 7.84115 0.550839 -0.826475 -0.116259
-28.5224 43.2459 7.34134 0.56524 -0.816253 -0.119308
-29.6855 42.492 6.93024 0.576948 -0.806173 -0.131209
-30.869 41.7486 6.30048 0.579673 -0.803739 -0.134006
-31.8408 41.1476 5.66469 0.594424 -0.795581 -0.115725
-32.8267 40.5273 4.70232 0.610987 -0.781958 -0.122569
-33.6549 39.9592 4.02264 0.636349 -0.764268 -0.104309
-34.4427 39.3802 3.25857 0.65003 -0.756103 -0.0759572
-35.1837 38.8172 2.47573 0.64859 -0.75836 -0.0647567
-36.2255 38.006 1.44658 0.661076 -0.748695 -0.0493273
-37.0227 37.3339 0.539501 0.675105 -0.737502 -0.0180055
-37.8093 36.6062 -0.427605 0.69031 -0.723485 -0.00636296
-38.4445 35.9993 -1.45984 0.694222 -0.719618 0.00770376
-39.0982 35.3295 -2.34457 0.713286 -0.700574 0.0204585
-39.7355 34.6398 -3.14613 0.723701 -0.689511 0.0288357
-40.502 33.7751 -4.05519 0.735387 -0.676895 0.0318342
-41.2104 32.9682 -4.74299 0.746146 -0.664933 0.0336262
-41.8939 32.1437 -5.45565 0.757452 -0.651672 0.039389
-42.5474 31.255 -6.55581 0.768752 -0.63728 0.0535735
-42.889 30.7385 -7.63828 0.771159 -0.633517 0.0630134
-43.2101 30.2113 -8.92077 0.76733 -0.637768 0.0667423
-43.3915 29.8573 -10.243 0.766048 -0.639201 0.0676915
-43.4115 29.7114 -11.6791 0.762056 -0.645647 0.0489526
-43.2055 29.8639 -13.079 0.764958 -0.643345 0.0307767
-42.9614 30.1254 -14.5019 0.737936 -0.674864 0.00300171
-42.4792 30.6543 -15.8063 0.650273 -0.758795 -0.0370883
-41.5596 31.3715 -16.9428 0.565076 -0.824702 -0.0235732
-40.5959 31.7541 -17.6 0.360495 -0.913998 0.186146
-39.2319 32.1491 -18.0392 0.277236 -0.925175 0.245501
-38.0368 32.533 -18.2428 0.331202 -0.886537 0.323045
-36.8749 33.1708 -18.2899 0.487724 -0.845699 0.203747
-35.8004 33.8911 -18.3369 0.613706 -0.783427 0.0961692
-34.847 34.7104 -18.3019 0.611457 -0.761046 0.210032
-34.6381 34.6207 -19.4913 0.580428 -0.811347 0.0694271
-35.033 34.276 -20.4001 0.601067 -0.798619 0.0190055
-36.0166 33.5536 -20.3758 0.582158 -0.811528 0.0501447
-37.0157 32.8253 -20.4527 0.569782 -0.820812 0.0341072
-38.3228 32.1664 -20.3872 0.361761 -0.930762 -0.0186334
-39.8638 31.7652 -20.3528 0.213337 -0.976223 -0.0384058
-41.1339 31.4678 -20.3897 0.251007 -0.966321 -0.0567423
-42.6143 30.9351 -20.3647 0.388369 -0.919489 -0.0609035
-43.0392 30.7052 -19.4366 0.402017 -0.915271 -0.0257176
-43.3278 30.5086 -18.1627 0.518283 -0.756766 -0.302383
-43.8431 29.4735 -17.8537 0.938133 -0.315276 -0.142002
-44.3508 28.2777 -17.8399 0.922657 -0.385271 0.00726694
-44.8192 27.138 -17.8987 0.873355 -0.426283 0.193666
-45.3551 26.2667 -18.5509 0.543063 -0.817699 0.11885
-45.3633 26.1943 -19.9266 0.608823 -0.791484 -0.0127162
-46.3068 25.5937 -20.3028 0.46044 -0.88253 -0.0701653
-47.469 25.0733 -20.3312 0.40797 -0.912324 -0.0349593
-48.6609 24.6367 -20.1656 0.318903 -0.947787 0.000293095
-49.8982 24.2717 -20.1341 0.245246 -0.968705 0.0369826
-51.4135 23.922 -20.1297 0.209544 -0.977693 0.0140925
-52.7701 23.6374 -20.1058 0.203318 -0.978978 0.0162293
-53.9874 23.3862 -20.1068 0.201684 -0.979316 0.0162466
-55.6118 23.0494 -20.1267 0.198338 -0.979954 0.0179147
-56.9447 22.7863 -20.1325 0.188663 -0.981895 0.016041
-58.2492 22.549 -20.1816 0.170591 -0.985339 0.00221538
-59.6452 22.3229 -20.2954 0.153588 -0.988028 0.0145146
-60.8986 22.1383 -20.2748 0.129523 -0.991484 0.0135019
-61.798 22.0325 -19.2786 0.131109 -0.991318 0.00965384
-61.1042 22.1353 -17.9813 0.136464 -0.990615 0.00311332
-60.3637 22.2455 -16.6567 0.150277 -0.988634 0.00443024
-59.8795 22.3201 -15.2777 0.16593 -0.986138 -0.000347004
-59.4444 22.397 -14.1112 0.169994 -0.985435 0.0045374
-59.2885 22.4259 -12.8905 0.166661 -0.986013 -0.00152269
-59.104 22.4582 -11.5821 0.179046 -0.983772 0.0041649
-59.0152 22.4901 -10.2122 0.180388 -0.98359 0.00343244
-59.1237 22.4745 -9.00053 0.179005 -0.983843 0.00330814
-59.2707 22.449 -7.49264 0.173437 -0.984845 0.000744534
-59.3514 22.4369 -6.19703 0.161297 -0.986904 0.00193849
-59.1838 22.4467 -4.7533 0.164582 -0.986277 -0.0121299
-58.8898 22.483 -3.535 0.191036 -0.981466 -0.0149332
-58.4911 22.5439 -2.19539 0.174967 -0.984457 -0.01523
-58.327 22.5643 -0.809964 0.20067 -0.979637 -0.00646882
-58.2846 22.5649 0.489855 0.196275 -0.980487 -0.00993386
-58.0851 22.5843 1.86922 0.174188 -0.984672 -0.00895579
-57.9467 22.5846 3.13841 0.186184 -0.982262 -0.0219257
-58.1091 22.5196 4.79148 0.165242 -0.986187 -0.0114231
-58.2055 22.4799 6.03925 0.174817 -0.984395 -0.0179145
-58.2087 22.4609 7.38835 0.173422 -0.984665 -0.0179054
-58.0753 22.4567 8.63466 0.17748 -0.983847 -0.0232752
-58.0182 22.422 10.1959 0.178633 -0.983548 -0.0267871
-57.9928 22.3784 11.8047 0.169071 -0.985245 -0.0265775
-58.0717 22.3243 13.2158 0.169198 -0.985131 -0.0298082
-58.2782 22.2663 14.4246 0.17544 -0.984451 -0.00874259
-58.6372 22.1852 15.6667 0.164552 -0.98616 -0.0195969
-59.0248 22.1063 16.9035 0.147673 -0.988913 -0.01542
-59.3622 22.0389 18.1145 0.153424 -0.98812 -0.00889013
-59.4028 22.0164 19.5537 0.146476 -0.989171 -0.00923581
-58.0198 22.2226 20.2048 0.164648 -0.986253 -0.0139695
-56.8251 22.43 20.3297 0.178991 -0.983722 -0.0158398
-55.6166 22.6532 20.2944 0.183794 -0.982825 -0.0165569
-54.2345 22.9109 20.4204 0.186868 -0.982214 -0.0180941
-52.8042 23.191 20.2959 0.194516 -0.980467 -0.0286284
-51.2782 23.5065 20.3154 0.21791 -0.975281 -0.0335213
-49.5729 23.9403 20.3105 0.259716 -0.964489 -0.0477386
-48.3643 24.3183 20.2612 0.33083 -0.941142 -0.0693118
-47.1603 24.761 20.2163 0.370775 -0.927631 -0.0439167
-45.6199 25.4069 20.2033 0.424098 -0.904095 -0.0524679
-45.0538 25.6915 19.2708 0.407506 -0.912876 -0.0244332
-44.6345 26.0517 18.0223 0.689234 -0.61412 -0.342448
-44.1454 27.1254 17.8002 0.883966 -0.450512 -0.118004
-43.6101 28.2342 17.7675 0.896908 -0.438798 0.05488
-42.9751 29.3358 17.8637 0.741861 -0.618622 0.258745
-42.6077 29.8292 18.738 0.400291 -0.914274 0.0622164
-42.5794 29.888 19.9704 0.337911 -0.938899 0.0647042
-41.5916 30.2626 20.4011 0.309666 -0.949388 0.045911
-39.9229 30.747 20.3368 0.273678 -0.959024 -0.0684671
-38.4034 31.2193 20.426 0.376356 -0.922484 -0.0858867
-37.2385 31.8325 20.3757 0.527109 -0.844953 -0.0906087
-36.0759 32.5813 20.3217 0.561449 -0.827087 -0.0264899
-35.6741 32.9367 19.1619 0.522781 -0.849048 -0.0738969
-36.4076 32.5936 18.5425 0.509174 -0.840913 -0.183322
-37.5578 31.8754 18.6687 0.557455 -0.813373 -0.166337
-38.8057 31.3051 18.5862 0.299065 -0.927606 -0.220412
-40.1217 30.8697 18.3889 0.356547 -0.924611 -0.13405
-41.2869 30.4303 18.0618 0.397871 -0.915594 -0.0581974
-42.3174 29.8309 17.5859 0.585361 -0.796802 0.149865
-43.1472 28.8751 17.0245 0.805558 -0.570105 0.161417
-43.7282 28.097 16.2419 0.812795 -0.575265 -0.0364899
-44.3949 27.2913 15.4648 0.751965 -0.636861 -0.170166
-45.3418 26.5338 14.4531 0.683202 -0.701098 -0.204195
-46.2352 25.9371 13.4622 0.544534 -0.830102 -0.112493
-47.0943 25.5274 12.7144 0.516205 -0.851077 -0.0955715
-47.9402 25.1903 11.644 0.413892 -0.908185 -0.0622297
-48.7619 24.9028 10.7262 0.3702 -0.925967 -0.0744093
-49.7609 24.6101 9.6949 0.344805 -0.935673 -0.0743603
-50.5315 24.3823 8.74987 0.335134 -0.941154 -0.0433064
-51.4308 24.1452 7.4501 0.308351 -0.950132 -0.0465763
-52.0121 24.0112 6.28165 0.312795 -0.94884 -0.0431514
-52.5787 23.8764 4.85159 0.29473 -0.955079 -0.0308467
-53.1401 23.7436 3.70298 0.294711 -0.955014 -0.0330628
-53.6132 23.6511 2.17108 0.281606 -0.959123 -0.0265192
-53.5341 23.7032 0.861342 0.275461 -0.960957 -0.026057
-53.3957 23.7768 -0.505418 0.282844 -0.9589 -0.0221044
-53.139 23.8823 -2.07701 0.295021 -0.955304 -0.016236
-52.7173 24.0411 -3.22051 0.306415 -0.951733 -0.0176545
-51.8643 24.3322 -4.28842 0.315729 -0.948686 -0.0119489
-50.8557 24.6823 -5.05895 0.323437 -0.946245 -0.000315973
-49.5479 25.2028 -5.51874 0.410923 -0.911666 -0.00257346
-48.2885 25.8171 -5.66055 0.452514 -0.891461 -0.0230059
-47.0931 26.502 -5.54198 0.571249 -0.817272 -0.00318456
-46.1879 27.2513 -5.11377 0.671403 -0.740588 0.0273348
-45.3147 28.0978 -4.44476 0.713901 -0.700131 0.00940281
-44.3461 29.1603 -4.05286 0.76016 -0.649411 0.0185126
-43.517 30.2078 -3.63493 0.783169 -0.621681 0.0126397
-42.7886 31.1474 -2.96039 0.787593 -0.615955 0.0172111
-42.0252 32.1132 -2.20088 0.774714 -0.63214 -0.0137825
-41.3785 32.875 -1.46493 0.752541 -0.658528 -0.00482244
-40.6895 33.653 -0.775598 0.755664 -0.654718 -0.0170927
-39.9833 34.4189 -0.0345306 0.729302 -0.683341 -0.0341163
-39.0508 35.3466 0.854326 0.730892 -0.679599 -0.0627846
-38.326 36.0124 1.55855 0.710054 -0.700588 -0.0707119
-37.4778 36.7679 2.50989 0.694589 -0.715126 -0.0783594
-36.7765 37.325 3.3916 0.666227 -0.74082 -0.0855978
-35.9923 37.9286 4.25445 0.66702 -0.739169 -0.0933441
-35.0681 38.5759 5.34869 0.649511 -0.750014 -0.124535
-34.1476 39.2215 6.07439 0.626806 -0.765961 -0.142889
-33.1626 39.8395 7.11145 0.63353 -0.75733 -0.158401
-32.3974 40.209 8.29567 0.611 -0.773049 -0.169973
-31.8461 40.3364 9.47599 0.603215 -0.766406 -0.220801
-31.6566 40.002 11.0353 0.583759 -0.765595 -0.270351
-31.5808 39.5592 12.3174 0.59587 -0.744444 -0.30067
-31.7405 38.9054 13.4658 0.611211 -0.718578 -0.33175
-32.057 38.1321 14.518 0.616451 -0.710194 -0.34002
-32.3994 37.3124 15.5661 0.631309 -0.694704 -0.344586
-32.8776 36.4939 16.3252 0.625847 -0.697277 -0.349435
-33.5157 35.6168 16.9232 0.637578 -0.688315 -0.346
-33.9973 34.8361 17.6012 0.633144 -0.691718 -0.347313
-33.1705 35.495 17.8155 0.641074 -0.689245 -0.337586
-32.2428 36.3505 17.8441 0.659329 -0.68567 -0.308451
-31.3707 37.2244 17.8006 0.681036 -0.675337 -0.283038
-30.4262 38.199 17.792 0.678576 -0.684889 -0.26487
-29.4843 39.0819 17.85 0.67 -0.70209 -0.241184
-28.6183 39.9514 17.7652 0.676211 -0.69013 -0.257798
-27.7159 40.8415 17.7706 0.6852 -0.689208 -0.235569
-26.8018 41.6286 18.2936 0.731605 -0.659014 -0.174511
-26.6707 41.6705 19.4989 0.722435 -0.69114 -0.0188685
-26.1541 42.1822 20.3972 0.708597 -0.705553 -0.00921035
-25.299 43.0344 20.3418 0.706204 -0.707804 -0.0170029
-24.3843 43.9222 20.3684 0.688856 -0.724557 -0.0220477
-23.3959 44.8486 20.3875 0.675167 -0.737095 -0.0289935
-22.4053 45.7302 20.4467 0.651114 -0.758841 -0.0145158
-21.4481 46.5142 20.4265 0.610334 -0.79212 -0.00612817
-20.2579 47.4071 20.3905 0.590185 -0.807229 -0.00790185
-19.1711 48.1957 20.3725 0.580825 -0.814028 9.28233e-05
-18.4105 48.7459 19.6144 0.581063 -0.813845 -0.00345053
-18.3049 48.8237 18.422 0.567472 -0.823388 -0.00271182
-17.5104 49.4062 17.8547 0.692955 -0.715605 0.086275
-16.5392 50.187 17.822 0.608441 -0.772643 0.177844
-15.5476 50.9161 17.9615 0.280985 -0.857095 0.431782
-14.9654 51.1648 19.0991 0.0283002 -0.996202 0.0823504
-14.6612 51.2276 20.2838 0.07266 -0.996447 0.0425806
-13.3545 51.3166 20.3915 0.0202991 -0.995466 0.0929273
-12.119 51.3239 20.3462 0.00276376 -0.995023 0.0996088
-10.8578 51.2975 20.3316 -0.0096935 -0.998692 0.0499714
-21.0347 48.2235 -18.1418 0.609965 -0.792253 0.0140273
-20.4597 48.564 -17.3988 0.548807 -0.834763 -0.0445139
-20.6747 48.4613 -18.0429 0.524027 -0.850811 -0.0389387
-20.9095 48.3191 -18.0952 0.563595 -0.824126 -0.01107
-20.9009 48.2967 -19.272 0.608677 -0.793193 0.00858336
-19.9137 48.9775 -19.0711 0.548199 -0.836288 0.010031
-19.5396 49.1492 -17.9113 0.468988 -0.880611 -0.0676222
-18.5264 49.594 -16.9657 0.452252 -0.88785 -0.0847789
-17.3855 50.0388 -16.6347 0.331539 -0.934489 -0.129215
-18.4353 49.477 -15.3001 0.395554 -0.913733 -0.0928955
-18.9832 49.1528 -14.2688 0.400101 -0.913846 -0.0679899
-19.9053 48.7401 -14.969 0.458576 -0.887346 -0.0441147
-20.7447 48.3356 -16.0335 0.492297 -0.86898 -0.0491935
-21.6136 47.7407 -17.0672 0.615023 -0.788464 0.00846566
-22.4203 47.0574 -17.7915 0.67116 -0.740553 0.0323705
-23.2381 46.2495 -18.4722 0.682759 -0.729229 0.0454519
-23.9642 45.5078 -19.1244 0.705139 -0.706789 0.0563751
-23.5674 45.8895 -19.2432 0.699127 -0.714366 0.0300484
-22.5455 46.8726 -19.2519 0.685556 -0.727648 0.0223416
-21.5185 47.7939 -19.291 0.643833 -0.765068 0.00681222
-21.1186 48.124 -19.279 0.628751 -0.777467 0.00930995
-49.4879 24.025 17.9458 0.252941 -0.966888 -0.033896
-50.7867 23.7041 17.9773 0.233067 -0.971947 -0.0302963
-52.2891 23.3765 17.901 0.209632 -0.977121 -0.0357312
-53.6154 23.091 18.0521 0.197584 -0.979878 -0.0282913
-54.9411 22.8274 18.0341 0.195434 -0.980356 -0.0264674
-56.3107 22.5617 17.8583 0.185658 -0.982416 -0.016825
-56.5437 22.5352 16.8473 0.17769 -0.984009 -0.0118519
-56.2537 22.6189 15.4473 0.198789 -0.979726 -0.0247842
-55.9038 22.7368 13.9259 0.206169 -0.978073 -0.0292147
-55.731 22.8189 12.6458 0.221907 -0.974333 -0.0373893
-55.6583 22.8769 11.3931 0.209209 -0.977415 -0.0293013
-55.6148 22.9242 9.97563 0.213121 -0.976682 -0.0259202
-55.7008 22.9382 8.71023 0.227182 -0.973 -0.0407278
-55.8329 22.9441 7.35518 0.23129 -0.97274 -0.0167887
-55.736 23.0109 5.73909 0.233279 -0.972193 -0.0186575
-55.5919 23.0621 4.44581 0.24311 -0.969873 -0.015586
-55.2251 23.1549 4.3848 0.242996 -0.969913 -0.0148849
-54.7421 23.2606 5.60481 0.25442 -0.966959 -0.0157191
-54.1145 23.3924 6.88203 0.25419 -0.966479 -0.0356059
-53.4726 23.5128 8.21966 0.258986 -0.965424 -0.0297047
-52.8546 23.6347 9.35225 0.252472 -0.966976 -0.0347944
-51.9264 23.8357 10.7724 0.282922 -0.958114 -0.0442272
-51.0676 24.027 11.665 0.272394 -0.960361 -0.0592065
-50.0948 24.2611 12.5945 0.2875 -0.955097 -0.0699482
-49.2095 24.4449 13.4332 0.310991 -0.943012 -0.118331
-48.2119 24.7323 14.5945 0.369514 -0.921676 -0.116332
-47.1334 25.0763 15.5074 0.426001 -0.898922 -0.102286
-46.2584 25.4369 16.3971 0.533744 -0.829425 -0.164839
-46.7379 25.0665 17.4369 0.415873 -0.905006 -0.0895245
-48.0857 24.4822 17.7247 0.381397 -0.923598 -0.0387732
-49.0159 24.1507 17.8819 0.252941 -0.966888 -0.033896
-49.0527 24.1219 19.1093 0.328554 -0.944452 -0.00785688
-50.2972 23.7885 19.1787 0.248994 -0.967556 -0.0395097
-51.6381 23.469 19.0801 0.226096 -0.973476 -0.0317581
-53.1916 23.1465 19.161 0.200249 -0.979412 -0.0255431
-54.6416 22.8567 19.2391 0.189238 -0.981629 -0.0243481
-56.1478 22.5724 19.1977 0.183741 -0.982878 -0.0137713
-57.5426 22.3237 19.075 0.171775 -0.984931 -0.0194715
-58.1276 22.2402 18.0545 0.166634 -0.985924 -0.0136671
-57.6729 22.3313 16.586 0.173133 -0.98484 -0.00843608
-57.3983 22.4053 15.3656 0.17705 -0.983912 -0.0238858
-57.0122 22.5118 13.8311 0.195066 -0.980376 -0.028487
-56.8725 22.5817 12.4964 0.196392 -0.979939 -0.0339056
-56.8291 22.6296 11.1544 0.199911 -0.979516 -0.0241454
-56.8391 22.6658 9.78231 0.201198 -0.979061 -0.0309588
-56.9392 22.6811 8.55789 0.211912 -0.977283 -0.00341203
-57.0655 22.675 7.17284 0.202937 -0.978826 -0.0266309
-56.9551 22.7338 5.55833 0.203749 -0.978878 -0.0165254
-56.8415 22.7817 4.10213 0.216666 -0.976105 -0.0166097
-56.7808 22.8234 2.68086 0.222902 -0.974611 -0.021154
-56.9515 22.8141 1.45974 0.198716 -0.979929 -0.0158177
-57.1393 22.8021 -0.13164 0.208784 -0.977744 -0.0201246
-57.2429 22.7933 -1.51729 0.225112 -0.974229 -0.0125324
-57.3427 22.7962 -2.84104 0.221391 -0.974986 -0.0197119
-57.7988 22.7089 -4.14188 0.218734 -0.975741 -0.00910408
-58.0593 22.6642 -5.40343 0.217045 -0.976121 -0.0087208
-58.149 22.6567 -7.02921 0.200335 -0.979726 -0.00162605
-58.012 22.6832 -8.34119 0.203683 -0.979026 0.000207874
-57.8467 22.7196 -9.71137 0.190903 -0.98158 0.00124599
-57.9038 22.7024 -10.9379 0.197249 -0.980349 0.00309306
-58.0727 22.652 -12.2218 0.187387 -0.98225 0.00847557
-58.2668 22.609 -13.8022 0.185426 -0.982634 0.00592556
-58.5105 22.5576 -15.0969 0.17886 -0.983869 0.00315657
-59.0383 22.4576 -16.4372 0.163625 -0.986515 0.00396937
-59.5775 22.3643 -17.8667 0.155078 -0.987876 0.00557489
-59.7996 22.3167 -18.9878 0.153437 -0.988076 0.0127387
-58.5452 22.5146 -19.103 0.159881 -0.986966 0.0177007
-57.2053 22.7548 -18.9991 0.188836 -0.981876 0.0161583
-55.9592 23.0004 -18.9095 0.196309 -0.980419 0.0152478
-54.3991 23.3212 -18.8473 0.202654 -0.979141 0.0146588
-53.0607 23.599 -18.9528 0.203357 -0.978807 0.0241469
-51.7578 23.8703 -18.9441 0.207352 -0.978055 0.0203378
-50.0742 24.2709 -18.9872 0.248413 -0.968134 0.0307402
-48.5662 24.7038 -18.9689 0.317221 -0.944539 0.081311
-47.1306 25.2079 -19.1023 0.418488 -0.908004 0.019939
-46.2621 25.6749 -18.5658 0.460129 -0.871292 0.158476
-45.8878 26.258 -17.3139 0.623659 -0.763704 0.16675
-45.0972 27.1197 -16.8585 0.737527 -0.643775 0.20398
-44.4207 28.1945 -16.6526 0.831294 -0.539124 0.1145
-43.7803 29.2819 -16.6997 0.811274 -0.562706 -0.155381
-43.3943 29.7211 -15.9775 0.811181 -0.581099 -0.065642
-43.7291 29.2062 -14.7442 0.794835 -0.606825 -0.000745645
-43.9497 28.9613 -13.5233 0.76689 -0.641248 0.0261127
-44.1495 28.7913 -12.3022 0.762132 -0.645851 0.045068
-44.1536 28.8753 -11.0604 0.768512 -0.637983 0.0486557
-44.0607 29.1298 -9.38662 0.776176 -0.627514 0.0614476
-43.8526 29.5232 -8.16114 0.763027 -0.643116 0.0645471
-43.5783 29.9692 -6.93303 0.772236 -0.632819 0.0560778
-43.2093 30.5134 -5.79246 0.779041 -0.625354 0.0434654
-43.0359 30.7908 -4.60153 0.780638 -0.624228 0.0307333
-43.8259 29.7958 -5.0324 0.776634 -0.629461 0.0190558
-44.6721 28.7804 -5.3988 0.748093 -0.663499 -0.0112017
-45.51 27.8445 -6.0176 0.696001 -0.715217 0.0636224
-46.3831 27.0569 -6.46148 0.62222 -0.78251 0.0227985
-47.4246 26.2982 -6.80588 0.536806 -0.842277 0.0490759
-48.9002 25.4619 -6.80964 0.457712 -0.888434 0.0295509
-50.0415 24.9693 -6.63462 0.366635 -0.9297 0.014481
-51.2404 24.5493 -6.11182 0.332792 -0.942968 0.00376796
-52.3368 24.1893 -5.40215 0.30751 -0.951544 0.00109582
-53.2756 23.8903 -4.33471 0.282873 -0.958942 -0.0203339
-53.9029 23.6773 -3.18162 0.285784 -0.958031 -0.0224035
-54.3973 23.5181 -1.79641 0.264689 -0.964142 -0.0192403
-54.5938 23.4298 -0.122578 0.263224 -0.9645 -0.021293
-54.737 23.3501 1.36683 0.269383 -0.962713 -0.0248485
-54.6959 23.3261 2.67491 0.257748 -0.965638 -0.033293
-54.2535 23.4134 3.91824 0.254458 -0.966887 -0.0193721
-53.7173 23.5397 5.12965 0.264795 -0.964032 -0.022134
-53.0183 23.7031 6.67202 0.277051 -0.960171 -0.0341426
-52.4418 23.8161 7.83743 0.280925 -0.9587 -0.0444334
-51.7241 23.9816 8.84873 0.295318 -0.95424 -0.0433852
-51.0631 24.1355 9.87368 0.300613 -0.951561 -0.0645314
-50.0556 24.3877 11.1423 0.325457 -0.943649 -0.0600285
-49.0672 24.6878 11.9537 0.364948 -0.928697 -0.0658353
-48.1824 24.9407 13.0237 0.440084 -0.88798 -0.133478
-47.2772 25.2188 13.9764 0.471827 -0.867725 -0.147725
-46.2524 25.6934 14.9049 0.550636 -0.820247 -0.148635
-45.311 26.2256 15.8153 0.677291 -0.724939 -0.125458
-44.9381 26.2688 16.887 0.645429 -0.715101 -0.268425
-45.5813 25.5878 17.6591 0.488247 -0.856538 -0.167206
-46.1466 25.2309 18.8006 0.386893 -0.921159 -0.0410737
-47.4801 24.6816 18.8972 0.376702 -0.925541 -0.0381828
-48.4376 24.3369 18.9899 0.328555 -0.944452 -0.00785688
56.0487 24.0737 7.68387 -0.291689 -0.95629 0.0206495
55.8071 24.1204 6.4678 -0.297937 -0.954355 0.0198798
55.5879 24.1709 5.10658 -0.293043 -0.955832 0.0182596
55.2017 24.296 4.97042 -0.342476 -0.939027 0.0295278
54.3367 24.6255 5.83667 -0.348905 -0.936705 0.0259514
53.2214 25.106 7.04967 -0.388848 -0.921292 0.00423773
51.9866 25.6582 7.71004 -0.415702 -0.909472 0.00729134
50.864 26.2382 8.0872 -0.466285 -0.884508 0.014956
49.7945 26.868 8.43098 -0.553317 -0.832464 -0.0290628
48.5748 27.7296 8.63319 -0.602377 -0.797546 -0.0319593
47.5805 28.5682 8.7572 -0.64554 -0.763629 -0.00949671
46.5794 29.5001 8.61131 -0.690413 -0.723206 -0.0119127
45.5614 30.5074 8.53191 -0.718234 -0.695772 -0.0062545
45.8571 30.1858 9.64179 -0.69777 -0.716145 -0.0159016
46.0409 29.9515 10.9518 -0.699718 -0.713329 -0.0394395
46.0209 29.9033 12.2762 -0.710611 -0.702205 -0.0428977
45.7014 30.1489 13.8696 -0.748527 -0.661785 -0.0331544
45.4278 30.4157 15.0941 -0.762628 -0.645435 -0.0425782
46.0623 29.6018 15.6219 -0.7757 -0.625779 -0.0784442
47.0894 28.401 16.0309 -0.674985 -0.718696 -0.16447
47.726 27.6092 17.0828 -0.561499 -0.794853 -0.23006
48.6588 26.8993 17.8336 -0.487487 -0.862722 -0.134416
50.1156 26.1368 17.9203 -0.453481 -0.885141 -0.104306
51.2721 25.6452 17.9738 -0.371335 -0.926833 -0.0550744
52.4486 25.2052 17.8818 -0.349282 -0.93607 -0.0406421
53.9255 24.6933 17.8665 -0.311014 -0.950007 -0.027515
55.2034 24.2841 17.9318 -0.295883 -0.955062 -0.0175929
56.595 23.8822 17.9413 -0.268052 -0.963286 -0.0149995
58.0037 23.5114 17.966 -0.226971 -0.9739 0.00160285
59.2599 23.2334 17.7445 -0.207549 -0.97822 -0.00296652
60.1504 23.0528 16.7342 -0.195638 -0.980675 -0.00127548
60.4001 23.0067 15.3911 -0.193648 -0.981066 -0.00312984
60.0362 23.0847 14.0971 -0.20569 -0.978578 -0.00872892
59.2196 23.2675 12.8443 -0.229712 -0.973251 -0.00375719
58.3121 23.4945 11.6652 -0.251471 -0.967864 -0.00149103
57.4873 23.7092 10.5995 -0.270925 -0.962569 0.0072615
56.8206 23.8795 9.41546 -0.283661 -0.958596 0.0242939
56.2473 24.0256 8.23975 -0.291255 -0.95641 0.0212072
56.2042 24.0363 8.13255 -0.291252 -0.956412 0.0211941
57.1459 23.7456 7.46342 -0.268779 -0.963053 0.0169409
56.9297 23.78 6.14413 -0.270319 -0.962581 0.0191325
56.8119 23.7887 4.86025 -0.289003 -0.95684 0.0303637
56.7368 23.7736 3.52069 -0.280184 -0.959734 0.0201184
56.7205 23.7481 2.23735 -0.288805 -0.956606 0.0386994
56.6554 23.7161 0.586266 -0.283329 -0.958719 0.0213341
56.6482 23.6811 -0.82706 -0.282176 -0.95887 0.0303306
56.5599 23.6665 -1.95636 -0.284305 -0.95809 0.0351163
56.6472 23.5969 -3.15373 -0.282552 -0.958168 0.0444452
56.5723 23.5556 -4.36255 -0.291771 -0.955504 0.0429173
56.5263 23.5247 -5.55878 -0.288817 -0.956562 0.0393608
56.4645 23.4829 -6.90427 -0.293995 -0.954681 0.0461406
56.5693 23.3832 -8.4039 -0.2572 -0.965416 0.0425685
56.631 23.3077 -9.5899 -0.246422 -0.968072 0.0459704
56.9049 23.1675 -11.2 -0.240326 -0.969927 0.0379136
57.3396 23.0052 -12.5952 -0.235161 -0.971052 0.0418805
57.971 22.8013 -13.8903 -0.22029 -0.974603 0.0389297
58.612 22.6256 -14.881 -0.203537 -0.978138 0.0426369
59.2489 22.4612 -16.2558 -0.17985 -0.983413 0.0234928
59.5347 22.3621 -17.8283 -0.171504 -0.984758 0.0289339
59.3867 22.3525 -19.1278 -0.164227 -0.986075 0.0261878
58.1867 22.5777 -19.2792 -0.196107 -0.98049 0.0134656
56.7341 22.8862 -19.2703 -0.210795 -0.977322 0.0197573
55.3306 23.1993 -19.0853 -0.222069 -0.974384 0.035526
53.8941 23.5376 -19.0458 -0.238053 -0.970026 0.0487437
52.4346 23.9031 -18.9443 -0.250417 -0.9663 0.0594829
51.1181 24.243 -19.0151 -0.26555 -0.961542 0.0679608
49.7857 24.6469 -18.9635 -0.313031 -0.945879 0.0816242
48.6264 25.064 -18.8583 -0.342683 -0.932967 0.107141
47.5229 25.4888 -19.0353 -0.38844 -0.915155 0.106704
46.2746 26.0528 -18.867 -0.422403 -0.901352 0.0902159
45.9217 26.4217 -17.726 -0.467496 -0.852404 0.23421
47.2526 25.8594 -17.1502 -0.42004 -0.885506 0.192668
48.453 25.3524 -16.7077 -0.395348 -0.912708 0.103271
49.6025 24.9865 -16.1317 -0.335221 -0.931598 0.140542
50.9474 24.6031 -15.6422 -0.308901 -0.946218 0.0961882
51.9937 24.3269 -14.9935 -0.295335 -0.950358 0.0968208
52.9056 24.1281 -14.0782 -0.295974 -0.953267 0.0588573
53.832 23.9323 -13.0633 -0.27956 -0.957636 0.0687166
54.5239 23.8051 -11.8846 -0.292014 -0.954668 0.05777
55.0224 23.7139 -10.7579 -0.298396 -0.953305 0.0465735
55.3791 23.6892 -9.12714 -0.306846 -0.950188 0.0546636
55.5151 23.7277 -7.771 -0.306872 -0.949789 0.0609678
55.5352 23.7892 -6.4871 -0.293995 -0.954681 0.0461415
55.5455 23.8544 -4.85089 -0.298979 -0.953672 0.033485
55.7918 23.8649 -3.1837 -0.305231 -0.950523 0.0577907
55.6565 23.951 -1.84018 -0.32802 -0.944091 0.0321483
55.4602 24.0568 -0.475256 -0.29324 -0.955457 0.0325817
55.1335 24.1977 0.857183 -0.332267 -0.942559 0.0336862
54.9458 24.314 2.15026 -0.331501 -0.943245 0.0118821
54.4838 24.5167 3.62675 -0.354632 -0.934701 0.0238722
53.751 24.8293 4.80381 -0.367585 -0.929848 0.016263
52.9006 25.2159 5.82167 -0.406287 -0.913364 0.0263996
51.8888 25.6903 6.5433 -0.412261 -0.910964 0.0135792
50.7562 26.2936 6.93643 -0.497363 -0.867542 0.00122538
49.5193 27.0636 7.31237 -0.570502 -0.821218 -0.0113222
48.5065 27.8213 7.42225 -0.612217 -0.790556 0.0096221
47.3474 28.7788 7.55263 -0.663435 -0.74755 -0.00280035
46.4767 29.5969 7.35892 -0.692532 -0.72125 0.00891029
45.6184 30.4571 7.09285 -0.715889 -0.698194 -0.0053412
44.7906 31.3293 6.6879 -0.7288 -0.684726 -0.000111605
44.0222 32.1617 6.07135 -0.732908 -0.680297 0.00529477
43.1194 33.12 5.30575 -0.728638 -0.684872 0.00609815
43.4887 32.7293 5.54327 -0.729564 -0.683892 0.00506426
43.94 32.2507 6.48855 -0.732198 -0.681067 -0.00326278
44.4181 31.7203 7.74198 -0.733528 -0.679591 -0.0096515
44.8509 31.235 9.18121 -0.728262 -0.685108 -0.0154308
45.1259 30.9208 10.3786 -0.723979 -0.689674 -0.0142705
45.2453 30.7486 11.6052 -0.732086 -0.680404 -0.0307718
45.1225 30.8363 12.9212 -0.745382 -0.666199 -0.0205843
44.8773 31.0993 14.0702 -0.757117 -0.653266 -0.00428015
44.58 31.474 15.1975 -0.763713 -0.644708 0.0320667
44.1574 32.0989 16.1791 -0.766488 -0.632782 0.109927
44.6015 31.6211 16.5248 -0.811187 -0.573829 0.0792512
45.2892 30.5597 16.5975 -0.822854 -0.566054 -0.0263021
46.1242 29.2967 16.7875 -0.789449 -0.574231 -0.216863
46.7724 28.2941 17.3576 -0.750643 -0.620257 -0.224317
47.0762 27.7623 18.4663 -0.585959 -0.793428 -0.146447
47.9032 27.1823 19.0114 -0.48181 -0.872242 -0.0816094
49.0403 26.5281 19.0668 -0.462403 -0.881778 -0.0859729
50.2918 25.9675 19.0882 -0.388778 -0.919938 -0.050651
51.6889 25.4222 19.1101 -0.341844 -0.939069 -0.0359276
52.8329 25.0146 19.0456 -0.311841 -0.949653 -0.0302288
53.9668 24.6417 19.0768 -0.303256 -0.952496 -0.0265013
55.1758 24.2667 19.114 -0.284595 -0.958419 -0.0165626
56.4771 23.8961 19.1559 -0.273601 -0.961776 -0.011397
57.87 23.5386 19.1569 -0.238986 -0.970958 0.00137023
59.1247 23.2458 19.1577 -0.216797 -0.976127 -0.00636716
60.4061 22.9913 18.3975 -0.190878 -0.981569 -0.00934942
61.1926 22.8447 17.3882 -0.17728 -0.984037 -0.00839165
61.5371 22.7901 16.2476 -0.173511 -0.984818 0.000219417
61.5998 22.7827 14.9707 -0.177579 -0.984104 -0.00219529
61.2207 22.8515 13.7689 -0.176438 -0.984312 0.000107495
60.4537 23.0028 12.6049 -0.198685 -0.980048 -0.00545525
59.6621 23.1692 11.5735 -0.220543 -0.975363 -0.00532602
58.7971 23.3667 10.4174 -0.240497 -0.970458 0.0142272
58.0448 23.5371 9.38264 -0.244007 -0.969659 0.0149075
57.4969 23.6596 8.24785 -0.272812 -0.961994 0.0119016
57.3657 23.6937 8.00476 -0.268779 -0.963053 0.0169394
10.4672 50.6063 -11.4846 -0.110031 -0.992359 -0.0558267
10.3684 50.6876 -12.7027 -0.100188 -0.993032 -0.062039
9.9394 50.8265 -14.1878 -0.075471 -0.994751 -0.068852
9.44815 50.9699 -15.7504 -0.044762 -0.997137 -0.0609499
8.86427 51.0491 -16.8499 -0.0211691 -0.999025 -0.0387297
8.82177 51.0939 -17.8937 -0.0205807 -0.998734 -0.0458911
10.0488 51.0801 -17.9474 -0.0061069 -0.998626 -0.0520392
11.2655 51.0576 -17.9814 -0.0220739 -0.997592 -0.0657432
12.6291 50.9916 -17.6307 -0.0241421 -0.996007 -0.0859523
13.591 50.7211 -16.5032 -0.176788 -0.970248 -0.165423
14.6691 50.3569 -15.8371 -0.264554 -0.950764 -0.161427
15.986 49.8345 -15.6964 -0.408128 -0.906204 -0.107423
17.0714 49.344 -15.7569 -0.460407 -0.884111 -0.0798365
18.3723 48.6567 -16.1038 -0.500505 -0.865222 -0.00877384
19.2198 48.1485 -16.8616 -0.514004 -0.857217 0.0261515
19.9378 47.6579 -17.8314 -0.538619 -0.841393 0.0437995
20.9134 46.9921 -18.1874 -0.57032 -0.819633 0.0535838
21.958 46.2123 -18.1636 -0.635635 -0.769153 0.0658808
22.8688 45.435 -18.122 -0.655903 -0.751323 0.0728408
23.7701 44.6346 -18.0777 -0.657253 -0.744726 0.114999
24.5498 44.0671 -17.3408 -0.661234 -0.736279 0.143748
25.3799 43.5988 -16.3352 -0.636619 -0.746024 0.195355
26.3479 42.9503 -15.7923 -0.628017 -0.738124 0.246511
27.3438 42.2243 -15.5376 -0.61609 -0.741799 0.264379
28.3018 41.4611 -15.4783 -0.600823 -0.746396 0.286189
28.9431 41.2156 -14.7703 -0.592806 -0.740237 0.317117
28.763 41.8973 -13.4409 -0.580102 -0.755037 0.305585
28.6885 42.5084 -12.0097 -0.558179 -0.778912 0.285221
28.4257 43.0008 -11.0623 -0.555822 -0.792481 0.251018
27.1327 43.8015 -11.3271 -0.547097 -0.797514 0.254181
25.8665 44.6611 -11.3381 -0.537695 -0.815468 0.21403
24.7989 45.4168 -11.1692 -0.530061 -0.827936 0.180494
23.3399 46.3576 -10.7807 -0.49281 -0.857519 0.146745
21.9623 47.226 -10.129 -0.480924 -0.870618 0.101853
21.0318 47.7554 -9.53837 -0.405418 -0.91047 0.08174
20.1161 48.2086 -8.89425 -0.396943 -0.915228 0.0692343
19.2231 48.6191 -8.12125 -0.3346 -0.941318 0.0437494
18.3022 48.9567 -7.44614 -0.295655 -0.954436 0.0404949
17.182 49.2717 -8.02203 -0.283585 -0.957703 0.0488261
16.023 49.5651 -8.69185 -0.247907 -0.96846 0.0250315
14.7129 49.8742 -9.27308 -0.210061 -0.977673 -0.00470021
13.4697 50.117 -9.56542 -0.165686 -0.986113 -0.0113466
12.2212 50.3188 -9.78881 -0.141246 -0.989542 -0.0292646
11.0416 50.4726 -9.89742 -0.111691 -0.993054 -0.0369932
10.4455 50.5702 -10.7104 -0.112107 -0.992993 -0.0373847
10.4672 50.5984 -11.3439 -0.110031 -0.992359 -0.0558268
9.32696 50.7077 -11.2093 -0.0997278 -0.993771 -0.0497392
9.12529 50.8051 -12.7394 -0.0838796 -0.994986 -0.0544784
8.72771 50.9049 -14.032 -0.0651444 -0.99651 -0.0520105
8.36034 51.0031 -15.3235 -0.0400647 -0.997948 -0.0473009
7.68363 51.0659 -16.479 -0.019114 -0.999297 -0.0309302
6.9209 51.1022 -17.4495 -0.0175088 -0.999701 -0.0145784
6.15284 51.1231 -18.4012 -0.00355816 -0.999911 -0.0100307
5.28076 51.1257 -19.2534 0.00360631 -0.999943 -0.00831764
6.74487 51.1323 -19.1297 0.00344784 -0.999822 -0.0180204
8.19298 51.1354 -19.1086 0.00193868 -0.999613 -0.0271339
9.58635 51.1328 -19.1212 -0.00147212 -0.999513 -0.0311623
10.843 51.1309 -19.2101 -0.00192837 -0.999235 -0.0390542
12.1536 51.1135 -19.1681 -0.0168328 -0.997963 -0.0615358
13.3803 51.0969 -19.0474 0.00571211 -0.99828 -0.0583536
13.8495 50.9611 -17.9354 -0.0410889 -0.979245 -0.198469
14.8028 50.5658 -16.9712 -0.240411 -0.920934 -0.306729
16.0082 49.9953 -16.8235 -0.424574 -0.880454 -0.21104
17.087 49.4016 -16.8677 -0.512926 -0.851952 -0.105282
18.1364 48.7842 -17.2019 -0.517585 -0.85555 0.011811
18.7869 48.3694 -18.1686 -0.526982 -0.84968 0.0183019
19.4698 47.9044 -19.1099 -0.546206 -0.837572 0.0114983
20.5132 47.2055 -19.3054 -0.56561 -0.824216 0.0274379
21.5001 46.4992 -19.3089 -0.615925 -0.78624 0.0461351
22.4614 45.6996 -19.2923 -0.656834 -0.752945 0.0398642
23.4372 44.824 -19.2635 -0.674561 -0.736604 0.0488027
24.3353 44.0053 -19.2067 -0.672899 -0.737876 0.05231
25.0134 43.455 -18.3899 -0.684777 -0.719601 0.115129
25.6091 43.1058 -17.3596 -0.660415 -0.719167 0.215987
26.7385 42.3085 -16.7262 -0.63942 -0.73236 0.233878
27.7111 41.4907 -16.6745 -0.628454 -0.73127 0.265114
28.8777 40.4908 -16.6654 -0.634683 -0.71581 0.29051
29.8169 39.5745 -16.8572 -0.623642 -0.709951 0.327121
30.9233 38.699 -16.6269 -0.625287 -0.702473 0.339267
30.273 39.6389 -15.8796 -0.599425 -0.726198 0.336639
29.898 40.5793 -14.4833 -0.590094 -0.739111 0.324814
29.7111 41.2563 -13.2551 -0.577489 -0.750978 0.320216
29.6558 41.7949 -12.0421 -0.556546 -0.770174 0.31159
29.7319 42.1596 -10.8786 -0.549685 -0.792314 0.264736
29.9042 42.3975 -9.73792 -0.54648 -0.809599 0.214265
29.4553 42.8064 -9.33796 -0.543928 -0.811114 0.215005
28.4122 43.3475 -9.91623 -0.551911 -0.809136 0.201622
27.3353 44.0336 -10.0798 -0.523771 -0.825318 0.210124
26.0333 44.8299 -10.1887 -0.523661 -0.834108 0.172773
25.0294 45.4981 -10.0284 -0.515373 -0.841916 0.159746
23.9878 46.164 -9.75681 -0.494699 -0.856016 0.150033
22.9865 46.7721 -9.35467 -0.458815 -0.878174 0.135275
21.8333 47.4526 -8.69922 -0.432711 -0.895818 0.0993278
20.5174 48.1266 -7.76481 -0.388762 -0.918576 0.0712921
19.6317 48.5363 -6.92859 -0.326585 -0.942342 0.0730314
18.7924 48.8949 -5.71977 -0.314754 -0.947878 0.0492021
18.5397 48.9842 -5.54745 -0.290324 -0.955256 0.0538702
17.6221 49.2369 -6.2853 -0.27554 -0.959567 0.0527732
16.6315 49.466 -6.99862 -0.251202 -0.966886 0.0450458
15.5763 49.7088 -7.57803 -0.220385 -0.975114 0.024135
14.4309 49.9507 -8.06536 -0.199384 -0.97953 0.0216724
13.1708 50.1694 -8.4037 -0.172394 -0.984898 0.0137666
11.9959 50.3382 -8.64145 -0.132193 -0.991023 -0.013189
10.686 50.4939 -8.73962 -0.0976208 -0.995172 -0.00983939
9.35516 50.6206 -8.64968 -0.0827999 -0.996405 -0.0179006
9.06903 50.6579 -9.26718 -0.0865385 -0.995842 -0.0279034
9.25206 50.6848 -10.6017 -0.0978807 -0.994135 -0.0457695
9.30662 50.6972 -10.9603 -0.0997256 -0.993771 -0.0497412
8.07773 50.8077 -11.0191 -0.0861328 -0.995363 -0.0428095
7.9033 50.8996 -12.7112 -0.0717648 -0.996266 -0.048008
7.52821 50.9768 -13.9075 -0.0623989 -0.997469 -0.0335379
7.12018 51.0446 -15.1425 -0.0402663 -0.998448 -0.0379381
6.21149 51.0997 -16.3933 -0.0373811 -0.999173 -0.0160172
5.40079 51.1212 -17.3663 -0.0139319 -0.999884 -0.00246547
4.31999 51.1273 -18.0119 -0.00550785 -0.999969 0.00562386
3.21529 51.1261 -18.5017 -0.000465316 -0.999922 0.0124655
1.97104 51.1195 -18.9463 0.00169926 -0.999948 0.0100128
0.544626 51.1173 -19.0292 0.00225574 -0.999915 0.0126883
-0.613603 51.1148 -18.7808 0.0043104 -0.99976 0.0201219
-2.05856 51.1107 -18.8484 0.000890471 -0.999719 0.0236887
-3.26242 51.1059 -18.7401 0.00294655 -0.999438 0.0333649
-4.9112 51.0972 -18.7693 0.00341695 -0.999553 0.0295135
-6.29817 51.0896 -18.9979 0.000503026 -0.999639 0.0268474
-7.54221 51.0874 -18.973 -0.000428759 -0.999944 0.01057
-8.9564 51.085 -19.0127 -0.000224797 -1 0.000511193
-10.2713 51.0781 -18.768 0.00523132 -0.999956 -0.00622625
-11.7377 51.0654 -18.6831 0.00606693 -0.999828 -0.0167562
-13.0643 51.0141 -18.077 0.0322112 -0.997944 -0.0543867
-14.3793 50.88 -17.3443 0.074142 -0.990155 -0.11873
-15.5566 50.6074 -16.6894 0.182397 -0.969712 -0.160995
-16.7761 50.107 -15.5581 0.280836 -0.953851 -0.106296
-17.6819 49.6962 -14.4027 0.310173 -0.94625 -0.0914066
-18.2116 49.3854 -13.3 0.353995 -0.930047 -0.0984851
-18.2798 49.2861 -12.0532 0.352637 -0.934573 -0.045595
-18.4191 49.1668 -10.871 0.320069 -0.945783 -0.0550781
-18.3905 49.1116 -9.66896 0.305618 -0.950102 -0.0600766
-18.3813 49.0529 -8.06519 0.283749 -0.958042 -0.0398974
-18.3766 48.9845 -6.52643 0.276583 -0.959907 -0.0455053
-18.4568 48.8911 -5.05253 0.277774 -0.959556 -0.0457618
-18.5374 48.8107 -3.49028 0.291606 -0.955815 -0.0370603
-18.6161 48.7405 -2.27064 0.285027 -0.95778 -0.0376061
-18.558 48.7022 -1.07099 0.301766 -0.952446 -0.0413104
-18.6989 48.6221 0.302175 0.292632 -0.956119 -0.0142308
-18.7682 48.5605 1.64902 0.303282 -0.952165 -0.0370263
-18.7415 48.5439 2.84761 0.30735 -0.951589 -0.00129687
-18.4826 48.604 4.1429 0.294141 -0.955373 -0.0272657
-17.8448 48.7777 5.38376 0.294478 -0.955613 -0.00932882
-16.6491 49.1277 6.4236 0.270251 -0.96277 0.000216385
-15.5932 49.4053 7.31561 0.249053 -0.968234 0.0136531
-14.1466 49.7548 7.86971 0.206644 -0.978042 0.0243009
-12.9267 50.0039 8.19274 0.19355 -0.980799 0.0239011
-11.6645 50.2168 8.32157 0.150228 -0.988038 0.034832
-10.3031 50.4034 8.26325 0.128848 -0.990575 0.0462339
-9.05407 50.5309 7.81366 0.115582 -0.992466 0.0396499
-8.11034 50.5971 6.91716 0.0959575 -0.994948 0.0295036
-7.29694 50.6469 5.99385 0.0840243 -0.996074 0.0278559
-6.47829 50.6912 5.01454 0.0729619 -0.997157 0.0166754
-5.56239 50.7407 4.16444 0.0697705 -0.997383 0.0189636
-4.71292 50.7845 3.30982 0.0699458 -0.9974 0.0173465
-3.75145 50.8358 2.46138 0.0631755 -0.997982 0.00640881
-2.68891 50.8848 1.39487 0.0430198 -0.999018 0.00676957
-1.84567 50.9091 0.461188 0.0346827 -0.99938 0.00585793
-0.978243 50.9386 -0.50924 0.0287446 -0.999559 0.0018528
0.231142 50.9536 -1.45671 0.000899839 -0.999968 0.0067295
1.23056 50.9487 -2.69061 -0.0124885 -0.999828 -0.00545483
2.21978 50.944 -3.55066 -0.0227298 -0.999527 -0.0207083
2.93364 50.9453 -4.50973 -0.029054 -0.99942 -0.017204
4.01259 50.9243 -5.53689 -0.0408104 -0.999047 -0.0142606
5.03075 50.8819 -6.46144 -0.0534665 -0.998538 -0.00722003
5.97764 50.8417 -7.31378 -0.067283 -0.997314 -0.0289522
6.91954 50.8011 -8.21781 -0.0720692 -0.997149 -0.0223378
7.69628 50.7725 -9.24131 -0.0788681 -0.996424 -0.0303235
8.05237 50.7848 -10.4344 -0.0860779 -0.995505 -0.0393575
8.05608 50.796 -10.704 -0.0861299 -0.995364 -0.0428084
-45.1287 28.1662 -7.0646 0.723965 -0.686078 0.0719204
-44.5388 28.7768 -7.4877 0.760158 -0.646636 0.0634161
-44.7806 28.3204 -9.06498 0.742114 -0.665354 0.0800362
-44.8976 28.049 -10.7146 0.723339 -0.688343 0.0533971
-44.9064 27.923 -11.9791 0.728065 -0.681769 0.057653
-44.7268 28.0167 -13.6303 0.755384 -0.652893 0.0559089
-44.455 28.2566 -14.8846 0.80979 -0.586126 0.0263815
-44.8995 27.6223 -15.6182 0.751957 -0.650716 0.105497
-45.7524 26.6698 -15.874 0.618708 -0.770091 0.155435
-46.6837 25.8262 -16.6501 0.504764 -0.847858 0.162326
-47.3644 25.2594 -17.885 0.429061 -0.895317 0.111126
-48.7346 24.7306 -17.8383 0.341696 -0.936294 0.0812233
-50.3318 24.2501 -17.8108 0.236018 -0.971241 0.0181559
-51.6284 23.9344 -17.797 0.209131 -0.977062 0.0399504
-52.8304 23.6777 -17.7763 0.208125 -0.9776 0.0313562
-54.0402 23.4211 -17.6801 0.209934 -0.977477 0.0215767
-55.295 23.1555 -17.6459 0.198885 -0.979923 0.0139576
-56.4927 22.9105 -17.7298 0.192631 -0.981171 0.0110574
-57.7653 22.6669 -17.8439 0.17742 -0.983893 0.0186641
-57.9249 22.6514 -16.8547 0.18042 -0.983545 0.00941242
-57.3401 22.7774 -15.2563 0.198874 -0.979977 0.00971344
-57.1123 22.8342 -13.7797 0.201405 -0.979489 0.00607856
-56.9765 22.8709 -12.569 0.202714 -0.979202 0.00846004
-56.7789 22.9369 -11.1506 0.213937 -0.976732 0.010298
-56.7307 22.9524 -9.84993 0.210245 -0.977577 0.0118535
-56.8758 22.9303 -8.40166 0.221933 -0.975038 0.00489287
-56.9695 22.9079 -7.12652 0.217711 -0.976008 0.00305109
-56.9175 22.9202 -5.85568 0.226034 -0.974038 -0.00743876
-56.6837 22.9689 -4.65898 0.242459 -0.970133 -0.00563947
-56.1684 23.0789 -3.02865 0.24163 -0.970178 -0.0186784
-56.1428 23.0572 -1.76052 0.229658 -0.973127 -0.0167611
-55.7461 23.1571 -1.7533 0.253174 -0.967239 -0.0183741
-55.4846 23.2464 -2.88619 0.241631 -0.970178 -0.0186782
-54.8048 23.4429 -3.9421 0.261612 -0.964727 -0.0293487
-54.0976 23.6518 -5.19142 0.275078 -0.961408 -0.0052376
-52.9638 23.9915 -6.36489 0.291926 -0.956433 0.00380034
-51.8446 24.3453 -7.10996 0.312968 -0.94971 0.00781259
-50.7086 24.7176 -7.59067 0.336034 -0.941515 0.0244458
-49.5906 25.1394 -7.88052 0.40659 -0.913437 0.0178289
-48.382 25.6859 -8.05649 0.422902 -0.904194 0.0598921
-47.1128 26.3814 -7.95517 0.523498 -0.850398 0.0449897
-46.1479 27.1783 -7.64874 0.637938 -0.768902 0.0358478
-45.4535 27.8009 -7.28135 0.723966 -0.686076 0.0719203
52.4798 24.0894 -16.0287 -0.279722 -0.956692 0.0805924
51.1394 24.4241 -16.8438 -0.289597 -0.952835 0.0907691
50.0287 24.712 -17.2136 -0.296727 -0.951985 0.0736825
49.4624 24.8595 -17.7367 -0.328781 -0.942817 0.0547712
50.5825 24.5119 -17.7038 -0.284065 -0.95568 0.0771418
52.2947 24.0157 -17.7325 -0.264068 -0.962118 0.0667652
53.7994 23.6179 -17.8638 -0.247184 -0.967647 0.0498061
55.0498 23.3085 -17.9004 -0.229315 -0.972339 0.0435959
56.4875 22.9783 -18.0669 -0.211249 -0.976711 0.0375449
57.7676 22.6968 -18.116 -0.213305 -0.97653 0.0298405
58.2114 22.6372 -17.0589 -0.20192 -0.978964 0.0292759
57.8696 22.7486 -15.8895 -0.215217 -0.976268 0.0241451
57.2044 22.9385 -14.8404 -0.225136 -0.973409 0.0420979
56.5178 23.1603 -13.6134 -0.243413 -0.969087 0.0402402
56.041 23.3457 -12.1789 -0.260228 -0.964423 0.0461392
55.1742 23.5391 -13.0536 -0.266382 -0.962252 0.0557724
54.319 23.7025 -14.2385 -0.257192 -0.964456 0.0606415
53.4154 23.8786 -15.3155 -0.25927 -0.963881 0.0608649
52.7558 24.0241 -15.8467 -0.279723 -0.956692 0.080591
-55.8852 23.0669 0.605625 0.238372 -0.970845 -0.0248345
-55.7172 23.1282 -0.0551412 0.24118 -0.970058 -0.0286199
-56.0259 23.0729 -0.905389 0.238136 -0.971142 -0.0132335
-55.932 23.0743 -0.0383959 0.241205 -0.970053 -0.0285823
40.3169 34.9285 19.1275 -0.33441 -0.938015 -0.0910974
41.5127 34.4415 19.1822 -0.444113 -0.894792 -0.0459496
42.576 33.8654 19.1092 -0.49768 -0.867009 -0.0241005
43.1781 33.5371 18.1394 -0.591512 -0.803219 0.0333365
43.1311 33.47 17.4847 -0.658552 -0.73774 0.146937
41.9604 34.2323 18.108 -0.495001 -0.868863 0.00711862
41.0031 34.6912 18.7796 -0.414351 -0.909768 -0.0251862
40.7901 34.786 18.8596 -0.374221 -0.923955 -0.0580718
-40.0062 34.4236 -1.37622 0.732674 -0.680067 0.015227
-39.9859 34.4302 -1.96037 0.719921 -0.693547 0.0255725
-40.6101 33.7477 -2.10347 0.737535 -0.674999 0.0155952
-40.09 34.3205 -1.80965 0.74348 -0.66866 0.00819037
20.3663 49.7935 17.4557 -0.519145 -0.849934 0.0868874
21.198 49.2508 18.1576 -0.588947 -0.808142 -0.00693965
21.8527 48.7384 17.7759 -0.611887 -0.790935 -0.00396304
21.2019 49.209 16.8541 -0.583918 -0.811763 0.00901517
20.425 49.6629 15.9859 -0.486805 -0.872602 0.0397488
19.7181 49.9704 14.7501 -0.386084 -0.920876 0.0541033
19.0205 50.1671 13.6435 -0.32403 -0.942897 0.0762834
18.5386 50.3664 14.0599 -0.324025 -0.942899 0.0762806
17.8689 50.7279 15.3564 -0.272402 -0.953806 0.126667
17.241 51.0839 16.6572 -0.292511 -0.949084 0.114615
18.3887 50.716 16.7452 -0.329824 -0.93778 0.106459
19.4458 50.3083 17.1642 -0.48884 -0.86342 0.119246
20.1832 49.8873 17.3335 -0.509676 -0.85355 0.10809
-41.5183 32.6924 -3.06509 0.744632 -0.66734 0.0129717
-40.6437 33.6833 -2.74314 0.736947 -0.675239 0.0310043
-41.4323 32.781 -3.39234 0.742413 -0.669802 0.013691
-41.5979 32.6019 -3.12849 0.746854 -0.664875 0.0122567
13.4147 51.7266 18.5803 0.0428616 -0.998519 0.0334933
13.1679 51.7283 19.1572 0.0480958 -0.998737 0.0137892
13.8295 51.7341 18.5402 0.0243916 -0.998188 0.0532468
13.5289 51.7305 18.5522 0.0281862 -0.998711 0.0391584
12.9314 51.6601 17.6415 0.00279621 -0.997945 0.0589367
13.9667 51.6183 17.2164 -0.00398247 -0.996852 0.0791861
14.9269 51.4994 16.7 -0.0636601 -0.994271 0.085865
16.2196 51.1654 15.6 -0.191854 -0.973345 0.125026
17.0433 50.8458 14.4961 -0.21953 -0.969402 0.109845
17.6756 50.568 13.2035 -0.265667 -0.960499 0.0796444
17.9694 50.3516 11.7433 -0.281721 -0.95606 0.079682
17.9971 50.249 10.6253 -0.263553 -0.962312 0.0670438
18.1215 50.1287 9.54732 -0.244792 -0.965818 0.085281
18.0363 50.0384 8.11403 -0.261346 -0.962211 0.076477
17.9896 49.9842 7.00951 -0.259736 -0.963539 0.0634435
17.9833 49.8894 5.73763 -0.254074 -0.964737 0.0687673
18.0196 49.7682 4.14044 -0.255052 -0.96476 0.0647039
18.0447 49.6807 2.8788 -0.2751 -0.959756 0.0564719
17.9711 49.6138 1.4718 -0.269318 -0.960829 0.0653899
17.9625 49.5287 0.352992 -0.270555 -0.959188 0.082211
17.9499 49.4441 -0.843578 -0.253818 -0.965222 0.0626278
18.02 49.3405 -2.1074 -0.254116 -0.964878 0.0665981
17.9395 49.2927 -3.29424 -0.270109 -0.961436 0.0517882
17.4769 49.3629 -4.39086 -0.250271 -0.967082 0.0460073
16.8983 49.4688 -5.39533 -0.253449 -0.966465 0.041347
15.8695 49.6885 -6.04795 -0.217161 -0.975626 0.0315332
14.808 49.9024 -6.59336 -0.183223 -0.982959 0.0148835
13.7737 50.0906 -6.92582 -0.172489 -0.984883 0.00990947
12.5285 50.2807 -7.3557 -0.142043 -0.989783 0.00795203
11.3271 50.4232 -7.51071 -0.117123 -0.993037 0.012639
10.0905 50.5459 -7.61769 -0.0986401 -0.995115 0.00405466
8.9747 50.6397 -7.30397 -0.0768532 -0.996966 -0.00777175
7.66287 50.7274 -6.94803 -0.0579326 -0.99832 -0.000933702
6.80463 50.7787 -6.19911 -0.0527206 -0.998585 0.00699569
6.06028 50.8227 -5.39842 -0.0477931 -0.99884 0.00585175
5.2059 50.8673 -4.37082 -0.0410532 -0.999139 0.00251197
4.16622 50.9083 -3.39447 -0.0285532 -0.999556 0.00315063
3.11456 50.9332 -2.40832 -0.0116346 -0.999762 0.0184526
2.35187 50.9529 -1.52785 -0.00415542 -0.999749 0.0217218
1.50101 50.9754 -0.627016 0.0115689 -0.99968 0.0219834
0.754302 50.9841 0.28974 0.0158136 -0.99954 0.0258753
-0.143609 50.9778 1.17586 0.0349622 -0.99909 0.0242592
-1.08752 50.9658 2.05199 0.0503336 -0.99844 0.0236972
-1.87565 50.9426 2.81118 0.054947 -0.998013 0.0308318
-2.92467 50.9124 3.82511 0.0625335 -0.99766 0.0273288
-3.75657 50.8849 4.66263 0.0650403 -0.997276 0.0347792
-4.58711 50.8528 5.54315 0.0767269 -0.996331 0.0379152
-5.44293 50.8167 6.32098 0.0837693 -0.995635 0.0408486
-6.16068 50.7871 7.13768 0.0864944 -0.995333 0.0427911
-7.15381 50.7311 7.87475 0.0903498 -0.994758 0.0478858
-8.11284 50.7051 9.27118 0.105019 -0.992816 0.0573268
-8.42017 50.7572 10.5969 0.108748 -0.991695 0.068661
-8.33397 50.8511 11.768 0.100951 -0.992297 0.0718003
-8.22153 50.9459 12.8878 0.0942461 -0.992139 0.0821807
-7.85923 51.061 14.0865 0.0758831 -0.994786 0.0681218
-7.37122 51.1419 15.1965 0.0576551 -0.997369 0.0439533
-6.56209 51.2151 16.3943 0.0371433 -0.998986 0.0235089
-5.76029 51.2584 17.4476 0.0457569 -0.998881 0.0119626
-4.59945 51.2912 18.4025 0.0277222 -0.999614 -0.00176423
-3.55449 51.314 18.822 0.0232227 -0.999712 -0.00610862
-2.06012 51.3429 18.9516 0.0180713 -0.999797 -0.00890155
-0.773175 51.3674 18.7869 0.0157453 -0.999809 -0.0111064
