-47.3465 30.8709 -18.0329 0.7316 -0.5688 0.375804
-47.7523 30.3248 -18.9623 0.609203 -0.790711 -0.00410508
-47.7778 30.229 -20.2346 0.673243 -0.739373 0.0060921
-48.6616 29.5242 -20.3416 0.573449 -0.808803 0.130361
-49.7136 28.9811 -20.2984 0.448505 -0.887153 0.0914584
-50.9248 28.4082 -20.2595 0.411318 -0.910345 0.0457067
-51.9927 28.0096 -20.161 0.347209 -0.935182 0.0698671
-53.0585 27.628 -20.0938 0.325439 -0.943757 0.0561548
-54.2247 27.2436 -20.1716 0.29049 -0.955987 0.0395412
-55.7751 26.7854 -20.1962 0.281109 -0.959355 0.0248308
-56.8974 26.4599 -20.2561 0.274194 -0.961322 0.0260314
-58.2194 26.0935 -20.2201 0.260477 -0.965311 0.0171521
-59.32 25.8025 -20.234 0.249074 -0.96832 0.0178417
-60.6913 25.4582 -20.2614 0.222985 -0.974712 0.00388831
-61.4054 25.3129 -19.4751 0.208236 -0.977993 0.0119678
-60.9749 25.4229 -18.4273 0.228481 -0.97329 0.022411
-60.3131 25.5867 -17.3614 0.226647 -0.973899 -0.0106831
-59.9976 25.6602 -16.2706 0.237815 -0.970923 0.0274207
-59.4333 25.8493 -15.0862 0.26505 -0.964109 0.0155884
-59.3578 25.9128 -13.5255 0.269535 -0.962457 0.0316141
-59.1766 26.0064 -12.2053 0.292692 -0.955945 0.0212861
-59.0341 26.0644 -10.9551 0.298614 -0.954353 0.00626666
-59.0664 26.0532 -9.47128 0.313896 -0.94933 -0.00750942
-59.1535 26.0346 -8.26123 0.288067 -0.957553 0.0104311
-59.357 25.985 -7.09887 0.293947 -0.955743 0.0122412
-59.367 25.9853 -5.82642 0.293331 -0.95601 -0.00164894
-59.2409 26.0026 -4.41381 0.31347 -0.949518 -0.0121819
-58.9323 26.0698 -3.0322 0.310433 -0.950118 -0.0296001
-58.6542 26.1298 -1.87685 0.309352 -0.950816 -0.0134751
-58.3878 26.1788 -0.60979 0.278465 -0.960293 -0.0171527
-58.3544 26.1713 0.559425 0.294333 -0.955388 -0.0224633
-58.1926 26.1747 1.95946 0.308971 -0.949998 -0.0451783
-58.0549 26.1567 3.30836 0.309889 -0.94979 -0.0432085
-58.1459 26.0698 4.64587 0.294528 -0.954868 -0.0384872
-58.0561 26.0415 5.81533 0.279412 -0.959041 -0.0440242
-58.1011 25.9793 7.20633 0.304797 -0.951985 -0.0285762
-57.9995 25.9532 8.73897 0.315001 -0.948533 -0.0325612
-57.969 25.9295 10.0011 0.278906 -0.959775 -0.0323046
-58.003 25.8756 11.1809 0.271169 -0.961887 -0.0340771
-58.08 25.8152 12.3397 0.261459 -0.964495 -0.0372545
-58.1909 25.7399 13.612 0.258641 -0.9655 -0.030256
-58.4187 25.6382 14.7199 0.243392 -0.96927 -0.0335231
-58.75 25.5163 16.0803 0.227524 -0.9732 -0.0328587
-59.0055 25.4326 17.2078 0.220075 -0.975381 -0.0141354
-59.3177 25.3395 18.5486 0.22199 -0.974874 -0.0184691
-58.9535 25.3955 19.7824 0.217165 -0.975946 -0.0192018
-57.7911 25.6526 20.1981 0.230486 -0.972663 -0.0283222
-56.5687 25.9417 20.321 0.235239 -0.971547 -0.0275347
-55.2806 26.2556 20.3625 0.243593 -0.969602 -0.0226273
-53.8864 26.6117 20.3805 0.253601 -0.966744 -0.0328648
-52.3033 27.0557 20.4348 0.282661 -0.958674 -0.032328
-51.1376 27.4352 20.4055 0.328822 -0.944115 -0.0228568
-49.9076 27.9246 20.3345 0.395369 -0.916311 -0.0637031
-48.7615 28.4523 20.2562 0.43992 -0.896228 -0.0569739
-47.3138 29.2784 20.1293 0.513736 -0.855684 -0.0622949
-47.1834 29.3805 19.0491 0.440125 -0.896054 -0.0576722
-46.9126 29.71 18.0211 0.554612 -0.72811 -0.402818
-46.3448 30.7832 17.8287 0.852334 -0.485796 -0.193726
-45.8257 31.8191 17.8633 0.900273 -0.428493 -0.0280766
-45.2615 32.8393 17.9305 0.818857 -0.552425 0.155883
-45.3767 32.6023 17.5782 0.802339 -0.583392 0.0950715
-46.128 31.4448 16.8146 0.847965 -0.51951 -0.0276798
-46.8111 30.7457 15.9911 0.788903 -0.592113 -0.164419
-47.5619 30.1894 15.3284 0.678254 -0.710918 -0.183244
-48.5614 29.5893 14.4063 0.591061 -0.78787 -0.172938
-49.4674 29.1736 13.5451 0.499018 -0.846305 -0.185958
-50.2986 28.8193 12.8314 0.492883 -0.858971 -0.138686
-51.1025 28.4969 11.9233 0.463248 -0.88045 -0.100479
-51.887 28.2162 10.9728 0.441556 -0.892867 -0.0884084
-52.5891 27.9803 9.88287 0.446242 -0.889475 -0.0984972
-53.1102 27.8225 8.84734 0.453738 -0.887322 -0.0823491
-53.7637 27.6178 7.50306 0.429396 -0.900435 -0.0695445
-54.1976 27.486 6.27615 0.436703 -0.897803 -0.0569037
-54.5077 27.4103 5.15941 0.420382 -0.90558 -0.0504634
-54.9103 27.3022 4.02258 0.39957 -0.915273 -0.0511786
-55.1465 27.2608 2.73644 0.391617 -0.918576 -0.0520637
-55.1146 27.3522 1.41125 0.402667 -0.914746 -0.0291873
-54.9955 27.4584 0.268023 0.413937 -0.909095 -0.0469345
-54.8366 27.5906 -0.972269 0.431767 -0.900988 -0.0355553
-54.4226 27.8443 -2.46271 0.441232 -0.897004 -0.0264172
-53.8105 28.1822 -3.5983 0.465854 -0.884466 -0.0264672
-53.2019 28.528 -4.49649 0.481927 -0.876121 -0.0125624
-52.4021 28.9688 -5.17619 0.504931 -0.86279 0.0170113
-51.4357 29.5441 -5.76943 0.524103 -0.851455 0.0184466
-50.4595 30.1685 -6.23267 0.56329 -0.825886 0.0204912
-49.5375 30.807 -6.4948 0.57781 -0.815848 0.0222357
-48.4832 31.5918 -6.63155 0.610279 -0.791602 0.0295914
-47.3332 32.5087 -6.52215 0.633621 -0.773036 0.0306288
-46.4361 33.2613 -6.37036 0.645163 -0.763426 0.030745
-45.5833 34.0097 -5.85168 0.652846 -0.756929 0.0291645
-44.7669 34.7496 -5.08638 0.655679 -0.75431 0.03315
-43.9485 35.4935 -4.34084 0.665485 -0.745892 0.0278319
-43.3074 36.0892 -3.57071 0.662066 -0.749184 0.0198119
-42.5878 36.7529 -2.77906 0.661114 -0.750091 0.0139265
-41.7875 37.4318 -1.90522 0.646548 -0.762862 -0.00145027
-40.9592 38.1197 -0.900161 0.638898 -0.769291 -0.000898601
-40.1951 38.7469 -0.17457 0.631495 -0.775313 -0.00915
-39.4771 39.3197 0.539742 0.629952 -0.776479 -0.0155463
-38.5583 40.0305 1.48371 0.622344 -0.781309 -0.0473617
-37.8407 40.5376 2.28053 0.608184 -0.791778 -0.0565637
-36.9547 41.1363 3.30382 0.602907 -0.795592 -0.0594606
-36.1505 41.6832 4.0885 0.592683 -0.803298 -0.0583182
-35.3295 42.2042 4.95096 0.573896 -0.81371 -0.0921596
-34.5018 42.7002 5.69438 0.578473 -0.810973 -0.0870105
-33.7946 43.0962 6.52837 0.566926 -0.815928 -0.113384
-33.0021 43.5127 7.35246 0.566886 -0.807435 -0.163204
-32.3197 43.7856 8.31304 0.563928 -0.808947 -0.166103
-31.7542 43.8962 9.61023 0.547833 -0.817001 -0.179967
-31.5677 43.6734 10.8272 0.527496 -0.809367 -0.25821
-31.6331 43.2434 11.9612 0.5416 -0.791457 -0.283172
-31.8154 42.7379 12.9776 0.568479 -0.761753 -0.310746
-32.0656 42.0806 14.0515 0.557249 -0.749088 -0.358246
-32.5109 41.2843 14.9918 0.555561 -0.744369 -0.370495
-32.9694 40.457 15.9504 0.548412 -0.743836 -0.382036
-33.5072 39.6823 16.7197 0.526231 -0.762514 -0.376342
-34.152 38.8954 17.404 0.532161 -0.75517 -0.381999
-35.0831 37.9551 18.0203 0.456935 -0.802744 -0.377421
-36.0616 37.4208 18.3247 0.33465 -0.903371 -0.268199
-37.3756 36.8967 18.4829 0.348132 -0.908642 -0.230594
-38.5476 36.4371 18.5722 0.346266 -0.914513 -0.209203
-39.6809 35.9846 18.7467 0.373054 -0.91562 -0.149901
-40.8143 35.5278 18.7337 0.409591 -0.904598 -0.11806
-41.9322 35.0621 18.5136 0.44264 -0.894041 -0.050567
-43.1004 34.4386 18.3341 0.473047 -0.88087 -0.0171668
-44.3905 33.6621 18.1404 0.522877 -0.850303 0.0598754
-44.7106 33.5111 18.6296 0.490105 -0.870926 0.0278773
-44.7235 33.4959 19.791 0.506238 -0.862324 -0.0109795
-43.9235 33.9366 20.3636 0.496568 -0.867246 -0.0359413
-42.7952 34.5027 20.3803 0.432691 -0.898397 -0.0752426
-41.424 35.1176 20.3575 0.376358 -0.922715 -0.0833725
-40.2049 35.5773 20.3562 0.320301 -0.939184 -0.123857
-38.9066 35.9982 20.3444 0.305227 -0.94259 -0.134753
-37.7054 36.4165 20.3191 0.337646 -0.930859 -0.139406
-36.596 36.8164 20.3842 0.347939 -0.92922 -0.123787
-35.3977 37.2637 20.398 0.380266 -0.920419 -0.0634778
-34.3819 37.8669 20.3614 0.567211 -0.822326 -0.0433951
-33.2864 38.707 20.4159 0.613424 -0.787775 -0.0558671
-32.332 39.4686 20.4487 0.620672 -0.783146 -0.0341477
-31.4486 40.1651 19.9822 0.580805 -0.811437 -0.0650841
-31.3693 40.352 18.8641 0.557663 -0.81497 -0.157593
-30.9715 40.9093 17.9746 0.536796 -0.744875 -0.396247
-30.0844 41.7479 17.8575 0.625097 -0.69352 -0.357761
-29.1841 42.5978 17.7837 0.65519 -0.688015 -0.311584
-28.248 43.447 17.8534 0.655188 -0.704243 -0.273441
-27.312 44.3672 17.7993 0.667553 -0.707416 -0.231473
-26.3131 45.3315 17.8152 0.678379 -0.70679 -0.200509
-25.4756 46.1285 17.8393 0.674258 -0.718874 -0.169105
-24.648 46.9113 17.8066 0.679996 -0.718924 -0.14406
-23.6796 47.8079 17.839 0.67851 -0.728084 -0.097557
-22.7141 48.6686 17.9618 0.642401 -0.765609 -0.0333028
-22.4294 48.8819 19.1962 0.630479 -0.776196 -0.000344763
-22.2935 48.9767 20.2877 0.616809 -0.786681 -0.0260623
-21.1098 49.8907 20.2332 0.605367 -0.79577 -0.0167288
-20.7548 50.1455 19.2062 0.579607 -0.814473 0.0202554
-20.0438 50.5933 18.0967 0.536331 -0.838325 0.0781153
-19.031 51.127 17.8318 0.574766 -0.818102 0.0188131
-17.9372 51.7913 17.8854 0.523106 -0.832039 0.182174
-16.9138 52.3148 17.8549 0.418447 -0.829959 0.364339
-15.7341 52.684 17.956 0.0404749 -0.947756 0.316419
-15.3278 52.7975 19.1708 0.0057065 -0.999455 0.0322232
-15.0672 52.8214 20.245 0.0376573 -0.999211 0.0126532
-13.8944 52.8618 20.3842 0.0237682 -0.999066 0.036095
-12.6548 52.8884 20.4336 0.00949864 -0.999014 0.0426599
-11.2907 52.8532 20.402 -0.0325302 -0.998412 0.0459721
-10.0979 52.8188 20.4014 -0.0269324 -0.998575 0.0460618
-8.94269 52.8009 20.4312 -0.0105332 -0.999244 0.0374355
-7.73742 52.7868 20.4299 -0.00855094 -0.999444 0.0322225
-6.57889 52.7897 20.423 0.00736091 -0.999911 0.0110997
-5.38539 52.8213 20.412 0.036894 -0.999252 0.0115765
-4.0957 52.8711 20.4554 0.0399965 -0.999191 0.00394075
-2.79233 52.9198 20.4359 0.0306373 -0.999528 0.00226126
-1.47651 52.9578 20.3987 0.0263921 -0.999642 -0.00391057
-0.128357 52.9885 20.4035 0.0222966 -0.999749 -0.0020853
1.01979 53.0222 20.4597 0.0324745 -0.999472 -0.000564965
2.16313 53.0536 20.4693 0.032001 -0.999389 -0.0139556
3.31331 53.0912 20.3937 0.0340252 -0.999353 -0.00489665
4.64937 53.1413 20.4213 0.0274683 -0.999616 -0.00368484
5.79944 53.1807 20.3825 0.0370478 -0.999312 0.00141375
7.01687 53.2264 20.3708 0.0392651 -0.999218 -0.0028907
8.24465 53.2787 20.4447 0.0422211 -0.999108 0.000145366
9.45986 53.3317 20.4392 0.0461038 -0.998929 0.00380447
10.8781 53.4054 20.3639 0.0607201 -0.99815 0.0031549
12.1513 53.4799 20.4115 0.0557427 -0.998423 0.00657602
13.3376 53.5432 20.3629 0.0509477 -0.998695 0.00356389
14.1774 53.5841 19.8221 0.0501431 -0.998719 0.00604352
14.4025 53.5819 18.7136 0.0509164 -0.998601 0.0142762
15.1389 53.563 17.8411 0.00488779 -0.993156 0.1166
16.1925 53.5083 17.6729 -0.0622707 -0.981713 0.179893
17.4052 53.3098 17.5745 -0.215445 -0.963527 0.158746
18.8352 52.985 17.7138 -0.246825 -0.960779 0.126369
19.9588 52.6881 17.8375 -0.257265 -0.952687 0.161869
21.0819 52.0819 17.8503 -0.574785 -0.811511 0.105226
22.0174 51.423 17.8703 -0.576766 -0.815309 0.0510166
22.9783 50.6886 17.7837 -0.630836 -0.775916 -0.000128505
23.8581 49.9412 17.8604 -0.653286 -0.755204 -0.0537014
24.3479 49.5244 17.6619 -0.652566 -0.753318 -0.0816654
23.3304 50.4128 16.9331 -0.617231 -0.784912 -0.0542026
22.5535 50.9801 16.1851 -0.595683 -0.803163 0.00956554
21.754 51.4754 15.4283 -0.508711 -0.858986 0.0579359
20.9643 51.869 14.4561 -0.44035 -0.894777 0.0703798
20.3166 52.0442 13.1222 -0.383718 -0.921658 0.0575121
20.0057 52.0661 11.8342 -0.292124 -0.955004 0.0455601
19.9797 52.0059 10.6661 -0.335178 -0.940339 0.0561563
20.0026 51.8871 9.52741 -0.304517 -0.949875 0.0657477
20.0224 51.7764 8.30064 -0.276287 -0.959226 0.0495021
20.0463 51.6696 6.86905 -0.263807 -0.963006 0.0550082
20.0664 51.5863 5.70679 -0.276733 -0.957819 0.077471
19.9695 51.5349 4.33491 -0.266818 -0.962477 0.0486597
20.0033 51.4437 2.82438 -0.305382 -0.950848 0.0503763
19.9461 51.3832 1.64615 -0.275431 -0.959262 0.0626718
19.9658 51.2989 0.487461 -0.251345 -0.96556 0.0663025
19.9351 51.237 -0.677992 -0.279177 -0.957951 0.0662585
19.8669 51.1795 -1.89661 -0.259985 -0.963658 0.061406
19.8255 51.1175 -3.03577 -0.267365 -0.961843 0.0580856
20.0583 50.9773 -4.2799 -0.266907 -0.961923 0.0588649
20.511 50.7637 -5.45893 -0.309192 -0.948401 0.0643754
21.2837 50.4212 -6.31758 -0.334214 -0.939574 0.074167
22.145 50.034 -7.0851 -0.358928 -0.93024 0.0757929
23.2563 49.5095 -7.66711 -0.412349 -0.906107 0.0930833
24.0666 49.0522 -8.29896 -0.43813 -0.893178 0.101362
-24.1897 48.576 10.2029 0.476661 -0.873018 -0.101678
-22.813 49.3267 9.5812 0.42145 -0.904075 -0.0709085
-21.949 49.7682 8.97438 0.420403 -0.906652 -0.0352551
-21.0868 50.1638 8.23286 0.367473 -0.929727 -0.0239166
-20.1391 50.4996 7.55942 0.296197 -0.954736 -0.0273333
-19.1341 50.7936 7.30645 0.276918 -0.960709 -0.0187641
-18.2626 51.0134 8.04486 0.252644 -0.967511 -0.00942538
-17.2866 51.251 8.85094 0.211855 -0.977285 0.00475958
-16.2645 51.4817 9.29971 0.198885 -0.979602 0.0287171
-15.0713 51.7255 9.78497 0.173069 -0.984408 0.027033
-13.6312 51.9469 10.0764 0.139405 -0.989965 0.0225436
-12.2658 52.1204 10.3099 0.112366 -0.993081 0.0328572
-10.8991 52.2593 10.5833 0.085481 -0.995572 0.0390866
-10.7574 52.3292 11.779 0.0922807 -0.994315 0.0531302
-10.3295 52.4453 13.1341 0.0932819 -0.993824 0.0600567
-10.1203 52.5357 14.3049 0.0840554 -0.994398 0.0639633
-9.63269 52.6402 15.6112 0.0645794 -0.996365 0.0554824
-9.03166 52.7296 16.9771 0.0477702 -0.998405 0.0230169
-8.35235 52.7624 17.8873 0.0332359 -0.999373 0.012212
-9.31965 52.7488 18.224 0.00700986 -0.999685 0.0232489
-10.5956 52.7339 18.218 0.00957388 -0.998481 0.0528953
-11.7841 52.7402 18.2068 0.000150057 -0.995049 0.098618
-12.9 52.7269 18.0901 0.020385 -0.99262 0.11927
-13.7139 52.5964 17.2996 0.0391044 -0.988904 0.143294
-14.5878 52.3786 16.2517 0.107978 -0.979572 0.163592
-15.601 52.1202 15.7738 0.207693 -0.965663 0.151941
-16.9614 51.7567 15.59 0.290964 -0.946732 0.121014
-18.1907 51.2992 15.6595 0.386471 -0.91206 0.128225
-19.2968 50.8144 15.6976 0.408638 -0.911623 0.0419996
-20.6188 50.1491 16.0049 0.494516 -0.867474 0.0334742
-21.5973 49.5426 16.359 0.532253 -0.846402 0.0176141
-22.5082 48.9503 15.8537 0.575485 -0.812863 -0.0898374
-23.4548 48.2783 15.6857 0.610632 -0.786003 -0.0942168
-24.4655 47.4992 15.6661 0.599915 -0.79008 -0.126002
-25.3585 46.7575 15.6767 0.625285 -0.762123 -0.167891
-26.2979 45.9504 15.7389 0.631351 -0.740956 -0.228868
-27.2076 45.2029 15.6614 0.632353 -0.729034 -0.261988
-28.0436 44.4397 15.7971 0.625866 -0.718973 -0.302274
-29.0461 43.6732 15.625 0.596499 -0.738719 -0.313822
-30.0274 42.9706 15.4359 0.579338 -0.738296 -0.345378
-30.0662 43.4077 14.3879 0.578268 -0.746919 -0.32816
-29.8366 44.0612 13.1707 0.564318 -0.768937 -0.299856
-29.6764 44.6236 11.8875 0.562132 -0.783257 -0.265549
-29.6412 45.0121 10.6565 0.551188 -0.798619 -0.241205
-29.8618 45.2005 9.3076 0.543233 -0.818567 -0.186227
-28.9693 45.765 9.4291 0.527433 -0.833367 -0.163785
-27.9462 46.315 9.83747 0.533843 -0.828337 -0.16896
-26.8953 46.9572 10.1171 0.549532 -0.822245 -0.148082
-25.792 47.6297 10.3559 0.514358 -0.851648 -0.100661
-24.7751 48.2276 10.3211 0.490453 -0.863023 -0.121026
-24.3678 48.4701 10.2429 0.490111 -0.863994 -0.115194
-24.6867 48.4227 9.17509 0.491495 -0.867714 -0.0719558
-25.7426 47.7875 9.262 0.51127 -0.853932 -0.0968536
-26.9471 47.1018 8.97894 0.509119 -0.854554 -0.102639
-27.9752 46.517 8.63701 0.510961 -0.848009 -0.140712
-28.9416 46.0053 8.17054 0.519773 -0.845646 -0.121321
-29.9677 45.4237 7.79712 0.525218 -0.842396 -0.120482
-30.9355 44.857 7.50192 0.537689 -0.833366 -0.128031
-32.0229 44.2206 7.05088 0.541584 -0.831389 -0.124416
-31.4556 44.4739 7.81099 0.537567 -0.830678 -0.143993
-31.0003 44.5352 9.00687 0.529007 -0.827364 -0.187782
-30.5965 44.4604 10.3639 0.540013 -0.810875 -0.223824
-30.6378 44.0388 11.6284 0.53916 -0.800345 -0.261922
-30.721 43.5872 12.7871 0.551296 -0.783021 -0.286831
-30.9439 43.0362 13.7672 0.55061 -0.767908 -0.327331
-31.1321 42.4403 14.7596 0.561898 -0.747152 -0.355014
-31.5398 41.6723 15.6726 0.570232 -0.736354 -0.364151
-31.9397 40.7887 16.7966 0.560286 -0.741944 -0.368039
-32.5699 40.0715 17.3048 0.541891 -0.769057 -0.338635
-33.1793 39.342 17.9239 0.561364 -0.755201 -0.338115
-33.8789 38.5954 18.4817 0.577505 -0.75418 -0.31183
-34.6407 37.8327 18.9935 0.636621 -0.731384 -0.24452
-33.8886 38.3844 19.2356 0.622425 -0.771499 -0.129579
-32.9203 39.1191 19.2983 0.598687 -0.784263 -0.162537
-32.2092 39.7668 18.8173 0.589078 -0.795671 -0.141045
-32.1074 40.1984 17.795 0.557534 -0.763679 -0.325501
-31.48 40.9742 17.1224 0.560287 -0.741943 -0.368039
-30.5462 41.8657 16.8548 0.595942 -0.715164 -0.365231
-29.7199 42.6297 16.6804 0.598077 -0.727226 -0.335981
-28.7346 43.4506 16.7411 0.606659 -0.727435 -0.320206
-27.6354 44.4185 16.7822 0.653031 -0.708791 -0.266769
-26.7001 45.2977 16.7111 0.663107 -0.711473 -0.232584
-25.7637 46.1333 16.7649 0.665767 -0.721761 -0.18915
-24.9133 46.8849 16.7644 0.650882 -0.741918 -0.159894
-24.0653 47.6255 16.7728 0.659227 -0.74183 -0.122914
-23.0491 48.4711 16.7669 0.639761 -0.76589 -0.0635105
-22.099 49.1733 17.2704 0.60552 -0.795451 -0.021018
-21.5184 49.5873 18.2878 0.579322 -0.815095 0.00266874
-20.9072 50.0032 17.6025 0.544832 -0.838148 0.00963341
-20.0191 50.5171 16.9799 0.469284 -0.881007 0.0586578
-18.9812 51.0518 16.7454 0.447793 -0.89113 0.0732753
-17.9565 51.5559 16.78 0.386475 -0.912059 0.128224
-16.8987 51.9938 16.7456 0.324706 -0.921791 0.208866
-15.8178 52.3132 16.8238 0.22763 -0.928441 0.293569
-14.862 52.562 17.3317 0.0192346 -0.980092 0.197612
-14.3187 52.7356 18.3204 0.0010515 -0.99133 0.131212
-13.5996 52.8189 19.1978 0.0138897 -0.998248 0.0575089
-12.3731 52.8238 19.3193 -0.00556083 -0.998061 0.0619994
-11.0545 52.795 19.3125 -0.0256341 -0.998645 0.0447806
-9.93572 52.7743 19.3232 -0.0119905 -0.999596 0.0257344
-8.72476 52.7631 19.315 -0.00628097 -0.999589 0.0279651
-7.60088 52.7668 19.2833 0.021913 -0.999759 -0.000914301
-6.4193 52.7962 19.269 0.0162176 -0.999761 -0.0146589
-5.40497 52.8296 19.1016 0.0322776 -0.999282 -0.0198572
-6.43696 52.8115 18.3253 0.0315328 -0.999274 -0.0213333
-7.24949 52.7991 17.406 0.0335895 -0.999402 -0.00818174
-8.10342 52.7556 16.1677 0.051659 -0.998641 0.00669842
-8.70562 52.6904 15.0557 0.07636 -0.99638 0.0344368
-9.11688 52.5963 13.744 0.0908158 -0.994526 0.0509933
-9.44636 52.4899 12.4443 0.0976911 -0.993588 0.0569235
-9.55198 52.4035 11.159 0.0879439 -0.994518 0.0565639
-9.3592 52.3471 9.99814 0.0715679 -0.996335 0.0468416
-9.72434 52.3016 9.17635 0.0671866 -0.997661 0.0125587
-11.0361 52.2109 9.39025 0.0874476 -0.996077 0.0135445
-12.1487 52.1081 9.14686 0.0955608 -0.995295 0.0153604
-13.3134 51.9652 8.917 0.135477 -0.99078 -0.000884842
-14.5392 51.7814 8.72026 0.164291 -0.986397 0.00549124
-15.8966 51.5375 8.24619 0.196236 -0.980531 0.0070439
-17.0039 51.3131 7.5879 0.215444 -0.976424 -0.0134274
-17.9239 51.1178 6.82971 0.233674 -0.972237 -0.0123104
-18.7228 50.9253 6.06641 0.24644 -0.969125 -0.0079538
-19.4412 50.7478 5.04345 0.249422 -0.968388 -0.00366259
-19.9131 50.6092 5.5214 0.28259 -0.959228 -0.00475604
-20.5828 50.3879 6.39181 0.32294 -0.94604 -0.0267928
-21.4102 50.0624 7.16565 0.340953 -0.939638 -0.0215113
-22.314 49.6778 7.85392 0.390758 -0.919197 -0.0436336
-23.3836 49.136 8.61047 0.430447 -0.900137 -0.0660332
-24.2842 48.6479 9.02897 0.463152 -0.882665 -0.0799576
-51.809 27.3275 18.1891 0.302031 -0.949264 -0.0844531
-50.617 27.7787 18.1339 0.389507 -0.911052 -0.130154
-49.3615 28.4233 17.8699 0.449134 -0.882213 -0.138437
-48.8083 28.8761 16.9779 0.469635 -0.867804 -0.161847
-49.5275 28.6391 16.1004 0.474312 -0.870716 -0.127793
-50.4339 28.2764 15.4022 0.452739 -0.880134 -0.142345
-51.425 27.9437 14.5953 0.429458 -0.889542 -0.155743
-52.3551 27.697 13.6058 0.361531 -0.925373 -0.108859
-53.3622 27.3895 12.4711 0.361766 -0.929277 -0.0746345
-54.097 27.1719 11.457 0.368972 -0.927982 -0.0520538
-54.6061 27.0442 10.3661 0.380819 -0.92134 -0.0781672
-55.6028 26.7373 9.34831 0.333551 -0.941318 -0.0516082
-55.826 26.6476 9.52071 0.337416 -0.939349 -0.0614293
-55.8289 26.5582 10.9329 0.324259 -0.944621 -0.050471
-55.8572 26.4747 12.1316 0.310052 -0.949141 -0.0521251
-55.9637 26.3791 13.3165 0.287272 -0.956712 -0.0452824
-56.0935 26.2876 14.5809 0.303278 -0.951498 -0.0490414
-56.455 26.1198 15.9449 0.274306 -0.960681 -0.0424723
-56.7268 25.9944 17.1609 0.254926 -0.96651 -0.0293016
-56.1806 26.1034 18.0889 0.24281 -0.968885 -0.0480109
-55.0257 26.4073 18.1304 0.271408 -0.961453 -0.0437523
-53.9043 26.7324 18.1342 0.282874 -0.956037 -0.0737466
-52.8097 27.0303 18.1882 0.275141 -0.957196 -0.0892909
-52.2035 27.209 18.2055 0.282685 -0.954358 -0.0963813
-52.0443 27.1668 19.324 0.302554 -0.952046 -0.0394435
-50.4068 27.7896 19.1732 0.395673 -0.916195 -0.0634788
-49.0052 28.4411 19.1038 0.438711 -0.891589 -0.112261
-48.1876 28.9138 18.5936 0.453547 -0.886874 -0.0811993
-47.8463 29.29 17.5617 0.506285 -0.814728 -0.282655
-47.378 29.9152 16.786 0.662098 -0.688225 -0.288004
-48.1704 29.4816 16.065 0.572569 -0.788457 -0.224721
-49.1784 29.0175 15.0913 0.518644 -0.837148 -0.173756
-50.3047 28.5686 14.1365 0.44083 -0.884867 -0.150597
-51.151 28.2747 13.4211 0.433037 -0.891609 -0.130935
-51.9048 28.0278 12.5146 0.419885 -0.899442 -0.121248
-52.6764 27.7661 11.6935 0.396378 -0.913646 -0.0888707
-53.3507 27.5531 10.6955 0.420204 -0.903768 -0.0803964
-53.8286 27.4267 9.63202 0.40415 -0.913083 -0.0542335
-54.4811 27.2246 8.43732 0.376174 -0.924238 -0.0653966
-54.9675 27.0969 7.34669 0.381381 -0.922668 -0.0568559
-55.2924 27.0243 6.19687 0.368886 -0.928342 -0.0458777
-55.793 26.8931 4.84188 0.359808 -0.932248 -0.0359413
-56.0186 26.8446 3.64003 0.375905 -0.924888 -0.0522483
-56.1949 26.8569 2.31677 0.358287 -0.932351 -0.0484991
-56.1156 26.9647 0.674498 0.357742 -0.932891 -0.0416613
-55.8878 27.1114 -0.730838 0.401858 -0.915163 -0.031414
-55.6877 27.234 -1.84247 0.396065 -0.917793 -0.0280853
-55.2835 27.4516 -3.03776 0.402216 -0.915112 -0.0268487
-54.6198 27.7917 -4.24342 0.419469 -0.907522 -0.0178119
-53.9295 28.1502 -5.21672 0.45226 -0.89173 -0.000120674
-53.1483 28.5455 -5.98352 0.467404 -0.883877 0.0164857
-52.1315 29.1011 -6.59789 0.495855 -0.868288 0.0142982
-51.1468 29.6987 -7.10414 0.536455 -0.843683 0.0180164
-50.1251 30.364 -7.48685 0.557213 -0.82947 0.0383966
-49.1187 31.0732 -7.69592 0.584896 -0.809729 0.0472682
-47.9863 31.9232 -7.86159 0.608953 -0.791274 0.0552491
-46.9362 32.7801 -7.6215 0.626229 -0.77831 0.0454999
-46.0175 33.5659 -7.29094 0.64502 -0.763025 0.0413354
-45.1102 34.3513 -7.1058 0.64782 -0.760269 0.0478019
-45.5278 33.9306 -8.07657 0.643962 -0.763178 0.053585
-45.6571 33.7279 -9.34937 0.643749 -0.76276 0.0615234
-45.7975 33.4895 -10.824 0.642842 -0.763455 0.0623699
-45.7292 33.4332 -12.26 0.652456 -0.755553 0.058655
-45.5868 33.484 -13.4321 0.657253 -0.7531 0.0293114
-45.3597 33.6635 -14.6292 0.68504 -0.728484 -0.00565256
-45.0804 33.9442 -15.7513 0.614203 -0.786713 -0.0619498
-44.6671 34.3245 -16.7724 0.598232 -0.800417 -0.0380917
-44.8534 34.2819 -17.4604 0.550148 -0.82772 -0.108967
-45.6759 33.5104 -16.8402 0.678943 -0.724613 -0.118208
-46.5579 32.3945 -16.7038 0.800765 -0.596886 0.0500221
-47.2234 31.5016 -16.8596 0.78902 -0.588525 0.176313
-47.9493 30.522 -17.2861 0.664082 -0.723823 0.175349
-48.4896 29.9246 -18.1623 0.547401 -0.829925 0.107597
-49.1405 29.3783 -19.1077 0.51672 -0.850531 0.0914684
-50.3156 28.7226 -19.1767 0.446879 -0.892756 0.0385662
-51.6087 28.22 -19.0773 0.347128 -0.936061 0.0573033
-52.8293 27.7767 -18.9829 0.344294 -0.936842 0.0614857
-54.2871 27.2813 -19.0113 0.300406 -0.952706 0.0458835
-55.4047 26.9334 -19.0335 0.289708 -0.956245 0.0408
-56.5474 26.592 -19.0115 0.283865 -0.958212 0.0353551
-57.6223 26.275 -19.1616 0.27017 -0.962429 0.027175
-59.1211 25.8726 -19.047 0.248612 -0.968534 0.01154
-59.8873 25.6822 -18.5992 0.23942 -0.970853 0.0110526
-59.238 25.8606 -17.4551 0.259145 -0.965811 -0.00728826
-58.8465 25.9752 -16.2727 0.273995 -0.961207 0.0317487
-58.3996 26.1544 -15.0589 0.290291 -0.956491 0.0292566
-58.2745 26.2261 -13.9211 0.289073 -0.956759 0.0322796
-58.0628 26.3385 -12.6515 0.317129 -0.947703 0.0358217
-57.9967 26.3912 -11.3864 0.320153 -0.947114 0.0218201
-57.9666 26.4131 -10.1694 0.312441 -0.949908 0.00738855
-58.1113 26.3648 -8.72965 0.335029 -0.942207 0.00130338
-58.2137 26.3573 -7.09134 0.316394 -0.948579 0.00403913
-58.2353 26.3467 -5.80362 0.310339 -0.950622 -0.00227533
-58.1702 26.3615 -4.66217 0.313593 -0.949381 -0.0173286
-57.8698 26.4282 -3.21045 0.328042 -0.944157 -0.0308731
-57.6143 26.4827 -1.94029 0.340947 -0.939886 -0.0161634
-57.2448 26.5752 -0.623246 0.331268 -0.943062 -0.0299151
-57.2042 26.559 0.587934 0.344848 -0.938442 -0.0201674
-57.1457 26.5361 1.73251 0.346116 -0.936974 -0.0466475
-56.9337 26.5377 2.99503 0.352255 -0.934386 -0.0527318
-57.0133 26.4526 4.17988 0.342733 -0.938669 -0.0371123
-56.9914 26.413 5.45717 0.338458 -0.939681 -0.0494475
-56.9733 26.3574 6.84372 0.322226 -0.945832 -0.0396422
-56.8987 26.3269 8.44593 0.312869 -0.949162 -0.0347095
-56.8649 26.2896 9.59114 0.309937 -0.949355 -0.051614
-56.8982 26.215 10.7365 0.296001 -0.953848 -0.046959
-56.9402 26.1411 12.2084 0.279193 -0.959146 -0.0457141
-57.0378 26.0643 13.4106 0.273002 -0.961286 -0.0373919
-57.2585 25.9452 14.664 0.266502 -0.962758 -0.0438745
-57.5355 25.8223 15.8603 0.255464 -0.965906 -0.0419889
-57.8728 25.7026 16.9983 0.244971 -0.969142 -0.0274512
-57.921 25.6652 18.3499 0.238346 -0.970916 -0.0224432
-56.8917 25.8972 19.1181 0.237018 -0.971157 -0.0259784
-55.7491 26.171 19.2737 0.245392 -0.969046 -0.026975
-54.4207 26.5261 19.2213 0.265151 -0.96257 -0.0550781
-53.2833 26.8225 19.3208 0.265126 -0.962936 -0.049041
-52.3745 27.0684 19.3338 0.271853 -0.961702 -0.0319286
-49.0827 29.695 -17.0626 0.513611 -0.846681 0.139026
-48.4337 30.3263 -16.3819 0.618103 -0.760974 0.197148
-47.7115 31.1347 -15.8837 0.705549 -0.68896 0.165937
-46.6944 32.3044 -15.5942 0.770461 -0.632293 0.0648442
-46.1283 32.9243 -15.0385 0.725636 -0.688077 -0.0016241
-46.3933 32.7334 -13.686 0.691133 -0.721427 0.0433348
-46.5701 32.6858 -12.4469 0.66538 -0.743507 0.0668348
-46.6256 32.7497 -11.2087 0.651003 -0.75532 0.0754172
-46.5827 32.8948 -10.0214 0.642648 -0.763135 0.0680309
-46.5327 33.0361 -8.80807 0.640989 -0.765314 0.0585402
-47.6057 32.1385 -9.03234 0.6209 -0.781777 0.0559681
-48.5855 31.3864 -8.91193 0.606011 -0.791847 0.074031
-49.5886 30.6684 -8.73469 0.574349 -0.815435 0.0694018
-50.668 29.9538 -8.47209 0.560803 -0.826429 0.0485136
-51.6969 29.3335 -8.04477 0.526677 -0.849722 0.0235816
-52.7624 28.7282 -7.47243 0.493803 -0.869428 0.0155815
-53.7252 28.2264 -6.82155 0.45163 -0.892047 0.012802
-54.5326 27.8367 -6.07025 0.443331 -0.896308 0.0094803
-55.3727 27.4489 -5.00279 0.421531 -0.906811 -0.00241951
-56.0504 27.1328 -3.7802 0.381092 -0.924166 -0.0262109
-56.6875 26.8521 -2.75614 0.365517 -0.930611 -0.0186082
-56.8746 26.7971 -3.92823 0.373477 -0.927359 -0.0204782
-57.0911 26.7485 -5.43571 0.346664 -0.937961 -0.00363317
-57.1002 26.753 -6.89639 0.35012 -0.936668 0.00538283
-57.1684 26.713 -8.09454 0.346508 -0.937939 0.0141648
-57.0114 26.755 -9.2798 0.331226 -0.943453 0.0136194
-56.9018 26.7758 -10.6357 0.341949 -0.93967 0.00951313
-56.9143 26.75 -11.9531 0.35157 -0.93554 0.034116
-57.0731 26.6419 -13.4714 0.336381 -0.940715 0.041959
-57.2137 26.5393 -14.8099 0.317617 -0.947458 0.0379903
-57.5018 26.4039 -15.9184 0.310492 -0.949757 0.0394562
-57.8736 26.2477 -17.1278 0.29346 -0.955688 0.0232785
-57.4839 26.3476 -17.8513 0.293494 -0.95551 0.0293558
-56.2663 26.7205 -17.834 0.293929 -0.954679 0.0461957
-54.786 27.1849 -17.8861 0.311392 -0.948629 0.0560159
-53.5291 27.6016 -17.9129 0.325353 -0.9427 0.0734456
-52.4118 28.0014 -17.9426 0.342414 -0.937298 0.0649872
-51.2394 28.4668 -17.9717 0.375479 -0.92172 0.0972024
-50.0796 28.9635 -18.0406 0.47856 -0.872297 0.100394
-49.2697 29.5038 -17.5467 0.518819 -0.845548 0.125994
-49.1921 29.5836 -17.3309 0.51672 -0.845625 0.133629
55.931 28.1325 5.17706 -0.431875 -0.901408 0.0247139
55.1373 28.5804 6.12116 -0.455335 -0.889658 0.0318343
54.1197 29.1954 6.9657 -0.520704 -0.853547 0.0179477
53.2181 29.7707 7.7106 -0.564248 -0.825531 0.0110841
52.0518 30.57 8.38946 -0.573318 -0.819149 0.000337519
50.8334 31.4627 8.80956 -0.616619 -0.787021 -0.0193783
49.5861 32.4458 9.12635 -0.63308 -0.773652 -0.0258877
48.2075 33.6042 9.15176 -0.649112 -0.760339 -0.0231711
46.7377 34.8756 9.15964 -0.652326 -0.757896 -0.00779866
46.9498 34.6654 10.719 -0.659242 -0.751746 -0.0166823
46.921 34.6638 12.0457 -0.67532 -0.737128 -0.0241916
46.8024 34.7443 13.3643 -0.69487 -0.718792 -0.0179729
46.6315 34.9188 14.7639 -0.702436 -0.711566 0.0160647
47.0758 34.4411 15.4946 -0.745745 -0.66592 -0.0203433
48.1048 33.2665 15.7254 -0.747494 -0.659112 -0.0826068
48.9474 32.3593 16.1963 -0.684938 -0.72089 -0.100276
49.7396 31.5611 16.9936 -0.590392 -0.799066 -0.113585
50.3841 30.9695 17.95 -0.546951 -0.829762 -0.110618
51.5407 30.2013 18.0986 -0.510997 -0.850532 -0.123244
52.6976 29.5606 18.1769 -0.44341 -0.888196 -0.120395
54.1549 28.8552 18.1689 -0.421602 -0.905022 -0.0564575
55.4068 28.2896 18.142 -0.392614 -0.919234 -0.0285962
56.9324 27.6579 18.1561 -0.364437 -0.930865 -0.0243306
58.4718 27.0926 17.9063 -0.332891 -0.942543 -0.0282149
59.4781 26.7543 16.8293 -0.3124 -0.949907 -0.00915784
59.593 26.7239 15.4251 -0.310718 -0.950129 -0.0191793
59.24 26.8446 14.1679 -0.33953 -0.940542 -0.00590284
58.5238 27.1176 12.9089 -0.354999 -0.934838 -0.00176798
57.7424 27.4263 11.9007 -0.371025 -0.928563 0.00655907
56.8971 27.7994 10.6044 -0.418202 -0.908353 0.00113171
56.4442 27.9925 9.23674 -0.424208 -0.905309 0.0215211
56.2154 28.0793 7.86309 -0.430307 -0.902672 0.00436691
55.9198 28.1915 6.44517 -0.455338 -0.889657 0.0318333
55.8882 28.161 5.41681 -0.417188 -0.908305 0.0304937
55.0398 28.5841 4.53005 -0.49053 -0.871261 0.0129741
54.1618 29.1384 5.58892 -0.52911 -0.848237 0.0231647
53.2125 29.7476 6.34308 -0.562503 -0.82653 0.0209499
52.1303 30.5177 7.20762 -0.587034 -0.809528 0.00627378
50.8709 31.4529 7.67972 -0.613437 -0.789734 -0.00390473
49.8265 32.278 7.97915 -0.629518 -0.776965 -0.00570059
48.6361 33.2578 8.02943 -0.645927 -0.763365 -0.0072682
47.6103 34.1347 7.94986 -0.65405 -0.756425 -0.00597942
46.6004 35.007 7.68221 -0.650974 -0.759066 -0.00712611
45.406 36.0179 7.73725 -0.643695 -0.765253 -0.00673999
45.8401 35.6413 9.02281 -0.645893 -0.763375 -0.00844112
46.0688 35.4375 10.4829 -0.64721 -0.762306 -0.00292028
46.0797 35.4294 12.2792 -0.660197 -0.751061 0.00682148
45.9098 35.5961 14.0233 -0.675985 -0.736307 0.0261482
45.5082 36.0305 15.2627 -0.657948 -0.752414 0.0312508
44.7916 36.732 16.2333 -0.612151 -0.78769 0.0693908
43.7278 37.541 17.2467 -0.541453 -0.839751 0.040588
42.6418 38.1803 18.0619 -0.480127 -0.876908 -0.0225797
41.3647 38.8424 18.757 -0.461953 -0.886769 -0.0154675
42.4118 38.2995 18.9074 -0.464254 -0.885615 -0.00131418
43.6467 37.6158 19.2461 -0.49333 -0.869833 0.00313476
44.8892 36.8671 19.0355 -0.527628 -0.849396 -0.0116508
45.2413 36.5791 17.7919 -0.597212 -0.790761 0.133877
45.8905 35.842 16.8561 -0.690003 -0.700284 0.183027
46.8237 34.7758 16.6485 -0.782468 -0.621552 0.0376346
47.636 33.7566 16.7601 -0.791549 -0.610902 -0.0157785
48.444 32.7236 16.965 -0.694084 -0.694811 -0.188376
49.0884 31.9428 17.7601 -0.631953 -0.76482 -0.117827
49.5785 31.4156 19.0464 -0.590455 -0.802413 -0.0853482
50.7887 30.5184 19.2859 -0.547142 -0.830814 -0.0921946
51.906 29.8551 19.1734 -0.479104 -0.873778 -0.0712254
53.2178 29.2119 19.3416 -0.416986 -0.906772 -0.0623532
54.444 28.6624 19.2717 -0.397758 -0.916516 -0.0422802
55.8701 28.0577 19.273 -0.387357 -0.921244 -0.0355459
57.2018 27.5264 19.2626 -0.353962 -0.935101 -0.0172558
58.6306 27.0044 19.1305 -0.327589 -0.94461 -0.0177318
59.8562 26.6118 18.5424 -0.299742 -0.953731 -0.0234936
60.6609 26.3743 16.9664 -0.298031 -0.954527 -0.00750408
60.8774 26.2984 15.6738 -0.282239 -0.959045 0.0239555
60.3979 26.4524 14.2079 -0.314102 -0.949387 0.00195571
59.799 26.6559 12.9452 -0.322607 -0.946496 0.00136448
59.0636 26.9124 11.9054 -0.335043 -0.942057 0.0111155
58.1674 27.2495 10.6969 -0.380651 -0.924651 0.0112116
57.579 27.4679 9.51191 -0.382334 -0.923931 0.00509556
57.2714 27.5881 7.94971 -0.407241 -0.913268 0.00978139
57.0217 27.6808 6.53176 -0.411701 -0.91099 0.0222728
57.0676 27.6127 5.16008 -0.400616 -0.915552 0.0336784
56.999 27.5971 3.59068 -0.410144 -0.911647 0.0261102
57.0768 27.4863 1.79126 -0.413207 -0.909723 0.0407708
56.95 27.4813 0.167104 -0.425038 -0.904158 0.0429062
56.3331 27.7779 0.178114 -0.439119 -0.897835 0.0326471
56.2162 27.8714 1.415 -0.417114 -0.908555 0.0233246
55.9145 28.0843 2.80359 -0.441009 -0.896098 0.0492088
55.286 28.4455 4.1134 -0.485893 -0.874011 0.00364753
55.1581 28.5175 4.3317 -0.485892 -0.874011 0.00364949
57.3462 26.4137 -16.2441 -0.28986 -0.955773 0.0475667
57.5424 26.3077 -17.4677 -0.278801 -0.959577 0.0384935
56.4193 26.585 -18.2271 -0.269872 -0.960919 0.0616006
55.3375 26.9 -18.2532 -0.295623 -0.952837 0.0686232
54.2615 27.2568 -18.1236 -0.31713 -0.944483 0.0857081
52.9368 27.7281 -18.0477 -0.332967 -0.935662 0.11692
51.8951 28.1588 -17.7728 -0.345338 -0.927219 0.143602
52.7597 27.9028 -17.2009 -0.364937 -0.923235 0.119167
53.6854 27.6222 -16.539 -0.348647 -0.932321 0.0960316
54.5507 27.3837 -15.7172 -0.354197 -0.929422 0.103501
55.4403 27.1527 -14.7608 -0.350305 -0.931233 0.100373
56.1767 26.977 -13.8319 -0.3528 -0.931681 0.0864607
56.7905 26.7162 -14.3865 -0.321547 -0.943869 0.0756219
57.1587 26.5117 -15.5931 -0.300682 -0.952032 0.056788
57.2577 26.4604 -15.9295 -0.300682 -0.952032 0.056788
58.2245 26.1884 -15.5245 -0.274617 -0.960852 0.0365639
57.8971 26.3467 -14.3862 -0.299753 -0.952725 0.0494485
57.5199 26.5365 -13.4068 -0.30791 -0.948943 0.0685424
57.1837 26.7328 -12.0795 -0.335468 -0.939958 0.0627687
56.9089 26.9071 -10.9467 -0.358311 -0.931823 0.0576108
56.5974 27.1025 -9.939 -0.384236 -0.919825 0.0792726
56.3614 27.2845 -8.71858 -0.385183 -0.921525 0.0492506
56.8115 27.1484 -7.58383 -0.387441 -0.92106 0.0336952
56.2558 27.3343 -8.64728 -0.412393 -0.908806 0.0632752
56.1851 27.2902 -9.75945 -0.385366 -0.919416 0.078518
55.909 27.3162 -10.8945 -0.388141 -0.919158 0.0670432
55.7089 27.3101 -12.0513 -0.389607 -0.917851 0.0758721
55.2476 27.3933 -13.1882 -0.371372 -0.923318 0.0978049
54.6514 27.5286 -14.0886 -0.361561 -0.925709 0.111074
53.9337 27.715 -14.8804 -0.374861 -0.917668 0.131775
53.1493 27.9271 -15.6622 -0.359314 -0.927006 0.107484
52.0752 28.2835 -16.3333 -0.410166 -0.899178 0.152459
50.9964 28.6583 -16.9546 -0.385862 -0.90013 0.202181
49.8278 29.0478 -17.5654 -0.423908 -0.876994 0.22624
48.7241 29.5045 -18.0756 -0.488046 -0.822288 0.292666
48.0545 29.6447 -18.8101 -0.505361 -0.804206 0.306157
48.9073 29.1038 -19.136 -0.443902 -0.864056 0.236723
50.1368 28.5727 -19.0772 -0.350755 -0.923186 0.155483
51.3911 28.1228 -19.1044 -0.316157 -0.939575 0.129077
52.6688 27.6989 -19.1327 -0.322553 -0.940072 0.110565
54.0517 27.23 -19.2213 -0.305662 -0.949229 0.0743928
55.1579 26.8852 -19.3306 -0.286664 -0.956648 0.0498046
56.5423 26.4951 -19.34 -0.260566 -0.964479 0.0434311
57.621 26.2045 -19.3124 -0.257457 -0.965655 0.0333045
58.7678 25.9143 -18.9873 -0.247307 -0.968584 0.0257112
58.8234 25.9336 -17.8999 -0.267212 -0.962927 0.0370029
58.5345 26.0626 -16.4298 -0.270299 -0.962126 0.0348581
58.3422 26.1403 -15.8761 -0.273485 -0.961047 0.0399297
56.7085 27.4413 -3.13146 -0.414564 -0.908627 0.050326
56.3802 27.6403 -2.17563 -0.448317 -0.892523 0.0491388
56.5259 27.6328 -0.952279 -0.441119 -0.896124 0.0487367
57.0027 27.4149 -0.833824 -0.398988 -0.916255 0.0358649
56.6804 27.5044 -2.07042 -0.411204 -0.910729 0.0385359
56.9872 27.3104 -3.19586 -0.414972 -0.908479 0.0496425
56.9108 27.2808 -4.49486 -0.403249 -0.914114 0.0417315
56.875 27.2309 -5.64699 -0.413085 -0.908703 0.060172
56.9261 27.1358 -6.73298 -0.406188 -0.913443 0.0251743
56.3989 27.3694 -6.76246 -0.40491 -0.913674 0.0341339
56.203 27.5409 -5.57858 -0.411097 -0.909387 0.0632476
56.2332 27.5904 -4.4387 -0.437312 -0.897282 0.0599526
56.9079 27.3036 -3.96448 -0.41416 -0.908774 0.0510103
56.5982 27.4743 -3.43857 -0.414159 -0.908774 0.0510105
-43.8085 34.9519 -18.0937 0.490111 -0.870646 -0.0204968
-42.7973 35.4837 -18.7026 0.467089 -0.884192 0.00548987
-42.7792 35.4912 -18.7746 0.431331 -0.90146 0.0352532
-43.9533 34.8724 -19.0626 0.46744 -0.884025 -0.000149476
-44.4296 34.5862 -18.0889 0.494819 -0.867503 -0.0509143
-44.0947 34.7566 -17.6461 0.51194 -0.857734 -0.047005
-43.8452 34.9215 -17.938 0.511938 -0.857736 -0.0470039
-20.7925 50.9345 -15.7271 0.473986 -0.87963 -0.0105549
-20.1105 51.19 -14.7774 0.366797 -0.92961 -0.0329777
-19.2429 51.456 -13.8905 0.322649 -0.945399 -0.0455301
-18.6254 51.7636 -15.0841 0.320484 -0.943418 -0.079957
-17.9894 52.0866 -16.1341 0.273134 -0.955243 -0.108701
-18.0218 52.1813 -16.8683 0.315082 -0.939018 -0.135589
-19.3312 51.6747 -16.895 0.380646 -0.916366 -0.124022
-20.4542 51.1439 -16.8788 0.439237 -0.897745 -0.0335325
-21.4858 50.6061 -16.7128 0.518507 -0.853361 -0.0262765
-21.1172 50.7842 -16.2522 0.48224 -0.874735 -0.0477799
19.8798 52.5559 16.6999 -0.320885 -0.940338 0.112106
18.7734 52.8516 16.5693 -0.249291 -0.960803 0.121289
17.6454 53.0839 16.4199 -0.195766 -0.971312 0.135011
17.8837 52.9267 15.5662 -0.194515 -0.973879 0.116844
18.614 52.6565 14.5686 -0.201217 -0.973487 0.10851
19.1664 52.4329 13.581 -0.225922 -0.970001 0.0897421
19.7237 52.346 14.2077 -0.262406 -0.960189 0.0958127
20.2709 52.2503 15.1991 -0.393441 -0.914506 0.0942321
20.9311 52.0095 16.2181 -0.487618 -0.866287 0.102715
20.3018 52.4087 16.7139 -0.373768 -0.920753 0.111854
20.0069 52.5143 16.7018 -0.309879 -0.942889 0.12221
13.1961 53.5289 19.1539 0.0500345 -0.998704 0.00931631
13.1925 53.5288 19.1618 0.0500314 -0.998704 0.00931421
12.874 53.5064 18.0557 0.039282 -0.999194 0.00741602
14.0707 53.5391 17.7318 0.0281741 -0.998611 0.0435717
15.1897 53.4526 16.9355 -0.0124602 -0.99324 0.11405
16.0193 53.2648 16.0533 -0.124559 -0.986801 0.10348
17.0303 52.9998 14.9165 -0.171302 -0.978986 0.110647
17.8298 52.7323 13.7784 -0.18366 -0.978083 0.0980931
18.1473 52.5738 12.6872 -0.188182 -0.978393 0.0856472
18.206 52.4791 11.5168 -0.181908 -0.98126 0.0635131
18.2264 52.3982 10.3276 -0.184323 -0.980226 0.0719814
18.221 52.3075 9.02133 -0.179841 -0.980561 0.0784704
18.1422 52.2235 7.84774 -0.208025 -0.972248 0.103035
18.1827 52.1179 6.57206 -0.218567 -0.973515 0.0670648
18.2091 52.0136 5.09658 -0.22572 -0.972532 0.0568562
18.1291 51.9536 3.6972 -0.214959 -0.975057 0.0552875
18.1365 51.8663 2.22553 -0.215064 -0.974873 0.0580454
18.1347 51.7895 0.978723 -0.207071 -0.976387 0.0614139
18.1281 51.7149 -0.250657 -0.228169 -0.971309 0.0661148
18.1754 51.6263 -1.43577 -0.2171 -0.975122 0.0447703
18.185 51.564 -2.59489 -0.237247 -0.969616 0.059531
18.0361 51.5104 -3.98166 -0.236752 -0.969686 0.0603063
17.4509 51.5711 -5.10704 -0.2153 -0.974191 0.0678031
16.5467 51.7244 -5.93332 -0.183524 -0.982234 0.0358366
15.4615 51.8821 -6.60699 -0.157817 -0.986729 0.0382041
14.3866 52.0227 -7.08785 -0.13227 -0.990893 0.0251924
13.2828 52.1396 -7.40516 -0.0974483 -0.99432 0.042792
12.0568 52.2343 -7.73429 -0.0797266 -0.996344 0.030701
10.856 52.3086 -7.75459 -0.0553214 -0.998125 0.0257664
9.63569 52.3677 -7.80212 -0.0475189 -0.998544 0.0255116
8.29618 52.4328 -7.30592 -0.0416377 -0.999018 0.0151751
7.2375 52.4593 -6.48376 -0.023107 -0.99973 -0.00248397
6.3496 52.4794 -5.45679 -0.0149428 -0.999881 0.00381278
5.46364 52.5026 -4.61315 -0.029713 -0.999558 0.00112721
4.59746 52.529 -3.66522 0.000674802 -0.999057 0.0434035
3.76826 52.5663 -2.83566 -0.0136895 -0.999275 0.0349977
2.93207 52.594 -2.00383 0.0024896 -0.999207 0.0397426
2.04653 52.6148 -1.08772 0.0114404 -0.99954 0.0281021
1.12398 52.6368 -0.139978 0.000480423 -0.999523 0.0308733
0.189129 52.6411 0.740094 0.0242438 -0.999274 0.0293814
-0.689522 52.6389 1.65049 0.0481646 -0.998542 0.024376
-1.70646 52.6195 2.65462 0.0466672 -0.998626 0.0238309
-2.53604 52.5991 3.55767 0.0535442 -0.99837 0.0197509
-3.44406 52.5732 4.41769 0.0765914 -0.995902 0.0480866
-4.30847 52.5602 5.31023 0.0696202 -0.995704 0.0610527
-5.10471 52.5431 6.23327 0.085191 -0.995178 0.0486132
-6.10833 52.4924 7.04552 0.0848132 -0.995342 0.0458297
-7.1137 52.4558 7.97907 0.0713272 -0.996201 0.0499502
-7.89387 52.4312 8.84397 0.0913903 -0.995351 0.0304087
-8.2528 52.4462 10.0021 0.102618 -0.992779 0.0621157
-8.39303 52.5232 11.3239 0.10169 -0.99264 0.0657571
-8.27716 52.6095 12.5052 0.100137 -0.99317 0.0598749
-7.85707 52.7177 13.7459 0.0986963 -0.994079 0.0450091
-7.49608 52.7762 15.0182 0.0767641 -0.996956 0.0136694
-6.84465 52.8212 16.0006 0.0612283 -0.998123 0.000796411
-6.03685 52.8507 17.0929 0.0463746 -0.998869 -0.0105392
-5.09579 52.8725 17.8744 0.0427686 -0.998672 -0.0284932
-4.12597 52.8924 18.4922 0.0441517 -0.998533 -0.031074
-2.93979 52.9319 18.7944 0.0344033 -0.999116 -0.0241536
-1.62268 52.9747 18.8324 0.0327442 -0.999259 -0.0201692
-0.196074 53.0241 18.7025 0.029403 -0.998645 -0.0429413
0.960586 53.0589 18.7119 0.0319969 -0.998912 -0.0339374
2.23592 53.0937 18.7953 0.0290129 -0.998875 -0.0375121
3.70069 53.147 18.6768 0.0328432 -0.998971 -0.031291
4.89829 53.1782 18.7464 0.0257106 -0.998908 -0.03902
6.06974 53.2107 18.6546 0.037888 -0.997777 -0.0547298
7.22125 53.2586 18.6708 0.0393682 -0.998599 -0.035315
8.47434 53.3055 18.6915 0.0426675 -0.998893 -0.0197828
9.71869 53.3568 18.7047 0.0390812 -0.998922 -0.0248073
10.9889 53.4105 18.6853 0.0520237 -0.998631 -0.00228422
12.1901 53.4774 18.2793 0.0511283 -0.998687 0.000531851
12.6907 53.4993 18.1149 0.0400606 -0.999189 0.00396453
1.49593 52.6095 -3.04806 -0.044849 -0.998406 -0.0342622
0.573284 52.6261 -2.073 -0.029003 -0.99956 -0.00382359
-0.280809 52.627 -1.16812 -0.00726637 -0.999877 -0.0138662
-1.31843 52.6137 -0.12283 -0.0176416 -0.999465 -0.0275543
-2.19655 52.6015 0.787504 0.00744685 -0.999908 -0.0107346
-3.06586 52.5738 1.57948 0.0254967 -0.999541 -0.0163721
-3.84313 52.5445 2.4361 0.017259 -0.999809 -0.0091488
-4.74252 52.5094 3.20436 0.0286161 -0.999431 -0.017625
-5.65069 52.4662 4.19087 0.0373274 -0.99921 -0.0136375
-6.61929 52.4267 5.14299 0.043268 -0.998986 -0.0119215
-7.3986 52.3834 6.03918 0.0402554 -0.999185 -0.0024025
-8.31152 52.3509 6.94467 0.0397163 -0.999206 0.00320127
-9.18533 52.318 7.68819 0.0553057 -0.998359 0.0148806
-10.6336 52.2257 8.15225 0.0751655 -0.997166 0.00328718
-11.8947 52.1235 8.12094 0.0872624 -0.996182 0.00265475
-13.0867 51.994 7.7376 0.127968 -0.991773 0.00315449
-14.2603 51.8211 7.58361 0.158486 -0.98731 0.00620831
-15.5013 51.609 7.1847 0.181082 -0.983319 0.00739721
-16.5728 51.4067 6.50037 0.186982 -0.98235 -0.00515299
-17.4231 51.2369 5.76728 0.220623 -0.975344 -0.0047824
-18.2481 51.0519 4.91071 0.223281 -0.974732 -0.0065933
-18.7529 50.9376 3.78647 0.252362 -0.967563 -0.0116011
-18.9298 50.9271 2.45146 0.262953 -0.964452 -0.025646
-18.7901 50.9893 1.09003 0.237816 -0.970749 -0.0330027
-18.8463 51.0267 -0.242097 0.228473 -0.972476 -0.0457279
-18.6759 51.1281 -1.58771 0.245141 -0.968614 -0.0411477
-18.7221 51.1672 -2.97191 0.230351 -0.972806 -0.0242454
-18.5857 51.2575 -4.48339 0.224326 -0.973766 -0.0375319
-18.615 51.2864 -5.70918 0.225647 -0.973496 -0.0363092
-18.5305 51.3593 -6.89636 0.216444 -0.975234 -0.0455101
-18.5084 51.4234 -8.39155 0.237804 -0.9706 -0.036476
-18.3759 51.5095 -9.62014 0.248967 -0.967107 -0.0521474
-18.5106 51.539 -11.0327 0.268512 -0.962173 -0.0460931
-18.4766 51.6163 -12.4827 0.279888 -0.958821 -0.048219
-18.1224 51.7976 -13.7925 0.268202 -0.961525 -0.0594775
-17.4589 52.089 -14.9424 0.249821 -0.964539 -0.0851707
-16.5786 52.4387 -16.0794 0.190924 -0.9718 -0.138392
-15.601 52.7057 -16.906 0.153368 -0.973746 -0.161274
-14.5164 52.8567 -17.6184 0.0710543 -0.99365 -0.0872431
-13.4227 52.9105 -18.2866 0.00540169 -0.999504 -0.0294483
-12.1788 52.9017 -18.5866 -0.025633 -0.999658 -0.005151
-11.0376 52.86 -18.7436 -0.0447683 -0.9989 0.0139312
-9.81393 52.8112 -18.8106 -0.0470981 -0.997382 0.0548739
-8.61456 52.7931 -18.782 -0.00912663 -0.999453 0.031775
-7.28698 52.7958 -18.7796 0.00397006 -0.999202 0.038714
-6.00352 52.7993 -18.7805 0.00464437 -0.999605 0.0277077
-4.85383 52.7927 -18.8076 -0.0136048 -0.999449 0.0301717
-3.70627 52.7723 -18.7104 -0.0265905 -0.998887 0.0389704
-2.46701 52.7354 -18.7794 -0.0303625 -0.999147 0.0280034
-1.17531 52.7189 -18.7617 -0.00239735 -0.997945 0.0640343
-0.00306231 52.7152 -18.7411 -0.0123602 -0.997558 0.068734
1.12603 52.6961 -18.86 -0.0142525 -0.998072 0.0601844
2.28143 52.687 -18.7005 -0.00438453 -0.998142 0.060766
3.41688 52.6832 -18.5389 -0.00414642 -0.99843 0.0558264
4.47533 52.7052 -18.0201 -0.00963225 -0.998398 0.0557585
5.60376 52.7253 -17.0573 -0.0201449 -0.999286 0.0319728
6.3668 52.7271 -15.9647 -0.0391243 -0.999127 0.0146416
7.1141 52.6938 -14.8717 -0.0610499 -0.998096 -0.00879252
7.59409 52.6372 -13.5638 -0.0775584 -0.996647 -0.0260736
7.83178 52.5874 -12.4429 -0.0776583 -0.996506 -0.0307494
8.00064 52.5193 -11.0816 -0.088409 -0.995229 -0.041262
7.91519 52.4743 -9.84506 -0.0733554 -0.996748 -0.033054
7.25698 52.4811 -8.60792 -0.0738254 -0.996784 -0.0302175
6.22937 52.5205 -7.55285 -0.0642275 -0.997529 -0.0284751
5.36554 52.5472 -6.76767 -0.0486742 -0.998252 -0.0335148
4.54975 52.5642 -5.97036 -0.0507869 -0.998126 -0.0337391
3.63535 52.5788 -5.0992 -0.0489212 -0.998197 -0.0347674
2.8855 52.5809 -4.21093 -0.0401562 -0.998838 -0.0251374
1.91607 52.6034 -3.50194 -0.0534979 -0.998062 -0.0317867
1.64252 52.6096 -3.23655 -0.0490076 -0.998225 -0.033492
-53.7807 26.8113 17.4875 0.300167 -0.952072 -0.0588075
-55.1841 26.4865 15.9374 0.291113 -0.955095 -0.0551966
-55.6975 26.3674 15.3719 0.284362 -0.957697 -0.0442085
-55.3919 26.5809 13.0934 0.323653 -0.944947 -0.0482091
-53.8798 26.9983 14.7923 0.341608 -0.935997 -0.0849293
-52.3593 27.3685 16.4929 0.33926 -0.934588 -0.106998
-51.5109 27.5354 17.4303 0.346395 -0.927271 -0.142056
-50.5267 28.1299 16.0136 0.417048 -0.896502 -0.149515
-49.6325 28.4193 17.0877 0.461097 -0.87417 -0.152372
-55.9049 27.2179 -5.70622 0.37509 -0.926968 -0.0061363
-56.5219 26.9748 -6.43094 0.369492 -0.929233 0.00131028
-54.6127 27.7893 -6.80396 0.442645 -0.896633 0.010725
-56.183 27.0851 -8.70167 0.369506 -0.929196 0.00782896
-56.5005 26.9545 -9.075 0.372571 -0.927843 0.0172853
-56.1565 27.0434 -11.3566 0.36223 -0.931974 0.0146209
-54.6859 27.722 -9.59172 0.420103 -0.907265 0.0195912
-53.2365 28.4729 -7.76203 0.463389 -0.886079 0.0116347
-51.799 29.2442 -8.6068 0.506701 -0.860965 0.0446503
-53.2334 28.3891 -10.5044 0.452728 -0.890099 0.0525488
-54.8571 27.5341 -12.5231 0.392876 -0.917913 0.0555339
-56.3029 26.8807 -14.2111 0.342086 -0.938649 0.0437566
-56.6362 26.7413 -14.5919 0.329745 -0.943222 0.0400098
-56.5001 26.6807 -17.1094 0.306145 -0.951094 0.0411775
-55.0063 27.274 -15.4244 0.333516 -0.940341 0.0672688
-53.3931 28.0827 -13.5068 0.387266 -0.918537 0.0794655
-52.0541 28.8914 -11.7646 0.458741 -0.884448 0.0854953
-50.6457 29.8853 -9.79075 0.535052 -0.840783 0.0824874
-50.3334 30.1174 -9.33678 0.549321 -0.833849 0.0542447
-48.6648 31.2631 -9.64069 0.593868 -0.801427 0.070962
-49.8053 30.2351 -11.4652 0.553431 -0.827531 0.0943755
-51.1042 29.178 -13.3842 0.490968 -0.860625 0.135188
-52.4205 28.3071 -15.1153 0.390257 -0.912268 0.124366
-54.1171 27.4581 -17.1224 0.337314 -0.939095 0.0657331
-54.2594 27.3955 -17.2874 0.326 -0.943152 0.064723
-51.9567 28.2348 -17.3627 0.381685 -0.920661 0.0818523
-50.5789 29.0831 -15.6266 0.461466 -0.87269 0.159565
-49.3982 30.1595 -13.8504 0.587548 -0.793504 0.158552
-48.2586 31.3181 -11.9312 0.610093 -0.785966 0.100219
-47.1567 32.419 -10.0464 0.637654 -0.766573 0.0759155
-47.144 32.4316 -10.0251 0.63315 -0.770723 0.0714581
-47.151 32.122 -12.9361 0.665462 -0.743147 0.0699415
-48.1211 30.9846 -14.7472 0.656812 -0.739656 0.146654
-48.728 30.2005 -15.9203 0.623407 -0.761831 0.176005
-29.3112 44.4532 13.1904 0.580288 -0.761437 -0.288928
-27.9213 44.8642 14.922 0.604017 -0.745127 -0.282754
-26.0494 46.3473 15.1085 0.606482 -0.768383 -0.204369
-27.4547 45.8089 13.2734 0.5806 -0.773973 -0.252724
-28.7833 45.3444 11.5602 0.56884 -0.796059 -0.206666
-28.9985 45.272 11.2966 0.547697 -0.805559 -0.226061
-27.7212 46.3263 10.5485 0.547838 -0.821062 -0.160407
-26.2601 46.9051 12.4662 0.564381 -0.804953 -0.1831
-24.8942 47.4517 14.2436 0.575493 -0.799767 -0.170821
-24.3192 47.7184 15.0144 0.598941 -0.787622 -0.144644
-22.1453 49.2257 15.4381 0.538641 -0.841111 -0.0489764
-23.6596 48.4393 13.359 0.539549 -0.835414 -0.104737
-25.1246 47.8394 11.4612 0.523475 -0.839734 -0.144295
