22.4077 51.6133 19.8219 -0.608444 -0.793431 0.00443331
22.0947 51.8466 19.9514 -0.593917 -0.804512 0.00289359
21.6084 52.1901 19.7738 -0.564273 -0.825453 -0.00932455
21.0756 52.5243 19.7677 -0.494849 -0.868238 -0.0148483
20.5367 52.8134 19.7118 -0.458251 -0.888031 -0.0280384
20.0483 53.0418 19.7484 -0.395852 -0.917795 -0.0175773
19.6826 53.1886 19.7758 -0.372361 -0.928037 -0.0097278
19.2793 53.3319 19.7679 -0.306948 -0.95144 -0.00248803
18.7744 53.4774 19.7339 -0.27519 -0.961348 -0.00899319
18.0952 53.6455 19.7866 -0.229663 -0.973269 -0.00136222
18.2914 53.6035 20.196 -0.22889 -0.973125 0.025241
18.8078 53.4701 20.1749 -0.268662 -0.963063 0.0182005
19.3356 53.3118 20.1813 -0.313029 -0.949736 -0.00379066
19.7677 53.1506 20.1554 -0.371899 -0.928229 -0.00911483
20.3059 52.9231 20.0635 -0.416421 -0.909093 0.0119561
20.8572 52.6351 20.163 -0.465755 -0.884832 -0.0118362
21.4677 52.281 20.1994 -0.52968 -0.847758 0.0110276
21.9677 51.9399 20.1443 -0.591347 -0.806417 0.000759222
22.2499 51.7312 19.9425 -0.596485 -0.802608 0.00502604
22.6536 51.4196 20.1849 -0.622592 -0.782538 0.00371225
22.9801 51.1569 20.1397 -0.6419 -0.766787 -0.000794359
23.4162 50.7892 20.1698 -0.659654 -0.751569 -0.000887978
23.9001 50.3579 20.1915 -0.677599 -0.735409 -0.00574163
24.3504 49.9404 20.1929 -0.682635 -0.730743 -0.0048989
24.8495 49.4718 20.1282 -0.68415 -0.729331 -0.0038059
25.075 49.2578 19.8168 -0.689435 -0.724325 0.00568213
24.6832 49.6288 19.7214 -0.68677 -0.726874 -0.00121569
24.2441 50.0429 19.7577 -0.68464 -0.72887 -0.00318759
23.7887 50.4607 19.7194 -0.675073 -0.737744 -0.00187412
23.4006 50.8034 19.7616 -0.660614 -0.750723 0.000443325
22.9912 51.1476 19.7597 -0.641325 -0.76727 4.45438e-05
22.5433 51.5059 19.8218 -0.62153 -0.783379 0.00385458
22.4431 51.5821 19.3188 -0.619594 -0.784839 -0.00508007
22.9131 51.2127 19.2957 -0.620892 -0.783773 -0.0133949
23.3492 50.8552 19.271 -0.641461 -0.766946 -0.0179212
23.849 50.4129 19.2414 -0.665576 -0.74622 -0.00981918
24.3648 49.9316 19.2737 -0.687764 -0.725922 -0.00411929
24.7709 49.5442 19.2463 -0.694158 -0.719817 0.00279543
25.1885 49.1421 19.2722 -0.695118 -0.718798 0.0118422
25.4696 48.8811 19.7287 -0.691215 -0.722485 0.0153861
25.3423 49.0088 20.2956 -0.686294 -0.72732 0.00251691
25.007 49.3218 20.6655 -0.680874 -0.732317 -0.0110555
24.5795 49.7213 20.6052 -0.683144 -0.730199 -0.0111155
24.1664 50.1083 20.6995 -0.686397 -0.727193 -0.00711287
23.6426 50.5881 20.6459 -0.665709 -0.745968 0.0101891
23.203 50.9765 20.6315 -0.650847 -0.758838 0.0237395
22.7558 51.3488 20.6137 -0.622834 -0.782002 0.020648
22.2632 51.7289 20.6079 -0.597355 -0.801379 0.0308805
21.74 52.1092 20.684 -0.544225 -0.838783 0.0161794
21.21 52.4447 20.6347 -0.521897 -0.852335 0.0339005
20.6787 52.7456 20.6189 -0.466518 -0.883228 0.0446631
20.2165 52.9749 20.5963 -0.415884 -0.908728 0.0284572
19.6986 53.1911 20.5983 -0.359422 -0.932018 0.0408186
19.2006 53.3657 20.6578 -0.297597 -0.953595 0.0457568
18.6465 53.5227 20.6553 -0.251838 -0.966493 0.0496936
18.0815 53.6656 20.6781 -0.219531 -0.975011 0.033674
17.5705 53.7758 20.5014 -0.207133 -0.978031 0.0190106
17.4557 53.7869 19.9047 -0.194791 -0.980761 0.0113672
17.6512 53.7452 19.3707 -0.207242 -0.97814 0.00664447
18.1941 53.6267 19.2496 -0.215394 -0.976421 -0.0143664
18.7811 53.4785 19.2661 -0.251371 -0.967495 -0.027687
19.3029 53.3303 19.2817 -0.282915 -0.958605 -0.0321747
19.8747 53.1212 19.2844 -0.378118 -0.924046 -0.0562694
20.5078 52.8406 19.2564 -0.438094 -0.896371 -0.0677622
20.9782 52.5964 19.2684 -0.497019 -0.861449 -0.104292
21.4963 52.2765 19.2962 -0.538405 -0.842439 -0.0204118
21.9506 51.9562 19.2818 -0.586746 -0.809486 -0.00844697
22.1705 51.7899 19.2999 -0.602745 -0.797892 -0.00812666
22.2652 51.725 18.7973 -0.601825 -0.798556 -0.010703
22.7187 51.3756 18.7962 -0.616386 -0.787186 -0.0185328
23.189 51.0006 18.8016 -0.634324 -0.772822 -0.0165348
23.6243 50.6227 18.7819 -0.653853 -0.755962 -0.0264175
24.1154 50.1763 18.7827 -0.678302 -0.734282 -0.0260502
24.5349 49.7759 18.7654 -0.698506 -0.715516 -0.011231
24.9188 49.3975 18.7881 -0.699508 -0.714596 0.00638278
25.3922 48.9367 18.7497 -0.69637 -0.717611 0.0101288
25.7996 48.5436 18.917 -0.696016 -0.717906 0.0131465
25.8086 48.5538 19.6031 -0.688584 -0.724822 0.021793
25.8212 48.5611 20.2009 -0.687629 -0.725517 0.0281029
25.7274 48.6633 20.7281 -0.672768 -0.73974 -0.000486782
25.3659 48.9814 21.1449 -0.671096 -0.740982 -0.0238612
24.8315 49.4765 21.1371 -0.679189 -0.733754 -0.0175285
24.4134 49.8687 21.1744 -0.686534 -0.727011 -0.0112066
23.9921 50.2742 21.162 -0.690089 -0.723652 0.00545565
23.5306 50.7028 21.1365 -0.681132 -0.731803 0.019278
23.1461 51.0462 21.1035 -0.654128 -0.755036 0.0437913
22.7145 51.408 21.1146 -0.629991 -0.774347 0.0591505
22.1547 51.8353 21.1002 -0.600475 -0.797394 0.059933
21.4941 52.3004 21.1596 -0.536779 -0.838674 0.0921653
21.0154 52.588 21.0728 -0.511872 -0.857283 0.0552562
20.4952 52.8741 21.1758 -0.450824 -0.886984 0.100083
19.8693 53.1556 21.0939 -0.40367 -0.912237 0.0698164
19.342 53.3429 21.1413 -0.316668 -0.946713 0.0587925
18.8408 53.4903 21.1138 -0.267615 -0.961657 0.059979
18.2412 53.648 21.1402 -0.220887 -0.973163 0.064519
17.7288 53.7584 21.1358 -0.197465 -0.979747 0.0316047
17.2229 53.8645 21.0909 -0.218404 -0.975459 0.0279205
17.0448 53.8848 20.5723 -0.200072 -0.979244 0.0324306
16.9789 53.879 19.8849 -0.179721 -0.983611 0.014506
16.9773 53.8831 19.3609 -0.195762 -0.980612 -0.00879114
17.1327 53.8564 18.8657 -0.218644 -0.975545 -0.0225
17.6364 53.751 18.8107 -0.205666 -0.978602 -0.00530323
18.2744 53.6171 18.813 -0.228957 -0.971997 -0.0372989
18.9356 53.4576 18.7751 -0.250979 -0.965521 -0.0617798
19.562 53.2645 18.7569 -0.316318 -0.94795 -0.0365095
20.059 53.0774 18.7498 -0.380733 -0.92314 -0.0534281
20.6107 52.8337 18.7715 -0.428993 -0.896871 -0.10765
21.0682 52.5877 18.7897 -0.506908 -0.856312 -0.0988673
21.5295 52.2778 18.7905 -0.58415 -0.809745 -0.0511439
22.0103 51.9174 18.7745 -0.601774 -0.798596 -0.0105963
22.0485 51.8886 18.7758 -0.60177 -0.798599 -0.0105994
