22.8639 51.7273 19.8056 -0.610808 -0.791612 0.00228355
22.2928 52.1554 19.7939 -0.584916 -0.810829 0.00746729
21.8359 52.4703 19.7684 -0.563691 -0.825905 0.00879622
21.2571 52.8338 19.7192 -0.494051 -0.868388 -0.017668
20.7732 53.0874 19.7563 -0.457598 -0.889148 0.00378106
20.1977 53.3499 19.7679 -0.368933 -0.929426 -0.00741541
19.7139 53.5323 19.8219 -0.332076 -0.943193 0.0105565
19.1628 53.7108 19.7104 -0.291116 -0.956677 0.00458853
18.683 53.8476 19.68 -0.24696 -0.968958 0.010318
18.0846 53.9854 19.7415 -0.209787 -0.977721 0.00717454
18.2092 53.9642 20.1863 -0.212793 -0.976795 0.0243114
18.7412 53.8378 20.2052 -0.244162 -0.969434 0.022569
19.2556 53.6856 20.1646 -0.289621 -0.957118 0.00675105
19.7559 53.5209 20.1884 -0.336993 -0.941484 0.00665002
20.0658 53.4065 20.1145 -0.385123 -0.922732 0.0157224
20.4356 53.2541 19.9385 -0.405517 -0.913163 -0.00914426
20.737 53.103 20.1419 -0.442144 -0.896877 -0.0109243
21.281 52.8213 20.1442 -0.479033 -0.877756 0.00848083
21.7868 52.5009 20.1598 -0.530458 -0.847608 0.00315663
22.2296 52.2046 20.1796 -0.584915 -0.81083 0.00746767
22.7956 51.7832 20.236 -0.607888 -0.793868 0.00741151
23.204 51.4528 20.1961 -0.639042 -0.769033 0.0145909
23.6236 51.0927 20.1291 -0.656661 -0.754112 -0.0105968
24.0372 50.7284 20.0944 -0.675718 -0.73713 -0.00663066
24.4332 50.3633 20.1593 -0.68004 -0.733166 -0.00366964
24.435 50.366 19.7487 -0.684237 -0.729192 -0.00866872
24.0401 50.7293 19.6766 -0.675474 -0.737356 -0.00640071
23.6333 51.0909 19.6629 -0.660026 -0.75119 -0.00656231
23.2413 51.4203 19.7232 -0.63689 -0.770928 0.00122143
23.0605 51.5677 19.7892 -0.632138 -0.774855 -0.000333147
22.9576 51.6481 19.2846 -0.621804 -0.783097 -0.010893
22.4978 52.0044 19.311 -0.60134 -0.798959 -0.00740055
22.0171 52.3514 19.2767 -0.578616 -0.815172 -0.0264282
21.5074 52.6901 19.2674 -0.522508 -0.852213 -0.026811
21.0701 52.9453 19.244 -0.475048 -0.879113 -0.0385936
20.4896 53.2425 19.2893 -0.416375 -0.906193 -0.0582534
19.9248 53.4666 19.2422 -0.349556 -0.936428 -0.016591
19.4429 53.6349 19.2881 -0.305873 -0.951225 -0.0277048
18.9332 53.7835 19.257 -0.259875 -0.96516 -0.0235762
18.4427 53.9084 19.2452 -0.227482 -0.973493 -0.00872437
17.7687 54.05 19.2622 -0.202434 -0.979281 -0.00358422
17.447 54.1121 19.7554 -0.171993 -0.985063 0.000584592
17.4399 54.1241 20.4095 -0.180109 -0.983113 0.0318721
17.9347 54.0388 20.6464 -0.205062 -0.977445 0.0488071
18.6448 53.872 20.6759 -0.25644 -0.965191 0.0514235
19.2133 53.7114 20.6587 -0.287693 -0.956891 0.0399109
19.6958 53.5556 20.641 -0.339648 -0.939405 0.0429435
20.2859 53.3223 20.5871 -0.386932 -0.921998 0.014253
20.8545 53.062 20.6335 -0.455365 -0.888992 0.0410806
21.4266 52.7448 20.6293 -0.520758 -0.852497 0.0369486
21.9975 52.3808 20.6106 -0.547358 -0.836062 0.0318491
22.4691 52.0393 20.6858 -0.596527 -0.802061 0.0291807
22.8791 51.7258 20.6823 -0.62041 -0.783851 0.0251393
23.2752 51.4021 20.6628 -0.647412 -0.761103 0.0397474
23.7163 51.0185 20.6333 -0.664096 -0.74764 0.00342302
24.1594 50.6174 20.5984 -0.680733 -0.732517 0.00437101
24.5365 50.2624 20.6851 -0.691299 -0.722568 0.000347275
24.8438 49.9712 20.4013 -0.690306 -0.723487 -0.00668281
24.8767 49.9453 19.8156 -0.691469 -0.722377 -0.00652375
24.7587 50.0633 19.3167 -0.690369 -0.723381 -0.0103981
24.3219 50.4793 19.2202 -0.682987 -0.730352 -0.0107003
23.9426 50.8264 19.2516 -0.667915 -0.744042 -0.0170777
23.5525 51.1665 19.2351 -0.640133 -0.767993 -0.0195322
23.1165 51.5222 19.26 -0.622482 -0.782568 -0.0101677
23.0834 51.5547 18.7776 -0.623131 -0.782048 -0.0104289
22.6571 51.8945 18.7907 -0.634587 -0.772323 -0.0217775
22.1888 52.2517 18.7692 -0.600295 -0.799227 -0.0297072
21.7664 52.5617 18.7827 -0.569634 -0.818202 -0.0729667
21.2015 52.913 18.7512 -0.48376 -0.871488 -0.0805261
20.7524 53.1492 18.802 -0.439578 -0.893155 -0.0951064
20.2629 53.3638 18.744 -0.354728 -0.9317 -0.0749043
19.7737 53.5412 18.7686 -0.326046 -0.943964 -0.051239
19.2849 53.6981 18.8128 -0.266709 -0.962089 -0.0570148
18.7932 53.8284 18.7712 -0.242759 -0.969793 -0.0238733
18.2612 53.9507 18.775 -0.205108 -0.97863 -0.0146281
17.742 54.0552 18.7725 -0.200354 -0.97969 0.00806187
17.2006 54.1639 18.8556 -0.177984 -0.983478 -0.0278317
16.9772 54.1922 19.3437 -0.164285 -0.986411 -0.00194612
16.9822 54.1897 19.9538 -0.142915 -0.988105 -0.0390313
16.9435 54.209 20.4814 -0.162566 -0.986008 0.0368885
17.0865 54.2061 20.9593 -0.173663 -0.982735 0.0638233
17.6165 54.1229 21.1299 -0.179961 -0.982517 0.0471752
18.1458 54.0177 21.1212 -0.195047 -0.979473 0.0503051
18.6848 53.888 21.167 -0.260434 -0.96325 0.0657468
19.225 53.734 21.1312 -0.286558 -0.955549 0.0693586
19.7763 53.5552 21.1126 -0.321026 -0.943852 0.0780139
20.2642 53.366 21.1112 -0.389788 -0.918076 0.0712148
20.7693 53.1299 21.1121 -0.461724 -0.884913 0.0585312
21.409 52.7733 21.1456 -0.506778 -0.86082 0.0465298
21.9513 52.4365 21.069 -0.563479 -0.824347 0.044407
22.4164 52.1046 21.1462 -0.588452 -0.806139 0.0621585
22.9347 51.7062 21.1327 -0.624379 -0.77912 0.0557658
23.3618 51.3537 21.1346 -0.654946 -0.753129 0.0619927
23.7692 50.9921 21.1287 -0.681281 -0.73147 0.0284071
24.1434 50.6411 21.0819 -0.687298 -0.726038 0.0221417
24.6753 50.1313 21.1707 -0.705438 -0.708552 0.0127922
25.0915 49.73 21.0791 -0.683073 -0.730235 -0.0127053
25.1874 49.6379 20.5732 -0.702033 -0.712075 -0.00667395
25.1953 49.6375 19.9754 -0.696139 -0.717798 -0.0110431
25.1753 49.6594 19.4052 -0.695152 -0.718862 -0.00125536
25.0944 49.7418 18.8009 -0.70637 -0.707796 -0.0081891
24.5902 50.2387 18.7785 -0.695795 -0.717975 -0.0179902
24.0562 50.7391 18.7365 -0.675893 -0.736737 -0.0196627
23.6834 51.0707 18.8164 -0.642713 -0.765418 -0.0229742
23.2944 51.3871 18.7347 -0.632299 -0.774706 -0.00534687
23.2809 51.3979 18.7347 -0.623135 -0.782045 -0.0104266
