-26.763 48.5254 10.4786 0.506642 -0.852127 -0.131121
-25.653 49.1492 10.6143 0.489215 -0.863135 -0.125169
-25.4543 49.2642 10.5982 0.488524 -0.864794 -0.115681
-25.6108 49.3256 9.37853 0.491176 -0.864875 -0.103522
-24.3793 50.0002 9.07675 0.445506 -0.892415 -0.0692118
-23.38 50.516 8.49346 0.411486 -0.908454 -0.0729066
-22.242 51.033 7.59963 0.345585 -0.937519 -0.0392982
-21.2121 51.4234 6.9417 0.325074 -0.94548 -0.0198622
-20.4651 51.7077 5.97106 0.297475 -0.954504 -0.0128602
-19.2147 52.0312 5.59069 0.2385 -0.971117 0.00699307
-18.3542 52.2177 6.44815 0.206143 -0.978411 -0.00555047
-17.1882 52.4308 7.34662 0.175781 -0.984228 -0.0133322
-16.0208 52.6265 8.14203 0.173749 -0.984782 0.00394087
-14.6188 52.8431 8.59965 0.149138 -0.988787 0.00764068
-13.2332 53.0196 8.77486 0.106126 -0.994279 0.012147
-11.8707 53.1571 9.07911 0.0798629 -0.99675 0.00931005
-10.4844 53.2533 9.08432 0.0620491 -0.998053 0.00633938
-9.25489 53.3314 9.19111 0.0670002 -0.997651 0.0142609
-9.33931 53.3555 10.4544 0.0723503 -0.996627 0.0377418
-9.33463 53.4098 11.8609 0.0826908 -0.995912 0.0363549
-9.2576 53.4703 13.1643 0.0898099 -0.995127 0.0406902
-8.94176 53.545 14.4503 0.0794997 -0.996257 0.0339448
-8.36312 53.6243 15.6718 0.0755413 -0.99694 0.0201113
-7.50732 53.694 16.9635 0.0618629 -0.998069 0.00550451
-6.5884 53.7293 18.0157 0.0414137 -0.999025 -0.0152847
-5.62348 53.7558 18.8178 0.0433697 -0.99887 -0.0193422
-6.07198 53.7292 19.2939 0.0341297 -0.999292 -0.0137977
-7.3128 53.6884 19.2785 0.0344856 -0.999404 -0.000572871
-8.76176 53.6526 19.31 0.0184579 -0.9996 0.0214225
-10.0033 53.6329 19.3043 0.012206 -0.99967 0.0225877
-11.2424 53.6263 19.2736 -0.000834367 -0.999221 0.0392781
-12.5106 53.6215 19.316 0.0125419 -0.998783 0.0476775
-13.6605 53.5864 18.9078 0.0192413 -0.997957 0.0592108
-13.9986 53.476 17.6602 0.0184254 -0.994531 0.102799
-14.8475 53.3337 16.6735 0.0423439 -0.98757 0.151368
-16.031 53.1726 16.2011 0.122308 -0.973184 0.194818
-17.2697 52.9823 16.3473 0.26493 -0.949833 0.166219
-18.4783 52.6491 16.678 0.355632 -0.928803 0.101838
-19.7384 52.1313 16.9088 0.421014 -0.904595 0.0658309
-20.8954 51.5018 16.8396 0.495245 -0.865626 0.0695496
-21.9912 50.7707 16.6752 0.615446 -0.787156 0.0371357
-23.0364 50.0189 16.6794 0.615581 -0.787149 -0.0381668
-23.9963 49.2388 16.798 0.63613 -0.764996 -0.100599
-25.1006 48.2895 16.7604 0.638581 -0.748084 -0.180509
-26.1664 47.394 16.7509 0.630231 -0.738851 -0.238265
-27.1338 46.5965 16.6615 0.620526 -0.736699 -0.26874
-28.2815 45.5875 16.742 0.633056 -0.711306 -0.305424
-29.1778 44.7462 17.013 0.576073 -0.74166 -0.343348
-29.9567 43.8631 17.6526 0.521777 -0.788958 -0.313688
-30.1474 43.379 18.7838 0.585379 -0.788846 -0.187226
-30.8586 42.7044 19.3507 0.612562 -0.781751 -0.11676
-31.9804 41.8244 19.2977 0.622533 -0.776009 -0.100921
-33.0086 41.0027 19.328 0.617956 -0.779182 -0.103689
-34.0898 40.173 19.2133 0.561986 -0.821388 -0.0974353
-34.3183 40.1338 18.7493 0.411486 -0.847504 -0.323423
-33.3522 41.164 18.0355 0.523234 -0.745669 -0.412078
-32.5567 42.1813 17.1415 0.528715 -0.754868 -0.387737
-32 42.9921 16.3211 0.539924 -0.757785 -0.366379
-31.5224 43.7681 15.3852 0.54005 -0.765782 -0.349176
-31.0923 44.6019 14.1809 0.527572 -0.782986 -0.329021
-30.8789 45.1779 13.1086 0.540222 -0.791072 -0.286995
-30.5705 45.782 11.9706 0.546904 -0.796243 -0.258636
-30.6363 46.1389 10.5305 0.546 -0.815779 -0.189667
-30.8315 46.337 8.90614 0.519353 -0.843642 -0.136165
-31.4401 46.1574 7.81284 0.53873 -0.831993 -0.132506
-31.4267 46.2425 7.24482 0.507092 -0.85741 -0.0876255
-30.0668 46.9567 7.88037 0.489753 -0.865307 -0.106706
-28.8855 47.5571 8.51906 0.502893 -0.856636 -0.115209
-27.8083 48.1375 8.87499 0.497421 -0.859725 -0.11595
-26.7366 48.6823 9.35744 0.492809 -0.863195 -0.10932
-26.0139 49.0871 9.44342 0.494511 -0.863302 -0.100839
-30.9489 42.9714 18.028 0.586986 -0.75743 -0.285734
-31.7382 42.275 18.255 0.650321 -0.719636 -0.243324
-31.5856 42.6773 17.5928 0.574581 -0.73675 -0.356449
-30.8744 43.5802 16.818 0.561835 -0.748805 -0.351615
-30.8265 43.3804 17.3202 0.561773 -0.749954 -0.349248
-30.9169 43.0551 17.8782 0.576185 -0.751422 -0.320075
-56.2675 28.1933 14.9483 0.328055 -0.942246 -0.0672316
-56.1554 28.322 13.5975 0.32453 -0.944136 -0.0568059
-55.9681 28.5076 11.9888 0.345882 -0.935767 -0.0684534
-55.4511 28.796 11.1394 0.386956 -0.918905 -0.0766756
-54.4503 29.0874 12.5608 0.39885 -0.912352 -0.0923738
-53.4776 29.3828 13.5902 0.386431 -0.91581 -0.10938
-52.572 29.6509 14.6625 0.399364 -0.911929 -0.094305
-51.7273 29.9178 15.6403 0.404794 -0.907059 -0.115687
-50.6986 30.3767 16.266 0.493644 -0.85984 -0.129371
-49.9323 30.6926 17.2582 0.47979 -0.865904 -0.141463
-50.9935 29.9937 17.9988 0.48177 -0.868195 -0.118892
-52.1019 29.441 18.1203 0.363049 -0.927209 -0.092083
-53.2981 28.9935 18.2385 0.330748 -0.940082 -0.082372
-54.6823 28.5253 18.0959 0.331028 -0.941396 -0.0647568
-55.8754 28.1462 17.992 0.303517 -0.95165 -0.0473252
-56.7988 27.8838 17.4844 0.292324 -0.955487 -0.0398888
-56.6183 27.9977 16.2493 0.304839 -0.950961 -0.0523012
-56.3241 28.1507 15.2445 0.318086 -0.945827 -0.063461
52.8244 32.5317 8.12439 -0.585239 -0.810836 0.00628377
53.797 31.8463 7.56423 -0.570776 -0.821096 0.00406255
54.7171 31.2153 6.70438 -0.55565 -0.831226 0.0177497
55.3979 30.7541 5.97726 -0.507202 -0.861095 0.0345128
56.0654 30.347 5.66231 -0.503195 -0.863314 0.0381499
56.2152 30.3115 6.96466 -0.492316 -0.87002 0.0243572
56.2319 30.3214 8.12356 -0.502049 -0.864544 0.0192125
56.4706 30.202 9.38715 -0.504333 -0.863449 0.00922813
56.7977 30.0341 10.4097 -0.478835 -0.877766 0.01509
57.3142 29.7631 11.4407 -0.462065 -0.886805 -0.00179513
57.887 29.4722 12.3898 -0.439466 -0.898029 -0.00114881
58.4703 29.2129 13.363 -0.408399 -0.912595 0.0156099
58.9722 28.9993 14.314 -0.395373 -0.918515 -0.00318328
59.3581 28.8284 15.3933 -0.385922 -0.92232 -0.0197423
59.31 28.8395 16.7097 -0.389357 -0.921058 -0.00516517
58.7778 29.0527 17.701 -0.389769 -0.920862 -0.00942958
57.7189 29.4984 18.0705 -0.400055 -0.916304 -0.0147694
56.5313 30.0193 18.1299 -0.409514 -0.911778 -0.0291673
55.546 30.4722 18.1237 -0.417197 -0.908164 -0.0344161
54.3441 31.0485 18.187 -0.447512 -0.892563 -0.0545068
53.1856 31.67 18.2821 -0.48689 -0.869653 -0.0814966
52.2429 32.2687 18.1732 -0.537968 -0.837369 -0.0965391
51.0552 33.1425 17.503 -0.569508 -0.819983 -0.0573494
50.5104 33.6221 16.6498 -0.617252 -0.780799 -0.0888275
49.8355 34.2775 16.0487 -0.639584 -0.76429 -0.0822017
49.0652 35.0746 15.8173 -0.716724 -0.694166 -0.0666341
48.2377 35.9433 15.6331 -0.720715 -0.693075 0.014715
47.3644 36.802 15.6423 -0.696905 -0.716612 0.0257871
46.6219 37.4983 15.913 -0.654486 -0.753231 0.0655103
46.8187 37.2669 14.8189 -0.657253 -0.753424 0.0192569
47.1672 36.9282 13.6183 -0.661528 -0.749694 0.0184397
47.4128 36.7175 12.2193 -0.632874 -0.77421 0.00264288
47.3197 36.8031 10.9332 -0.630902 -0.775824 -0.00761521
47.1636 36.9367 9.80917 -0.622549 -0.782565 -0.00486806
47.6558 36.5476 9.08003 -0.625463 -0.780245 -0.00360986
48.6628 35.7386 9.16314 -0.624263 -0.781164 -0.00893163
49.8771 34.7654 9.03093 -0.625487 -0.780095 -0.0147734
50.9853 33.9021 8.87175 -0.608879 -0.793163 -0.00957309
51.9804 33.1544 8.52237 -0.601367 -0.798937 -0.00763267
52.7313 32.5993 8.17243 -0.585239 -0.810836 0.00628377
52.4175 32.8249 7.16562 -0.593416 -0.804762 0.0146555
51.5194 33.5017 7.55513 -0.603271 -0.797518 0.00531648
50.2917 34.4515 7.8517 -0.61275 -0.790274 0.00191446
49.1665 35.3448 8.06117 -0.624181 -0.781264 -0.00456848
48.2537 36.0759 8.04791 -0.623507 -0.781797 -0.00550859
47.3151 36.8253 7.94564 -0.623792 -0.781585 -0.00166994
46.4892 37.4815 7.64745 -0.618139 -0.786032 0.00565964
45.5757 38.1778 7.28882 -0.600036 -0.799957 0.00499325
45.5073 38.2306 7.66847 -0.597975 -0.801513 0.00177865
45.9028 37.9334 8.67661 -0.598057 -0.80144 -0.00374519
46.2869 37.6265 9.90585 -0.607392 -0.794375 -0.00217906
46.4592 37.4905 11.036 -0.621971 -0.783033 -0.00105234
46.5094 37.4532 12.135 -0.620666 -0.783956 0.0101652
46.3805 37.5748 13.2342 -0.631424 -0.775103 0.0202788
46.0085 37.9208 14.4519 -0.627417 -0.778035 0.031555
45.5397 38.3063 15.406 -0.591853 -0.803985 0.0542703
45.0156 38.727 16.2688 -0.565601 -0.823714 0.0335211
44.3446 39.1933 17.1868 -0.535166 -0.84442 0.011958
43.5179 39.6935 17.7117 -0.517845 -0.855448 -0.00669331
42.6481 40.1733 18.2544 -0.481428 -0.876339 -0.0156589
41.6083 40.7202 18.7091 -0.457162 -0.889163 -0.0198214
41.0849 40.9768 19.1878 -0.452611 -0.891444 -0.0213586
42.0366 40.4943 18.9616 -0.467832 -0.883559 -0.0174934
43.0987 39.9182 19.2694 -0.474654 -0.880152 -0.00589352
44.2136 39.2757 19.2061 -0.506785 -0.861972 0.00791723
45.4016 38.5507 19.1999 -0.521792 -0.852993 0.0116745
45.9537 38.1762 18.1455 -0.537996 -0.84195 0.0409932
46.5011 37.7295 17.2802 -0.597222 -0.796303 0.093118
47.2353 37.0055 16.8013 -0.705539 -0.696169 0.132529
48.1189 36.065 16.7006 -0.752611 -0.65753 -0.0346551
48.8666 35.2034 16.782 -0.78146 -0.616865 -0.0727566
49.5483 34.3945 17.0478 -0.68741 -0.715321 -0.113111
50.1721 33.748 17.9114 -0.582091 -0.809199 -0.0797943
50.5143 33.4059 18.939 -0.591687 -0.802669 -0.0750276
51.4186 32.7098 19.2395 -0.593136 -0.801307 -0.0780241
52.4863 31.9942 19.319 -0.541957 -0.837503 -0.0697974
53.5673 31.3976 19.3552 -0.467642 -0.883325 -0.0317498
54.5627 30.8892 19.2891 -0.438406 -0.898428 -0.0182749
55.6228 30.3942 19.2714 -0.421962 -0.906402 -0.0194222
56.8857 29.8348 19.2403 -0.403284 -0.914783 -0.0230233
58.3039 29.2309 19.1312 -0.391269 -0.920109 -0.0174755
59.3182 28.8262 18.7583 -0.367452 -0.929987 -0.00966686
60.1637 28.5007 17.7191 -0.358 -0.933655 0.002899
60.4405 28.3961 16.4515 -0.348723 -0.937155 0.0115151
60.4283 28.401 15.3571 -0.35472 -0.934904 -0.0113476
60.0836 28.5379 14.1841 -0.368141 -0.929762 -0.00391105
59.5703 28.7366 13.2268 -0.371837 -0.928247 0.00975942
58.8914 28.9997 12.1173 -0.407284 -0.912915 0.0218946
58.2832 29.2698 11.1427 -0.450652 -0.892605 0.0130174
57.7929 29.5005 10.1727 -0.4468 -0.89453 0.0132036
57.286 29.7529 8.70682 -0.477274 -0.878741 0.00493482
57.2283 29.7534 6.98287 -0.454789 -0.889889 0.0300026
57.1548 29.7335 5.68587 -0.489018 -0.871297 0.040442
57.1659 29.6801 4.58632 -0.46968 -0.882194 0.033618
57.1249 29.661 3.35312 -0.489485 -0.871291 0.0336101
57.1849 29.568 1.74692 -0.464767 -0.884976 0.0273548
57.1101 29.5623 0.443913 -0.459043 -0.887984 0.0276532
57.1017 29.5143 -0.903689 -0.449619 -0.892241 0.0418126
56.9146 29.5393 -2.25454 -0.466758 -0.883082 0.0480012
57.1059 29.3771 -3.32345 -0.467821 -0.882239 0.0528924
57.0886 29.3214 -4.49574 -0.463068 -0.885104 0.0441836
57.0498 29.2838 -5.58117 -0.446731 -0.893206 0.0511226
57.0273 29.209 -6.80927 -0.437643 -0.898041 0.0402401
56.7343 29.2787 -8.05787 -0.422774 -0.903998 0.0636383
56.521 29.3748 -8.14564 -0.456504 -0.886557 0.0749757
56.5821 29.4235 -7.05696 -0.460278 -0.886655 0.0445878
56.5416 29.528 -5.86255 -0.475091 -0.877723 0.0608531
56.4563 29.658 -4.52791 -0.464772 -0.883382 0.0601948
56.5961 29.6425 -3.47232 -0.474447 -0.879103 0.0455778
56.5341 29.7397 -2.38969 -0.495021 -0.867134 0.0550763
56.7889 29.6701 -1.06595 -0.476006 -0.87822 0.0463488
56.5794 29.8289 -0.194597 -0.47512 -0.878791 0.0445699
56.3244 30.0008 0.973684 -0.503595 -0.863691 0.0190722
56.2012 30.1285 2.17808 -0.500027 -0.863058 0.0714455
55.8213 30.4229 3.51132 -0.516842 -0.855292 0.033917
55.2548 30.8058 4.55055 -0.535738 -0.843698 0.0340512
54.5997 31.26 5.36884 -0.554588 -0.831742 0.0252415
53.8854 31.7655 6.07189 -0.565188 -0.824851 0.0135455
53.1842 32.2599 6.73498 -0.568212 -0.822722 0.016234
52.5925 32.6942 7.07646 -0.593413 -0.804765 0.0146521
54.1477 29.5427 -16.6063 -0.355779 -0.927883 0.111495
53.1623 29.8598 -17.2294 -0.412513 -0.904597 0.107413
52.3173 30.1331 -17.8331 -0.372479 -0.914851 0.155908
53.3543 29.6733 -18.1671 -0.347524 -0.931157 0.110339
54.4537 29.2574 -18.1954 -0.334565 -0.938353 0.0867183
56.001 28.7221 -18.2703 -0.319334 -0.945227 0.0673667
57.589 28.2037 -17.9823 -0.32207 -0.944995 0.0567056
57.2535 28.393 -16.6394 -0.326146 -0.943817 0.0532823
56.8632 28.5973 -15.5739 -0.333677 -0.939944 0.0718633
56.321 28.9291 -14.1958 -0.381178 -0.921266 0.0772837
55.9382 29.0483 -14.6636 -0.375644 -0.921718 0.0948147
55.0567 29.2857 -15.8033 -0.373764 -0.921562 0.103705
54.4397 29.456 -16.3815 -0.360142 -0.926265 0.111045
53.7648 29.8591 -15.5472 -0.397007 -0.907497 0.137036
54.6726 29.5866 -14.6477 -0.394326 -0.911839 0.114233
55.2093 29.4901 -13.5094 -0.421258 -0.900351 0.10764
55.8127 29.3182 -12.3595 -0.446709 -0.890025 0.0909653
56.3315 29.2 -11.1245 -0.423549 -0.900956 0.0942608
56.8383 28.9629 -11.1661 -0.407487 -0.907543 0.101592
57.1248 28.7384 -12.2791 -0.381218 -0.921808 0.0696662
57.3305 28.5733 -13.4909 -0.372321 -0.926686 0.0512904
57.667 28.3608 -14.6969 -0.345439 -0.937256 0.0471527
58.1736 28.1142 -15.9971 -0.318874 -0.946305 0.0531593
58.5261 27.9388 -17.2814 -0.307563 -0.950559 0.0422455
58.7617 27.7952 -18.7717 -0.288253 -0.956835 0.0365245
57.9087 28.0402 -19.3829 -0.30082 -0.952976 0.0366645
56.5505 28.4744 -19.3603 -0.306559 -0.95055 0.0497607
55.3507 28.8599 -19.3383 -0.308814 -0.949096 0.0611936
54.2593 29.2275 -19.2636 -0.311702 -0.947673 0.0689716
52.9422 29.682 -19.2719 -0.330422 -0.936744 0.113828
51.5377 30.2458 -19.1991 -0.374257 -0.918676 0.126
50.387 30.766 -19.226 -0.434609 -0.881769 0.180847
49.2391 31.4499 -18.941 -0.492637 -0.855291 0.16054
49.7587 31.3845 -17.9991 -0.493722 -0.839575 0.22333
50.9687 30.8712 -17.3488 -0.473823 -0.859406 0.192009
52.0182 30.477 -16.7745 -0.444619 -0.876706 0.18296
52.9665 30.1521 -16.0579 -0.428415 -0.889358 0.158975
53.5126 29.9492 -15.698 -0.403227 -0.905318 0.133448
-19.2163 52.7756 -14.3773 0.240831 -0.968605 -0.0616778
-19.9082 52.5583 -13.995 0.29008 -0.955873 -0.0464479
-20.4268 52.4296 -15.021 0.355779 -0.932937 -0.0552188
-21.1198 52.1967 -15.8954 0.433513 -0.895708 -0.0895135
-21.5093 52.0537 -16.7624 0.525236 -0.8501 -0.027109
-20.5458 52.5118 -16.7324 0.36123 -0.929269 -0.0712799
-19.4582 52.8846 -16.7353 0.304103 -0.948257 -0.0912717
-18.2783 53.1888 -16.6434 0.225888 -0.968467 -0.1051
-18.1435 53.1489 -15.9372 0.214187 -0.971411 -0.101191
-18.7487 52.9342 -15.0351 0.238937 -0.96778 -0.0794447
-19.0924 52.8183 -14.5643 0.24083 -0.968606 -0.0616774
-18.2014 52.9774 -13.9701 0.202796 -0.977446 -0.0587785
-17.5602 53.1764 -14.9242 0.19762 -0.977083 -0.0790839
-16.8121 53.3755 -15.7479 0.157662 -0.980738 -0.115306
-15.9296 53.5794 -16.5014 0.116497 -0.98828 -0.0986497
-15.2707 53.7201 -17.2401 0.0529126 -0.994263 -0.0929562
-14.2905 53.8041 -17.7858 0.0164668 -0.998745 -0.0472984
-13.2765 53.8318 -18.3542 0.00934418 -0.999891 -0.0114233
-12.1351 53.8309 -18.6771 -0.016416 -0.999843 0.00661575
-11.0153 53.8014 -18.8355 -0.0254685 -0.999628 0.0092698
-9.83047 53.7799 -18.8366 -0.00669293 -0.999716 0.022866
-8.53638 53.7746 -18.8434 -0.0110845 -0.999742 0.0191228
-7.45413 53.7697 -18.7944 -0.0116219 -0.999217 0.037818
-6.29711 53.7624 -18.7773 -0.00120142 -0.999315 0.0361865
-5.20738 53.7565 -18.7719 -0.0136184 -0.999478 0.0292924
-4.00626 53.7343 -18.812 -0.0198306 -0.999269 0.032655
-2.79112 53.7064 -18.7928 -0.0202376 -0.999254 0.032688
-1.62872 53.6845 -18.7572 -0.0102583 -0.999218 0.0381886
-0.506705 53.6718 -18.7955 -0.0119724 -0.999044 0.0420339
0.653317 53.6525 -18.747 -0.0208487 -0.999281 0.0316794
1.76893 53.6246 -18.8475 -0.017134 -0.999365 0.0302141
2.90734 53.6068 -18.7061 -0.0106244 -0.999522 0.0290165
3.99375 53.6006 -18.441 -0.00842679 -0.999249 0.0378299
4.95302 53.6242 -17.6287 -0.00772975 -0.999241 0.0381738
5.73844 53.637 -16.8817 -0.0297728 -0.999106 0.0284973
6.4915 53.6291 -15.7197 -0.0373782 -0.999183 0.015339
7.10875 53.6063 -14.3904 -0.0600754 -0.998177 -0.00170763
7.5866 53.5716 -13.366 -0.074773 -0.997044 -0.017675
7.75911 53.5381 -12.2832 -0.0837179 -0.996069 -0.0289329
7.9246 53.4888 -11.1637 -0.083576 -0.995868 -0.035517
7.95254 53.4458 -10.0216 -0.0665793 -0.997137 -0.035843
7.50661 53.4415 -8.94831 -0.0535169 -0.998325 -0.0219865
6.6387 53.4677 -7.91278 -0.0536036 -0.998423 -0.0164484
5.75641 53.4974 -7.10359 -0.0470454 -0.998577 -0.0243921
4.88286 53.5151 -6.32446 -0.0471012 -0.998711 -0.0189
4.12486 53.5289 -5.50765 -0.049957 -0.99831 -0.0296636
3.16333 53.5475 -4.58852 -0.0384286 -0.998787 -0.030797
2.36613 53.5584 -3.77407 -0.0362948 -0.999183 -0.0176467
1.40872 53.5745 -2.86024 -0.0263945 -0.99964 -0.00486073
0.449897 53.597 -1.93199 -0.0238883 -0.999572 -0.0151971
-0.432765 53.5965 -1.08383 -0.0174504 -0.999659 -0.0189621
-1.25896 53.5891 -0.204038 -0.00258048 -0.999977 -0.00630788
-2.10666 53.5831 0.724823 -0.00592027 -0.999904 -0.0124966
-3.00386 53.5662 1.38507 0.0135153 -0.999695 -0.0196715
-3.75782 53.5356 2.28175 0.014015 -0.999808 -0.0130122
-4.75309 53.501 3.23895 0.0228008 -0.99953 -0.0201952
-5.56618 53.4678 4.10756 0.0280639 -0.999423 -0.0191227
-6.36826 53.4374 5.00129 0.0295098 -0.999506 -0.00387705
-7.18126 53.4005 5.73441 0.0365349 -0.99924 -0.013613
-8.05033 53.3622 6.53726 0.0346968 -0.999383 -0.00476053
-8.88206 53.3305 7.34264 0.0451451 -0.998931 0.00991848
-9.78651 53.2888 7.99145 0.0563583 -0.998387 0.00612883
-10.9987 53.216 7.967 0.0633911 -0.997982 0.00376186
-12.178 53.1244 7.94334 0.0870596 -0.996187 0.00569562
-13.2999 53.0069 7.56521 0.10685 -0.994222 0.00824805
-14.3962 52.8666 7.43663 0.12888 -0.99166 -0.000148746
-15.615 52.6864 7.04727 0.148648 -0.988889 0.00176002
-16.7151 52.5163 6.28446 0.161728 -0.98682 -0.00550824
-17.7564 52.3375 5.43452 0.194805 -0.980814 -0.00600487
-18.5765 52.1883 4.4675 0.189751 -0.981621 -0.0203598
-18.7674 52.1745 3.35058 0.208243 -0.977538 -0.0308304
-18.8315 52.2207 2.14264 0.183182 -0.980247 -0.0745439
-18.8708 52.2582 0.970976 0.190495 -0.981634 -0.0091079
-18.817 52.2934 -0.116463 0.193276 -0.980319 -0.0401477
-18.7878 52.3433 -1.25605 0.190654 -0.980877 -0.0386205
-18.7898 52.3927 -2.41749 0.176536 -0.983481 -0.0400012
-18.8257 52.4327 -3.61596 0.15924 -0.986606 -0.0350936
-18.7101 52.483 -4.72285 0.173445 -0.984357 -0.0304117
-18.68 52.5221 -5.86862 0.17234 -0.984768 -0.0230477
-18.6722 52.5595 -6.96527 0.180974 -0.982837 -0.0357679
-18.6171 52.6179 -8.15454 0.17529 -0.983562 -0.0433389
-18.6177 52.6717 -9.27677 0.175701 -0.983033 -0.0526776
-18.6558 52.7131 -10.587 0.201621 -0.978915 -0.0327793
-18.6832 52.7586 -11.7462 0.201674 -0.978487 -0.0434873
-18.6237 52.8328 -12.8909 0.195604 -0.979269 -0.0526299
-18.2933 52.9486 -13.8191 0.206443 -0.97678 -0.0571645
20.4844 53.3503 15.2896 -0.270631 -0.959116 0.0816076
19.7604 53.457 14.2184 -0.231841 -0.969715 0.0765804
19.3103 53.4876 13.2866 -0.195223 -0.978936 0.0587122
18.7338 53.6872 14.4541 -0.177935 -0.981096 0.0760674
18.0967 53.8994 15.5077 -0.167942 -0.981322 0.0937179
19.2823 53.7031 15.8235 -0.201477 -0.975011 0.0935974
20.3771 53.4312 15.9635 -0.278967 -0.957713 0.0704517
20.8741 53.2659 16.0214 -0.363897 -0.929479 0.0530871
20.6782 53.3101 15.6627 -0.343491 -0.936377 0.0721892
56.605 29.2443 -9.22838 -0.426572 -0.900348 0.0860769
56.9012 29.1101 -9.16036 -0.428147 -0.899757 0.0844277
56.9029 29.0029 -10.4717 -0.414385 -0.907943 0.0626381
56.5584 29.222 -9.69258 -0.42628 -0.901047 0.0797434
56.5808 29.2315 -9.4828 -0.42657 -0.900349 0.0860789
-4.46804 53.8137 18.3343 0.0447603 -0.998428 -0.0337254
-5.40048 53.7922 17.6259 0.045503 -0.998672 -0.024157
-6.15244 53.7652 16.7664 0.0540854 -0.998502 -0.00832345
-6.90653 53.723 15.6736 0.0770619 -0.99702 0.00366892
-7.65987 53.6542 14.5224 0.0832943 -0.996249 0.0232781
-8.06769 53.5803 13.1855 0.0918354 -0.994913 0.0414108
-8.29468 53.5127 12.0512 0.0956686 -0.994476 0.0431803
-8.2755 53.4555 10.7436 0.0861836 -0.99517 0.046889
-8.19472 53.4113 9.51968 0.0892018 -0.995498 0.0320486
-7.52124 53.4321 8.46022 0.071369 -0.996918 0.0325619
-6.69067 53.4616 7.66318 0.0769432 -0.996116 0.0428023
-5.8409 53.4935 6.88927 0.0780122 -0.996183 0.0391714
-5.01921 53.5184 5.9873 0.0639917 -0.997175 0.0392082
-4.06303 53.5423 5.06975 0.0559032 -0.997231 0.0490271
-3.25365 53.5595 4.18059 0.0500355 -0.998615 0.0162545
-2.36636 53.5855 3.34577 0.0434967 -0.998749 0.0242051
-1.50389 53.5937 2.4217 0.0319519 -0.999165 0.0254012
-0.602869 53.6045 1.56242 0.0360346 -0.999052 0.0238353
0.365444 53.6006 0.625952 0.0205904 -0.999553 0.0212187
1.18708 53.5938 -0.202704 -0.00593742 -0.999701 0.0237134
2.15539 53.5743 -1.11313 0.00271163 -0.999786 0.0205291
3.03868 53.5525 -2.03635 -0.00591183 -0.999458 0.0323695
3.92693 53.5215 -2.84897 -0.0186289 -0.999286 0.0321232
4.75398 53.488 -3.75685 -0.0325689 -0.999396 0.0121469
5.64728 53.4686 -4.67565 -0.00914228 -0.999956 -0.00199654
6.45084 53.4503 -5.51965 -0.0165744 -0.999861 -0.0017143
7.25499 53.4274 -6.37541 -0.0243251 -0.999662 0.00829038
8.08055 53.3996 -7.2051 -0.0273834 -0.999606 0.0061907
9.28164 53.3527 -7.71975 -0.0420081 -0.999019 0.0128566
10.4375 53.3042 -7.8619 -0.036407 -0.998714 0.0352707
12.0056 53.2279 -7.72909 -0.0650193 -0.996905 0.0441933
13.3872 53.1344 -7.50589 -0.086424 -0.995283 0.0440811
14.6718 53.0343 -7.06076 -0.11186 -0.992402 0.0512345
15.7485 52.9323 -6.6391 -0.115578 -0.992231 0.0460479
16.809 52.821 -5.9263 -0.141114 -0.989084 0.0424128
17.4585 52.7667 -5.02768 -0.162859 -0.985558 0.0463778
18.0011 52.7375 -3.89146 -0.170371 -0.983461 0.0614619
18.303 52.7491 -2.75213 -0.190111 -0.979971 0.0592886
18.2742 52.8363 -1.55272 -0.178055 -0.981986 0.0628786
18.2239 52.9116 -0.370595 -0.163055 -0.984781 0.0600167
18.2758 52.9678 0.856679 -0.162568 -0.985228 0.0538232
18.2219 53.0447 2.12861 -0.164602 -0.985008 0.0516262
18.3065 53.1102 3.57062 -0.16225 -0.985232 0.054585
18.3221 53.175 4.90246 -0.164991 -0.98515 0.047519
18.4029 53.2237 6.13538 -0.172411 -0.983492 0.054823
18.3825 53.3048 7.43181 -0.169481 -0.983884 0.0570004
18.3323 53.3928 8.75438 -0.167643 -0.983842 0.0628613
18.3906 53.4624 10.0693 -0.168254 -0.984042 0.0578147
18.4227 53.5244 11.2207 -0.165484 -0.984659 0.0553353
18.3669 53.6072 12.3958 -0.166115 -0.984174 0.0616362
18.0273 53.7379 13.5018 -0.164264 -0.984011 0.0688465
17.1609 53.9727 14.8395 -0.13376 -0.987532 0.0829961
15.9729 54.2297 16.2799 -0.0596934 -0.992089 0.110439
14.6866 54.3929 17.2344 -0.0373394 -0.99682 0.0703896
13.8924 54.4355 17.697 0.0112455 -0.999199 0.038404
12.895 54.4337 18.2701 0.0228818 -0.99972 -0.00283752
11.7694 54.403 18.5331 0.0342363 -0.999348 -0.0114625
10.5282 54.3568 18.6504 0.038514 -0.999006 -0.0224371
9.30552 54.3087 18.6957 0.0397185 -0.998905 -0.0247154
7.94508 54.2605 18.6611 0.0355276 -0.999001 -0.0258855
6.7654 54.2134 18.7153 0.0408325 -0.998585 -0.0340698
5.59659 54.1677 18.6617 0.0285641 -0.999112 -0.03091
4.32892 54.1286 18.6873 0.0298953 -0.999064 -0.0310445
3.15342 54.087 18.7131 0.0350607 -0.999136 -0.0223317
2.00499 54.0493 18.723 0.0368585 -0.998508 -0.0402956
0.809029 54.0058 18.682 0.0393491 -0.998713 -0.0318751
-0.421162 53.9587 18.7157 0.0341424 -0.998527 -0.0421568
-1.57005 53.9153 18.7879 0.0375274 -0.998622 -0.0366406
-2.92714 53.8657 18.7693 0.037124 -0.999056 -0.0225627
-4.22331 53.8183 18.5416 0.0440899 -0.998703 -0.0254618
-4.31651 53.816 18.4687 0.0445229 -0.998564 -0.0295053
-40.6999 40.4069 -0.560911 0.610133 -0.791978 -0.0213527
-41.4666 39.8114 -1.44679 0.618995 -0.785394 0.00140002
-42.1834 39.2448 -2.31472 0.616778 -0.787075 0.00987441
-42.8782 38.6912 -3.0683 0.617725 -0.786375 0.00547347
-43.5704 38.1232 -3.85194 0.625575 -0.779449 0.0333901
-44.2435 37.5707 -4.60661 0.627908 -0.778026 0.0201826
-45.2412 36.736 -5.53168 0.62084 -0.78352 0.0255885
-46.0886 36.0536 -6.01272 0.614449 -0.788217 0.0341385
-47.1377 35.2262 -6.51385 0.603914 -0.796507 0.0294019
-48.0513 34.5298 -6.70843 0.600855 -0.798632 0.0340711
-49.2069 33.6748 -6.74187 0.594259 -0.804013 0.0204934
-50.1442 33.0184 -6.49843 0.575538 -0.817503 0.0210804
-51.2237 32.2894 -6.15939 0.553883 -0.832273 0.0231314
-52.1274 31.7022 -5.74592 0.541317 -0.840811 0.00350413
-53.191 31.0336 -4.95593 0.524404 -0.851419 -0.00427008
-54.0048 30.5399 -4.21812 0.519011 -0.854552 -0.0141323
-54.6935 30.1114 -3.12692 0.485304 -0.873909 -0.0276082
-55.1139 29.8323 -2.02126 0.481084 -0.875143 -0.0517959
-55.3255 29.6608 -0.894514 0.465666 -0.883598 -0.04909
-55.5085 29.4808 0.67425 0.463721 -0.884886 -0.0440361
-55.4882 29.4237 1.99777 0.46385 -0.884694 -0.0464796
-55.5672 29.2836 3.54939 0.42461 -0.903496 -0.0583119
-55.2681 29.3565 4.84274 0.450169 -0.891484 -0.0510285
-54.8141 29.4819 6.28751 0.465662 -0.882034 -0.071939
-54.4347 29.5734 7.50164 0.445436 -0.892518 -0.0706929
-53.962 29.6805 9.08586 0.453131 -0.887255 -0.0862443
-53.5242 29.7864 10.1689 0.452112 -0.885435 -0.107244
-52.7953 30.0157 11.3831 0.459187 -0.880292 -0.119288
-51.9234 30.3373 12.3874 0.485208 -0.865465 -0.124673
-51.152 30.6516 13.1841 0.526302 -0.836095 -0.154762
-50.3329 31.021 14.068 0.55068 -0.82224 -0.142908
-49.3412 31.5582 14.8784 0.587391 -0.794706 -0.149502
-48.5244 32.1019 15.6092 0.636525 -0.757273 -0.146196
-47.6711 32.7718 16.4426 0.705029 -0.697179 -0.129907
-46.8999 33.6454 16.9268 0.801883 -0.593826 -0.0388746
-46.3303 34.4335 17.5418 0.781289 -0.616168 0.0996169
-45.5505 35.2446 17.9488 0.542601 -0.838901 0.0427702
-44.5906 35.8738 18.1459 0.49831 -0.866506 -0.0292182
-43.592 36.4384 18.4259 0.478415 -0.877442 -0.0265301
-42.474 37.0228 18.492 0.471956 -0.879095 -0.0667075
-41.3392 37.539 18.6533 0.417166 -0.904307 -0.0905614
-40.1825 38.04 18.6017 0.384264 -0.913775 -0.130546
-38.8873 38.5774 18.6818 0.377888 -0.91457 -0.144091
-37.7292 39.0234 18.6148 0.350089 -0.911032 -0.217851
-36.4641 39.4925 18.5758 0.312455 -0.921091 -0.232301
-35.2745 40.0786 18.1055 0.290036 -0.894655 -0.338533
-34.3803 40.7182 17.6107 0.439131 -0.795567 -0.411558
-33.711 41.5462 16.8771 0.486691 -0.78353 -0.38628
-33.1213 42.4083 15.9232 0.507935 -0.774936 -0.376132
-32.6655 43.1085 15.1077 0.520623 -0.774282 -0.359776
-32.2744 43.8054 14.1547 0.5246 -0.779199 -0.342992
-31.9252 44.4418 13.195 0.523479 -0.792381 -0.313212
-31.682 45.0391 12.0343 0.500423 -0.824435 -0.260284
-31.4975 45.4588 10.9479 0.536326 -0.818872 -0.204458
-31.6327 45.7312 9.42946 0.531204 -0.827173 -0.183322
-32.1265 45.6221 8.38412 0.526353 -0.833014 -0.170413
-32.8079 45.3335 7.43747 0.537486 -0.834323 -0.122531
-33.6973 44.873 6.6059 0.539467 -0.834901 -0.109161
-34.4676 44.452 5.85455 0.560283 -0.824913 -0.0748422
-35.4063 43.9058 4.844 0.555352 -0.828465 -0.0723179
-36.2439 43.4006 4.0189 0.557442 -0.828066 -0.0597138
-37.2652 42.7702 2.95544 0.575481 -0.815601 -0.0601329
-38.0935 42.2485 2.18355 0.57137 -0.818989 -0.0516147
-38.833 41.7459 1.33973 0.589587 -0.807665 -0.008009
-39.5871 41.2114 0.64269 0.592316 -0.80523 -0.026591
-40.304 40.6967 -0.178925 0.608764 -0.792776 -0.0301274
-40.4305 40.6048 -0.323253 0.607939 -0.793486 -0.0281055
57.6061 29.5629 17.4112 -0.409408 -0.912149 -0.0192385
58.4053 29.2235 16.4382 -0.389364 -0.92107 -0.00516232
58.766 29.0725 16.0042 -0.395809 -0.918265 -0.0111777
58.5902 29.1631 14.8375 -0.404781 -0.91441 -0.00259763
57.7996 29.504 15.7982 -0.418613 -0.908143 -0.00627826
56.8913 29.8998 16.9155 -0.4215 -0.906354 -0.029335
56.5847 30.0266 17.2932 -0.417575 -0.907986 -0.0345445
55.2655 30.63 17.5547 -0.427192 -0.903002 -0.0457669
56.0647 30.2932 16.5636 -0.424043 -0.904973 -0.0347899
56.8679 29.9427 15.5672 -0.424758 -0.905167 -0.015884
57.7903 29.5184 14.4243 -0.40478 -0.91441 -0.00259912
58.128 29.3683 14.0106 -0.405951 -0.913895 0.000104191
57.6942 29.5728 13.1569 -0.425326 -0.904965 0.0116593
56.6945 30.0415 14.3986 -0.448469 -0.893773 -0.00668383
55.9086 30.4194 15.3909 -0.451692 -0.891488 -0.0349828
55.1058 30.7731 16.3935 -0.446662 -0.892601 -0.0612864
54.3584 31.0981 17.3311 -0.464363 -0.883191 -0.0658858
54.1782 31.176 17.5573 -0.475966 -0.87736 -0.0607943
53.1254 31.7732 17.5638 -0.520058 -0.851446 -0.0676647
53.8721 31.4114 16.5933 -0.497104 -0.864927 -0.0692054
54.6167 31.0798 15.6552 -0.486434 -0.87142 -0.063316
55.4114 30.7127 14.6537 -0.475158 -0.878934 -0.0412366
56.2 30.3167 13.6465 -0.478309 -0.878042 -0.0162158
56.9667 29.9362 12.6752 -0.453629 -0.891081 -0.0139514
57.0582 29.8915 12.5608 -0.453606 -0.891093 -0.0139607
56.6536 30.1099 11.6806 -0.477855 -0.878421 -0.00558475
55.7655 30.5678 12.8177 -0.491994 -0.870349 -0.0208431
54.9649 30.9858 13.8545 -0.496466 -0.866591 -0.050414
54.1656 31.379 14.8782 -0.489368 -0.870574 -0.0511841
53.2804 31.8061 16.0163 -0.510649 -0.857482 -0.0629512
52.3542 32.2814 17.2467 -0.548746 -0.832706 -0.0740155
52.3033 32.3087 17.3159 -0.548744 -0.832707 -0.0740174
51.563 32.8263 16.9813 -0.559187 -0.826435 -0.0656901
52.3171 32.407 15.9359 -0.537657 -0.84056 -0.0662142
53.0806 32.027 14.9385 -0.532837 -0.842456 -0.0797059
53.8425 31.64 13.951 -0.506631 -0.860105 -0.0595441
54.5649 31.2621 13.0083 -0.507146 -0.861128 -0.0355327
55.3521 30.8341 11.977 -0.520431 -0.853404 -0.0291939
56.1354 30.4027 10.9563 -0.494077 -0.869352 -0.0107284
55.9239 30.5235 9.83489 -0.506418 -0.862255 0.00758577
55.2038 30.9521 10.7893 -0.517963 -0.855262 -0.015566
54.4517 31.3896 11.7898 -0.516109 -0.855778 -0.0357032
53.7319 31.7897 12.7417 -0.523208 -0.850695 -0.05071
52.849 32.2674 13.9099 -0.53953 -0.83825 -0.0790223
51.8173 32.8242 15.2804 -0.578162 -0.809227 -0.104307
51.0845 33.2303 16.3026 -0.592842 -0.802279 -0.0699005
51.0188 33.2703 16.3967 -0.591456 -0.803155 -0.0715708
50.6531 33.6403 15.5749 -0.621947 -0.776367 -0.102156
51.5778 33.1064 14.2851 -0.600972 -0.794394 -0.0881581
52.2956 32.7006 13.3205 -0.561848 -0.823919 -0.0740565
53.1096 32.2312 12.2232 -0.558322 -0.827395 -0.0607789
53.8345 31.808 11.2502 -0.548381 -0.835795 -0.0269261
54.6255 31.3224 10.1743 -0.526336 -0.850252 -0.00644902
55.3581 30.8551 9.18212 -0.536339 -0.843953 0.00915076
55.7325 30.6237 8.68399 -0.509499 -0.860426 0.00878989
55.5701 30.6979 7.49241 -0.511435 -0.858989 0.0238962
54.8753 31.1495 8.42869 -0.539096 -0.842083 0.016477
54.0836 31.6681 9.51174 -0.549276 -0.83564 -0.00117842
53.3765 32.132 10.4989 -0.560248 -0.828087 -0.0198388
52.6194 32.6095 11.5403 -0.565044 -0.823917 -0.0434255
51.7782 33.1249 12.6932 -0.591433 -0.801994 -0.0837392
50.8386 33.6978 13.9923 -0.609834 -0.788588 -0.0789383
50.0892 34.1692 15.0731 -0.637245 -0.765237 -0.0912771
49.8649 34.3183 15.4122 -0.666587 -0.741136 -0.0798667
49.1836 35.0028 15.1809 -0.697365 -0.715307 -0.04493
49.9782 34.3999 13.9194 -0.659545 -0.746299 -0.0896581
50.6659 33.9469 12.9275 -0.616599 -0.784605 -0.0648194
51.5718 33.3586 11.6435 -0.587853 -0.806999 -0.0564014
52.52 32.7284 10.3116 -0.592367 -0.805322 -0.0236066
53.2297 32.2507 9.31079 -0.570697 -0.821147 0.00473654
53.9348 31.7633 8.31168 -0.550359 -0.834872 0.00965234
54.243 31.5507 7.88572 -0.554382 -0.832171 0.012326
52.5018 32.7639 8.94294 -0.587913 -0.80892 -0.00278308
51.6634 33.3631 10.1576 -0.591213 -0.806255 -0.0205123
50.991 33.8275 11.1219 -0.607192 -0.793479 -0.0413424
50.1162 34.4323 12.4005 -0.638033 -0.76687 -0.0694544
49.3748 34.967 13.5258 -0.653638 -0.754687 -0.0566014
48.6839 35.523 14.6536 -0.697363 -0.715308 -0.0449323
48.4699 35.7231 15.0451 -0.705589 -0.708166 -0.0254062
47.719 36.452 14.9411 -0.691464 -0.7224 0.00411297
48.4137 35.824 13.7199 -0.67538 -0.736652 -0.0347168
49.0394 35.3223 12.707 -0.64973 -0.759643 -0.0281752
49.8804 34.686 11.4039 -0.627244 -0.777649 -0.0427413
50.6769 34.1062 10.2111 -0.611156 -0.791108 -0.025232
51.0853 33.8148 9.61436 -0.603899 -0.796772 -0.021455
50.1722 34.5265 9.58809 -0.617705 -0.786172 -0.019351
49.4834 35.0397 10.6357 -0.632238 -0.77429 -0.0273887
48.8531 35.5255 11.6236 -0.637675 -0.769596 -0.0330355
48.2204 36.0245 12.6279 -0.648394 -0.760791 -0.0279721
47.6715 36.4958 13.5513 -0.653145 -0.757208 -0.00620978
47.961 36.2723 11.6439 -0.643752 -0.765137 -0.0121894
48.6348 35.7371 10.5714 -0.633448 -0.773575 -0.0180389
48.9774 35.4698 10.0268 -0.627291 -0.778573 -0.0181591
48.2779 36.0413 9.7059 -0.628662 -0.777636 -0.00822683
47.8448 36.382 10.3981 -0.629905 -0.776611 -0.00972631
56.8123 28.5117 -17.2385 -0.325737 -0.944014 0.0522863
56.0679 28.8264 -16.4033 -0.339791 -0.938916 0.054576
55.6864 29.002 -15.9715 -0.367169 -0.926129 0.0864392
55.205 29.1124 -16.7659 -0.347035 -0.933285 0.0924437
55.9091 28.8024 -17.5631 -0.328228 -0.941644 0.0746481
56.0454 28.7435 -17.7167 -0.322124 -0.944642 0.0623487
28.5213 47.3104 -12.1297 -0.493724 -0.842082 0.217106
28.1276 47.688 -11.5572 -0.48808 -0.846446 0.212856
27.1468 48.2461 -11.6353 -0.498271 -0.844159 0.197792
27.7605 47.6387 -12.5443 -0.496917 -0.834814 0.236978
28.3582 47.0168 -13.4308 -0.504242 -0.818257 0.276035
28.9221 46.3779 -14.2484 -0.503063 -0.810273 0.300641
28.9735 46.3187 -14.3221 -0.508268 -0.806237 0.302731
28.5926 46.181 -15.3145 -0.532913 -0.785626 0.314319
28.0381 46.8576 -14.5053 -0.517517 -0.80912 0.27839
27.465 47.5027 -13.6471 -0.53085 -0.809861 0.249648
26.7367 48.273 -12.537 -0.508995 -0.832041 0.220527
26.0763 48.885 -11.5654 -0.490383 -0.851363 0.186295
25.9267 49.0139 -11.3566 -0.478026 -0.864045 0.157851
24.8644 49.5837 -11.3572 -0.462746 -0.876674 0.131564
25.6533 48.9355 -12.4475 -0.486704 -0.855585 0.176335
26.3143 48.2961 -13.425 -0.508995 -0.832039 0.220531
26.8763 47.6872 -14.2863 -0.52163 -0.817387 0.244501
27.2899 47.2151 -14.9174 -0.539292 -0.789515 0.292969
26.3576 47.8178 -15.0324 -0.554129 -0.800453 0.228509
25.8035 48.4318 -14.1815 -0.538572 -0.818129 0.201508
25.1526 49.0666 -13.2148 -0.50494 -0.842892 0.185927
24.5135 49.6129 -12.3141 -0.490358 -0.859207 0.145987
23.6464 50.25 -11.1445 -0.457293 -0.881283 0.119262
23.5138 50.3432 -10.9636 -0.435824 -0.89207 0.119449
21.8035 51.1991 -10.1735 -0.386003 -0.918009 0.0908896
22.4912 50.8019 -11.0439 -0.412047 -0.904009 0.113953
23.2191 50.344 -12.0111 -0.425079 -0.899416 0.101774
24.0042 49.7777 -13.0549 -0.490363 -0.859204 0.145985
24.6399 49.2254 -13.9591 -0.52262 -0.835432 0.170065
25.2199 48.6561 -14.8289 -0.538324 -0.824592 0.17394
25.2454 48.6304 -14.8677 -0.5716 -0.795759 0.200105
24.308 49.2254 -14.9697 -0.552642 -0.817874 0.160217
23.578 49.883 -13.9074 -0.522769 -0.838975 0.151108
22.84 50.4236 -12.909 -0.446101 -0.887405 0.116217
21.9808 50.9414 -11.7977 -0.392073 -0.91471 0.0978958
21.2532 51.3496 -10.8826 -0.359408 -0.92799 0.0982865
20.4315 51.7603 -9.87195 -0.336378 -0.938289 0.0803958
19.593 52.1118 -8.89545 -0.298514 -0.952407 0.0617288
18.742 52.3854 -7.96496 -0.223711 -0.973339 0.0506378
18.6733 52.4048 -7.89106 -0.218832 -0.974854 0.042105
17.9505 52.5456 -8.45669 -0.204236 -0.978329 0.0340589
18.7944 52.3165 -9.35688 -0.258072 -0.962872 0.0792238
19.7768 51.9318 -10.4734 -0.319881 -0.944426 0.0757341
20.5099 51.5957 -11.3515 -0.375156 -0.923818 0.0762759
21.2516 51.225 -12.2616 -0.390211 -0.918199 0.0681535
21.9515 50.8208 -13.1517 -0.430281 -0.897501 0.096699
22.7059 50.3345 -14.1426 -0.480278 -0.870819 0.104919
23.0547 50.0888 -14.6141 -0.513185 -0.852393 0.100335
21.9161 50.7285 -14.4884 -0.480781 -0.871826 0.093641
21.1021 51.2134 -13.441 -0.421825 -0.90547 0.046765
20.1508 51.6657 -12.2824 -0.382107 -0.9226 0.0529467
19.2326 52.0578 -11.1994 -0.31872 -0.945112 0.0719795
18.4558 52.3545 -10.3232 -0.244157 -0.968547 0.0480025
17.6122 52.5687 -9.43164 -0.168591 -0.984915 0.0389781
17.3366 52.628 -9.14372 -0.156511 -0.986961 0.0375919
16.5562 52.728 -9.65714 -0.1405 -0.989938 0.016798
17.3627 52.5838 -10.4942 -0.158396 -0.98717 0.0201401
18.2152 52.3563 -11.4016 -0.279002 -0.959451 0.0401566
19.2981 51.9648 -12.6262 -0.336801 -0.94097 0.0337658
20.0601 51.6533 -13.5225 -0.391589 -0.919452 0.0355829
20.8896 51.2472 -14.5385 -0.45187 -0.891003 0.0439019
19.8908 51.6975 -14.6679 -0.401294 -0.915916 0.00776641
19.1648 51.9883 -13.8128 -0.345669 -0.938276 0.0122751
18.4217 52.2452 -12.9675 -0.289821 -0.957042 0.00864362
17.6255 52.4852 -12.0955 -0.246982 -0.968991 0.00745199
16.7026 52.6809 -11.1281 -0.168052 -0.985766 0.00492782
15.7103 52.8334 -10.0992 -0.126427 -0.991785 0.0194584
15.5666 52.8534 -9.95071 -0.114558 -0.99339 0.00729945
14.4454 52.9822 -10.1108 -0.115729 -0.99326 0.00637141
15.4729 52.8605 -11.1675 -0.131623 -0.991281 -0.00605662
16.3332 52.74 -12.0576 -0.171939 -0.985027 -0.0125761
17.1278 52.6069 -12.8865 -0.224225 -0.974445 -0.0134078
17.9091 52.4087 -13.7279 -0.278235 -0.960412 -0.013932
18.6724 52.1677 -14.5818 -0.329156 -0.944083 -0.01907
18.9801 52.0605 -14.9375 -0.357041 -0.933914 -0.0180513
17.7457 52.4803 -14.8744 -0.294622 -0.955078 -0.0319833
16.8648 52.682 -13.9247 -0.233573 -0.972184 -0.0173871
16.0048 52.8215 -13.026 -0.149047 -0.988166 -0.0362331
14.9972 52.9394 -11.986 -0.128133 -0.991455 -0.0244551
14.0197 53.0317 -10.9864 -0.102073 -0.994667 -0.0147968
13.5433 53.0706 -10.5002 -0.0865547 -0.996233 0.00538676
12.3995 53.1626 -10.646 -0.073388 -0.997297 -0.00363845
13.2195 53.1087 -11.4814 -0.0816529 -0.996542 -0.0154082
14.113 53.0501 -12.3911 -0.0996373 -0.994639 -0.0276583
14.9895 52.9784 -13.2866 -0.136725 -0.989854 -0.0386809
15.93 52.8887 -14.2535 -0.168071 -0.984386 -0.0523115
16.3411 52.8333 -14.6813 -0.178088 -0.981652 -0.0681406
15.1517 53.0343 -14.7556 -0.134958 -0.986235 -0.0955397
14.2165 53.0913 -13.8016 -0.11247 -0.992789 -0.04148
13.3326 53.136 -12.9049 -0.0810683 -0.996109 -0.0345567
12.3642 53.1833 -11.9206 -0.0719947 -0.997057 -0.0263317
11.463 53.23 -11.0048 -0.0650742 -0.997819 -0.0110311
11.1619 53.2463 -10.6983 -0.0645351 -0.997869 -0.00967634
10.7324 53.2879 -11.574 -0.0703239 -0.997293 -0.0214958
11.6298 53.2502 -12.4842 -0.0689023 -0.997064 -0.0333947
12.4906 53.2178 -13.3576 -0.075123 -0.99647 -0.0374728
13.4814 53.1859 -14.3592 -0.0851861 -0.994865 -0.0546497
14.1809 53.1696 -15.0661 -0.0929771 -0.991797 -0.0877161
13.4126 53.2738 -15.5885 -0.0692102 -0.994447 -0.0792796
12.5656 53.2755 -14.7372 -0.0658166 -0.996447 -0.0525501
11.6997 53.2936 -13.8633 -0.0674734 -0.997075 -0.0359129
10.7599 53.3247 -12.9108 -0.0708098 -0.996923 -0.0336308
10.4998 53.3351 -12.6478 -0.0728367 -0.996825 -0.0321626
10.3426 53.3834 -13.7964 -0.069808 -0.997064 -0.03147
11.2005 53.3573 -14.6653 -0.0614376 -0.99741 -0.0374034
12.019 53.3485 -15.4901 -0.0502727 -0.997429 -0.0510662
12.8699 53.3623 -16.3419 -0.0530501 -0.995361 -0.080264
12.3576 53.4386 -17.1286 -0.0254839 -0.997387 -0.0675986
11.4471 53.4145 -16.2197 -0.0375762 -0.997817 -0.0543
10.2507 53.4274 -15.0136 -0.0586969 -0.997701 -0.033864
10.2082 53.4285 -14.9707 -0.0587052 -0.99772 -0.0332966
9.95521 53.4732 -16.0275 -0.0384716 -0.999005 -0.0225784
10.9887 53.4729 -17.0641 -0.0236145 -0.999004 -0.0378545
11.5875 53.4891 -17.6615 -0.0230515 -0.998525 -0.049159
10.236 53.5045 -17.618 -0.0163246 -0.999425 -0.029711
9.53976 53.508 -16.9228 -0.0386176 -0.99907 -0.0191565
8.88887 53.5387 -17.5796 -0.0295199 -0.999446 -0.0153391
8.8611 53.5392 -17.5518 -0.0276629 -0.999541 -0.0123544
-10.1237 53.5819 17.6005 0.0367617 -0.99859 0.0382988
-9.72133 53.5842 17.1974 0.0424645 -0.998374 0.0380209
-10.1818 53.5303 16.3553 0.0525063 -0.997566 0.0458799
-11.0316 53.5305 17.2073 0.0415864 -0.997701 0.0535073
-11.3702 53.5346 17.5469 0.0330086 -0.997381 0.0643625
-12.1909 53.4788 17.0684 0.0271186 -0.996498 0.0791015
-11.3079 53.4573 16.1842 0.0554671 -0.996593 0.0610434
-10.5553 53.4637 15.4253 0.061143 -0.997147 0.0442697
-10.7585 53.3962 14.3244 0.0761684 -0.996014 0.0464267
-11.6253 53.3831 15.2006 0.0645479 -0.996182 0.0587861
-12.5953 53.3884 16.1768 0.0528701 -0.995768 0.0751682
-12.8391 53.3967 16.4204 0.0455444 -0.995796 0.0794738
-13.403 53.2993 15.6907 0.0650695 -0.99374 0.0908154
-12.4451 53.2944 14.727 0.0733951 -0.99542 0.0612561
-11.5224 53.3138 13.7917 0.0759774 -0.995897 0.0491631
-10.9853 53.3296 13.2462 0.0779093 -0.995947 0.0449454
-10.9229 53.2814 11.8741 0.0769595 -0.996595 0.029586
-11.8209 53.2443 12.7872 0.0764079 -0.996219 0.0413571
-12.8164 53.2123 13.7994 0.0805363 -0.995361 0.0526427
-13.764 53.1964 14.7581 0.0819966 -0.994188 0.0697603
-14.0288 53.1989 15.0247 0.0878258 -0.992528 0.0847031
-15.0595 53.0778 14.7736 0.10061 -0.990179 0.0970754
-14.1444 53.0997 13.844 0.0992738 -0.993137 0.0618422
-13.2832 53.1323 12.9679 0.085413 -0.9953 0.0456289
-12.4163 53.1721 12.0843 0.0797877 -0.996167 0.0358374
-11.5314 53.2155 11.1838 0.0765678 -0.996754 0.0248604
-11.1916 53.2338 10.837 0.0751142 -0.996901 0.0233618
-12.3065 53.1427 10.6622 0.0891746 -0.995757 0.0227339
-13.1686 53.0882 11.5427 0.0956137 -0.994677 0.0384149
-13.9987 53.0391 12.3909 0.105574 -0.993257 0.0478974
-14.8968 52.9834 13.3091 0.127061 -0.98979 0.0645823
-15.8696 52.933 14.3051 0.155184 -0.982917 0.0989566
-16.0664 52.9219 14.5069 0.161601 -0.980705 0.110016
-17.5166 52.6693 14.7193 0.218549 -0.965492 0.141641
-16.568 52.7527 13.7331 0.186806 -0.976901 0.103766
-15.6856 52.8375 12.8172 0.175206 -0.982119 0.068886
-14.7352 52.9243 11.8394 0.13633 -0.989065 0.0562562
-13.7613 52.9997 10.84 0.105064 -0.993746 0.0378209
-13.504 53.0189 10.5759 0.106977 -0.993926 0.0258145
-14.683 52.869 10.4795 0.137594 -0.9899 0.0341462
-15.5743 52.7763 11.3992 0.15518 -0.986918 0.0437268
-16.6365 52.6463 12.5066 0.198498 -0.978745 0.051536
-17.5669 52.5197 13.4832 0.211103 -0.972778 0.0955912
-18.4724 52.3801 14.4457 0.279569 -0.95251 0.120693
-19.1205 52.2439 15.1562 0.361973 -0.929709 0.0679511
-20.0382 51.808 14.921 0.44751 -0.892343 0.0588177
-19.2614 52.057 14.0198 0.387933 -0.914577 0.114264
-18.4072 52.259 13.0892 0.267581 -0.960961 0.0703908
-17.5611 52.4313 12.1824 0.233151 -0.970758 0.0571781
-16.7323 52.5655 11.3056 0.186636 -0.981941 0.0309604
-15.9098 52.6812 10.4425 0.16722 -0.984955 0.0436002
-15.7367 52.7026 10.2627 0.168242 -0.985284 0.0301537
-16.7505 52.523 10.0115 0.186413 -0.982238 0.0214359
-17.7334 52.3455 11.0609 0.222052 -0.974453 0.0336849
-18.6672 52.1353 12.0745 0.265065 -0.964078 0.0171561
-19.4567 51.9116 12.9559 0.359916 -0.930964 0.0613736
-20.2217 51.6608 13.8347 0.441308 -0.896501 0.039164
-21.0602 51.2993 14.8613 0.474105 -0.87983 0.0335053
-21.9054 50.8246 14.6141 0.471064 -0.880838 -0.0471589
-20.806 51.3866 13.2217 0.387307 -0.921866 -0.0125018
-20.0473 51.6957 12.3115 0.34799 -0.937498 0.000893736
-19.151 51.9883 11.2881 0.290884 -0.956639 0.0150903
-17.9662 52.2709 9.98986 0.226908 -0.973833 0.0127215
-17.5074 52.3617 9.49553 0.199673 -0.979748 0.0150201
-18.2591 52.191 8.98113 0.235397 -0.971813 -0.0129651
-19.115 51.9738 9.92429 0.241982 -0.970278 0.00237405
-19.9828 51.7177 10.9055 0.305276 -0.952215 0.00964341
-20.9637 51.3297 12.0662 0.368221 -0.929712 -0.00701488
-21.7983 50.9459 13.0992 0.436861 -0.89804 -0.0517334
-22.567 50.4829 14.1113 0.500134 -0.86483 -0.0439774
-23.0738 50.1438 14.8016 0.54328 -0.836636 -0.0699125
-24.3082 49.2526 15.1712 0.588043 -0.794483 -0.151667
-23.6296 49.8594 14.1626 0.524514 -0.844278 -0.10991
-22.932 50.3767 13.1874 0.486249 -0.869168 -0.0900459
-22.2392 50.7797 12.2804 0.417677 -0.906928 -0.055031
-21.4922 51.1399 11.3537 0.376628 -0.925793 -0.0325311
-20.7114 51.478 10.4084 0.340531 -0.939824 -0.0277371
-19.8757 51.7543 9.44277 0.285011 -0.958461 -0.0109815
-19.096 51.9938 8.56464 0.235403 -0.971811 -0.0129653
-18.9278 52.0376 8.37862 0.233086 -0.972275 -0.0187544
-19.6673 51.8576 7.85491 0.265118 -0.963823 -0.0275363
-20.5726 51.5607 8.88911 0.295062 -0.954404 -0.0452991
-21.3392 51.2685 9.79961 0.340533 -0.939823 -0.0277312
-22.0604 50.9448 10.6778 0.373875 -0.925505 -0.0604832
-22.916 50.4851 11.7629 0.441698 -0.894551 -0.0684138
-23.6391 50.0168 12.732 0.50375 -0.858893 -0.0924032
-24.2703 49.5363 13.6222 0.519063 -0.846884 -0.115592
-25.0756 48.7334 14.8734 0.599937 -0.785479 -0.151982
-25.1213 48.6846 14.9456 0.599936 -0.78548 -0.151981
-26.0856 47.9688 14.9332 0.594781 -0.779112 -0.19804
-25.5366 48.593 14.0518 0.564686 -0.807668 -0.169713
-24.7674 49.3227 12.8906 0.532953 -0.83676 -0.125672
-24.0993 49.8411 11.9614 0.493033 -0.865035 -0.0929163
-23.334 50.3518 10.9039 0.433157 -0.898686 -0.0688375
-22.9097 50.5932 10.3588 0.430123 -0.900436 -0.0648828
-24.6259 49.6347 11.2601 0.461563 -0.880371 -0.109116
-25.2646 49.1337 12.1616 0.499503 -0.853014 -0.151206
-25.9616 48.4831 13.2001 0.526273 -0.830547 -0.182284
-26.8277 47.5473 14.5456 0.553558 -0.801438 -0.226432
-26.8908 47.4674 14.65 0.592152 -0.765869 -0.250601
-28.0984 46.4237 15.0372 0.584278 -0.757549 -0.291098
-27.3658 47.3768 13.8243 0.561169 -0.787868 -0.253682
-26.804 48.0153 12.9456 0.54207 -0.813868 -0.209234
-26.1642 48.6123 12.0055 0.508735 -0.842853 -0.175462
-25.7617 48.9723 11.4092 0.499926 -0.855983 -0.131783
-26.6626 48.4626 11.239 0.500564 -0.854081 -0.141356
-27.3861 47.7853 12.3002 0.531218 -0.825071 -0.192526
-28.0184 47.0695 13.299 0.564292 -0.790293 -0.238772
-28.5387 46.424 14.1527 0.576585 -0.763354 -0.291273
-29.0321 45.7727 14.909 0.560742 -0.762934 -0.321713
-29.488 45.7995 14.0296 0.551805 -0.776645 -0.303864
-28.9235 46.4858 13.1709 0.536012 -0.806109 -0.250758
-28.3254 47.175 12.2146 0.540064 -0.811515 -0.223102
-27.7454 47.7666 11.332 0.533773 -0.828195 -0.170822
-27.4928 48.0063 10.9594 0.530424 -0.833712 -0.153541
-28.2718 47.5781 10.6178 0.525263 -0.833669 -0.170572
-28.8663 47.0187 11.5015 0.521206 -0.828102 -0.206378
-29.0138 46.8569 11.7322 0.522534 -0.818169 -0.239914
-51.8307 29.6351 17.4917 0.378752 -0.916162 -0.131124
-51.2355 30.0298 16.7243 0.454671 -0.883918 -0.109374
-51.8954 29.7802 16.1357 0.405685 -0.906846 -0.11424
-52.636 29.3438 17.0543 0.398813 -0.911661 -0.0991044
-53.0366 29.1445 17.5295 0.338606 -0.93702 -0.0856644
-53.9755 28.8334 17.2301 0.331231 -0.941365 -0.0641763
-53.0577 29.2694 16.1545 0.36432 -0.926146 -0.0975907
-52.7412 29.4497 15.7703 0.403907 -0.90727 -0.117132
-53.1234 29.392 14.8335 0.391377 -0.915969 -0.0884545
-53.7935 29.0348 15.6337 0.364319 -0.926147 -0.0975938
-54.5865 28.6676 16.5581 0.339478 -0.937338 -0.0784362
-55.1265 28.4319 17.1743 0.318192 -0.946006 -0.0618496
-56.0969 28.1332 16.9011 0.315885 -0.947567 -0.0483003
-55.2595 28.4695 15.9644 0.338055 -0.938535 -0.069791
-54.1712 28.9743 14.6995 0.348441 -0.933772 -0.0815943
-53.7067 29.2195 14.1454 0.386242 -0.915821 -0.109948
-54.4727 28.9496 13.6814 0.377439 -0.921316 -0.0933622
-55.404 28.5055 14.7688 0.342285 -0.937161 -0.0676082
-55.7679 28.3495 15.1802 0.32816 -0.941809 -0.0728477
-55.5839 28.5278 13.6141 0.357268 -0.930751 -0.0778529
-54.9161 28.8532 12.8397 0.377437 -0.921316 -0.0933645
-48.2075 34.2421 -9.69471 0.60077 -0.796574 0.0674216
-47.7898 34.5005 -10.3036 0.605879 -0.792157 0.0734667
-47.6883 34.4391 -11.7993 0.613222 -0.785879 0.0797042
-48.6092 33.8699 -10.461 0.59722 -0.797292 0.0874881
-49.0728 33.5916 -9.79299 0.588151 -0.805299 0.074649
-50.2142 32.8079 -9.5422 0.568598 -0.819073 0.0762615
-49.4388 33.2449 -10.6162 0.578507 -0.810533 0.0914685
-48.6072 33.7265 -11.7822 0.602828 -0.792382 0.0934294
-47.8655 34.1754 -12.8476 0.621275 -0.776567 0.104699
-47.6093 34.3432 -13.2325 0.638572 -0.765389 0.0800373
-47.3113 34.4213 -15.0582 0.698848 -0.712888 0.0583193
-48.2821 33.7502 -13.5259 0.644439 -0.754348 0.125128
-49.1327 33.2522 -12.3266 0.595322 -0.796532 0.105488
-50.09 32.742 -11.0437 0.5547 -0.827293 0.088846
-50.8881 32.319 -9.97024 0.549978 -0.832154 0.0710148
-51.521 31.9751 -9.12279 0.535526 -0.843466 0.0421439
-53.3353 30.9119 -8.12223 0.51335 -0.857968 0.0190196
-52.4525 31.3886 -9.25885 0.515328 -0.855451 0.0513795
-51.5469 31.8573 -10.4349 0.526195 -0.846919 0.0764653
-50.6681 32.2855 -11.5742 0.538889 -0.834593 0.114249
-49.8351 32.7091 -12.668 0.570236 -0.814563 0.106383
-48.7882 33.2463 -14.0562 0.625543 -0.768727 0.133244
-48.0277 33.7196 -15.1819 0.700004 -0.701891 0.131693
-48.0174 33.7267 -15.1985 0.700004 -0.701891 0.131693
-48.6917 33.0584 -15.4222 0.651266 -0.744277 0.148001
-49.5415 32.6237 -14.2746 0.5971 -0.782604 0.176076
-50.5754 32.1456 -12.9649 0.524403 -0.838713 0.146836
-51.4839 31.7479 -11.8274 0.518795 -0.84955 0.0954862
-52.3187 31.3596 -10.7687 0.516583 -0.852911 0.0753908
-53.1647 30.9483 -9.69757 0.495322 -0.867102 0.0528252
-53.9951 30.5232 -8.64804 0.47963 -0.877205 0.0215834
-54.7971 30.0961 -7.63792 0.4698 -0.882729 0.00874721
-55.8351 29.5556 -6.35064 0.459019 -0.888424 0.00205308
