22.6568 52.3453 19.6946 -0.585648 -0.810403 0.00316142
23.0565 52.0471 19.6919 -0.619783 -0.784635 0.00414822
23.4753 51.7081 19.7182 -0.632662 -0.774363 0.00902745
23.6889 51.5357 20.0986 -0.635649 -0.771945 0.00719443
23.3168 51.8431 20.1895 -0.632656 -0.774368 0.00903106
22.844 52.2114 20.193 -0.603878 -0.796839 0.0120686
22.4045 52.5262 20.2474 -0.575492 -0.81746 0.0238215
21.9871 52.804 20.2102 -0.531907 -0.846353 -0.00334999
21.521 53.0858 20.1525 -0.52211 -0.852775 0.0132841
20.9402 53.3894 20.1738 -0.436364 -0.899488 0.013972
20.3865 53.6422 20.1047 -0.38143 -0.924212 0.01856
20.1179 53.7498 20.155 -0.342612 -0.939446 0.00758487
19.4547 53.9763 20.1483 -0.290767 -0.956707 0.0129048
18.8856 54.143 20.1825 -0.23877 -0.970738 0.025377
18.3514 54.2669 20.207 -0.200258 -0.979388 0.0263812
17.8944 54.3611 20.1793 -0.168056 -0.985515 0.0181925
17.8332 54.3635 19.7236 -0.172962 -0.984795 0.0106046
18.3284 54.2641 19.7011 -0.211854 -0.977236 0.0112896
18.6918 54.1841 19.7241 -0.227986 -0.973655 0.00422917
19.3247 54.0098 19.7149 -0.289939 -0.95694 0.0142004
19.8736 53.8341 19.8625 -0.329724 -0.943921 0.0171519
20.3472 53.6556 19.7818 -0.367111 -0.930175 -0.00213258
20.8062 53.4556 19.7539 -0.440361 -0.897772 0.00292783
21.2445 53.2336 19.7 -0.448044 -0.893913 -0.0132574
21.802 52.9185 19.6912 -0.509984 -0.860104 -0.0112731
22.2186 52.6516 19.7273 -0.547973 -0.836463 -0.00745645
22.4604 52.4833 19.7668 -0.578327 -0.815744 -0.00998746
22.512 52.4512 19.2596 -0.584382 -0.810699 -0.0272478
22.077 52.7559 19.2377 -0.561557 -0.82689 -0.0301162
21.6424 53.028 19.1828 -0.51734 -0.851837 -0.082053
21.1959 53.2673 19.2423 -0.447783 -0.892063 -0.0524819
20.75 53.4882 19.2888 -0.447753 -0.892565 -0.053333
20.2797 53.6855 19.2722 -0.363664 -0.931074 -0.0234409
19.8165 53.8571 19.3011 -0.328328 -0.944364 -0.0194199
19.3214 54.0137 19.2596 -0.275694 -0.960989 -0.0222057
18.8309 54.1437 19.2635 -0.250462 -0.968099 0.00731094
18.0214 54.3243 19.2378 -0.191742 -0.981329 0.00195451
17.5415 54.4111 19.3515 -0.184956 -0.982664 -0.0106841
17.1633 54.4635 19.9106 -0.120323 -0.99269 0.00944783
17.3317 54.4577 20.4226 -0.147413 -0.988499 0.0303022
17.8011 54.3938 20.6354 -0.165142 -0.984287 0.0596257
18.3131 54.2946 20.687 -0.204569 -0.977016 0.0599268
18.8269 54.1708 20.6655 -0.250337 -0.966624 0.0544991
19.3715 54.0168 20.6344 -0.285916 -0.956768 0.0533552
19.8905 53.8471 20.6493 -0.359594 -0.9311 0.0612024
20.4833 53.6111 20.6117 -0.388513 -0.921335 0.0140798
20.947 53.4031 20.6434 -0.437902 -0.897921 0.0405663
21.432 53.1484 20.6341 -0.484157 -0.874057 0.0336056
21.8704 52.89 20.6777 -0.515132 -0.856084 0.0419557
22.4238 52.5278 20.693 -0.558651 -0.828004 0.0442781
22.8875 52.1903 20.6836 -0.596808 -0.801334 0.0405902
23.3408 51.8306 20.645 -0.621955 -0.782654 0.0218854
23.8748 51.3829 20.6801 -0.648881 -0.760852 0.00620174
24.1094 51.1749 20.0728 -0.652922 -0.757392 0.000920574
24.056 51.2277 19.4951 -0.648549 -0.761113 -0.00956988
23.7933 51.4486 19.2404 -0.637286 -0.77061 -0.00493251
23.2837 51.8665 19.2468 -0.631709 -0.775182 -0.00536432
22.7849 52.2559 19.2206 -0.605313 -0.795871 -0.00360547
22.7799 52.2595 19.2209 -0.589565 -0.807624 -0.00798859
22.7984 52.2607 18.7422 -0.610263 -0.79138 -0.034814
23.2133 51.9284 18.7702 -0.631889 -0.775022 -0.00751365
23.6952 51.5351 18.742 -0.633577 -0.77361 -0.0103555
24.0772 51.2173 18.7527 -0.643592 -0.76498 -0.0243715
24.4345 50.9067 19.0312 -0.659705 -0.75152 -0.00280366
24.4242 50.914 19.527 -0.643162 -0.765719 -0.00419526
24.4547 50.8637 20.1531 -0.673905 -0.737746 -0.0285458
24.4582 50.8598 20.8304 -0.680383 -0.732791 0.00941874
24.1236 51.1759 21.1749 -0.676298 -0.736081 0.02839
23.7288 51.5289 21.1279 -0.656569 -0.753485 0.0343237
23.3429 51.8581 21.1651 -0.62851 -0.776453 0.0431439
22.943 52.1725 21.1494 -0.604209 -0.792977 0.0725286
22.5418 52.4706 21.1722 -0.567856 -0.820459 0.0662374
22.1134 52.76 21.1476 -0.547176 -0.834561 0.0640808
21.5479 53.098 21.1326 -0.499503 -0.865225 0.043386
21.0405 53.3744 21.1275 -0.453159 -0.888718 0.0694723
20.4209 53.6649 21.1046 -0.380099 -0.92106 0.0846944
19.9502 53.8558 21.1179 -0.339952 -0.936868 0.0811258
19.3382 54.0583 21.1235 -0.284923 -0.954646 0.0864328
18.8602 54.1937 21.1315 -0.240528 -0.967738 0.0750299
18.3275 54.3213 21.1588 -0.213126 -0.973018 0.0883963
17.8117 54.4193 21.1259 -0.184131 -0.980072 0.0745289
17.2998 54.4963 21.0653 -0.140097 -0.988195 0.0619909
16.9331 54.5141 20.6555 -0.117854 -0.991738 0.0506552
16.5952 54.5237 20.0941 -0.069947 -0.997213 0.0259665
16.816 54.5123 19.5793 -0.118591 -0.991602 -0.0397994
17.0465 54.4902 19.1345 -0.142216 -0.989452 -0.0275439
17.4779 54.429 18.8394 -0.202711 -0.979082 -0.00280133
18.0321 54.3199 18.7814 -0.195922 -0.980556 0.00513103
18.6768 54.1856 18.7946 -0.224762 -0.974225 -0.00549731
19.2565 54.0392 18.777 -0.263418 -0.964398 -0.023407
19.7458 53.8989 18.8273 -0.317749 -0.946793 -0.0511773
20.2312 53.7255 18.7647 -0.347409 -0.936087 -0.0526562
20.7019 53.5402 18.8218 -0.405633 -0.911724 -0.0448208
21.1538 53.3294 18.7896 -0.468618 -0.880168 -0.0741172
21.6312 53.0854 18.7091 -0.465051 -0.880895 -0.0880407
22.1319 52.7533 18.7455 -0.572097 -0.817686 -0.0628635
22.7059 52.3322 18.7401 -0.610935 -0.791268 -0.0255822
22.7107 52.3285 18.7394 -0.610932 -0.79127 -0.025581
