22.8167 51.3702 -8.81989 -0.412622 -0.905475 0.0992862
24.1461 50.6606 -9.52483 -0.448316 -0.887007 0.110595
25.6987 49.8233 -9.95081 -0.450265 -0.885692 0.113152
27.0682 49.1057 -9.9075 -0.464938 -0.875157 0.133855
28.5325 48.3696 -9.73532 -0.454178 -0.877557 0.153676
29.9168 47.6804 -9.46757 -0.470555 -0.866347 0.167388
29.8971 47.3955 -10.8591 -0.470621 -0.858528 0.203579
30.0805 46.9598 -12.2184 -0.479794 -0.836676 0.264035
30.3182 46.33 -13.6838 -0.488704 -0.822325 0.291461
30.8667 45.6274 -14.7415 -0.477026 -0.821124 0.313357
31.4305 44.9099 -15.7774 -0.459902 -0.82901 0.31817
32.0571 44.0708 -17.094 -0.430896 -0.844114 0.319063
32.9359 43.2141 -18.3573 -0.406656 -0.874456 0.263853
33.6544 42.6595 -19.1851 -0.427842 -0.890746 0.153132
31.9905 43.4878 -18.9904 -0.394043 -0.90149 0.179015
30.6091 44.1118 -19.1142 -0.366799 -0.887461 0.274957
29.3774 44.8659 -19.1466 -0.60792 -0.76093 0.226754
28.7175 45.5406 -18.4031 -0.523341 -0.810284 0.263733
28.0776 46.4104 -17.1516 -0.524874 -0.787899 0.32206
26.9375 47.3866 -16.6811 -0.564316 -0.770168 0.297304
25.7075 48.3383 -16.5912 -0.597163 -0.765821 0.238568
24.4374 49.3118 -16.6353 -0.582415 -0.795591 0.166811
23.3106 50.1831 -16.5474 -0.58337 -0.804926 0.107625
22.1342 50.9931 -16.626 -0.533391 -0.84454 0.0408178
21.4466 51.4588 -16.3989 -0.511919 -0.857333 0.0103727
21.2877 51.5708 -17.7746 -0.570682 -0.8202 -0.0399223
19.9589 52.3416 -17.8999 -0.379045 -0.912585 -0.136283
18.641 52.9109 -17.8918 -0.374504 -0.911799 -0.16843
17.357 53.3338 -17.3977 -0.345361 -0.910936 -0.215784
16.0483 53.5823 -17.1657 -0.114394 -0.966074 -0.231549
14.7643 53.7436 -17.8273 0.00229168 -0.99417 -0.107801
14.2158 53.8254 -19.2186 0.0199189 -0.999265 -0.0327534
13.5051 53.8455 -20.3814 0.00308927 -0.999903 -0.013281
11.8522 53.8445 -20.3242 -0.00336141 -0.999885 -0.0148068
10.3145 53.8478 -20.3973 0.000836431 -0.999933 -0.0115241
8.85599 53.8555 -20.4283 -0.0119601 -0.999874 -0.0104036
7.39627 53.8697 -20.3962 -0.0104206 -0.9999 -0.00878472
5.8651 53.8886 -20.4161 -0.00585971 -0.999938 -0.00941707
4.46618 53.8936 -20.3944 -0.00476075 -0.999989 0.000210406
3.06558 53.9028 -20.3708 -0.00433348 -0.999989 0.00167829
1.68227 53.9154 -20.4168 -0.0154658 -0.999852 0.00756772
0.0855528 53.9404 -20.4571 -0.0168868 -0.999818 0.00806696
-1.35952 53.9649 -20.4845 -0.0204149 -0.999764 0.00736213
-2.97847 53.9938 -20.4775 -0.0161829 -0.999857 0.00495767
-4.36142 54.0195 -20.4286 -0.0155991 -0.999864 -0.0011599
-5.93581 54.0412 -20.4394 -0.0122126 -0.999822 0.0143999
-7.46768 54.0542 -20.3689 -0.0168825 -0.999818 0.00889732
-9.0383 54.0819 -20.4246 -0.0124314 -0.999908 0.00545406
-10.4953 54.1055 -20.4262 -0.0186126 -0.999772 -0.0104557
-11.8857 54.133 -20.4065 -0.0188819 -0.999781 -0.00897601
-13.3136 54.1493 -20.3908 -0.00698289 -0.999945 -0.00788333
-13.9316 54.1434 -19.4528 0.0027663 -0.999972 -0.00696488
-14.1999 54.12 -17.9762 0.0154914 -0.999055 -0.04058
-13.0812 54.1401 -18.4794 0.00648004 -0.999977 -0.000497712
-11.7349 54.1305 -18.8484 -0.0198358 -0.999725 0.0124928
-10.2124 54.1045 -18.8949 -0.0178443 -0.999644 0.019814
-8.84804 54.0992 -18.8034 -0.00950435 -0.999335 0.0352122
-7.41561 54.085 -18.8352 -0.0154852 -0.999274 0.0348157
-6.02837 54.076 -18.7891 -0.00388611 -0.999152 0.0409836
-4.39622 54.0552 -18.8433 -0.0178626 -0.999361 0.0309648
-2.90355 54.0248 -18.838 -0.020718 -0.999224 0.0334955
-1.40789 54.0001 -18.8059 -0.0104739 -0.999248 0.037318
0.147717 53.9794 -18.816 -0.0219075 -0.999078 0.0369168
1.57968 53.9464 -18.8784 -0.0182631 -0.999367 0.0277508
3.01241 53.9245 -18.7589 -0.0273002 -0.999159 0.0305818
4.43798 53.9264 -18.1351 -0.00890744 -0.999129 0.0403479
5.50147 53.9455 -17.2071 -0.022782 -0.999287 0.0301063
6.31271 53.943 -16.0475 -0.0408262 -0.999086 0.0126683
7.14964 53.915 -14.4274 -0.0585989 -0.998282 0.000278798
7.66287 53.8709 -12.957 -0.0693283 -0.99753 -0.0113149
7.9304 53.8133 -11.4232 -0.078732 -0.99635 -0.0329824
7.96739 53.7634 -10.0207 -0.063067 -0.997471 -0.0327583
7.36855 53.7641 -8.71291 -0.0540989 -0.998339 -0.0196393
6.37004 53.7992 -7.62747 -0.0587773 -0.99798 -0.0241227
5.33181 53.8276 -6.7127 -0.0384089 -0.998768 -0.0314361
4.20707 53.847 -5.59148 -0.048816 -0.998292 -0.0320839
3.17038 53.8677 -4.57728 -0.0392334 -0.998793 -0.0295663
2.25094 53.8816 -3.55636 -0.0348567 -0.999237 -0.0173048
1.20692 53.9018 -2.60421 -0.0275085 -0.999588 -0.00801326
0.140594 53.9187 -1.58332 -0.0183803 -0.999658 -0.0185843
-0.76737 53.9101 -0.525458 -0.00982377 -0.999799 -0.0166786
-1.89535 53.9068 0.441324 -0.00750879 -0.999873 -0.0140391
-2.96555 53.8869 1.52221 0.0104849 -0.999726 -0.0201336
-3.9131 53.8563 2.61457 0.00953909 -0.999908 -0.00968842
-5.18103 53.8149 3.66179 0.0187643 -0.999686 -0.0162795
-6.11161 53.7764 4.75343 0.0347428 -0.999396 -0.000542565
-7.16728 53.7324 5.76105 0.0329644 -0.999351 -0.0144954
-8.2428 53.6883 6.81407 0.0316243 -0.999493 -0.00356111
-9.48726 53.6391 7.85035 0.0504956 -0.998723 0.0017025
-10.8879 53.5623 8.03715 0.0591741 -0.998247 0.000932675
-12.3023 53.4558 7.97225 0.086186 -0.996261 0.00595274
-13.7626 53.3006 7.57177 0.122021 -0.992463 0.00469276
-15.0747 53.1303 7.23601 0.13536 -0.990773 -0.00159828
-16.5305 52.9252 6.42463 0.144733 -0.989444 -0.00720305
-17.7772 52.7516 5.43188 0.14631 -0.989165 -0.0121102
-18.606 52.64 4.34626 0.165254 -0.98621 -0.00895238
-18.9403 52.5979 2.80452 0.175391 -0.9844 -0.0139886
-18.905 52.6473 1.40937 0.168905 -0.984645 -0.0441067
-18.8348 52.7137 0.0056488 0.148453 -0.988243 -0.0365153
-18.8366 52.7665 -1.53858 0.138623 -0.989948 -0.0278897
-18.8084 52.8122 -2.97383 0.14571 -0.988877 -0.0298392
-18.7813 52.8562 -4.3464 0.150278 -0.988218 -0.0290233
-18.8097 52.8993 -5.93947 0.1554 -0.987381 -0.0304785
-18.7148 52.9683 -7.42519 0.15769 -0.986773 -0.0375846
-18.7119 53.0276 -8.91992 0.166058 -0.985107 -0.0445754
-18.7456 53.0832 -10.299 0.169195 -0.984753 -0.0404084
-18.8217 53.13 -11.7183 0.175911 -0.983537 -0.0413507
-18.5795 53.2306 -13.088 0.198826 -0.979807 -0.0211473
-17.9954 53.4013 -14.3215 0.192816 -0.979396 -0.0600436
-17.1331 53.6349 -15.3897 0.176178 -0.980683 -0.0849634
-16.3081 53.8677 -16.4253 0.0942423 -0.9921 -0.0828031
-15.0467 54.0523 -17.3715 0.0482341 -0.995467 -0.0819691
-15.1177 54.0827 -17.7824 0.0472748 -0.995487 -0.0822786
-16.4629 54.0019 -17.7955 0.0422032 -0.985147 -0.166444
-18.141 53.657 -17.3483 0.19886 -0.971504 -0.125839
-19.649 53.2752 -17.477 0.305834 -0.942689 -0.13343
-20.9297 52.8401 -17.6744 0.437449 -0.894417 -0.0823488
-22.1381 52.1311 -17.9118 0.598291 -0.801222 -0.000419115
-23.3558 51.1812 -17.905 0.619377 -0.784045 0.0405708
-23.3411 51.2418 -17.1217 0.615841 -0.786092 0.0529156
-22.4995 51.8639 -16.2224 0.513501 -0.858075 0.00496027
-21.6426 52.3249 -14.9204 0.427225 -0.903962 -0.0181923
-20.8747 52.6539 -13.5147 0.30553 -0.952058 0.0154049
-20.4112 52.8201 -12.1862 0.250066 -0.967642 -0.0199926
-20.4759 52.7654 -10.8145 0.20854 -0.977771 -0.0217969
-20.4955 52.7071 -9.39074 0.236288 -0.970976 -0.0364923
-20.4569 52.6784 -7.85956 0.205775 -0.977938 -0.0311573
-20.5014 52.6136 -6.37083 0.192998 -0.981022 -0.0186316
-20.479 52.5853 -4.81051 0.179498 -0.983276 -0.0307919
-20.6089 52.5109 -3.23668 0.226727 -0.973262 -0.0368227
-20.5651 52.4843 -1.85071 0.222122 -0.974933 -0.0129473
-20.5 52.4456 -0.399371 0.210455 -0.975187 -0.0686919
-20.5076 52.3321 1.1058 0.233353 -0.971016 -0.0517175
-20.4838 52.2695 2.53371 0.251047 -0.967355 -0.0346247
-20.5685 52.2235 3.84798 0.24634 -0.969184 0.000136835
-21.4014 52.0049 5.42114 0.316475 -0.94803 0.00960174
-22.6439 51.458 6.55151 0.387893 -0.920589 -0.045327
-23.9116 50.8254 7.48863 0.430988 -0.900479 -0.056935
-25.3888 50.0338 8.14565 0.468395 -0.880539 -0.0724806
-26.7193 49.3012 8.32655 0.480175 -0.872852 -0.086959
-27.8582 48.7235 7.91775 0.468572 -0.878671 -0.091534
-29.1059 48.0849 7.34829 0.492969 -0.864374 -0.0991844
-30.4162 47.422 6.60771 0.489682 -0.86895 -0.0714789
-31.6834 46.7614 5.78352 0.504978 -0.859244 -0.0818325
-32.8826 46.1145 5.02543 0.519678 -0.852514 -0.0549911
-33.9109 45.5295 4.08736 0.545355 -0.837332 -0.0382497
-34.9443 44.9129 3.06142 0.544092 -0.837582 -0.049192
-35.9324 44.3222 1.95609 0.553887 -0.831767 -0.0366077
-36.9383 43.6957 0.904538 0.554782 -0.831324 -0.0334334
-37.8043 43.1251 -0.0106422 0.574807 -0.818163 -0.0143417
-38.8497 42.3985 -1.10748 0.579353 -0.815074 0.00195363
-39.7269 41.7582 -2.06101 0.582781 -0.812437 0.017688
-40.4995 41.1746 -3.04321 0.587738 -0.80879 0.0205471
-41.3919 40.4829 -4.0566 0.600854 -0.798767 0.030417
-42.3809 39.6991 -5.05445 0.59247 -0.804575 0.0404654
-43.4124 38.8867 -5.99974 0.597228 -0.800848 0.044161
-44.4416 38.0448 -6.9553 0.602362 -0.796102 0.0581516
-45.1529 37.449 -7.96649 0.601891 -0.797273 0.0456336
-45.6056 37.0148 -9.49534 0.596507 -0.80082 0.0534496
-45.704 36.8381 -10.9798 0.592533 -0.80357 0.0563915
-45.6034 36.8025 -12.4585 0.585699 -0.808228 0.0610319
-45.3813 36.8723 -13.8612 0.58266 -0.811564 0.0432457
-45.0092 37.0788 -15.2665 0.587971 -0.808527 0.0174667
-44.1554 37.58 -16.776 0.518104 -0.85407 0.0461763
-43.2319 38.0633 -17.8153 0.479697 -0.876734 0.0350468
-42.0088 38.6884 -18.2653 0.469983 -0.879186 0.0784061
-40.7531 39.311 -18.586 0.444543 -0.891392 0.0880656
-39.4544 39.9369 -18.6906 0.442472 -0.891986 0.092622
-37.9481 40.6882 -18.7364 0.454372 -0.884387 0.106333
-36.6704 41.3827 -18.6378 0.45812 -0.876768 0.146303
-35.2899 42.11 -18.5714 0.399093 -0.898589 0.172284
-34.0084 42.8221 -18.5948 0.505293 -0.839961 0.196938
-32.7007 43.5501 -18.6406 0.495613 -0.828917 0.258691
-31.4787 44.2837 -18.7707 0.534375 -0.805565 0.25578
-30.3503 45.0944 -18.6867 0.596736 -0.772757 0.216226
-29.1908 46.0166 -18.7354 0.643683 -0.746298 0.169445
-28.0772 46.9547 -18.7663 0.610549 -0.780465 0.134551
-27.114 47.6312 -19.3108 0.594798 -0.802185 0.0478537
-27.5618 47.2345 -20.3728 0.6485 -0.761115 0.0107052
-28.7338 46.231 -20.3821 0.654754 -0.754431 0.0381302
-30.0234 45.1117 -20.4213 0.655739 -0.753385 0.0491584
-31.0939 44.2173 -20.4193 0.561334 -0.824773 0.0659164
-32.4674 43.3485 -20.2889 0.519019 -0.844441 0.132346
-33.7829 42.6021 -20.3283 0.458122 -0.8775 0.141841
-35.1189 41.9279 -20.2456 0.440048 -0.892032 0.103133
-36.4869 41.2538 -20.3281 0.431755 -0.895827 0.105259
-37.8292 40.5792 -20.3947 0.442205 -0.894169 0.0701166
-39.225 39.893 -20.4433 0.437042 -0.89703 0.0658151
-40.4775 39.2856 -20.4045 0.412907 -0.909996 0.037623
-41.992 38.5722 -20.306 0.440911 -0.895593 0.0577356
-43.6445 37.7499 -20.3262 0.459238 -0.887918 0.0265011
-45.0253 37.0152 -20.2933 0.473382 -0.88059 0.0211789
-46.2165 36.3439 -20.1307 0.499936 -0.866031 0.00582884
-46.3058 36.2835 -18.6951 0.514609 -0.857248 -0.017385
-47.0885 35.5492 -17.9568 0.719126 -0.685442 -0.100809
-47.9657 34.4891 -17.9827 0.785213 -0.617193 0.0501332
-48.8804 33.282 -18.1126 0.602488 -0.66597 0.439878
-49.2954 32.8642 -19.3093 0.48858 -0.871272 0.0131548
-49.7771 32.5139 -20.3723 0.498922 -0.864255 0.0643453
-51.3013 31.7082 -20.2809 0.448915 -0.891534 0.06036
-52.606 31.0664 -20.2147 0.433163 -0.900017 0.0483579
-54.0037 30.435 -20.1861 0.374862 -0.926557 0.031145
-55.3088 29.925 -20.2213 0.352149 -0.935571 0.0264175
-56.8759 29.3371 -20.274 0.342498 -0.939228 0.0233757
-58.5648 28.744 -20.1924 0.320153 -0.947119 0.0211478
-59.9503 28.287 -20.3133 0.28565 -0.958241 0.013343
-60.9745 27.9928 -19.464 0.276418 -0.960965 0.0117728
-60.5496 28.1372 -18.1045 0.299241 -0.954148 0.0074671
-59.8958 28.3495 -16.5474 0.313924 -0.94929 0.00931921
-59.4119 28.5677 -14.9458 0.336091 -0.941391 0.0287373
-59.1666 28.7056 -13.1941 0.330326 -0.943363 0.0308447
-59.1138 28.7588 -11.5098 0.351345 -0.936246 -8.63914e-05
-59.0903 28.7748 -10.1339 0.369402 -0.929187 -0.0124219
-59.2434 28.7212 -8.38543 0.385156 -0.922797 0.0100535
-59.4066 28.6647 -6.98585 0.346241 -0.938102 0.00909462
-59.4327 28.6488 -5.56705 0.360008 -0.932788 -0.0168652
-59.3195 28.6567 -4.17965 0.366407 -0.928932 0.00389277
-58.9947 28.7586 -2.45636 0.39321 -0.919212 -0.020855
-58.6925 28.8217 -0.961349 0.377706 -0.92582 -0.011514
-58.5934 28.8303 0.62156 0.382545 -0.923702 -0.0208498
-58.4 28.842 2.43674 0.378621 -0.924297 -0.0475781
-58.2633 28.8143 3.90603 0.389303 -0.919353 -0.0568002
-58.219 28.7443 5.36087 0.376156 -0.924968 -0.0542332
-58.1416 28.7083 6.94171 0.360168 -0.932554 -0.0249364
-58.235 28.5984 8.28368 0.345214 -0.936332 -0.0623935
-58.0648 28.5559 9.72175 0.360477 -0.930416 -0.0661974
-58.132 28.4568 11.1851 0.331873 -0.94232 -0.0435071
-58.1558 28.3765 12.5643 0.335277 -0.94047 -0.0557205
-58.3493 28.2235 14.0843 0.311533 -0.949163 -0.0451349
-58.5377 28.1067 15.4476 0.302517 -0.952576 -0.0317607
-58.8104 27.9659 16.9719 0.282645 -0.958938 -0.0234392
-59.0598 27.8532 18.442 0.258462 -0.965564 -0.0265467
-58.7349 27.9138 19.8355 0.267669 -0.963305 -0.0194872
-57.3727 28.2967 20.2724 0.285575 -0.958227 -0.0157227
-55.5599 28.846 20.293 0.295959 -0.954862 -0.0254481
-54.2524 29.2581 20.2606 0.305314 -0.951489 -0.035573
-52.955 29.7054 20.238 0.337296 -0.939245 -0.0557582
-51.6794 30.2049 20.2485 0.407586 -0.91001 -0.0758595
-50.3568 30.8146 20.2482 0.484365 -0.872489 -0.0636991
-49.1029 31.5673 20.272 0.587738 -0.807889 -0.0412618
-48.7672 31.9097 19.1382 0.601699 -0.793895 -0.0876847
-48.4358 32.3533 17.9544 0.640956 -0.69697 -0.311592
-47.7054 33.4859 17.7477 0.802645 -0.584324 -0.107556
-46.8274 34.8401 17.8258 0.848687 -0.527625 0.0333504
-47.1412 34.3399 17.5897 0.836067 -0.54812 0.0213794
-47.8919 33.4711 16.6304 0.773693 -0.623547 -0.112195
-49.0585 32.5132 15.5315 0.679216 -0.712934 -0.173581
-50.0223 31.9685 14.6496 0.582723 -0.793002 -0.176539
-51.4451 31.3108 13.4897 0.489352 -0.856031 -0.16441
-52.3621 30.9425 12.4823 0.497955 -0.85671 -0.134494
-53.3623 30.5604 11.0349 0.464752 -0.879882 -0.099064
-54.2318 30.2713 9.58139 0.466883 -0.878073 -0.104921
-54.5585 30.2454 8.14811 0.462658 -0.882256 -0.0870137
-55.0268 30.1344 6.40404 0.479166 -0.875523 -0.0621248
-55.3624 30.0673 5.0787 0.46165 -0.88406 -0.072913
-55.6565 30.0458 3.38609 0.439726 -0.896303 -0.0572908
-55.6257 30.137 1.99695 0.47401 -0.878985 -0.0519713
-55.5802 30.2384 0.60724 0.47457 -0.879074 -0.0448493
-55.5452 30.3343 -0.845292 0.471404 -0.880605 -0.0480949
-55.1498 30.6181 -2.17346 0.484113 -0.873692 -0.0479211
-54.5734 31.0001 -3.42591 0.506083 -0.86202 -0.027935
-53.7057 31.5488 -4.69282 0.522945 -0.852304 -0.0103208
-52.6749 32.1884 -5.58997 0.533882 -0.845558 -0.00121663
-51.6036 32.8747 -6.17514 0.549538 -0.835344 0.0143058
-50.4009 33.6815 -6.49665 0.567004 -0.823528 0.0175349
-49.2426 34.4832 -6.84913 0.580571 -0.813777 0.0258837
-47.9183 35.4404 -6.80941 0.590166 -0.806777 0.0283376
-46.8364 36.2575 -6.40937 0.597326 -0.801334 0.0325116
-45.5873 37.2214 -6.06459 0.609364 -0.792083 0.0350079
-44.6108 38.0243 -4.96431 0.614734 -0.787937 0.035329
-43.574 38.8534 -3.90356 0.604758 -0.79625 0.0159085
-42.7971 39.4605 -2.95329 0.599005 -0.800511 0.0193905
-41.7313 40.2768 -1.90672 0.601434 -0.798914 0.00379019
-40.7894 40.9984 -0.866097 0.601685 -0.798658 -0.0109746
-39.8259 41.6872 0.0998014 0.591093 -0.80615 -0.0270579
-38.8154 42.3919 1.18427 0.593405 -0.804395 -0.0286281
-37.8653 43.0035 2.27756 0.572541 -0.818722 -0.0434822
-36.8362 43.6364 3.43375 0.55226 -0.83202 -0.0523994
-35.8563 44.2262 4.29149 0.546743 -0.835379 -0.0566905
-34.7923 44.8492 5.4104 0.555842 -0.828331 -0.0700541
-33.836 45.3775 6.47964 0.541343 -0.833612 -0.109723
-32.8768 45.8643 7.32635 0.525847 -0.84193 -0.120943
-31.9958 46.2344 8.56648 0.532399 -0.831329 -0.159502
-31.4271 46.1965 10.4455 0.533114 -0.826817 -0.179195
-31.4943 45.7927 11.8288 0.536962 -0.809618 -0.235847
-31.933 44.9788 13.3818 0.51437 -0.803917 -0.298545
-32.5572 43.9727 14.8744 0.508916 -0.794586 -0.331117
-33.2564 42.984 16.0929 0.499349 -0.787859 -0.360457
-34.115 42.0628 17.1423 0.447938 -0.833824 -0.322338
-35.0307 41.3155 17.9755 0.431362 -0.8561 -0.28389
-36.408 40.4736 18.5138 0.407407 -0.88575 -0.219291
-37.7243 39.8177 18.8732 0.399721 -0.897462 -0.186506
-39.0335 39.2464 19.0045 0.378454 -0.915597 -0.135772
-40.4974 38.6202 18.8959 0.38766 -0.914729 -0.112108
-41.7959 38.0767 18.6916 0.417115 -0.906095 -0.069857
-43.1375 37.4295 18.4715 0.468155 -0.883018 -0.0333165
-44.5473 36.6501 18.2242 0.502284 -0.864509 -0.0182904
-45.971 35.7406 17.8937 0.5745 -0.813635 0.065562
-45.7301 35.9025 18.1358 0.543002 -0.83947 0.0209623
-46.0222 35.7378 19.4412 0.538317 -0.842726 -0.00534189
-45.2707 36.2 20.243 0.514604 -0.857425 0.00237599
-43.7791 37.0208 20.2601 0.475784 -0.879327 -0.0135077
-42.4191 37.6724 20.293 0.409263 -0.910706 -0.0496788
-41.1211 38.22 20.4006 0.364939 -0.927922 -0.0760301
-39.5078 38.8527 20.4174 0.362335 -0.927789 -0.0889976
-38.0545 39.4571 20.3795 0.378855 -0.917681 -0.119632
-36.5318 40.0591 20.4049 0.365448 -0.925828 -0.0963278
-35.2356 40.6497 20.2727 0.457486 -0.884981 -0.0866926
-33.8075 41.3747 20.3023 0.443614 -0.891905 -0.0878166
-32.5546 42.0397 20.3758 0.522898 -0.850619 -0.0550055
-31.3531 42.8347 20.3575 0.611623 -0.787819 -0.0648859
-30.2599 43.7493 20.3268 0.624377 -0.779299 -0.0533569
-29.1128 44.6872 20.3001 0.638114 -0.768669 -0.0442605
-28.5847 45.1646 19.1971 0.60526 -0.794118 -0.0506152
-28.3096 45.6174 17.9016 0.56797 -0.746171 -0.345424
-27.2084 46.6309 17.7306 0.641912 -0.710045 -0.287797
-26.1676 47.5592 17.8062 0.667354 -0.71371 -0.212639
-25.1403 48.5133 17.7819 0.667007 -0.723285 -0.178295
-24.1137 49.4828 17.7755 0.667433 -0.734914 -0.118455
-23.0316 50.4422 17.6475 0.636876 -0.770633 -0.0226675
-21.9775 51.3375 17.7466 0.628303 -0.76766 0.115304
-20.8285 52.0831 17.7963 0.455248 -0.882735 0.116311
-19.5016 52.6778 17.7243 0.406308 -0.911477 0.0642109
-18.2355 53.1972 17.6238 0.356939 -0.926623 0.118172
-16.8884 53.5238 17.0629 0.279135 -0.934021 0.219039
-15.5974 53.6683 17.1767 0.0244772 -0.987439 0.156093
-14.65 53.7945 18.185 -0.00370954 -0.996838 0.0793794
-14.5041 53.8566 19.7043 0.0192406 -0.99945 0.0254798
-13.2979 53.9116 20.3826 0.0264665 -0.999112 0.031999
-11.7925 53.9358 20.3588 0.00645724 -0.999313 0.0361997
-10.413 53.9425 20.3411 0.00958137 -0.999417 0.0327548
-8.98514 53.9654 20.3219 0.0213295 -0.999411 0.0268834
-7.59198 53.996 20.4832 0.0247321 -0.999473 0.020445
-5.98308 54.0386 20.3446 0.0344831 -0.999361 0.00944875
-4.48218 54.0949 20.3103 0.0409739 -0.999155 -0.00247015
-2.89015 54.1584 20.4093 0.0378247 -0.999283 -0.00142495
-1.49723 54.2111 20.352 0.0337329 -0.999422 -0.00395985
-0.121763 54.2553 20.3417 0.0338603 -0.999424 -0.00236133
1.26829 54.3098 20.4159 0.0412416 -0.999149 8.00541e-05
2.77521 54.3644 20.4255 0.0363624 -0.999311 -0.00741128
4.29619 54.4226 20.4086 0.0385646 -0.999256 0.000920683
5.73785 54.4758 20.4177 0.0431638 -0.999067 -0.00103571
7.11955 54.5342 20.4674 0.0421031 -0.999089 0.00685274
8.50964 54.5901 20.4346 0.0351859 -0.999358 0.00659823
9.63382 54.6228 19.7946 0.0312477 -0.999507 0.000104492
9.04469 54.6168 18.7369 0.0247758 -0.999399 -0.0240782
7.59978 54.5753 18.7108 0.0346613 -0.998706 -0.0370254
6.19267 54.5172 18.6773 0.0475469 -0.998049 -0.0404603
4.77239 54.4664 18.7216 0.0327756 -0.998856 -0.0348343
3.38216 54.4164 18.666 0.0379765 -0.999071 -0.0203615
1.96445 54.3639 18.7807 0.0396507 -0.998382 -0.0407675
0.506406 54.3058 18.756 0.0406263 -0.998832 -0.026139
-1.15638 54.2422 18.8209 0.0379261 -0.999049 -0.0215132
-2.61501 54.1858 18.8076 0.0389315 -0.999061 -0.0189846
-4.01031 54.1334 18.6976 0.0402847 -0.998858 -0.0255216
-5.0548 54.1114 17.8017 0.0494564 -0.998526 -0.0222941
-6.20724 54.068 16.668 0.056824 -0.998313 -0.0119119
-7.00651 54.0186 15.5421 0.0715067 -0.997429 0.00481229
-7.71897 53.9486 14.2845 0.0855903 -0.996163 0.0182845
-8.17346 53.8733 12.9451 0.0909039 -0.995257 0.0346479
-8.36034 53.7978 11.3739 0.0918771 -0.994853 0.0425531
-8.21153 53.7507 9.98273 0.0877083 -0.995485 0.0362937
-7.77029 53.7456 8.62617 0.066633 -0.997348 0.0292715
-6.73069 53.7807 7.60866 0.0723112 -0.996591 0.0397224
-5.70035 53.8174 6.62334 0.074559 -0.996547 0.0365443
-4.58576 53.8535 5.54772 0.0600574 -0.997792 0.0283471
-3.56845 53.8761 4.61353 0.0655711 -0.997224 0.0352631
-2.5418 53.9007 3.50884 0.04278 -0.998903 0.0190645
-1.52431 53.9102 2.39419 0.0282933 -0.999318 0.0236701
-0.416179 53.9201 1.3535 0.0176579 -0.999387 0.0302428
0.561722 53.9181 0.337915 0.0235573 -0.999569 0.0174919
1.56877 53.9005 -0.720034 -0.000329631 -0.999855 0.0170117
2.61084 53.8818 -1.70083 0.00685758 -0.999629 0.026357
3.71183 53.8487 -2.77948 -0.0155627 -0.999622 0.0225694
4.72683 53.8102 -3.7375 -0.0318923 -0.999421 0.0118599
5.71195 53.7899 -4.78897 -0.0171888 -0.99978 0.00548532
6.61104 53.7695 -5.84932 -0.0224173 -0.999748 -0.000890896
7.663 53.7355 -6.9409 -0.0285204 -0.999547 0.00958204
8.82293 53.6935 -7.67003 -0.0350992 -0.999343 0.00898708
10.3111 53.6382 -7.88356 -0.0338978 -0.998912 0.0315423
11.8779 53.5785 -7.76215 -0.0534231 -0.997649 0.0429282
13.3889 53.4932 -7.4649 -0.0740993 -0.996324 0.0429915
14.9702 53.3747 -6.93073 -0.104257 -0.993433 0.0469344
16.3264 53.2491 -6.2367 -0.132123 -0.990233 0.0445044
17.4179 53.1391 -5.42766 -0.151719 -0.987339 0.0462985
17.9937 53.1206 -4.04886 -0.157901 -0.98606 0.0524671
18.4073 53.1272 -2.74472 -0.165518 -0.984648 0.0554273
18.4326 53.2172 -1.20079 -0.162862 -0.985093 0.0553898
18.3719 53.3062 0.242805 -0.153492 -0.986992 0.0477981
18.3316 53.3856 1.66517 -0.156043 -0.986476 0.0501556
18.4009 53.4493 3.09004 -0.160639 -0.985369 0.0568245
18.4678 53.5202 4.63676 -0.157781 -0.986195 0.0502539
18.5014 53.5892 6.09981 -0.159615 -0.985752 0.0530205
18.5133 53.6653 7.50206 -0.16063 -0.985462 0.0552756
18.457 53.76 8.97767 -0.160858 -0.985102 0.0608098
18.526 53.8333 10.4589 -0.161838 -0.985316 0.0544079
18.5209 53.9177 11.8698 -0.159377 -0.985415 0.0596265
18.1795 54.0553 13.2058 -0.160038 -0.985161 0.0620153
17.3451 54.295 14.8177 -0.139329 -0.987379 0.0751401
16.2305 54.5159 16.0013 -0.109076 -0.991733 0.0675896
15.2566 54.6816 16.9911 -0.0308466 -0.996146 0.0776789
15.0183 54.7533 17.6938 -0.00672458 -0.994958 0.0998532
16.7344 54.6473 17.5169 -0.0700961 -0.983308 0.167905
17.8227 54.377 16.4402 -0.14785 -0.983598 0.10332
19.1934 54.1377 16.4415 -0.193535 -0.973208 0.120782
20.4693 53.858 16.8443 -0.29701 -0.95006 0.0957648
21.7872 53.3712 17.3335 -0.504806 -0.862351 0.0390201
22.9217 52.663 17.7565 -0.603016 -0.797667 -0.00911928
24.003 51.884 17.3165 -0.56482 -0.823221 -0.057325
22.8529 52.6864 16.4152 -0.534485 -0.845166 0.00445635
21.9035 53.208 15.4558 -0.429744 -0.901752 0.034461
21.0817 53.4897 14.2571 -0.295251 -0.954476 0.042459
20.4024 53.6143 12.8119 -0.230495 -0.97202 0.039482
20.0358 53.6133 11.4336 -0.189927 -0.980675 0.0467606
20.2179 53.4926 10.0398 -0.204486 -0.977762 0.0465616
20.1695 53.4357 8.61674 -0.178511 -0.982594 0.0514127
20.2144 53.3521 7.13849 -0.18629 -0.981156 0.0512719
20.172 53.2819 5.7446 -0.183289 -0.982326 0.0379627
20.1312 53.2109 4.27213 -0.191812 -0.979801 0.055429
20.1411 53.13 2.73536 -0.187664 -0.980932 0.0505513
20.1049 53.0548 1.16293 -0.196416 -0.97898 0.0548872
20.1139 52.9607 -0.303044 -0.192851 -0.979435 0.0592897
20.1003 52.8709 -1.82793 -0.196208 -0.978517 0.0632951
19.9998 52.8087 -3.2462 -0.205233 -0.975996 0.0728784
20.3766 52.6313 -4.6772 -0.241876 -0.967983 0.0647378
21.188 52.327 -5.73054 -0.351212 -0.93452 0.0576428
22.0804 51.898 -6.69266 -0.38622 -0.917711 0.0929569
23.1584 51.3733 -7.41255 -0.402821 -0.91038 0.0932135
24.4379 50.6813 -8.15687 -0.432573 -0.894673 0.111536
25.6077 50.0328 -8.65411 -0.447999 -0.888319 0.100931
26.9358 49.3535 -8.67483 -0.459691 -0.879575 0.122503
28.1959 48.7231 -8.56514 -0.447857 -0.885452 0.124093
29.5098 48.0906 -8.16938 -0.461462 -0.880298 0.110128
30.7429 47.5623 -7.11452 -0.471537 -0.875851 0.102656
31.8021 47.1403 -5.88897 -0.480217 -0.872123 0.0934936
32.8201 46.6705 -4.89578 -0.486289 -0.86958 0.0857297
33.9521 46.1421 -3.67284 -0.494873 -0.866208 0.0691616
34.8381 45.704 -2.66718 -0.510817 -0.857046 0.0673721
35.7715 45.2144 -1.7342 -0.521552 -0.850849 0.0635587
36.6907 44.7119 -0.80223 -0.519234 -0.853695 0.0400012
37.6458 44.1696 0.113081 -0.531604 -0.846368 0.0325286
38.5563 43.6417 1.2212 -0.527948 -0.848743 0.0301091
39.3493 43.1711 2.28387 -0.53564 -0.844447 0.000191435
40.4935 42.4348 3.37401 -0.551735 -0.833993 0.00666783
41.594 41.7091 4.35995 -0.555193 -0.831719 0.00223577
42.7377 40.9252 5.29975 -0.568749 -0.822506 -0.00294312
43.6109 40.3078 6.32363 -0.575774 -0.81748 -0.0145185
44.6008 39.5919 7.7099 -0.578049 -0.816001 0.00035278
45.3201 39.093 9.25214 -0.574796 -0.818274 0.00619972
45.7111 38.8015 10.6243 -0.592496 -0.805536 -0.00332462
45.7859 38.7475 12.2642 -0.59104 -0.806632 0.00381174
45.4301 39.0316 13.7563 -0.583908 -0.811583 0.0139375
44.7065 39.5662 15.0835 -0.562407 -0.826589 0.0148958
43.8096 40.1587 16.1606 -0.517356 -0.855684 0.0121751
42.5743 40.8685 17.1376 -0.488104 -0.872597 -0.0181426
41.3716 41.512 17.7644 -0.469786 -0.882455 -0.0239599
40.0832 42.1704 18.1988 -0.454229 -0.890377 -0.0298809
38.4632 42.9688 18.603 -0.454058 -0.889632 -0.0488604
37.1156 43.6166 18.8242 -0.445842 -0.89272 -0.0653902
35.7941 44.2827 18.7614 -0.450994 -0.889638 -0.0717482
34.3662 45.0183 18.7722 -0.455341 -0.885659 -0.0905067
33.0903 45.6744 18.7807 -0.489301 -0.864883 -0.11208
31.7721 46.4402 18.714 -0.492416 -0.865046 -0.0960277
30.5637 47.1323 18.826 -0.506834 -0.856221 -0.100029
29.3332 47.869 18.7634 -0.516354 -0.852863 -0.0773611
28.1205 48.6221 18.697 -0.562696 -0.826156 -0.0289863
26.8244 49.6304 18.4216 -0.632326 -0.772773 -0.052567
25.7679 50.5095 18.1547 -0.613533 -0.786411 -0.0715592
24.6832 51.3691 17.6694 -0.580857 -0.810481 -0.0753671
24.6035 51.3515 18.6174 -0.579061 -0.813654 -0.051541
24.6447 51.284 20.189 -0.61562 -0.788006 -0.00624942
25.7785 50.3869 20.4089 -0.618481 -0.785742 -0.00955282
26.8924 49.5016 20.3745 -0.628166 -0.777775 -0.0217687
28.0239 48.6183 20.3486 -0.613616 -0.789299 -0.0217859
29.2136 47.7911 20.3379 -0.528457 -0.845137 -0.0804747
30.4473 47.0472 20.3085 -0.509 -0.856578 -0.0848191
31.8434 46.2501 20.2416 -0.486218 -0.870831 -0.0724247
33.2297 45.4675 20.357 -0.473013 -0.879079 -0.0589352
34.6638 44.7333 20.2552 -0.445621 -0.893765 -0.0510413
36.0169 44.0613 20.2421 -0.438782 -0.896629 -0.0593921
37.4045 43.3944 20.1953 -0.426675 -0.903149 -0.0476517
38.6322 42.8048 20.3079 -0.428517 -0.902783 -0.0368131
39.9232 42.1818 20.346 -0.433535 -0.900806 -0.024397
41.3108 41.5016 20.3847 -0.445653 -0.895089 -0.0144682
42.7822 40.7352 20.2867 -0.476939 -0.878893 -0.00870261
44.1878 39.9463 20.2942 -0.497967 -0.867086 -0.0134572
45.4966 39.145 20.2335 -0.522613 -0.852499 0.0109851
46.7185 38.3783 20.2416 -0.530018 -0.847956 -0.00722626
46.941 38.2207 18.7741 -0.540617 -0.840698 0.0309974
47.6038 37.5873 17.8008 -0.749096 -0.646232 0.135901
48.5312 36.4979 17.7632 -0.791849 -0.609675 0.0356539
49.5093 35.2572 17.847 -0.69872 -0.683037 -0.212721
49.9338 34.6794 18.9225 -0.636927 -0.766695 -0.0806439
50.0835 34.5045 20.2007 -0.666901 -0.744328 -0.0064208
51.4811 33.414 20.2299 -0.57311 -0.815064 -0.0838606
52.6477 32.6593 20.3306 -0.507403 -0.85762 -0.0838394
54.1658 31.8697 20.3343 -0.442791 -0.895686 -0.0410273
55.5406 31.2025 20.379 -0.433024 -0.900628 -0.036441
56.8691 30.5856 20.3381 -0.418989 -0.907897 -0.0126435
58.2291 29.9842 20.258 -0.40028 -0.916339 -0.00920703
59.6378 29.3949 19.7008 -0.380484 -0.92466 -0.0153509
60.5899 29.0195 18.5706 -0.378164 -0.925703 -0.00807937
61.1704 28.7961 17.1959 -0.362886 -0.931829 -0.00297809
61.3554 28.7045 15.4938 -0.355935 -0.934323 0.0139074
60.9842 28.8402 14.1816 -0.351977 -0.936007 -0.00180535
60.3922 29.0677 12.8819 -0.358163 -0.933535 0.0152154
59.6425 29.3655 11.6356 -0.392593 -0.919608 -0.0138287
58.6213 29.8368 10.1436 -0.440277 -0.897793 0.0111659
58.4118 29.9155 8.78628 -0.452585 -0.891281 0.0261751
58.2314 29.9659 7.26883 -0.458452 -0.888619 0.00705285
58.1715 29.9314 5.45981 -0.471905 -0.880524 0.0445392
58.1702 29.8872 3.83501 -0.458588 -0.887914 0.03273
58.1854 29.8053 2.46153 -0.466941 -0.882701 0.0496592
58.1902 29.7312 0.972894 -0.458755 -0.887768 0.0375728
58.1166 29.7012 -0.573598 -0.45939 -0.887722 0.0262035
57.8961 29.7483 -2.35827 -0.42569 -0.904176 0.0353965
57.9374 29.6758 -3.7754 -0.439572 -0.897127 0.0422986
58.0209 29.5456 -5.33982 -0.415837 -0.908312 0.0452646
58.0323 29.4518 -6.85939 -0.420581 -0.904427 0.0715755
57.954 29.3842 -8.47183 -0.40601 -0.9121 0.0567799
57.9748 29.2384 -10.2919 -0.396794 -0.915143 0.071185
58.0202 29.1114 -11.7213 -0.391186 -0.917931 0.0661524
58.2485 28.9144 -13.1404 -0.373632 -0.92555 0.0612829
58.6683 28.6746 -14.5251 -0.345802 -0.937334 0.0427202
59.1227 28.4445 -15.8979 -0.329313 -0.943083 0.0463421
59.4987 28.268 -17.3217 -0.302765 -0.952486 0.0323164
59.7303 28.1399 -18.767 -0.299751 -0.953565 0.0293967
59.3099 28.2343 -20.0966 -0.296257 -0.955022 0.011976
57.8954 28.6811 -20.4337 -0.304833 -0.952304 0.0139002
56.3829 29.172 -20.3098 -0.309287 -0.950356 0.033374
54.9568 29.6253 -20.3266 -0.294101 -0.954781 0.0410413
53.6113 30.0547 -20.2394 -0.296036 -0.953402 0.0578989
52.2619 30.4996 -20.2959 -0.337351 -0.939053 0.0647026
50.9009 31.0058 -20.2744 -0.349223 -0.935114 0.0600401
49.5599 31.6103 -20.2725 -0.548678 -0.825458 0.130899
48.5835 32.3977 -20.0125 -0.67498 -0.73559 0.0565689
48.6626 32.6027 -18.6145 -0.52214 -0.831567 0.185197
48.1192 33.4955 -17.8328 -0.780392 -0.522301 0.324819
49.1017 32.7295 -17.3309 -0.612612 -0.730471 0.301858
50.2547 32.1173 -16.6628 -0.526913 -0.811615 0.252164
51.7401 31.5111 -15.7851 -0.468908 -0.86054 0.198989
53.0032 31.0442 -14.8544 -0.461317 -0.871192 0.167962
54.0541 30.7232 -13.7489 -0.435734 -0.88262 0.176401
54.8207 30.5641 -12.2694 -0.452038 -0.884467 0.115673
55.4454 30.4073 -10.9315 -0.447754 -0.888727 0.0981432
55.6503 30.4744 -9.40547 -0.484659 -0.870393 0.0861718
55.7219 30.5648 -8.00766 -0.507563 -0.858542 0.0682916
55.59 30.7656 -6.56817 -0.4979 -0.864398 0.0700699
55.6632 30.8328 -5.07106 -0.508092 -0.859589 0.0541143
55.5698 30.9747 -3.5849 -0.514149 -0.856125 0.050044
55.6611 31.0194 -2.01126 -0.521514 -0.852141 0.0428348
55.6151 31.1465 -0.162881 -0.540471 -0.839517 0.0556679
55.5465 31.2832 1.28877 -0.537683 -0.841572 0.0515054
55.2003 31.5779 2.78424 -0.54817 -0.835493 0.0382213
54.6165 32.0222 4.04136 -0.546217 -0.836967 0.0325428
53.723 32.6574 4.98978 -0.571838 -0.820063 0.0222927
52.749 33.3872 5.87497 -0.589181 -0.807635 0.0222271
51.4258 34.3844 6.42355 -0.606192 -0.795264 0.00810088
50.2621 35.2867 6.90981 -0.614241 -0.789088 0.00645877
49.1801 36.1377 7.0891 -0.620183 -0.784446 0.00420835
48.1221 36.9676 6.95648 -0.614742 -0.78872 0.0033631
46.9825 37.8429 6.85186 -0.60609 -0.795347 0.00792897
45.9608 38.6062 6.33954 -0.598663 -0.800972 0.00684295
45.0603 39.2626 5.48453 -0.589056 -0.808092 0.000280295
43.9454 40.059 4.34616 -0.586762 -0.809631 0.0143178
42.9222 40.7832 3.33012 -0.589402 -0.807763 0.0111473
42.0184 41.3977 2.46251 -0.574751 -0.817863 0.0272248
40.946 42.0999 1.42281 -0.549291 -0.835394 0.0199279
39.9189 42.7265 0.12839 -0.544871 -0.837543 0.0402524
38.8692 43.3339 -1.01235 -0.53931 -0.840376 0.0539748
37.9265 43.8883 -1.95414 -0.52918 -0.846945 0.0500034
37.0164 44.3764 -2.87278 -0.529373 -0.844865 0.0771658
36.1129 44.8431 -3.95378 -0.516575 -0.852436 0.08054
35.1542 45.3154 -4.99835 -0.512515 -0.853397 0.0950364
34.145 45.8061 -6.02804 -0.502376 -0.860675 0.0827634
32.9312 46.3706 -6.99488 -0.4896 -0.863363 0.122047
31.906 46.8024 -8.00574 -0.48162 -0.86724 0.126177
31.1906 47.0091 -9.15388 -0.500294 -0.854237 0.141364
31.0067 46.7951 -10.7858 -0.488804 -0.853033 0.182633
31.293 46.2862 -12.1477 -0.474722 -0.83773 0.269904
31.684 45.604 -13.547 -0.471202 -0.833244 0.288911
32.3198 44.8354 -14.6675 -0.453417 -0.83613 0.308706
32.8562 44.0857 -15.9196 -0.464459 -0.831117 0.305505
33.717 43.2283 -17.1511 -0.414449 -0.866529 0.278137
34.8301 42.3467 -18.2396 -0.42478 -0.868963 0.253899
36.2009 41.6515 -18.7959 -0.378775 -0.910077 0.168195
37.5335 41.0815 -18.8864 -0.369797 -0.920372 0.126711
38.8381 40.5368 -18.8972 -0.389003 -0.915351 0.103968
40.474 39.8145 -18.9226 -0.415048 -0.905332 0.0900517
41.9392 39.113 -18.8594 -0.467431 -0.880404 0.0799811
43.4324 38.304 -18.763 -0.500022 -0.865448 0.0250686
44.8833 37.347 -18.8717 -0.569476 -0.821534 0.0262412
45.9035 36.5939 -19.0025 -0.620518 -0.784188 -0.00255759
45.6843 36.7291 -20.4401 -0.602979 -0.797139 0.0313915
44.4006 37.6284 -20.4127 -0.543433 -0.838084 0.0387168
43.2051 38.3509 -20.3311 -0.489927 -0.871144 0.0328587
41.6862 39.1403 -20.361 -0.434027 -0.899056 0.0576161
40.0875 39.8661 -20.3313 -0.391636 -0.917414 0.0700487
38.6838 40.4341 -20.3717 -0.35754 -0.93076 0.0757548
37.3033 40.9652 -20.3868 -0.350635 -0.929362 0.114405
35.7741 41.5603 -20.2895 -0.370236 -0.916764 0.149891
34.4222 42.107 -20.3664 -0.404908 -0.906397 0.120388
33.1755 42.6805 -20.3648 -0.420282 -0.894225 0.154027
31.9278 43.2404 -20.342 -0.387584 -0.902246 0.189028
30.6756 43.8545 -20.3964 -0.498829 -0.859183 0.106257
29.4186 44.6806 -20.3841 -0.594813 -0.801795 0.0573539
28.162 45.6307 -20.3908 -0.611567 -0.789805 0.0356637
27.7483 46.016 -19.0131 -0.466424 -0.875696 0.108522
27.2618 46.5776 -18.0037 -0.534026 -0.771483 0.345876
26.2522 47.4656 -17.8106 -0.617265 -0.731532 0.289357
25.0246 48.4929 -17.8971 -0.635798 -0.73614 0.232073
23.8806 49.5311 -17.8161 -0.635741 -0.758399 0.143091
22.7314 50.4775 -17.9041 -0.620656 -0.782991 0.0413302
21.6231 51.3393 -17.8418 -0.593915 -0.804131 -0.0121565
21.4704 51.4456 -17.8097 -0.569981 -0.820694 -0.0397872
-24.2271 50.4245 10.6317 0.468138 -0.879206 -0.0880427
-25.8735 49.49 10.8402 0.494099 -0.858863 -0.134981
-27.304 48.6774 10.7245 0.493916 -0.86071 -0.122797
-28.5274 48.0442 10.2876 0.505592 -0.853855 -0.12373
-29.2801 47.4862 10.7926 0.506988 -0.840607 -0.1903
-29.3584 47.064 12.2655 0.532637 -0.809398 -0.24733
-29.5245 46.5282 13.5822 0.538653 -0.790468 -0.291505
-29.8422 45.8565 14.7728 0.540791 -0.774581 -0.327968
-30.0584 45.2308 15.8755 0.545941 -0.768856 -0.332878
-29.206 45.9851 15.5396 0.5546 -0.766185 -0.324622
-27.9858 46.975 15.2799 0.560049 -0.774481 -0.294151
-26.7187 47.9555 15.1576 0.577278 -0.774921 -0.257028
-25.2643 49.0182 15.2481 0.58688 -0.785582 -0.196044
-24.2798 49.6932 15.5266 0.579058 -0.80717 -0.113152
-23.3675 50.3937 14.8839 0.500422 -0.861501 -0.0859893
-21.9964 51.2137 14.8733 0.480542 -0.876968 -0.00262585
-20.7428 51.9152 15.5265 0.506239 -0.860309 0.042412
-19.5402 52.4431 15.1949 0.373638 -0.924449 0.0760796
-18.2675 52.861 14.9924 0.255382 -0.96071 0.108601
-16.8625 53.1328 14.6178 0.178223 -0.977465 0.112329
-15.5021 53.343 14.7061 0.118481 -0.987952 0.0995234
-14.0474 53.5346 15.3805 0.0674976 -0.993629 0.0900364
-13.0325 53.6722 16.3575 0.0499223 -0.99605 0.0730948
-12.3165 53.7856 17.5128 0.0219736 -0.997378 0.0689561
-10.8089 53.8459 17.8078 0.0341316 -0.998792 0.0353574
-9.42075 53.8989 17.8353 0.0439772 -0.998763 0.0229904
-9.01654 53.9042 17.1753 0.0513563 -0.998463 0.0206888
-9.95561 53.8138 15.8621 0.0561415 -0.997871 0.0331844
-10.588 53.7151 14.2901 0.0729865 -0.996786 0.0330147
-10.6641 53.6589 12.8205 0.0771523 -0.996481 0.03275
-10.7225 53.6139 11.4167 0.070897 -0.997166 0.0251609
-11.7597 53.5203 10.5193 0.0734479 -0.997119 0.0189636
-13.1493 53.3945 10.3059 0.103938 -0.99443 0.0174236
-14.8679 53.1826 10.0154 0.135852 -0.990465 0.0228725
-16.4506 52.9398 9.74308 0.160129 -0.986962 0.0143271
-17.6705 52.7426 8.84452 0.157056 -0.987586 0.00264485
-18.7389 52.5739 7.86621 0.16881 -0.98562 -0.00433251
-19.8591 52.3806 7.30027 0.200407 -0.979328 -0.0204179
-20.8149 52.0884 8.36591 0.325285 -0.945529 -0.0128186
-21.8761 51.6535 9.15716 0.380823 -0.922644 -0.0591201
-23.1548 51.0207 10.0599 0.437851 -0.897303 -0.0559767
-23.9845 50.5619 10.5182 0.459797 -0.88377 -0.0868202
-24.5074 50.4061 9.2749 0.452735 -0.888875 -0.0687697
-25.8018 49.6964 9.52348 0.487574 -0.867164 -0.101418
-27.0033 49.01 9.54772 0.494669 -0.862864 -0.103689
-28.5678 48.2054 8.94583 0.497698 -0.860737 -0.105951
-29.9954 47.4677 8.28148 0.497854 -0.858282 -0.124391
-30.9721 46.9703 7.87295 0.493912 -0.860986 -0.119524
-30.6112 46.9911 9.07555 0.498033 -0.857615 -0.128295
-30.3889 46.7978 10.7964 0.523052 -0.831708 -0.185787
-30.4365 46.3964 12.153 0.540152 -0.805 -0.245058
-30.6845 45.7157 13.6439 0.537308 -0.791001 -0.292266
-31.1146 44.9471 14.8161 0.53234 -0.777191 -0.335356
-31.5724 44.1901 15.8564 0.52695 -0.777021 -0.344327
-32.3198 43.1681 16.987 0.502157 -0.779665 -0.373782
-33.0508 42.3197 17.8806 0.425601 -0.836461 -0.345248
-33.8935 41.6002 18.8466 0.42807 -0.870601 -0.242509
-33.0886 41.9204 18.9816 0.459766 -0.86553 -0.196142
-31.9117 42.6101 19.0801 0.558417 -0.806316 -0.195
-30.7708 43.4609 19.1418 0.62552 -0.7686 -0.129312
-29.604 44.4256 18.9744 0.61775 -0.767637 -0.161727
-29.3935 44.9288 17.7289 0.538989 -0.787689 -0.297492
-28.6998 45.8489 16.7226 0.574124 -0.752418 -0.322876
-27.6818 46.7222 16.524 0.592546 -0.747585 -0.30001
-26.5725 47.6628 16.4571 0.620773 -0.746683 -0.23714
-25.3801 48.614 16.5515 0.634687 -0.744495 -0.207122
-24.2465 49.5339 16.6429 0.647414 -0.753502 -0.114001
-23.1979 50.3881 16.3735 0.597993 -0.799369 -0.0285982
-22.1802 51.093 16.7489 0.6208 -0.782624 0.0459052
-21.0256 51.8447 16.6045 0.497423 -0.863912 0.0738604
-19.689 52.4981 16.5229 0.396511 -0.914047 0.0853662
-18.3292 53.0011 16.3514 0.307697 -0.944422 0.114402
-16.8836 53.2829 15.8092 0.172208 -0.966766 0.188968
-15.5101 53.4812 15.9177 0.0855996 -0.98889 0.121532
-14.2404 53.6571 16.8103 0.0352176 -0.99413 0.101756
-13.4509 53.793 18.0553 0.0248363 -0.996586 0.0787342
-12.6934 53.8715 19.0621 0.0153327 -0.998855 0.0452411
-11.2815 53.8907 19.0676 0.0092518 -0.999082 0.0417778
-9.82768 53.9156 19.0909 0.0229305 -0.999487 0.022378
-8.31142 53.956 19.113 0.0275481 -0.999577 0.00932701
-6.85223 54.0098 19.0857 0.038889 -0.999243 -0.000605498
-5.98641 54.0501 18.6653 0.0448435 -0.998862 -0.0162326
-7.11116 54.0071 17.6074 0.0558842 -0.998423 -0.00526915
-8.13707 53.9403 16.2126 0.0624901 -0.997866 0.018914
-8.92935 53.861 14.9484 0.0728122 -0.997085 0.0227975
-9.41779 53.7873 13.618 0.0819706 -0.996047 0.0341841
-9.50479 53.7258 12.068 0.0803797 -0.996216 0.0330318
-9.49042 53.6756 10.5527 0.0691439 -0.997106 0.031049
-9.88112 53.6253 9.30095 0.0592086 -0.998184 0.0110842
-11.3352 53.5385 9.28892 0.0709008 -0.997447 0.00790146
-12.7185 53.4221 9.15559 0.0985642 -0.995038 0.0127582
-14.0446 53.2719 8.84839 0.126754 -0.991884 0.00896024
-15.5273 53.0682 8.5692 0.144437 -0.989474 0.00833151
-16.8225 52.8743 7.85955 0.14648 -0.989207 -0.00334608
-17.9453 52.7095 6.96561 0.151533 -0.988382 -0.0117523
-18.9373 52.5649 5.95673 0.158355 -0.987301 -0.0125744
-19.9189 52.4029 5.39706 0.187183 -0.982305 0.00620331
-20.7998 52.1804 6.53664 0.287947 -0.955344 -0.0507793
-21.7304 51.7759 7.49852 0.375348 -0.925182 -0.0554346
-22.887 51.2471 8.33889 0.415002 -0.909152 -0.0348624
-23.946 50.7015 9.00916 0.440866 -0.895289 -0.0639964
-23.9563 50.6961 9.01438 0.440907 -0.895271 -0.0639624
-56.8646 29.7834 -8.60193 0.435242 -0.900298 0.00482497
-56.9174 29.7667 -7.33706 0.451923 -0.891906 0.0123015
-57.0878 29.6909 -5.77666 0.449409 -0.893268 -0.003409
-56.8225 29.8096 -4.41771 0.450725 -0.89249 -0.0172881
-56.2918 30.0998 -5.35684 0.455519 -0.890091 -0.0135651
-55.4113 30.5647 -6.64079 0.474411 -0.880211 0.00998241
-54.4708 31.0866 -7.28011 0.501365 -0.865118 0.0142689
-53.4314 31.6841 -7.92773 0.514247 -0.857237 0.0263351
-52.36 32.3238 -8.56933 0.528389 -0.848451 0.0305844
-51.2952 32.9877 -8.94211 0.543936 -0.83831 0.0370053
-49.9925 33.8374 -9.32075 0.564762 -0.82393 0.0459025
-48.8972 34.5936 -9.4935 0.577882 -0.813921 0.0598762
-47.9489 35.2638 -9.7273 0.591979 -0.803912 0.0573358
-47.8317 35.2534 -11.0207 0.596412 -0.800209 0.0629119
-47.7785 35.1525 -12.5711 0.600839 -0.795845 0.0749872
-47.5981 35.1436 -14.1339 0.638087 -0.76643 0.0736917
-47.4319 35.1788 -15.4976 0.654976 -0.75238 0.0669357
-48.1547 34.4807 -15.9661 0.668521 -0.738789 0.0852706
-49.1003 33.7523 -15.4036 0.620395 -0.774197 0.125417
-49.9803 33.0089 -15.869 0.581422 -0.801831 0.137898
-50.5555 32.4302 -16.8004 0.570045 -0.802647 0.175501
-51.4987 31.7921 -17.5499 0.496768 -0.865977 0.0574815
-52.6485 31.2282 -17.5613 0.429135 -0.900005 0.0763873
-53.89 30.6394 -17.7241 0.405047 -0.908156 0.105783
-55.1585 30.1118 -17.678 0.372374 -0.925992 0.0622635
-56.5514 29.5611 -17.633 0.360359 -0.932163 0.0348505
-57.6395 29.1486 -17.4428 0.36035 -0.932274 0.031818
-57.1806 29.3867 -15.9631 0.367939 -0.928965 0.040325
-56.9379 29.5554 -14.4521 0.399011 -0.915557 0.0490458
-56.881 29.6429 -13.1213 0.412405 -0.909676 0.0461375
-56.7247 29.7838 -11.8218 0.437509 -0.8987 0.0304072
-56.7406 29.8227 -10.2084 0.447711 -0.894029 0.0163385
-56.852 29.7875 -8.85704 0.435046 -0.900383 0.00676016
-56.8513 29.7887 -8.74963 0.434995 -0.900407 0.00681756
-57.9839 29.2619 -8.78512 0.408864 -0.912571 0.00412863
-58.1068 29.2078 -7.52185 0.420542 -0.907249 0.00558755
-58.247 29.1479 -6.08672 0.410259 -0.911869 -0.0135233
-58.1791 29.1538 -4.44481 0.427799 -0.90372 -0.0156925
-57.8999 29.2612 -3.16513 0.40704 -0.912787 -0.0330744
-57.6575 29.3187 -1.81063 0.417482 -0.90765 -0.0433653
-57.4295 29.3652 -0.441876 0.411621 -0.910815 -0.0313651
-57.2904 29.3758 0.942854 0.416257 -0.908623 -0.0331255
-57.2462 29.3535 2.02264 0.401072 -0.915488 -0.0319719
-57.1679 29.3198 3.46187 0.415491 -0.908124 -0.0510602
-57.1126 29.2496 4.81235 0.405351 -0.911897 -0.064302
-57.0978 29.1712 6.10242 0.39675 -0.916869 -0.0440433
-56.8131 29.2203 7.42276 0.391148 -0.918533 -0.0574523
-56.856 29.1029 8.94395 0.398308 -0.915008 -0.0641257
-56.847 29.0074 10.256 0.376206 -0.924383 -0.0630088
-56.854 28.9136 11.5136 0.360347 -0.931105 -0.0519545
-56.9736 28.7812 12.8649 0.337438 -0.939158 -0.0641659
-57.1776 28.6151 14.2839 0.336394 -0.940095 -0.0553305
-57.3824 28.4595 15.7949 0.321076 -0.945898 -0.0467663
-57.636 28.3141 17.0879 0.300837 -0.952786 -0.039774
-57.7367 28.2272 18.7309 0.287295 -0.957352 -0.0306449
-56.429 28.6188 19.0255 0.299238 -0.953609 -0.0329614
-55.013 29.0683 19.0456 0.309613 -0.949811 -0.0446297
-53.7639 29.482 19.0606 0.32095 -0.946134 -0.0425992
-52.3194 30.0431 18.9826 0.370526 -0.926885 -0.0589544
-50.9539 30.5939 19.0105 0.424496 -0.899934 -0.0835277
-49.8088 31.2844 18.596 0.540114 -0.835251 -0.103111
-49.387 31.7537 17.4017 0.592063 -0.783651 -0.188019
-49.5495 31.8734 16.5073 0.614544 -0.764859 -0.1932
-50.5116 31.3884 15.6836 0.523094 -0.826058 -0.209722
-51.688 30.8797 14.9153 0.442766 -0.883612 -0.152061
-52.5637 30.5837 14.0304 0.43705 -0.887486 -0.145887
-53.6431 30.2265 12.6999 0.456959 -0.882786 -0.108148
-54.3494 29.983 11.5885 0.43576 -0.895851 -0.08646
-55.071 29.7569 10.4545 0.430452 -0.896325 -0.106363
-55.5291 29.6699 9.23349 0.427714 -0.898941 -0.0946858
-55.7513 29.6831 7.7478 0.438739 -0.896504 -0.0615528
-56.2589 29.5181 6.40354 0.405194 -0.912408 -0.0554577
-56.5638 29.4256 5.77549 0.405384 -0.911886 -0.064245
-56.7746 29.4506 4.17798 0.409081 -0.909574 -0.072987
-57.1223 29.3664 2.91704 0.413187 -0.909623 -0.0431595
-56.9888 29.4762 1.86303 0.42108 -0.905954 -0.0440234
-56.8293 29.5983 0.689169 0.420933 -0.906597 -0.029967
-56.6687 29.7408 -0.683793 0.439744 -0.896689 -0.0507334
-56.4244 29.926 -2.00031 0.46126 -0.886089 -0.0456706
-55.9576 30.2041 -3.1553 0.45824 -0.888309 -0.0292701
-55.4177 30.5503 -4.41875 0.474132 -0.880065 -0.0261557
-54.6558 30.998 -5.58588 0.500083 -0.865974 -0.00249357
-53.7124 31.5405 -6.38315 0.511161 -0.859366 0.0106269
-52.3814 32.3499 -7.15853 0.534917 -0.844696 0.0172751
-51.0704 33.1894 -7.65205 0.546062 -0.837028 0.0346444
-49.8604 33.9998 -8.05061 0.569592 -0.821205 0.0344632
-48.733 34.7872 -8.19858 0.578435 -0.814622 0.0424814
-47.6038 35.6171 -8.01875 0.592516 -0.804705 0.0366825
-46.426 36.5077 -7.73263 0.598328 -0.80019 0.0412273
-46.5826 36.3231 -8.9376 0.594678 -0.802469 0.049006
-46.7352 36.1297 -10.1997 0.595771 -0.80132 0.0542039
-46.7933 35.9934 -11.5119 0.600079 -0.797519 0.0618748
-46.6268 35.9969 -13.0568 0.606911 -0.792855 0.0533061
-46.2642 36.179 -14.7034 0.599858 -0.799758 0.0236079
-45.9288 36.404 -15.9989 0.597176 -0.802085 0.00638199
-45.313 36.8404 -17.1292 0.542866 -0.839795 -0.00639935
-46.1749 36.2494 -17.1193 0.602995 -0.795853 -0.0549075
-47.1825 35.3737 -16.8398 0.678692 -0.733417 -0.03843
-48.1593 34.3129 -17.0915 0.753861 -0.650987 0.072197
-49.0871 33.4943 -16.9173 0.643197 -0.746418 0.17076
-49.9122 32.71 -17.6831 0.503074 -0.844519 0.183586
-50.4137 32.2913 -18.7045 0.479559 -0.874867 0.0680536
-51.546 31.6728 -18.9066 0.449237 -0.891994 0.0503239
-52.7708 31.0644 -18.8779 0.432834 -0.898462 0.0734463
-53.9179 30.5176 -18.9629 0.368917 -0.927939 0.0531958
-55.262 29.9972 -18.9542 0.357227 -0.932187 0.0584471
-56.5127 29.5189 -18.963 0.351634 -0.935392 0.0373461
-57.8984 29.0028 -18.9329 0.339432 -0.940122 0.0277736
-59.1578 28.5699 -18.6919 0.321956 -0.946589 0.0162529
-59.0814 28.617 -17.765 0.32945 -0.94394 0.0209685
-58.5955 28.8208 -16.3892 0.342709 -0.939315 0.0154066
-58.1864 29.0137 -15.1403 0.366833 -0.930008 0.0228002
-58.1022 29.0861 -13.8495 0.366952 -0.92871 0.0533261
-57.9426 29.2165 -12.3971 0.397665 -0.916945 0.0303878
-57.9004 29.2648 -11.1479 0.416789 -0.908601 0.0249742
-57.9561 29.2655 -9.6488 0.406213 -0.913745 0.00725176
-57.9658 29.2643 -9.34574 0.408086 -0.912896 0.00930732
-55.563 29.3793 11.9638 0.392706 -0.914755 -0.0907542
-55.7981 29.1831 13.297 0.36884 -0.927194 -0.0622361
-56.0461 28.9745 14.9229 0.340784 -0.936917 -0.0776457
-56.2785 28.8038 16.2651 0.319297 -0.945944 -0.0569214
-55.9064 28.8349 17.7679 0.29942 -0.952785 -0.0504707
-54.3111 29.3593 17.832 0.34104 -0.936937 -0.072799
-53.0118 29.8261 17.7957 0.386769 -0.92015 -0.0598704
-51.6408 30.4098 17.777 0.39229 -0.912726 -0.106908
-50.6322 31.0079 17.2137 0.473832 -0.869501 -0.139464
-51.7391 30.6062 16.2814 0.41614 -0.895006 -0.160601
-52.9805 30.1904 15.2791 0.403147 -0.906125 -0.126934
-53.98 29.8608 14.2728 0.420077 -0.897942 -0.129515
-54.7976 29.6229 13.0954 0.42795 -0.898543 -0.0959464
-55.444 29.4226 12.0565 0.412305 -0.90467 -0.107595
56.0686 31.1946 8.24803 -0.51345 -0.857964 0.0157578
55.8985 31.2825 6.90243 -0.538655 -0.84241 0.0139081
55.3231 31.6466 6.73031 -0.537951 -0.842834 0.0154734
54.4968 32.2047 7.62544 -0.555586 -0.831401 0.0097852
53.5773 32.8347 8.26725 -0.569824 -0.821762 -0.00282407
52.553 33.5555 8.72017 -0.586268 -0.810062 -0.00111149
51.3479 34.4415 9.13252 -0.601953 -0.798449 -0.0106709
50.2691 35.2658 9.44351 -0.611022 -0.791541 -0.0103851
49.2325 36.0817 9.52283 -0.61988 -0.784555 -0.0149374
48.1867 36.9087 9.64058 -0.623352 -0.781786 -0.0156035
47.8891 37.1224 10.7502 -0.626071 -0.779621 -0.0144782
47.8553 37.1276 12.3321 -0.627191 -0.778821 -0.00388426
47.6804 37.2581 13.6531 -0.638597 -0.769449 -0.0119152
47.2499 37.6543 14.9118 -0.65317 -0.757041 0.0160432
47.9719 37.0203 15.2078 -0.68244 -0.730938 0.00217657
48.9273 36.1134 15.2806 -0.692825 -0.72075 -0.0226273
49.8208 35.237 15.5591 -0.687414 -0.723762 -0.0591831
50.7263 34.4217 15.9715 -0.628545 -0.774431 -0.0720248
51.6338 33.6509 16.9463 -0.588863 -0.804866 -0.0727718
52.6961 32.8756 17.7274 -0.530937 -0.844801 -0.0639154
54.2536 31.9554 17.8005 -0.483005 -0.873421 -0.0619769
55.4228 31.3355 17.8283 -0.453751 -0.890323 -0.0378921
56.5962 30.7564 17.8978 -0.432862 -0.901047 -0.0272918
57.757 30.2246 17.6701 -0.413156 -0.910544 -0.0100276
58.614 29.8479 16.7497 -0.407799 -0.913071 -0.00101245
58.8009 29.7657 15.3345 -0.409483 -0.912309 0.00284416
58.4407 29.9208 14.0901 -0.413 -0.910719 0.00333151
57.7244 30.2735 12.9262 -0.46242 -0.886431 -0.020215
56.9158 30.7237 11.8253 -0.486753 -0.873478 -0.0104177
56.4817 30.9836 10.5096 -0.500103 -0.865929 0.00804416
56.2359 31.1151 9.23236 -0.516152 -0.856295 0.0186297
56.1547 31.1542 8.77549 -0.516151 -0.856295 0.0186271
57.2532 30.513 8.59133 -0.47894 -0.877375 0.0287926
57.4663 30.4327 9.88867 -0.464814 -0.885193 0.0170371
