-14.5707 54.7772 -20.2975 0.000115731 -0.999999 0.000406096
-15.2767 54.7744 -20.2747 0.00796147 -0.999968 0.000327095
-15.9125 54.7636 -20.2758 0.0260932 -0.999632 0.00743896
-16.4568 54.7472 -20.2421 0.0365807 -0.999313 -0.00489755
-17.0832 54.7118 -20.2825 0.0734326 -0.99715 -0.0154479
-17.5666 54.6532 -20.22 0.153087 -0.988036 -0.0148193
-18.2504 54.5239 -20.1506 0.214477 -0.976715 0.00533988
-18.7704 54.4079 -20.2478 0.239621 -0.97074 -0.0150086
-19.2792 54.2705 -20.2242 0.285259 -0.958299 -0.0170266
-19.7463 54.1249 -20.1975 0.319261 -0.947449 -0.0135686
-20.2529 53.9452 -19.9968 0.362487 -0.931367 -0.00798323
-20.7759 53.7236 -20.1996 0.386453 -0.92219 0.00303298
-21.0616 53.5916 -20.1675 0.433832 -0.900994 -0.00030515
-21.4933 53.3686 -20.1995 0.48387 -0.875112 -0.00604569
-21.9392 53.1074 -20.2248 0.524081 -0.851638 -0.0071569
-22.2162 52.9349 -20.182 0.560141 -0.828234 0.0161559
-22.6345 52.6514 -20.2817 0.579281 -0.814673 0.00592017
-23.0519 52.3343 -20.3525 0.614453 -0.78856 -0.0194511
-23.4991 51.9731 -20.2759 0.641604 -0.766986 -0.00881522
-23.8573 51.668 -20.3385 0.65508 -0.75555 -0.00371569
-24.2273 51.34 -20.2931 0.671 -0.741446 -0.00407866
-24.3236 51.2501 -19.8856 0.672387 -0.740182 -0.00516462
-23.9632 51.5713 -19.8418 0.66045 -0.750825 -0.00822181
-23.5656 51.9129 -19.8773 0.641543 -0.767038 -0.00874555
-23.3244 52.1167 -20.0564 0.630323 -0.77616 -0.00739851
-22.9713 52.3977 -19.8737 0.616642 -0.787162 0.00191969
-22.5696 52.6991 -19.8672 0.59989 -0.79987 0.0119518
-22.1851 52.9639 -19.8246 0.538125 -0.842226 0.0170815
-21.6889 53.2632 -19.8342 0.495054 -0.867879 0.0279804
-21.4884 53.3705 -20.1202 0.481732 -0.876278 -0.00847397
-21.1281 53.5595 -19.88 0.433052 -0.901368 -0.00096888
-20.6877 53.7657 -19.845 0.379613 -0.925015 0.0154999
-20.2376 53.9503 -19.8022 0.347509 -0.937255 0.00862139
-19.7273 54.1264 -19.8093 0.313351 -0.949634 -0.00226385
-19.2735 54.2679 -19.821 0.274327 -0.961636 -0.000675984
-18.6862 54.424 -19.8177 0.24864 -0.968582 -0.00514587
-18.1414 54.5497 -19.8028 0.194008 -0.980705 -0.00537214
-17.6807 54.6323 -19.8848 0.17849 -0.983844 -0.0036396
-17.0104 54.7109 -19.9267 0.0812634 -0.996644 0.00985649
-16.5515 54.744 -19.8219 0.0432382 -0.999045 0.00368498
-15.9818 54.7635 -19.7986 0.0202795 -0.999794 -0.00021402
-15.506 54.7727 -19.8316 0.0138722 -0.999886 -0.000447497
-14.9898 54.776 -19.8095 0.00467114 -0.999987 7.73499e-05
-14.4601 54.7768 -19.8258 0.000226817 -0.999996 -0.00185721
-13.9011 54.7756 -19.8464 -0.00269435 -0.999996 0.000822015
-13.3325 54.7737 -19.8173 -0.00425699 -0.99999 0.000316061
-12.7102 54.7693 -19.8667 -0.00786071 -0.999968 -0.00151482
-12.1796 54.7644 -19.7968 -0.0102655 -0.999946 -0.00108242
-11.5222 54.7564 -19.8295 -0.0126063 -0.99992 -0.000638819
-10.9806 54.7493 -19.8509 -0.0138317 -0.999904 -0.00043988
-10.5034 54.7425 -19.8323 -0.0148905 -0.999889 -0.000551546
-10.0046 54.7347 -19.8219 -0.0158081 -0.999875 -0.000392798
-9.49614 54.7267 -19.8192 -0.0164045 -0.999865 0.000157243
-9.00745 54.7185 -19.858 -0.0167906 -0.999859 0.000490366
-8.39231 54.7079 -19.7905 -0.0175467 -0.999845 0.00115831
-7.75309 54.6961 -19.772 -0.0186668 -0.999825 0.00092314
-7.28156 54.6872 -19.8029 -0.0189172 -0.999821 0.000602815
-6.76875 54.6774 -19.8457 -0.0188921 -0.999821 0.000507565
-6.28322 54.6683 -19.7749 -0.0188409 -0.999822 0.000466804
-5.97164 54.6623 -20.0932 -0.0187103 -0.999825 0.000437031
-6.52734 54.6727 -20.3133 -0.0187741 -0.999824 0.000284979
-7.06969 54.6829 -20.3106 -0.0187399 -0.999824 0.000496922
-7.70032 54.6946 -20.235 -0.0186243 -0.999826 0.000732469
-8.21884 54.7042 -20.22 -0.0184315 -0.99983 0.00108299
-8.69505 54.7127 -20.2265 -0.0178846 -0.99984 0.00102457
-9.2148 54.7217 -20.2866 -0.0168377 -0.999858 0.000653484
-9.68549 54.7298 -20.2805 -0.0168426 -0.999858 7.42313e-05
-10.1525 54.7374 -20.2387 -0.0159041 -0.999873 -0.000646248
-10.7971 54.7471 -20.2659 -0.0142211 -0.999898 -0.000965623
-11.3668 54.755 -20.2888 -0.0131274 -0.999913 -0.00135442
-11.8413 54.7608 -20.2477 -0.0119977 -0.999926 -0.0019147
-12.3461 54.7666 -20.2708 -0.0102654 -0.999946 -0.00108245
-12.8428 54.771 -20.3019 -0.00785636 -0.999968 -0.0015026
-13.3529 54.7742 -20.2657 -0.00341889 -0.999993 -0.00137653
-14.1149 54.7764 -20.2995 -0.00211487 -0.999998 -0.000633539
-14.4493 54.7771 -20.2959 -0.00165736 -0.999998 -0.000621119
-14.4422 54.7775 -20.7584 0.00166509 -0.999996 -0.000988396
-13.9609 54.7773 -20.7884 -0.00205518 -0.999995 -0.0025535
-13.4294 54.7757 -20.7635 -0.00466161 -0.999985 -0.00287173
-12.8789 54.7723 -20.7644 -0.00846326 -0.999961 -0.00250277
-12.3299 54.7673 -20.7636 -0.0105138 -0.999943 -0.00169373
-11.8071 54.7613 -20.7678 -0.0126433 -0.999918 -0.00186374
-11.2783 54.7544 -20.7625 -0.0135928 -0.999906 -0.00177937
-10.7519 54.747 -20.7501 -0.0151506 -0.999883 -0.00188224
-10.2716 54.7395 -20.7297 -0.0165779 -0.999862 -0.000820895
-9.77854 54.7314 -20.7502 -0.0174684 -0.999846 -0.00106511
-9.16539 54.7207 -20.761 -0.018123 -0.999835 0.000324482
-8.56466 54.7098 -20.7292 -0.0180114 -0.999837 0.00106778
-8.06726 54.701 -20.7167 -0.0182604 -0.999833 0.000801636
-7.59044 54.6923 -20.7457 -0.0183571 -0.999831 0.000675176
-6.96959 54.6808 -20.7828 -0.0185279 -0.999828 0.000444714
-6.3396 54.669 -20.7488 -0.0187228 -0.999825 0.00036046
-5.8163 54.6592 -20.7491 -0.0187256 -0.999825 0.000359005
-5.53233 54.654 -20.3825 -0.0181932 -0.999834 0.000265142
-5.54503 54.6544 -19.6759 -0.0186514 -0.999826 3.04129e-06
-5.96936 54.6625 -19.3387 -0.018907 -0.999821 0.000193697
-6.4468 54.6715 -19.3298 -0.0189169 -0.999821 0.000208118
-6.96272 54.6813 -19.3309 -0.0191768 -0.999816 0.000411904
-7.46341 54.691 -19.3211 -0.0194716 -0.99981 0.000339994
-8.0482 54.7022 -19.3284 -0.0192214 -0.999814 0.00125645
-8.65268 54.7129 -19.3409 -0.0172086 -0.999851 0.00120243
-9.24841 54.7228 -19.3511 -0.016055 -0.999871 0.000578025
-9.7715 54.7311 -19.3151 -0.0159984 -0.999872 0.000145973
-10.3073 54.7394 -19.3336 -0.015097 -0.999886 2.23818e-05
-10.8078 54.7468 -19.3517 -0.014525 -0.999895 1.34537e-05
-11.3897 54.7547 -19.3396 -0.0128599 -0.999917 0.000272851
-11.9555 54.7618 -19.3053 -0.0124135 -0.999923 0.000333399
-12.4757 54.7675 -19.3546 -0.00900095 -0.999959 0.000810053
-13.0099 54.7721 -19.3676 -0.00641413 -0.999978 0.00060349
-13.4869 54.7745 -19.3414 -0.00507402 -0.999986 0.00118613
-14.0747 54.7765 -19.3398 -0.00306947 -0.999994 0.00136625
-14.5744 54.7768 -19.3372 0.000352787 -0.999999 9.22201e-05
-15.1819 54.7751 -19.3342 0.00467289 -0.999987 7.80392e-05
-15.6678 54.7696 -19.3471 0.0154164 -0.999872 -0.00125617
-16.2723 54.7575 -19.3322 0.0240738 -0.999674 0.00647745
-16.7714 54.7348 -19.3418 0.0473319 -0.9988 0.0125725
-17.2942 54.6938 -19.3841 0.110792 -0.993313 0.00867808
-17.8258 54.6137 -19.3929 0.176846 -0.98387 0.0266611
-18.3206 54.5136 -19.3288 0.230131 -0.973057 0.0115561
-18.8888 54.3711 -19.3499 0.253403 -0.967275 0.00902222
-19.3779 54.2393 -19.3275 0.268845 -0.963139 0.00930239
-19.8689 54.0812 -19.3622 0.318842 -0.947773 0.00807809
-20.3846 53.8955 -19.3448 0.360201 -0.932224 0.0348352
-20.8855 53.6907 -19.3779 0.412099 -0.909385 0.0565096
-21.4018 53.4333 -19.3713 0.474912 -0.879196 0.0383944
-21.9129 53.1419 -19.3607 0.513031 -0.856413 0.057933
-22.3233 52.8824 -19.3498 0.564873 -0.82452 0.03294
-22.7425 52.5813 -19.3528 0.597568 -0.801686 0.00950677
-23.1226 52.2838 -19.3701 0.635959 -0.771432 0.0177361
-23.6329 51.8581 -19.3762 0.650814 -0.759236 -0.00119912
-24.109 51.4419 -19.3369 0.667665 -0.744457 -0.0028966
-24.4774 51.1084 -19.3657 0.676549 -0.736391 -0.0031161
-24.7202 50.8877 -19.7362 0.674929 -0.73787 -0.00429343
-24.7329 50.879 -20.217 0.674033 -0.738658 -0.00726714
-24.546 51.0564 -20.7281 0.672898 -0.739669 -0.00990555
-24.1973 51.3738 -20.7811 0.670934 -0.741443 -0.0103272
-23.8272 51.7017 -20.7614 0.659344 -0.751747 -0.0108098
-23.4439 52.0243 -20.7467 0.644227 -0.764263 -0.023828
-22.997 52.389 -20.805 0.610794 -0.791078 -0.0255493
-22.5036 52.7448 -20.7314 0.566932 -0.823615 -0.0156463
-22.0967 53.0195 -20.6981 0.518147 -0.855107 -0.0177578
-21.6446 53.2921 -20.6964 0.503559 -0.863508 -0.0231795
-21.086 53.5885 -20.6812 0.436888 -0.89913 -0.0263314
-20.5735 53.8183 -20.6666 0.385548 -0.922383 -0.023723
-19.9801 54.0498 -20.6834 0.334556 -0.940694 -0.056276
-19.5248 54.2093 -20.7042 0.300036 -0.952947 -0.0413372
-19.0551 54.349 -20.777 0.261381 -0.964878 -0.0262649
-18.4718 54.4885 -20.7067 0.229614 -0.972587 -0.0365343
-17.8396 54.6228 -20.6813 0.18184 -0.982607 -0.0267939
-17.3667 54.6926 -20.7033 0.0960548 -0.994985 -0.0252325
-16.8728 54.7331 -20.7493 0.0621448 -0.99788 -0.0193118
-16.3481 54.7534 -20.7473 0.0282191 -0.999591 -0.00453317
-15.6971 54.7682 -20.7562 0.0152038 -0.999874 0.00463099
-15.0864 54.775 -20.7753 0.00524047 -0.999983 0.00250527
-14.6318 54.7768 -20.7713 0.00370801 -0.999993 -0.000941888
-14.6095 54.778 -21.2503 0.00272456 -0.999993 -0.00259192
-15.101 54.7765 -21.2547 0.00423672 -0.999984 -0.00321699
-15.6147 54.7727 -21.2472 0.0118107 -0.999894 -0.00802966
-16.1562 54.764 -21.2469 0.0234502 -0.999679 -0.00957194
-16.6824 54.7484 -21.2206 0.0342985 -0.998928 -0.0310771
-17.1758 54.7237 -21.224 0.0705343 -0.996386 -0.0473368
-17.8126 54.6451 -21.2023 0.178475 -0.982363 -0.0557567
-18.3607 54.5333 -21.2167 0.222687 -0.973476 -0.052481
-18.8588 54.4214 -21.2229 0.238465 -0.968947 -0.0608833
-19.421 54.2667 -21.1689 0.275641 -0.958238 -0.072466
-19.9829 54.0825 -21.2237 0.338732 -0.937222 -0.0800018
-20.5394 53.8634 -21.1666 0.409585 -0.909731 -0.0596941
-21.025 53.6427 -21.1967 0.432903 -0.899469 -0.056906
-21.6468 53.3054 -21.2049 0.512118 -0.856785 -0.0604498
-22.1617 52.9934 -21.1608 0.535352 -0.842762 -0.0527083
-22.5818 52.7125 -21.2077 0.567001 -0.821592 -0.0585724
-22.9709 52.4305 -21.2405 0.604638 -0.793 -0.0745938
-23.3655 52.1095 -21.225 0.633946 -0.7714 -0.0552635
-23.7902 51.7534 -21.2299 0.662833 -0.747868 -0.0366794
-24.1675 51.4138 -21.2415 0.673508 -0.738528 -0.0310525
-24.5826 51.0317 -21.2454 0.683366 -0.729889 -0.016512
-24.9538 50.6808 -21.2244 0.688179 -0.725464 -0.0105994
-25.0358 50.5992 -20.5379 0.685426 -0.728142 0.000431397
-25.0751 50.5639 -20.0114 0.671877 -0.740662 -0.00121291
-25.0412 50.5904 -19.5356 0.679694 -0.733472 -0.00593397
-24.9796 50.6437 -18.9968 0.678952 -0.734166 -0.00487788
-24.666 50.9361 -18.8497 0.680759 -0.732505 0.00176265
-24.2996 51.2749 -18.8528 0.67832 -0.734745 0.00563834
-23.8981 51.6415 -18.8626 0.665288 -0.746029 0.0288583
-23.4886 51.9962 -18.8654 0.641908 -0.765991 0.0336137
-23.1221 52.3027 -18.8864 0.630451 -0.773842 0.0554286
-22.674 52.6533 -18.8779 0.596202 -0.801353 0.0467765
-22.2637 52.9452 -18.862 0.558912 -0.82747 0.0532001
-21.8298 53.2232 -18.8586 0.500059 -0.863958 0.0593085
-21.4228 53.4554 -18.8388 0.484672 -0.872727 0.0581674
-20.9199 53.6975 -18.882 0.376685 -0.925141 0.0471394
-20.3946 53.9087 -18.8721 0.359867 -0.932515 0.0299076
-19.9211 54.0807 -18.8948 0.317406 -0.94702 0.0474807
-19.4643 54.2174 -18.886 0.274035 -0.961668 0.00989855
-18.9815 54.3503 -18.8774 0.244116 -0.969639 0.0138144
-18.4377 54.489 -18.8561 0.238744 -0.971016 0.00504833
-17.9508 54.6026 -18.8616 0.220854 -0.975258 0.00980408
-17.4394 54.6925 -18.8826 0.106421 -0.993661 0.0362282
-16.7815 54.7414 -18.8565 0.0482437 -0.998418 0.0288921
-16.2902 54.7599 -18.8584 0.02642 -0.999355 0.0243077
-15.7903 54.7702 -18.8528 0.0171342 -0.999831 0.00670308
-15.232 54.7765 -18.8483 0.00285782 -0.99997 0.00724015
-14.6514 54.7777 -18.8458 0.000857079 -0.999997 0.00224801
-14.0858 54.7772 -18.8501 -0.00297244 -0.999993 0.00241109
-13.4703 54.7751 -18.8442 -0.00424806 -0.999986 0.00308691
-12.9071 54.7722 -18.8653 -0.00770406 -0.999968 0.00223428
-12.4317 54.7681 -18.8569 -0.00978846 -0.999946 0.00338286
-11.8693 54.7612 -18.8253 -0.0142838 -0.999897 0.000270202
-11.3888 54.7547 -18.8547 -0.0128772 -0.999917 9.6924e-05
-10.7945 54.7467 -18.865 -0.0140536 -0.999901 0.000350683
-10.1775 54.7376 -18.8568 -0.016406 -0.999865 2.42218e-05
-9.66892 54.7295 -18.8215 -0.0151494 -0.999885 -0.00065205
-9.14446 54.7216 -18.859 -0.0155644 -0.999878 0.00144521
-8.61139 54.7131 -18.8653 -0.016548 -0.999859 0.00272275
-8.12351 54.7044 -18.8635 -0.0200653 -0.999792 0.00299011
-7.61413 54.6943 -18.8318 -0.0200212 -0.999799 0.00035019
-7.10313 54.6841 -18.8758 -0.0192254 -0.999815 -0.000944274
-6.60373 54.6748 -18.8628 -0.0187316 -0.999824 0.000913651
-5.97526 54.6627 -18.8695 -0.0192211 -0.999815 0.000311553
-5.46717 54.653 -18.8219 -0.0190344 -0.999819 4.6751e-06
-5.13936 54.6469 -19.1307 -0.0182516 -0.999833 -9.48784e-05
-5.07817 54.6458 -19.7261 -0.0186865 -0.999825 0.000167938
-5.05748 54.6455 -20.3758 -0.0186206 -0.999826 -0.00073495
-5.14173 54.647 -20.8467 -0.0173515 -0.999849 0.000114272
-5.32516 54.6502 -21.2293 -0.0172597 -0.999851 2.99392e-05
-5.8196 54.6591 -21.2271 -0.0190996 -0.999817 0.000591458
-6.3715 54.6696 -21.2211 -0.0186475 -0.999826 -0.000445005
-6.9346 54.6799 -21.2443 -0.0185341 -0.999828 0.000355544
-7.4931 54.6902 -21.248 -0.0184198 -0.99983 0.000515378
-7.98184 54.6991 -21.2392 -0.0174667 -0.999847 0.000422763
-8.4737 54.7077 -21.1988 -0.0156436 -0.999875 0.00123638
-8.95215 54.7162 -21.2174 -0.0191418 -0.999815 0.00165512
-9.43008 54.7254 -21.229 -0.01984 -0.999803 -0.000424497
-9.90938 54.7343 -21.2233 -0.0182468 -0.999831 -0.00185897
-10.4949 54.744 -21.2148 -0.0156945 -0.999869 -0.0039405
-11.0503 54.7521 -21.2306 -0.0140063 -0.999899 -0.00238046
-11.5742 54.7593 -21.2354 -0.0134515 -0.999908 -0.00193659
-12.1955 54.7673 -21.2416 -0.0136213 -0.999901 -0.00344903
-12.7112 54.7728 -21.2407 -0.0116005 -0.999912 -0.00601014
-13.3109 54.7768 -21.249 -0.00474139 -0.999982 -0.00377249
-13.9405 54.7786 -21.2491 -0.00176788 -0.999994 -0.00289616
-14.456 54.7784 -21.2408 0.00217296 -0.999995 -0.00231062
-14.4907 54.7783 -21.2415 0.00217152 -0.999995 -0.00229926
