3.32373 12.4917 8.11785 0.178438 0.97219 -0.119581
4.24488 12.3302 9.1198 0.402461 0.910763 -0.0770889
5.26428 11.8761 9.7564 0.512656 0.856421 -0.061047
6.23505 11.3092 10.1595 0.533214 0.845596 -0.0239541
7.58031 10.4123 10.2118 0.577271 0.816473 0.0113774
8.63401 9.66367 9.93428 0.584781 0.811162 0.00686967
9.50973 9.03405 9.41483 0.592037 0.805729 0.0171497
10.3847 8.40321 8.69584 0.590771 0.80677 0.0105346
11.0629 7.91722 7.95026 0.589377 0.807798 0.00984511
11.5877 7.54766 7.00329 0.586874 0.809617 0.00992058
11.9716 7.28292 5.92174 0.583681 0.811942 0.00805733
12.2109 7.12382 4.62236 0.585618 0.810556 0.00651
12.2112 7.12918 3.49095 0.584851 0.811131 0.00402892
11.9176 7.34036 2.31409 0.584303 0.811533 -0.00174787
11.4435 7.67883 1.31931 0.588869 0.808166 -0.00874718
10.7128 8.19092 0.405899 0.581792 0.8132 -0.0149485
9.87739 8.77174 -0.372009 0.568876 0.822028 -0.0226978
8.75653 9.50679 -0.902287 0.542235 0.840196 -0.00723996
7.74756 10.1357 -1.08819 0.502309 0.863342 -0.0448429
6.76539 10.7237 -0.983125 0.488566 0.870714 -0.0562198
5.75382 11.2717 -0.609013 0.404578 0.912862 -0.0547729
4.6967 11.7202 0.169268 0.282474 0.956482 -0.0703667
3.92776 11.9485 0.953701 0.133697 0.991021 -0.00179403
3.18721 12.0034 2.07298 0.0339536 0.999393 0.00777484
2.72895 12.0818 3.19517 -0.0191138 0.990837 -0.0888693
2.46256 12.144 4.27041 -0.0855162 0.990033 -0.111901
2.45131 12.2231 5.54463 0.024487 0.996004 -0.0846489
2.68008 12.3433 6.72945 0.0652843 0.992596 -0.0948177
3.00899 12.4308 7.5574 0.0949647 0.982543 -0.159974
3.88264 12.239 6.89815 0.178438 0.97219 -0.119579
4.56318 12.1385 7.92823 0.253381 0.959683 -0.115733
5.61741 11.6505 8.71382 0.479779 0.876952 -0.0277029
6.52168 11.1121 9.0747 0.539108 0.842207 -0.00714087
7.49471 10.4716 9.10976 0.561895 0.827105 0.00205564
8.47684 9.79572 8.7872 0.583493 0.811953 0.0163811
9.67629 8.93841 7.95594 0.594099 0.8043 0.0121652
10.4816 8.35598 7.12293 0.59421 0.804221 0.0119575
11.0848 7.92851 5.8581 0.590086 0.80728 0.00973111
11.3668 7.73492 4.30182 0.586737 0.809764 0.00471688
11.1909 7.86492 3.1744 0.585458 0.810703 -0.000546905
10.841 8.11896 2.07734 0.581813 0.813298 0.000337258
10.2358 8.53681 1.26249 0.570187 0.821502 -0.00451324
9.48262 9.05218 0.561526 0.564591 0.825355 -0.00510871
8.57239 9.65557 0.123866 0.550316 0.834638 -0.0218315
7.53764 10.3207 0.0525871 0.537512 0.842842 -0.0264165
6.52874 10.9367 0.224878 0.490872 0.869206 -0.0593873
5.58136 11.394 0.820132 0.384802 0.922872 0.0153359
4.74165 11.699 1.581 0.245556 0.966712 0.0438697
3.96743 11.9252 2.96565 0.219551 0.973601 -0.0595995
3.63328 12.0505 4.06813 0.174654 0.981821 -0.074325
3.52123 12.1335 5.18857 0.0812111 0.991572 -0.100941
3.82249 12.2255 6.69813 0.144912 0.982874 -0.101503
4.80331 11.8873 6.33273 0.332445 0.942441 -0.0355619
5.33211 11.7292 7.3192 0.448165 0.890354 -0.0801193
6.4442 11.1429 8.01112 0.507752 0.86107 -0.0273268
7.5911 10.4233 8.01259 0.555761 0.831282 0.00966225
8.45668 9.82665 7.57233 0.583558 0.812053 0.00528845
9.24427 9.26201 7.0236 0.586189 0.810143 0.00715885
9.96373 8.7463 6.23988 0.591892 0.805991 0.00655725
10.3994 8.43368 5.14357 0.590391 0.80711 0.00356372
10.4436 8.40358 3.94296 0.581228 0.813704 -0.00543159
10.1576 8.60597 2.82693 0.57912 0.815242 -0.000608034
9.35936 9.15013 1.68386 0.571961 0.820219 -0.0100801
8.40791 9.79216 1.25855 0.553395 0.83263 -0.0219139
7.28453 10.5081 1.19362 0.525091 0.850226 -0.037361
6.18023 11.1589 1.67202 0.48964 0.871787 -0.011453
5.34764 11.5644 2.55943 0.321546 0.945358 -0.0539137
4.88439 11.751 3.80103 0.301067 0.953486 -0.0149705
4.60287 11.902 5.10011 0.239705 0.968401 -0.0688602
4.72059 11.9016 5.91616 0.328926 0.943778 -0.0330304
-8.88422 7.79762 -13.0581 -0.552042 0.831803 0.0576914
-10.1879 6.91427 -12.7729 -0.546887 0.835772 0.048993
-11.1002 6.30026 -12.4514 -0.54559 0.836889 0.0441295
-12.0845 5.64704 -12.0374 -0.539793 0.841012 0.0363624
-13.0767 4.99231 -11.4983 -0.535469 0.843914 0.0327203
-13.6426 4.6615 -12.1859 -0.534561 0.844613 0.0294155
-14.0586 4.43037 -13.2163 -0.536369 0.843539 0.0274077
-14.6448 4.08742 -14.3498 -0.537677 0.842739 0.0260272
-15.288 3.70507 -15.2752 -0.537009 0.843321 0.0207573
-15.8755 3.35758 -16.2916 -0.535346 0.844344 0.0220891
-14.7825 4.06461 -16.691 -0.540813 0.840879 0.021015
-13.9144 4.6294 -16.9128 -0.545866 0.837605 0.0211832
-12.9719 5.25353 -17.2239 -0.552531 0.833163 0.023396
-12.0075 5.90575 -17.5159 -0.558307 0.829254 0.0251308
-11.1315 6.51076 -17.7839 -0.564577 0.824807 0.030772
-10.2057 7.15266 -17.9024 -0.574026 0.818173 0.032971
-9.26216 7.82008 -18.0275 -0.576302 0.816433 0.0359936
-8.3367 8.48007 -18.0821 -0.58205 0.812233 0.0386529
-7.38715 9.16142 -18.0856 -0.586083 0.809179 0.041607
-6.53575 9.77725 -18.2204 -0.578079 0.814233 0.0533829
-5.65573 10.3921 -18.3204 -0.563835 0.823674 0.0603334
-4.51264 11.139 -18.2857 -0.513102 0.85569 0.0672365
-3.39243 11.7709 -18.3561 -0.469961 0.880082 0.0677159
-2.34501 12.1925 -18.2507 -0.325399 0.937346 0.115632
-1.32933 12.4746 -18.1881 -0.116471 0.990302 0.0669886
0.353634 12.6467 -18.1987 -0.0349013 0.995936 0.00413658
1.45001 12.5008 -18.1938 0.239964 0.967373 -0.0296508
2.45759 12.1529 -18.2611 0.360809 0.932008 -0.0343263
3.49583 11.6972 -18.2664 0.445223 0.894069 -0.0491728
4.48209 11.1805 -18.3077 0.497008 0.866564 -0.0452808
5.44531 10.5917 -18.3204 0.537902 0.841251 -0.0540876
6.67868 9.78996 -18.3354 0.546282 0.83643 -0.0442847
7.65217 9.15139 -18.3614 0.547595 0.835692 -0.0419278
8.68399 8.47895 -18.2661 0.548506 0.835093 -0.0419558
9.65665 7.8453 -18.1158 0.550792 0.833606 -0.0415861
10.6621 7.19953 -17.9261 0.54483 0.837344 -0.0448966
11.5861 6.62197 -17.6292 0.540392 0.840324 -0.0427984
12.7119 5.91741 -17.3791 0.533192 0.844914 -0.0427328
13.6948 5.30327 -17.2889 0.53115 0.846224 -0.0422508
14.6843 4.68798 -17.1311 0.532196 0.845666 -0.0402011
14.1003 5.09855 -16.2789 0.532553 0.845362 -0.0418172
13.2915 5.6476 -15.5471 0.533899 0.844375 -0.0445225
12.6651 6.09362 -14.679 0.538123 0.841371 -0.0500254
12.2513 6.42054 -13.6869 0.541763 0.839037 -0.0500881
12.004 6.65244 -12.507 0.54424 0.837222 -0.0534927
11.9336 6.77348 -11.3246 0.546336 0.835819 -0.0540667
11.9993 6.80092 -10.2494 0.551318 0.832468 -0.0551851
12.0882 6.81689 -9.11022 0.551342 0.832518 -0.0541884
12.3748 6.72021 -7.55186 0.558218 0.828145 -0.0506769
12.7047 6.55812 -6.40867 0.563507 0.825094 -0.0404802
13.0244 6.39009 -5.21198 0.564048 0.825133 -0.0314836
13.3304 6.22117 -4.01004 0.564628 0.824867 -0.0280977
13.8473 5.89716 -2.82513 0.571134 0.820592 -0.0206315
14.36 5.56476 -1.69619 0.567105 0.823509 -0.0149583
14.9285 5.19248 -0.553965 0.563439 0.826031 -0.0134908
15.8257 4.60583 0.739824 0.56071 0.827957 -0.00885503
16.64 4.07081 1.68509 0.55154 0.834117 -0.00692149
17.3375 3.62254 2.45222 0.545593 0.837998 -0.00935097
18.1902 3.08401 3.42414 0.539433 0.84199 -0.00798994
18.6012 2.83009 4.49081 0.536437 0.843904 -0.00785891
18.8298 2.69278 5.78986 0.537091 0.843513 -0.00449059
18.8024 2.71279 6.9011 0.536689 0.84378 0.000459088
19.0866 2.52991 8.10631 0.534658 0.845065 0.00255408
19.4674 2.28311 9.54866 0.537023 0.843551 0.0046707
19.8258 2.04808 10.7825 0.534827 0.844955 0.00329554
20.1034 1.86989 12.0851 0.532168 0.846638 0.00117511
20.3682 1.70247 13.2699 0.530819 0.847485 0.000344948
20.5212 1.60683 14.5496 0.524879 0.851176 0.0013299
20.3907 1.68781 15.6471 0.522936 0.85237 -0.00210952
19.8686 2.00946 16.7131 0.527982 0.849252 0.00252075
18.991 2.55479 17.3011 0.529177 0.848507 0.00284436
17.9584 3.20458 17.5738 0.535112 0.844773 0.00361026
17.0811 3.76098 17.804 0.539224 0.842149 0.0036157
16.0658 4.41367 17.98 0.542481 0.840047 0.00585907
15.1303 5.02059 18.0791 0.548364 0.836217 0.00611244
14.0822 5.71102 18.1817 0.55548 0.83149 0.0068038
12.8687 6.52856 18.3645 0.562402 0.826788 0.0105806
11.8794 7.21503 18.4079 0.5729 0.819578 0.00857959
10.9294 7.88178 18.3549 0.574759 0.818278 0.00848632
9.98596 8.56153 18.3357 0.585615 0.810574 0.00480982
8.97311 9.32075 18.3388 0.605908 0.795513 0.000176532
8.11806 9.97802 18.3273 0.613348 0.789777 0.00465175
7.27426 10.6398 18.3291 0.619349 0.785104 0.000844937
6.40172 11.3342 18.2655 0.62729 0.77875 -0.00444379
5.39728 12.1237 18.2424 0.595137 0.802943 -0.0242945
4.38578 12.8405 18.1732 0.575664 0.816453 -0.0448948
3.15145 13.5568 18.1136 0.446618 0.887993 -0.0951854
1.81024 13.8827 18.2571 -0.106581 0.890658 -0.34508
0.757032 13.5029 18.0856 -0.283179 0.948053 -0.144929
-0.483297 12.8679 18.1293 -0.498754 0.855924 -0.122905
-1.35948 12.2717 18.129 -0.585766 0.807516 -0.0688185
-2.52783 11.4322 18.2003 -0.598043 0.800339 -0.0424015
-3.79584 10.4898 18.2553 -0.597946 0.800345 -0.0436866
-4.79267 9.7457 18.294 -0.595393 0.80301 -0.0260975
-5.88672 8.94935 18.2952 -0.582785 0.812015 -0.0315316
-6.87256 8.25099 18.3314 -0.56924 0.821856 -0.0227765
-7.83657 7.58711 18.2883 -0.563453 0.825985 -0.0156308
-9.0743 6.75732 18.3296 -0.551046 0.834402 -0.0103156
-9.98338 6.16637 18.442 -0.534015 0.845463 -0.00430073
-11.1137 5.45359 18.4431 -0.530307 0.847777 -0.00596799
-12.1663 4.80029 18.4147 -0.52649 0.850164 -0.00511934
-13.2547 4.13508 18.2254 -0.519201 0.854651 -0.00142593
-14.2037 3.55848 18.068 -0.518049 0.855348 0.0020827
-15.4275 2.81742 17.8933 -0.517432 0.855721 0.0021291
-16.3997 2.23082 17.6653 -0.517477 0.855691 0.00320462
-17.3613 1.65375 17.1061 -0.516504 0.85627 0.00499923
-17.6518 1.48528 16.0451 -0.516266 0.856409 0.00584477
-17.7363 1.44414 14.8686 -0.514335 0.857541 0.00904097
-17.8722 1.37286 13.8136 -0.513229 0.8582 0.00928125
-17.8908 1.3749 12.5629 -0.511193 0.859426 0.00833541
-17.8507 1.40996 11.4253 -0.511004 0.85954 0.00806379
-17.7697 1.46758 10.3444 -0.511136 0.859463 0.00791531
-17.647 1.55068 9.27202 -0.511835 0.859042 0.00837683
-17.5693 1.61005 8.07549 -0.513116 0.858243 0.0114448
-17.3047 1.78662 6.84706 -0.513203 0.858124 0.015699
-16.8966 2.05763 5.54705 -0.510822 0.859443 0.0204833
-16.5318 2.30007 4.50002 -0.509574 0.860159 0.0214576
-16.2157 2.51542 3.48375 -0.509318 0.860202 0.0254308
-15.9275 2.71564 2.43849 -0.506 0.862138 0.026113
-15.6579 2.87548 2.38625 -0.506137 0.862064 0.0259024
-14.9899 3.23867 3.41315 -0.505535 0.862512 0.0225124
-14.3276 3.60582 4.207 -0.505446 0.862605 0.0208116
-13.5822 4.02573 4.93315 -0.504314 0.863334 0.0178528
-12.6075 4.58145 5.65422 -0.503153 0.864055 0.0156901
-11.6745 5.11336 6.40867 -0.502912 0.864243 0.0126901
-10.7059 5.67324 6.6862 -0.505466 0.86282 0.00680998
-9.60894 6.31536 6.75666 -0.506005 0.862506 0.00637753
-8.65624 6.87646 6.67548 -0.506407 0.862295 0.000244219
-7.7042 7.43637 6.25934 -0.507606 0.86159 -0.000139974
-6.79379 7.96802 5.63543 -0.507949 0.861369 -0.00392703
-5.739 8.58679 4.77005 -0.505394 0.862887 0.00147365
-4.92003 9.056 4.09753 -0.492834 0.870116 0.00359526
-4.04358 9.5561 3.47057 -0.491072 0.871073 0.00793176
-3.16484 10.038 2.57609 -0.476972 0.878841 0.00974436
-2.22491 10.5344 1.56834 -0.461024 0.887186 0.0146649
-1.65913 10.8301 0.521922 -0.416289 0.908752 0.0259041
-1.02909 11.1676 -0.738302 -0.372335 0.9272 0.0408344
-0.515222 11.4402 -1.884 -0.372397 0.925798 0.0649566
0.016485 11.6897 -3.32324 -0.284035 0.958355 0.0296585
0.44349 11.8542 -4.58906 -0.174841 0.983331 0.0111494
0.783329 11.931 -6.13422 -0.11668 0.990817 0.0582499
0.694899 12.0414 -7.36941 -0.106324 0.98653 0.124315
0.346396 12.135 -8.57279 -0.202377 0.974952 0.0921696
-0.137504 12.1566 -9.82512 -0.141442 0.98621 0.0859253
-1.06497 12.0449 -11.0663 -0.26683 0.956813 0.100871
-1.99401 11.7862 -11.8669 -0.345588 0.935164 0.0774954
-3.04822 11.3714 -12.5615 -0.420049 0.904561 0.0727904
-3.98802 10.954 -12.9495 -0.442111 0.893616 0.0773752
-5.14142 10.2891 -13.1984 -0.540865 0.835684 0.0953799
-6.40431 9.47473 -13.3429 -0.553282 0.828977 0.0812242
-7.31857 8.85883 -13.3296 -0.553472 0.829669 0.0728526
-8.24799 8.22451 -13.1589 -0.55683 0.827479 0.0722382
-8.29651 8.19101 -13.1492 -0.552756 0.830645 0.0665572
-8.05918 8.27095 -12.1345 -0.545108 0.835659 0.0671975
-7.05486 8.93879 -12.2351 -0.551232 0.831039 0.0742809
-6.16731 9.51699 -12.2064 -0.545702 0.834366 0.0777365
-5.01542 10.2334 -12.068 -0.526987 0.846433 0.0763996
-3.69304 10.9552 -11.7121 -0.468406 0.875654 0.117585
-2.75443 11.3834 -11.2005 -0.422013 0.901344 0.0970382
-1.93193 11.6959 -10.522 -0.303583 0.948202 0.0935495
-1.18334 11.853 -9.63115 -0.316201 0.943501 0.099081
-0.722513 11.8884 -8.46236 -0.328278 0.938118 0.109879
-0.392423 11.8315 -7.41243 -0.27806 0.949467 0.145589
-0.284481 11.7383 -6.30872 -0.285496 0.953689 0.0947085
-0.521928 11.626 -5.14044 -0.256387 0.966502 -0.0118216
-0.88714 11.4433 -3.99171 -0.29273 0.952681 0.0782964
-1.30809 11.1821 -2.74488 -0.372501 0.925619 0.0668575
-1.74143 10.9177 -1.77726 -0.439865 0.896043 0.0602186
-2.207 10.6328 -0.819681 -0.444861 0.89393 0.0538988
-2.74989 10.2975 0.387471 -0.452446 0.891189 0.0327966
-3.60692 9.81843 1.48279 -0.471827 0.881275 0.0252988
-4.36584 9.38495 2.30619 -0.486353 0.873549 0.0193197
-5.1734 8.9217 2.96437 -0.495295 0.868656 0.0109125
-5.95955 8.4618 3.69634 -0.497915 0.867153 0.0111737
-6.79276 7.97596 4.29937 -0.499979 0.866023 0.00507972
-7.69333 7.44837 4.97066 -0.501398 0.865155 0.00984784
-8.57012 6.9337 5.49572 -0.5018 0.864937 0.00903258
-9.64524 6.30415 5.62757 -0.505128 0.862964 0.0113261
-10.5721 5.76501 5.59339 -0.502351 0.864561 0.0132964
-11.6013 5.17439 5.24815 -0.501708 0.864901 0.0153127
-12.5787 4.62211 4.45092 -0.503749 0.86362 0.0199225
-13.4041 4.15791 3.74353 -0.504516 0.863123 0.0219612
-14.1462 3.74598 2.90977 -0.504113 0.863316 0.0235535
-14.7631 3.41332 1.96105 -0.505602 0.862347 0.0269251
-15.2921 3.15233 0.480613 -0.505849 0.862084 0.0304815
-15.5638 3.0287 -0.534638 -0.506508 0.861662 0.0314002
-15.6902 3.0014 -1.78681 -0.507082 0.861285 0.0324935
-15.6925 3.02669 -2.49616 -0.510397 0.859361 0.0315293
-16.3025 2.61752 -1.20785 -0.50964 0.859857 0.0301898
-16.4568 2.48886 -0.107847 -0.508776 0.860402 0.0292679
-16.739 2.28763 0.905009 -0.508969 0.860303 0.0287829
-16.9595 2.11573 2.16492 -0.509617 0.859992 0.0265311
-17.1612 1.96319 3.24381 -0.509289 0.860206 0.0259101
-17.4776 1.74542 4.24995 -0.509948 0.859855 0.0245092
-17.8936 1.46591 5.4064 -0.51255 0.858339 0.0233092
-18.2475 1.22754 6.56988 -0.514341 0.857417 0.0170027
-18.4973 1.06012 7.66304 -0.513214 0.858201 0.0101446
-18.5626 1.0091 8.85268 -0.511591 0.859206 0.00621238
-18.7118 0.905776 10.4819 -0.511272 0.859379 0.00827384
-18.7681 0.861199 11.7609 -0.511698 0.859135 0.00721136
-18.7814 0.840818 12.9302 -0.511056 0.859486 0.0102946
-18.79 0.822188 14.0403 -0.516506 0.856194 0.0123838
-18.6186 0.910507 15.1542 -0.517462 0.855644 0.0103407
-18.5763 0.925923 16.2095 -0.518242 0.855212 0.00610776
-18.3768 1.039 17.5607 -0.516495 0.856282 0.00366525
-17.6831 1.45257 18.4312 -0.515843 0.856671 0.00439212
-16.386 2.23387 18.8415 -0.517537 0.855651 0.00411059
-15.305 2.88807 19.0328 -0.518965 0.854787 0.00383959
-14.2922 3.50284 19.1905 -0.520222 0.85403 0.00105586
-13.1843 4.17822 19.3385 -0.521579 0.853203 2.03213e-05
-12.2372 4.76031 19.4945 -0.526689 0.850055 0.00228
-11.0328 5.51197 19.5557 -0.532008 0.846721 -0.000292716
-10.1314 6.08195 19.5323 -0.545366 0.838103 -0.0124924
-9.14565 6.72477 19.443 -0.549774 0.835245 -0.010685
-8.12321 7.4141 19.3729 -0.560006 0.828364 -0.0142671
-6.88018 8.26928 19.4311 -0.573662 0.818869 -0.018043
-5.53192 9.23741 19.3817 -0.590872 0.806286 -0.0278111
-4.45685 10.0375 19.4105 -0.601828 0.798035 -0.0307159
-3.50038 10.7597 19.3219 -0.607799 0.79343 -0.0316244
-2.51014 11.5005 19.2759 -0.592372 0.804864 -0.0358922
-1.3992 12.3225 19.2129 -0.584018 0.810514 -0.0432927
-0.323318 13.0679 19.2494 -0.562641 0.826067 -0.0323662
0.713493 13.6426 19.1803 -0.544858 0.833553 -0.0656608
1.69405 14.2115 19.3714 -0.313607 0.853138 -0.416901
2.69454 14.1074 19.3056 0.432304 0.856331 -0.248701
3.69866 13.4277 19.2212 0.567725 0.809026 -0.125217
4.76515 12.6284 19.3247 0.608116 0.792399 -0.0339726
5.73943 11.8719 19.364 0.612747 0.790275 -0.00012566
6.87226 10.9618 19.4283 0.631523 0.775336 0.00363409
7.74179 10.2668 19.4715 0.617687 0.786407 0.00508555
8.64832 9.56432 19.4635 0.608887 0.793242 0.00486331
9.69311 8.77466 19.4284 0.594519 0.80408 0.00111551
10.8169 7.95569 19.4738 0.582783 0.812615 0.00456767
11.8852 7.19653 19.53 0.573382 0.819241 0.00833576
12.9819 6.43786 19.5088 0.56471 0.825191 0.0127683
13.9225 5.80624 19.2685 0.556393 0.830869 0.00908659
14.8482 5.19534 19.1917 0.5469 0.837156 0.00837202
15.7617 4.60247 19.1589 0.541601 0.840622 0.00486609
16.868 3.89204 19.0187 0.538536 0.842587 0.00500195
18.0143 3.16385 18.7078 0.535078 0.844789 0.00479279
19.0059 2.54045 18.498 0.531039 0.847342 0.00315934
19.8891 1.99167 18.2662 0.527121 0.849783 0.00345693
20.6687 1.51394 17.568 0.523903 0.851767 0.00424125
21.1384 1.22906 16.5008 0.523455 0.852051 0.000962767
21.4333 1.04787 15.4945 0.522855 0.852418 -0.00236268
21.4083 1.05691 13.9736 0.525766 0.850615 -0.00405129
21.2462 1.1537 12.7037 0.527717 0.849417 -0.00222731
20.9327 1.3496 11.6545 0.53162 0.846981 0.00152207
20.6615 1.5231 10.5932 0.531023 0.847344 0.00457862
20.3287 1.73932 9.46384 0.530865 0.847436 0.00584597
20.0556 1.91658 8.3713 0.534088 0.845413 0.00530272
19.7619 2.10371 7.01259 0.53414 0.845393 -0.00212569
19.7541 2.10601 5.95833 0.534311 0.845285 -0.00217715
19.6583 2.1609 4.81724 0.533397 0.84584 -0.00642205
19.4753 2.26763 3.66522 0.535774 0.844334 -0.00677338
18.8122 2.67848 2.55282 0.536073 0.844114 -0.00984875
17.9968 3.18752 1.57735 0.538448 0.842618 -0.00831762
17.2713 3.64965 0.788813 0.545086 0.838343 -0.00793734
16.4284 4.19209 -0.115956 0.553098 0.833026 -0.0122156
15.6298 4.70672 -1.29823 0.560564 0.827953 -0.0161731
15.0271 5.09452 -2.4324 0.562193 0.826859 -0.0156038
14.5914 5.3698 -3.39166 0.563884 0.825651 -0.0179482
14.1787 5.62308 -4.52191 0.566256 0.82395 -0.0212723
13.8906 5.7811 -5.6892 0.560825 0.827274 -0.033075
13.664 5.89277 -6.73268 0.560839 0.82723 -0.033899
13.2467 6.10682 -8.04711 0.552434 0.832405 -0.0437095
12.9983 6.20436 -9.23609 0.549777 0.833844 -0.0494704
12.8992 6.20177 -10.3566 0.547985 0.834817 -0.0528334
12.8594 6.15697 -11.545 0.542378 0.838681 -0.0493419
13.0467 5.95055 -12.9649 0.540858 0.839593 -0.0505656
13.4004 5.6622 -14.0302 0.536747 0.842343 -0.0485593
14.1299 5.14966 -14.918 0.53445 0.844065 -0.0437808
14.907 4.62354 -15.5814 0.533523 0.84475 -0.0418272
15.7609 4.06237 -16.0254 0.533529 0.844774 -0.041283
16.7976 3.38847 -16.4242 0.533314 0.844988 -0.0396562
17.9787 2.64167 -16.4152 0.534475 0.844256 -0.0395991
18.0594 2.58808 -16.4777 0.531998 0.846061 -0.0339916
17.516 2.8979 -17.2497 0.532432 0.84574 -0.0352196
16.6189 3.44358 -17.7014 0.531455 0.846374 -0.0347373
15.711 4.00586 -17.884 0.531828 0.846009 -0.0376837
14.5296 4.73211 -18.2725 0.532831 0.845347 -0.0384696
13.5634 5.33165 -18.4492 0.531665 0.846165 -0.0365087
12.4881 6.00599 -18.5357 0.533586 0.844978 -0.0360061
11.4854 6.634 -18.7586 0.536102 0.843466 -0.0340527
10.3489 7.34755 -19.1434 0.544425 0.838139 -0.0335325
9.34751 7.99444 -19.2719 0.546271 0.836921 -0.0339332
8.45865 8.56956 -19.4217 0.548427 0.835389 -0.0367862
7.30095 9.32689 -19.4659 0.547112 0.83633 -0.0349441
6.37535 9.93029 -19.4102 0.539943 0.840993 -0.0345272
5.46911 10.5069 -19.362 0.531589 0.846189 -0.0371036
4.21846 11.2474 -19.361 0.477742 0.8785 0.000807689
3.08681 11.826 -19.404 0.430438 0.902573 -0.00929297
2.07088 12.2718 -19.365 0.36483 0.93088 -0.0190082
0.677139 12.6106 -19.3101 0.176388 0.984262 -0.0107337
-0.535598 12.6375 -19.317 -0.0465875 0.996401 0.0376457
-2.05604 12.4252 -19.3456 -0.215272 0.969199 0.0890224
-3.16077 11.9913 -19.4061 -0.428828 0.896817 0.0892604
-4.16708 11.4354 -19.4204 -0.492308 0.867538 0.066618
-5.29798 10.7227 -19.4124 -0.550293 0.832848 0.0557061
-6.23048 10.0645 -19.4065 -0.574782 0.816547 0.0534568
-7.3689 9.23647 -19.2882 -0.586082 0.80918 0.0416069
-8.34794 8.5252 -19.2576 -0.588653 0.807829 0.0298843
-9.39909 7.76754 -19.1427 -0.582111 0.812558 0.029925
-10.2552 7.15569 -19.0265 -0.571321 0.820307 0.0260199
-11.4559 6.32224 -18.8449 -0.564996 0.824663 0.0266711
-12.3794 5.68494 -18.5333 -0.558948 0.828864 0.0237097
-13.4459 4.96729 -18.1928 -0.547258 0.836748 0.0187397
-14.5115 4.26591 -17.8868 -0.539661 0.841714 0.0167762
-15.4634 3.6502 -17.6054 -0.537323 0.84314 0.0197821
-16.3455 3.08602 -17.346 -0.533374 0.845669 0.0188237
-17.2727 2.49478 -16.9618 -0.531533 0.846846 0.0179919
-17.0842 2.59446 -16.0808 -0.531583 0.846797 0.0188101
-16.3599 3.02496 -15.1087 -0.53134 0.846906 0.0207122
-15.7664 3.37689 -14.271 -0.531924 0.846513 0.0217436
-15.1791 3.72309 -13.3479 -0.532821 0.845938 0.0221364
-14.6396 4.03056 -12.2132 -0.531771 0.846497 0.0257428
-14.3096 4.19935 -11.0085 -0.529613 0.84773 0.0293821
-14.3276 4.14775 -9.87347 -0.527268 0.849043 0.0333916
-13.8035 4.4662 -9.67665 -0.528646 0.848203 0.0329551
-12.9176 5.04354 -10.2981 -0.530961 0.846616 0.0363033
-12.0841 5.59067 -10.8147 -0.531537 0.846048 0.0408857
-11.242 6.14863 -11.2843 -0.534846 0.843786 0.0442579
-10.2121 6.83114 -11.6714 -0.541666 0.838884 0.0533224
-9.05039 7.60436 -11.9361 -0.545475 0.835875 0.0612058
-8.2193 8.16287 -12.0974 -0.547868 0.834033 0.065038
-8.04094 8.19332 -11.0467 -0.54204 0.837667 0.0671354
-7.12498 8.79474 -11.1439 -0.547707 0.83324 0.0755542
-5.86128 9.60393 -11.0781 -0.536741 0.839568 0.083842
-4.78134 10.2628 -10.9364 -0.51557 0.852328 0.0878888
-3.57836 10.8915 -10.4799 -0.459336 0.883661 0.0902965
-2.63765 11.2938 -9.82859 -0.407042 0.905629 0.118967
-1.88709 11.5328 -8.90643 -0.371457 0.921047 0.103953
-1.56637 11.5117 -7.85807 -0.361631 0.92321 0.130025
-1.33508 11.4471 -6.40677 -0.348258 0.935489 0.0598115
-1.51231 11.2926 -5.33549 -0.37944 0.919851 0.0994939
-1.87985 11.0233 -4.2282 -0.40866 0.909807 0.0724472
-2.31671 10.7271 -3.10933 -0.438404 0.896604 0.0624798
-2.7896 10.4102 -1.92134 -0.452569 0.889521 0.0627244
-3.36384 10.0418 -0.842687 -0.461339 0.88571 0.0518123
-3.83367 9.74123 0.119377 -0.472491 0.880449 0.0392792
-4.54799 9.3167 1.02372 -0.479928 0.876935 0.0255399
-5.30358 8.87512 1.74952 -0.483599 0.874779 0.0297782
-6.21391 8.33778 2.52072 -0.495462 0.868395 0.0201978
-7.09965 7.81851 3.21198 -0.497005 0.867372 0.0255347
-8.05244 7.25699 3.88635 -0.500515 0.865573 0.0163536
-9.16411 6.60294 4.55547 -0.500659 0.865528 0.0142211
-10.1051 6.05506 4.56227 -0.503995 0.863534 0.0172343
-11.0152 5.52998 4.37501 -0.500362 0.865615 0.0185972
-12.0231 4.96446 3.63583 -0.500586 0.86546 0.0198249
-12.8204 4.51743 2.98817 -0.50345 0.863737 0.0222612
-13.5421 4.12178 2.12307 -0.502644 0.864016 0.028719
-14.0879 3.84121 0.944053 -0.505287 0.862484 0.0284076
-14.4349 3.67624 -0.105306 -0.505694 0.862088 0.0328349
-14.663 3.58308 -1.18161 -0.50643 0.861645 0.0331082
-14.8256 3.5472 -2.72403 -0.508067 0.860694 0.0327558
-14.7083 3.66357 -3.83975 -0.510287 0.859204 0.0370928
-14.5599 3.82505 -5.52105 -0.514887 0.856506 0.0358999
-14.1757 4.09913 -6.46195 -0.518243 0.854382 0.0381458
-13.8796 4.32714 -7.53004 -0.520691 0.852807 0.0400078
-13.297 4.7314 -8.58217 -0.524849 0.850414 0.0363825
-12.2752 5.40749 -9.49228 -0.528477 0.848042 0.0391887
-11.4936 5.92017 -9.98986 -0.529672 0.846876 0.04726
-10.6111 6.50373 -10.4508 -0.539113 0.840783 0.0494021
-9.55515 7.19572 -10.7397 -0.534475 0.843122 0.059007
-8.68785 7.76694 -10.9361 -0.539533 0.839288 0.0670886
-8.28991 8.02977 -11.0163 -0.542029 0.837674 0.067129
-13.6817 4.83499 -19.2732 -0.549777 0.835084 0.0194929
-14.832 4.08315 -18.961 -0.540098 0.841393 0.0187575
-15.7907 3.46458 -18.6486 -0.535811 0.844154 0.0175582
-16.7222 2.87071 -18.3878 -0.533793 0.845436 0.0173954
-17.8352 2.16199 -18.0198 -0.531873 0.846707 0.0140897
-18.7224 1.59714 -17.6607 -0.534824 0.844815 0.0158188
-18.8494 1.49936 -16.6741 -0.534247 0.845205 0.0144454
-17.9484 2.04157 -15.5174 -0.530104 0.847732 0.0184133
-17.2237 2.47296 -14.6223 -0.529378 0.848128 0.0209097
-16.5645 2.86307 -13.7781 -0.528806 0.848494 0.020546
-15.9475 3.2283 -12.8933 -0.531086 0.847074 0.0203228
-15.5134 3.47114 -11.8674 -0.531858 0.846425 0.0262861
-15.1965 3.63436 -10.6953 -0.52816 0.848796 0.0243318
-15.2998 3.53013 -9.46685 -0.52707 0.849397 0.0268211
-15.5945 3.295 -7.93323 -0.522121 0.852248 0.0325726
-16.0434 2.9739 -6.62568 -0.51871 0.854366 0.0315995
-16.26 2.80386 -5.54665 -0.516267 0.855839 0.0316919
-16.4862 2.62241 -4.42257 -0.517657 0.855018 0.0309989
-16.8369 2.36311 -2.99362 -0.513633 0.857526 0.0288049
-17.311 2.03145 -1.54871 -0.51483 0.856876 0.0266996
-17.4595 1.89606 -0.113382 -0.50917 0.860163 0.0294171
-17.7576 1.67888 1.06939 -0.510387 0.85947 0.0285737
-17.9316 1.53742 2.2333 -0.510493 0.859487 0.0260625
-18.2961 1.28287 3.50006 -0.509195 0.860269 0.0256387
-18.623 1.05542 4.6043 -0.511587 0.858793 0.0273087
-19.0475 0.765546 5.74428 -0.512016 0.858615 0.0248818
-19.3148 0.570013 6.85742 -0.528469 0.848804 0.015896
-19.504 0.454054 8.17112 -0.510914 0.859624 0.00367059
-19.5061 0.444879 9.41193 -0.508246 0.861116 0.0114027
-19.7071 0.305763 10.8257 -0.517063 0.855905 0.00849169
-19.6378 0.342645 12.1493 -0.508461 0.861057 0.00689658
-19.7207 0.281468 13.2595 -0.509552 0.860285 0.0153061
-19.6199 0.313947 14.4468 -0.519954 0.854034 0.0162771
-19.5269 0.354156 15.6568 -0.521307 0.85331 0.00998661
-19.4666 0.378341 17.0691 -0.521767 0.853076 0.00423093
-19.2903 0.48531 18.2071 -0.517257 0.855782 -0.00906347
-18.68 0.851203 19.1459 -0.51352 0.858077 0.000649046
-17.8465 1.34914 19.6567 -0.513421 0.85811 0.00683864
-16.4517 2.18628 20.0046 -0.518249 0.855201 0.00700522
-15.4686 2.78178 20.1221 -0.518662 0.854955 0.00641174
-14.4973 3.37358 20.2726 -0.521981 0.852935 0.00597089
-13.5267 3.96635 20.3936 -0.52126 0.853391 0.00339384
-12.4873 4.60372 20.5274 -0.524931 0.851143 0.000698838
-11.4791 5.22793 20.6615 -0.530802 0.847486 0.00161553
-10.4387 5.88861 20.6324 -0.543875 0.839158 -0.00378201
-9.50775 6.49634 20.5888 -0.550107 0.835083 -0.00441707
-8.51281 7.16087 20.5271 -0.55939 0.828895 -0.00399582
-7.6006 7.78237 20.5354 -0.570183 0.821485 -0.00567009
-6.62602 8.46857 20.4909 -0.583378 0.812172 -0.00641397
-5.60651 9.20282 20.4656 -0.593481 0.804679 -0.0162473
-4.60664 9.94733 20.5283 -0.605018 0.795985 -0.0184659
-3.33217 10.9194 20.4288 -0.608384 0.793262 -0.0243385
-2.3993 11.6355 20.3709 -0.609303 0.792476 -0.0270618
-1.39645 12.3825 20.3145 -0.592174 0.804793 -0.0401597
-0.491258 13.0145 20.3683 -0.56359 0.823364 -0.0666265
0.494727 13.6036 20.369 -0.492945 0.86901 -0.0427284
1.56713 14.1554 20.4098 -0.466549 0.884481 0.0050482
2.7212 14.0228 20.4458 0.445502 0.893935 0.0490751
3.9871 13.2198 20.4472 0.579839 0.813809 0.0387586
5.06183 12.3988 20.4364 0.624488 0.780922 0.0132403
5.99556 11.6697 20.4668 0.620404 0.784057 0.016097
6.86787 10.9552 20.4764 0.630533 0.775991 0.0163041
7.73483 10.2509 20.5946 0.6205 0.783905 0.0189022
8.73625 9.47546 20.5944 0.608907 0.793039 0.0172365
9.79555 8.67664 20.5641 0.593572 0.804579 0.0179052
10.9307 7.85202 20.6067 0.577273 0.816431 0.014048
12.0438 7.07274 20.6459 0.571455 0.820554 0.0113877
13.3823 6.15565 20.5148 0.562323 0.826889 0.00637691
14.4833 5.42344 20.3929 0.545366 0.838167 0.00717462
15.4499 4.7959 20.3634 0.541922 0.840408 0.0059246
16.6951 3.99604 20.2508 0.539005 0.842288 0.00500743
17.7223 3.34052 20.0193 0.538345 0.842714 0.00429879
18.6902 2.73126 19.7845 0.531263 0.847175 0.00741143
19.883 1.98896 19.4119 0.526119 0.850391 0.00555874
20.9056 1.36177 18.8471 0.524755 0.851236 0.00546642
21.7496 0.848746 17.814 0.52332 0.852124 0.00464146
22.1599 0.602303 16.6703 0.520659 0.853761 0.00109714
22.3465 0.490308 15.5334 0.51894 0.854798 -0.00466861
22.3823 0.456921 14.1041 0.526076 0.85041 -0.00681077
22.2349 0.540319 12.9664 0.528262 0.849059 -0.00614629
22.0184 0.669239 11.7955 0.532045 0.846696 -0.00506542
21.6516 0.901398 10.7616 0.533897 0.845531 0.00561587
21.184 1.20447 9.41147 0.529617 0.848214 0.00625747
20.9305 1.37112 7.98412 0.529109 0.848539 0.00500335
20.7627 1.47747 6.81096 0.529202 0.848492 -0.00149074
20.5779 1.58704 5.44069 0.528256 0.849073 -0.00450445
20.5458 1.59709 4.12301 0.530872 0.847419 -0.00750096
20.4079 1.67294 2.97243 0.533598 0.845678 -0.0101107
19.7887 2.05231 2.04049 0.536074 0.844113 -0.00984823
19.1269 2.46242 1.24683 0.536757 0.84365 -0.012094
18.3908 2.92233 0.485491 0.539501 0.841904 -0.0116096
17.4176 3.53617 -0.511502 0.544561 0.83862 -0.0130348
16.7344 3.96846 -1.34089 0.549266 0.835526 -0.014267
16.2112 4.29536 -2.34953 0.558547 0.829331 -0.0153073
15.6584 4.65148 -3.33754 0.559257 0.82886 -0.01488
15.249 4.90233 -4.38949 0.557117 0.830207 -0.0192532
14.9056 5.10415 -5.46015 0.556259 0.830693 -0.0229167
14.6669 5.22277 -6.62368 0.557454 0.829568 -0.0324825
14.2587 5.43033 -8.11476 0.550708 0.833638 -0.0420627
14.0055 5.54169 -9.18806 0.551119 0.833173 -0.0457301
13.8278 5.59671 -10.3072 0.547836 0.83537 -0.0450915
13.7775 5.55353 -11.6736 0.54173 0.839225 -0.0471492
14.0585 5.28975 -13.1703 0.539706 0.840525 -0.0472864
14.7007 4.83821 -13.9605 0.535566 0.843261 -0.0455673
15.4601 4.32171 -14.6337 0.534358 0.844139 -0.0434743
16.4637 3.66128 -15.1412 0.533952 0.844535 -0.0406894
17.6747 2.88237 -15.3944 0.534959 0.8439 -0.0406342
18.8432 2.1375 -15.4831 0.535381 0.843733 -0.0385008
19.9038 1.46287 -15.5265 0.535831 0.843576 -0.0355621
20.8896 0.83067 -15.6733 0.535463 0.843977 -0.0313275
21.4442 0.458322 -16.34 0.530086 0.847492 -0.0276822
20.6849 0.902319 -17.329 0.533033 0.845594 -0.0291156
19.4773 1.64395 -17.7825 0.531968 0.846134 -0.0326626
18.32 2.35265 -18.2088 0.530739 0.846786 -0.0356357
17.0606 3.12486 -18.7709 0.532441 0.84587 -0.0318032
15.9108 3.83453 -19.0108 0.529623 0.847662 -0.0309774
14.841 4.4932 -19.31 0.530147 0.84741 -0.028994
13.8827 5.0876 -19.5396 0.532797 0.845634 -0.0321007
12.8077 5.76082 -19.6595 0.533523 0.845154 -0.0326711
11.6347 6.49393 -19.8898 0.535128 0.844113 -0.0333447
10.6331 7.11965 -20.2522 0.538821 0.841881 -0.0301391
9.64281 7.75849 -20.3642 0.544238 0.838316 -0.0320958
8.66781 8.38731 -20.4826 0.547086 0.836487 -0.0313542
7.16358 9.37137 -20.5529 0.548178 0.835744 -0.0321335
6.17001 10.02 -20.4564 0.543736 0.838734 -0.0296061
4.76613 10.9004 -20.5517 0.524665 0.850616 -0.0343346
3.77574 11.4717 -20.4311 0.440872 0.897387 -0.00390772
2.76885 11.9707 -20.4865 0.432669 0.901423 0.00673137
1.28184 12.5417 -20.4794 0.263 0.958814 0.00995711
-0.150658 12.8047 -20.4502 0.11769 0.980394 0.127558
-1.38929 12.7042 -20.3858 -0.112079 0.980683 0.155512
-2.56684 12.3913 -20.4623 -0.333291 0.93532 0.0823661
-3.56658 11.8965 -20.5056 -0.507724 0.856392 0.0857969
-4.73135 11.1541 -20.4443 -0.53429 0.843029 0.0619387
-5.86481 10.3993 -20.5171 -0.568642 0.821079 0.0479591
-6.80907 9.70626 -20.4575 -0.592787 0.804442 0.0384255
-7.70044 9.04422 -20.3817 -0.59439 0.803313 0.0372757
-8.63907 8.35402 -20.3752 -0.59028 0.806982 0.0186834
-9.55117 7.68803 -20.1786 -0.582881 0.81235 0.0183508
-10.6433 6.9145 -20.1512 -0.570348 0.821186 0.0187583
-11.7919 6.11653 -19.9074 -0.563542 0.825929 0.0162091
-12.7208 5.48116 -19.5923 -0.555504 0.831222 0.022026
-13.5752 4.90576 -19.2995 -0.549777 0.835084 0.0194928
12.239 6.34617 -15.0155 0.538127 0.841378 -0.0500261
10.8126 7.15464 -16.961 0.541256 0.839713 -0.043862
10.5516 7.3039 -17.3171 0.544906 0.837308 -0.0446303
8.42036 8.69455 -17.4739 0.548378 0.834965 -0.0459962
9.97827 7.79036 -15.3647 0.546053 0.836047 -0.0533887
11.4042 6.9851 -13.4245 0.543934 0.837578 -0.0509761
11.5221 6.91833 -13.2633 0.543933 0.837579 -0.0509761
11.4809 7.11953 -10.6039 0.549466 0.833596 -0.0566093
9.94196 7.99394 -12.7076 0.551113 0.832431 -0.0577248
8.39271 8.87594 -14.8181 0.55057 0.833022 -0.0542883
6.90353 9.72483 -16.7853 0.539012 0.840989 -0.0469486
6.18036 10.1448 -17.7384 0.544015 0.838069 -0.0410863
4.33762 11.3041 -17.4289 0.486065 0.87315 -0.0367455
5.80406 10.4863 -15.5277 0.524703 0.849726 -0.0515
7.41468 9.6101 -13.4312 0.545635 0.836013 -0.0580063
9.04605 8.69798 -11.2451 0.555032 0.829445 -0.062929
10.4845 7.88111 -9.26293 0.557271 0.827987 -0.0623355
11.8989 7.05591 -7.30813 0.559454 0.827506 -0.0473826
13.6659 6.04199 -2.01669 0.572864 0.819412 -0.0197782
12.2796 6.95106 -4.03148 0.571672 0.819859 -0.0319625
11.0295 7.73729 -5.80366 0.5675 0.822062 -0.0464536
9.76129 8.49527 -7.57338 0.555827 0.828934 -0.0626549
8.27366 9.32637 -9.59733 0.541324 0.838508 -0.0622369
6.82217 10.1076 -11.5351 0.527041 0.848501 -0.0476766
5.35909 10.8836 -13.4255 0.52034 0.852399 -0.051588
3.95762 11.5602 -15.1605 0.451595 0.891387 -0.0386126
2.53023 12.2235 -16.8974 0.340691 0.93981 -0.0261951
1.9025 12.3644 -17.5873 0.296071 0.954132 -0.044428
-0.359363 12.5832 -17.2696 -0.151493 0.98579 0.072577
1.20147 12.6785 -15.5874 0.289807 0.956156 -0.0421559
2.74438 12.1338 -13.8908 0.291883 0.956452 -0.00206295
4.32657 11.4691 -12.0048 0.442762 0.896636 -0.00242001
5.71315 10.8384 -10.2848 0.479662 0.875034 -0.0651175
7.29228 10.0525 -8.23004 0.519474 0.851691 -0.0690522
8.77074 9.24188 -6.24338 0.554023 0.831265 -0.0453647
10.0958 8.46058 -4.40912 0.569796 0.820534 -0.0453469
11.4564 7.58737 -2.45203 0.578045 0.815589 -0.0260325
12.8499 6.64799 -0.39793 0.581982 0.813095 -0.0131712
14.1426 5.7596 1.51719 0.570253 0.821434 -0.00757575
15.5464 4.81289 3.57287 0.557477 0.830167 -0.00648455
16.8778 3.94693 5.48832 0.544707 0.838605 -0.0060405
18.2816 3.04703 7.49033 0.539183 0.842188 0.000771665
18.3913 2.97616 7.64678 0.539086 0.842243 0.0037036
19.5862 2.19481 12.2127 0.533622 0.845721 0.00203832
18.2222 3.0716 10.2762 0.538121 0.842853 0.00504647
17.0324 3.84738 8.57489 0.542738 0.839893 0.00389658
15.8364 4.63229 6.85214 0.54987 0.83525 -0.000399303
14.6707 5.40793 5.15703 0.557889 0.829914 0.00185002
13.4507 6.24982 3.35088 0.575907 0.817512 -0.00228878
12.2756 7.07987 1.58886 0.584998 0.811019 -0.00497169
11.0638 7.92795 -0.227461 0.583098 0.812245 -0.0159678
9.90905 8.69965 -1.93139 0.568805 0.821956 -0.0291274
8.73691 9.42225 -3.59134 0.537529 0.842641 -0.0319126
7.38802 10.1541 -5.40975 0.49958 0.865058 -0.0457653
5.83398 10.9492 -7.44035 0.497991 0.865971 -0.0458143
4.268 11.5541 -9.34094 0.340327 0.93967 -0.0346001
2.79552 12.0583 -11.0605 0.329372 0.944178 0.00649753
1.1947 12.3647 -12.862 0.0624433 0.997244 0.0400707
-0.537933 12.4351 -14.7088 -0.218398 0.974504 0.0514281
-1.94937 12.1367 -16.3022 -0.356386 0.931108 0.0776353
-3.0323 11.8593 -17.5521 -0.338856 0.935758 0.0976382
-5.2105 10.6502 -17.6801 -0.558755 0.826671 0.0663909
-3.9 11.2692 -15.9412 -0.480422 0.875923 0.0441879
-2.39612 11.8176 -14.0917 -0.415161 0.904349 0.0989641
-0.875854 12.2014 -12.3202 -0.286945 0.956743 0.0480147
0.603833 12.2656 -10.6821 0.0104354 0.999032 0.0427239
2.08642 12.2257 -9.07676 0.24363 0.969415 -0.0296338
3.684 11.8474 -7.3086 0.325595 0.944182 -0.0500718
5.07159 11.3926 -5.67645 0.430707 0.900677 -0.0572164
6.4029 10.7819 -3.98351 0.489514 0.871245 -0.03618
7.67835 10.1333 -2.29708 0.493041 0.869379 -0.0330161
8.07173 9.92387 -1.76078 0.530503 0.847247 -0.0271795
6.04889 11.0462 -1.71375 0.452266 0.887879 -0.0844183
4.71358 11.5887 -3.36976 0.389447 0.920287 0.0374397
3.31213 11.9309 -4.96889 0.152651 0.988042 0.0217167
1.84265 12.0433 -6.60569 -0.0223615 0.998954 -0.0398795
1.64364 12.03 -6.82657 -0.00374047 0.999271 0.0379937
1.06625 11.9347 -4.69672 -0.127374 0.991845 0.00447754
2.49765 12.0195 -3.10865 -0.00551302 0.999199 -0.0396409
3.97747 11.8534 -1.47691 0.298568 0.954262 -0.0155141
4.72207 11.6695 -0.617342 0.278156 0.95946 -0.0454539
3.2356 12.0102 0.438616 0.0306009 0.999351 0.0190218
1.75681 12.0583 -1.17289 -0.173618 0.984773 0.00891473
0.387851 11.7768 -2.69089 -0.278791 0.959808 0.0323197
-0.305036 11.4604 -0.803222 -0.370314 0.927918 0.0428463
1.11194 11.8921 0.847341 -0.258367 0.96574 0.0243346
2.16047 12.015 2.00265 -0.0246452 0.999692 0.0029615
1.59947 12.0232 4.14488 -0.233923 0.971137 -0.0466065
0.144332 11.5458 2.44293 -0.318777 0.947714 -0.0148163
-1.15511 11.0528 0.875031 -0.411484 0.911328 0.0127307
-2.10726 10.5886 2.40086 -0.455884 0.889989 0.00948641
-0.818221 11.225 4.0264 -0.427142 0.90373 -0.0286788
0.520795 11.8449 5.66832 -0.365204 0.93014 -0.0382808
1.93299 12.3704 7.30719 -0.107543 0.988979 -0.10176
2.78772 12.5198 8.24629 0.00589256 0.985482 -0.169679
12.6359 6.81769 5.01022 0.578081 0.815934 0.00862086
13.8893 5.93234 6.88775 0.56152 0.827457 0.00320706
15.2393 5.01571 8.86924 0.551299 0.834284 0.00628086
16.6043 4.11161 10.8362 0.54256 0.839999 0.00557269
18.1244 3.12103 13.0107 0.538192 0.84281 0.0046247
19.5931 2.18475 15.0842 0.532604 0.846364 0.00116735
19.6823 2.12841 15.2094 0.532622 0.846353 -8.73642e-05
18.6983 2.74209 16.6904 0.533835 0.845572 0.00519719
17.3842 3.58568 14.8354 0.539987 0.841659 0.00491808
15.9578 4.51781 12.7915 0.543618 0.839319 0.00481767
14.6131 5.40942 10.8504 0.548728 0.835954 0.00880618
13.3171 6.30227 8.94135 0.56729 0.823427 0.0122603
12.1055 7.17287 7.11118 0.579409 0.814964 0.0109082
11.3374 7.7049 8.85011 0.588839 0.808169 0.0114855
12.598 6.78169 10.7711 0.575667 0.817639 0.00856733
13.9189 5.86083 12.731 0.555735 0.831347 0.00448566
15.3552 4.89882 14.8157 0.548504 0.836142 0.00334624
16.811 3.94202 16.9 0.540932 0.84104 0.00665344
17.0368 3.79411 17.2199 0.541186 0.840875 0.00691252
15.0133 5.10374 17.2205 0.548579 0.836076 0.00611523
13.7203 5.97812 15.3442 0.558143 0.82972 0.00644545
12.3906 6.89929 13.3761 0.570965 0.820955 0.00555871
11.1183 7.82407 11.4416 0.581556 0.813381 0.0142522
10.1573 8.55077 9.938 0.59014 0.807183 0.0137725
8.77281 9.55281 10.7089 0.591302 0.806376 0.0109088
10.1449 8.51584 12.8715 0.592792 0.805294 0.00991065
11.6169 7.42249 15.1453 0.575656 0.817665 0.00667454
12.9751 6.47027 17.1622 0.56297 0.826422 0.00956334
13.1247 6.36617 17.3825 0.560392 0.828192 0.00765966
11.4262 7.53865 17.7899 0.574759 0.818278 0.00848482
10.1134 8.50243 15.7877 0.589657 0.807618 0.00765714
8.81822 9.48739 13.7482 0.599821 0.800075 0.00975263
7.47183 10.4962 11.6202 0.588257 0.808638 0.00768006
7.05148 10.7925 10.9711 0.571394 0.820662 -0.00471719
3.97424 12.4993 9.56101 0.224074 0.972446 -0.0643419
5.46463 11.8524 11.531 0.528621 0.846778 -0.0593862
6.88324 10.9285 13.6497 0.591042 0.806641 0.000192667
8.14599 9.9743 15.665 0.606948 0.794731 0.00419037
9.37696 9.01905 17.6156 0.59545 0.80333 0.0100417
7.54493 10.4295 17.6887 0.616111 0.787657 0.00168908
6.24239 11.4147 15.6104 0.590254 0.807078 -0.0150501
4.74029 12.3763 13.3564 0.524193 0.851511 -0.012313
3.13622 12.8286 11.4109 0.24728 0.954335 -0.167623
1.33808 12.4894 9.42107 -0.190401 0.973999 -0.122773
-0.277361 11.6936 7.49727 -0.411422 0.904289 -0.113988
-1.75756 10.8437 5.58449 -0.453031 0.89039 -0.0443645
-3.18857 10.0267 3.71875 -0.479799 0.877303 -0.0115084
-4.57478 9.25472 4.61587 -0.49915 0.86649 -0.0066881
-3.09455 10.1527 6.58176 -0.48996 0.871241 -0.0296451
-1.65633 11.0859 8.49292 -0.496865 0.863904 -0.0824322
-0.190226 12.1344 10.4322 -0.438138 0.893332 -0.0999638
1.37395 12.9326 12.258 -0.234281 0.960989 -0.147013
3.1912 13.0562 14.2573 0.241908 0.967597 -0.0723704
4.6553 12.5401 16.1464 0.539572 0.840414 -0.0506688
5.45593 12.0432 17.3405 0.587683 0.808197 -0.0380261
3.43533 13.3084 17.3863 0.42048 0.89612 -0.142002
1.6636 13.2691 15.39 -0.126205 0.980861 -0.148269
-0.0352643 12.588 13.4348 -0.404531 0.905335 -0.129321
-1.46064 11.553 11.5658 -0.513986 0.850973 -0.108003
-2.77851 10.5436 9.77299 -0.523343 0.848069 -0.0830116
-4.17303 9.57129 7.90427 -0.521762 0.852062 -0.0418923
-5.53436 8.71083 6.0837 -0.507878 0.861341 -0.0123409
-5.68034 8.62196 5.88849 -0.50604 0.862442 -0.0108122
-7.05108 7.82297 6.77303 -0.510852 0.859644 -0.00646472
-5.61143 8.72554 8.68912 -0.520808 0.853252 -0.0268269
-4.04482 9.80618 10.815 -0.539386 0.840606 -0.0494503
-2.64606 10.9101 12.7564 -0.566313 0.820302 -0.0799686
-1.22082 12.0696 14.7251 -0.531503 0.842489 -0.0878474
0.318294 13.0869 16.6776 -0.448673 0.887744 -0.102967
1.07415 13.5154 17.548 -0.272389 0.94879 -0.160005
-1.39188 12.1903 17.321 -0.542781 0.837663 -0.0608981
-2.85134 10.9992 15.3044 -0.582972 0.81025 -0.0603237
-4.19162 9.89366 13.4019 -0.567828 0.821254 -0.0558002
-5.49677 8.90674 11.5968 -0.544831 0.837706 -0.0375209
-6.87167 7.97509 9.72351 -0.523088 0.85212 -0.0164618
-8.38733 7.0347 7.71183 -0.512424 0.858722 -0.0043533
-8.46665 6.98695 7.60687 -0.510977 0.859594 -0.000267979
-10.8156 5.60464 7.23514 -0.50567 0.862695 0.00736345
-9.43606 6.41325 9.05921 -0.512095 0.858928 -0.00163279
-8.07573 7.25721 10.8735 -0.522761 0.852356 -0.014494
-6.60026 8.24802 12.8654 -0.54662 0.836739 -0.0327676
-5.22555 9.26022 14.7764 -0.570454 0.820209 -0.0428868
-3.95366 10.2782 16.5675 -0.592185 0.804313 -0.0489654
-3.18105 10.9155 17.6403 -0.597291 0.800842 -0.04353
-5.4313 9.23781 17.2958 -0.583384 0.811513 -0.0333171
-6.72457 8.26786 15.4839 -0.560265 0.82773 -0.0310934
-8.06771 7.32439 13.6473 -0.542038 0.839925 -0.0268715
-9.80576 6.20675 11.3196 -0.518532 0.855032 -0.00676894
-11.272 5.32211 9.37437 -0.509795 0.860293 0.00219177
-12.7995 4.44209 7.35179 -0.505596 0.86269 0.0117933
-14.2389 3.63095 5.4407 -0.506537 0.862033 0.0178751
-15.5325 2.9112 3.7142 -0.507428 0.861373 0.0235154
-16.2125 2.46292 5.56537 -0.509678 0.860104 0.0212092
-14.7043 3.3185 7.57328 -0.508969 0.860686 0.0130666
-13.2787 4.13578 9.46643 -0.508535 0.861003 0.00816373
-11.6997 5.06484 11.5621 -0.514531 0.857469 0.00197637
-10.3123 5.91456 13.3999 -0.526116 0.850379 -0.00757946
-8.75955 6.91651 15.4946 -0.551405 0.834163 -0.0111312
-7.3452 7.90484 17.4338 -0.562245 0.826709 -0.0207799
-7.32171 7.92158 17.4666 -0.562159 0.826804 -0.0192938
-9.32991 6.57885 17.5185 -0.553967 0.832439 -0.0128804
-10.7702 5.65101 15.5703 -0.527104 0.849785 -0.00523122
-12.4253 4.62898 13.3554 -0.515458 0.856914 0.00143185
-13.9347 3.73382 11.3584 -0.510643 0.859778 0.005173
-15.3791 2.89568 9.43814 -0.509938 0.860153 0.00995034
-16.8911 2.02378 7.42015 -0.513007 0.858281 0.0133476
-17.0102 1.92221 10.0275 -0.510356 0.859925 0.00813881
-15.5116 2.7939 12.0251 -0.50981 0.860266 0.0060477
-13.8913 3.74851 14.1764 -0.513351 0.858177 0.00160962
-12.4357 4.62802 16.123 -0.520854 0.853644 -0.00182222
-11.1694 5.41436 17.8234 -0.53031 0.847783 -0.00596891
-13.4518 4.01417 17.5489 -0.519201 0.854651 -0.00142621
-14.8591 3.16535 15.6679 -0.515487 0.856894 0.00218055
-16.4699 2.21161 13.5194 -0.513065 0.858326 0.00629466
-17.3657 1.6896 12.3238 -0.511195 0.859424 0.00834887
-17.1653 1.78282 15.3649 -0.514849 0.857258 0.00634059
-15.7945 2.59821 17.2056 -0.516759 0.856126 0.0027026
-7.02194 9.38425 -17.523 -0.578793 0.813332 0.0590811
-5.78133 10.1105 -15.7481 -0.557837 0.827461 0.06424
-4.39285 10.8276 -13.8515 -0.5177 0.852335 0.0742359
-4.32606 10.8564 -13.765 -0.44902 0.888395 0.0955749
-6.47746 9.48559 -14.0063 -0.558908 0.825818 0.0751448
-7.8678 8.68714 -15.9856 -0.568375 0.820779 0.0571971
-8.82851 8.09874 -17.3748 -0.57347 0.818349 0.0379056
-10.5471 6.88502 -17.0724 -0.565697 0.824061 0.0301526
-9.23495 7.69185 -15.1782 -0.560447 0.826798 0.0480076
-8.31804 8.23226 -13.8651 -0.557639 0.828088 0.0575264
-9.99486 7.08243 -13.4872 -0.551203 0.832766 0.0517325
-11.1997 6.36637 -15.2007 -0.559688 0.827972 0.0348249
-12.272 5.704 -16.736 -0.555624 0.831067 0.0246806
-13.9817 4.57105 -16.3405 -0.545645 0.837743 0.0214232
-12.7338 5.32882 -14.5721 -0.545294 0.837723 0.0295619
-11.5227 6.04508 -12.864 -0.542188 0.839376 0.0384573
