4.53207 55.2371 -19.667 -0.0181025 -0.999836 -0.000361473
3.77503 55.2506 -19.6382 -0.0177765 -0.999842 -0.000593495
3.07314 55.2629 -19.6291 -0.0173413 -0.999849 -0.00092256
2.32238 55.276 -19.6787 -0.0174669 -0.999847 -0.000456794
1.59789 55.2886 -19.643 -0.0176744 -0.999844 -0.000191955
0.897398 55.3013 -19.704 -0.0183114 -0.999832 -9.72037e-05
0.105705 55.3162 -19.6964 -0.0189224 -0.999821 0.000378654
-0.667076 55.3308 -19.6366 -0.0190079 -0.999819 0.000106982
-1.42523 55.3452 -19.6576 -0.0190808 -0.999818 8.13551e-05
-2.24195 55.3608 -19.6859 -0.0189684 -0.99982 0.000172562
-2.96732 55.3746 -19.6643 -0.0190014 -0.999819 5.18957e-05
-3.72513 55.3891 -19.6767 -0.0189449 -0.99982 0.000273305
-4.42019 55.4021 -19.6593 -0.0185114 -0.999829 0.000252908
-5.26374 55.4178 -19.6455 -0.0186496 -0.999826 7.14881e-05
-6.06727 55.4327 -19.6496 -0.0186861 -0.999825 0.00015715
-6.78094 55.446 -19.667 -0.0186417 -0.999826 5.3451e-05
-7.5728 55.461 -19.6489 -0.0190234 -0.999819 0.000477367
-8.28079 55.4742 -19.616 -0.0182756 -0.999832 0.00120429
-9.13257 55.4889 -19.6719 -0.0168589 -0.999858 0.000686652
-9.89225 55.5014 -19.6687 -0.0158552 -0.999874 -0.000242062
-10.5933 55.5122 -19.6505 -0.0152748 -0.999883 -0.000555128
-11.3128 55.5224 -19.6835 -0.0127418 -0.999918 -0.000538566
-11.9933 55.5304 -19.6273 -0.0107649 -0.999942 -0.000461606
-12.7535 55.5372 -19.7053 -0.00784715 -0.999968 0.00132917
-13.5729 55.5407 -19.7055 -0.000585053 -0.999996 0.00271803
-14.3511 55.5394 -19.7241 0.00640165 -0.999977 0.00225848
-15.0563 55.5325 -19.7287 0.0162474 -0.999868 0.000242003
-15.9119 55.5077 -19.7043 0.0424106 -0.999094 0.00343271
-16.6377 55.471 -19.7043 0.0639911 -0.997859 0.0125922
-17.3627 55.3975 -19.7028 0.142721 -0.989763 0.000850497
-18.1399 55.2609 -19.6531 0.201644 -0.979244 0.00339922
-18.8864 55.0722 -19.3469 0.257609 -0.966102 -0.0168609
-19.4548 54.8979 -18.9375 0.274763 -0.960699 -0.0395197
-20.0374 54.7411 -19.4084 0.290658 -0.956542 -0.0233423
-20.6769 54.5316 -19.658 0.351823 -0.93606 -0.00339151
-21.3035 54.2664 -19.7007 0.41055 -0.911489 0.00225452
-21.9609 53.9316 -19.6662 0.474773 -0.879577 0.0247618
-22.6355 53.5454 -19.6585 0.541066 -0.840468 0.0234823
-23.1272 53.2041 -20.004 0.588594 -0.808351 0.0112083
-22.7405 53.4623 -20.4706 0.560445 -0.828185 0.00328575
-22.0906 53.8509 -20.4286 0.476441 -0.87913 0.00730751
-21.3447 54.2428 -20.3982 0.425218 -0.905044 -0.00925758
-20.5603 54.5781 -20.4047 0.353293 -0.934959 -0.00303497
-19.8568 54.8196 -20.4088 0.3045 -0.952135 -0.0244203
-19.1492 55.0271 -20.3612 0.258472 -0.965602 -0.0283784
-18.4114 55.2121 -20.4185 0.20688 -0.978038 -0.0220033
-17.6015 55.3649 -20.4134 0.174364 -0.984404 -0.0233526
-16.7745 55.4567 -20.383 0.0855835 -0.996204 -0.0158939
-15.9207 55.5117 -20.4644 0.0524756 -0.998588 -0.00826624
-15.2289 55.5313 -20.4762 0.0192704 -0.999811 -0.00239195
-14.5073 55.5384 -20.4869 0.00844115 -0.999963 -0.00159052
-13.7738 55.5406 -20.4298 1.11514e-05 -0.999994 -0.00317158
-13.0812 55.5392 -20.368 -0.00564912 -0.999984 -0.000958246
-12.3152 55.5344 -20.3961 -0.00907827 -0.999956 -0.00182892
-11.5746 55.526 -20.3795 -0.0120167 -0.999927 -0.00111135
-10.8296 55.516 -20.3549 -0.013726 -0.999905 -0.00132628
-10.1269 55.5054 -20.4181 -0.016334 -0.999867 -0.000354002
-9.33585 55.492 -20.4274 -0.0171283 -0.999853 0.00027217
-8.47038 55.4769 -20.3855 -0.0177948 -0.999841 0.000836372
-7.69754 55.4629 -20.4155 -0.0183196 -0.999832 0.000579507
-6.97418 55.4495 -20.4293 -0.0186152 -0.999827 0.00026529
-6.22792 55.4356 -20.444 -0.0186264 -0.999826 0.000358684
-5.50971 55.4222 -20.4595 -0.0183936 -0.999831 0.000204389
-4.74456 55.4081 -20.4651 -0.0186142 -0.999827 0.000242294
-3.98599 55.3938 -20.4399 -0.0187105 -0.999825 -3.01474e-05
-3.26397 55.3802 -20.4222 -0.0188003 -0.999823 0.000162705
-2.44574 55.3647 -20.4607 -0.0190155 -0.999819 -0.000311908
-1.61631 55.3489 -20.4517 -0.0191543 -0.999816 -0.000457619
-0.864417 55.3343 -20.408 -0.0193476 -0.999813 0.000480282
-0.141896 55.3205 -20.3922 -0.0188919 -0.999821 0.000822871
0.674922 55.3052 -20.4556 -0.0184881 -0.999829 0.000599471
1.38046 55.2925 -20.4165 -0.0176089 -0.999845 -2.27113e-06
2.17196 55.2788 -20.4564 -0.016897 -0.999857 -0.000226454
2.94624 55.2658 -20.4489 -0.0171091 -0.999853 -0.00105256
3.64177 55.2535 -20.3729 -0.0183448 -0.999831 -0.000843189
4.34985 55.2406 -20.3117 -0.0185575 -0.999828 -0.000475816
5.17096 55.2257 -20.458 -0.0180929 -0.999836 -0.000240329
5.87093 55.2131 -20.4287 -0.0181633 -0.999835 -0.000137252
6.66709 55.1987 -20.4068 -0.0179102 -0.99984 -8.59859e-05
7.46075 55.1844 -20.4093 -0.0182346 -0.999834 -0.000361058
8.25013 55.1699 -20.399 -0.0186023 -0.999827 -0.000308586
8.93787 55.1572 -20.4278 -0.0184111 -0.99983 -0.000216816
9.63023 55.1445 -20.3921 -0.0183953 -0.999831 -0.000558619
10.3339 55.1313 -20.4169 -0.0193976 -0.999811 -0.00107098
11.1633 55.115 -20.4566 -0.0198218 -0.999803 -0.00141209
12.0022 55.097 -20.4138 -0.0220165 -0.999753 -0.00304498
12.6935 55.0811 -20.4921 -0.0243282 -0.999695 -0.00422175
13.4007 55.0635 -20.4768 -0.0261133 -0.999641 -0.00590525
14.1237 55.0436 -20.3936 -0.0254488 -0.999641 -0.0082355
14.938 55.0212 -20.4105 -0.0269503 -0.999536 -0.0141941
15.7183 54.9964 -20.3528 -0.032181 -0.999275 -0.0203594
16.4528 54.9687 -20.4158 -0.0640944 -0.997682 -0.0201936
17.2081 54.8919 -20.4478 -0.155236 -0.986894 -0.04065
18.031 54.7199 -20.46 -0.230522 -0.971027 -0.0629822
18.7205 54.5133 -20.461 -0.313624 -0.948913 -0.0346896
19.5579 54.1999 -20.3926 -0.37219 -0.927283 -0.0378768
20.196 53.936 -20.3676 -0.403666 -0.914817 -0.0127981
20.8082 53.6278 -20.4401 -0.480564 -0.876958 -0.00159047
21.466 53.2538 -20.3998 -0.504243 -0.863533 -0.00701449
22.0569 52.8723 -20.463 -0.564337 -0.825349 -0.0126782
22.6896 52.4021 -20.5054 -0.619593 -0.784545 -0.0235761
23.2291 51.961 -20.4027 -0.641495 -0.766882 -0.0194152
23.7838 51.479 -20.36 -0.661913 -0.749548 -0.00701125
23.8856 51.3844 -19.7415 -0.663552 -0.748118 -0.00045553
23.279 51.9129 -19.6626 -0.651459 -0.758638 -9.75421e-05
22.5851 52.4794 -19.6308 -0.613741 -0.78938 0.0142123
21.9143 52.962 -19.6624 -0.551166 -0.834142 0.0116588
21.2701 53.3714 -19.6434 -0.511967 -0.85896 0.00828447
20.6618 53.7019 -19.5527 -0.450259 -0.892875 0.00647715
19.9457 54.0211 -19.3651 -0.373823 -0.927365 -0.0158451
19.2416 54.2822 -19.1854 -0.332987 -0.942406 -0.0314685
18.4851 54.5042 -18.9576 -0.270972 -0.961075 -0.0539424
17.9132 54.6372 -18.8497 -0.207555 -0.977026 -0.0483935
18.0625 54.5726 -18.165 -0.224036 -0.974142 -0.0292303
17.3971 54.6909 -17.9755 -0.114008 -0.990296 -0.0794676
16.867 54.7098 -17.4188 -0.132552 -0.987886 -0.0806971
16.4543 54.702 -16.7065 -0.154852 -0.985449 -0.0581641
16.29 54.6875 -15.8893 -0.120348 -0.992389 -0.0260892
16.2715 54.6784 -15.1671 -0.0912088 -0.995831 -0.00156536
15.8609 54.7111 -14.5467 -0.0724328 -0.997355 -0.00116724
15.3529 54.7433 -14.0409 -0.0625544 -0.99804 -0.00158917
14.8416 54.7724 -13.4694 -0.055662 -0.998449 -0.0013771
14.2428 54.8036 -12.9245 -0.0512853 -0.998681 -0.00201189
13.7468 54.8269 -12.3948 -0.0471712 -0.998885 -0.00186221
13.2044 54.8504 -11.8612 -0.0449265 -0.998985 -0.0032358
12.6752 54.8722 -11.3456 -0.0439189 -0.999029 -0.00334973
12.1981 54.891 -10.8573 -0.0425997 -0.999086 -0.00353681
11.614 54.9133 -10.2704 -0.0409914 -0.999153 -0.00364759
10.995 54.9362 -9.66538 -0.0402982 -0.999181 -0.00378754
10.4518 54.9556 -9.12538 -0.0398004 -0.999199 -0.00424384
9.91473 54.9745 -8.58387 -0.0394824 -0.999211 -0.0042257
9.43216 54.9915 -8.07908 -0.0393684 -0.999216 -0.00413294
8.90563 55.0101 -7.54939 -0.0389098 -0.999235 -0.00390997
8.33462 55.0302 -7.04219 -0.0386832 -0.999244 -0.0038857
7.82181 55.0478 -6.49103 -0.0383505 -0.999257 -0.00389603
7.29749 55.0658 -5.98783 -0.0378304 -0.999277 -0.00387501
6.76836 55.0838 -5.48411 -0.0375823 -0.999286 -0.00386813
6.28856 55.0998 -4.96817 -0.0371178 -0.999304 -0.00383548
5.65314 55.1208 -4.35815 -0.0357857 -0.999354 -0.00320342
5.12077 55.138 -3.82675 -0.0351228 -0.999378 -0.00327146
4.50585 55.1577 -3.16417 -0.034113 -0.999415 -0.00253744
3.97149 55.1743 -2.68073 -0.0322202 -0.999478 -0.00216233
3.47429 55.1888 -2.19185 -0.0299283 -0.999551 -0.00157106
2.9605 55.2026 -1.64371 -0.0269591 -0.999634 -0.00176689
2.41642 55.2155 -1.13182 -0.0228537 -0.999737 -0.00191002
1.83976 55.2274 -0.543582 -0.0192693 -0.999814 -2.17307e-05
1.26444 55.2374 0.0461149 -0.015223 -0.999882 -0.000857762
0.746461 55.2441 0.531447 -0.0125577 -0.999921 0.000561879
0.281224 55.2484 1.02848 -0.00791488 -0.999969 0.0004688
-0.267788 55.2515 1.5367 -0.0031115 -0.999994 -0.00128409
-0.768565 55.2523 2.03284 -0.00146927 -0.999998 0.00109671
-1.24226 55.2514 2.5857 0.00511466 -0.999984 0.00255281
-1.84717 55.2468 3.16931 0.010704 -0.999942 -0.00132652
-2.34921 55.2402 3.63964 0.0141969 -0.999899 -0.00079655
-2.84397 55.2317 4.14138 0.0170947 -0.999852 -0.00189039
-3.39748 55.2202 4.66498 0.0206142 -0.999784 -0.0023534
-3.88722 55.208 5.18285 0.0235183 -0.99972 -0.00274692
-4.4251 55.193 5.74338 0.0262677 -0.999651 -0.00296749
-4.92483 55.1777 6.25558 0.0282826 -0.999595 -0.00303214
-5.41692 55.1618 6.72982 0.0302929 -0.999536 -0.00318233
-5.98544 55.1423 7.28285 0.0319837 -0.999484 -0.00304025
-6.47797 55.1246 7.791 0.0329802 -0.999449 -0.00379088
-7.08091 55.102 8.38319 0.0342066 -0.999406 -0.00407827
-7.56938 55.0831 8.89054 0.0343328 -0.999401 -0.00429847
-8.10188 55.0625 9.42756 0.0347194 -0.99939 -0.00369451
-8.57993 55.044 9.91375 0.0355779 -0.999361 -0.00329626
-9.11467 55.0227 10.4464 0.0367352 -0.999319 -0.00346373
-9.686 54.9995 11.0174 0.0372953 -0.999297 -0.00372415
-10.1771 54.9793 11.5024 0.0377447 -0.999281 -0.00347141
-10.7754 54.9546 12.1133 0.0388041 -0.999244 -0.00240281
-11.2851 54.9333 12.6161 0.0409626 -0.999158 -0.00220907
-11.8039 54.911 13.1155 0.042321 -0.999103 -0.00118631
-12.3158 54.8881 13.6153 0.0446958 -0.998999 -0.00147345
-12.8177 54.8646 14.1455 0.0470309 -0.998893 -9.44346e-05
-13.3208 54.8408 14.6587 0.0497147 -0.998762 0.00160312
-13.8574 54.8154 15.1798 0.0512917 -0.998677 0.00356507
-14.4012 54.7903 15.7065 0.0511571 -0.998642 0.00976524
-14.953 54.769 16.2536 0.0525199 -0.998336 0.0235651
-15.5575 54.7568 16.825 0.0602292 -0.997345 0.0395081
-16.0734 54.757 17.3304 0.0666765 -0.994701 0.078261
-16.5359 54.7912 18.0473 0.0965788 -0.989733 0.104368
-16.4441 54.8525 18.6677 0.0869571 -0.994905 0.0510102
-15.7771 54.9108 18.8215 0.0803875 -0.995947 0.0403487
-15.019 54.9662 18.8562 0.0705828 -0.997407 0.0140283
-14.2912 55.0119 18.8674 0.0570465 -0.998362 0.00441731
-13.5753 55.0503 18.8629 0.0526174 -0.998603 0.00482081
-12.7765 55.0927 18.9013 0.0498283 -0.998757 0.000936837
-12.0585 55.127 18.839 0.0471528 -0.998882 0.00315028
-11.342 55.1619 18.8518 0.0503873 -0.998729 0.000451031
-10.6369 55.1969 18.8445 0.0483331 -0.998831 3.5798e-05
-9.95 55.2298 18.8606 0.0475902 -0.998867 -0.000744971
-9.16091 55.2668 18.8988 0.0467698 -0.998906 0.000239175
-8.4275 55.3013 18.8538 0.0471378 -0.998888 0.000448598
-7.7434 55.3334 18.8789 0.0467012 -0.998907 0.00204278
-7.04762 55.3668 18.8633 0.0462542 -0.998926 -0.00270625
-6.28934 55.4002 18.85 0.0423047 -0.999104 -8.6164e-05
-5.49625 55.4349 18.8847 0.044384 -0.999013 0.00191136
-4.64756 55.4743 18.8757 0.0465667 -0.998915 0.000194442
-3.8476 55.5104 18.8802 0.0462229 -0.998928 0.00232016
-3.1646 55.5433 18.8629 0.0492473 -0.998784 0.00229292
-2.45799 55.578 18.8903 0.0484911 -0.998824 -0.000371079
-1.6183 55.6185 18.9327 0.048167 -0.998838 0.00130074
-0.938938 55.6522 18.8961 0.0511894 -0.998687 0.000620138
-0.1582 55.6915 18.8833 0.0504025 -0.998728 -0.0010555
0.632169 55.7304 18.9152 0.0489466 -0.998801 -0.000146687
1.38691 55.7671 18.9025 0.047394 -0.998876 1.67326e-06
2.10815 55.8005 18.9254 0.0455891 -0.99896 0.000380513
2.90867 55.8377 18.8592 0.047548 -0.998869 -0.000704126
3.69998 55.8748 18.8959 0.0446128 -0.999 -0.00260078
4.40662 55.9062 18.9739 0.0455191 -0.998963 -0.000126431
5.22149 55.9437 18.9014 0.0484519 -0.99882 0.00182185
5.92297 55.9774 18.91 0.0488532 -0.998806 0.000247202
6.63632 56.0123 18.9697 0.0490888 -0.998794 -0.000124612
7.42392 56.0512 18.9187 0.0487664 -0.998809 -0.0016936
8.11862 56.0842 18.9019 0.0462831 -0.998928 -0.00118588
8.94001 56.1217 18.9028 0.0453735 -0.99897 -1.67658e-05
9.61658 56.1524 18.9568 0.0450169 -0.998986 2.89262e-05
10.3419 56.1848 18.884 0.0438879 -0.999036 -0.000807176
11.1496 56.2194 18.8837 0.0428975 -0.999079 -8.50155e-05
12.0004 56.2544 18.9042 0.0378219 -0.999279 -0.00330216
12.7255 56.2809 18.886 0.0346864 -0.999385 -0.00514476
13.4803 56.3045 18.8831 0.0317339 -0.999482 -0.00487457
14.2447 56.322 18.8984 0.0114768 -0.999907 -0.00740351
14.9843 56.3279 18.9153 0.00308336 -0.999921 -0.0122029
15.6766 56.3229 18.899 -0.00675804 -0.999925 -0.00908407
16.3598 56.2982 18.8595 -0.108393 -0.994079 -0.00763047
17.108 56.2107 18.8486 -0.125137 -0.992103 -0.00845388
17.7645 56.0931 18.6214 -0.197752 -0.98016 0.0134491
18.3947 55.9323 18.2563 -0.243876 -0.96818 0.0561431
18.69 55.8124 17.6174 -0.225348 -0.967962 0.103376
18.7365 55.7478 16.9201 -0.193222 -0.976782 0.0919644
18.7433 55.6868 16.1991 -0.170885 -0.982014 0.0802219
18.7373 55.6326 15.4904 -0.160075 -0.984442 0.0724509
18.7454 55.5773 14.7885 -0.145423 -0.986654 0.0732463
18.7206 55.5253 13.9837 -0.137164 -0.988465 0.0641827
18.7088 55.4712 13.1162 -0.130029 -0.9894 0.0645428
18.7157 55.4183 12.2486 -0.12467 -0.990608 0.0561389
18.7044 55.3742 11.439 -0.125141 -0.990576 0.0556722
18.7243 55.324 10.5877 -0.122009 -0.990817 0.0581831
18.7345 55.2833 9.8853 -0.119373 -0.991348 0.0545752
18.665 55.2529 9.2011 -0.115081 -0.991676 0.0577494
18.7491 55.2045 8.50741 -0.111567 -0.992265 0.0544374
18.6995 55.1719 7.7891 -0.109583 -0.992616 0.0520119
18.6622 55.1392 7.06591 -0.108932 -0.992769 0.0504379
18.7303 55.095 6.3334 -0.108191 -0.992916 0.0491189
18.7433 55.0583 5.61232 -0.107729 -0.993014 0.0481405
18.703 55.0289 4.91316 -0.109003 -0.992897 0.047672
18.6997 54.9935 4.17341 -0.107799 -0.993031 0.0476247
18.7056 54.9576 3.38277 -0.113164 -0.992637 0.0431765
18.703 54.9259 2.7023 -0.114277 -0.992291 0.0479575
18.7054 54.8919 2.017 -0.112809 -0.992426 0.0486313
18.6873 54.8561 1.23872 -0.11137 -0.992667 0.0469858
18.6902 54.8238 0.532091 -0.112852 -0.992674 0.0431553
18.7234 54.7859 -0.243365 -0.115238 -0.992357 0.0441381
18.7055 54.748 -1.12815 -0.117574 -0.991998 0.0460027
18.7533 54.7096 -1.80719 -0.118739 -0.99171 0.0491086
19.0521 54.6901 -1.48122 -0.11567 -0.992118 0.0481879
19.3403 54.6909 -0.744505 -0.116481 -0.992099 0.0465993
19.6304 54.6863 -0.120428 -0.114403 -0.99231 0.047252
19.9381 54.6849 0.588288 -0.111282 -0.992701 0.0464704
20.1645 54.6946 1.35908 -0.112353 -0.992641 0.045164
20.4857 54.6878 2.01906 -0.116356 -0.99203 0.0483319
20.7839 54.6873 2.7206 -0.115408 -0.992102 0.0491379
20.9191 54.7059 3.40214 -0.114242 -0.992158 0.0507156
20.9159 54.7412 4.08245 -0.112578 -0.992282 0.0519776
20.9113 54.7855 4.89384 -0.111549 -0.992031 0.0583991
20.9126 54.8228 5.59621 -0.105172 -0.9933 0.0479058
20.9121 54.8568 6.31827 -0.107339 -0.993141 0.0463662
20.9267 54.8899 7.05039 -0.108702 -0.992943 0.0474183
20.9181 54.9234 7.74747 -0.109875 -0.992958 0.0442999
20.917 54.954 8.44051 -0.114129 -0.992453 0.0448504
20.9214 54.9858 9.1367 -0.115117 -0.992258 0.0466057
20.9051 55.0216 9.86826 -0.11825 -0.991912 0.0461301
20.8986 55.0584 10.6433 -0.124335 -0.991016 0.0492746
20.8898 55.1014 11.442 -0.120149 -0.991363 0.0523404
20.8777 55.1406 12.2636 -0.12659 -0.990957 0.0444484
20.9236 55.165 12.9647 -0.13004 -0.990654 0.0411735
20.8521 55.2048 13.6664 -0.138424 -0.989344 0.0450643
20.8656 55.2395 14.5315 -0.151301 -0.987626 0.0412738
20.8928 55.2671 15.3707 -0.164274 -0.985738 0.0363991
20.9001 55.2889 16.1049 -0.173715 -0.984549 0.022041
20.8152 55.3223 16.806 -0.192702 -0.980846 0.0283954
20.8918 55.303 17.5506 -0.2276 -0.97361 -0.00247034
21.0619 55.2438 18.1912 -0.2994 -0.953058 -0.0451736
21.7979 54.9268 18.7668 -0.395816 -0.914008 -0.0889917
22.3785 54.6316 19.0378 -0.447681 -0.893863 -0.0243264
22.6192 54.4932 19.6513 -0.446512 -0.89437 -0.0269973
22.572 54.5032 20.4488 -0.447709 -0.894169 -0.00432215
22.2574 54.6585 20.9864 -0.441348 -0.897318 0.00565105
21.4283 55.0525 21.0537 -0.410252 -0.911586 0.0265366
20.775 55.3317 20.9763 -0.390144 -0.919908 0.0394643
20.0518 55.5996 21.0366 -0.328429 -0.941852 0.0710523
19.3956 55.7988 21.0024 -0.26709 -0.962268 0.0496285
18.5349 56.007 21.0107 -0.21094 -0.975447 0.0614239
17.8576 56.136 21.0139 -0.158845 -0.984774 0.0706306
17.158 56.2373 20.9805 -0.136384 -0.989159 0.0526759
16.2956 56.3116 21.0173 -0.0746408 -0.996915 0.0242876
15.4266 56.334 21.0202 0.00087282 -0.999903 0.0136709
14.6989 56.3326 21.0273 0.00437072 -0.999878 0.0149908
13.7705 56.3157 21.01 0.0246846 -0.999677 0.00597695
13.0672 56.2956 21.0136 0.0319139 -0.999411 0.0126249
12.3423 56.2698 20.9397 0.0362509 -0.999328 0.00545497
11.5207 56.238 20.9877 0.0390712 -0.99923 0.00351794
10.8104 56.2081 21.0114 0.0428253 -0.999078 0.00294189
10.0793 56.1753 21.0229 0.0466619 -0.998908 0.00179404
9.31133 56.1394 21.0066 0.0458486 -0.998948 3.79997e-05
8.62099 56.1077 21.0023 0.046496 -0.998918 0.000865889
7.82558 56.0695 21.0412 0.0490692 -0.998795 -0.000579142
7.13408 56.0358 21.0096 0.0481528 -0.99884 -0.000399628
6.41085 56.0009 21.0043 0.0483674 -0.99883 -0.000201282
5.45504 55.9531 21.0709 0.0502039 -0.998736 -0.00195006
4.68444 55.9169 21.1253 0.0449103 -0.998988 -0.00230074
4.00491 55.8867 20.9405 0.0456371 -0.998958 -0.000677614
3.27519 55.8533 20.9721 0.0452578 -0.998974 -0.00158691
2.56999 55.8215 21.0061 0.0447169 -0.999 -0.000542679
1.79739 55.7868 21.0189 0.0466151 -0.99891 0.00229612
1.10244 55.754 21.0609 0.0478391 -0.998854 0.000692841
0.349696 55.7171 21.0106 0.0497864 -0.998757 0.00222022
-0.321507 55.6826 21.0943 0.0517302 -0.998661 0.000631357
-1.02063 55.6467 21.0377 0.049919 -0.998753 0.0010618
-1.73258 55.6121 21.0101 0.0475898 -0.998866 -0.00126708
-2.46129 55.5782 21.0325 0.0460376 -0.99894 -0.000373677
-3.15883 55.5463 21.0295 0.0470812 -0.99889 0.00133882
-4.11596 55.5008 20.9917 0.0478395 -0.998854 0.00103794
-4.88216 55.4643 21.0463 0.0473886 -0.998877 0.000151487
-5.58367 55.4316 21.0292 0.0456904 -0.998954 -0.00159335
-6.33357 55.3978 21.0349 0.0427141 -0.999084 -0.00180187
-7.02417 55.3673 21.0297 0.0445222 -0.999004 0.00288181
-7.72221 55.3352 21.0341 0.0473637 -0.998876 0.00170521
-8.51041 55.2984 21.0435 0.0464383 -0.998921 0.000499315
-9.21706 55.2651 21.0338 0.0472672 -0.998882 0.000721593
-9.9903 55.2284 21.058 0.0478899 -0.998853 -0.000260248
-10.7929 55.1913 21.0634 0.0452729 -0.998975 0.000476271
-11.6488 55.1526 21.0121 0.0452073 -0.998973 0.00283675
-12.5117 55.1128 21.0083 0.0479829 -0.998831 0.00589843
-13.2615 55.0755 21.014 0.0509695 -0.998695 0.00308507
-13.9936 55.041 21.0546 0.0458946 -0.998933 0.00509165
-14.6943 55.0099 21.0299 0.0416349 -0.999094 0.0082491
-15.4126 54.9819 21.0203 0.0354656 -0.999275 0.013824
-16.2729 54.9522 21.024 0.0374523 -0.99889 0.0285528
-17.0741 54.9106 21.041 0.0766822 -0.995608 0.0537065
-17.7619 54.8453 21.0975 0.160963 -0.984234 0.0733116
-18.4631 54.6977 21.0527 0.267362 -0.959606 0.0847076
-19.1765 54.4822 21.0413 0.308666 -0.94985 0.0501112
-19.8699 54.249 21.0634 0.34753 -0.935517 0.0634918
-20.5132 53.9916 21.0107 0.399209 -0.914355 0.0677356
-21.194 53.6703 20.9809 0.459756 -0.886061 0.0528199
-21.808 53.2982 21.0466 0.544867 -0.838158 0.0247055
-22.3847 52.917 21.0297 0.562318 -0.824057 0.06876
-22.9971 52.4601 21.0719 0.623017 -0.781276 0.0381746
-23.546 51.9945 20.9755 0.659286 -0.751379 0.0266575
-24.1255 51.4577 21.0818 0.690698 -0.723126 0.00499829
-24.732 50.8735 21.0549 0.696698 -0.717325 0.00740617
-25.0074 50.5989 20.4604 0.699595 -0.71452 0.00528667
-25.0256 50.573 19.5618 0.709196 -0.704944 0.00552532
-24.9631 50.6396 18.8891 0.7152 -0.698889 -0.0065719
-24.4528 51.1508 18.8728 0.699738 -0.714232 -0.0154534
-23.8853 51.7015 18.8459 0.692564 -0.721219 -0.0138786
-23.3711 52.1648 18.8678 0.644527 -0.764021 -0.0292597
-22.6891 52.7146 18.8597 0.604375 -0.792876 -0.0779682
-22.0246 53.1594 18.841 0.516959 -0.855345 -0.0337264
-21.3958 53.5091 18.6508 0.434172 -0.900277 -0.0315463
-20.7679 53.7731 18.3082 0.374647 -0.925926 0.0471627
-20.137 53.9951 17.8387 0.343515 -0.938585 0.0324747
-19.4915 54.1893 17.5207 0.278357 -0.958111 0.0672664
-18.796 54.3907 17.6039 0.243175 -0.967751 0.0657525
-18.1033 54.5446 17.5887 0.187696 -0.980946 0.0501539
-17.2491 54.67 17.5568 0.136221 -0.987722 0.0764786
-16.7093 54.6911 17.1426 0.101201 -0.991441 0.0824855
-16.3118 54.6894 16.5744 0.0797904 -0.995176 0.0570712
-16.1296 54.676 15.9017 0.107131 -0.993713 0.0325184
-15.9802 54.6799 15.0868 0.087631 -0.996069 0.00799791
-16.0258 54.6763 14.4125 0.0785998 -0.996896 -0.00399237
-15.6564 54.7079 13.855 0.066309 -0.997747 -0.0101843
-15.2027 54.7413 13.3395 0.0574804 -0.998325 -0.00658456
-14.6627 54.7752 12.9217 0.0524761 -0.998577 -0.00951044
-14.1167 54.8075 12.3901 0.0497376 -0.998714 -0.00970258
-13.5998 54.8366 11.7929 0.0457701 -0.998926 -0.00725095
-12.9713 54.8688 11.2072 0.0436519 -0.999019 -0.00739855
-12.4268 54.8947 10.6541 0.0400163 -0.999178 -0.00648314
-11.9464 54.9166 10.1581 0.0390829 -0.999221 -0.00551026
-11.4132 54.9402 9.63388 0.0383019 -0.999251 -0.00553049
-10.9318 54.9611 9.14842 0.0374453 -0.999283 -0.00565939
-10.3684 54.9847 8.6109 0.0369966 -0.999302 -0.005193
-9.81991 55.0079 8.0339 0.0364784 -0.999318 -0.00574119
-9.2926 55.0297 7.54232 0.0352788 -0.999362 -0.00564876
-8.72491 55.053 6.95761 0.0342773 -0.999395 -0.00591117
-8.19632 55.0744 6.37448 0.0336257 -0.999419 -0.00559813
-7.67705 55.0946 5.85297 0.0325534 -0.999454 -0.0056308
-7.16317 55.114 5.37044 0.0319848 -0.999471 -0.00589955
-6.6573 55.1327 4.89176 0.0309998 -0.999502 -0.00597591
-6.0262 55.1551 4.34219 0.0294395 -0.999545 -0.00651082
-5.55535 55.1719 3.81348 0.0265927 -0.999626 -0.00632511
-4.94056 55.1928 3.13164 0.0257105 -0.999634 -0.00837645
-4.31459 55.2129 2.48008 0.0203613 -0.999743 -0.0100011
-3.72859 55.2281 2.02506 0.0151349 -0.999847 -0.00878009
-3.15208 55.2415 1.43556 0.0108504 -0.999884 -0.0103214
-2.68987 55.2499 0.923449 0.00723407 -0.999932 -0.00913519
-2.20693 55.2571 0.43142 0.00281586 -0.999956 -0.00894191
-1.68714 55.263 -0.0940536 -0.00323863 -0.999945 -0.00987316
-1.09947 55.2658 -0.640164 -0.00596892 -0.999942 -0.00899032
-0.600491 55.2664 -1.1872 -0.0104312 -0.999912 -0.00816224
-0.0534262 55.2652 -1.73727 -0.0150894 -0.999839 -0.00972586
0.4362 55.2614 -2.22622 -0.0177881 -0.999807 -0.00839777
0.916126 55.2562 -2.70785 -0.021316 -0.999736 -0.00857647
1.46868 55.2474 -3.27092 -0.0250582 -0.999658 -0.00751123
1.98067 55.2377 -3.74201 -0.0270164 -0.999601 -0.00828167
2.57551 55.2243 -4.31964 -0.0309307 -0.999502 -0.00624298
3.0785 55.2112 -4.82289 -0.0335321 -0.999425 -0.00502578
3.57552 55.1973 -5.34763 -0.0338024 -0.999415 -0.00517828
4.09505 55.1824 -5.84227 -0.034423 -0.999393 -0.00539235
4.63222 55.1665 -6.40548 -0.0363515 -0.99932 -0.00614091
5.10318 55.1521 -6.9033 -0.0370444 -0.9993 -0.00529776
5.62873 55.135 -7.41995 -0.0376363 -0.99928 -0.00481123
6.18707 55.1167 -7.98407 -0.0376831 -0.999278 -0.00482173
6.73735 55.0984 -8.53253 -0.0385872 -0.999244 -0.00481552
7.2767 55.0798 -9.046 -0.0389853 -0.999231 -0.00428976
7.87376 55.0591 -9.64603 -0.0387404 -0.99924 -0.00434245
8.37539 55.0422 -10.167 -0.0388713 -0.999232 -0.00500034
8.86314 55.0257 -10.6659 -0.0389805 -0.999226 -0.00523845
9.40155 55.0074 -11.2016 -0.0398214 -0.999192 -0.00537333
9.92232 54.9894 -11.7214 -0.040408 -0.999168 -0.00555119
10.4697 54.9702 -12.2853 -0.0413143 -0.99913 -0.00566633
11.0079 54.9507 -12.8029 -0.0415035 -0.999121 -0.00591565
11.5143 54.9323 -13.2799 -0.0435892 -0.999027 -0.00668559
12.016 54.9135 -13.7477 -0.0441328 -0.999001 -0.00708484
12.6323 54.891 -14.4222 -0.0461832 -0.998898 -0.00825923
13.1672 54.8706 -14.9415 -0.0488536 -0.998741 -0.0113636
13.7327 54.8494 -15.4919 -0.0491882 -0.998677 -0.0149704
14.2659 54.8326 -16.0529 -0.0522008 -0.998437 -0.0199326
14.7971 54.8212 -16.5667 -0.0525549 -0.998162 -0.0299
15.3973 54.8187 -17.1612 -0.0580186 -0.996422 -0.0614427
15.8439 54.8383 -17.7129 -0.0580346 -0.993968 -0.0930527
16.1476 54.8895 -18.4758 -0.113414 -0.989825 -0.0859306
15.6472 54.9522 -18.8831 -0.0565484 -0.997676 -0.0380096
14.9624 54.9938 -18.9264 -0.0510025 -0.99854 -0.0178117
14.2818 55.0265 -18.9556 -0.0387812 -0.999223 -0.00708455
13.5996 55.0505 -18.9665 -0.0315388 -0.9995 -0.00196545
12.9206 55.0708 -18.9789 -0.0278301 -0.999611 -0.00169553
12.2227 55.0893 -18.9682 -0.025551 -0.999673 -0.000401949
11.4945 55.1065 -18.9231 -0.0228799 -0.999738 -0.00036556
10.7549 55.1226 -18.9113 -0.0211251 -0.999776 0.00135819
10.0013 55.1374 -18.9232 -0.0183791 -0.999831 0.000380224
9.28974 55.1506 -18.9233 -0.0185405 -0.999828 -1.01437e-05
8.55356 55.1642 -18.9409 -0.0182878 -0.999833 9.38402e-05
7.86895 55.1766 -18.9067 -0.0181409 -0.999835 -7.54465e-05
7.14859 55.1898 -18.9586 -0.0187904 -0.999823 0.000136503
6.45249 55.203 -18.955 -0.0180593 -0.999836 0.00105141
5.72241 55.2157 -18.9156 -0.0173832 -0.999849 -0.000321056
4.91354 55.23 -18.9531 -0.0179838 -0.999838 -0.000359495
4.16991 55.2433 -18.9879 -0.0175321 -0.999846 -0.000214098
3.4741 55.2553 -18.9223 -0.0172896 -0.99985 -0.000927091
2.65242 55.2697 -18.9358 -0.0182714 -0.999833 -0.000722235
1.96138 55.2821 -18.9786 -0.016435 -0.999864 -0.000926968
1.18247 55.296 -18.9743 -0.0191995 -0.999815 -0.00104429
0.436941 55.3101 -18.9561 -0.0190546 -0.999818 0.000256914
-0.259904 55.3235 -18.9524 -0.0181795 -0.999834 0.000670146
-1.05581 55.3382 -18.9641 -0.0189575 -0.99982 -0.000454911
-1.80098 55.3526 -18.9722 -0.0193047 -0.999814 0.000360582
-2.49916 55.3658 -18.9525 -0.0185485 -0.999828 -0.000178441
-3.20132 55.3791 -18.972 -0.0191367 -0.999817 8.12564e-05
-3.9014 55.3927 -18.9352 -0.0192591 -0.999814 0.000452956
-4.60275 55.4056 -18.9512 -0.0178272 -0.999841 -0.000181075
-5.3485 55.4193 -18.958 -0.0186728 -0.999826 -0.000367049
-6.13069 55.4341 -18.9738 -0.0188835 -0.999822 0.000335574
-6.94947 55.449 -18.9474 -0.019361 -0.999812 -0.000954059
-7.79125 55.4656 -18.9508 -0.0194699 -0.99981 0.000632452
-8.58472 55.4806 -18.9654 -0.0173119 -0.999849 0.00176605
-9.28277 55.4918 -18.9693 -0.0150903 -0.999886 3.41969e-05
-9.96832 55.5024 -18.9528 -0.0157949 -0.999875 -0.000275564
-10.7297 55.5142 -18.9729 -0.0141809 -0.999898 0.0013954
-11.5544 55.5251 -18.9741 -0.0125199 -0.999922 9.86332e-05
-12.2852 55.5341 -18.9421 -0.0115712 -0.999933 0.000638462
-13.0447 55.5411 -19.0238 -0.0052389 -0.999976 0.00328273
-13.7297 55.5426 -18.9727 -0.000466406 -0.999993 0.00364195
-14.4185 55.5418 -19.0042 0.00525771 -0.999971 0.0054538
-15.1771 55.5324 -18.997 0.0161343 -0.99986 0.00434025
-15.8926 55.5156 -18.999 0.0350865 -0.999221 0.0168338
-16.6676 55.4824 -18.9899 0.0711824 -0.996287 0.048429
-17.3523 55.4094 -18.9627 0.165535 -0.985967 0.0216166
-18.12 55.2689 -18.9593 0.22253 -0.974583 0.00549916
-18.7302 55.0967 -18.7019 0.292498 -0.955441 -0.03883
-19.0753 54.9496 -18.1001 0.232613 -0.967654 -0.0976628
-19.1038 54.8663 -17.3431 0.202661 -0.974793 -0.0933085
-19.1449 54.8044 -16.6667 0.186271 -0.980435 -0.0636426
-19.0607 54.7772 -15.9725 0.174611 -0.983139 -0.0540684
-19.1082 54.7286 -15.196 0.160984 -0.985915 -0.0453448
-19.3828 54.7128 -15.8182 0.176679 -0.983011 -0.0496196
-19.5504 54.7184 -16.4944 0.179861 -0.982191 -0.0543185
-19.6963 54.7318 -17.2182 0.210834 -0.975224 -0.0669743
-19.9007 54.7372 -17.9167 0.229363 -0.971439 -0.0597966
-20.1048 54.7174 -18.5784 0.228414 -0.973273 -0.023828
-20.6289 54.5576 -18.9732 0.301046 -0.951514 0.0446612
-21.2957 54.2869 -18.9836 0.368377 -0.928288 0.0440685
-21.9163 53.9975 -18.9709 0.463811 -0.883986 0.0572127
-22.5412 53.6339 -18.9372 0.541518 -0.839204 0.0497385
-23.1371 53.2209 -18.9659 0.586271 -0.809447 0.0329053
-23.6423 52.8343 -19.1072 0.615331 -0.787929 0.0231296
-23.6872 52.7919 -19.866 0.603853 -0.797011 0.00844057
-23.7046 52.7766 -20.5596 0.609863 -0.792507 0.000733628
-23.4611 52.9755 -21.1171 0.600952 -0.798462 -0.0299435
-22.7706 53.4547 -21.1521 0.543794 -0.838473 -0.0327655
-22.177 53.82 -21.1234 0.493853 -0.868031 -0.0513088
-21.3922 54.2349 -21.1097 0.427196 -0.903709 -0.0285195
-20.5225 54.6107 -21.1456 0.370179 -0.927594 -0.0503749
-19.8614 54.8476 -21.1477 0.302609 -0.95218 -0.0400397
-19.0751 55.079 -21.0921 0.253009 -0.965884 -0.0552736
-18.2813 55.2654 -21.1379 0.204135 -0.977433 -0.0525865
-17.4222 55.4111 -21.1179 0.125349 -0.990598 -0.0547711
-16.7372 55.4804 -21.1137 0.0836201 -0.994329 -0.0657097
-15.9847 55.5177 -21.1603 0.0388082 -0.999124 -0.0131679
-15.2729 55.5334 -21.1492 0.00956673 -0.999883 -0.0106844
-14.4498 55.5406 -21.1485 0.0048171 -0.999983 -0.00332942
-13.697 55.5429 -21.1174 0.00125084 -0.999991 -0.00388353
-12.9261 55.5411 -21.1291 -0.00692753 -0.999968 -0.00375402
-12.1175 55.534 -21.1047 -0.013347 -0.999903 -0.00394904
-11.3804 55.5244 -21.0859 -0.0125513 -0.99992 -0.00149284
-10.5775 55.5133 -21.0791 -0.0147515 -0.999889 -0.00212346
-9.81845 55.5006 -21.1319 -0.018704 -0.999823 -0.00162975
-9.11171 55.4878 -21.1133 -0.0186332 -0.999826 0.000442324
-8.32654 55.4738 -21.1131 -0.0168341 -0.999858 -8.22963e-05
-7.50733 55.4592 -21.1297 -0.0181983 -0.999834 0.000125076
-6.74786 55.4451 -21.1464 -0.0188074 -0.999823 0.000493626
-5.96894 55.4306 -21.126 -0.01859 -0.999827 0.000265713
-5.24368 55.4172 -21.1549 -0.01841 -0.999831 9.2466e-05
-4.55146 55.4043 -21.169 -0.0186551 -0.999826 0.000360041
-3.80517 55.3905 -21.1183 -0.0189062 -0.999821 -0.000356471
-3.09855 55.3769 -21.1142 -0.0184803 -0.999829 0.000224696
-2.29187 55.3621 -21.1425 -0.0186744 -0.999825 -0.000677187
-1.58211 55.3486 -21.1287 -0.0200453 -0.999796 -0.00256954
-0.802264 55.3328 -21.089 -0.0197769 -0.999804 0.000385384
-0.115155 55.3192 -21.1013 -0.0199296 -0.9998 0.00177556
0.607674 55.3058 -21.1407 -0.0171998 -0.999852 0.000836184
1.32324 55.2936 -21.1068 -0.017611 -0.999845 -0.000171067
2.04117 55.2808 -21.1298 -0.0170366 -0.999854 0.000739612
2.85517 55.2682 -21.1729 -0.0159369 -0.999872 -0.00150375
3.59758 55.2552 -21.1057 -0.0185853 -0.999826 -0.00134502
4.39929 55.2399 -21.0736 -0.0189486 -0.99982 -1.88803e-05
5.10555 55.2272 -21.1681 -0.0182556 -0.999833 -0.000645362
5.86352 55.2133 -21.1336 -0.0183562 -0.999831 -0.000207843
6.64469 55.199 -21.1161 -0.0177539 -0.999842 0.000258081
7.47488 55.1844 -21.1562 -0.017641 -0.999844 -0.00027481
8.21203 55.171 -21.1026 -0.0188646 -0.999822 -0.000470093
9.06716 55.1548 -21.1365 -0.0184111 -0.99983 0.000212801
9.86377 55.1408 -21.1065 -0.0174332 -0.999847 -0.00127688
10.6831 55.1255 -21.1705 -0.0194166 -0.99981 -0.00156189
11.42 55.1111 -21.147 -0.0189281 -0.999819 -0.00189135
12.1042 55.0972 -21.1465 -0.0216865 -0.999758 -0.00352341
12.843 55.0807 -21.1671 -0.0231062 -0.999722 -0.00464985
13.7001 55.0599 -21.1395 -0.0239566 -0.999688 -0.00700058
14.4965 55.0418 -21.1384 -0.0229636 -0.999683 -0.010159
15.1825 55.0268 -21.1411 -0.0228281 -0.999584 -0.0176086
15.8731 55.0078 -21.1054 -0.0315785 -0.999228 -0.0233614
16.5732 54.9815 -21.1333 -0.0475234 -0.997891 -0.0442065
17.3766 54.905 -21.1317 -0.116201 -0.987725 -0.0976823
18.0911 54.7446 -21.1245 -0.286828 -0.956542 -0.0525121
18.8263 54.5108 -21.1315 -0.31378 -0.947724 -0.0577235
19.7629 54.1495 -21.1069 -0.391434 -0.917579 -0.069484
20.3939 53.8678 -21.0976 -0.447965 -0.892046 -0.0598405
21.08 53.5092 -21.1745 -0.492222 -0.869314 -0.0448351
21.7063 53.1385 -21.0895 -0.53442 -0.843193 -0.049318
22.2795 52.7407 -21.1619 -0.571628 -0.816524 -0.0807768
22.8685 52.2774 -21.1383 -0.628498 -0.777518 -0.0213345
23.4569 51.7902 -21.1291 -0.643035 -0.765492 -0.0229812
23.961 51.3419 -21.1167 -0.676833 -0.734388 -0.0484703
24.39 50.9235 -20.9449 -0.695297 -0.718601 -0.0132101
24.4444 50.8729 -20.1151 -0.688494 -0.725127 0.0108485
24.4201 50.9029 -19.4072 -0.673359 -0.739273 0.00762719
24.1025 51.1945 -18.9514 -0.668584 -0.743605 0.00687341
23.5103 51.7229 -18.946 -0.660865 -0.750416 0.0102339
22.9374 52.2097 -18.9456 -0.638162 -0.769785 0.0134758
22.3562 52.6834 -18.9331 -0.603249 -0.795228 0.0515718
21.7145 53.1244 -18.9427 -0.540076 -0.841006 0.0320415
20.9277 53.5741 -18.8675 -0.447931 -0.893402 0.0345089
20.2972 53.8738 -18.7101 -0.380313 -0.924849 0.00397628
19.6789 54.1233 -18.5822 -0.340723 -0.940159 0.00295794
19.0272 54.3286 -18.3567 -0.278608 -0.960076 -0.0251493
18.2773 54.5193 -18.2058 -0.247483 -0.965142 -0.0735829
18.1886 54.5444 -18.1933 -0.253836 -0.96423 -0.0615971
20.0457 55.5546 19.0795 -0.298902 -0.95415 0.0152492
19.566 55.6805 18.9091 -0.245367 -0.969006 0.028689
19.1723 55.8076 19.5101 -0.242592 -0.968968 0.0474318
19.6019 55.6951 19.672 -0.279519 -0.959755 0.0272031
20.3347 55.4631 19.4276 -0.326866 -0.945024 0.00421954
20.1277 55.5299 19.1867 -0.300403 -0.953752 0.0107157
20.5495 55.3947 18.6649 -0.326454 -0.945114 -0.0136544
20.2032 55.4762 17.8183 -0.243258 -0.969374 0.0337503
20.1304 55.466 16.9762 -0.214191 -0.976047 0.0376263
20.1562 55.4323 16.2628 -0.18311 -0.982215 0.0409185
20.1821 55.3895 15.4469 -0.163549 -0.985516 0.0444659
20.1703 55.3564 14.7426 -0.15437 -0.986601 0.0527971
20.1845 55.3182 14.0429 -0.144043 -0.988172 0.0526099
20.1767 55.2811 13.2787 -0.135192 -0.989641 0.0482015
20.1641 55.2434 12.4885 -0.13001 -0.990299 0.0490362
20.1777 55.2055 11.7552 -0.124804 -0.990929 0.0498263
20.1948 55.1681 11.0714 -0.123021 -0.991058 0.0516565
20.2397 55.1207 10.2553 -0.121068 -0.99134 0.0508691
20.199 55.0888 9.51844 -0.11729 -0.991923 0.0482908
20.1996 55.0497 8.72435 -0.115067 -0.992155 0.0488668
20.2057 55.0158 8.0327 -0.111253 -0.992645 0.047712
20.2323 54.9791 7.32487 -0.10908 -0.992874 0.0479906
20.2226 54.9472 6.63863 -0.108313 -0.992966 0.047812
20.2409 54.9054 5.81966 -0.106937 -0.993068 0.0487837
20.1876 54.8705 5.00089 -0.109163 -0.992731 0.0506786
20.2192 54.8303 4.28019 -0.11211 -0.992403 0.050668
20.2185 54.7886 3.4521 -0.113309 -0.992341 0.0491865
20.0272 54.7762 2.74805 -0.113972 -0.992309 0.0483096
19.7639 54.7737 2.07071 -0.114118 -0.992333 0.0474593
19.4443 54.7816 1.46962 -0.112876 -0.992517 0.0465571
19.3613 54.8029 1.71729 -0.113137 -0.992457 0.0472104
19.3732 54.8413 2.54329 -0.113623 -0.99237 0.047874
19.404 54.8736 3.28917 -0.112615 -0.992489 0.0477943
19.4074 54.9136 4.1341 -0.111503 -0.992621 0.0476554
19.3966 54.9527 4.91226 -0.108709 -0.992887 0.0485545
19.4522 54.9808 5.60734 -0.108577 -0.992887 0.048861
19.4247 55.0193 6.33283 -0.108444 -0.992908 0.0487278
19.4063 55.0626 7.1719 -0.109226 -0.992824 0.0486901
19.4007 55.098 7.86856 -0.110966 -0.992561 0.0500908
19.4466 55.1413 8.81069 -0.113177 -0.992188 0.0524784
19.4105 55.1869 9.60437 -0.118426 -0.991539 0.0531553
19.402 55.2278 10.3528 -0.120779 -0.991282 0.0526627
19.3739 55.2785 11.2229 -0.124086 -0.990821 0.0536353
19.3868 55.3196 12.0165 -0.126853 -0.990545 0.0522339
19.4045 55.3617 12.8261 -0.13168 -0.98977 0.0548724
19.4012 55.4014 13.5248 -0.139461 -0.988462 0.0590977
19.4063 55.4434 14.2337 -0.144622 -0.987573 0.0615208
19.4292 55.4845 14.9644 -0.152911 -0.986275 0.062153
19.4136 55.5337 15.6895 -0.168549 -0.983633 0.0635994
19.4076 55.5804 16.3794 -0.191556 -0.979274 0.0657936
19.4442 55.6178 17.0664 -0.20776 -0.976289 0.0602795
19.3476 55.6817 17.8087 -0.227165 -0.972157 0.0575017
19.0485 55.793 18.4915 -0.232122 -0.971012 0.0557157
18.6185 55.9217 19.0575 -0.232052 -0.971778 0.0424267
18.0059 56.0598 19.3987 -0.178793 -0.983612 0.023231
17.3293 56.1809 19.59 -0.16805 -0.985704 0.0121474
16.6406 56.2651 19.5829 -0.0995338 -0.995032 -0.00211213
15.9509 56.3106 19.6792 -0.0443759 -0.998998 0.00492901
15.2213 56.3237 19.6168 -0.00212537 -0.999972 -0.00719519
14.3777 56.3216 19.5472 0.00841586 -0.999955 -0.00291645
13.5632 56.3046 19.5712 0.0239044 -0.999713 0.00168096
12.6332 56.2775 19.5635 0.0309515 -0.99952 -0.000990929
11.7421 56.2438 19.5776 0.0396235 -0.999214 -0.000652032
11.0273 56.2146 19.5649 0.0421862 -0.999108 0.00169067
10.2172 56.1797 19.6284 0.0437446 -0.999042 0.000704918
9.45308 56.1454 19.6313 0.0455479 -0.998962 0.000659618
8.76098 56.1135 19.6391 0.0465821 -0.998914 0.000348914
7.91327 56.074 19.6295 0.0470217 -0.998893 -0.000769493
7.2067 56.04 19.671 0.0485805 -0.998819 -0.000592271
6.38735 56 19.6926 0.0488858 -0.998804 -0.00035185
5.64092 55.9638 19.7269 0.0478985 -0.998852 -5.86446e-05
4.76859 55.9226 19.7413 0.0462329 -0.998931 -0.000453129
4.02389 55.8884 19.6523 0.0457312 -0.998954 -0.000529575
3.12073 55.8472 19.5777 0.0458339 -0.998949 -0.000524296
2.3086 55.8099 19.6792 0.0459888 -0.998942 7.88777e-05
1.61763 55.7782 19.645 0.0458756 -0.998947 2.58053e-05
0.927428 55.7449 19.6625 0.0495227 -0.998773 0.000160035
0.233611 55.7105 19.6648 0.0498879 -0.998755 -0.000544901
-0.58098 55.6696 19.6475 0.0497528 -0.998761 -0.000711815
-1.4132 55.6286 19.6359 0.0483558 -0.99883 -0.000791477
-2.36337 55.5828 19.6 0.0481256 -0.998841 0.00023078
-3.09004 55.548 19.5967 0.0473301 -0.998879 0.00105889
-3.87901 55.5105 19.5681 0.0469239 -0.998897 0.00150083
-4.63454 55.4751 19.571 0.0464448 -0.99892 0.000831081
-5.35459 55.4419 19.5733 0.0454498 -0.998966 0.00103314
-6.05943 55.4103 19.5892 0.0445172 -0.999009 0.000202384
-6.74427 55.3796 19.5893 0.0452864 -0.998974 -0.000728212
-7.53432 55.3434 19.5462 0.0463961 -0.998923 0.000483365
-8.29757 55.3077 19.5425 0.0469966 -0.998895 0.000300159
-9.01324 55.274 19.6354 0.0472038 -0.998885 0.000368728
-9.75256 55.2391 19.5454 0.0470735 -0.998891 1.75278e-05
-10.539 55.2017 19.5042 0.0473842 -0.998877 0.000452446
-11.4046 55.1605 19.5733 0.0478748 -0.998851 0.00230806
-12.2055 55.1222 19.5814 0.0485096 -0.998818 0.00303446
-12.9388 55.086 19.5852 0.050103 -0.998739 0.00321194
-13.7178 55.0464 19.5914 0.0501995 -0.998724 0.00552238
-14.4257 55.0094 19.5548 0.0525007 -0.998575 0.00962312
-15.2053 54.967 19.5433 0.0571831 -0.998159 0.0200979
-15.9857 54.9223 19.5162 0.0600911 -0.99771 0.0307643
-16.7518 54.8645 19.2658 0.079782 -0.995358 0.0507254
-17.2017 54.7768 18.7352 0.126491 -0.987841 0.0903769
-17.6742 54.67 18.2871 0.15101 -0.985643 0.0755202
-18.51 54.5095 18.2866 0.229485 -0.970168 0.0781694
-19.2853 54.304 18.2763 0.284095 -0.957581 0.0472974
-20.0284 54.0741 18.6555 0.327409 -0.943727 0.0465777
-20.681 53.8373 19.0376 0.395224 -0.917911 0.0351707
-21.3521 53.5233 19.3393 0.455822 -0.890053 -0.000969341
-22.0833 53.1036 19.5905 0.534739 -0.844444 -0.00166364
-22.6604 52.7026 19.5602 0.582634 -0.812703 -0.00693415
-23.3065 52.1965 19.5528 0.649307 -0.76038 -0.0109539
-23.8687 51.6979 19.5506 0.678136 -0.734811 -0.0100849
-24.3943 51.1971 19.5629 0.696509 -0.717497 -0.00853336
-24.5348 51.0595 20.1534 0.697681 -0.716406 0.00110914
-24.0832 51.4946 20.3536 0.691351 -0.722516 0.00214858
-23.4654 52.0576 20.2938 0.663804 -0.747858 -0.00855238
-22.7695 52.6202 20.315 0.6111 -0.791549 -0.00256686
-22.2045 53.0197 20.3207 0.560487 -0.82813 0.00517212
-21.6061 53.4068 20.3128 0.488853 -0.871443 0.0401012
-20.9877 53.7343 20.2488 0.448568 -0.892954 0.0364122
-20.2968 54.0481 20.3233 0.378731 -0.924167 0.0444871
-19.4581 54.3541 20.3331 0.316614 -0.947361 0.0460886
-18.7643 54.5627 20.3141 0.27362 -0.960885 0.0421845
-17.9811 54.7666 20.365 0.198166 -0.979008 0.0319926
-17.2937 54.8619 20.3291 0.101629 -0.994159 0.0339427
-16.5592 54.9173 20.3062 0.056368 -0.997648 0.0389981
-15.8219 54.9528 20.2859 0.045873 -0.99869 0.0226631
-15.0166 54.9892 20.2995 0.0467697 -0.99883 0.012318
-14.2713 55.0233 20.2882 0.0470397 -0.998863 0.00742697
-13.5703 55.0576 20.312 0.0488797 -0.998793 0.00482658
-12.8131 55.0951 20.3356 0.0490863 -0.998787 0.00400319
-12.1271 55.1284 20.319 0.0474829 -0.998866 0.00341299
-11.3443 55.165 20.3309 0.0464812 -0.998917 0.00216197
-10.6495 55.1974 20.3481 0.0465208 -0.998917 0.00113574
-9.87325 55.2337 20.2937 0.0471422 -0.998888 0.000546563
-9.08005 55.2712 20.3346 0.0471205 -0.998889 0.000524485
-8.33097 55.3064 20.3146 0.0466669 -0.99891 0.000434583
-7.60349 55.3403 20.3025 0.0461896 -0.998933 0.000259045
-6.88889 55.373 20.3329 0.0451141 -0.998982 0.000466693
-6.11785 55.4076 20.3541 0.0448797 -0.998992 -0.00019611
-5.38756 55.4408 20.3408 0.04597 -0.998943 -0.000145299
-4.62168 55.4763 20.3345 0.0467437 -0.998907 0.000841425
-3.798 55.5151 20.262 0.0472405 -0.998883 0.00117122
-2.87406 55.5589 20.2938 0.0471853 -0.998886 0.0010459
-2.06479 55.5969 20.3253 0.0467649 -0.998906 -0.000391178
-1.3258 55.6323 20.3042 0.047435 -0.998873 -0.00144477
-0.623302 55.6668 20.3019 0.051075 -0.998695 -0.000194282
0.0821791 55.7028 20.2635 0.0505935 -0.998719 0.000267664
0.944746 55.746 20.2718 0.0490572 -0.998795 0.000571472
1.66396 55.7802 20.2668 0.0477049 -0.998861 -0.000557197
2.34233 55.8115 20.2861 0.0455188 -0.998963 -0.000239349
3.01898 55.8422 20.1908 0.0456431 -0.998958 -0.00049788
3.8513 55.8802 20.1781 0.0456853 -0.998956 -0.000725926
4.62655 55.9157 20.2138 0.0460381 -0.998939 -0.00130183
5.22079 55.9429 20.5448 0.0476645 -0.998858 -0.00275278
5.85752 55.9741 20.2359 0.048577 -0.998819 -0.00077656
6.59874 56.0102 20.3027 0.0486511 -0.998816 -0.000300943
7.36878 56.0476 20.318 0.048304 -0.998833 -0.00054888
8.28708 56.0915 20.3013 0.0470381 -0.998893 0.000440598
9.11121 56.1301 20.3165 0.0463527 -0.998925 0.000420667
9.8371 56.1633 20.3178 0.0453255 -0.998972 0.00110918
10.7249 56.2028 20.2912 0.0438555 -0.999037 0.00128041
11.4659 56.2339 20.2768 0.0404661 -0.999179 0.00186542
12.1716 56.2616 20.2365 0.0366284 -0.999326 0.00242785
12.987 56.2896 20.2506 0.0299338 -0.999543 0.00413789
13.8307 56.3119 20.2361 0.0212907 -0.999755 0.00608327
14.8634 56.3255 20.2846 0.00147928 -0.999984 0.00540308
15.5474 56.3223 20.3451 -0.0146589 -0.999888 0.00313615
16.2697 56.3001 20.3033 -0.055361 -0.99842 0.00958906
17.0312 56.2292 20.2461 -0.116326 -0.993012 0.0151119
17.7624 56.1235 20.2752 -0.168253 -0.985156 0.034037
18.611 55.9629 20.2831 -0.212023 -0.976748 0.0283945
19.2893 55.8032 20.3156 -0.267621 -0.963027 0.0309374
19.9467 55.6086 20.3211 -0.308599 -0.950822 0.0237683
20.5949 55.38 20.2556 -0.338128 -0.941099 0.00164577
21.3363 55.0796 20.3354 -0.396174 -0.91812 -0.00449596
21.934 54.8141 19.9938 -0.410486 -0.911835 -0.0076148
21.5838 54.9833 19.4139 -0.396577 -0.917422 -0.0307428
20.998 55.2334 19.1102 -0.335981 -0.941808 -0.0106853
20.7265 55.3307 18.8655 -0.326456 -0.945114 -0.0136538
-17.7212 54.7391 19.2122 0.149353 -0.986662 0.0647369
-18.4516 54.5783 18.9794 0.224498 -0.971549 0.0728253
-19.2177 54.366 19.0336 0.296966 -0.953046 0.0580415
-19.9643 54.1361 19.4729 0.34209 -0.938754 0.0399457
-19.5242 54.2987 19.6403 0.319715 -0.946299 0.0451822
-18.8432 54.5083 19.6112 0.285242 -0.95747 0.0433111
-18.0382 54.7131 19.7299 0.182623 -0.98145 0.0583444
-17.5323 54.7828 19.4433 0.149412 -0.98667 0.0644773
-17.5621 54.7756 19.4024 0.149406 -0.986672 0.0644747
-2.84933 55.2344 3.20307 0.0146579 -0.999884 -0.0036132
-2.35586 55.2426 2.65568 0.011691 -0.999923 -0.00400235
-1.84716 55.2488 2.09734 0.00607486 -0.999977 -0.00301366
-1.30282 55.2527 1.62635 0.00246299 -0.999983 -0.00515905
-0.719332 55.254 1.03279 -0.00356504 -0.999991 -0.00228684
-0.203872 55.2527 0.478264 -0.00690357 -0.999974 -0.00204109
0.287429 55.25 -0.0274514 -0.0100462 -0.999941 -0.0040074
0.895651 55.2435 -0.520127 -0.014005 -0.999897 -0.00322652
1.39264 55.237 -1.09644 -0.0187223 -0.999821 -0.00257234
1.8709 55.2289 -1.60087 -0.0227024 -0.999735 -0.00363185
2.42046 55.2176 -2.09505 -0.0254053 -0.999673 -0.00292624
2.92296 55.2057 -2.63295 -0.0278924 -0.999607 -0.00294536
3.4959 55.1906 -3.15452 -0.0308309 -0.99952 -0.0030203
4.09265 55.173 -3.7212 -0.033162 -0.999443 -0.0037264
4.6111 55.1574 -4.29622 -0.0345968 -0.999396 -0.00339905
5.14507 55.1406 -4.81226 -0.0356602 -0.999356 -0.00392894
5.77208 55.1206 -5.45984 -0.0363789 -0.99933 -0.00413075
6.26372 55.1047 -5.9795 -0.0372685 -0.999296 -0.00429115
6.85621 55.0846 -6.49959 -0.0378252 -0.999275 -0.00437971
7.37866 55.0669 -7.02871 -0.0384056 -0.999254 -0.00407616
7.89561 55.0493 -7.56322 -0.0384215 -0.999252 -0.00427933
8.4273 55.0306 -8.01475 -0.0388568 -0.999236 -0.00416061
9.005 55.0105 -8.60024 -0.0391971 -0.999222 -0.00425986
9.46003 54.9948 -9.10864 -0.0394826 -0.99921 -0.00450273
10.0319 54.9747 -9.6691 -0.0396768 -0.999203 -0.00442388
10.5775 54.9552 -10.2062 -0.0403057 -0.999177 -0.00453284
11.0697 54.9373 -10.6897 -0.040914 -0.999153 -0.00438657
11.5772 54.9186 -11.2185 -0.041871 -0.999113 -0.0044868
12.1281 54.8976 -11.7645 -0.0427083 -0.999078 -0.00427155
12.699 54.8746 -12.2802 -0.0449651 -0.99898 -0.00410344
13.2559 54.8517 -12.8652 -0.0467135 -0.9989 -0.00400762
13.8044 54.8273 -13.4345 -0.0503963 -0.998718 -0.00477502
14.3781 54.7997 -13.9724 -0.0536415 -0.998549 -0.00471832
14.8544 54.7757 -14.4747 -0.0592115 -0.998224 -0.0059211
15.4197 54.7445 -15.0554 -0.0688421 -0.997516 -0.0148894
15.5541 54.7456 -15.7326 -0.0767623 -0.996922 -0.0159449
15.649 54.7628 -16.4281 -0.0773543 -0.996363 -0.0357482
15.2207 54.7776 -15.9849 -0.0652405 -0.997339 -0.0321955
14.6175 54.801 -15.4283 -0.0563123 -0.998248 -0.017795
14.104 54.8219 -14.8573 -0.0560895 -0.998366 -0.0109028
13.5335 54.8469 -14.3385 -0.0506276 -0.998681 -0.00845283
12.9943 54.8689 -13.7721 -0.0468021 -0.99888 -0.00695869
12.4726 54.889 -13.1276 -0.0458638 -0.998931 -0.00576955
11.9296 54.9106 -12.6777 -0.043596 -0.999034 -0.0055884
11.4154 54.9301 -12.1985 -0.0427543 -0.999071 -0.00535589
10.8244 54.9519 -11.6356 -0.0411473 -0.999139 -0.00522348
10.2938 54.9708 -11.0712 -0.0405979 -0.999163 -0.00500639
9.73787 54.9905 -10.5481 -0.0398878 -0.999192 -0.0048957
9.20259 55.0091 -10.0038 -0.0393033 -0.999216 -0.00476658
8.69475 55.0266 -9.49864 -0.0390878 -0.999226 -0.00449245
8.24686 55.0414 -8.9091 -0.0389258 -0.999232 -0.00444374
7.68291 55.0611 -8.41157 -0.0387782 -0.999238 -0.00433024
7.12684 55.0805 -7.919 -0.0384188 -0.999251 -0.00457472
6.55903 55.0994 -7.30452 -0.0380391 -0.999266 -0.00461314
5.96331 55.1195 -6.78023 -0.0373998 -0.99929 -0.0045227
5.42238 55.1366 -6.17261 -0.0364214 -0.999325 -0.00471489
4.81113 55.156 -5.61548 -0.0350655 -0.999373 -0.00483395
4.27115 55.1723 -5.05782 -0.0350254 -0.999377 -0.00433792
3.80453 55.1857 -4.50279 -0.0331906 -0.999439 -0.0044759
3.29201 55.2003 -4.03299 -0.0319127 -0.999479 -0.00474723
2.70481 55.2156 -3.48914 -0.0287573 -0.999574 -0.0050192
2.21945 55.2263 -2.9701 -0.0261813 -0.999647 -0.00444895
1.72084 55.2362 -2.45595 -0.0236107 -0.999709 -0.0048564
1.11151 55.2467 -1.96197 -0.0200391 -0.999775 -0.00682191
0.585803 55.2523 -1.37435 -0.0161637 -0.999846 -0.00684626
0.0534631 55.2565 -0.819607 -0.0142181 -0.999884 -0.00543234
-0.517863 55.2584 -0.244761 -0.00803995 -0.99995 -0.00596963
-1.08864 55.2584 0.314352 -0.00425157 -0.999976 -0.00553687
-1.65636 55.2553 0.881041 0.000566893 -0.999981 -0.00613336
-2.16637 55.2502 1.4244 0.00440981 -0.999974 -0.00564786
-2.73055 55.2418 1.96539 0.0108006 -0.999926 -0.00555142
-3.2509 55.2312 2.55725 0.014765 -0.999868 -0.00674848
-3.8151 55.219 2.99931 0.0184024 -0.99981 -0.00647659
-4.40145 55.2024 3.58286 0.0233677 -0.999708 -0.00606287
-4.8311 55.1891 4.12925 0.025444 -0.999661 -0.00545563
-5.43676 55.1703 4.62005 0.0277092 -0.9996 -0.00557931
-6.01719 55.1502 5.25006 0.0297974 -0.999542 -0.0053506
-6.50141 55.1328 5.76993 0.0314047 -0.999493 -0.00517444
-7.17379 55.1084 6.32671 0.0326005 -0.999455 -0.00525644
-7.64303 55.0903 6.83148 0.0332767 -0.999431 -0.00543672
-8.10278 55.0721 7.34952 0.0343775 -0.999395 -0.00529099
-8.67824 55.0495 7.88351 0.0349341 -0.999375 -0.0053116
-9.2924 55.0244 8.50345 0.0361099 -0.999336 -0.00481397
-9.78566 55.004 9.03326 0.0369394 -0.999307 -0.00447402
-10.3719 54.9796 9.6173 0.0373535 -0.999291 -0.004722
-10.9936 54.9534 10.1951 0.0382246 -0.999259 -0.00453892
-11.4697 54.9325 10.7095 0.039657 -0.999203 -0.00447096
-11.9776 54.9099 11.2394 0.0408022 -0.999156 -0.00479797
-12.579 54.882 11.7889 0.0430322 -0.999061 -0.00500943
-13.0877 54.8571 12.2637 0.0456454 -0.99894 -0.00590213
