-19.6208 56.3755 17.6718 0.271579 -0.961093 0.0502237
-18.6089 56.6625 18.1733 0.225354 -0.973136 0.0454026
-19.1939 56.542 18.7154 0.264782 -0.962629 0.0507573
-20.2645 56.2083 18.5791 0.311778 -0.949414 0.0375156
-21.2523 55.8579 18.6193 0.354866 -0.934529 0.0265032
-21.0601 55.9161 18.0758 0.347442 -0.937454 0.0215287
-20.1842 56.2069 17.6867 0.306333 -0.951263 0.0340383
-19.6734 56.3537 17.5521 0.274519 -0.960079 0.0537267
-18.9585 56.4985 16.657 0.243075 -0.969261 0.038057
-18.0645 56.7221 16.9896 0.197413 -0.979414 0.0421399
-17.1469 56.8851 17.0652 0.141576 -0.989093 0.040447
-17.4847 56.8788 18.0855 0.173254 -0.983913 0.043575
-17.2235 56.9771 19.1512 0.173869 -0.983704 0.0457219
-17.4021 56.9724 19.7037 0.156388 -0.986865 0.0357878
-18.4146 56.7882 19.786 0.210107 -0.976256 0.049122
-19.5442 56.4914 19.7694 0.306687 -0.951352 0.0295299
-20.5184 56.1642 19.7024 0.336541 -0.94095 0.0363499
-21.4694 55.8003 19.7119 0.378634 -0.925526 0.00609662
-22.4717 55.3709 19.7063 0.400559 -0.916266 0.00308884
-22.55 55.3378 18.5562 0.385162 -0.922843 -0.00313304
-22.7727 55.2506 17.5562 0.361056 -0.932535 0.00404499
-22.1443 55.4922 17.2816 0.362914 -0.931768 0.0100542
-21.2132 55.8423 17.0513 0.32448 -0.945824 0.00980325
-20.4167 56.0918 16.2004 0.279809 -0.96 0.0103714
-19.8102 56.257 16.0764 0.251122 -0.9678 0.0173531
-19.1152 56.4543 16.5322 0.243068 -0.969263 0.0380534
-18.7414 56.5162 15.7746 0.24804 -0.967517 0.0488592
-17.7322 56.7562 15.955 0.183093 -0.982916 0.0178295
-16.8206 56.8898 15.322 0.118677 -0.992904 0.0025955
-16.0834 56.9712 14.6147 0.0852827 -0.996228 -0.0128224
-15.4114 57.027 13.8855 0.0659097 -0.997772 -0.0097837
-14.6309 57.0808 13.1186 0.0550632 -0.998433 -0.00996522
-13.9069 57.1241 12.412 0.0484764 -0.998789 -0.00836098
-13.2139 57.1611 11.6724 0.0444185 -0.998996 -0.00579256
-12.4981 57.196 10.9446 0.0415047 -0.999122 -0.0056307
-11.6911 57.2326 10.1671 0.0393485 -0.999213 -0.00496609
-10.8641 57.2687 9.38225 0.0379154 -0.999265 -0.00563495
-10.1609 57.2987 8.65419 0.0365401 -0.999317 -0.0054778
-9.4288 57.3288 7.9227 0.0355056 -0.999357 -0.00499591
-8.64562 57.3608 7.11527 0.0343353 -0.999396 -0.00537746
-7.9112 57.3896 6.39405 0.0331442 -0.999435 -0.00562443
-7.04355 57.4229 5.50147 0.0318303 -0.999479 -0.00526826
-6.22204 57.4531 4.70448 0.0292099 -0.999554 -0.0061344
-5.45369 57.4796 3.90895 0.02659 -0.999623 -0.00686645
-4.72059 57.5028 3.19086 0.0236166 -0.999697 -0.00699883
-3.98915 57.5235 2.46461 0.0176109 -0.999814 -0.00792411
-3.19907 57.5423 1.68546 0.0123993 -0.999894 -0.00758451
-2.48154 57.5562 0.913631 0.00772568 -0.999908 -0.0111221
-1.69881 57.565 0.219737 -0.00212365 -0.999957 -0.00906474
-1.01496 57.5688 -0.554493 -0.00704515 -0.999943 -0.00807187
-0.179497 57.5674 -1.29173 -0.0112089 -0.999906 -0.0077847
0.647601 57.5619 -2.1403 -0.0184276 -0.999798 -0.00794064
1.39148 57.5526 -2.88224 -0.0234619 -0.999692 -0.0080725
2.10184 57.5401 -3.62446 -0.0273382 -0.999603 -0.00670166
2.91591 57.5207 -4.40166 -0.0313938 -0.999487 -0.00634366
3.60913 57.5022 -5.153 -0.0341696 -0.999401 -0.00549108
4.37906 57.4796 -5.88265 -0.0355492 -0.999354 -0.00534174
5.12265 57.457 -6.66711 -0.0364439 -0.999322 -0.00516744
5.86376 57.4332 -7.40362 -0.0372492 -0.999294 -0.00497211
6.59958 57.4089 -8.1526 -0.0383398 -0.999254 -0.0047018
7.32217 57.3843 -8.8573 -0.0386627 -0.999242 -0.00447479
8.10477 57.3577 -9.63175 -0.0390611 -0.999224 -0.00500604
8.84635 57.3323 -10.3696 -0.0394321 -0.999211 -0.00481522
9.56212 57.3075 -11.0901 -0.0398289 -0.999191 -0.00549375
10.2983 57.2817 -11.8222 -0.0409194 -0.999147 -0.00547891
10.9845 57.2575 -12.5768 -0.041584 -0.999119 -0.00569752
11.7496 57.2291 -13.2732 -0.043483 -0.999033 -0.00644468
12.4858 57.2014 -14 -0.045329 -0.998949 -0.00668524
13.2131 57.1727 -14.7056 -0.0493071 -0.998748 -0.00848674
13.957 57.1436 -15.4882 -0.0524339 -0.998543 -0.012701
14.683 57.1148 -16.1839 -0.0574014 -0.998164 -0.0192171
15.4633 57.089 -16.9936 -0.075526 -0.995888 -0.0497129
16.0006 57.0928 -17.8802 -0.104459 -0.992739 -0.0578624
15.7464 57.1694 -18.9295 -0.11665 -0.992802 -0.027145
14.6584 57.2758 -19.1719 -0.0803636 -0.996706 -0.00961221
13.6258 57.3422 -19.1367 -0.0512906 -0.998663 0.00648168
12.5509 57.3836 -19.1452 -0.0332213 -0.999448 0.00100115
11.4964 57.411 -19.12 -0.022899 -0.999737 0.00136256
10.4934 57.4316 -19.124 -0.0188536 -0.999822 0.000553202
9.40247 57.452 -19.1188 -0.0186178 -0.999826 -0.000715357
8.30646 57.4726 -19.1215 -0.0187903 -0.999823 -8.11915e-05
7.28189 57.4919 -19.1237 -0.0189546 -0.99982 7.07055e-05
6.1975 57.5122 -19.1142 -0.0184124 -0.99983 0.00108481
5.14681 57.5307 -19.1194 -0.0174299 -0.999848 -0.000271642
4.13356 57.5484 -19.1222 -0.0178955 -0.99984 -0.000744066
3.11469 57.5667 -19.1285 -0.0178361 -0.999841 -0.000105329
1.97953 57.5868 -19.1175 -0.0175312 -0.999846 -0.000634363
0.947822 57.6056 -19.1214 -0.0185318 -0.999828 -0.000229649
-0.0758506 57.6249 -19.1394 -0.0191491 -0.999817 3.65123e-05
-0.420254 57.631 -20.0878 -0.0184952 -0.999829 0.000715227
-0.0877916 57.6245 -20.9413 -0.0179755 -0.999838 0.000329843
1.03279 57.6044 -20.9409 -0.017917 -0.999839 -0.000157014
2.08263 57.5856 -20.9342 -0.0178283 -0.999841 -0.000186667
3.12349 57.5672 -20.9337 -0.0178534 -0.999841 -0.000355655
4.28781 57.5461 -20.9295 -0.0184764 -0.999829 2.48404e-05
5.37062 57.5265 -20.9265 -0.0179457 -0.999839 0.000179194
6.36957 57.5081 -20.9309 -0.0182559 -0.999833 0.000510613
7.49662 57.4878 -20.9499 -0.0179775 -0.999838 -0.00034954
8.51843 57.4694 -20.9397 -0.0183275 -0.999832 -0.000755327
9.68569 57.4476 -20.9256 -0.0188261 -0.999822 -0.000772742
10.6873 57.4286 -20.9405 -0.0194922 -0.999809 -0.00108951
11.7294 57.4076 -20.9324 -0.0215757 -0.999763 -0.00287716
12.8039 57.379 -20.9362 -0.0307073 -0.99951 -0.00608837
13.8929 57.3417 -20.9456 -0.0401297 -0.999049 -0.0170444
15.066 57.2805 -20.9585 -0.0610528 -0.997839 -0.0242778
16.1137 57.1861 -20.9575 -0.109253 -0.992985 -0.0449863
17.1658 57.0431 -20.9084 -0.158043 -0.985985 -0.0502943
18.1899 56.8444 -20.924 -0.247188 -0.967257 -0.0575428
19.2264 56.5358 -20.941 -0.298699 -0.953795 -0.0324519
20.1791 56.1884 -20.9106 -0.366083 -0.930172 -0.0255045
21.111 55.8006 -20.9502 -0.402552 -0.915282 -0.0145184
22.1302 55.3461 -20.9535 -0.408286 -0.91284 0.00311356
23.0566 54.9281 -20.8961 -0.405288 -0.913888 0.0231152
23.2231 54.8743 -19.9034 -0.39634 -0.917975 0.0152684
23.1545 54.9213 -18.8668 -0.406433 -0.913533 0.0164271
23.404 54.898 -17.8011 -0.298047 -0.950767 0.0758516
23.7984 54.7972 -16.9186 -0.287376 -0.957605 -0.00923073
23.5911 54.8043 -15.7294 -0.282806 -0.956142 -0.0762487
22.9533 54.9941 -15.6155 -0.321933 -0.941158 -0.0995577
22.2185 55.3232 -16.2383 -0.392449 -0.91845 -0.041626
21.2568 55.737 -16.1178 -0.369867 -0.928441 0.0263072
20.7188 55.9983 -15.1422 -0.258183 -0.962152 0.083802
20.7011 56.1068 -14.1034 -0.195027 -0.977471 0.0798491
20.701 56.1899 -13.0134 -0.175701 -0.981499 0.0760822
20.6771 56.2628 -11.9512 -0.152701 -0.986533 0.0584615
20.6755 56.3274 -10.8768 -0.144229 -0.987917 0.0566519
20.7173 56.3904 -9.66305 -0.137322 -0.989096 0.05322
20.7032 56.4516 -8.51907 -0.12941 -0.990436 0.0478525
20.7156 56.4983 -7.52564 -0.130631 -0.990158 0.050223
20.6677 56.559 -6.45713 -0.128462 -0.990419 0.0506738
20.6864 56.6101 -5.43312 -0.126767 -0.990469 0.0538563
20.6834 56.6728 -4.27537 -0.12222 -0.991074 0.053231
20.6739 56.7261 -3.23961 -0.121081 -0.991457 0.0484978
20.726 56.7709 -2.21773 -0.11999 -0.991389 0.0524467
20.7023 56.8355 -1.00803 -0.117434 -0.991821 0.0500043
20.6972 56.8924 0.104734 -0.115979 -0.991972 0.0503952
20.7231 56.9397 1.10208 -0.113136 -0.992278 0.0508416
20.7216 56.9893 2.10823 -0.112279 -0.992546 0.0473838
20.7223 57.0386 3.12492 -0.110186 -0.99263 0.0504425
20.6976 57.1023 4.33807 -0.107428 -0.992915 0.0507898
20.7095 57.1517 5.36436 -0.10592 -0.993212 0.048075
20.7218 57.2003 6.42964 -0.111774 -0.99268 0.04575
20.7259 57.257 7.62718 -0.112846 -0.992398 0.0491114
20.7105 57.3087 8.63795 -0.112885 -0.992511 0.0466673
20.7355 57.359 9.75066 -0.120295 -0.991573 0.0480775
20.703 57.4206 10.9135 -0.120753 -0.99144 0.0496429
20.6925 57.471 11.9105 -0.126701 -0.990722 0.0491624
20.5593 57.5425 13.018 -0.131918 -0.990244 0.0448795
20.505 57.5506 13.0341 -0.139516 -0.989005 0.0490257
19.9785 57.5683 12.0309 -0.127733 -0.990467 0.0515016
19.5611 57.5647 10.9854 -0.121367 -0.991211 0.052647
19.1378 57.5647 10.0426 -0.118409 -0.991397 0.0557744
18.8845 57.539 9.02334 -0.114562 -0.992025 0.0525522
18.8919 57.4741 7.81836 -0.112137 -0.992304 0.0525229
18.9089 57.4088 6.57018 -0.110843 -0.99259 0.0497837
18.8963 57.3488 5.35458 -0.109008 -0.99278 0.050047
18.8909 57.2976 4.30693 -0.108429 -0.992957 0.0477363
18.9049 57.2471 3.26845 -0.109645 -0.992911 0.0458715
18.9218 57.1972 2.20987 -0.112502 -0.992619 0.0452893
18.9044 57.1487 1.12423 -0.113221 -0.992464 0.0468583
18.8871 57.1031 0.102095 -0.113885 -0.99245 0.0455419
18.8825 57.0522 -1.00412 -0.120085 -0.991601 0.0480321
18.895 56.9997 -2.03114 -0.118617 -0.991732 0.0489718
18.8918 56.9499 -3.07909 -0.117904 -0.991973 0.045659
18.9419 56.8875 -4.31364 -0.12558 -0.99102 0.045926
18.911 56.8399 -5.36745 -0.125996 -0.990827 0.0488517
18.9364 56.7862 -6.37477 -0.127244 -0.990666 0.0488839
18.9087 56.7374 -7.45721 -0.128305 -0.99067 0.0459206
18.9655 56.6809 -8.55811 -0.131586 -0.990322 0.0441253
18.9069 56.644 -9.57642 -0.135544 -0.989791 0.0440505
18.9474 56.5931 -10.6046 -0.142943 -0.988732 0.0443789
18.9615 56.5416 -11.6907 -0.149456 -0.987676 0.0464187
18.9042 56.5038 -12.799 -0.161896 -0.98597 0.0406136
18.919 56.4684 -13.8005 -0.183039 -0.982906 0.0196879
18.8767 56.4591 -14.8254 -0.21165 -0.977171 -0.00634827
18.6344 56.5453 -15.8527 -0.258801 -0.965499 -0.02876
17.7708 56.7653 -16.2627 -0.211789 -0.977084 -0.0212768
16.7737 56.9305 -15.8063 -0.123845 -0.992179 -0.00625461
16.0262 57.0027 -15.0818 -0.0776378 -0.996979 -0.00246149
15.245 57.0574 -14.3089 -0.0629658 -0.998012 -0.0010464
14.5154 57.0985 -13.5441 -0.0528121 -0.9986 -0.00255787
13.7243 57.1364 -12.7195 -0.0476866 -0.998859 -0.00248159
12.9651 57.1691 -11.9785 -0.0443646 -0.99901 -0.00338705
12.2365 57.198 -11.2637 -0.0426986 -0.999081 -0.00360923
11.4137 57.2292 -10.4025 -0.040852 -0.999158 -0.00387835
10.7106 57.2548 -9.67436 -0.0403019 -0.999179 -0.00422162
9.87448 57.2847 -8.88728 -0.0397857 -0.999198 -0.00451511
9.16388 57.3097 -8.17643 -0.0389119 -0.999234 -0.00416364
8.41805 57.3355 -7.39282 -0.0387826 -0.999239 -0.0041683
7.67533 57.3613 -6.67138 -0.0385552 -0.999248 -0.00404803
6.82589 57.3902 -5.82068 -0.0377064 -0.99928 -0.00420361
5.99007 57.4175 -4.96461 -0.0365346 -0.999324 -0.00400126
5.28138 57.4402 -4.24446 -0.0356126 -0.999358 -0.00389219
4.55073 57.4636 -3.50769 -0.0346795 -0.999395 -0.00274506
3.83907 57.4856 -2.80082 -0.0306153 -0.999529 -0.00197862
3.096 57.506 -2.07661 -0.0274553 -0.999621 -0.00214252
2.38096 57.5227 -1.34454 -0.0237555 -0.999717 -0.00114569
1.6406 57.5376 -0.651374 -0.01827 -0.999833 -0.000646131
0.920766 57.5477 0.0827808 -0.0106459 -0.999943 -0.000428847
0.176662 57.5541 0.87372 -0.00674091 -0.999977 -7.55774e-05
-0.654352 57.5564 1.65112 -6.04498e-05 -0.999998 -0.000922179
-1.357 57.5546 2.37406 0.00414492 -0.999991 0.00038423
-2.1152 57.5479 3.16212 0.00906208 -0.999958 -0.00162637
-2.89128 57.5358 3.86291 0.0172833 -0.99985 -0.00115381
-3.61423 57.5202 4.61205 0.0224587 -0.999746 -0.00209864
-4.33492 57.5014 5.33121 0.0260331 -0.999659 -0.00187723
-5.05224 57.4801 6.05967 0.0286016 -0.999586 -0.00295302
-5.88829 57.4526 6.90979 0.0308782 -0.999518 -0.00296692
-6.64907 57.4254 7.68124 0.032598 -0.999462 -0.00354282
-7.37053 57.3983 8.40269 0.0341564 -0.999408 -0.00400099
-8.09412 57.3702 9.14062 0.0350267 -0.999377 -0.00424502
-8.89681 57.3385 9.91683 0.0359239 -0.999346 -0.00404943
-9.7059 57.3058 10.7451 0.0367036 -0.99932 -0.003566
-10.5409 57.2718 11.5307 0.0385573 -0.999251 -0.00326298
-11.3122 57.2391 12.3261 0.0405441 -0.999174 -0.00257097
-12.0959 57.2046 13.0785 0.0448559 -0.998991 -0.00225469
-12.793 57.1718 13.8346 0.0475205 -0.998869 -0.000275399
-13.6063 57.1314 14.5859 0.052091 -0.99864 0.00133401
-14.3569 57.0931 15.4307 0.0578417 -0.998302 0.00648082
-15.1052 57.0537 16.1245 0.0695912 -0.997448 0.015969
-15.8194 57.0234 16.8941 0.0778409 -0.996347 0.0351066
-16.3754 57.0283 17.8339 0.112843 -0.991207 0.0690983
-16.2461 57.0996 18.7543 0.129818 -0.990913 0.0331646
-15.2901 57.2099 19.035 0.0937124 -0.995567 0.00801895
-14.2252 57.297 19.0504 0.0748945 -0.997173 0.00608036
-13.164 57.3699 19.0429 0.0660417 -0.997806 -0.00426855
-12.1016 57.4293 19.0257 0.0506961 -0.99871 -0.00295301
-11.0583 57.4796 19.0124 0.0480242 -0.998843 0.00233873
-10.0576 57.5282 19.033 0.0492581 -0.998786 -0.000411586
-8.98007 57.5804 19.0398 0.0467225 -0.998905 -0.00198225
-8.18066 57.6159 19.4796 0.0444251 -0.999011 -0.00184293
-8.17382 57.6156 20.5365 0.0441788 -0.999023 0.000397098
-9.17328 57.5712 20.8366 0.0463402 -0.998925 0.00113639
-10.2295 57.5212 20.8406 0.0474216 -0.998875 0.000742055
-11.3866 57.4663 20.8303 0.0477464 -0.998858 0.0014193
-12.6289 57.4046 20.8524 0.0524562 -0.998613 0.00443259
-13.6501 57.3493 20.8631 0.0598638 -0.998157 0.00998121
-14.7893 57.2773 20.8806 0.0700379 -0.997343 0.0200493
-15.9522 57.1819 20.8553 0.0918338 -0.995406 0.0270838
-17.0546 57.0633 20.8414 0.117117 -0.992354 0.0389582
-18.1005 56.8936 20.798 0.191129 -0.980566 0.0442813
-19.2013 56.6316 20.827 0.272186 -0.961048 0.0443011
-20.3734 56.2504 20.8439 0.345034 -0.938245 0.0254676
-21.3683 55.8583 20.8023 0.391747 -0.919816 0.0209865
-22.3063 55.4491 20.8622 0.411784 -0.911238 0.00716403
-23.2368 55.0106 20.8296 0.426924 -0.904136 -0.0150606
-23.6257 54.8523 19.9724 0.401223 -0.915574 -0.0272628
-23.5446 54.9144 18.9554 0.395152 -0.918303 -0.0236372
-23.7153 54.906 17.9452 0.321202 -0.943862 -0.0723645
-24.1903 54.7971 16.9246 0.251102 -0.967783 0.0184781
-23.9526 54.8018 15.7964 0.271989 -0.959399 0.0746709
-23.2245 55.0234 15.6843 0.320544 -0.944474 0.0713031
-22.3342 55.4014 16.2635 0.388568 -0.921419 0.00154534
-21.4769 55.7641 15.913 0.379201 -0.924135 -0.0467078
-21.0816 55.9803 14.7934 0.22289 -0.970025 -0.0968007
-21.052 56.0672 13.7411 0.132915 -0.988396 -0.0725844
-21.0912 56.1224 12.5998 0.100335 -0.993956 -0.0445545
-21.0933 56.1661 11.5025 0.0824128 -0.995579 -0.0450528
-21.0357 56.2091 10.48 0.0694673 -0.996972 -0.0346122
-21.0468 56.2416 9.46454 0.0564572 -0.997933 -0.030591
-21.088 56.2702 8.45095 0.0512431 -0.998279 -0.0285309
-21.0329 56.3063 7.21092 0.0457577 -0.998611 -0.0260591
-21.0447 56.3313 6.15293 0.0444453 -0.998737 -0.0234377
-21.0882 56.3523 5.11972 0.0455851 -0.998723 -0.0217639
-21.0096 56.3789 4.05416 0.0476401 -0.998629 -0.0216886
-21.0377 56.4019 2.89022 0.0505095 -0.998513 -0.0204765
-21.0979 56.4213 1.69214 0.0544576 -0.998342 -0.0186372
-21.0677 56.4419 0.654148 0.0608979 -0.997979 -0.0181714
-21.0496 56.4613 -0.35108 0.0651575 -0.997709 -0.01818
-21.0987 56.4762 -1.37659 0.0717881 -0.997232 -0.0193551
-21.0796 56.4973 -2.46556 0.0792637 -0.996699 -0.0175526
-21.0956 56.5151 -3.48859 0.0851862 -0.996179 -0.0192363
-21.0248 56.5408 -4.52707 0.0909119 -0.995702 -0.0177018
-21.0792 56.5582 -5.63542 0.0952818 -0.995261 -0.0194175
-21.1285 56.5754 -6.68605 0.0998194 -0.994779 -0.0212429
-21.1206 56.5982 -7.73383 0.10369 -0.9944 -0.0204218
-21.0674 56.6236 -8.72783 0.109275 -0.993839 -0.0185222
-21.0786 56.6405 -9.74823 0.115465 -0.993177 -0.0163284
-21.0822 56.6605 -10.8479 0.120439 -0.992577 -0.016881
-21.0876 56.6781 -11.8971 0.127491 -0.991664 -0.018559
-21.055 56.7063 -13.2284 0.135865 -0.990556 -0.0184479
-21.0707 56.7186 -14.2772 0.14666 -0.989086 -0.0134214
-21.0796 56.728 -15.3509 0.168763 -0.985657 -0.00043196
-21.0985 56.7215 -16.4216 0.194499 -0.980835 0.00718481
-21.1503 56.6794 -17.4466 0.241881 -0.969103 0.0454443
-21.4359 56.5296 -18.5058 0.338098 -0.939698 0.0515546
-22.3206 56.1055 -19.0012 0.432351 -0.900988 0.0359589
-23.244 55.6517 -19.1482 0.433546 -0.900973 0.0164997
-24.1923 55.2082 -19.2091 0.401641 -0.915635 -0.0166785
-25.0516 54.8586 -19.363 0.353627 -0.935146 -0.0211848
-25.1834 54.8212 -20.4143 0.320041 -0.947265 0.00115149
-24.6027 55.022 -20.9619 0.366479 -0.929917 0.0307805
-23.6553 55.423 -20.96 0.422709 -0.905475 0.0378493
-22.7358 55.8635 -20.962 0.428341 -0.903542 0.0113774
-21.8116 56.2934 -20.8545 0.404872 -0.914369 0.00292191
-20.8076 56.7203 -20.892 0.36011 -0.932249 -0.0274513
-19.8718 57.0447 -20.9651 0.288807 -0.956587 -0.0391243
-18.8362 57.3354 -20.9585 0.24851 -0.968225 -0.0279773
-17.9292 57.5244 -20.7011 0.198477 -0.979666 -0.0277707
-17.7428 57.5363 -19.5044 0.181884 -0.983267 -0.00950757
-18.569 57.3638 -19.0177 0.232921 -0.972457 -0.00873508
-19.2312 57.1673 -18.1705 0.242848 -0.969378 -0.0364781
-19.3113 57.0928 -17.118 0.191002 -0.98051 -0.0460306
-19.3118 57.0465 -16.0224 0.165412 -0.98554 -0.0367406
-19.3186 57.0035 -14.9221 0.150854 -0.987969 -0.0340535
-19.3112 56.9644 -13.7714 0.135559 -0.990274 -0.0313214
-19.2804 56.9302 -12.5543 0.131408 -0.990876 -0.0299325
-19.2768 56.898 -11.4698 0.122909 -0.992038 -0.0274536
-19.2838 56.8641 -10.3097 0.117428 -0.992696 -0.0276555
-19.2831 56.8337 -9.22695 0.111611 -0.993375 -0.0273528
-19.3059 56.7989 -8.10007 0.105593 -0.994029 -0.0275104
-19.3157 56.7677 -7.04123 0.101279 -0.994443 -0.0287097
-19.3121 56.7352 -5.89093 0.0978055 -0.994815 -0.0278911
-19.3415 56.7028 -4.86753 0.0909025 -0.995512 -0.0263237
-19.3626 56.6706 -3.7935 0.0843208 -0.995968 -0.0306321
-19.3396 56.6407 -2.67904 0.0788139 -0.996482 -0.0284859
-19.3204 56.6102 -1.54837 0.0745035 -0.996749 -0.030663
-19.3686 56.5757 -0.505865 0.0647642 -0.997487 -0.0287175
-19.3527 56.5487 0.540178 0.0608211 -0.997815 -0.0257967
-19.3422 56.5162 1.76985 0.054348 -0.998149 -0.0272293
-19.3396 56.4879 2.8617 0.0495925 -0.998462 -0.0247668
-19.3519 56.4618 3.88389 0.0474472 -0.998563 -0.0249001
-19.398 56.4349 4.88637 0.0456202 -0.998672 -0.0239226
-19.3318 56.4125 5.96595 0.0448583 -0.99873 -0.022943
-19.317 56.389 7.03786 0.0451974 -0.998738 -0.0219046
-19.3641 56.3639 8.15669 0.0480142 -0.998671 -0.0187361
-19.3464 56.3435 9.32893 0.0549649 -0.998288 -0.0199222
-19.3583 56.3238 10.3587 0.0646619 -0.997753 -0.0172203
-19.3052 56.3132 11.4394 0.0790366 -0.996816 -0.00941888
-19.3379 56.3062 12.4757 0.0946716 -0.995508 -0.000935568
-19.3071 56.3148 13.552 0.124422 -0.992057 0.0154659
-19.2702 56.3482 14.6182 0.169698 -0.984682 0.0323219
-18.9839 56.4462 15.6034 0.235609 -0.970843 0.0411867
-18.8273 56.4916 15.7245 0.248039 -0.967517 0.0488591
19.7696 56.2678 -17.7242 -0.336285 -0.941269 -0.0290788
20.7264 55.9304 -18.1436 -0.354259 -0.935079 -0.0113043
21.039 55.8149 -18.8425 -0.373485 -0.92747 -0.0175486
20.0108 56.2176 -18.8549 -0.360616 -0.932492 -0.0202883
19.0078 56.5544 -18.86 -0.291809 -0.956196 -0.023169
18.095 56.7796 -18.4611 -0.194551 -0.980291 -0.0341861
19.0205 56.519 -18.0078 -0.288965 -0.95652 -0.0395709
19.5523 56.3415 -17.8022 -0.30063 -0.952505 -0.04851
19.1294 56.437 -16.8336 -0.284991 -0.958069 -0.0280361
18.044 56.738 -17.3113 -0.231613 -0.972226 -0.0334786
16.9907 56.9316 -17.2237 -0.149498 -0.988162 -0.0344371
17.0936 56.9618 -18.2748 -0.169918 -0.984387 -0.0447264
16.7776 57.0517 -19.3276 -0.150293 -0.988159 -0.0286608
17.0738 57.0219 -19.8305 -0.163366 -0.986461 -0.0135988
18.1149 56.8233 -19.8828 -0.228339 -0.973026 -0.024971
19.1866 56.5177 -19.8907 -0.314888 -0.948835 -0.0234986
20.2616 56.1363 -19.8711 -0.362043 -0.932115 -0.00933548
21.2682 55.7274 -19.9072 -0.389104 -0.921161 0.00242361
22.189 55.3305 -19.6116 -0.400112 -0.916424 0.00881678
22.1763 55.348 -18.4596 -0.385589 -0.922574 0.0128084
22.3536 55.287 -17.3633 -0.360578 -0.932679 -0.00344636
21.3357 55.689 -17.2704 -0.36275 -0.931876 -0.00365119
20.3869 56.0373 -16.6496 -0.33005 -0.943935 -0.00240657
19.7296 56.2481 -15.9963 -0.270204 -0.962801 0.00225738
19.1974 56.4139 -16.763 -0.294121 -0.955285 -0.0304042
-20.7302 56.7489 -19.1892 0.333111 -0.942648 0.021232
-20.2535 56.9054 -18.6548 0.285536 -0.958366 0.00178887
-19.6187 57.1004 -19.4199 0.283815 -0.95872 -0.0174813
-19.8174 57.0395 -19.879 0.294248 -0.955549 -0.0121035
-20.8204 56.702 -19.8621 0.343393 -0.938996 0.00697565
-20.8973 56.6858 -19.3676 0.33319 -0.942688 0.0176239
-20.8514 56.7031 -19.3184 0.333118 -0.942646 0.0212389
21.1358 57.4229 19.975 -0.364839 -0.931025 -0.00914748
21.4609 57.2899 20.8632 -0.384008 -0.923329 0.00132731
22.5963 56.801 20.8278 -0.400772 -0.916139 -0.00751424
23.5196 56.4047 20.8806 -0.390341 -0.920615 -0.0101036
24.4923 55.9994 20.8798 -0.382435 -0.923948 -0.00801147
25.4405 55.6316 20.8142 -0.340262 -0.940284 -0.00931542
26.4552 55.2681 20.8336 -0.335877 -0.94187 0.00817189
27.4201 54.926 20.8675 -0.328802 -0.944352 -0.00942044
27.8166 54.7989 19.9791 -0.309214 -0.950836 -0.011516
27.5758 54.8801 19.0679 -0.304788 -0.952419 -0.0012793
26.6005 55.197 19.0849 -0.313877 -0.949246 0.0203165
25.6436 55.5405 19.0537 -0.359253 -0.933027 0.0199331
24.6657 55.9319 19.0947 -0.385219 -0.922816 0.00424313
23.7152 56.3332 19.1064 -0.395984 -0.918214 -0.00587319
22.7343 56.7674 19.0517 -0.407551 -0.912891 -0.0230617
21.7959 57.1836 18.9685 -0.382299 -0.922571 -0.0520494
21.1419 57.4289 19.3959 -0.368473 -0.929428 -0.0197836
21.1422 57.4213 19.8704 -0.365726 -0.930684 -0.00850747
