-48.3436 43.3408 -18.1209 -0.558187 0.825565 -0.0828871
-49.2642 42.9988 -16.8541 -0.494695 0.847784 -0.190798
-50.2073 42.6459 -16.2688 -0.438918 0.887426 -0.140804
-51.7265 42.101 -15.8873 -0.307514 0.944609 -0.114668
-53.0764 41.6639 -15.9743 -0.2763 0.959375 -0.0570736
-54.519 41.2158 -16.4247 -0.324034 0.944289 0.0574967
-55.4737 40.9175 -17.159 -0.396588 0.915832 0.0629247
-56.1995 40.6616 -18.0475 -0.419498 0.90591 0.0563369
-57.2385 40.1528 -18.148 -0.46089 0.886335 0.0441168
-58.0789 39.6933 -17.7821 -0.47592 0.878647 0.0384664
-58.1181 39.6152 -16.538 -0.480824 0.876024 0.0372888
-58.0544 39.5748 -15.2177 -0.47128 0.880195 0.0561435
-57.9519 39.5315 -13.6218 -0.458468 0.887329 0.0486461
-57.9704 39.4646 -12.3254 -0.462801 0.885488 0.0411469
-57.9584 39.4141 -11.065 -0.460913 0.886882 0.0315965
-57.903 39.3975 -9.88808 -0.468145 0.882936 0.0355455
-57.9516 39.3012 -8.24662 -0.471974 0.880838 0.0369616
-58.1237 39.1341 -6.77723 -0.47428 0.879154 0.046333
-58.0748 39.0955 -5.62887 -0.476792 0.877526 0.0511205
-57.5844 39.2963 -4.50694 -0.479693 0.875668 0.0556723
-57.0535 39.6456 -5.4956 -0.479066 0.876354 0.0499919
-56.3509 40.0836 -6.48668 -0.481578 0.875513 0.0394914
-55.5829 40.5387 -7.26726 -0.482742 0.875275 0.0292192
-54.7034 41.0423 -8.02575 -0.475193 0.879743 0.015603
-53.4496 41.7239 -8.84279 -0.469344 0.882995 -0.00598529
-52.4489 42.2549 -9.21719 -0.468516 0.882988 -0.0287279
-51.007 43.0042 -9.81812 -0.477162 0.877968 -0.0367844
-49.631 43.7689 -9.80556 -0.494708 0.866904 -0.0597822
-48.7366 44.2551 -10.1999 -0.498353 0.863333 -0.078935
-48.7589 44.1087 -11.459 -0.498058 0.86129 -0.100586
-48.6356 43.9949 -12.9081 -0.503983 0.854445 -0.126191
-48.3419 43.9894 -14.1463 -0.497211 0.859723 -0.116866
-47.8485 44.0909 -15.4227 -0.512097 0.849541 -0.126636
-47.2363 44.326 -16.4604 -0.544444 0.831013 -0.114007
-46.5768 44.6495 -17.5041 -0.574337 0.814652 -0.0804903
-46.6946 44.5143 -18.0315 -0.579838 0.810624 -0.0814239
-47.6194 43.8251 -18.2791 -0.577128 0.814321 -0.0614867
-48.1577 43.4496 -18.2891 -0.558191 0.825562 -0.082883
-48.246 43.3004 -19.3894 -0.564107 0.823717 -0.054907
-47.0981 44.1131 -19.3058 -0.574421 0.81566 -0.0687588
-45.9956 44.9268 -19.2371 -0.60246 0.79468 -0.0743357
-45.0318 45.6769 -19.324 -0.609578 0.792086 -0.0318679
-44.1188 46.3863 -19.4075 -0.611066 0.79124 -0.0191191
-44.6244 46.0401 -18.2961 -0.600082 0.798978 -0.036936
-45.3869 45.5171 -17.4317 -0.59909 0.797614 -0.0700263
-46.185 45.0326 -16.4692 -0.56786 0.817118 -0.0992592
-46.748 44.7916 -15.4013 -0.541408 0.831788 -0.122497
-47.3698 44.56 -14.25 -0.524062 0.844601 -0.109581
-47.6513 44.544 -13.1347 -0.513817 0.850258 -0.114212
-47.8607 44.5944 -11.7559 -0.50163 0.859113 -0.101452
-47.7998 44.7758 -10.4288 -0.50015 0.861755 -0.0847721
-47.5947 45.0043 -9.17098 -0.501809 0.862781 -0.0608167
-47.2549 45.2659 -8.10136 -0.505041 0.861966 -0.0441292
-48.2395 44.6727 -8.41681 -0.503663 0.862613 -0.0466738
-49.4505 43.9489 -8.70645 -0.501532 0.864207 -0.0401457
-50.4864 43.3519 -8.77832 -0.493316 0.868699 -0.044744
-51.48 42.8056 -8.59514 -0.48775 0.872791 -0.0183338
-52.4864 42.2498 -8.12491 -0.476492 0.879171 -0.00370257
-53.4558 41.7163 -7.6814 -0.485104 0.874349 0.0121729
-54.5109 41.117 -6.88291 -0.488722 0.872109 0.0240161
-55.3451 40.6238 -6.10128 -0.486829 0.872585 0.0399012
-56.1786 40.1066 -5.04212 -0.486019 0.872697 0.0467507
-56.7575 39.7238 -4.02361 -0.489059 0.870539 0.0546173
-57.2221 39.366 -2.44675 -0.484768 0.872878 0.0555287
-57.4124 39.1733 -1.2019 -0.486436 0.871423 0.0632573
-57.3122 39.1444 0.0446288 -0.491838 0.868844 0.0566093
-57.199 39.1201 1.37161 -0.489138 0.870206 0.0590431
-57.1539 39.0575 2.6397 -0.47987 0.875293 0.0598848
-57.181 38.9515 3.95715 -0.479526 0.875415 0.0608537
-57.1967 38.8556 5.28656 -0.489205 0.870412 0.0553169
-57.1856 38.7944 6.43454 -0.480152 0.875259 0.0580971
-57.1265 38.748 7.66475 -0.477929 0.876802 0.0529287
-57.0829 38.7003 8.87511 -0.474491 0.879009 0.046881
-57.0771 38.6355 10.0947 -0.467668 0.882586 0.0482021
-56.7262 38.7583 11.3416 -0.463744 0.885068 0.0398239
-56.3367 38.9074 12.5216 -0.459639 0.887074 0.0424477
-55.8141 39.1313 13.578 -0.454138 0.889861 0.0436491
-55.0912 39.4464 14.6734 -0.450718 0.891888 0.0363337
-54.1609 39.8616 15.5227 -0.429759 0.902323 0.0334168
-53.239 40.2534 16.4464 -0.418541 0.907117 0.0443014
-53.8026 39.9514 17.5683 -0.395503 0.917962 0.0262538
-54.2948 39.7109 18.8015 -0.402503 0.915311 0.0140128
-55.2102 39.287 19.3356 -0.4217 0.906729 -0.00333144
-56.2582 38.7898 19.3035 -0.435482 0.900114 0.0122336
-57.5367 38.1409 19.2988 -0.461257 0.887221 0.00896835
-58.1545 37.8291 18.0989 -0.459507 0.888119 0.00909204
-58.2389 37.8043 16.8481 -0.453981 0.890905 0.0137787
-58.2442 37.8302 15.3614 -0.4546 0.8904 0.0229419
-58.2366 37.8647 14.1491 -0.456672 0.88928 0.0248746
-58.1067 37.9729 12.9745 -0.456071 0.889181 0.0368398
-58.0436 38.0534 11.7893 -0.460861 0.886922 0.0312367
-58.2143 38.0134 10.5491 -0.467535 0.883243 0.0359461
-58.1686 38.1141 8.87851 -0.472063 0.880475 0.0437255
-58.3133 38.1236 7.31947 -0.473502 0.878999 0.0560154
-58.2762 38.2192 6.09823 -0.470654 0.880906 0.0498888
-58.2993 38.2779 4.9182 -0.472205 0.879767 0.0550137
-58.3279 38.3576 3.48949 -0.477042 0.876717 0.061629
-58.332 38.4325 2.30144 -0.481996 0.874408 0.0554755
-58.3244 38.5109 1.11835 -0.476326 0.87749 0.0558983
-58.4616 38.5238 -0.182626 -0.474406 0.878083 0.0625148
-58.6153 38.5316 -1.49537 -0.479835 0.875361 0.0591716
-58.8171 38.4966 -2.61387 -0.47674 0.876981 0.0600572
-59.1023 38.4265 -3.84155 -0.473479 0.878912 0.0577186
-59.1301 38.497 -5.13012 -0.472435 0.879418 0.0585592
-59.1005 38.5952 -6.50659 -0.470674 0.880912 0.0495557
-58.9902 38.716 -7.66461 -0.470462 0.88135 0.043431
-58.843 38.8656 -9.14394 -0.469148 0.8822 0.0402781
-58.876 38.9027 -10.3898 -0.468982 0.88243 0.0370703
-58.891 38.945 -11.5715 -0.468656 0.88256 0.0380687
-58.8555 39.0251 -12.9264 -0.469759 0.881825 0.041253
-58.9779 39.0326 -14.4067 -0.473563 0.87939 0.0491108
-58.9958 39.0822 -15.5923 -0.486923 0.872314 0.0444277
-59.0803 39.0984 -16.9692 -0.489705 0.87116 0.0356101
-59.0887 39.1396 -18.1997 -0.499763 0.865742 0.0269148
-58.6535 39.4213 -19.2243 -0.497751 0.866712 0.0311062
-57.3557 40.1369 -19.2152 -0.467368 0.883628 0.0277379
-56.2383 40.6928 -19.2658 -0.423079 0.905934 0.016972
-55.0769 41.1793 -18.9076 -0.350685 0.936445 0.00950451
-54.5348 41.2898 -17.6373 -0.327115 0.942199 0.0725058
-53.4356 41.5884 -16.9923 -0.2331 0.971028 0.0273014
-52.2694 41.8293 -16.9525 -0.210792 0.974187 -0.0807852
-50.9533 42.1989 -16.9942 -0.270067 0.940163 -0.199208
-49.9315 42.4972 -17.3977 -0.441152 0.838441 -0.291583
-49.1445 42.7765 -18.4265 -0.563422 0.819122 -0.107608
-48.7446 42.9711 -19.3252 -0.556445 0.829741 -0.0435222
-48.9278 42.786 -20.4841 -0.540231 0.839748 -0.0508522
-49.7643 42.2635 -19.991 -0.545365 0.83784 -0.0239708
-49.8414 42.2367 -18.7663 -0.602117 0.796416 -0.0181123
-50.667 42.0153 -18.0354 -0.218333 0.935397 -0.272194
-51.9554 41.7862 -17.9675 -0.164901 0.97564 -0.144688
-53.2568 41.6683 -17.9889 -0.0896797 0.992535 0.0826564
-54.058 41.5296 -18.7141 -0.32238 0.944409 0.0638222
-54.151 41.5282 -20.0416 -0.313761 0.949291 0.0200352
-55.1517 41.1878 -20.3967 -0.344975 0.935649 0.0633848
-56.3372 40.6956 -20.4007 -0.438703 0.897822 0.0372063
-57.6128 40.0396 -20.3068 -0.471111 0.881135 0.0406959
-58.6221 39.471 -20.3482 -0.504361 0.863419 0.011324
-59.7957 38.7775 -19.997 -0.505939 0.86236 0.0189893
-60.0418 38.6084 -18.8211 -0.499292 0.866127 0.0230607
-60.0654 38.5586 -17.5458 -0.500605 0.865177 0.0293818
-59.9944 38.5532 -16.26 -0.491829 0.870074 0.0327934
-59.9138 38.5481 -15.0165 -0.482756 0.87503 0.0352917
-59.8132 38.5495 -13.7809 -0.477721 0.877886 0.033129
-59.7686 38.5206 -12.6091 -0.472407 0.880576 0.0375618
-59.7721 38.4669 -11.3548 -0.470498 0.881604 0.0374882
-59.8086 38.3971 -10.1706 -0.468606 0.882577 0.0382956
-59.831 38.3343 -9.01577 -0.46828 0.882702 0.0393703
-59.9873 38.1819 -7.58811 -0.469019 0.881977 0.0461785
-60.1169 38.026 -5.99419 -0.465314 0.883638 0.0516419
-60.0605 37.9821 -4.8114 -0.463399 0.88417 0.0592013
-59.9668 37.9493 -3.57126 -0.462278 0.884837 0.057984
-59.7642 37.9674 -2.29468 -0.470808 0.880296 0.0584591
-59.5298 38.0129 -1.07346 -0.472146 0.879429 0.0605809
-59.3664 38.0151 0.11605 -0.458407 0.886915 0.0569317
-59.3199 37.967 1.3097 -0.46085 0.885433 0.0602191
-59.2855 37.8785 2.92086 -0.464536 0.883633 0.0577963
-59.1434 37.8776 4.10728 -0.468146 0.882037 0.0533803
-59.2126 37.7579 5.44861 -0.468732 0.881716 0.0535227
-59.2444 37.6708 6.64842 -0.470596 0.88066 0.0543813
-59.2223 37.5948 7.99327 -0.475478 0.878853 0.0392138
-59.1344 37.5868 9.15022 -0.463242 0.885286 0.0402449
-59.1363 37.5243 10.7114 -0.458539 0.888077 0.0325763
-59.0764 37.5075 12.0432 -0.452395 0.891306 0.0284076
-59.103 37.4567 13.3469 -0.444262 0.895457 0.0280769
-59.1482 37.3976 14.5172 -0.441062 0.897091 0.0263087
-59.1737 37.3507 15.6693 -0.446425 0.894473 0.024011
-59.1654 37.3296 17.0095 -0.454228 0.89075 0.0155417
-59.1237 37.3313 18.1584 -0.456179 0.8898 0.012425
-59.1491 37.3047 19.3107 -0.45629 0.889769 0.010494
-58.1764 37.7969 20.3416 -0.462703 0.886477 0.00794991
-56.8011 38.516 20.3315 -0.462733 0.886496 0.00198795
-55.6952 39.0646 20.3099 -0.450576 0.892685 -0.00974025
-54.5059 39.6327 20.3194 -0.412884 0.910436 -0.0166114
-53.4625 40.0802 20.176 -0.392475 0.919472 -0.02312
-53.3635 40.1146 19.0388 -0.383191 0.923638 0.00763371
-52.829 40.3636 17.9668 -0.378387 0.924865 0.0336425
-51.5956 40.7926 17.9031 -0.32989 0.930701 0.15371
-50.4151 41.2046 17.9202 -0.374464 0.897393 0.231824
-49.513 41.5508 18.3984 -0.618561 0.781218 0.0841445
-49.4014 41.5827 19.6227 -0.577344 0.816066 0.0266647
-48.8563 41.9367 20.4776 -0.562403 0.826777 0.0119389
-47.7422 42.7044 20.5266 -0.571546 0.819695 0.03789
-46.7467 43.3989 20.4818 -0.576443 0.816753 0.0250679
-45.5254 44.2971 20.4056 -0.602582 0.797043 0.0402055
-44.3701 45.1724 20.438 -0.605137 0.795086 0.0405736
-43.3346 45.9532 20.3593 -0.598638 0.800315 0.0336032
-42.2775 46.7247 20.419 -0.591982 0.805505 0.0260106
-41.1608 47.528 20.408 -0.582686 0.812374 0.0226133
-39.9689 48.3615 20.3269 -0.565082 0.824783 0.0196923
-38.9937 49.0258 20.3876 -0.557559 0.83005 0.0120398
-37.9208 49.7367 20.4833 -0.543765 0.839183 0.00950794
-36.8716 50.3897 20.4219 -0.522198 0.852769 0.00790453
-35.602 51.1539 20.3958 -0.513858 0.857834 0.00846754
-34.5757 51.7556 20.4068 -0.486534 0.87366 -0.00186194
-33.4137 52.3494 20.4336 -0.398219 0.916047 0.0477483
-32.1915 52.8502 20.4968 -0.369639 0.927478 0.0561102
-30.7794 53.3983 20.4505 -0.353459 0.934843 0.0334156
-29.6791 53.818 20.442 -0.363463 0.931184 0.0280896
-28.5559 54.2723 20.3983 -0.384395 0.922803 0.0257275
-28.2652 54.4227 19.4153 -0.392399 0.919449 0.0252374
-28.1865 54.4965 18.2609 -0.372118 0.926116 0.0619502
-27.5873 54.8424 17.0827 -0.362178 0.926931 0.0981123
-27.6492 54.9525 15.8315 -0.366246 0.924855 0.102489
-28.4101 54.7665 14.8036 -0.366692 0.923102 0.115663
-29.1948 54.5369 13.9489 -0.413816 0.903216 0.113831
-29.6494 54.3869 12.82 -0.514956 0.855498 -0.0542519
-28.9715 54.498 11.8428 -0.258631 0.959623 -0.110603
-28.3025 54.5531 10.8043 -0.21323 0.975617 -0.0520107
-27.4052 54.7482 10.1662 -0.380321 0.911288 0.137319
-26.4093 55.0617 10.8886 -0.387892 0.915079 0.109999
-25.4752 55.379 11.7007 -0.41259 0.904145 0.110817
-24.4654 55.7403 12.5831 -0.42737 0.893862 0.134651
-23.7498 56.1886 11.8532 -0.443738 0.890473 0.100431
-23.9416 56.2157 10.6622 -0.427876 0.900477 0.0778714
-24.1705 56.2126 9.44769 -0.41003 0.908235 0.0832706
-24.4607 56.1866 8.11193 -0.405455 0.911463 0.0695791
-25.4376 55.7808 7.67588 -0.40129 0.914074 0.058607
-26.5124 55.3062 7.69942 -0.393488 0.917042 0.0639885
-27.6824 54.8073 7.84405 -0.375113 0.92495 0.0600439
-28.843 54.3427 7.9493 -0.346686 0.937644 0.0249432
-29.9095 54.0182 7.71583 -0.288887 0.956257 -0.0459981
-30.8599 53.7279 7.09767 -0.253681 0.967205 -0.0126991
-31.8373 53.4393 6.28175 -0.281295 0.95934 -0.0228233
-32.6524 53.1749 5.40171 -0.274341 0.96037 -0.0492594
-33.531 52.867 4.47469 -0.287257 0.955541 -0.0665235
-34.3534 52.5616 3.69013 -0.310343 0.948723 -0.0601042
-35.1482 52.2173 2.91283 -0.3502 0.933166 -0.0810008
-35.9174 51.8487 2.01226 -0.422395 0.904576 -0.0563424
-36.7207 51.4337 1.2412 -0.397986 0.915395 -0.0600528
-37.8495 50.8611 0.128686 -0.401938 0.914595 -0.0443064
-38.7422 50.3874 -0.813642 -0.449359 0.891314 -0.0545438
-39.566 49.9182 -1.52791 -0.451418 0.889815 -0.06672
-40.4952 49.361 -2.46254 -0.461781 0.885528 -0.0509804
-41.2317 48.9266 -3.37757 -0.456247 0.88834 -0.0518783
-42.0338 48.461 -4.11771 -0.467364 0.881932 -0.0613797
-43.1964 47.7739 -5.31483 -0.485032 0.873703 -0.0372174
-44.1058 47.2069 -6.49959 -0.503375 0.862974 -0.0434731
-45.1396 46.5618 -7.2554 -0.503772 0.862136 -0.0541683
-45.9382 46.0558 -7.91587 -0.501983 0.863117 -0.0551619
-46.5024 45.6582 -8.90541 -0.503057 0.861767 -0.065284
-46.8318 45.3629 -10.1246 -0.502434 0.860405 -0.0849105
-46.9929 45.148 -11.3534 -0.508486 0.857018 -0.0834364
-46.8185 45.0918 -12.7945 -0.518709 0.849767 -0.0939305
-46.5242 45.1213 -14.0216 -0.530804 0.840283 -0.110318
-45.8545 45.422 -15.0903 -0.549941 0.830458 -0.0869713
-45.3688 45.6333 -16.1302 -0.57032 0.817247 -0.0801171
-44.4681 46.2118 -17.1124 -0.589069 0.806435 -0.051568
-43.6775 46.7575 -17.8354 -0.590833 0.806481 -0.0161607
-42.4561 47.6303 -18.4548 -0.585081 0.810924 0.00407142
-41.4815 48.3313 -18.6819 -0.575822 0.817189 0.0206165
-40.4346 49.0623 -18.8956 -0.568039 0.822623 0.0249639
-39.4465 49.7175 -18.8159 -0.546214 0.83583 0.0551276
-38.4368 50.3577 -18.756 -0.527182 0.847753 0.0571154
-37.415 50.9671 -18.7791 -0.511898 0.855809 0.0745056
-36.3665 51.5964 -18.8049 -0.505348 0.858577 0.085435
-35.1029 52.3078 -18.8178 -0.487361 0.868068 0.0944492
-33.8741 52.8883 -18.7414 -0.419948 0.902348 0.0960816
-32.7536 53.3464 -18.6843 -0.370184 0.927838 0.0456252
-31.6543 53.7694 -18.7633 -0.347861 0.936524 0.043386
-30.5423 54.1875 -18.7093 -0.351298 0.935594 0.0353463
-29.8817 54.459 -19.557 -0.35315 0.935531 0.00724105
-30.3608 54.2819 -20.5392 -0.348752 0.937214 -0.0014108
-31.5235 53.8574 -20.5255 -0.340692 0.940172 -0.00227404
-32.7414 53.424 -20.4684 -0.331269 0.943533 0.00270444
-33.999 52.9536 -20.4759 -0.367075 0.929755 0.0284883
-35.1866 52.4246 -20.4217 -0.470567 0.874269 0.119252
-36.2546 51.7913 -20.4414 -0.515683 0.855724 0.042525
-37.272 51.1882 -20.4472 -0.503811 0.862769 0.0424723
-38.4041 50.487 -20.4657 -0.544906 0.837017 0.0498045
-39.506 49.7528 -20.3777 -0.561045 0.827284 0.0288056
-40.6275 48.9721 -20.3837 -0.581541 0.813248 0.0209196
-41.5836 48.2886 -20.3161 -0.585502 0.810484 0.0160697
-42.5894 47.5492 -20.4119 -0.599788 0.800051 0.00965053
-43.6542 46.7302 -20.4712 -0.617571 0.786446 0.00165642
-44.6269 45.9539 -20.3914 -0.626304 0.779133 -0.0251261
-45.7681 45.033 -20.3586 -0.618219 0.78455 -0.0478061
-46.6814 44.3126 -20.3787 -0.594201 0.801323 -0.0616857
-47.689 43.6116 -20.3906 -0.556714 0.828042 -0.0659351
-48.4726 43.0859 -20.4924 -0.549914 0.832576 -0.0664254
-30.9726 53.5326 16.158 -0.405088 0.912719 0.0527667
-31.4834 53.2542 17.2081 -0.3954 0.916753 0.0548288
-32.0918 52.9741 18.0226 -0.399352 0.916725 0.0115397
-31.5135 53.1965 18.3865 -0.363203 0.931161 0.0319824
-30.5268 53.5835 18.3392 -0.36564 0.929537 0.0476271
-29.7987 53.9098 17.7 -0.355647 0.930917 0.0831234
-29.4422 54.145 16.6771 -0.374376 0.923113 0.0877807
-30.3255 53.8626 15.6373 -0.403048 0.911845 0.07637
-30.8993 53.5744 16.0174 -0.404719 0.912421 0.0607463
-31.7122 53.2326 15.5304 -0.42135 0.90505 0.0578723
-32.2104 52.9515 16.4203 -0.425265 0.904073 0.042448
-32.8643 52.627 17.3828 -0.417935 0.908433 -0.00405329
-33.7508 52.1927 18.2931 -0.470765 0.882184 -0.0108024
-34.4735 51.8108 18.9708 -0.484149 0.874863 -0.00721723
-34.5971 51.7411 19.3736 -0.502033 0.864838 -0.000670715
-33.7099 52.2384 19.4119 -0.485987 0.873919 -0.00908539
-32.7839 52.6632 19.4497 -0.388571 0.921108 0.0239128
-31.8276 53.0432 19.4529 -0.358145 0.933001 0.0351171
-30.8724 53.402 19.3843 -0.348768 0.93639 0.0391772
-29.8635 53.7845 19.358 -0.353392 0.934641 0.0395088
-29.1623 54.0784 18.7143 -0.361207 0.931869 0.033904
-28.8788 54.2625 17.6661 -0.380785 0.920446 0.0882127
-28.4615 54.5482 16.5541 -0.372505 0.922872 0.0977127
-29.0104 54.4245 15.6508 -0.373755 0.921287 0.107298
-29.7248 54.2007 14.8207 -0.404754 0.908996 0.0994847
-30.325 53.9983 13.963 -0.433366 0.896527 0.0915404
-30.514 53.9319 13.4445 -0.416954 0.907909 0.0430281
-31.0626 53.6234 14.2863 -0.428274 0.901405 0.0636431
-31.56 53.3247 15.1977 -0.421353 0.905048 0.0578734
-32.4129 52.9453 14.7666 -0.430937 0.900177 0.0630417
-32.9595 52.622 15.7793 -0.45625 0.889317 0.0308245
-33.5323 52.2952 16.6469 -0.457151 0.889249 0.0157736
-34.2798 51.8979 17.3782 -0.462848 0.886292 0.0010494
-35.2761 51.3477 17.9462 -0.490115 0.871658 0.000693722
-36.1254 50.8553 18.4082 -0.507981 0.861368 7.09763e-05
-37.0937 50.276 18.5329 -0.5198 0.854287 0.00162005
-37.9707 49.7224 18.6663 -0.542596 0.839964 0.00710795
-39.0967 48.9864 18.8005 -0.548195 0.836186 0.0165859
-40.3882 48.1182 18.7116 -0.558743 0.828992 0.024045
-41.3379 47.4508 18.9364 -0.568482 0.821994 0.0339736
-42.1832 46.8569 18.7864 -0.579968 0.813722 0.0386493
-43.1436 46.1656 18.81 -0.584627 0.810066 0.0447723
-43.9682 45.5626 18.7735 -0.594476 0.802802 0.0456549
-44.8452 44.9068 18.7425 -0.600505 0.798233 0.0470844
-45.847 44.1703 18.6486 -0.586959 0.807335 0.0607396
-47.2914 43.158 18.3764 -0.573596 0.816432 0.0665343
-48.1888 42.5423 18.2018 -0.582591 0.810536 0.0583125
-49.0487 41.964 17.9755 -0.593851 0.798076 0.0967509
-49.4339 41.7928 17.5785 -0.532248 0.831146 0.160956
-50.4216 41.404 17.1004 -0.398043 0.888799 0.227152
-51.2355 41.0994 16.5785 -0.428763 0.892498 0.140035
-52.2866 40.7144 15.907 -0.4185 0.905221 0.073711
-53.0709 40.3958 15.2946 -0.435501 0.897938 0.0633604
-54.0086 40.0037 14.2673 -0.44188 0.895286 0.0565422
-54.667 39.7185 13.4841 -0.45023 0.891867 0.0432056
-55.4113 39.3927 12.4496 -0.465104 0.883865 0.0493579
-55.7555 39.2733 11.3411 -0.47258 0.879876 0.0497609
-56.0793 39.1687 10.1407 -0.477808 0.876601 0.0571831
-56.0724 39.245 9.01539 -0.481034 0.874821 0.0574017
-56.2624 39.2094 7.89604 -0.48358 0.873801 0.0512042
-56.2451 39.3051 6.59774 -0.489884 0.869927 0.0569265
-56.2179 39.3979 5.41798 -0.491293 0.869173 0.0562937
-56.2272 39.4648 4.35224 -0.494917 0.867205 0.0548191
-56.301 39.5025 3.13116 -0.492009 0.868139 0.065282
-56.2579 39.6097 1.96288 -0.489799 0.869903 0.0580161
-56.4021 39.6152 0.684592 -0.489505 0.869938 0.059935
-56.486 39.6448 -0.443186 -0.49588 0.866419 0.0584869
-56.4958 39.7102 -1.47261 -0.495609 0.866413 0.0608309
-56.2075 39.965 -2.88885 -0.493334 0.868119 0.0546885
-55.7828 40.2583 -3.78625 -0.491179 0.869577 0.0507859
-55.269 40.5956 -4.58861 -0.493845 0.868294 0.046708
-54.5634 41.0362 -5.443 -0.495588 0.867772 0.0369216
-53.8184 41.4834 -6.13579 -0.491448 0.870552 0.0245794
-52.9433 41.9929 -6.77072 -0.489379 0.871854 0.0194409
-51.8567 42.6108 -7.2455 -0.498957 0.866587 -0.00826963
-50.8538 43.1792 -7.71225 -0.4997 0.865879 -0.023539
-49.9565 43.6985 -7.6824 -0.503318 0.863504 -0.0316369
-49.0392 44.2381 -7.58057 -0.515589 0.856317 -0.0298174
-47.8471 44.9629 -7.16521 -0.508116 0.860429 -0.0384324
-46.9092 45.5449 -6.64783 -0.515824 0.855806 -0.0390155
-46.077 46.0749 -5.97888 -0.523138 0.851834 -0.0265713
-45.4176 46.4992 -5.13184 -0.515074 0.856963 -0.0177077
-44.7088 46.94 -4.43975 -0.504814 0.862899 -0.0238406
-44.0083 47.3797 -3.82363 -0.516928 0.855237 -0.0367971
-43.3222 47.8154 -2.91247 -0.487805 0.872606 -0.0114099
-42.3877 48.3464 -2.09317 -0.490523 0.8714 -0.00697673
-41.5474 48.8367 -1.18858 -0.494996 0.868782 -0.0140537
-40.8952 49.2338 -0.509252 -0.509922 0.85959 -0.031475
-40.0639 49.7145 0.4213 -0.481874 0.876012 -0.00348609
-39.3828 50.1154 1.12904 -0.495931 0.868243 -0.00939842
-38.7349 50.4856 1.89586 -0.481293 0.876521 -0.00829396
-37.9077 50.9546 2.62652 -0.439272 0.898206 -0.0163336
-37.0719 51.3743 3.47309 -0.445825 0.895118 0.00223079
-36.2785 51.803 4.30287 -0.471851 0.880678 -0.0419843
-35.5453 52.175 5.06495 -0.405776 0.913854 -0.0147232
-34.7445 52.5517 5.72273 -0.351588 0.931866 -0.0895054
-34.0604 52.8289 6.4694 -0.296571 0.953078 -0.0590468
-33.1502 53.1285 7.25818 -0.276175 0.96048 -0.0347159
-32.4585 53.3455 8.06186 -0.262069 0.964716 -0.0253432
-32.041 53.4913 8.97829 -0.267958 0.962781 -0.03538
-31.5474 53.6451 10.047 -0.305943 0.951791 0.0222169
-31.494 53.6461 11.2379 -0.327423 0.944828 0.0096747
-31.5248 53.5544 12.2582 -0.401036 0.909481 0.109607
-31.9441 53.2476 13.6551 -0.425472 0.902036 0.0720435
-32.2876 53.0244 14.4935 -0.430935 0.900178 0.0630392
-55.9718 38.9393 18.2596 -0.438845 0.898507 0.000533959
-57.1071 38.3699 18.1321 -0.459889 0.887969 0.00332741
-57.2952 38.2844 16.8288 -0.451841 0.891996 0.0122734
-57.3495 38.2839 15.5266 -0.454166 0.890656 0.0214583
-57.2611 38.3666 14.1701 -0.456478 0.889306 0.0276093
-56.9588 38.5435 13.5072 -0.460289 0.886973 0.0375968
-56.4485 38.7708 14.5445 -0.455467 0.889767 0.0294002
-55.6442 39.1441 15.4585 -0.447215 0.893948 0.0292576
-54.771 39.5457 16.3097 -0.430037 0.902413 0.0257001
-54.7181 39.5437 17.3837 -0.417602 0.908479 0.0152007
-55.5453 39.1422 18.2185 -0.422798 0.906151 0.0115069
-55.7232 39.0593 18.2285 -0.427978 0.903713 0.0098157
-57.8358 39.1069 -3.70661 -0.478729 0.876117 0.0568995
-58.2011 38.9656 -4.61982 -0.478108 0.876565 0.0551617
-57.9987 38.9989 -3.41716 -0.479457 0.875706 0.0570991
-57.8621 39.0781 -3.48416 -0.478729 0.876117 0.0568995
-30.883 53.8037 8.84482 -0.256109 0.964987 -0.0565528
-30.5086 53.9548 10.1807 -0.275507 0.961039 -0.022365
-30.4055 54.0123 11.369 -0.338625 0.940878 -0.00516266
-30.2858 54.0568 11.7906 -0.331626 0.943396 -0.00537288
-29.4702 54.2743 10.8751 -0.257983 0.964305 -0.058433
-28.6258 54.4501 9.81803 -0.263576 0.964282 -0.0262298
-27.4547 54.8206 9.22849 -0.364439 0.930151 0.0447683
-26.6919 55.0845 9.55162 -0.396684 0.913136 0.0939425
-25.7516 55.4143 10.3164 -0.409611 0.907292 0.0950335
-25.1252 55.6944 10.348 -0.408039 0.908501 0.0901688
-25.3355 55.7033 9.21766 -0.412016 0.90797 0.076377
-26.5121 55.2282 8.87173 -0.396919 0.914807 0.0734308
-27.857 54.6745 8.98951 -0.326629 0.943707 0.0299723
-29.0148 54.3193 9.02381 -0.274646 0.96093 -0.0343905
-30.1335 53.9994 8.71975 -0.263011 0.963787 -0.0440497
-31.0758 53.7131 8.1041 -0.252478 0.966263 -0.0506391
-30.999 53.7582 8.60409 -0.25782 0.964746 -0.0526038
-57.539 39.9202 -16.5844 -0.455259 0.888769 0.0531926
-56.8367 40.3243 -17.4813 -0.439103 0.897081 0.0493464
-56.0794 40.6479 -17.0467 -0.395467 0.916117 0.0658449
-57.0285 40.1269 -15.8481 -0.438055 0.896634 0.0644596
-57.4058 39.9164 -15.3685 -0.430642 0.900917 0.0538172
-57.3498 39.871 -14.0487 -0.447765 0.892551 0.0534696
-56.2825 40.4439 -15.4019 -0.411959 0.910255 0.0415459
-55.4847 40.8587 -16.4001 -0.353845 0.932367 0.07406
-54.9744 41.0044 -15.6393 -0.3729 0.927217 0.0348392
-56.2014 40.424 -14.1162 -0.420488 0.906073 0.0471325
-57.1361 39.9169 -12.9226 -0.450897 0.89144 0.0450208
-57.3933 39.7699 -12.5868 -0.450898 0.891439 0.0450213
-57.3718 39.7243 -11.2182 -0.460915 0.886697 0.0363998
-56.531 40.1918 -12.305 -0.440438 0.89696 0.0384298
-55.5361 40.7049 -13.5635 -0.407919 0.912941 0.0118494
-54.6011 41.1211 -14.7202 -0.389234 0.921138 0.00152537
-54.0036 41.3459 -15.4328 -0.319235 0.947112 0.0326892
-52.779 41.7808 -15.5128 -0.273302 0.959494 -0.0683995
-53.7733 41.4552 -14.3562 -0.370448 0.928807 -0.0092091
-54.7528 41.0496 -13.159 -0.407921 0.91294 0.0118451
-55.6917 40.5946 -11.9851 -0.440441 0.897671 0.0140804
-56.5869 40.1168 -10.842 -0.457651 0.888666 0.0287664
-57.2581 39.7395 -9.9741 -0.462352 0.886066 0.0334387
-57.3526 39.631 -8.45553 -0.472766 0.880417 0.0368554
-56.3822 40.191 -9.71487 -0.463612 0.885615 0.0273637
-55.5032 40.6714 -10.8456 -0.450187 0.892917 0.00559731
-54.5771 41.1311 -12.0095 -0.433451 0.901152 -0.00677726
-53.3846 41.6415 -13.4724 -0.407231 0.912669 -0.0346012
-52.4228 41.9695 -14.6031 -0.364819 0.928164 -0.0736084
-52.0022 42.0826 -15.0813 -0.348762 0.933069 -0.0880155
-50.8012 42.5543 -15.1735 -0.392982 0.906066 -0.156877
-51.9325 42.223 -13.8597 -0.400835 0.910894 -0.0979978
-53.0423 41.8352 -12.545 -0.418366 0.906887 -0.0502629
-53.9983 41.42 -11.3694 -0.435829 0.899825 -0.0192125
-54.9143 40.9644 -10.2153 -0.451786 0.892122 0.00281191
-55.8684 40.4401 -8.98783 -0.471749 0.881366 0.0254148
-56.7683 39.9165 -7.8193 -0.475185 0.878994 0.039603
-57.635 39.3935 -6.68994 -0.475048 0.878721 0.0466787
-55.6292 40.5345 -7.90631 -0.477863 0.877863 0.0316856
-54.6806 41.074 -9.13545 -0.461663 0.886994 0.0104509
-53.7218 41.5736 -10.3557 -0.455976 0.889966 -0.00674524
-52.8031 41.994 -11.4962 -0.430555 0.901476 -0.0443175
-51.7336 42.4122 -12.7892 -0.413459 0.907599 -0.0729049
-50.5919 42.7879 -14.1416 -0.436357 0.889717 -0.13415
-49.4866 43.1391 -15.4635 -0.451025 0.879873 -0.149668
-48.523 43.4835 -16.6772 -0.497265 0.851275 -0.167507
-47.9116 43.7287 -17.4848 -0.553398 0.821577 -0.136979
-48.1307 43.8428 -15.9045 -0.513419 0.845902 -0.144397
-49.155 43.4552 -14.6041 -0.472038 0.869912 -0.142948
-50.169 43.1029 -13.3679 -0.450729 0.885522 -0.112666
-51.0739 42.7759 -12.2739 -0.43911 0.895185 -0.0763264
-52.0775 42.3691 -11.0497 -0.444909 0.894426 -0.0453643
-52.9473 41.9681 -9.96578 -0.464819 0.884976 -0.0275929
-52.9503 41.9666 -9.96201 -0.464813 0.884979 -0.0275912
-51.6951 42.6251 -10.1955 -0.465209 0.883989 -0.0463099
-50.7123 43.0501 -11.4117 -0.463095 0.884076 -0.0628682
-49.7672 43.4189 -12.569 -0.471154 0.876462 -0.0991411
-48.9866 43.7099 -13.5356 -0.479303 0.86789 -0.130525
-49.3065 43.7581 -11.8478 -0.480403 0.871566 -0.0979057
-50.2118 43.3699 -10.7119 -0.485611 0.870574 -0.0792622
-50.3931 43.2894 -10.4853 -0.485613 0.870573 -0.0792636
-49.2945 43.8966 -10.5535 -0.492707 0.866228 -0.083004
-49.2699 43.9076 -10.5847 -0.498843 0.862295 -0.0871945
-56.6581 38.6311 15.6908 -0.452716 0.891421 0.0204325
-56.7885 38.5612 15.8533 -0.452718 0.89142 0.020435
-55.8953 39.0027 16.1022 -0.442388 0.896595 0.0202677
-56.7355 38.5662 17.1407 -0.452692 0.891642 0.00671464
-55.9421 38.9584 17.5064 -0.441058 0.897438 0.00853875
-55.3678 39.2411 16.8071 -0.437334 0.899162 0.0156718
