-57.6083 41.2646 -13.4712 -0.442941 0.89452 0.0595143
-57.69 41.3609 -15.2103 -0.437571 0.896216 0.0729997
-57.793 41.4467 -16.5557 -0.452008 0.887048 0.091807
-57.4282 41.7468 -17.8524 -0.456427 0.886729 0.0733869
-56.396 42.1606 -17.1236 -0.39228 0.915174 0.0925906
-55.1114 42.5105 -15.8442 -0.338498 0.936672 0.0898018
-53.6346 42.9457 -15.3908 -0.303248 0.952888 -0.00638168
-51.924 43.5015 -15.4695 -0.318462 0.936929 -0.144038
-50.6902 43.9503 -15.7095 -0.411322 0.90117 -0.136775
-49.5714 44.4091 -16.2929 -0.490594 0.854495 -0.170749
-48.7278 44.7043 -17.3023 -0.538771 0.824138 -0.174707
-47.7767 45.2371 -17.9472 -0.597695 0.79395 -0.111375
-47.6481 45.4832 -16.8794 -0.58048 0.808861 -0.0928872
-48.5574 45.0918 -15.6395 -0.506005 0.851501 -0.137492
-49.2195 44.9527 -14.1909 -0.48294 0.862282 -0.152442
-49.408 45.0574 -12.6692 -0.469764 0.875949 -0.109704
-49.4068 45.2301 -11.2369 -0.486614 0.868078 -0.098222
-49.8499 45.0774 -10.2821 -0.490257 0.867545 -0.0837474
-51.0894 44.3986 -10.2343 -0.47687 0.87644 -0.0664347
-52.42 43.7028 -10.0725 -0.457184 0.888453 -0.0370542
-53.5742 43.1398 -9.61764 -0.454834 0.890333 -0.0163537
-54.6368 42.5966 -8.999 -0.462723 0.886398 0.0130387
-55.6361 42.054 -8.15853 -0.470914 0.881609 0.0316611
-56.5927 41.5042 -7.25016 -0.47572 0.878793 0.0375852
-57.3729 41.0269 -6.12363 -0.475202 0.878616 0.0470402
-57.8043 40.8203 -6.59159 -0.47441 0.878944 0.0489069
-57.6626 40.9685 -7.95506 -0.46744 0.883115 0.0400816
-57.6202 41.0777 -9.83701 -0.461514 0.886308 0.0382523
-57.6978 41.1169 -11.571 -0.447977 0.893032 0.0421056
-57.6409 41.2212 -12.9804 -0.442972 0.895153 0.0497663
-58.7613 40.643 -12.8367 -0.463843 0.884421 0.0514661
-58.7224 40.5863 -11.4741 -0.457662 0.887912 0.0464412
-58.7941 40.4807 -10.1706 -0.465887 0.883827 0.0424066
-58.7856 40.4065 -8.58533 -0.466641 0.883321 0.0446026
-58.8223 40.3125 -7.26039 -0.469846 0.881405 0.0486519
-58.9262 40.172 -5.83466 -0.472679 0.879447 0.056113
-58.9348 40.0729 -4.3856 -0.475137 0.877985 0.0581963
-58.7921 40.0584 -3.0237 -0.477089 0.876476 0.0644532
-58.5472 40.0916 -1.57394 -0.480967 0.874901 0.0567373
-58.4011 40.0676 -0.079769 -0.476298 0.877129 0.061519
-58.2322 40.0683 1.26378 -0.482347 0.874118 0.0570876
-57.7419 40.2646 2.31573 -0.48043 0.87463 0.0648761
-58.0976 39.974 3.71813 -0.473732 0.878545 0.0611254
-58.2537 39.8021 5.01323 -0.471353 0.879881 0.0602951
-58.2209 39.7213 6.64931 -0.468184 0.882242 0.0495228
-57.9644 39.7904 7.88733 -0.464201 0.884549 0.0456524
-58.0767 39.6531 9.43069 -0.459392 0.887052 0.0457162
-57.95 39.6427 11.026 -0.456034 0.888975 0.0418156
-57.8222 39.6564 12.6401 -0.44949 0.892904 0.0260937
-58.0031 39.5309 14.111 -0.451309 0.892255 0.0130281
-57.9843 39.5381 15.4391 -0.455707 0.890102 0.00166898
-58.0569 39.5146 17.1703 -0.462287 0.886586 -0.0160081
-57.9497 39.6033 18.56 -0.481656 0.876261 -0.00614896
-56.9612 40.1056 18.9968 -0.446003 0.895017 0.00479178
-55.5524 40.774 18.8825 -0.415377 0.909599 0.00158497
-54.9332 41.0293 17.8227 -0.38184 0.923807 -0.0279034
-54.0979 41.3407 16.7688 -0.353202 0.93554 0.00379386
-54.5773 41.1631 15.8466 -0.386706 0.922203 0.000397772
-55.5321 40.7349 14.9908 -0.415519 0.909552 -0.0076532
-56.3508 40.3636 13.8379 -0.445524 0.895119 0.0164231
-57.0421 40.0553 12.4607 -0.447446 0.893984 0.0236398
-57.2395 39.9861 11.5363 -0.455647 0.889466 0.0351474
-57.4016 39.9731 10.0063 -0.459524 0.88688 0.0477552
-57.585 39.9322 8.9987 -0.461209 0.886067 0.0465824
-57.476 40.0509 7.83616 -0.466498 0.882997 0.051784
-57.5669 40.0833 6.41732 -0.471983 0.880167 0.0503826
-57.5522 40.2012 4.69831 -0.474714 0.878139 0.0593156
-57.3969 40.399 3.08025 -0.483398 0.873209 0.0618238
-57.6812 40.3451 1.68163 -0.481392 0.874372 0.0609831
-57.9808 40.2514 0.613902 -0.485732 0.872064 0.0597322
-57.7681 40.462 -0.731524 -0.485268 0.87203 0.0638702
-57.6542 40.623 -2.12517 -0.483718 0.873067 0.0613822
-57.3099 40.8991 -3.41721 -0.485162 0.872683 0.0551167
-56.7844 41.2726 -4.78111 -0.480549 0.875523 0.0503165
-56.1303 41.6951 -5.95414 -0.479996 0.876151 0.0442727
-55.2419 42.2246 -6.95257 -0.476693 0.878398 0.0340436
-54.1769 42.8238 -7.88766 -0.468826 0.883022 0.0201791
-52.6656 43.6238 -8.75656 -0.479161 0.877595 -0.0151009
-51.2679 44.3783 -8.98555 -0.486188 0.872531 -0.0480734
-50.1114 45.0234 -9.08393 -0.496335 0.865901 -0.0621839
-48.8738 45.736 -8.87804 -0.490241 0.870173 -0.0496208
-47.9465 46.2515 -9.20113 -0.497901 0.865148 -0.0601179
-48.2028 45.9738 -10.6221 -0.492545 0.865161 -0.0942624
-48.3643 45.7341 -11.9429 -0.491756 0.864481 -0.104158
-48.27 45.6038 -13.3905 -0.496742 0.859353 -0.121486
-47.7698 45.7115 -14.7395 -0.514803 0.845981 -0.138903
-47.0148 46.0254 -15.9701 -0.561237 0.821185 -0.0995007
-46.1223 46.549 -17.2746 -0.593428 0.802974 -0.0554645
-45.1885 47.1949 -18.5608 -0.615215 0.78799 -0.0154005
-45.3845 47.0296 -19.1289 -0.638344 0.769459 -0.0185102
-46.6329 45.9918 -19.0944 -0.643007 0.764295 -0.048933
-47.9368 44.9824 -19.1552 -0.604393 0.792569 -0.0807008
-49.2762 44.0692 -18.7342 -0.555176 0.819753 -0.140662
-49.8337 43.9916 -17.5227 -0.479727 0.853958 -0.201538
-50.9339 43.6139 -16.8442 -0.391525 0.888277 -0.240148
-52.4453 43.1936 -16.6203 -0.251541 0.961781 -0.0995866
-53.8784 42.8792 -16.6659 -0.231378 0.969202 0.0803919
-55.0888 42.6538 -17.2098 -0.244815 0.960389 0.125623
-55.8937 42.5358 -18.2909 -0.279459 0.952067 0.123005
-56.7617 42.2028 -19.1671 -0.430663 0.902421 0.0128835
-58.0105 41.5722 -19.0528 -0.500791 0.86464 0.00771529
-58.8746 40.9729 -17.9859 -0.49058 0.869253 0.0610798
-58.8888 40.8615 -16.5658 -0.483152 0.872153 0.0759837
-58.8435 40.7712 -15.2576 -0.474325 0.877659 0.0687823
-58.7949 40.6728 -13.6213 -0.463835 0.883476 0.0657834
-58.7786 40.6611 -13.3036 -0.463841 0.884423 0.0514638
-59.9257 40.0653 -13.5479 -0.475191 0.878535 0.0486868
-59.9188 39.9923 -12.1971 -0.468421 0.882334 0.0454727
-59.9416 39.9114 -10.85 -0.468312 0.88247 0.0438907
-59.8796 39.8769 -9.55547 -0.46744 0.882729 0.0478545
-59.8949 39.767 -7.70874 -0.469286 0.881627 0.0500402
-60.0388 39.6036 -6.25931 -0.470028 0.880907 0.0554588
-60.0878 39.4894 -4.91265 -0.468424 0.881435 0.0604327
-60.0683 39.4105 -3.62278 -0.469645 0.880725 0.0612889
-59.7561 39.4786 -2.21547 -0.470015 0.880898 0.0557194
-59.5705 39.4786 -0.721676 -0.472649 0.879245 0.059352
-59.4651 39.4214 0.843028 -0.467994 0.881328 0.0650456
-59.3646 39.3813 2.32098 -0.477516 0.877119 0.0513859
-59.3176 39.3229 3.68139 -0.47103 0.880359 0.0555344
-59.3415 39.2136 5.2517 -0.463217 0.884665 0.0528946
-59.2987 39.1538 6.6914 -0.460013 0.886567 0.0488601
-59.2309 39.1202 8.0756 -0.469215 0.882632 0.0282484
-59.1584 39.0836 9.71877 -0.457453 0.888258 0.0415093
-59.0945 39.0618 11.0546 -0.448072 0.893398 0.0327303
-59.0813 39.0184 12.7698 -0.45047 0.89243 0.0254263
-59.1877 38.9285 14.1023 -0.45158 0.892023 0.0182389
-59.1704 38.9221 15.4587 -0.454028 0.890915 0.0111792
-59.1836 38.9152 17.1442 -0.468049 0.88369 -0.00463126
-59.0552 38.9991 18.6586 -0.476097 0.879343 -0.00939578
-58.7025 39.1836 19.981 -0.477533 0.878594 0.00551931
-57.1191 40.022 20.2376 -0.446663 0.894697 0.00322547
-55.9549 40.5761 20.2504 -0.41656 0.90904 0.0111622
-54.538 41.1883 20.2112 -0.375633 0.926429 0.0250688
-54.1711 41.3376 19.0878 -0.364657 0.930941 0.0061269
-53.5911 41.5305 17.9691 -0.283242 0.957802 -0.0488778
-52.2693 41.8818 17.7845 -0.248965 0.964181 0.0914923
-50.9171 42.2504 17.8482 -0.336503 0.915497 0.220287
-49.9251 42.5915 18.4266 -0.633118 0.754809 0.171537
-49.8747 42.5192 19.896 -0.558431 0.827932 0.0509124
-48.9119 43.1319 20.3171 -0.550592 0.830735 0.0820261
-47.5425 44.1395 20.3261 -0.603439 0.794666 0.0660887
-46.3659 45.0501 20.2339 -0.624171 0.77921 0.0554515
-45.3595 45.8685 20.1976 -0.623031 0.780964 0.0439081
-44.3203 46.6979 20.2143 -0.629362 0.77678 0.0204913
-43.2457 47.551 20.2877 -0.613448 0.789381 0.0202813
-42.1502 48.3834 20.2236 -0.604265 0.796601 0.0170165
-40.7871 49.3717 20.3202 -0.574561 0.818231 -0.0125627
-39.5264 50.2395 20.2591 -0.565241 0.824901 0.00639872
-38.3762 50.9842 20.3644 -0.513843 0.857744 -0.00819336
-37.2161 51.6601 20.2214 -0.505048 0.863083 -0.00383613
-35.8419 52.3888 20.3194 -0.445655 0.891889 0.0693447
-34.5424 52.9445 20.3251 -0.364287 0.929753 0.0525526
-33.1965 53.4631 20.3223 -0.357808 0.933032 0.0376429
-31.8057 53.9931 20.4109 -0.358561 0.933265 0.0212235
-30.6796 54.4235 19.9778 -0.347933 0.93749 0.0073667
-30.6303 54.4729 18.5209 -0.324832 0.944838 0.0401602
-29.5849 54.8635 17.7437 -0.310226 0.947019 0.0831564
-28.4564 55.3064 17.1961 -0.332175 0.937837 0.100609
-28.0024 55.6059 15.9254 -0.345656 0.933189 0.0977766
-28.5642 55.5081 14.7662 -0.341852 0.935952 0.0844497
-29.554 55.2356 13.6732 -0.357307 0.930216 0.0838498
-30.5031 54.9603 12.7522 -0.356075 0.929088 0.099288
-31.5206 54.637 12.057 -0.381345 0.915901 0.125302
-31.9583 54.2563 13.8773 -0.393184 0.91633 0.0758047
-32.4909 53.9356 15.1472 -0.389959 0.919023 0.0571269
-33.3264 53.5141 16.5602 -0.380577 0.924334 0.0277036
-34.1399 53.1649 17.5138 -0.380542 0.92469 -0.0116654
-35.322 52.6951 18.2601 -0.40214 0.914757 -0.0328436
-36.4948 52.1383 18.548 -0.535255 0.839973 -0.0891488
-38.0099 51.1901 18.9232 -0.52252 0.852457 -0.0115296
-39.2644 50.4062 18.8331 -0.544195 0.83858 -0.0167093
-40.4855 49.5794 18.947 -0.572536 0.819878 -0.00135071
-41.8483 48.6146 18.868 -0.583933 0.811663 0.0149961
-42.9675 47.797 18.8895 -0.600924 0.798778 0.0290679
-44.3988 46.6995 18.8107 -0.614464 0.788282 0.0320358
-45.4171 45.9041 18.8109 -0.614536 0.787255 0.0507486
-46.5381 45.0392 18.7433 -0.590955 0.803155 0.0755579
-47.8368 44.1177 18.3996 -0.577637 0.810213 0.0994499
-48.9095 43.384 18.1498 -0.564233 0.816421 0.121652
-50.0301 42.7378 17.6482 -0.489428 0.838417 0.239701
-51.0887 42.3428 17.0894 -0.296771 0.93551 0.191617
-52.3363 42.0308 16.3675 -0.371424 0.92035 0.113403
-53.4054 41.6607 15.5997 -0.373041 0.924136 0.0825362
-54.2514 41.3365 14.5175 -0.412063 0.910108 0.0434733
-55.2329 40.9146 13.5179 -0.442097 0.896314 0.0340487
-55.9283 40.6253 12.082 -0.44832 0.893095 0.0372759
-56.2839 40.5179 10.6371 -0.454266 0.889672 0.0460979
-56.4187 40.5228 9.31234 -0.462757 0.885011 0.0511052
-56.4252 40.6023 7.88262 -0.469489 0.881057 0.0575793
-56.3782 40.7289 6.3321 -0.476895 0.877218 0.0553096
-56.4031 40.8168 4.87424 -0.480452 0.874509 0.0663355
-56.4833 40.9036 3.13076 -0.490258 0.869246 0.0637081
-56.5092 41.0223 1.34216 -0.487042 0.871119 0.0627212
-56.6684 41.0299 -0.043471 -0.490283 0.869539 0.0593637
-56.5977 41.16 -1.3486 -0.488636 0.870321 0.0614534
-56.3546 41.3913 -2.79979 -0.488943 0.870507 0.0560896
-55.7502 41.8229 -4.36184 -0.487863 0.871586 0.0481809
-54.9507 42.3301 -5.56989 -0.486691 0.87262 0.040813
-53.9818 42.8985 -6.43844 -0.483242 0.875156 0.0231708
-52.904 43.506 -7.18603 -0.481649 0.876224 0.0156819
-51.7086 44.1724 -7.71878 -0.489299 0.871862 -0.0210354
-50.5351 44.8324 -7.86869 -0.495922 0.868106 -0.021287
-49.4221 45.4789 -7.70095 -0.496329 0.867418 -0.0352699
-48.2684 46.1576 -7.53431 -0.503876 0.863134 -0.0328392
-47.1266 46.8336 -7.03491 -0.494481 0.868007 -0.0452386
-46.2071 47.4004 -6.17359 -0.502508 0.86425 -0.0236025
-45.3111 47.9522 -5.20584 -0.493932 0.868833 -0.0340525
-44.3277 48.5399 -4.09873 -0.487401 0.872999 -0.0177181
-43.3167 49.1723 -2.9656 -0.498585 0.865162 -0.0528264
-42.3477 49.7388 -2.03156 -0.471803 0.88119 -0.0299772
-41.4062 50.2836 -1.06519 -0.4671 0.883266 -0.0395328
-40.3959 50.8955 -0.0781805 -0.464932 0.883178 -0.059892
-39.4598 51.4089 0.907689 -0.459063 0.887967 -0.0278409
-38.6048 51.9001 1.89486 -0.479966 0.876597 -0.0223102
-37.5449 52.455 2.88372 -0.384589 0.920241 -0.0719343
-36.6786 52.8653 3.83134 -0.345314 0.936845 -0.0522653
-35.8131 53.2014 4.72915 -0.272707 0.95995 -0.064249
-34.9238 53.5035 5.71479 -0.27198 0.960984 -0.0490843
-33.9742 53.8063 6.56621 -0.259822 0.963312 -0.0660217
-32.9095 54.1342 7.4389 -0.255559 0.965242 -0.053783
-31.9873 54.4092 8.32812 -0.237234 0.968537 -0.0714815
-31.1034 54.5398 7.57874 -0.189739 0.979315 -0.0687347
-31.8266 54.3216 6.3678 -0.222084 0.973384 -0.0559012
-32.8068 54.0297 5.48935 -0.247597 0.966419 -0.0687823
-33.794 53.7091 4.4668 -0.238621 0.969044 -0.0629955
-34.667 53.4204 3.55958 -0.253467 0.964338 -0.0762072
-35.635 53.0783 2.51462 -0.265678 0.960869 -0.0783652
-36.5783 52.712 1.68179 -0.311184 0.9454 -0.0967929
-37.4947 52.2968 0.874869 -0.348808 0.933173 -0.0867225
-38.3901 51.8172 -0.231975 -0.390139 0.916007 -0.0929044
-39.3326 51.3098 -1.19365 -0.403038 0.911484 -0.0822
-40.3285 50.7735 -2.09691 -0.418616 0.905837 -0.0649595
-41.1658 50.2992 -3.10777 -0.452802 0.890365 -0.0464888
-42.115 49.7452 -4.05365 -0.459679 0.884195 -0.0830337
-43.2478 49.0991 -5.07594 -0.456153 0.888669 -0.0468257
-44.2198 48.5212 -6.23478 -0.48014 0.876302 -0.0394981
-45.199 47.922 -7.3415 -0.487793 0.870876 -0.0598701
-46.0191 47.3979 -8.25142 -0.490787 0.869694 -0.0525418
-46.752 46.9279 -9.23005 -0.485834 0.87176 -0.0615004
-47.1175 46.5809 -10.7593 -0.491142 0.866256 -0.0912992
-47.2056 46.3204 -12.6384 -0.50446 0.857269 -0.103004
-46.887 46.3548 -13.9708 -0.515385 0.850009 -0.108914
-46.0744 46.729 -15.4874 -0.571778 0.817136 -0.0732072
-45.3365 47.1686 -16.4771 -0.575669 0.81611 -0.0506902
-44.4186 47.801 -17.5702 -0.588577 0.808239 -0.000391053
-43.1237 48.7771 -18.332 -0.577395 0.815017 0.0486042
-41.9964 49.6119 -18.8038 -0.569743 0.819189 0.0657366
-40.6814 50.5452 -19.062 -0.541524 0.83513 0.0961849
-39.2214 51.4513 -18.7951 -0.53408 0.83927 0.101867
-37.9662 52.1827 -18.7657 -0.479837 0.868618 0.123531
-36.7179 52.8078 -18.7399 -0.440295 0.891963 0.102316
-35.5072 53.345 -18.8878 -0.354039 0.933219 0.0612994
-34.209 53.8243 -18.8197 -0.357945 0.931232 0.0684281
-32.9641 54.3148 -18.9002 -0.393371 0.918935 0.0285821
-32.7781 54.4184 -20.1778 -0.347924 0.937461 -0.00219612
-34.1245 53.923 -20.441 -0.339596 0.940564 0.00382346
-35.4495 53.4487 -20.4714 -0.342823 0.938518 0.0407023
-36.752 52.9385 -20.4495 -0.386506 0.92113 0.045403
-38.0047 52.3137 -20.4154 -0.483707 0.870681 0.0838918
-39.151 51.6527 -20.4153 -0.52233 0.851747 0.0412108
-40.2677 50.9365 -20.4 -0.552621 0.832893 0.0299752
-41.4339 50.1373 -20.363 -0.576646 0.815403 0.0509687
-42.5967 49.2892 -20.3581 -0.595677 0.802827 0.0252609
-43.7727 48.3724 -20.391 -0.642055 0.766195 0.0266508
-44.781 47.5273 -20.3816 -0.654603 0.755503 0.0266461
-45.8053 46.6321 -20.3698 -0.656123 0.754237 -0.0231901
-46.9123 45.6879 -20.3344 -0.643876 0.764077 -0.0401279
-48.0893 44.7633 -20.3072 -0.600802 0.798116 -0.0438773
-49.1309 43.9878 -20.3241 -0.613586 0.788629 -0.0397009
-50.244 43.2894 -20.128 -0.431119 0.901765 -0.0240863
-50.272 43.3904 -18.831 -0.553017 0.83062 -0.0481215
-51.2976 43.2159 -17.8644 -0.214337 0.939869 -0.265905
-52.6015 43.0225 -17.8605 -0.121613 0.984178 -0.128858
-53.964 42.9317 -17.8941 -0.049977 0.987338 0.150555
-54.9223 42.8643 -18.8258 -0.292169 0.955794 0.0330818
-55.0027 42.853 -20.128 -0.278889 0.960305 -0.00600369
-56.2714 42.4395 -20.3371 -0.370031 0.926942 -0.0310134
-57.5562 41.8313 -20.4185 -0.464237 0.885542 0.0173108
-58.7504 41.165 -20.2839 -0.505371 0.86272 0.0131566
-59.8909 40.4525 -19.9061 -0.520809 0.852965 0.0347742
-59.9385 40.3659 -18.4799 -0.514743 0.856487 0.038342
-59.9672 40.2715 -17.0229 -0.510491 0.858206 0.0536704
-59.9548 40.1591 -15.236 -0.492643 0.868155 0.060079
-59.9177 40.0795 -13.7124 -0.476139 0.877559 0.0564099
-55.665 40.6948 16.434 -0.412314 0.910633 -0.0190016
-56.8826 40.0942 15.4738 -0.44648 0.894765 -0.00445687
-56.9187 40.0887 16.7877 -0.44692 0.894512 -0.0105443
-56.202 40.459 17.615 -0.434443 0.900455 -0.0209592
-55.5093 40.7652 16.6359 -0.395503 0.918117 -0.0240474
-31.8142 54.0313 18.7955 -0.345933 0.937831 0.0279123
-32.998 53.5803 19.0339 -0.351403 0.935932 0.0232734
-34.0084 53.2045 18.9868 -0.353101 0.93541 0.0181133
-33.0817 53.5704 18.0383 -0.352438 0.935714 0.0144737
-32.1113 53.9824 17.0219 -0.364078 0.930413 0.0421671
-31.4514 54.3228 15.716 -0.36963 0.926656 0.068425
-30.8343 54.6571 14.5731 -0.367015 0.92667 0.0811329
-29.9211 54.983 14.9201 -0.35738 0.930283 0.0827841
-29.4968 55.0354 16.1811 -0.348322 0.93366 0.0832797
-30.8815 54.4606 16.9325 -0.352865 0.934109 0.0540967
-31.58 54.1452 18.0129 -0.35455 0.934303 0.0370399
-31.7308 54.0719 18.5121 -0.345784 0.937744 0.0327182
-26.7352 55.7322 10.4415 -0.392413 0.915196 0.0914544
-25.6404 56.1651 10.933 -0.404628 0.909558 0.0946801
-25.8307 56.2088 9.62633 -0.404869 0.911068 0.0776814
-26.3889 56.0961 8.08284 -0.395097 0.915984 0.0698012
-28.0162 55.4372 8.05393 -0.36063 0.92944 0.0779863
-28.5319 55.2004 8.57932 -0.342463 0.93593 0.0821818
-27.6386 55.453 9.49085 -0.365803 0.926185 0.0914859
-26.9163 55.6778 10.2298 -0.384919 0.918274 0.0927894
-56.9543 41.8141 -16.2207 -0.403241 0.907522 0.117478
-56.9905 41.7921 -16.1747 -0.41731 0.902202 0.10901
-56.0112 42.2044 -16.0197 -0.390008 0.915283 0.100752
-57.0035 41.6487 -14.757 -0.427384 0.901382 0.0696665
-56.9795 41.5715 -13.3912 -0.432207 0.900648 0.0450687
-56.1214 42.0173 -14.4702 -0.395526 0.915463 0.0740707
-55.6985 42.2305 -14.9966 -0.33202 0.940445 0.0729838
-54.7265 42.5824 -14.7816 -0.358769 0.933191 0.0209352
-55.7533 42.1362 -13.5392 -0.395683 0.917815 0.0324292
-56.8315 41.5821 -12.1832 -0.432211 0.900645 0.0450692
-56.9881 41.4935 -11.9811 -0.446136 0.893711 0.0473693
-56.8069 41.5345 -10.8215 -0.447988 0.893278 0.0368865
-55.8093 42.0605 -12.0834 -0.43072 0.902178 0.0235591
-54.8886 42.4876 -13.2169 -0.397282 0.917627 0.0112581
-53.8707 42.8896 -14.4335 -0.326301 0.945265 0.00123196
-53.6243 42.963 -14.7134 -0.304384 0.952338 -0.0200855
-52.4509 43.3763 -14.7339 -0.362842 0.929975 -0.0591016
-53.3769 43.0944 -13.6706 -0.371509 0.927568 -0.0399912
-54.2734 42.7471 -12.5981 -0.404043 0.914351 -0.0266919
-55.1652 42.3524 -11.5101 -0.429949 0.902564 0.0228651
-56.0341 41.9104 -10.421 -0.449597 0.89288 0.0250381
-56.8436 41.462 -9.38168 -0.460503 0.886836 0.0382029
-56.6433 41.5212 -8.24765 -0.464531 0.884789 0.0368678
-55.5628 42.1253 -9.63211 -0.454869 0.890485 0.0114068
-54.593 42.6187 -10.8518 -0.429904 0.902841 0.00782941
-53.7086 43.016 -11.9348 -0.404042 0.914351 -0.0266928
-52.5863 43.4255 -13.2679 -0.40117 0.911972 -0.085852
-51.4755 43.768 -14.5597 -0.371528 0.925439 -0.0743613
-51.2443 43.8318 -14.8241 -0.365346 0.920195 -0.140581
-49.6066 44.52 -15.5019 -0.469954 0.871996 -0.136992
-50.5535 44.2288 -14.3753 -0.437254 0.892486 -0.110803
-51.4744 43.9214 -13.2786 -0.428215 0.89567 -0.120031
-52.5086 43.5559 -12.0464 -0.40953 0.910315 -0.0600995
-53.5748 43.1125 -10.7539 -0.436027 0.899655 -0.0223923
-54.2817 42.7786 -9.87738 -0.447506 0.894266 -0.00513667
-52.2613 43.7361 -11.0196 -0.447277 0.892686 -0.0552667
-51.2278 44.1485 -12.2789 -0.450364 0.888912 -0.0837132
-50.1455 44.5335 -13.5872 -0.443447 0.887694 -0.12391
-49.9946 44.5836 -13.7679 -0.458737 0.8794 -0.127343
-50.1006 44.7222 -12.3638 -0.474312 0.87414 -0.104434
-51.1622 44.301 -11.0552 -0.467812 0.88071 -0.074175
