49.8739 46.5787 17.2333 0.550299 0.825362 0.125738
50.6754 46.2539 16.3157 0.487492 0.861342 0.142975
51.6714 45.7801 15.9238 0.437437 0.888517 0.138513
52.758 45.2722 15.9042 0.407376 0.907688 0.100733
54.1434 44.7869 15.7597 0.332297 0.943119 0.0103023
55.5529 44.3192 16.0735 0.354308 0.929371 -0.103608
56.4755 44.0516 16.6803 0.372382 0.918784 -0.12582
57.0149 43.7347 16.2263 0.426838 0.896125 -0.121526
56.9224 43.6195 14.9724 0.402074 0.910396 -0.0975476
56.8932 43.5004 13.7882 0.485145 0.872207 -0.062364
56.863 43.4115 12.5103 0.474448 0.877601 -0.0686626
56.8257 43.3459 11.3336 0.496108 0.865407 -0.070338
56.7791 43.3037 10.2008 0.508581 0.859143 -0.0559067
56.7756 43.2316 9.09345 0.517784 0.853826 -0.0536815
56.732 43.1763 7.91906 0.52626 0.84816 -0.0606243
56.8277 43.0329 6.7272 0.530371 0.84579 -0.0578341
56.7637 42.9888 5.5787 0.535516 0.842225 -0.0622581
56.1995 43.3394 5.51033 0.530327 0.845536 -0.0618297
55.3434 43.9276 6.29708 0.527728 0.847644 -0.0547954
54.5676 44.4493 6.96257 0.522359 0.851285 -0.0495309
53.7525 44.9772 7.69219 0.51331 0.85742 -0.036642
52.6406 45.6651 8.4619 0.50705 0.861363 -0.0308236
51.58 46.2836 8.89777 0.496241 0.868105 -0.0117037
50.502 46.8953 9.19898 0.489805 0.871821 0.00431136
49.4074 47.5117 9.46107 0.491148 0.870978 0.0123384
48.3864 48.0772 9.7383 0.486112 0.873785 0.0138974
48.5873 47.9242 11.0997 0.482118 0.875102 0.0419412
48.5261 47.9052 12.2531 0.488101 0.871746 0.0421392
48.4114 47.9097 13.3528 0.491644 0.869313 0.0508112
48.191 47.9769 14.5159 0.518628 0.852984 0.0555532
47.829 48.1249 15.584 0.556968 0.829292 0.045415
47.3938 48.3699 16.5708 0.589052 0.808058 0.00778714
46.7146 48.8641 17.5803 0.622987 0.78213 -0.0120762
46.6985 48.8842 18.056 0.622985 0.782132 -0.0120805
47.713 48.0788 18.2296 0.616665 0.786516 0.0297053
48.9731 47.1118 18.1965 0.608282 0.792617 0.0418463
49.7924 46.4728 18.4122 0.57541 0.809554 0.115794
49.7517 46.6277 17.4719 0.554639 0.824409 0.11278
50.7872 45.9063 17.7263 0.521016 0.836791 0.168293
51.5569 45.6384 17.005 0.439785 0.876244 0.196936
52.5791 45.2059 16.972 0.343126 0.919427 0.191876
53.8582 44.8764 16.7648 0.295388 0.954387 0.0183597
55.1814 44.5516 16.969 0.186899 0.967637 -0.155636
56.2099 44.326 17.7889 0.407634 0.902742 -0.13685
56.5879 44.3307 18.8636 0.40111 0.90565 -0.137379
57.4924 43.8142 18.4461 0.478931 0.875507 -0.0641333
57.9825 43.3985 17.4777 0.519028 0.844573 -0.131202
57.9506 43.2602 16.382 0.500631 0.855539 -0.130866
57.8764 43.1447 15.2514 0.482135 0.870192 -0.101549
57.8216 43.03 14.0334 0.508659 0.854636 -0.104229
57.7514 42.9239 12.6789 0.514677 0.854288 -0.0728054
57.7516 42.8183 11.4587 0.520812 0.850266 -0.0761734
57.7171 42.715 9.91071 0.525553 0.848522 -0.0616793
57.7112 42.6109 8.49468 0.531513 0.8446 -0.0643731
57.674 42.5491 7.3923 0.533488 0.843281 -0.0653284
57.7097 42.4107 5.8872 0.534225 0.842853 -0.0648264
57.6882 42.3286 4.63223 0.5356 0.842048 -0.0639291
57.7577 42.1995 3.4983 0.535029 0.842418 -0.0638349
57.8062 42.0778 2.29125 0.533456 0.843345 -0.0647658
57.7647 42.0135 1.08341 0.528256 0.846856 -0.0614815
57.7511 41.9401 -0.0313125 0.528303 0.846736 -0.0627178
57.6059 41.935 -1.31625 0.52381 0.849504 -0.0629774
57.694 41.7962 -2.48616 0.518871 0.852892 -0.0578638
57.682 41.7164 -3.7622 0.515546 0.85494 -0.057358
57.378 41.8246 -4.8334 0.514296 0.85531 -0.0627984
57.5553 41.631 -6.00583 0.50877 0.858198 -0.0681814
57.5738 41.5286 -7.19314 0.505407 0.860147 -0.0685178
57.6401 41.4122 -8.16631 0.498603 0.864099 -0.0687644
57.3337 41.5109 -9.15152 0.491786 0.867909 -0.0698543
57.7037 41.2239 -10.113 0.487353 0.870732 -0.0652984
57.7321 41.1315 -11.2152 0.483344 0.873495 -0.0581238
57.5093 41.1806 -12.3853 0.477118 0.876791 -0.0593666
57.1389 41.44 -11.5301 0.477119 0.876791 -0.059366
57.1815 41.4964 -10.4041 0.491788 0.867911 -0.0698235
57.0096 41.6863 -9.25459 0.494522 0.866251 -0.0710326
57.1077 41.7319 -8.03194 0.502469 0.861744 -0.0701539
57.0058 41.8803 -6.94763 0.502694 0.861522 -0.0712591
56.8865 42.0259 -6.04711 0.5151 0.854348 -0.0690057
56.9298 42.0967 -4.79841 0.514552 0.855161 -0.0627285
57.1312 42.0323 -4.00535 0.516617 0.854203 -0.0586607
56.8405 42.2862 -2.93243 0.52193 0.850844 -0.0604449
56.9381 42.3278 -1.57221 0.525194 0.848529 -0.0645362
57.261 42.2026 -0.604474 0.526754 0.847542 -0.064819
56.9629 42.4792 0.590391 0.531228 0.844594 -0.0667668
56.7123 42.7282 1.74932 0.534177 0.842756 -0.0664492
56.4439 42.9875 2.89777 0.533808 0.843187 -0.0639121
55.955 43.3787 3.96474 0.531373 0.84467 -0.0645884
55.3229 43.8466 4.93049 0.530322 0.845523 -0.062048
54.4202 44.4656 5.7413 0.527061 0.848013 -0.0555056
53.501 45.076 6.58476 0.510535 0.858546 -0.0474344
52.7183 45.5766 7.27026 0.510483 0.859219 -0.0337185
51.5356 46.2884 7.8066 0.502663 0.863814 -0.0339648
50.4302 46.9265 8.11587 0.493888 0.86941 -0.0141648
49.466 47.4924 8.38229 0.498957 0.866512 -0.00172871
48.0194 48.3093 8.23125 0.486967 0.873375 0.00826388
47.1098 48.8146 7.91711 0.466745 0.884189 0.00850069
47.0941 48.8062 8.90322 0.48077 0.876699 0.0161037
47.4097 48.6094 10.1749 0.451976 0.891924 0.0137442
47.5753 48.4589 11.6255 0.479484 0.8767 0.0382477
47.4932 48.458 12.7368 0.486995 0.872643 0.0364569
47.3074 48.5296 13.8684 0.497852 0.866493 0.0335345
46.9967 48.6771 15.0119 0.527339 0.84921 0.0269902
46.558 48.9474 16.0875 0.554085 0.832458 0.00152815
45.7656 49.552 17.1842 0.56725 0.821113 -0.0552204
44.841 50.2584 18.1578 0.567346 0.821084 -0.0624751
44.0631 50.8571 18.7943 0.578019 0.811793 -0.0829807
43.2185 51.4787 19.3314 0.530243 0.837243 -0.133666
44.2249 50.7867 19.3321 0.585199 0.8091 -0.0538436
45.1685 50.0908 19.3454 0.592063 0.804835 -0.0376174
46.1234 49.3682 19.2402 0.62209 0.782754 -0.0173213
47.041 48.6147 19.2886 0.649246 0.76044 0.000478602
48.1655 47.6815 19.3806 0.626038 0.77883 0.0387397
49.2035 46.8353 19.397 0.622866 0.779508 0.06441
50.1031 46.1466 19.4794 0.592945 0.802367 0.0679951
50.602 45.8671 18.6241 0.575412 0.809552 0.115794
50.7712 45.8746 17.9339 0.540222 0.817138 0.197128
51.4788 45.3181 18.1457 0.50048 0.815508 0.279021
52.4865 45.0951 17.8435 0.135452 0.983923 0.109243
53.6932 44.921 17.8474 0.137144 0.990235 -0.00623999
54.8389 44.7971 17.9172 0.137592 0.954498 -0.264578
55.5812 44.7459 18.6311 0.411193 0.906331 -0.0567604
55.652 44.8455 19.8809 0.313247 0.946178 -0.0813815
56.5021 44.5517 20.3754 0.436057 0.896117 -0.0136573
57.4194 44.0119 20.0107 0.508896 0.858486 -0.0622054
58.2963 43.3939 19.2146 0.562981 0.82395 -0.0644866
58.7803 42.9711 18.1111 0.573331 0.817183 -0.0570835
58.9293 42.6995 16.7298 0.535481 0.836788 -0.113934
58.7985 42.6083 15.4127 0.533645 0.840226 -0.0961463
58.704 42.4993 14.0358 0.536457 0.838043 -0.0992194
58.5729 42.4318 12.6977 0.518617 0.849501 -0.0955602
58.6407 42.2581 11.2935 0.533728 0.842037 -0.0781565
58.6268 42.1605 10.1054 0.530719 0.844558 -0.0709636
58.6414 42.0548 8.90541 0.535012 0.842145 -0.0674754
58.6016 41.9886 7.76604 0.534882 0.842482 -0.0642286
58.6967 41.8382 6.5811 0.534572 0.842667 -0.064389
58.6345 41.784 5.35725 0.533971 0.843011 -0.0648649
58.6839 41.6585 4.10153 0.532423 0.844244 -0.061457
58.7099 41.5506 2.86397 0.531876 0.844512 -0.0625076
58.6875 41.4518 1.28162 0.525072 0.84909 -0.0578345
58.692 41.36 0.00383706 0.525075 0.848915 -0.0603271
58.6584 41.2942 -1.26037 0.520299 0.852121 -0.0563799
58.6039 41.2272 -2.74842 0.51569 0.85501 -0.0549817
58.6188 41.1406 -3.9266 0.512484 0.856931 -0.0548747
58.5182 41.0893 -5.5989 0.508283 0.85909 -0.0601125
58.5411 40.9913 -6.80735 0.505302 0.860676 -0.0624499
58.512 40.9209 -8.01062 0.495051 0.866699 -0.0612927
58.5676 40.7953 -9.32053 0.491567 0.868545 -0.0631767
58.6834 40.6308 -10.8296 0.485063 0.872404 -0.0602139
58.6382 40.5883 -11.9889 0.482229 0.874796 -0.0467799
58.4722 40.6191 -13.1174 0.471783 0.88087 -0.0376826
58.4953 40.5611 -14.4269 0.46672 0.883924 -0.0291625
58.7129 40.4173 -15.6008 0.465586 0.884864 -0.015679
58.8828 40.3025 -17.0945 0.464993 0.885193 -0.0146349
58.9077 40.2775 -18.592 0.466908 0.884269 -0.00657743
58.3806 40.5373 -19.8766 0.46214 0.886576 -0.0202531
57.3693 41.0311 -20.2318 0.444742 0.895632 0.00691641
56.2203 41.5714 -20.4413 0.417231 0.908785 0.0052633
55.177 42.0269 -20.4591 0.379191 0.924601 0.0364261
54.347 42.3505 -19.9584 0.340241 0.94033 0.00394874
54.2353 42.4081 -18.8328 0.344938 0.938584 -0.00888242
53.4303 42.6815 -17.9776 0.227643 0.973294 -0.0296362
52.1645 43.032 -17.8819 0.245355 0.950004 -0.193063
52.6107 43.002 -17.1863 0.291601 0.949071 -0.119301
53.4394 42.8176 -16.3128 0.33383 0.937581 -0.0974619
54.2875 42.5501 -15.5426 0.377549 0.921233 -0.0937352
55.0525 42.2788 -14.6425 0.41446 0.905725 -0.0887964
55.679 42.0446 -13.7276 0.443364 0.893526 -0.0709928
56.1818 41.8736 -12.5795 0.461674 0.88458 -0.0661421
56.2797 41.9162 -11.3716 0.477223 0.876262 -0.0665115
56.1457 42.1019 -10.1172 0.489476 0.868784 -0.0748494
56.1069 42.2293 -8.96193 0.488591 0.868986 -0.0783667
56.0994 42.3308 -7.8599 0.500071 0.862684 -0.0755393
56.0667 42.4574 -6.69341 0.504908 0.859718 -0.076973
56.0745 42.5576 -5.45389 0.507972 0.858349 -0.0721193
56.0436 42.6843 -4.09605 0.51629 0.853983 -0.0644864
55.9586 42.8228 -2.99381 0.519578 0.851645 -0.0688416
56.0746 42.8542 -1.68723 0.524856 0.848399 -0.0688898
56.1557 42.9062 -0.397682 0.527439 0.846788 -0.0689814
56.0976 43.0342 0.726095 0.529241 0.845708 -0.0683862
55.7562 43.3448 1.89469 0.532837 0.843658 -0.0657504
55.3951 43.6572 3.00449 0.528627 0.846331 -0.065401
54.7701 44.1251 4.03161 0.52735 0.847156 -0.0650213
54.0118 44.6445 4.75163 0.522977 0.84992 -0.0642648
53.0736 45.2774 5.6453 0.51308 0.856944 -0.0489178
51.9516 45.9856 6.38676 0.505594 0.861822 -0.0404711
50.9641 46.5864 6.92412 0.505317 0.862528 -0.0264625
49.9568 47.1868 7.15695 0.50717 0.861592 -0.0195236
48.9078 47.8005 7.23286 0.504231 0.863474 -0.0128331
47.8392 48.4106 6.99843 0.485591 0.874081 -0.0135495
46.8844 48.9303 6.67489 0.479076 0.877751 -0.00633367
46.0216 49.4007 6.08825 0.483544 0.875309 -0.00439799
45.2748 49.8138 5.19065 0.480317 0.877083 0.00455845
44.5164 50.2204 4.43767 0.439749 0.898038 0.0121924
43.7267 50.6275 3.66172 0.465576 0.884855 -0.0164491
42.9937 50.9872 2.81003 0.412737 0.909008 0.0492541
42.1932 51.4075 2.07851 0.457062 0.889434 0.000764255
41.5269 51.7572 1.26319 0.47224 0.880041 0.0501795
40.7447 52.1904 0.585941 0.375928 0.915222 0.139614
39.9688 52.5556 -0.315311 0.29234 0.955913 0.0271232
39.176 52.8254 -1.13664 0.268317 0.963158 0.0182228
38.3762 53.0811 -1.99151 0.285175 0.958418 -0.0104763
37.527 53.3382 -2.74733 0.29685 0.954908 0.00553874
36.7595 53.5791 -3.5701 0.264151 0.96401 0.0301394
35.9176 53.8255 -4.35698 0.277266 0.960612 0.0186502
35.087 54.0726 -5.21525 0.243508 0.96843 0.049694
34.2782 54.3197 -6.0348 0.225653 0.972872 0.051004
33.2867 54.5411 -6.12306 0.175806 0.976169 0.127226
32.5954 54.5921 -5.22215 0.187193 0.981676 0.0205111
33.3749 54.425 -4.39206 0.193848 0.980393 0.031727
34.1607 54.2195 -3.50636 0.218912 0.974819 0.0424874
35.0196 53.9893 -2.82365 0.22988 0.972385 0.0402755
35.7676 53.773 -1.98703 0.229832 0.9721 0.0468952
36.5956 53.5236 -1.14749 0.242277 0.967726 0.0693339
37.3886 53.2683 -0.304354 0.239283 0.968206 0.0729434
38.2516 52.9781 0.57441 0.24844 0.965332 0.0800598
39.1176 52.6646 1.43513 0.272725 0.956833 0.0998137
39.9937 52.2904 2.37026 0.299769 0.949762 0.0899483
40.9027 51.8917 3.18003 0.380694 0.921516 0.0761986
41.7845 51.4527 4.18362 0.374911 0.92555 0.0528961
42.5938 51.0787 4.93973 0.379144 0.923863 0.0522231
43.5115 50.6473 5.74717 0.394409 0.917394 0.0531879
44.2952 50.2525 6.59331 0.427598 0.902441 0.052292
45.3223 49.7222 7.50723 0.425715 0.904426 0.0279195
45.9724 49.3771 8.70001 0.432517 0.901089 0.0302327
46.348 49.1559 9.83503 0.450221 0.892659 0.020276
46.5595 49.0183 11.0315 0.445886 0.894836 0.0212971
46.5369 48.9895 12.5018 0.471337 0.881794 0.0167708
46.3303 49.0902 13.7611 0.497398 0.867398 0.0122921
45.9994 49.2826 14.8946 0.509684 0.860178 -0.0129132
45.3783 49.7234 16.1366 0.543959 0.837072 -0.0584766
44.5377 50.348 16.9731 0.545375 0.833922 -0.0844976
43.7507 50.9264 17.6127 0.509492 0.853888 -0.106088
42.953 51.4713 18.2322 0.517574 0.847006 -0.11932
41.8146 52.1615 18.6008 0.466798 0.872259 -0.145496
40.8221 52.6917 18.6913 0.382408 0.919099 -0.0939027
39.7581 53.1116 18.6043 0.383644 0.919525 -0.0853882
38.7029 53.5538 18.6682 0.37884 0.921716 -0.0831908
37.5361 53.999 18.6325 0.367335 0.926981 -0.075446
36.6306 54.4111 19.018 0.421454 0.905166 -0.048158
36.5995 54.451 20.1658 0.370739 0.928737 -0.000444255
37.5733 54.0784 20.5054 0.352179 0.93582 -0.0144992
38.6298 53.6798 20.4766 0.356509 0.93399 -0.0237521
39.6933 53.2828 20.3945 0.352726 0.933478 -0.0648298
40.8992 52.8286 20.4601 0.365852 0.927568 -0.0759634
42.0086 52.3418 20.4951 0.444667 0.884038 -0.144043
43.1347 51.6679 20.4338 0.552892 0.825936 -0.110181
44.0805 50.9843 20.3668 0.612265 0.789488 -0.042889
44.9712 50.2985 20.4448 0.605759 0.795096 -0.0296343
45.9816 49.4944 20.4281 0.640968 0.767299 -0.0203161
46.9412 48.6902 20.4475 0.659373 0.751816 0.000120402
47.8956 47.8586 20.4142 0.651539 0.758406 0.0142761
48.8865 47.0359 20.4346 0.631476 0.774657 0.0329119
49.9606 46.1984 20.4612 0.607191 0.793953 0.0299787
50.9867 45.5137 20.4173 0.551762 0.83399 0.00432897
51.2624 45.3443 19.4011 0.565307 0.824512 0.0246684
51.3924 45.3202 18.3524 0.578688 0.795799 0.167385
55.5651 41.9322 -17.0313 0.389848 0.920432 -0.0286654
56.3081 41.6197 -16.143 0.424235 0.905486 -0.010967
56.9666 41.3062 -16.0755 0.451142 0.892312 -0.0156784
56.9435 41.2829 -17.5996 0.434499 0.900409 -0.0215905
56.1026 41.6587 -18.1022 0.400215 0.915738 -0.0350855
55.5795 41.9216 -17.1683 0.3898 0.920412 -0.0299704
54.6448 42.2912 -17.6603 0.359401 0.932482 -0.0309966
55.132 42.0546 -18.6923 0.373476 0.927046 -0.0331789
56.1427 41.5984 -19.383 0.415709 0.90946 0.00825283
57.3076 41.0727 -19.1369 0.434638 0.900298 -0.0233102
57.9126 40.7995 -18.2699 0.463584 0.886028 -0.00631903
57.9174 40.806 -17.0203 0.45705 0.889254 -0.0182483
57.8014 40.8905 -15.6745 0.456766 0.889487 -0.0133282
57.5848 41.0302 -14.581 0.46013 0.887327 -0.030504
57.3965 41.1724 -13.5491 0.464307 0.884279 -0.0496989
57.0847 41.3824 -12.7759 0.470641 0.880659 -0.0541996
56.636 41.5518 -13.8518 0.455394 0.888953 -0.0487664
55.9443 41.8311 -15.0151 0.433114 0.900367 -0.0418597
55.2752 42.094 -15.8824 0.398049 0.916045 -0.0474929
54.4357 42.3988 -16.8159 0.348386 0.935727 -0.0551545
54.5946 42.312 -17.5651 0.343404 0.938884 -0.0238877
29.7692 55.222 -16.7455 0.308045 0.948264 -0.0764411
30.8866 54.8542 -16.7685 0.31974 0.945185 -0.0649456
30.9672 54.9131 -15.3317 0.331234 0.941193 -0.066015
30.4347 55.2137 -13.9187 0.33531 0.938746 -0.0792996
29.665 55.433 -14.4564 0.316014 0.945986 -0.0724284
28.8603 55.6303 -15.3451 0.309783 0.947598 -0.0780546
28.6632 55.6038 -16.4185 0.308555 0.947529 -0.0835666
29.5607 55.2859 -16.7717 0.301328 0.950162 -0.0799636
29.5411 55.1937 -17.8798 0.279662 0.955805 -0.0906977
28.4637 55.539 -17.7359 0.314013 0.944376 -0.0964986
27.7525 55.8549 -16.915 0.314323 0.944987 -0.0905516
27.5866 56.0125 -15.8037 0.319072 0.94436 -0.0798552
28.1052 55.9299 -14.704 0.309708 0.947788 -0.0760212
29.052 55.6864 -13.8071 0.305576 0.949333 -0.073363
29.8074 55.5093 -13.0154 0.309208 0.946491 -0.0922583
30.6441 55.3028 -12.1961 0.317189 0.94382 -0.0927147
31.3766 55.0206 -12.4104 0.33984 0.935495 -0.0967257
31.4972 54.8662 -13.5309 0.362795 0.927194 -0.0932283
31.9393 54.5898 -14.8417 0.358944 0.930377 -0.0745535
32.5754 54.2659 -16.3083 0.350988 0.934955 -0.05163
33.2558 53.9697 -17.1842 0.363284 0.931528 -0.0165244
34.0677 53.6467 -18.0371 0.35836 0.933566 -0.00516318
35.1265 53.2443 -18.5523 0.355285 0.934728 0.0074522
36.2446 52.8259 -18.7699 0.351907 0.935135 0.0400007
37.2737 52.39 -18.7289 0.458445 0.882703 0.103267
38.2509 51.8638 -18.816 0.475755 0.877587 0.0591468
39.2632 51.2843 -18.7852 0.498323 0.866641 0.024623
40.2851 50.6879 -18.7222 0.506255 0.862204 0.01755
41.4109 50.021 -18.776 0.516501 0.856205 0.0117936
42.6313 49.2528 -18.8092 0.543817 0.839172 -0.00735562
43.7302 48.5086 -18.8586 0.563754 0.825906 -0.0070481
44.7187 47.8087 -18.8033 0.579022 0.814558 -0.0350516
45.8275 47.0085 -18.7442 0.595119 0.802608 -0.040669
46.8928 46.2238 -18.7196 0.587521 0.806249 -0.0691505
47.8638 45.5037 -18.7399 0.600525 0.796302 -0.0726172
49.0344 44.6487 -18.6468 0.590151 0.803193 -0.0812599
49.9657 43.9841 -18.5529 0.616741 0.782061 -0.0830707
50.2303 43.6964 -19.5007 0.601209 0.798117 -0.0394588
49.8671 43.9179 -20.473 0.581914 0.812749 -0.028559
48.9606 44.5806 -20.502 0.592576 0.804512 -0.0401607
48.0596 45.2471 -20.4898 0.599723 0.799195 -0.0401565
47.1548 45.927 -20.528 0.59789 0.800816 -0.034814
46.2521 46.6081 -20.4925 0.60386 0.796779 -0.0221424
45.2834 47.3501 -20.5318 0.610874 0.79156 -0.0163052
43.8834 48.3849 -20.4232 0.590021 0.807284 -0.0126111
42.7991 49.1338 -20.4846 0.558361 0.8295 -0.0037335
41.8629 49.7484 -20.5143 0.550205 0.835015 0.00495612
40.5633 50.5529 -20.5009 0.516053 0.856456 0.00926584
39.6028 51.1213 -20.4662 0.509263 0.860507 0.0133162
38.6288 51.6626 -20.4846 0.480427 0.876819 -0.0194502
37.4069 52.2998 -20.4925 0.457421 0.888826 -0.0274728
36.3927 52.7528 -20.4405 0.386448 0.922065 -0.0213168
35.103 53.2476 -20.448 0.339518 0.940413 -0.0187411
34.0052 53.6475 -20.437 0.343925 0.938858 -0.0159947
32.7922 54.0892 -20.5396 0.342855 0.939274 -0.0144546
31.7902 54.4553 -20.0667 0.328006 0.944675 0.00075146
31.736 54.4805 -18.7615 0.319952 0.947247 -0.0187448
31.1488 54.7018 -17.9203 0.297231 0.95365 -0.0469523
30.0905 55.034 -17.8409 0.284064 0.95577 -0.0759756
29.7766 55.122 -17.8818 0.284433 0.955434 -0.078746
32.6063 54.1871 -18.3793 0.333248 0.942596 -0.0212422
32.8852 54.0704 -19.4279 0.34164 0.939756 -0.0118578
33.8868 53.7063 -19.2251 0.344906 0.9386 -0.00831402
33.1497 53.9873 -18.5212 0.343087 0.93919 -0.0146153
32.5514 54.2136 -18.0987 0.332808 0.942689 -0.0240107
27.7579 55.765 -9.11669 0.35359 0.929514 -0.104532
27.6317 55.9013 -8.33039 0.357109 0.930597 -0.0803929
26.6518 56.2179 -9.02799 0.384222 0.918034 -0.0979089
26.3709 56.2079 -10.0925 0.387706 0.913572 -0.122763
26.8364 56.0038 -10.1992 0.373994 0.919516 -0.120908
27.6288 55.7946 -9.30577 0.361526 0.926279 -0.106104
56.2181 43.4598 7.43852 0.524869 0.849154 -0.0587362
55.9223 43.6162 7.04233 0.525509 0.848961 -0.0557208
54.4237 44.5809 7.77857 0.508607 0.859838 -0.0446844
55.8073 43.8477 9.61424 0.510294 0.859022 -0.0410047
56.1871 43.6459 10.1147 0.508694 0.859797 -0.0445047
56.2524 43.7712 12.8883 0.44575 0.893101 -0.0606399
54.8563 44.4413 11.1155 0.466624 0.884399 -0.0100432
53.5167 45.1834 9.33854 0.491013 0.871152 -0.000608084
53.1118 45.4006 8.80071 0.50691 0.861274 -0.0353453
51.599 46.2773 9.58685 0.494255 0.869284 0.00758485
53.111 45.3972 11.6245 0.483697 0.874887 0.0246873
54.4524 44.664 13.375 0.434544 0.900598 0.00968017
56.089 44.028 15.3494 0.414626 0.90564 -0.0888925
56.2872 43.9655 15.5827 0.402557 0.907646 -0.118852
53.6551 44.9823 15.172 0.39568 0.917655 0.0366983
52.3532 45.7027 13.4954 0.453109 0.889878 0.0530056
51.1449 46.4859 11.822 0.485038 0.873863 0.0331796
49.8266 47.2677 10.0291 0.486226 0.873657 0.0175551
49.1181 47.5944 11.9084 0.47838 0.876903 0.0468386
50.3738 46.7674 13.6755 0.489521 0.867692 0.0864857
51.4559 45.9962 15.2105 0.443422 0.889674 0.108891
49.9191 46.7548 15.9856 0.53633 0.835652 0.118472
48.928 47.5253 14.5227 0.508288 0.857667 0.0777885
48.272 47.7685 16.4641 0.577913 0.814437 0.0520475
48.7982 47.3271 17.2689 0.597036 0.797708 0.0849144
