-58.1891 42.6111 -13.9429 -0.453153 0.888442 0.0729501
-58.2665 42.669 -15.1381 -0.425433 0.901217 0.0817069
-58.312 42.7498 -16.2121 -0.437179 0.896162 0.075793
-58.3541 42.8193 -17.3349 -0.435123 0.897457 0.0723809
-57.869 43.089 -18.2028 -0.410497 0.910203 0.0549848
-56.9171 43.4555 -17.3334 -0.406132 0.91139 0.0665224
-56.0837 43.7097 -16.6114 -0.310908 0.947641 0.0592515
-55.0711 43.987 -16.175 -0.286524 0.957711 0.0245297
-54.0289 44.2253 -16.0102 -0.178165 0.983738 -0.0227378
-52.8121 44.5555 -15.8745 -0.27551 0.94977 -0.148427
-51.7152 44.8694 -15.9318 -0.383421 0.900136 -0.206746
-50.5913 45.258 -16.5447 -0.445376 0.878566 -0.172517
-49.9089 45.4437 -17.3454 -0.525944 0.828603 -0.191833
-49.3634 45.6327 -18.2698 -0.567443 0.816244 -0.108418
-48.4679 46.2827 -18.3443 -0.605614 0.789177 -0.102102
-47.4836 47.0556 -18.3077 -0.614175 0.784461 -0.0860865
-46.6851 47.7355 -18.3711 -0.656288 0.752959 -0.0483543
-46.9038 47.5715 -17.7617 -0.634572 0.772291 -0.0258123
-47.5716 47.1546 -16.6054 -0.60754 0.789075 -0.0891886
-48.1556 46.8721 -15.6011 -0.551787 0.819137 -0.156671
-48.7156 46.7039 -14.4427 -0.521622 0.841339 -0.141631
-49.0741 46.6847 -13.1905 -0.49912 0.857456 -0.125091
-49.1545 46.788 -12.078 -0.488307 0.865788 -0.109395
-49.1303 46.9265 -10.9883 -0.485234 0.869815 -0.0892791
-48.9372 47.1581 -9.62951 -0.496699 0.864851 -0.072955
-50.0124 46.5435 -9.75388 -0.486488 0.871133 -0.0667634
-50.944 46.0145 -9.90569 -0.471328 0.879358 -0.0656916
-52.2112 45.3609 -9.78715 -0.455631 0.888537 -0.0530275
-53.096 44.9144 -9.40781 -0.456054 0.889846 -0.0137502
-54.0203 44.4407 -8.95447 -0.454977 0.890445 0.0053753
-54.8997 43.981 -8.39949 -0.458999 0.888197 0.0189241
-55.8422 43.4627 -7.6426 -0.469514 0.882227 0.0344485
-56.6528 42.9776 -6.60477 -0.474652 0.879014 0.0451736
-57.235 42.6144 -5.76489 -0.47811 0.876684 0.0532655
-57.7176 42.2808 -4.66476 -0.479092 0.875832 0.0582091
-58.1803 41.9614 -3.69338 -0.479937 0.875184 0.0609441
-58.1121 42.0737 -4.79649 -0.479272 0.87573 0.0582673
-58.3178 42.0289 -5.8152 -0.475876 0.877775 0.0552483
-58.3749 42.0745 -7.06895 -0.473173 0.87946 0.0515588
-58.2443 42.2093 -8.18709 -0.4668 0.882994 0.0491868
-58.1153 42.3539 -9.62874 -0.464263 0.8846 0.0440639
-58.0646 42.438 -10.6914 -0.460094 0.886537 0.0486373
-58.1088 42.5027 -12.0756 -0.455738 0.887656 0.0661004
-58.2071 42.5453 -13.2589 -0.452643 0.888653 0.0735591
-58.214 42.554 -13.4063 -0.452645 0.888652 0.0735565
-59.1789 42.0684 -13.5279 -0.467063 0.880713 0.0787225
-59.0516 42.0266 -12.1838 -0.466959 0.881632 0.0683551
-59.0146 41.9515 -10.8094 -0.456669 0.887922 0.0547498
-59.0815 41.8372 -9.44534 -0.46796 0.882181 0.0526259
-59.1374 41.743 -8.3372 -0.470324 0.880901 0.0530058
-59.2769 41.5959 -7.1611 -0.472293 0.879716 0.0551283
-59.2259 41.5525 -6.06232 -0.473076 0.87917 0.0570884
-59.2623 41.4383 -4.67067 -0.474791 0.878051 0.059996
-59.2161 41.3734 -3.37639 -0.477117 0.87679 0.0599957
-59.062 41.362 -2.02601 -0.478494 0.875972 0.0609643
-58.7957 41.4048 -0.52055 -0.474402 0.878401 0.0579254
-58.7377 41.3611 0.571272 -0.473172 0.878722 0.0628925
-58.7058 41.2847 1.84051 -0.47056 0.880014 0.0643582
-58.5965 41.2652 2.92764 -0.470112 0.880214 0.0649414
-58.5376 41.2158 4.06779 -0.465616 0.882831 0.0617371
-58.5559 41.1065 5.45509 -0.465652 0.882688 0.063483
-58.6023 41.0055 6.66484 -0.45879 0.886797 0.055693
-58.6487 40.9148 7.73293 -0.456644 0.888004 0.0540913
-58.4096 40.9623 9.31216 -0.451042 0.89156 0.0407285
-58.3675 40.93 10.4832 -0.446038 0.89428 0.0362332
-58.2304 40.9487 12.042 -0.439696 0.897838 0.0235531
-58.4845 40.8036 13.108 -0.43968 0.898055 0.0128168
-58.3605 40.8515 14.1694 -0.435522 0.900131 0.00904819
-58.509 40.7822 15.6753 -0.440992 0.897463 -0.00773031
-58.459 40.8234 16.7845 -0.443065 0.896243 -0.0202209
-58.381 40.8938 17.9618 -0.453139 0.891149 -0.0221108
-58.2718 40.9841 19.0823 -0.453622 0.890768 -0.0275769
-57.0412 41.5779 19.317 -0.413725 0.909751 -0.0344101
-56.0073 42.0359 19.1827 -0.386912 0.920941 -0.0438812
-55.5162 42.1995 18.4163 -0.371893 0.927306 -0.0423949
-54.9017 42.4046 17.4342 -0.335701 0.941158 -0.0266242
-53.9327 42.7027 17.0371 -0.309883 0.950096 0.00505781
-54.3857 42.588 16.0229 -0.346919 0.937161 0.0237468
-55.3063 42.2297 15.203 -0.374579 0.926426 0.0309536
-56.1813 41.8774 14.0622 -0.412097 0.910731 0.0273115
-56.6779 41.6742 13.0491 -0.42814 0.903204 0.0293715
-57.0853 41.5188 11.7298 -0.435093 0.899706 0.0349557
-57.2085 41.5058 10.5051 -0.449462 0.892446 0.0390291
-57.448 41.4371 9.43975 -0.449494 0.891999 0.0478894
-57.553 41.4507 8.30499 -0.454495 0.889215 0.0518699
-57.4325 41.5847 7.0669 -0.458697 0.886786 0.0566254
-57.3587 41.7165 5.74384 -0.463392 0.883865 0.0636374
-57.3813 41.789 4.64222 -0.470051 0.880016 0.0680037
-57.3718 41.8946 3.32202 -0.477012 0.876402 0.0661732
-57.4022 41.9622 2.22307 -0.477059 0.876227 0.0681224
-57.544 41.9972 0.748188 -0.479127 0.875207 0.0667114
-57.663 42.0142 -0.398081 -0.482629 0.873629 0.0619719
-57.6114 42.1192 -1.46925 -0.482775 0.873544 0.0620415
-57.5501 42.2304 -2.55262 -0.481712 0.874207 0.0609383
-57.178 42.5083 -3.62346 -0.482274 0.873983 0.0597071
-56.7196 42.8328 -4.73616 -0.481817 0.874513 0.0554849
-56.043 43.2703 -5.89304 -0.479454 0.876289 0.0473034
-55.334 43.6977 -6.74999 -0.475514 0.878727 0.0414742
-54.4718 44.1826 -7.51691 -0.470576 0.882021 0.0244054
-53.5852 44.6614 -8.08009 -0.465305 0.885146 0.00274985
-52.4206 45.2837 -8.61516 -0.472696 0.881037 -0.0133503
-51.3765 45.8308 -8.88374 -0.4883 0.871516 -0.0449794
-50.3466 46.4143 -8.80917 -0.493924 0.868423 -0.0433558
-49.4217 46.9529 -8.58711 -0.496056 0.866943 -0.046808
-48.4222 47.5251 -8.43773 -0.490993 0.870467 -0.0348266
-47.5381 48.0012 -8.69725 -0.478407 0.876833 -0.0478522
-48.02 47.6364 -10.066 -0.483485 0.871702 -0.0798595
-48.2388 47.4085 -11.1434 -0.485966 0.86938 -0.0895327
-48.2863 47.2514 -12.3427 -0.492754 0.864133 -0.102314
-48.166 47.1794 -13.5107 -0.514143 0.850717 -0.109261
-47.7254 47.3109 -14.6199 -0.538102 0.835509 -0.111224
-47.2351 47.5247 -15.5725 -0.567944 0.817227 -0.0978811
-46.6613 47.8515 -16.4241 -0.595705 0.800548 -0.0651267
-46.0878 48.2542 -17.2682 -0.617974 0.785953 -0.018705
-45.4619 48.7405 -17.9808 -0.637145 0.770183 0.00963653
-44.7006 49.4083 -18.9027 -0.622011 0.780301 0.0603781
-43.8175 50.1538 -19.1814 -0.580688 0.808469 0.0951598
-43.807 50.1986 -19.4772 -0.596279 0.797585 0.0900589
-44.7395 49.4214 -19.4406 -0.643335 0.764131 0.0467061
-45.8582 48.4399 -19.4894 -0.656654 0.754128 0.00982472
-46.6245 47.7313 -19.4817 -0.667199 0.744659 -0.0181042
-47.5185 46.942 -19.3598 -0.659515 0.750611 -0.0402904
-48.5863 46.0735 -19.4116 -0.593126 0.801873 -0.0721243
-49.4974 45.4215 -19.3752 -0.570215 0.817158 -0.0840735
-50.2095 44.9738 -18.8558 -0.570372 0.819108 -0.061136
-50.6411 44.9176 -17.7193 -0.515572 0.819314 -0.244012
-51.4938 44.6985 -17.1023 -0.2171 0.922683 -0.3145
-52.638 44.4568 -16.8289 -0.267277 0.951628 -0.151285
-53.7545 44.2372 -17.0187 -0.0905498 0.994489 -0.0528503
-54.8153 44.079 -17.0908 -0.0855798 0.992657 0.076078
-55.7564 43.9007 -17.5086 -0.296268 0.948546 0.108793
-56.4453 43.7367 -18.4122 -0.355431 0.932897 0.0580737
-57.4968 43.3323 -19.2875 -0.41687 0.906875 0.06162
-58.7761 42.7247 -19.3598 -0.459127 0.886387 0.0576025
-59.2719 42.3925 -18.1651 -0.480512 0.875123 0.0571769
-59.2661 42.3185 -16.9801 -0.480641 0.875086 0.0566511
-59.2193 42.2108 -15.443 -0.472076 0.877173 0.0878144
-59.1645 42.1335 -14.1957 -0.454486 0.887292 0.0782301
-59.1834 42.0826 -13.7132 -0.467065 0.880712 0.0787183
-60.0924 41.5902 -13.7346 -0.48205 0.87344 0.0687787
-60.1392 41.6605 -14.8734 -0.491287 0.867884 0.0726682
-60.194 41.7273 -16.1769 -0.50023 0.863567 0.0634167
-60.1921 41.834 -17.7558 -0.50896 0.859246 0.0515436
-60.1126 41.9582 -18.9776 -0.503374 0.861932 0.0607203
-59.7371 42.2588 -20.3393 -0.518116 0.854144 0.0437259
-58.807 42.7897 -20.4673 -0.479551 0.873082 0.0880862
-57.8135 43.3279 -20.4528 -0.453095 0.884479 0.107117
-56.8244 43.7609 -20.4607 -0.357282 0.929598 0.0905343
-55.816 44.1133 -20.3779 -0.314108 0.946339 0.0760185
-55.647 44.0791 -19.351 -0.337672 0.936591 0.0936758
-55.2772 44.154 -18.2328 -0.265644 0.943937 0.16409
-54.2343 44.1843 -17.9824 -0.0680473 0.997174 0.0318306
-53.0983 44.2165 -17.9467 -0.0335618 0.994432 -0.0998933
-52.0187 44.29 -17.9815 -0.0291973 0.958576 -0.279872
-51.1317 44.4107 -18.4427 -0.598668 0.80091 -0.00986416
-51.0162 44.3877 -19.6159 -0.529052 0.846109 -0.0648275
-50.6208 44.5887 -20.4673 -0.53193 0.846253 -0.0301075
-49.4754 45.3417 -20.4435 -0.58684 0.807564 -0.0567301
-48.5492 46.0333 -20.4557 -0.598137 0.799885 -0.0491638
-47.5086 46.899 -20.3236 -0.652018 0.757386 -0.0328841
-46.6389 47.6877 -20.4986 -0.67861 0.734176 -0.0205839
-45.7285 48.5617 -20.4733 -0.692379 0.72143 0.0116271
-44.9156 49.3235 -20.4249 -0.682989 0.730239 0.0166555
-44.1206 50.0178 -20.5151 -0.676209 0.736153 0.0286397
-43.1061 50.8078 -20.5396 -0.604704 0.795722 0.034063
-42.1865 51.5111 -20.4817 -0.59309 0.799315 0.0858345
-41.2938 52.0788 -20.4203 -0.511555 0.850756 0.120523
-40.3063 52.604 -20.5255 -0.436682 0.899009 0.00732687
-39.1676 53.0796 -20.5682 -0.361625 0.932288 0.00718581
-38.1583 53.4408 -20.5878 -0.336114 0.940978 0.0385259
-37.0161 53.8494 -20.5772 -0.342866 0.938992 0.0271386
-36.0025 54.2168 -20.5517 -0.358325 0.933518 -0.000965736
-35.3277 54.4698 -19.9631 -0.362718 0.931803 0.00641017
-35.4938 54.3633 -18.8493 -0.384846 0.920604 0.0662022
-36.5055 53.9389 -18.69 -0.381127 0.920503 0.0861192
-37.5524 53.5345 -18.8081 -0.365463 0.925131 0.102608
-38.6245 53.1044 -18.655 -0.340866 0.933037 0.114006
-39.6401 52.6893 -18.7273 -0.429928 0.884884 0.179281
-40.7181 52.1205 -18.7422 -0.475508 0.86012 0.184622
-41.6776 51.5653 -18.8557 -0.51055 0.845053 0.157455
-42.5754 50.9653 -18.6615 -0.564005 0.817428 0.117089
-43.6034 50.1889 -18.1633 -0.561568 0.821117 0.102017
-44.4046 49.559 -17.5972 -0.606601 0.793291 0.0521967
-45.1749 48.9579 -16.8649 -0.583079 0.8123 0.0137024
-45.8344 48.4843 -16.1833 -0.570321 0.820674 -0.0301083
-46.3941 48.1274 -15.2305 -0.552498 0.829807 -0.0785234
-47.063 47.8075 -13.9684 -0.519718 0.850227 -0.083716
-47.438 47.7078 -12.694 -0.507638 0.857277 -0.085912
-47.3744 47.857 -11.4916 -0.479388 0.873535 -0.0843993
-47.073 48.124 -10.3373 -0.474397 0.877352 -0.0721113
-46.8225 48.3428 -9.3208 -0.461489 0.884416 -0.0695422
-46.2541 48.7121 -8.30445 -0.458784 0.886534 -0.0597868
-45.3012 49.2588 -7.51983 -0.457965 0.886737 -0.0629703
-44.5691 49.6945 -6.64744 -0.445678 0.892056 -0.074881
-43.8296 50.122 -5.9126 -0.44448 0.89326 -0.0672662
-42.8832 50.661 -4.99324 -0.416018 0.904742 -0.0914988
-42.07 51.1293 -4.16252 -0.412739 0.903239 -0.117283
-41.3727 51.5488 -3.29646 -0.384712 0.915108 -0.120725
-40.5564 51.9927 -2.57727 -0.378975 0.914973 -0.138572
-39.9004 52.3922 -1.82483 -0.356593 0.930202 -0.0764807
-39.0701 52.7415 -1.11806 -0.310064 0.944483 -0.105225
-38.2605 53.079 -0.238513 -0.268643 0.958271 -0.0977145
-37.4847 53.3667 0.48229 -0.245245 0.963842 -0.103949
-36.5931 53.6834 1.44458 -0.232147 0.968305 -0.092161
-35.8035 53.9413 2.19889 -0.220354 0.971539 -0.0869228
-35.0616 54.1778 2.9577 -0.214448 0.972522 -0.090432
-34.252 54.4297 3.78679 -0.213 0.973712 -0.080716
-34.0822 54.5461 4.72577 -0.169182 0.981603 -0.0885093
-34.9742 54.4566 5.5589 -0.254211 0.96132 -0.106022
-35.967 54.1273 4.75665 -0.265212 0.961392 -0.0696041
-36.6973 53.8524 4.0347 -0.307973 0.950593 -0.0368404
-37.4137 53.6049 3.2825 -0.274937 0.96086 -0.0338943
-38.1857 53.3504 2.46614 -0.277248 0.959762 -0.0418461
-38.9511 53.0478 1.638 -0.328719 0.942476 -0.0589468
-39.7276 52.7519 0.895589 -0.321102 0.94203 -0.0967453
-40.4695 52.3463 0.0619337 -0.388846 0.911855 -0.128542
-41.1747 51.9246 -0.613629 -0.458795 0.885397 -0.0700872
-41.8201 51.5161 -1.35732 -0.482443 0.874173 -0.0554038
-42.5788 51.0635 -2.0204 -0.477497 0.87743 -0.0459647
-43.2651 50.6491 -2.73388 -0.493505 0.869721 -0.00624785
-43.9687 50.2146 -3.52429 -0.480611 0.874847 -0.0604567
-44.6911 49.7782 -4.17539 -0.47982 0.87646 -0.0398827
-45.5716 49.2529 -5.12915 -0.495466 0.868105 -0.0301258
-46.279 48.8179 -6.04346 -0.493245 0.869182 -0.0350985
-47.0948 48.3345 -6.94494 -0.484045 0.874725 -0.0235952
-48.0812 47.7665 -7.28284 -0.493427 0.868986 -0.0372791
-48.9676 47.2493 -7.5586 -0.498782 0.866365 -0.0250298
-50.0263 46.6391 -7.66172 -0.497873 0.86692 -0.0230312
-51.3803 45.8628 -7.8546 -0.48702 0.873305 -0.0122694
-52.6041 45.1859 -7.56395 -0.476582 0.87913 -0.000522842
-53.7154 44.5687 -6.81899 -0.4748 0.879926 0.0171994
-54.5412 44.0999 -6.20713 -0.479378 0.876937 0.0343309
-55.2621 43.667 -5.35055 -0.480243 0.875996 0.0445809
-55.9245 43.2415 -4.26545 -0.484862 0.872991 0.0528718
-56.3356 42.9472 -3.22307 -0.484902 0.872674 0.0575375
-56.6101 42.7129 -2.01434 -0.484392 0.872681 0.0615853
-56.7007 42.5871 -0.959969 -0.484246 0.872678 0.0627486
-56.7156 42.5003 0.123228 -0.484039 0.87268 0.0643071
-56.5264 42.5194 1.25097 -0.481791 0.873656 0.0678154
-56.4662 42.4649 2.34877 -0.480728 0.874032 0.0704909
-56.4631 42.3503 3.813 -0.475196 0.87707 0.0701994
-56.481 42.2484 4.91893 -0.472475 0.878507 0.0705605
-56.478 42.1599 6.05219 -0.471417 0.879084 0.0705472
-56.4947 42.0637 7.26673 -0.465464 0.88296 0.0610396
-56.5759 41.9388 8.44543 -0.459807 0.886096 0.0584101
-56.4566 41.9305 9.53536 -0.454297 0.889311 0.0523534
-56.2819 41.9551 10.7079 -0.441543 0.896195 0.0432971
-56.2085 41.9413 11.8083 -0.442113 0.89617 0.0376282
-55.6506 42.1558 13.0423 -0.42716 0.903473 0.0356442
-55.0356 42.3913 13.8961 -0.405684 0.913071 0.0388847
-54.317 42.664 14.6905 -0.383047 0.922185 0.0531715
-53.2837 42.9879 15.7455 -0.35001 0.93178 0.096333
-52.2794 43.2595 16.5205 -0.316207 0.93446 0.163699
-51.2542 43.4831 17.0997 -0.385417 0.873285 0.298039
-50.2863 43.7935 17.6331 -0.454878 0.855212 0.248389
-49.3897 44.3504 17.9644 -0.616291 0.781525 0.0969015
-48.4736 45.0202 18.2249 -0.61084 0.787777 0.0781885
-47.5825 45.6999 18.549 -0.624415 0.777606 0.0737217
-46.6212 46.4632 18.661 -0.616879 0.784402 0.0646032
-45.4696 47.4015 18.7139 -0.634008 0.77129 0.0560742
-44.2974 48.3669 18.7525 -0.629376 0.776927 0.0164511
-43.3362 49.1165 18.7661 -0.598495 0.801098 -0.00678737
-42.1532 49.9735 18.7643 -0.592838 0.805219 -0.00864421
-41.0404 50.7402 18.6783 -0.564682 0.825159 -0.0157399
-39.9878 51.4295 18.8011 -0.545109 0.836819 -0.0508958
-39.0001 51.9784 18.6569 -0.49007 0.87046 -0.0448828
-37.9247 52.5447 18.7313 -0.46128 0.886773 -0.0292064
-36.899 53.0532 18.6778 -0.444233 0.893887 -0.0601931
-35.893 53.4545 18.5136 -0.357042 0.933966 -0.0151349
-34.8672 53.852 17.9542 -0.358539 0.933481 -0.0079414
-34.0472 54.1746 17.3449 -0.377258 0.925825 0.0229141
-33.1837 54.5417 16.2942 -0.353017 0.935015 0.0335536
-32.7347 54.8032 14.8937 -0.361746 0.930551 0.0557897
-32.0894 55.1354 13.7883 -0.360988 0.929962 0.0697031
-31.6751 55.3917 12.5596 -0.338665 0.938545 0.0666273
-31.0088 55.6648 12.1028 -0.328212 0.941768 0.0720803
-30.213 55.8748 12.8055 -0.294394 0.95322 0.0669979
-29.4938 56.0648 13.5727 -0.322676 0.944373 0.0635598
-28.766 56.2456 14.4928 -0.324223 0.943477 0.0686034
-28.3775 56.265 15.7413 -0.323459 0.941057 0.0989168
-28.1388 56.2283 16.8156 -0.316448 0.942512 0.107387
-28.5686 55.9712 17.8182 -0.313738 0.943605 0.105723
-29.9389 55.5195 17.8577 -0.302391 0.947647 0.10251
-31.008 55.1785 17.924 -0.295305 0.950994 0.0912661
-32.0041 54.8884 17.833 -0.266737 0.962024 0.0544882
-32.9756 54.5728 18.0591 -0.354721 0.934909 0.0108612
-33.2501 54.4586 19.058 -0.354126 0.935161 0.00831288
-33.2655 54.4377 20.1463 -0.366587 0.93007 0.0233276
-34.3377 54.0246 20.4389 -0.345425 0.938173 0.0226455
-35.4294 53.6261 20.4233 -0.340804 0.939955 0.0183891
-36.5348 53.2145 20.4652 -0.355006 0.934743 0.0150536
-37.7903 52.6569 20.4558 -0.440593 0.897375 -0.00437717
-38.9112 52.0805 20.4377 -0.467529 0.883561 0.00580042
-39.9027 51.5204 20.4289 -0.525085 0.850611 -0.000580348
-40.8658 50.8977 20.3813 -0.545622 0.837874 -0.0162272
-42.0156 50.1002 20.2588 -0.600018 0.799913 -0.0108574
-43.1429 49.2442 20.4264 -0.611392 0.791265 -0.0100232
-44.0988 48.4794 20.4148 -0.629734 0.776366 0.0262887
-45.123 47.63 20.3519 -0.651446 0.758317 0.023945
-45.9492 46.9216 20.3534 -0.645441 0.763162 0.0281567
-46.7759 46.234 20.3288 -0.631743 0.774077 0.0399982
-47.8443 45.3788 20.2619 -0.631579 0.773485 0.0531897
-48.816 44.607 20.3539 -0.607189 0.792871 0.0495823
-49.7638 43.8956 20.2884 -0.602228 0.797513 0.0359812
-50.3787 43.4573 20.0885 -0.587927 0.808841 0.010912
-50.4551 43.4184 19.0275 -0.611991 0.790345 0.0286596
-50.8719 43.2839 18.0651 -0.437967 0.811687 0.386456
-51.8738 43.1051 17.8103 -0.214432 0.950263 0.224281
-52.932 42.9085 17.8256 -0.1401 0.985054 0.0845765
-54.142 42.6782 17.9419 -0.0659159 0.990392 -0.121546
-54.6827 42.5428 18.7899 -0.356355 0.934017 -0.0249475
-54.7313 42.5506 19.9098 -0.33084 0.94347 -0.0172005
-55.6652 42.2354 20.3779 -0.347805 0.935054 -0.0682975
-56.9454 41.6791 20.3878 -0.444745 0.890308 -0.0977412
-58.0961 41.113 20.3966 -0.46095 0.88695 -0.0290625
-59.2305 40.5033 19.7232 -0.465243 0.88492 -0.0215762
-59.3421 40.4188 18.5823 -0.46447 0.885402 -0.0181982
-59.3393 40.3964 17.3629 -0.451113 0.892324 -0.0159832
-59.4204 40.3369 16.1619 -0.449544 0.893185 -0.0110426
-59.366 40.3541 14.7857 -0.445482 0.895273 -0.000927099
-59.4212 40.3417 13.3294 -0.443534 0.896165 0.0127878
-59.2921 40.4224 12.2193 -0.445603 0.895133 0.013253
-59.3359 40.4331 10.9383 -0.442249 0.896421 0.0284226
-59.2819 40.4991 9.86257 -0.446651 0.89418 0.0307514
-59.4361 40.4667 8.72421 -0.447589 0.893464 0.0372393
-59.4436 40.5181 7.5992 -0.449361 0.892082 0.0475949
-59.5875 40.5112 6.45095 -0.450215 0.891424 0.0516586
-59.5228 40.6164 5.2854 -0.457523 0.887316 0.0577653
-59.4903 40.709 4.15344 -0.460836 0.885456 0.059951
-59.4832 40.7974 2.95495 -0.464227 0.883483 0.0628597
-59.5751 40.8215 1.89729 -0.463301 0.884128 0.0605807
-59.6188 40.8764 0.774371 -0.463312 0.884071 0.0613259
-59.7146 40.9051 -0.4336 -0.470361 0.88051 0.0588187
-59.9514 40.8576 -1.64526 -0.473264 0.879194 0.0551259
-60.0859 40.8593 -2.76172 -0.473704 0.878511 0.0618357
-60.1199 40.9216 -3.90259 -0.473396 0.878601 0.062903
-60.1774 40.9682 -5.02277 -0.471668 0.879738 0.0599232
-60.1362 41.0702 -6.18596 -0.473767 0.878667 0.0590421
-60.1068 41.1649 -7.38536 -0.471563 0.880015 0.0565856
-60.0318 41.2776 -8.54138 -0.470579 0.880635 0.0551171
-60.0587 41.3318 -9.67241 -0.469239 0.881417 0.0540244
-60.0514 41.4121 -10.9046 -0.466087 0.882959 0.0560842
-60.027 41.5294 -12.4183 -0.465907 0.882272 0.0672844
-60.0789 41.572 -13.3985 -0.477897 0.875915 0.0662421
-55.5254 42.1334 16.6277 -0.362864 0.931532 -0.0136674
-56.2037 41.8517 15.6118 -0.398729 0.91702 -0.00945768
-56.8102 41.5823 14.7489 -0.420795 0.907153 0.00246306
-57.3407 41.3385 14.4295 -0.418795 0.90806 0.00621158
-57.553 41.2416 15.5981 -0.430068 0.902779 -0.00555348
-57.5476 41.2587 16.9095 -0.425762 0.904769 -0.0109641
-57.3884 41.3684 18.0719 -0.422719 0.905605 -0.0344722
-56.4381 41.7944 18.1005 -0.399385 0.91604 -0.0369013
-55.7687 42.0478 16.8748 -0.363998 0.930882 -0.030841
-30.5853 55.5135 15.8112 -0.318221 0.943632 0.0908378
-30.7861 55.4658 15.5753 -0.32949 0.94038 0.0840122
-30.7083 55.4734 15.8031 -0.318816 0.944185 0.0826426
-30.7678 55.355 16.8633 -0.31277 0.945132 0.094344
-31.9769 54.9596 16.7139 -0.326851 0.943731 0.0503934
-31.9837 55.0524 15.4629 -0.332028 0.940276 0.0748557
-31.3594 55.3514 14.5367 -0.348329 0.934136 0.077831
-30.7995 55.6202 13.6698 -0.329907 0.941757 0.0652278
-29.9112 55.8549 14.5605 -0.311795 0.947111 0.0759317
-29.3761 55.9274 15.7529 -0.317842 0.943697 0.0917205
-29.3282 55.8402 16.7467 -0.311824 0.944159 0.106438
-30.42 55.4676 16.8886 -0.312772 0.945131 0.094346
-35.1 53.7635 19.3681 -0.346578 0.937979 0.00886485
-34.2093 54.1016 18.67 -0.35152 0.936148 0.00766513
-34.4845 53.9906 19.416 -0.344793 0.938581 0.0135457
-34.8894 53.8416 19.3402 -0.346576 0.93798 0.00887011
-27.6472 56.2649 8.76082 -0.343788 0.935313 0.0835237
-27.6513 56.201 9.53501 -0.352565 0.932104 0.0829426
-28.4956 55.945 8.90179 -0.320537 0.943931 0.0790191
-28.4721 56.0046 8.29346 -0.346742 0.934001 0.0860939
-27.7937 56.2349 8.50948 -0.343212 0.935101 0.0882664
-57.7787 43.0193 -16.479 -0.39403 0.916724 0.0660065
-57.4305 43.1995 -16.9029 -0.393819 0.916972 0.0637832
-56.8375 43.3971 -16.2624 -0.360426 0.930668 0.0628482
-57.7501 42.9146 -15.1436 -0.410689 0.90727 0.0905287
-57.7015 42.8319 -13.8258 -0.422605 0.903794 0.0675408
-56.6454 43.3985 -15.1358 -0.381289 0.922017 0.067103
-56.0749 43.6531 -15.8152 -0.352408 0.934172 0.0559551
-55.2488 43.9147 -15.4288 -0.286536 0.957755 0.0245311
-56.2942 43.4808 -14.1967 -0.3855 0.920986 0.0563375
-57.2565 42.9811 -13.0059 -0.418151 0.906418 0.059638
-57.6306 42.768 -12.5326 -0.432311 0.899446 0.0640543
-57.4976 42.7577 -11.3185 -0.446202 0.89375 0.0459722
-56.3654 43.3689 -12.7388 -0.424057 0.904891 0.0367098
-55.1609 43.9067 -14.1919 -0.366095 0.929979 0.0333794
-54.1313 44.2301 -15.3606 -0.267684 0.961163 -0.0671606
-52.9555 44.5775 -15.3668 -0.308168 0.947508 -0.0852087
-54.0622 44.3035 -14.1334 -0.318867 0.947242 -0.0325106
-55.1737 43.8948 -12.8347 -0.39066 0.920363 0.0178111
-56.2757 43.3602 -11.4819 -0.438139 0.898523 0.0262933
-57.4432 42.7224 -10.0051 -0.456454 0.888901 0.0388009
-57.6964 42.505 -8.295 -0.469235 0.881785 0.0476747
-56.5954 43.1448 -9.7091 -0.456451 0.888902 0.0388048
-55.4082 43.7672 -11.1971 -0.432398 0.901592 0.0128179
-54.3652 44.2371 -12.4625 -0.381979 0.92384 -0.0247539
-53.2169 44.6281 -13.7962 -0.349305 0.934447 -0.0692408
-52.126 44.8894 -15.0154 -0.384673 0.914565 -0.124886
-51.9387 44.9353 -15.2304 -0.379782 0.907482 -0.179559
-48.9906 45.9915 -17.5192 -0.586242 0.803113 -0.106444
-50.1189 45.5876 -16.0929 -0.448277 0.876713 -0.174421
-51.4118 45.2592 -14.5859 -0.386922 0.911904 -0.136832
-52.6322 44.9156 -13.1803 -0.380902 0.920511 -0.0870202
-53.8363 44.4884 -11.7691 -0.401933 0.915188 -0.0296802
-54.924 43.9928 -10.4423 -0.437233 0.899345 0.00225758
-56.1437 43.3489 -8.91063 -0.458525 0.888151 0.0307104
-57.1367 42.7702 -7.6358 -0.470076 0.881461 0.0453331
-57.9344 42.2856 -6.60493 -0.476017 0.877965 0.0508463
-47.9259 46.766 -17.7531 -0.616576 0.783579 -0.076407
-49.3156 46.0851 -15.8431 -0.498889 0.852926 -0.15371
-50.6753 45.6528 -14.1905 -0.416025 0.898297 -0.141369
-52.1102 45.2178 -12.5117 -0.408897 0.905557 -0.113004
-53.3379 44.746 -11.0487 -0.425846 0.904229 -0.0320172
-54.6278 44.1369 -9.45991 -0.446754 0.894601 0.0100354
-54.9262 43.9781 -9.0844 -0.452868 0.89144 0.0156454
-52.9522 44.9619 -10.1926 -0.454373 0.889653 -0.0454147
-51.5306 45.546 -11.9132 -0.450259 0.889183 -0.0813652
-50.3181 45.976 -13.3718 -0.457174 0.880936 -0.122241
-49.123 46.3921 -14.8448 -0.512694 0.844526 -0.154666
-48.9082 46.4728 -15.116 -0.510893 0.844606 -0.160091
-49.5528 46.4339 -13.0469 -0.488639 0.863909 -0.122039
-50.905 45.9221 -11.3905 -0.456387 0.885407 -0.0881186
-51.5298 45.6622 -10.6225 -0.46005 0.885853 -0.0601592
-50.5392 46.1888 -10.5467 -0.485162 0.871674 -0.0693021
-49.7301 46.5323 -11.5575 -0.476263 0.873133 -0.103983
