-19.5743 1.52667 10.8217 -0.517651 0.855583 0.00390409
-19.4727 1.59691 9.54449 -0.520337 0.853918 0.00854046
-19.1824 1.78487 8.46464 -0.520715 0.853678 0.00942393
-18.779 2.04621 7.47349 -0.520916 0.853496 0.0138011
-18.2831 2.37222 6.39162 -0.521626 0.852913 0.0209434
-17.7552 2.72206 5.38216 -0.520452 0.853542 0.0243163
-17.2817 3.04837 4.10316 -0.517943 0.855059 0.0246863
-16.9919 3.25659 3.04292 -0.517687 0.85513 0.0274325
-16.6746 3.48517 1.90779 -0.517756 0.855088 0.0274479
-16.352 3.72773 0.512 -0.517539 0.855151 0.0295064
-16.4346 3.65027 1.30757 -0.517752 0.855045 0.0288245
-15.6324 4.12177 1.74337 -0.517598 0.855157 0.0282726
-15.1316 4.39385 2.70376 -0.519001 0.854413 0.024812
-14.4674 4.77002 3.65438 -0.51965 0.854021 0.024756
-13.8149 5.14556 4.46576 -0.521287 0.853102 0.0218082
-12.9274 5.66591 5.35947 -0.519989 0.853946 0.0197148
-11.9965 6.22126 5.98261 -0.522014 0.852727 0.0189197
-11.063 6.79376 6.3487 -0.528912 0.84856 0.014036
-10.0183 7.44972 6.26493 -0.530806 0.847342 0.0160002
-9.08633 8.04547 5.95886 -0.533423 0.845814 0.00763979
-8.29314 8.55061 5.60434 -0.543871 0.839145 0.00225825
-8.8191 8.23255 4.70321 -0.535222 0.84448 0.0197779
-9.82522 7.58937 5.1318 -0.531282 0.847115 0.0116371
-10.8366 6.95392 5.30826 -0.530025 0.847844 0.0151997
-11.7415 6.40138 5.00426 -0.524194 0.851299 0.022589
-12.6352 5.86996 4.3186 -0.523757 0.851542 0.023555
-13.3373 5.46078 3.58511 -0.520461 0.853584 0.0227004
-14.0421 5.05876 2.5965 -0.519841 0.853807 0.0276036
-14.7862 4.64482 1.44451 -0.521323 0.852847 0.0295775
-15.1849 4.43797 0.50008 -0.519585 0.853832 0.0316642
-15.5071 4.27971 -0.486266 -0.521856 0.852326 0.0347412
-15.7006 4.20748 -1.63806 -0.522532 0.851925 0.0343581
-15.8569 4.16393 -2.90891 -0.52475 0.850581 0.0339016
-15.676 4.32282 -3.97994 -0.527721 0.848642 0.0361578
-16.2626 3.93008 -3.33624 -0.528341 0.848393 0.0328633
-16.6425 3.65269 -2.2672 -0.525161 0.850391 0.0322059
-17.0034 3.39665 -1.31447 -0.521442 0.852794 0.0289944
-17.2777 3.18941 -0.175541 -0.519818 0.853755 0.0298724
-17.4262 3.06395 0.862113 -0.520037 0.853667 0.0285212
-17.7171 2.84668 2.13445 -0.5181 0.854895 0.0269744
-17.9914 2.64693 3.18834 -0.517618 0.855173 0.0274126
-18.2741 2.44413 4.17113 -0.518028 0.854927 0.0273263
-18.7548 2.1212 5.13066 -0.519594 0.853946 0.0282395
-19.1856 1.82697 6.19874 -0.517673 0.855359 0.0193942
-19.6425 1.52931 7.09318 -0.520286 0.853809 0.0176969
-20.0742 1.2467 8.11373 -0.520044 0.854011 0.0148124
-20.4126 1.02662 9.45096 -0.518035 0.855343 0.00528643
-20.4678 0.986709 10.5346 -0.51817 0.855268 0.00403699
-20.496 0.965707 11.5794 -0.514923 0.857234 0.000681092
-20.6922 0.8329 13.0973 -0.518527 0.855003 0.00971637
-20.6375 0.84901 14.2201 -0.522478 0.852575 0.0115513
-20.617 0.844979 15.4119 -0.523053 0.85223 0.0108184
-20.4778 0.915988 16.6337 -0.525339 0.850829 0.0103068
-20.0162 1.19085 17.5958 -0.525619 0.85069 0.00713814
-19.2312 1.67073 18.4394 -0.52453 0.85138 0.00437773
-18.2028 2.3004 18.8628 -0.523603 0.851941 0.00563865
-17.2798 2.86872 19.0576 -0.526101 0.850403 0.00552379
-16.3441 3.44904 19.0524 -0.527563 0.8495 0.00524667
-15.4168 4.02815 19.1661 -0.531432 0.847094 0.00341759
-14.3252 4.71611 19.3807 -0.53562 0.844459 0.00017961
-13.2434 5.40544 19.5709 -0.538987 0.842301 -0.00170065
-12.1008 6.14685 19.694 -0.551496 0.834127 -0.00917075
-11.0806 6.83067 19.6043 -0.567023 0.823626 -0.0111673
-10.0355 7.55382 19.5562 -0.58107 0.813722 -0.00985027
-9.10234 8.23646 19.4983 -0.599918 0.8 -0.00950276
-8.1049 8.98697 19.4456 -0.605993 0.795391 -0.00698645
-7.16245 9.73551 19.3864 -0.627793 0.778188 -0.015119
-6.2671 10.4719 19.4119 -0.653442 0.756524 -0.0115202
-5.27828 11.3933 19.4451 -0.709992 0.703521 -0.0284479
-4.45654 12.2161 19.3383 -0.707468 0.706588 -0.0148247
-3.64953 13.0902 19.3343 -0.73586 0.676383 -0.0318927
-2.61662 14.3359 19.3713 -0.788941 0.612911 -0.0331273
-1.92142 15.2828 19.3221 -0.799603 0.599886 -0.00757696
-1.24404 16.2218 19.3306 -0.812454 0.58302 -0.00220168
-0.485572 17.2159 19.3806 -0.725898 0.683427 0.00467157
0.336696 17.8715 19.4925 -0.590605 0.804229 0.0630463
1.41381 18.3047 19.5134 -0.226509 0.965814 0.113344
2.60037 18.3384 19.4315 0.0460078 0.993295 0.106054
3.57316 17.8524 19.448 0.697947 0.713634 0.0599699
4.5576 16.6279 19.3825 0.813222 0.580368 0.042926
5.26666 15.6213 19.4532 0.812074 0.58354 0.00406262
5.89809 14.7566 19.422 0.802831 0.596088 0.0119176
6.59549 13.8421 19.2983 0.788878 0.614474 0.00967213
7.37534 12.9039 19.4147 0.760949 0.648805 0.00299994
8.16712 12.0331 19.4194 0.725473 0.688124 0.0132203
9.01114 11.1826 19.4605 0.69236 0.721538 0.00457612
9.81892 10.4285 19.4499 0.669183 0.743079 0.00356696
10.7622 9.63089 19.4135 0.632026 0.774705 0.0191925
11.746 8.82887 19.5364 0.624017 0.781057 0.0216658
12.746 8.05717 19.5984 0.606632 0.794872 0.0132541
13.7237 7.33039 19.5701 0.577485 0.816263 0.0137884
15.0044 6.43091 19.4675 0.571205 0.820756 0.00853609
16.0783 5.68863 19.5557 0.563617 0.825996 0.00683677
17.1176 4.9908 19.4741 0.552757 0.833334 0.00372588
17.9773 4.42461 19.2591 0.547608 0.836723 0.00331626
19.202 3.62765 19.0508 0.543392 0.839462 0.00528114
20.3803 2.87423 18.6648 0.535868 0.844302 0.000806283
21.365 2.25143 18.4145 0.532891 0.846182 0.00189429
22.0407 1.82835 17.7363 0.533143 0.846018 0.00331353
22.6885 1.42515 16.9363 0.531561 0.847017 0.00209967
23.226 1.08904 15.5761 0.530871 0.84745 0.001303
23.2883 1.05248 14.0825 0.52989 0.848066 0.000539252
23.2665 1.06623 12.8651 0.529074 0.848576 -0.00014747
23.0549 1.19765 11.5739 0.530199 0.847873 0.000240201
22.739 1.39609 10.5912 0.532507 0.846425 -2.23525e-05
22.3742 1.62732 9.51642 0.533375 0.845876 0.00178612
21.7392 2.03213 8.1497 0.534168 0.845377 0.00159123
21.4398 2.22201 6.81663 0.536809 0.843699 -0.00223199
21.2906 2.31133 5.57563 0.538064 0.842891 -0.00461452
20.9601 2.51408 4.11767 0.541112 0.840929 -0.0060708
20.3529 2.89926 3.36676 0.541507 0.840667 -0.00696
19.586 3.39348 2.73933 0.546526 0.837406 -0.00780412
18.7191 3.9553 2.03017 0.551209 0.834345 -0.00614486
17.9329 4.47197 1.38094 0.561156 0.827643 -0.0104878
17.0881 5.04142 0.665309 0.570668 0.821149 -0.00687807
16.4349 5.48584 -0.0901127 0.568782 0.822412 -0.0112071
15.732 5.97082 -1.231 0.583473 0.812085 -0.00562312
15.2387 6.31958 -2.26429 0.585812 0.810252 -0.0177512
14.8187 6.59806 -3.66153 0.593938 0.804271 -0.0195154
14.4538 6.82847 -4.97981 0.592814 0.804932 -0.0256152
14.2469 6.92826 -6.20002 0.590908 0.805736 -0.040215
13.9835 7.05791 -7.4184 0.584773 0.810064 -0.0428478
13.647 7.22254 -8.7801 0.590647 0.805138 -0.0534797
13.4569 7.28163 -9.97684 0.582149 0.811154 -0.0557464
13.5166 7.15775 -11.0546 0.578304 0.81341 -0.0626186
13.5489 7.05412 -12.1649 0.575316 0.815817 -0.0587745
13.8463 6.77947 -13.1998 0.569723 0.820222 -0.051493
14.2828 6.41739 -14.1631 0.562997 0.824634 -0.054897
15.0642 5.83126 -15.0876 0.555001 0.830366 -0.0495156
15.8787 5.26222 -15.6014 0.546753 0.836137 -0.0440017
16.7897 4.64399 -16.0203 0.546169 0.836673 -0.0409632
17.6994 4.0432 -16.1533 0.546999 0.836148 -0.0406159
18.8323 3.30905 -16.1037 0.5445 0.837912 -0.0376729
19.943 2.59206 -16.1184 0.540229 0.840824 -0.0341724
20.9267 1.96602 -15.9448 0.540824 0.840509 -0.0324592
21.8792 1.36898 -15.5434 0.539472 0.841483 -0.0296079
22.7496 0.807992 -15.6849 0.536935 0.843109 -0.0294666
22.1315 1.17601 -16.4239 0.538286 0.842224 -0.030096
21.2792 1.71247 -16.6617 0.540293 0.840952 -0.0296958
20.3846 2.28264 -16.8043 0.537906 0.842443 -0.0307744
19.3934 2.90218 -17.1731 0.539199 0.841535 -0.032821
18.2034 3.65367 -17.5319 0.542239 0.839463 -0.0357585
17.2062 4.29369 -17.6672 0.544608 0.837928 -0.0357598
15.8465 5.16339 -18.0089 0.545077 0.837131 -0.045866
14.8272 5.82498 -18.1464 0.552884 0.832134 -0.0432722
13.8001 6.49451 -18.4321 0.558157 0.828902 -0.0371798
12.9051 7.08846 -18.6272 0.560342 0.827272 -0.0402598
12.0136 7.69298 -18.7793 0.56596 0.823295 -0.043301
11.1039 8.31365 -18.9225 0.576742 0.815465 -0.0486949
10.1737 8.96 -19.1839 0.579884 0.813402 -0.0459404
9.33968 9.5423 -19.4039 0.600871 0.798256 -0.0416738
8.23767 10.4 -19.4319 0.624234 0.779445 -0.0528943
7.32075 11.1335 -19.4845 0.630242 0.774381 -0.0559215
6.51717 11.794 -19.4104 0.640023 0.765647 -0.0628339
5.55045 12.6246 -19.3985 0.662252 0.745641 -0.0718163
4.62838 13.4822 -19.3811 0.689327 0.721199 -0.0680375
3.55729 14.5082 -19.3925 0.685291 0.724236 -0.0765445
2.73653 15.2861 -19.3548 0.669479 0.738912 -0.0752635
1.93279 15.989 -19.4149 0.630889 0.768865 -0.103908
0.999156 16.7433 -19.4137 0.577758 0.80743 -0.104436
0.0574876 17.3332 -19.462 0.585516 0.80221 -0.096908
-0.895064 17.6796 -19.5085 -0.0302121 0.98275 -0.182455
-1.89831 17.2808 -19.4366 -0.636718 0.768227 -0.0664624
-2.70594 16.5648 -19.4572 -0.743622 0.666937 0.0367048
-3.4903 15.6478 -19.4678 -0.762064 0.644001 0.0672306
-4.24319 14.7253 -19.3218 -0.775728 0.626516 0.0756562
-4.96361 13.8797 -19.4703 -0.750405 0.658064 0.0619972
-5.7878 12.9595 -19.4606 -0.738709 0.671832 0.0543263
-6.78847 11.9022 -19.4347 -0.712253 0.700391 0.0463517
-7.5368 11.1509 -19.419 -0.691617 0.720084 0.05608
-8.37478 10.38 -19.4154 -0.672165 0.739999 0.0244243
-9.37471 9.50133 -19.3519 -0.653247 0.756568 0.0289363
-10.6059 8.48768 -19.2186 -0.63156 0.774815 0.0281622
-11.6331 7.67793 -19.0951 -0.609146 0.792705 0.0236471
-12.5496 6.98878 -18.8194 -0.59152 0.806128 0.0161889
-13.4773 6.31476 -18.4705 -0.577572 0.816216 0.0141429
-14.4863 5.59712 -18.2507 -0.573058 0.819198 0.0217992
-15.33 5.01259 -18.0457 -0.563637 0.825816 0.0181572
-16.4619 4.25436 -17.7595 -0.548476 0.835931 0.0198499
-17.3765 3.65153 -17.4703 -0.544292 0.838701 0.0180993
-18.3426 3.02062 -17.0798 -0.541969 0.840256 0.0154647
-17.7515 3.38333 -16.1876 -0.540445 0.841161 0.0191923
-16.9518 3.87939 -15.2831 -0.543699 0.839113 0.0167525
-16.325 4.26567 -14.4878 -0.54563 0.837675 0.0242429
-15.4951 4.78587 -13.4143 -0.558429 0.829124 0.0263566
-15.1344 4.99135 -12.3885 -0.558594 0.828902 0.029917
-14.6746 5.24155 -10.755 -0.556114 0.83048 0.0320534
-14.5323 5.29255 -9.704 -0.550082 0.834422 0.0336695
-14.0006 5.63464 -9.49054 -0.550119 0.834216 0.0381033
-13.2152 6.18621 -10.0933 -0.561294 0.826709 0.0387424
-12.4986 6.70054 -10.6718 -0.559177 0.827667 0.0478468
-11.4224 7.47586 -11.233 -0.571798 0.818572 0.0546529
-10.5263 8.12858 -11.6422 -0.575824 0.815769 0.0539691
-9.47593 8.91368 -11.9263 -0.59257 0.803167 0.0615088
-8.55535 9.63401 -12.1785 -0.611108 0.788041 0.0744221
-7.63952 10.36 -12.3021 -0.61597 0.781662 0.0979051
-6.70672 11.1322 -12.3795 -0.643249 0.757872 0.108908
-5.82497 11.8974 -12.4155 -0.655451 0.743858 0.130609
-4.78132 12.8186 -12.2882 -0.673478 0.729465 0.119621
-3.8889 13.6545 -12.0987 -0.713794 0.688209 0.129874
-3.12742 14.3796 -11.7323 -0.72921 0.66395 0.165601
-2.28137 15.1775 -11.0718 -0.745262 0.648768 0.153897
-1.6999 15.6637 -10.2836 -0.758219 0.628969 0.171752
-1.26688 15.8884 -9.2914 -0.735238 0.644239 0.208791
-0.921917 15.9138 -8.03812 -0.72846 0.661642 0.177695
-0.83413 15.6942 -6.76044 -0.741314 0.651657 0.160612
-0.922726 15.3453 -5.68968 -0.762877 0.631285 0.139635
-1.28734 14.6517 -4.57997 -0.762305 0.629994 0.148318
-1.60519 14.0717 -3.68757 -0.71771 0.683563 0.127749
-2.00795 13.5261 -2.83227 -0.687911 0.715068 0.124321
-2.4081 13.0114 -1.99789 -0.625679 0.772794 0.106374
-2.89691 12.5206 -1.2034 -0.619049 0.780289 0.0890412
-3.39421 12.0639 -0.311985 -0.59221 0.804563 0.0443332
-3.85862 11.6839 0.552657 -0.583947 0.810979 0.0361718
-4.45779 11.2263 1.36695 -0.573267 0.818961 0.0258418
-5.17481 10.7082 2.01902 -0.569189 0.8219 0.0224712
-6.05613 10.0854 2.91535 -0.557074 0.830193 0.021156
-7.06271 9.39866 3.58153 -0.552192 0.833462 0.0206299
-8.09438 8.70679 4.29831 -0.542407 0.839823 0.0221801
-8.54808 8.40792 4.54945 -0.535857 0.844097 0.0188869
-8.88091 8.22104 3.6371 -0.534733 0.844628 0.0257856
-7.79637 8.93898 2.87952 -0.540994 0.84061 0.0264479
-6.86908 9.56529 2.23974 -0.549396 0.835104 0.0276575
-6.16409 10.0539 1.50066 -0.555973 0.830818 0.0252254
-5.42115 10.5724 0.962015 -0.557476 0.829148 0.0416473
-4.74861 11.0696 0.213009 -0.567634 0.822419 0.0376521
-4.27627 11.4331 -0.647609 -0.590747 0.804972 0.054202
-3.68145 11.9777 -1.79975 -0.602009 0.793696 0.0873603
-3.07101 12.5875 -2.78723 -0.623622 0.773519 0.11298
-2.50637 13.2236 -3.85031 -0.658739 0.740735 0.125945
-2.10956 13.7611 -4.76774 -0.712144 0.676596 0.187266
-1.72102 14.3889 -5.61232 -0.751058 0.643559 0.147455
-1.56414 14.8175 -6.60724 -0.74728 0.643616 0.165319
-1.53694 15.125 -7.67869 -0.740876 0.648631 0.1743
-1.79948 15.1465 -8.84349 -0.737917 0.650246 0.180717
-2.25183 14.8945 -9.82892 -0.748107 0.641842 0.168424
-3.03961 14.2137 -10.6199 -0.71263 0.683252 0.159015
-3.7891 13.5449 -11.0661 -0.712447 0.686862 0.143653
-4.67178 12.7174 -11.2225 -0.678543 0.721763 0.135502
-5.48345 12.0172 -11.3498 -0.656509 0.744511 0.121243
-6.2725 11.3343 -11.3497 -0.630578 0.768763 0.106655
-7.10013 10.6454 -11.2445 -0.61342 0.781852 0.110607
-8.02002 9.93212 -11.1931 -0.598673 0.796976 0.079394
-9.30393 8.95398 -10.8496 -0.589036 0.805233 0.0680952
-10.3531 8.18229 -10.6509 -0.575558 0.815772 0.0566382
-11.2738 7.50867 -10.1464 -0.563399 0.82449 0.0528854
-12.1602 6.87313 -9.66622 -0.556841 0.829439 0.0442546
-12.8807 6.35765 -9.07468 -0.552747 0.832033 0.0464918
-13.6621 5.81091 -8.46219 -0.551695 0.833189 0.0377511
-14.1255 5.4607 -7.39265 -0.540664 0.840238 0.0409672
-14.4637 5.18102 -6.062 -0.536511 0.842938 0.0401339
-14.5951 5.04121 -4.88971 -0.532596 0.845304 0.0424049
-14.8361 4.83711 -3.80286 -0.531141 0.846275 0.0413206
-14.7819 4.82178 -2.74571 -0.527813 0.848492 0.0383914
-14.7141 4.80972 -1.55693 -0.522645 0.851682 0.0384781
-14.4679 4.90617 -0.294731 -0.520261 0.853234 0.0363102
-14.1362 5.06465 0.780117 -0.520105 0.853551 0.0306274
-13.4206 5.46724 1.80017 -0.521323 0.852846 0.0295768
-12.8235 5.79934 2.73522 -0.523793 0.851485 0.0247926
-12.1261 6.20775 3.46514 -0.52426 0.85119 0.0250368
-11.3942 6.64028 4.06019 -0.522156 0.85246 0.0258001
-10.2917 7.3176 4.1635 -0.525301 0.850645 0.021482
-9.36158 7.91184 3.79673 -0.53695 0.843284 0.0236075
-9.24028 7.99039 3.75071 -0.536001 0.8439 0.0231283
9.8837 10.5894 8.33288 0.661597 0.749677 0.016576
10.579 10.0042 7.37223 0.651837 0.758329 0.00677284
10.9619 9.68899 6.43489 0.64907 0.76055 0.0164704
11.1669 9.53845 5.26248 0.648056 0.761476 0.0133116
11.0762 9.63199 4.1801 0.647437 0.762081 0.00756809
10.7318 9.93678 3.11362 0.654273 0.756254 0.00243647
10.2532 10.3525 2.25916 0.655885 0.754849 -0.00422033
9.46488 11.0431 1.58142 0.662254 0.749254 -0.00626841
8.58731 11.813 1.12148 0.661778 0.749373 -0.0220254
7.73828 12.5883 1.18798 0.67457 0.737691 -0.0276838
6.84196 13.4588 1.6429 0.699136 0.714287 -0.0309394
6.04978 14.295 2.6169 0.719716 0.692466 -0.0460916
5.70416 14.7472 3.58695 0.738472 0.672699 -0.043316
5.45869 15.1314 4.94283 0.766198 0.641508 -0.0375142
5.50461 15.1359 6.21335 0.799406 0.600093 -0.0289505
5.71311 14.9014 7.45319 0.799458 0.600667 -0.00812673
6.19208 14.2792 8.72222 0.773939 0.632637 0.00184983
6.83127 13.5538 9.31879 0.747087 0.664408 -0.0156035
7.59799 12.718 9.72627 0.712404 0.701363 -0.000841752
8.34614 11.9937 9.55136 0.699212 0.714846 0.0082003
9.12274 11.2604 9.078 0.684731 0.728495 0.0209554
9.77041 10.6868 8.44629 0.661597 0.749676 0.016576
9.25622 11.1654 7.65178 0.674404 0.738045 0.0174793
9.86429 10.6398 6.92823 0.665969 0.745808 0.0159981
10.2843 10.2876 5.93856 0.659497 0.751543 0.0157196
10.3519 10.2482 4.74646 0.65382 0.756549 0.0120062
10.0356 10.5385 3.60242 0.661291 0.750082 0.00815385
9.3588 11.1397 2.68917 0.663208 0.748428 0.00328011
8.4188 11.9851 2.12401 0.675649 0.737163 -0.00429262
7.44651 12.9084 2.41043 0.696081 0.717618 -0.0142463
6.67232 13.6959 3.25698 0.720506 0.69311 -0.021665
6.28071 14.1386 4.20041 0.73606 0.676257 -0.0298861
6.1101 14.3533 5.71055 0.780175 0.625434 -0.011983
6.26561 14.1959 6.89873 0.752301 0.658555 -0.00259962
6.6444 13.7441 8.00678 0.757633 0.652618 -0.00907783
7.28133 13.0501 8.56753 0.72624 0.68743 0.00395061
8.25467 12.0947 8.50371 0.695986 0.717969 0.0110939
9.00339 11.397 7.91411 0.685023 0.728351 0.0156316
8.46098 11.9163 7.2047 0.682771 0.730615 0.0051747
7.7146 12.6296 7.59746 0.692308 0.7214 0.0170747
7.05501 13.3059 7.16375 0.736202 0.676762 0.000788815
6.87479 13.5084 5.98957 0.730582 0.682808 0.00488942
6.91973 13.4566 4.78088 0.72939 0.683854 -0.0116435
7.38134 12.9689 3.77526 0.704369 0.70949 -0.0039723
8.04924 12.3344 3.29917 0.6806 0.732652 -0.00211362
8.87265 11.5741 3.56549 0.670432 0.741958 0.00175545
9.50048 11.0017 4.38511 0.661292 0.750082 0.00815393
9.588 10.907 5.48515 0.66726 0.744719 0.0100385
8.94912 11.4689 6.62009 0.673488 0.739015 0.0164581
8.65901 11.733 6.95932 0.682771 0.730614 0.00517532
-15.5221 4.44312 -4.55776 -0.531761 0.846104 0.0365108
-15.6937 4.3843 -5.71571 -0.534836 0.844271 0.0339394
-15.4035 4.54995 -5.28997 -0.533878 0.844764 0.0367221
-15.4357 4.50811 -4.79674 -0.533878 0.844764 0.036722
-16.8446 3.62722 -4.90831 -0.533276 0.845325 0.0322668
-16.2667 4.07406 -7.02811 -0.534836 0.844271 0.0339395
-15.7075 4.49174 -8.66134 -0.540581 0.840764 0.0297833
-15.6058 4.62447 -10.7194 -0.546936 0.83681 0.0243279
-16.0231 4.40064 -12.3347 -0.549927 0.834799 0.0262766
-16.8695 3.88741 -13.6314 -0.541526 0.840378 0.0226837
-17.8761 3.27162 -14.8371 -0.540338 0.841192 0.020763
-18.9058 2.63919 -16.0488 -0.540448 0.841165 0.018896
-20.1814 1.84316 -17.1646 -0.537177 0.843324 0.0156877
-18.9071 2.67732 -18.215 -0.540087 0.841497 0.0137074
-17.5382 3.56895 -18.5951 -0.545477 0.838022 0.0131822
-16.1586 4.47742 -18.9337 -0.552633 0.833164 0.0203642
-14.6697 5.49307 -19.2798 -0.570313 0.8213 0.013639
-13.3521 6.42507 -19.7096 -0.579836 0.814611 0.013935
-11.6976 7.6573 -20.2144 -0.607376 0.794266 0.0140095
-10.347 8.72361 -20.2902 -0.631991 0.774892 0.0110234
-9.03162 9.82604 -20.5144 -0.658099 0.752661 0.0195269
-7.78406 10.9781 -20.4771 -0.697818 0.715413 0.0351296
-6.47888 12.2832 -20.5059 -0.7256 0.68609 0.0485475
-5.23563 13.6573 -20.5053 -0.743657 0.66812 0.0243012
-4.12155 14.9436 -20.4054 -0.76488 0.644 0.014953
-2.95514 16.2386 -20.5127 -0.696499 0.716062 -0.0463078
-1.62237 17.2833 -20.5053 -0.515468 0.8444 -0.145559
0.0570117 17.1843 -20.4557 0.458493 0.865116 -0.203368
1.48363 16.1894 -20.5477 0.618391 0.776159 -0.123165
2.94726 14.9653 -20.4762 0.669168 0.73885 -0.0784521
4.16407 13.8309 -20.4031 0.685058 0.725188 -0.0692685
5.48116 12.5916 -20.4581 0.659222 0.749598 -0.0572024
6.79976 11.4703 -20.5957 0.626867 0.776915 -0.058313
8.35308 10.2339 -20.5058 0.613674 0.788107 -0.0450843
9.74849 9.19559 -20.4355 0.589062 0.807341 -0.0341159
11.1302 8.24372 -20.0204 0.571395 0.819863 -0.0365062
12.6002 7.2368 -19.7922 0.560975 0.826765 -0.0415717
14.2689 6.13807 -19.3983 0.555982 0.830485 -0.034326
15.6396 5.24485 -19.1501 0.547303 0.836174 -0.035671
17.1826 4.25673 -18.8718 0.543822 0.838361 -0.0375206
18.5719 3.37213 -18.6299 0.538256 0.842159 -0.0323587
19.9317 2.525 -18.0938 0.537748 0.842563 -0.0302322
21.6482 1.43972 -17.7391 0.538244 0.842298 -0.0287831
23.053 0.573759 -16.8856 0.536143 0.843665 -0.0279184
23.564 0.300741 -15.3491 0.533759 0.845184 -0.0276669
22.5277 1.00143 -14.1981 0.541494 0.840116 -0.0314557
21.1487 1.87001 -14.7312 0.541208 0.840269 -0.0322822
19.5174 2.90932 -15.0881 0.544684 0.837879 -0.0357504
18.0697 3.85276 -15.0865 0.546386 0.836575 -0.0400574
16.53 4.87848 -14.7594 0.548882 0.834795 -0.0429654
15.1533 5.84404 -13.8799 0.553455 0.831513 -0.0476799
14.4593 6.41018 -12.3328 0.561045 0.826049 -0.0535755
14.4019 6.56285 -10.6049 0.575298 0.816317 -0.0515533
14.5591 6.56759 -8.78011 0.580798 0.81251 -0.0499619
14.9729 6.36811 -6.95232 0.58121 0.813026 -0.0344025
15.3233 6.17626 -5.33286 0.585425 0.810284 -0.0267902
15.79 5.89178 -3.71202 0.582893 0.812295 -0.0199397
16.3855 5.50254 -1.97322 0.580232 0.814207 -0.0199445
17.2863 4.88968 -0.62491 0.569813 0.821712 -0.0100275
18.7413 3.92578 0.759544 0.550299 0.834894 -0.0111098
20.0363 3.08917 1.79652 0.547593 0.836678 -0.0105695
21.1628 2.37245 2.80661 0.541154 0.840877 -0.0087684
22.0935 1.78711 4.11506 0.53951 0.841948 -0.00721574
22.251 1.70221 6.31502 0.538311 0.842726 -0.00581457
22.7678 1.38171 8.15504 0.534445 0.845203 0.000821366
23.401 0.980272 9.64921 0.533433 0.845842 0.000441467
23.9347 0.647505 11.3073 0.529334 0.848405 -0.00372315
24.3119 0.415973 12.9737 0.526646 0.850084 0.000365615
24.2586 0.447211 14.6554 0.529333 0.848396 0.00547163
23.9654 0.622605 16.2903 0.53283 0.846218 0.00262002
23.2806 1.04555 17.8522 0.534467 0.845169 0.00571045
22.1103 1.77872 19.173 0.533219 0.84597 0.00346233
20.7239 2.65209 19.7338 0.535317 0.844641 0.00426765
19.1242 3.67036 20.2699 0.541103 0.840942 0.00384435
17.5951 4.66952 20.4613 0.552701 0.833365 0.00487671
16.2109 5.59271 20.5755 0.562758 0.826538 0.0117304
14.6575 6.66002 20.5867 0.576987 0.816642 0.0134946
13.2899 7.63033 20.5562 0.605246 0.79601 0.00675715
11.9352 8.65522 20.6184 0.601969 0.798386 0.0146173
10.6278 9.71735 20.4621 0.64749 0.761648 0.0254752
9.29984 10.8937 20.5708 0.686359 0.727199 0.00959637
8.09496 12.0917 20.4753 0.716492 0.697413 0.0159511
6.95357 13.401 20.4347 0.767477 0.640718 0.0214337
5.76711 14.909 20.5244 0.795491 0.605763 0.0156562
4.68823 16.3635 20.4827 0.80904 0.586391 0.0391514
3.60656 17.6558 20.4612 0.658912 0.699037 0.277817
2.02797 18.2462 20.4975 -0.00977265 0.994501 0.104266
0.38955 17.8472 20.5473 -0.495287 0.856732 0.0970352
-1.05171 16.4791 20.4534 -0.806974 0.590457 0.0124136
-2.03716 15.1036 20.3819 -0.804428 0.593604 0.0105921
-3.26323 13.5711 20.3529 -0.772251 0.635258 0.0086785
-4.3713 12.3223 20.4366 -0.725145 0.687931 -0.0133096
-5.64928 11.0704 20.4989 -0.68041 0.732212 -0.0301255
-6.91785 9.94821 20.5139 -0.648546 0.761161 -0.00462234
-8.27007 8.87636 20.5668 -0.611646 0.79104 -0.0120654
-10.0038 7.58201 20.6415 -0.592762 0.805369 0.00372214
-11.4448 6.58438 20.7231 -0.556639 0.830755 0.000381688
-12.8402 5.66499 20.7433 -0.543752 0.839246 0.000736755
-14.6374 4.51324 20.4946 -0.536176 0.844089 0.00512991
-16.2733 3.48178 20.1262 -0.529623 0.848135 0.012106
-17.8013 2.53895 20.0507 -0.524094 0.851634 0.0067473
-19.4514 1.53077 19.5631 -0.522989 0.852337 0.00216164
-20.7105 0.756683 18.2646 -0.532889 0.846121 0.00624507
-21.4694 0.307817 16.4529 -0.52391 0.851707 0.0105152
-21.4477 0.345543 14.6628 -0.522128 0.852722 0.0157396
-21.5763 0.309135 12.3937 -0.515964 0.856525 0.0120648
-21.4244 0.409779 10.7287 -0.515162 0.857088 0.00299194
-21.2956 0.487239 9.00726 -0.527598 0.849467 0.00676079
-20.7354 0.857991 7.22873 -0.523348 0.851979 0.0152353
-19.9301 1.395 5.56483 -0.515556 0.856414 0.027461
-19.2226 1.87342 4.07045 -0.517283 0.855327 0.0288386
-18.7398 2.21617 2.47984 -0.517759 0.855114 0.0265587
-18.3131 2.5436 0.274639 -0.51992 0.853853 0.0247655
-18.0124 2.78298 -1.50707 -0.522023 0.85253 0.0261689
-17.3295 3.25417 -2.96225 -0.527956 0.848806 0.028127
-16.8687 3.60654 -4.76495 -0.531883 0.846214 0.0319145
-15.2538 5.02305 -16.0614 -0.562298 0.826701 0.019671
-15.2139 5.05163 -16.1212 -0.562393 0.826641 0.0194629
-14.7761 5.3279 -15.217 -0.563129 0.826076 0.0219868
-13.8726 5.98607 -16.5811 -0.574587 0.818235 0.0184817
-13.8267 6.0205 -16.6515 -0.579361 0.814819 0.0202579
-12.5327 6.95873 -17.0814 -0.586348 0.809641 0.0260334
-13.2663 6.39704 -15.9454 -0.573776 0.818579 0.0266541
-13.9272 5.90332 -14.9345 -0.569023 0.821899 0.0263635
-14.3485 5.58844 -14.289 -0.562289 0.826418 0.0293888
-13.9048 5.86227 -13.3873 -0.568307 0.822205 0.0317364
-13.214 6.3826 -14.4525 -0.572554 0.819279 0.0310403
-12.3625 7.03565 -15.7711 -0.584158 0.810877 0.0351756
-11.6859 7.57153 -16.8357 -0.597528 0.801376 0.0275092
-11.3522 7.8385 -17.3652 -0.597254 0.801599 0.0269677
-10.2791 8.67927 -17.5327 -0.624564 0.780109 0.036748
-11.0024 8.06001 -16.3392 -0.616255 0.786711 0.0362752
-11.7004 7.49445 -15.2294 -0.592323 0.804902 0.0358636
-12.3581 6.97084 -14.1949 -0.578174 0.815273 0.0323372
-13.1309 6.38146 -12.9908 -0.569181 0.821329 0.0381096
-13.6193 6.01232 -12.2354 -0.563383 0.825347 0.0374287
-12.3998 6.86676 -12.5311 -0.569942 0.820429 0.0454164
-11.6323 7.47072 -13.7533 -0.583119 0.811351 0.0410127
-10.8739 8.08521 -14.9483 -0.586665 0.808834 0.0401393
-10.071 8.78278 -16.274 -0.616421 0.785747 0.0512488
-9.53163 9.27192 -17.1907 -0.625183 0.779073 0.0467993
-8.55561 10.0892 -17.2544 -0.6489 0.758791 0.056255
-9.24182 9.43406 -16.0587 -0.621124 0.781599 0.0575214
-9.84924 8.87124 -15.0244 -0.610096 0.790008 0.0605755
-10.6166 8.20633 -13.7635 -0.594876 0.802164 0.0515181
-10.9169 7.95954 -13.2901 -0.583049 0.811032 0.0477594
-9.5784 8.9928 -13.8505 -0.602693 0.795456 0.063327
-8.96039 9.56046 -14.8957 -0.623068 0.779502 0.0645116
-8.21873 10.29 -16.191 -0.647028 0.758402 0.0786207
-7.62979 10.9031 -17.2661 -0.669127 0.740751 0.0596381
-7.42181 11.122 -17.6516 -0.668765 0.741256 0.057373
-6.55438 11.9525 -17.6382 -0.695002 0.714861 0.0771112
-7.30464 11.0953 -16.1831 -0.665718 0.742362 0.0756166
-7.86967 10.482 -15.1426 -0.649828 0.755043 0.08737
-8.4428 9.90385 -14.1363 -0.620265 0.780737 0.0756395
-7.58859 10.5906 -13.972 -0.642287 0.761482 0.0872557
-7.03398 11.1989 -15.0006 -0.660206 0.74573 0.0895241
-6.35087 11.9828 -16.2985 -0.688653 0.718891 0.094618
-5.82838 12.6441 -17.367 -0.720012 0.688089 0.0900897
-5.66165 12.8662 -17.7271 -0.735602 0.669708 0.101891
-4.86541 13.7299 -17.6871 -0.748129 0.651408 0.126376
-5.41427 12.9252 -16.4577 -0.705362 0.698788 0.118994
-5.94988 12.2384 -15.3785 -0.682562 0.724067 0.0991715
-6.50118 11.5789 -14.3005 -0.661384 0.743933 0.0955776
-5.71654 12.2549 -14.097 -0.666458 0.736517 0.115651
-5.18498 12.9313 -15.1727 -0.694204 0.711185 0.110896
-4.59156 13.7984 -16.4747 -0.727235 0.674002 0.129809
-4.11572 14.5712 -17.5939 -0.755479 0.64016 0.139454
-4.07812 14.6387 -17.6881 -0.766299 0.627282 0.138933
-3.33589 15.5326 -17.6207 -0.770915 0.615635 0.163349
-3.83574 14.6298 -16.3916 -0.737687 0.658523 0.148883
-4.3065 13.8669 -15.2972 -0.720333 0.67609 0.154993
-4.78713 13.1314 -14.21 -0.690894 0.70868 0.142966
-4.79568 13.1203 -14.1925 -0.672797 0.728847 0.126985
-4.13802 13.7283 -13.822 -0.71936 0.68135 0.135217
-3.7218 14.3973 -14.8158 -0.730233 0.664178 0.160087
-3.17352 15.332 -16.1507 -0.74753 0.644905 0.159049
-2.7001 16.2245 -17.3046 -0.765372 0.61112 0.201836
-2.50961 16.5858 -17.7674 -0.767717 0.635772 0.0800305
-1.55021 17.499 -17.8834 -0.521609 0.841313 0.14183
-2.08217 16.8061 -16.885 -0.720632 0.662284 0.205108
-2.53213 15.9875 -15.8258 -0.744919 0.642273 0.180504
-2.92834 15.2887 -14.8499 -0.735588 0.657906 0.161461
-3.32982 14.6026 -13.8461 -0.738432 0.657333 0.150437
-3.42139 14.4474 -13.6175 -0.734245 0.661865 0.151061
-2.74541 15.1559 -13.3777 -0.740259 0.656124 0.14669
-2.33198 15.8452 -14.3828 -0.736024 0.659366 0.153316
-1.82164 16.6811 -15.58 -0.687222 0.707795 0.163563
-1.37324 17.396 -16.5271 -0.641047 0.740062 0.203388
-0.573771 17.6712 -17.502 0.128287 0.991707 -0.00776513
-0.404561 17.6384 -17.6908 0.271137 0.961371 -0.0474454
0.838319 17.0513 -17.7649 0.553274 0.82855 -0.0859776
0.147128 17.5437 -16.7839 0.290737 0.951109 -0.104233
-0.691671 17.6059 -15.832 -0.411239 0.903631 0.119719
-1.32621 17.0428 -14.8524 -0.712394 0.690216 0.126876
-1.78568 16.3516 -13.8213 -0.749807 0.648374 0.131914
-2.23305 15.6025 -12.738 -0.75154 0.646332 0.132071
-1.61435 16.2701 -12.3926 -0.764856 0.633756 0.115536
-1.17308 16.972 -13.4387 -0.738563 0.663371 0.120266
-0.501063 17.5424 -14.5016 -0.392047 0.91767 0.0646635
0.318989 17.595 -15.4432 0.283828 0.951144 -0.121515
1.08652 17.0272 -16.5238 0.597978 0.796097 -0.0930149
1.75242 16.354 -17.6582 0.628168 0.771521 -0.100799
2.63146 15.6141 -17.5771 0.688743 0.716732 -0.109216
1.93162 16.405 -16.2921 0.656717 0.744789 -0.118375
1.40732 17.0307 -15.3137 0.552153 0.821764 -0.140822
0.688379 17.5659 -14.2923 0.27522 0.96027 -0.0462022
-0.161097 17.6045 -13.3373 -0.252981 0.967055 0.0283741
-0.904838 17.1072 -12.2813 -0.814551 0.574432 0.0808405
-1.18981 16.6464 -11.5886 -0.775887 0.619083 0.121394
-0.782921 16.9367 -10.7763 -0.749281 0.636101 0.184265
-0.183902 17.5093 -11.7467 -0.308501 0.947329 0.085996
0.787413 17.573 -12.8475 0.110073 0.993609 -0.0250044
1.55657 17.1569 -13.9001 0.588392 0.802291 -0.10062
2.11804 16.4982 -14.9155 0.657197 0.737982 -0.153214
2.64893 15.835 -15.9403 0.674195 0.73138 -0.102686
3.14819 15.2051 -16.9196 0.69664 0.711306 -0.0934644
3.45408 14.8263 -17.5226 0.695595 0.712322 -0.0935161
4.32042 13.9804 -17.5537 0.691216 0.718202 -0.0800322
3.75995 14.662 -16.4602 0.702334 0.705804 -0.0925619
3.20252 15.3755 -15.3571 0.697437 0.708624 -0.106926
2.68894 16.0485 -14.3284 0.707863 0.698356 -0.105966
2.17414 16.6999 -13.3234 0.652574 0.750573 -0.103866
1.60843 17.2911 -12.3112 0.527013 0.846512 -0.0753303
0.756412 17.5534 -11.2559 -0.0188972 0.997331 0.0705294
-0.130255 17.2607 -10.1944 -0.481505 0.843033 0.239684
-0.271238 17.0956 -9.95619 -0.513618 0.816961 0.262242
0.175313 17.1307 -8.96803 -0.473595 0.867349 0.153015
0.985129 17.5125 -9.98719 0.0104409 0.975245 0.22088
1.74635 17.2531 -10.951 0.718692 0.693314 -0.0528929
2.38493 16.6168 -12.0633 0.676998 0.734126 -0.052284
2.97378 15.916 -13.2077 0.716315 0.690886 -0.0978261
3.4725 15.2582 -14.2219 0.715957 0.691483 -0.0962108
4.15592 14.3849 -15.579 0.710697 0.698007 -0.0877283
4.67093 13.7528 -16.5725 0.696652 0.712519 -0.0836199
5.23555 13.0951 -17.6519 0.67384 0.73575 -0.0679111
6.1936 12.2273 -17.7496 0.66679 0.74172 -0.0724093
5.50001 12.9687 -16.4926 0.681058 0.728446 -0.0743388
4.77777 13.8138 -15.1384 0.696026 0.713436 -0.0809673
4.13569 14.6175 -13.8801 0.71817 0.690802 -0.0838128
3.57427 15.3494 -12.7254 0.719325 0.689566 -0.0840902
3.07361 15.9954 -11.6903 0.705937 0.705793 -0.0592386
2.36979 16.7156 -10.4362 0.663504 0.745886 -0.0584467
1.74228 17.207 -9.40862 0.437685 0.899128 0.0012937
0.906781 17.4254 -8.39869 -0.164744 0.984611 0.0583217
0.267635 16.9995 -7.44478 -0.617837 0.776629 0.122983
0.186976 16.6537 -5.48371 -0.773017 0.626529 0.0995299
0.719643 17.3256 -6.58903 -0.645179 0.764005 -0.00636401
1.55297 17.3309 -7.6353 0.324522 0.944087 -0.0581789
2.34829 16.8129 -8.78916 0.605906 0.794553 -0.0395397
2.95583 16.235 -9.85145 0.67991 0.731022 -0.0576995
3.58441 15.5264 -11.0487 0.714822 0.696917 -0.0577569
4.12115 14.8547 -12.1373 0.715489 0.694269 -0.0778853
4.68315 14.1307 -13.2888 0.712666 0.695145 -0.0942379
5.19015 13.5147 -14.2821 0.684398 0.724037 -0.0858484
5.8542 12.7624 -15.4986 0.659235 0.747716 -0.0795668
6.51356 12.0387 -16.6873 0.661518 0.745801 -0.0785742
7.04653 11.4945 -17.6231 0.650484 0.756839 -0.0637574
8.00001 10.7156 -17.6222 0.624874 0.778691 -0.0563185
7.13838 11.5609 -16.1557 0.642282 0.761788 -0.0845788
6.38187 12.3662 -14.82 0.654249 0.752163 -0.0788054
5.81579 12.9777 -13.8023 0.684758 0.724107 -0.0823119
5.19568 13.7003 -12.6175 0.695795 0.714284 -0.0752857
4.59426 14.4514 -11.4038 0.712393 0.697248 -0.0796283
4.0113 15.1668 -10.2418 0.702946 0.707749 -0.0704162
3.38306 15.903 -9.02304 0.67991 0.731022 -0.0577
2.63064 16.6372 -7.70583 0.643466 0.764977 -0.027597
1.85738 17.2833 -6.50768 0.571001 0.820731 -0.0189339
1.07514 17.52 -5.55148 -0.310858 0.950125 -0.0250902
0.545502 16.9422 -4.55014 -0.822566 0.546537 0.157104
0.141177 16.124 -3.44604 -0.778557 0.603536 0.172028
-0.273298 15.2935 -2.28463 -0.764576 0.623128 0.164726
-0.710794 14.4901 -1.10742 -0.71735 0.674287 0.175344
-1.4013 13.6631 0.400222 -0.669067 0.738859 0.0802352
-1.92458 13.1229 1.47945 -0.653305 0.756714 0.0240222
-2.47712 12.6175 2.53091 -0.647462 0.761876 0.0183859
-3.20724 12.0412 3.81514 -0.599253 0.800494 -0.0102444
-3.86669 11.5665 4.93602 -0.589026 0.807923 -0.0175868
-4.61267 11.0621 6.14404 -0.582841 0.812346 -0.0197301
-5.54582 10.4168 7.65769 -0.583725 0.811872 -0.0113302
-6.22491 9.95748 8.72169 -0.56961 0.821642 -0.0211941
-7.01393 9.45127 9.91365 -0.572656 0.819224 -0.0306171
-7.73891 8.98012 11.0124 -0.58042 0.813798 -0.0290811
-8.41972 8.53306 12.0408 -0.576573 0.816648 -0.0254769
-9.08128 8.09157 13.042 -0.585338 0.810495 -0.0218419
-9.81295 7.61007 14.1293 -0.563422 0.825503 -0.0331895
-10.648 7.0672 15.3612 -0.555543 0.831325 -0.0164393
-11.3465 6.61825 16.3612 -0.553374 0.832872 -0.0100245
-12.2232 6.05028 17.6306 -0.542905 0.839773 -0.00605534
-12.4991 5.87457 18.0191 -0.543169 0.839604 -0.00562218
-11.3726 6.61444 17.9751 -0.559878 0.82853 -0.00864059
-10.6964 7.0638 16.9934 -0.565908 0.824295 -0.0169312
-9.88494 7.59529 15.8199 -0.563436 0.825948 -0.018722
-8.93141 8.24494 14.3868 -0.5794 0.814718 -0.0230082
-8.23659 8.70959 13.3381 -0.585686 0.81015 -0.0250668
-7.55789 9.15838 12.3101 -0.581484 0.812986 -0.0305086
-6.75601 9.68451 11.0878 -0.590402 0.805861 -0.0448752
-6.06924 10.1264 10.043 -0.580911 0.812705 -0.0453018
-5.40904 10.5516 9.03399 -0.584704 0.810633 -0.0315599
-4.58504 11.1319 7.70858 -0.607478 0.793272 -0.0411089
-3.94926 11.5641 6.68848 -0.609986 0.791418 -0.0396852
-3.23019 12.0607 5.50993 -0.607433 0.793496 -0.0372639
-2.55382 12.5546 4.34996 -0.643774 0.764997 -0.0182753
-1.8279 13.1801 2.99918 -0.665284 0.746568 -0.00580382
-1.27992 13.6659 1.94653 -0.683527 0.728961 0.0375087
-0.741621 14.2959 0.727884 -0.700258 0.712504 0.0444591
-0.166016 14.9941 -0.588986 -0.759936 0.646659 0.0657993
0.248427 15.7921 -1.77587 -0.761086 0.626069 0.169664
0.615144 16.5408 -2.77166 -0.774472 0.607256 0.177294
0.988775 17.2942 -3.75936 -0.733019 0.64756 0.208206
1.70803 17.4082 -4.75758 0.436592 0.89926 -0.0267999
2.3758 16.9448 -5.72167 0.579778 0.813169 -0.0511348
3.08541 16.3006 -6.90289 0.651062 0.757857 -0.0420884
3.76203 15.6007 -8.12891 0.684495 0.727913 -0.040132
4.47461 14.774 -9.51277 0.70271 0.708518 -0.0648175
5.11551 14.0107 -10.7583 0.691427 0.716589 -0.0918048
5.61705 13.3951 -11.75 0.692636 0.714369 -0.0996602
6.20318 12.7364 -12.8512 0.661577 0.745329 -0.0824605
6.80806 12.0847 -13.9433 0.654427 0.752537 -0.0735733
7.3871 11.4806 -14.9611 0.651697 0.754678 -0.0758419
8.16675 10.6942 -16.2934 0.634994 0.768519 -0.0784864
9.02358 9.88756 -17.7101 0.618348 0.78315 -0.0657483
9.04413 9.86857 -17.7439 0.610812 0.789768 -0.0563481
9.76616 9.37252 -17.2866 0.574169 0.816099 -0.0656622
8.95205 10.1093 -15.9684 0.606285 0.791608 -0.0759928
8.36907 10.6722 -14.9995 0.633823 0.769531 -0.078043
7.74625 11.2854 -13.9462 0.637094 0.767591 -0.0701132
7.15928 11.8891 -12.9172 0.65313 0.752614 -0.0836251
6.60164 12.4908 -11.9119 0.656844 0.748842 -0.0882717
5.89189 13.2792 -10.6031 0.679378 0.728058 -0.0915259
5.29879 13.9749 -9.46778 0.692056 0.719039 -0.0635771
4.74927 14.614 -8.40757 0.694708 0.715783 -0.0709683
4.23478 15.2008 -7.41012 0.687821 0.723467 -0.0591418
3.649 15.828 -6.32776 0.6656 0.744821 -0.047095
3.08244 16.4183 -5.27974 0.665988 0.74464 -0.0443975
2.42378 16.9551 -4.18622 0.56161 0.827365 0.00786797
1.68638 17.4163 -3.06164 0.178571 0.981525 0.0687097
1.01431 16.8177 -2.00224 -0.772493 0.608718 0.18088
0.629533 16.0109 -0.905879 -0.755825 0.628584 0.183332
0.159441 15.2597 0.409089 -0.748309 0.659034 0.0755514
-0.315992 14.6886 1.53479 -0.717096 0.696623 0.0221476
-0.780377 14.1696 2.59905 -0.727749 0.685831 0.00416664
-1.40812 13.5476 3.90301 -0.660465 0.750692 0.0157641
-2.0758 12.9703 5.15603 -0.656882 0.753714 -0.0205287
-2.76313 12.4589 6.35206 -0.610744 0.790434 -0.0469761
-3.62577 11.8736 7.74784 -0.613308 0.788428 -0.0472635
-4.3136 11.417 8.83542 -0.618615 0.78452 -0.0429341
-4.9653 10.9425 9.89087 -0.625779 0.778196 -0.0530163
-5.66233 10.481 10.973 -0.598779 0.799072 -0.054293
-6.4172 9.99785 12.1306 -0.596556 0.80139 -0.0435218
-7.2325 9.4419 13.3856 -0.593868 0.803704 -0.0371494
-7.90697 8.9868 14.4157 -0.588856 0.807732 -0.02861
-8.6163 8.4952 15.5037 -0.586478 0.809727 -0.0196406
-9.32996 8.00738 16.5785 -0.58705 0.80926 -0.0216837
-10.1691 7.44277 17.7996 -0.565954 0.824254 -0.0173578
-8.94971 8.31234 17.5862 -0.589607 0.807445 -0.0198997
-8.28471 8.77362 16.5842 -0.597615 0.801252 -0.0291736
-7.58034 9.28175 15.4958 -0.611441 0.790935 -0.0236828
-6.93434 9.7259 14.4988 -0.602735 0.796794 -0.0427867
-6.28771 10.168 13.4992 -0.607238 0.793463 -0.0409728
-5.41043 10.7758 12.1259 -0.617976 0.783175 -0.0688633
-4.70476 11.2394 11.0333 -0.619927 0.781129 -0.0743508
-4.00801 11.7397 9.90421 -0.64178 0.764598 -0.059234
-3.23215 12.2721 8.66277 -0.635909 0.765795 -0.0957958
-2.59344 12.6966 7.64982 -0.655855 0.747535 -0.105094
-1.91455 13.1895 6.49971 -0.665863 0.744723 -0.044877
-1.23362 13.714 5.2806 -0.67748 0.735113 -0.0250948
-0.548986 14.3675 3.87969 -0.727438 0.686173 0.000637888
0.106551 15.115 2.34554 -0.729239 0.684248 0.00395888
0.624241 15.726 1.04025 -0.750012 0.661185 0.0177727
1.08849 16.3911 -0.317385 -0.752134 0.646297 0.12882
1.5694 17.1285 -1.35045 -0.468734 0.834741 0.288958
2.31913 17.0463 -2.37141 0.471296 0.881688 0.0225157
3.00981 16.5452 -3.50228 0.61326 0.789467 -0.0255648
3.74565 15.8493 -4.84603 0.667929 0.74319 -0.0392428
4.31955 15.2375 -5.94835 0.682834 0.727697 -0.064768
4.87437 14.6196 -7.01318 0.692248 0.71892 -0.0628221
5.43112 13.9853 -8.08282 0.686948 0.722838 -0.0748855
6.16909 13.1594 -9.46419 0.67716 0.731283 -0.0817281
6.72184 12.5484 -10.4825 0.662741 0.743635 -0.0882096
7.39307 11.8316 -11.6835 0.647978 0.757167 -0.0825994
8.06027 11.1336 -12.8578 0.64254 0.762011 -0.0805104
8.64477 10.5681 -13.8387 0.622145 0.779786 -0.069786
9.29546 9.95299 -14.9159 0.600306 0.795991 -0.0776586
9.93013 9.37387 -15.9448 0.591491 0.80268 -0.0764379
10.6948 8.72564 -17.1352 0.57841 0.813323 -0.0628266
11.6853 8.0212 -17.083 0.571994 0.818771 -0.0493662
10.9627 8.62233 -15.9724 0.588935 0.806049 -0.0586548
10.2902 9.20052 -14.9195 0.595169 0.800971 -0.064951
9.62999 9.79119 -13.8639 0.60847 0.790796 -0.0663718
8.93459 10.4369 -12.7207 0.62494 0.777064 -0.0749802
8.33753 11.0221 -11.7121 0.634745 0.76876 -0.0781481
7.59819 11.7885 -10.4211 0.655815 0.750613 -0.0805384
6.93505 12.4937 -9.22646 0.655836 0.750903 -0.0776107
6.3766 13.0974 -8.20239 0.66844 0.739645 -0.0781817
5.70094 13.8436 -6.92903 0.674153 0.734676 -0.0759528
5.03598 14.5839 -5.66401 0.682 0.728505 -0.0644718
4.40745 15.2576 -4.45574 0.675867 0.735554 -0.0465108
3.76535 15.9143 -3.23737 0.656839 0.752745 -0.0440085
3.04919 16.5571 -1.93933 0.603213 0.797246 -0.0230904
2.46784 16.9335 -0.877989 0.477495 0.878409 0.019901
1.73088 16.876 0.175527 -0.549559 0.822785 -0.14495
1.19689 16.3975 1.36228 -0.761337 0.648357 0.000492544
0.627723 15.724 2.84408 -0.778616 0.62748 -0.00503208
0.131924 15.1443 4.05189 -0.777266 0.62733 -0.0481093
-0.374723 14.6174 5.18874 -0.775645 0.626323 -0.0780716
-0.955859 14.1172 6.32928 -0.74 0.665518 -0.0973902
-1.69948 13.5579 7.63714 -0.707842 0.698868 -0.10268
-2.45238 13.0021 8.89871 -0.6838 0.720278 -0.116689
-3.15316 12.4863 10.0433 -0.656499 0.750959 -0.0712088
-3.76418 12.0231 11.0685 -0.648431 0.760514 -0.0339987
-4.49535 11.5331 12.2395 -0.641539 0.761 -0.0964726
-5.17495 11.0698 13.3031 -0.647754 0.759008 -0.0657378
-5.83717 10.6042 14.3439 -0.642426 0.7635 -0.0660082
-6.54029 10.1038 15.4547 -0.627033 0.776364 -0.0639427
-7.21688 9.5991 16.5191 -0.625013 0.780094 -0.0284958
-7.86371 9.12356 17.5208 -0.598788 0.800378 -0.029107
-7.88807 9.10654 17.5574 -0.599841 0.799708 -0.0256534
-6.92249 9.87629 17.6352 -0.635844 0.771234 -0.0300099
-6.1913 10.4361 16.4885 -0.654181 0.755369 -0.0382703
-5.57511 10.9143 15.4877 -0.666137 0.743791 -0.0551058
-4.87372 11.4399 14.3488 -0.688818 0.720014 -0.0843158
-4.23778 11.8947 13.3517 -0.6868 0.719809 -0.100898
-3.49676 12.3985 12.1265 -0.705359 0.701868 -0.0992486
-2.78871 12.9431 10.9092 -0.721516 0.682711 -0.115416
-2.13291 13.4552 9.82326 -0.691745 0.716376 -0.0910705
-1.36575 14.0203 8.57927 -0.701936 0.704766 -0.102912
-0.697175 14.5675 7.35353 -0.766508 0.633838 -0.103511
-0.085043 15.0773 6.17256 -0.789025 0.611945 -0.0544358
0.513794 15.722 4.7917 -0.787586 0.612106 -0.070958
0.999399 16.2332 3.65094 -0.810916 0.584385 -0.0301576
1.44529 16.7316 2.57032 -0.780855 0.623655 -0.0363277
1.88995 17.2175 1.47305 -0.70177 0.707722 -0.0815406
2.66743 17.0207 0.427558 0.516293 0.777645 -0.35876
3.30113 16.438 -0.709518 0.612849 0.779189 -0.131457
3.93562 15.8426 -1.91297 0.641707 0.763566 -0.0719682
4.51195 15.2609 -3.0107 0.671479 0.73941 -0.0488721
5.1877 14.5519 -4.29023 0.674663 0.736022 -0.0556872
5.83032 13.8591 -5.50341 0.671038 0.738456 -0.0662674
6.56307 13.071 -6.86565 0.663874 0.744031 -0.0754325
7.35415 12.2143 -8.33484 0.651114 0.755084 -0.0767974
7.92694 11.6211 -9.35602 0.643481 0.761461 -0.0781687
8.51102 11.0209 -10.3739 0.633228 0.769115 -0.0865128
9.13483 10.4048 -11.4404 0.62262 0.778591 -0.0783592
9.83433 9.7433 -12.6028 0.613997 0.786506 -0.0664554
10.5184 9.1318 -13.6983 0.596199 0.800088 -0.0663738
11.2769 8.47182 -14.8891 0.593955 0.802095 -0.0621378
12.0866 7.80047 -16.1273 0.577439 0.814613 -0.0545003
12.6273 7.37333 -16.936 0.569781 0.820173 -0.0516285
13.471 6.81687 -16.6286 0.559994 0.827065 -0.0486801
12.7435 7.38304 -15.5487 0.565298 0.82284 -0.058076
11.8817 8.08088 -14.2485 0.586193 0.807877 -0.0609263
11.2401 8.62934 -13.2526 0.596653 0.799977 -0.0635765
10.6006 9.18141 -12.2463 0.59484 0.8017 -0.0586697
9.93345 9.79269 -11.1688 0.618585 0.782054 -0.0757935
9.25014 10.4509 -10.0202 0.628107 0.773997 -0.0800645
8.6522 11.0515 -8.9859 0.635964 0.767855 -0.0771298
8.00758 11.7021 -7.85212 0.639626 0.765044 -0.0747397
7.36219 12.3744 -6.69822 0.655184 0.752174 -0.0704832
6.81876 12.9455 -5.70823 0.656889 0.750923 -0.0678998
6.07077 13.7415 -4.32376 0.669101 0.74066 -0.0610444
5.53429 14.3062 -3.32724 0.673248 0.737269 -0.056315
4.92684 14.9493 -2.17629 0.671244 0.739057 -0.0567996
4.37617 15.5322 -1.11035 0.666727 0.741872 -0.0714232
3.79076 16.1729 0.00146542 0.612849 0.779189 -0.131457
3.23251 16.9232 1.07382 0.555002 0.771104 -0.312045
2.63507 17.6635 1.97376 0.226983 0.913885 -0.336591
1.94939 17.384 3.10313 -0.773416 0.633002 -0.0337163
1.36958 16.8413 4.36088 -0.791503 0.59911 -0.12079
0.879034 16.3756 5.47321 -0.822377 0.557235 -0.114825
0.329841 15.7563 6.76825 -0.848673 0.519091 -0.10148
-0.266989 15.2163 7.96154 -0.796351 0.584578 -0.155224
-0.854354 14.7086 9.07124 -0.759502 0.635325 -0.139706
-1.68283 14.0764 10.4446 -0.733768 0.662842 -0.14908
-2.40034 13.4734 11.6958 -0.73671 0.669423 -0.0955586
-3.00383 12.9905 12.7466 -0.714076 0.692876 -0.100091
-3.61966 12.555 13.7912 -0.685511 0.719213 -0.113169
-4.24155 12.0986 14.8094 -0.688818 0.720014 -0.0843158
-4.96488 11.4984 16.046 -0.687796 0.724006 -0.052458
-5.71323 10.8794 17.3075 -0.666687 0.744441 -0.0365442
-5.83029 10.7859 17.4986 -0.641661 0.766279 -0.0329706
-5.04424 11.5261 17.7615 -0.678734 0.733131 -0.0428936
-4.40472 12.0743 16.6506 -0.689135 0.72339 -0.0424327
-3.82671 12.588 15.6149 -0.72803 0.683261 -0.0559236
-3.2359 13.0754 14.5858 -0.712057 0.692394 -0.116468
-2.57394 13.5732 13.4385 -0.747839 0.6517 -0.126589
-1.99561 14.0573 12.3914 -0.760083 0.636337 -0.131716
-1.32316 14.6451 11.1915 -0.76584 0.62654 -0.144697
-0.637646 15.1825 10.0618 -0.759667 0.635961 -0.135866
-0.0917645 15.6832 8.98784 -0.809584 0.578831 -0.0976125
0.62228 16.4064 7.47859 -0.822712 0.548168 -0.150524
1.12532 16.9663 6.40716 -0.83295 0.536155 -0.136868
1.70031 17.4737 5.13904 -0.797254 0.584107 -0.15233
2.38042 17.7708 4.00837 -0.535409 0.844588 0.00295996
3.09705 17.5215 2.93847 0.561806 0.815706 -0.137836
3.67399 16.7647 1.88519 0.710507 0.682215 -0.172516
4.26968 15.8901 0.704884 0.707392 0.696843 -0.118347
4.81465 15.2197 -0.365214 0.670765 0.737593 -0.0776648
5.38443 14.5927 -1.43701 0.66908 0.740582 -0.0622097
6.11263 13.8204 -2.78805 0.671993 0.738389 -0.0566314
6.67779 13.2308 -3.83408 0.669186 0.740951 -0.0564028
7.30659 12.5822 -4.97809 0.656086 0.75195 -0.0642122
7.90962 11.9593 -6.06171 0.652677 0.754453 -0.0693778
8.54837 11.3132 -7.18363 0.639785 0.765127 -0.0724918
9.16788 10.6928 -8.26338 0.631812 0.77163 -0.0734904
9.84697 10.0332 -9.41059 0.623634 0.777846 -0.0776957
10.5901 9.33617 -10.6299 0.604715 0.792557 -0.0785642
11.3959 8.61863 -11.9102 0.592846 0.802428 -0.0681399
12.134 7.98875 -13.0589 0.577643 0.814061 -0.0602742
12.4785 7.70512 -13.5847 0.574303 0.816636 -0.0572903
12.2623 8.00656 -11.6781 0.583234 0.809719 -0.0647547
11.5927 8.58219 -10.6326 0.590885 0.803952 -0.0672059
10.9398 9.16775 -9.58742 0.602772 0.794827 -0.0701161
10.3037 9.75334 -8.55036 0.617289 0.783529 -0.0709689
9.72003 10.311 -7.57584 0.624379 0.778572 -0.0630578
8.88256 11.128 -6.14528 0.641109 0.764523 -0.0669646
8.16342 11.8417 -4.90326 0.651555 0.756435 -0.0572977
7.47292 12.5367 -3.68623 0.660503 0.748633 -0.0573152
6.86624 13.1553 -2.58416 0.669013 0.741161 -0.0556979
6.29664 13.7498 -1.5469 0.671697 0.738579 -0.0576531
5.71356 14.3717 -0.47115 0.682282 0.72842 -0.0624126
5.12278 15.0395 0.60624 0.700375 0.70666 -0.100529
4.47572 15.8935 1.86761 0.723516 0.680263 -0.117333
3.87285 16.8389 3.17443 0.752539 0.641476 -0.148977
3.37514 17.5168 4.14176 0.599091 0.792044 -0.117286
2.67867 18.1215 5.20704 -0.167013 0.956596 -0.238811
1.92496 18.0106 6.20706 -0.602415 0.763969 -0.231187
1.34186 17.489 7.33114 -0.754281 0.648326 -0.103602
0.750793 16.8413 8.5695 -0.830796 0.544397 -0.115797
0.21279 16.2948 9.74299 -0.834202 0.535771 -0.1306
-0.365753 15.7522 10.8678 -0.787896 0.592181 -0.168944
-0.985653 15.2216 11.9014 -0.76584 0.626539 -0.144698
-1.53779 14.7158 12.9309 -0.77117 0.624389 -0.124238
-2.18236 14.1743 14.1304 -0.746491 0.64683 -0.156086
-2.82684 13.6558 15.2995 -0.772699 0.625248 -0.109549
-3.39555 13.1322 16.3441 -0.76037 0.646992 -0.0569036
-3.97486 12.5621 17.4429 -0.744237 0.664366 -0.0687729
-4.13881 12.411 17.7581 -0.717087 0.692396 -0.0798369
-3.17866 13.5005 17.4531 -0.765105 0.64075 -0.0636643
-2.60196 14.0905 16.3449 -0.78077 0.618507 -0.088584
-1.91165 14.7217 14.996 -0.789248 0.599267 -0.134039
-1.32743 15.221 13.8416 -0.798977 0.58338 -0.145956
-0.559483 15.8818 12.4288 -0.779064 0.6107 -0.141787
0.0324804 16.438 11.4142 -0.812078 0.562957 -0.153651
0.641594 17.067 10.1658 -0.834519 0.534417 -0.134075
1.20616 17.5677 9.03617 -0.724978 0.680973 -0.103356
1.77475 18.0421 7.99765 -0.470689 0.881141 0.045195
2.53439 18.4216 6.92843 0.101577 0.957565 0.269725
3.21719 18.1087 6.03498 0.668226 0.721483 -0.181483
3.7438 17.3165 5.08321 0.766837 0.630692 -0.11912
4.2301 16.5867 4.08518 0.777765 0.620485 -0.100402
4.79573 15.6955 2.82236 0.745624 0.659685 -0.0941257
5.34817 14.9537 1.74622 0.720163 0.689069 -0.0809231
5.9682 14.2304 0.587989 0.691483 0.720454 -0.0528873
6.53817 13.6107 -0.445086 0.675568 0.735227 -0.0552116
7.1997 12.9249 -1.63201 0.66957 0.741138 -0.0488905
7.87356 12.2447 -2.81693 0.662926 0.746892 -0.0517744
8.51402 11.6114 -3.93093 0.650638 0.757491 -0.0536404
9.1647 10.9846 -5.02742 0.642398 0.764308 -0.0561918
9.76258 10.4075 -6.04541 0.632352 0.772013 -0.0642413
10.4009 9.80401 -7.10642 0.618341 0.783666 -0.059347
10.9995 9.254 -8.08353 0.610593 0.789045 -0.0677115
11.7341 8.59616 -9.26175 0.596378 0.799812 -0.0680817
12.1839 8.20265 -9.97323 0.591389 0.803743 -0.0652374
12.3123 8.217 -8.59338 0.596869 0.800191 -0.0586601
11.6427 8.80779 -7.5274 0.607087 0.791873 -0.0661972
10.9925 9.38468 -6.4886 0.614972 0.786556 -0.0560361
10.324 9.99714 -5.40369 0.629271 0.775247 -0.0548622
9.51467 10.7618 -4.05 0.635286 0.770293 -0.0553237
8.91442 11.3335 -3.0391 0.646801 0.761412 -0.0435865
8.25962 11.963 -1.91967 0.657539 0.752121 -0.0442368
7.67431 12.5457 -0.921088 0.668528 0.742253 -0.0461527
6.96025 13.2729 0.340658 0.681711 0.730108 -0.0470349
6.4985 13.7645 1.17529 0.691776 0.720024 -0.054872
7.64458 12.6549 0.676231 0.674951 0.737345 -0.0276134
8.2246 12.0831 -0.320373 0.665142 0.745733 -0.0383155
8.82671 11.5034 -1.33464 0.652375 0.756756 -0.0415597
9.55943 10.8126 -2.56736 0.643798 0.764095 -0.0410371
10.1573 10.2596 -3.56031 0.641722 0.76579 -0.041929
10.7747 9.69469 -4.57084 0.626396 0.777877 -0.0503424
11.388 9.13621 -5.56344 0.617236 0.785134 -0.0508351
