-57.5497 43.2274 -6.00526 -0.480395 0.875218 0.0566593
-57.8945 43.1045 -7.06856 -0.480201 0.875497 0.0539686
-57.919 43.1733 -8.52603 -0.471543 0.880383 0.0506846
-57.7446 43.3352 -9.98776 -0.46045 0.886954 0.0360201
-57.7704 43.4102 -11.6071 -0.449458 0.891913 0.0497911
-57.8211 43.4988 -13.0618 -0.423511 0.903262 0.0670246
-57.8796 43.6162 -14.5093 -0.423615 0.900066 0.102136
-57.7357 43.8525 -15.9202 -0.410373 0.904424 0.116671
-57.2594 44.1404 -16.5417 -0.386329 0.915506 0.112248
-56.0924 44.4558 -15.7436 -0.277219 0.956698 0.0883761
-54.3944 44.9036 -15.4214 -0.215222 0.975523 -0.0136994
-52.7128 45.3093 -15.6503 -0.241092 0.962697 -0.122841
-51.3168 45.7657 -16.1154 -0.423176 0.882583 -0.199388
-50.2675 46.1796 -16.8316 -0.486611 0.854236 -0.181934
-49.4113 46.5446 -17.81 -0.55604 0.816924 -0.15315
-48.1141 47.4605 -18.0197 -0.619105 0.77991 -0.088709
-47.7446 47.8065 -17.3235 -0.607276 0.790707 -0.0769249
-48.4089 47.457 -16.2177 -0.55151 0.825239 -0.121722
-49.2329 47.141 -14.971 -0.505522 0.853282 -0.127192
-49.6306 47.1503 -13.4061 -0.482236 0.8668 -0.126912
-49.6735 47.3187 -11.9323 -0.477038 0.872606 -0.104854
-49.5244 47.5325 -10.6531 -0.478595 0.87439 -0.0794455
-50.1941 47.2041 -10.1371 -0.482042 0.873456 -0.0685087
-51.5008 46.4953 -10.1701 -0.463275 0.884866 -0.0488738
-52.8417 45.809 -10.0219 -0.452706 0.890603 -0.0433976
-54.106 45.171 -9.47299 -0.458154 0.888786 -0.00649622
-55.1662 44.6261 -8.61927 -0.458565 0.888553 0.0129647
-56.33 43.98 -7.65191 -0.470509 0.881682 0.0351188
-57.1895 43.4726 -6.77089 -0.477224 0.877181 0.0529835
-57.4455 43.3111 -6.4309 -0.479753 0.875684 0.0549083
-56.5119 43.7688 -5.61231 -0.47627 0.877633 0.0540997
-57.2974 43.2438 -4.22347 -0.482386 0.873854 0.0606925
-57.7568 42.9051 -3.01778 -0.481561 0.874213 0.0620467
-57.867 42.7504 -1.71179 -0.481739 0.874012 0.0634828
-57.9436 42.6049 -0.289993 -0.479394 0.875298 0.0635219
-57.7228 42.6013 1.36739 -0.47664 0.87672 0.0645598
-57.6638 42.517 2.87618 -0.471655 0.879044 0.0694522
-57.7158 42.3679 4.41906 -0.46606 0.881917 0.0707814
-57.7617 42.2396 5.76738 -0.458929 0.885773 0.0691862
-57.6052 42.2283 7.04646 -0.452408 0.890002 0.0567291
-57.7651 42.049 8.68744 -0.453024 0.890107 0.0497952
-57.5397 42.0795 10.2475 -0.443428 0.895536 0.036827
-57.4039 42.1037 11.7039 -0.427518 0.903797 0.0194653
-56.9544 42.2971 13.3213 -0.423272 0.905925 0.00976165
-56.1886 42.6377 14.6931 -0.404167 0.914665 0.00604474
-55.0956 43.0693 15.926 -0.349858 0.936713 -0.0129488
-55.1937 43.028 16.9962 -0.273774 0.96161 -0.0149681
-56.1112 42.7154 18.2193 -0.356985 0.934108 0.00186922
-57.0996 42.2946 19.0354 -0.399292 0.916711 -0.0137369
-58.1062 41.8392 18.6441 -0.436612 0.899269 -0.0214079
-58.3928 41.6672 17.3107 -0.429429 0.902916 -0.0178648
-58.3027 41.6844 15.835 -0.4424 0.89667 -0.0158082
-58.2368 41.6897 14.4756 -0.437282 0.899246 -0.0105753
-58.1435 41.7273 13.0101 -0.438197 0.898869 0.00411518
-58.1736 41.7329 11.5508 -0.437803 0.898893 0.0178327
-58.2742 41.7274 10.0229 -0.443237 0.895444 0.041484
-58.3733 41.74 8.67845 -0.448227 0.892743 0.0453022
-58.3278 41.8514 7.19893 -0.45247 0.890121 0.0543551
-58.4862 41.8696 5.72751 -0.45619 0.887864 0.0599078
-58.438 41.9975 4.30366 -0.46142 0.884869 0.0639824
-58.4965 42.0618 3.03301 -0.466689 0.881873 0.0670997
-58.4955 42.1849 1.3444 -0.474926 0.877795 0.0626162
-58.6327 42.221 -0.200407 -0.479434 0.875294 0.0632713
-58.713 42.2689 -1.4843 -0.479519 0.875346 0.0618897
-59.023 42.189 -2.7572 -0.481053 0.874436 0.0628461
-59.1368 42.2209 -4.07771 -0.480145 0.874849 0.0640266
-59.0767 42.3452 -5.35841 -0.480514 0.874785 0.0620977
-59.017 42.4776 -6.8159 -0.475236 0.877861 0.0592326
-58.9285 42.6094 -8.12149 -0.473782 0.878947 0.0546217
-58.9265 42.6989 -9.62082 -0.466268 0.883198 0.0505409
-58.8387 42.8305 -11.0275 -0.458872 0.886438 0.0599277
-58.9747 42.8853 -12.5696 -0.452576 0.888136 0.0799334
-58.9845 43.0084 -13.9097 -0.458449 0.884376 0.0877695
-58.977 43.2023 -15.5196 -0.467199 0.878787 0.0972559
-58.9263 43.4156 -16.9901 -0.47048 0.874509 0.117813
-59.0573 43.5316 -18.3341 -0.451249 0.882419 0.131953
-58.3646 44.0271 -19.1827 -0.447655 0.881758 0.148684
-57.2668 44.5152 -18.9986 -0.320159 0.94207 0.0967714
-56.7226 44.4936 -17.6857 -0.294933 0.953952 0.0546899
-55.4064 44.6811 -16.7065 -0.189141 0.978519 0.0765605
-54.147 44.9039 -16.6478 -0.149992 0.983588 -0.100289
-52.884 45.0481 -16.7796 -0.137697 0.97857 -0.153104
-51.5487 45.4232 -17.1433 -0.321955 0.890932 -0.312846
-50.5373 45.7173 -18.0802 -0.557784 0.811615 -0.170415
-49.7971 46.0453 -19.113 -0.556454 0.819417 -0.137533
-48.4554 47.0021 -19.1988 -0.603935 0.783749 -0.144915
-47.4792 47.853 -19.1979 -0.66854 0.740889 -0.0642109
-46.463 48.7705 -19.1108 -0.658739 0.7508 -0.0420698
-45.2269 49.8487 -19.1947 -0.649685 0.759121 0.0390708
-45.0394 49.9678 -18.6733 -0.622937 0.779803 0.0596675
-46.0386 49.1291 -17.7939 -0.619649 0.784756 -0.0133267
-46.8142 48.5459 -16.8709 -0.610123 0.792014 -0.0215451
-47.6581 48.0612 -15.5124 -0.552259 0.829853 -0.0797133
-48.328 47.7753 -14.3669 -0.520178 0.847534 -0.104239
-48.5926 47.7787 -13.1079 -0.495291 0.862594 -0.102308
-48.4823 48.0386 -11.2966 -0.478932 0.873373 -0.0885663
-48.2338 48.3185 -9.8061 -0.475628 0.875876 -0.0813619
-48.4131 48.2925 -8.8072 -0.486899 0.871463 -0.0590083
-49.6164 47.6076 -8.87478 -0.487358 0.87149 -0.0546525
-50.9861 46.8334 -8.98276 -0.490523 0.870742 -0.0345726
-52.1281 46.2127 -8.90727 -0.470046 0.882405 -0.02038
-53.239 45.6238 -8.65138 -0.474948 0.880004 0.00277355
-54.3006 45.059 -7.91174 -0.474131 0.880235 0.0196299
-55.3075 44.4975 -7.04793 -0.471174 0.880875 0.0453205
-56.2272 43.9485 -6.02131 -0.475956 0.877736 0.0551802
-56.3496 43.8713 -5.84648 -0.47627 0.877633 0.0540997
-55.3679 44.3752 -5.28342 -0.479751 0.875946 0.0504586
-56.101 43.9002 -4.16704 -0.483751 0.873251 0.0584601
-56.6395 43.5073 -2.80019 -0.483588 0.873121 0.0616637
-56.7357 43.3529 -1.41185 -0.482667 0.873382 0.0650745
-56.845 43.1978 -0.145785 -0.480336 0.874424 0.0682696
-56.6202 43.198 1.42633 -0.476685 0.876156 0.071568
-56.6256 43.0882 2.72305 -0.474124 0.877411 0.0731944
-56.5498 42.9802 4.48263 -0.465382 0.881847 0.0759292
-56.5775 42.8251 6.14616 -0.462176 0.883591 0.0752335
-56.6058 42.6953 7.70826 -0.455366 0.888354 0.0586366
-56.5457 42.6322 9.16108 -0.452701 0.889798 0.0576329
-56.4429 42.5961 10.7518 -0.441311 0.8963 0.0423847
-56.1247 42.7055 12.0934 -0.431313 0.902003 0.0189568
-55.7113 42.8696 13.29 -0.416922 0.908837 0.0138622
-54.6917 43.2549 14.5762 -0.37406 0.926513 0.040666
-53.7617 43.5397 15.582 -0.331455 0.941215 0.0651159
-52.6941 43.7911 16.5121 -0.308519 0.938381 0.151714
-51.4479 44.0636 17.1185 -0.365441 0.884762 0.289221
-50.2751 44.4782 17.7811 -0.579576 0.802457 0.141966
-49.1905 45.2316 18.3242 -0.603504 0.793324 0.0801265
-47.9338 46.2099 18.5962 -0.632076 0.772045 0.0664801
-46.8956 47.0506 18.7877 -0.636804 0.768242 0.0654537
-45.7341 48.05 18.7954 -0.653425 0.756178 0.0328181
-44.4003 49.1712 18.7908 -0.633284 0.773913 0.00241717
-43.3746 49.9857 18.836 -0.612302 0.790616 -0.00359853
-42.3424 50.8035 18.7798 -0.62007 0.781943 -0.0638602
-41.3455 51.5794 18.711 -0.641554 0.75095 -0.156468
-40.2104 52.2317 18.7145 -0.440145 0.891595 -0.098817
-39.0365 52.7562 18.7598 -0.373622 0.925827 -0.0544925
-37.8344 53.2319 18.7715 -0.357989 0.933523 -0.0170215
-36.5517 53.7215 18.7215 -0.345045 0.938584 0.000250473
-35.2238 54.2047 18.4378 -0.340701 0.940167 -0.00239594
-34.6136 54.4266 18.6624 -0.340344 0.940282 -0.00549581
-34.5686 54.4441 19.948 -0.345188 0.938533 0.000892759
-35.5325 54.0863 20.3788 -0.342208 0.93959 0.00801095
-36.7885 53.6301 20.3761 -0.343583 0.93911 0.0047125
-38.2261 53.1017 20.2834 -0.342246 0.93961 0.00021016
-39.4454 52.6679 20.3372 -0.331251 0.943457 0.012708
-40.6468 52.0332 20.3129 -0.529019 0.846795 0.0554653
-41.7209 51.3081 20.287 -0.608574 0.792439 0.0409581
-42.7477 50.5226 20.1771 -0.626267 0.778789 0.0276978
-43.7458 49.6853 20.3952 -0.645893 0.763261 0.0159438
-44.9379 48.6779 20.3327 -0.659254 0.750689 0.0430063
-45.8904 47.8362 20.2507 -0.6648 0.746015 0.038624
-47.0407 46.8347 20.2003 -0.652797 0.756084 0.0468359
-48.0451 46.0047 20.3203 -0.63142 0.774328 0.0415351
-49.3346 44.9617 20.3408 -0.609578 0.790864 0.0502741
-50.4341 44.1429 20.2899 -0.602639 0.797619 0.0206502
-50.6524 44.018 19.1262 -0.612045 0.789112 0.048901
-51.1677 43.8708 17.9615 -0.383069 0.813369 0.437824
-52.5723 43.5857 17.8337 -0.177678 0.966282 0.18339
-53.9353 43.3476 17.7839 -0.144668 0.988691 0.03141
-55.0528 43.1093 18.3947 -0.338759 0.940638 -0.0210514
-55.1304 43.1065 19.8342 -0.341905 0.939501 -0.020966
-56.3876 42.6552 20.2312 -0.383051 0.921858 -0.0421231
-57.8102 41.9976 20.2986 -0.410442 0.911302 -0.0258108
-59.0492 41.3847 19.9302 -0.441411 0.897237 -0.0110857
-59.2412 41.2644 18.6489 -0.463081 0.886185 -0.0152549
-59.4782 41.1142 17.0327 -0.462484 0.886519 -0.013834
-59.5039 41.0748 15.5371 -0.455921 0.889931 -0.0125765
-59.296 41.1596 13.9659 -0.448717 0.893638 -0.00627068
-59.2631 41.1796 12.4978 -0.443265 0.896387 0.0026003
-59.2288 41.2241 11.1446 -0.444913 0.895374 0.0188956
-59.3613 41.2029 9.68805 -0.445877 0.894427 0.0345449
-59.4051 41.2417 8.32407 -0.446683 0.893481 0.0465366
-59.5051 41.2736 6.87361 -0.449379 0.891674 0.0545573
-59.6017 41.319 5.37898 -0.45748 0.887264 0.058952
-59.5394 41.4581 3.78722 -0.461288 0.885117 0.061425
-59.556 41.5611 2.17452 -0.467869 0.881777 0.059665
-59.5789 41.6394 0.807904 -0.473976 0.87844 0.0606927
-59.7334 41.6797 -1.02982 -0.471374 0.87988 0.0601537
-60.0101 41.6219 -2.34681 -0.475259 0.877635 0.0623314
-60.19 41.6302 -3.84147 -0.473081 0.878727 0.0634974
-60.2114 41.7146 -5.18682 -0.475468 0.877485 0.0628211
-60.1164 41.8782 -6.75992 -0.474615 0.877949 0.0627541
-60.0033 42.0467 -8.34231 -0.473049 0.879154 0.057508
-59.9853 42.1731 -10.1392 -0.468647 0.881492 0.0578086
-60.0202 42.2766 -11.8598 -0.465946 0.882104 0.0689848
-60.1179 42.3504 -13.3392 -0.480081 0.873399 0.0818277
-60.1129 42.4904 -14.7545 -0.481714 0.871869 0.0882243
-60.0649 42.6652 -16.0985 -0.505644 0.858151 0.0888354
-60.125 42.8241 -17.8336 -0.536603 0.839784 0.0825806
-60.1565 42.9422 -19.3176 -0.559488 0.826887 0.0549092
-59.483 43.4106 -20.3176 -0.527806 0.849341 0.00644853
-58.1571 44.158 -20.3799 -0.43473 0.898976 -0.0534016
-56.8787 44.6353 -20.4571 -0.272209 0.962007 -0.0211119
-56.0937 44.8357 -19.6538 -0.215863 0.975932 0.0309982
-55.8642 44.8162 -18.335 -0.258183 0.960039 0.10801
-54.7201 44.8223 -17.82 -0.0476668 0.998777 0.0125707
-53.295 44.8346 -17.8881 -0.0476306 0.988977 -0.139114
-51.947 44.9202 -18.069 -0.216929 0.913382 -0.337376
-51.238 45.0629 -19.0719 -0.554488 0.826393 -0.0980695
-50.9843 45.1134 -20.3332 -0.514745 0.855364 -0.0582225
-49.7355 45.8773 -20.366 -0.551527 0.822311 -0.140082
-48.5658 46.7557 -20.4197 -0.662186 0.74677 -0.0620001
-47.4114 47.8378 -20.41 -0.705157 0.7081 -0.0367171
-46.2897 48.9379 -20.3369 -0.685206 0.728016 0.0102788
-45.3369 49.8206 -20.3911 -0.68593 0.725308 0.05855
-44.1836 50.8004 -20.3797 -0.629431 0.774865 0.053857
-43.0239 51.6956 -20.4255 -0.61697 0.785337 0.0492017
-41.9312 52.464 -20.392 -0.448287 0.893885 0.00285304
-40.6073 53.0273 -20.4181 -0.366634 0.930238 0.00598613
-39.2101 53.5593 -20.4568 -0.33363 0.942487 0.0148241
-37.8378 54.039 -20.4537 -0.336924 0.94092 0.0339361
-36.7149 54.4477 -19.9423 -0.361654 0.931942 0.0230567
-37.1668 54.2044 -18.8369 -0.371594 0.923642 0.0938214
-38.5034 53.6885 -18.7589 -0.33633 0.937383 0.0905256
-39.7378 53.2414 -18.7594 -0.346063 0.923559 0.16133
-40.9263 52.7699 -18.8166 -0.415574 0.898527 0.141233
-42.1312 52.1639 -18.7614 -0.4981 0.801518 0.330855
-43.3464 51.2609 -18.4993 -0.586702 0.802343 0.107361
-44.3557 50.4321 -17.7969 -0.594937 0.800447 0.0730375
-45.1735 49.7742 -17.0637 -0.588333 0.808439 0.017041
-45.9525 49.1928 -16.227 -0.567439 0.822881 0.00206178
-46.8433 48.655 -14.8634 -0.539021 0.83968 -0.0646759
-47.4206 48.3867 -13.7609 -0.506637 0.857733 -0.0872547
-47.4808 48.4984 -12.2309 -0.485637 0.86965 -0.088682
-47.2832 48.7319 -10.8056 -0.468049 0.880417 -0.0761324
-46.987 49.0059 -9.44085 -0.45965 0.885104 -0.0728873
-46.394 49.3999 -8.31337 -0.457543 0.887076 -0.06124
-45.5572 49.8906 -7.48014 -0.458639 0.886451 -0.0620889
-44.6356 50.4138 -6.56294 -0.428815 0.899586 -0.0822769
-43.7502 50.9126 -5.68359 -0.411643 0.906985 -0.0881426
-42.6591 51.4921 -4.67063 -0.393151 0.914374 -0.0967073
-41.5273 52.1427 -3.519 -0.366735 0.919316 -0.141285
-40.6281 52.6294 -2.53994 -0.330496 0.928407 -0.1698
-39.7395 53.0283 -1.63856 -0.259243 0.961103 -0.0951899
-38.9519 53.3424 -0.670882 -0.255772 0.961243 -0.102798
-37.8029 53.745 0.318821 -0.241349 0.965228 -0.100428
-36.884 54.0603 1.21628 -0.227085 0.968536 -0.101832
-35.8437 54.3952 2.27275 -0.205791 0.973375 -0.100786
-35.9918 54.4988 3.51848 -0.198787 0.972005 -0.125261
-36.9927 54.2443 3.53446 -0.298766 0.952317 -0.0618944
-37.9546 53.9079 2.59736 -0.278437 0.959225 -0.0464643
-38.82 53.5806 1.66865 -0.313069 0.947613 -0.063378
-39.7692 53.2373 0.779906 -0.294954 0.953121 -0.0675117
-40.6649 52.8803 -0.196539 -0.297331 0.952465 -0.0634311
-41.6078 52.5244 -1.10224 -0.409035 0.909373 -0.0524426
-42.4073 51.9831 -1.9386 -0.51944 0.842608 -0.14209
-43.3275 51.415 -2.83184 -0.45433 0.886834 -0.0744407
-44.1668 50.8617 -3.75286 -0.469604 0.880138 -0.0694907
-45.1267 50.2908 -4.6594 -0.481468 0.875505 -0.0409764
-45.9394 49.8135 -5.59804 -0.499321 0.865954 -0.0277899
-46.7971 49.2861 -6.54001 -0.48762 0.87258 -0.0288283
-47.808 48.7053 -7.26091 -0.484844 0.874321 -0.0221158
-49.0567 47.9866 -7.58051 -0.491622 0.870503 -0.0206318
-50.2432 47.2964 -7.83743 -0.496597 0.867599 -0.0211926
-51.4956 46.5795 -7.75368 -0.487782 0.872944 -0.00611934
-52.8177 45.8476 -7.48704 -0.474951 0.880002 0.00277472
-54.0608 45.159 -6.69469 -0.477399 0.878064 0.0313369
-54.8877 44.6676 -5.84541 -0.476175 0.878227 0.044183
-55.2169 44.4696 -5.50531 -0.477212 0.877437 0.0487063
-57.2224 42.2206 16.8403 -0.416833 0.908974 -0.00409162
-56.8365 42.3709 15.7489 -0.402934 0.915008 -0.0163492
-56.4545 42.5728 16.8297 -0.393786 0.918806 -0.00844786
-57.1224 42.268 17.1838 -0.416684 0.909041 -0.00430869
-30.7298 55.8568 15.5994 -0.323059 0.943358 0.0751751
-30.8152 55.7362 16.6998 -0.313527 0.946101 0.0811998
-31.7055 55.4854 16.0812 -0.318832 0.945467 0.0666161
-31.1725 55.7502 14.9716 -0.329728 0.941212 0.0734805
-31.0082 55.8098 14.944 -0.329734 0.94121 0.0734803
-29.8374 56.2219 14.8284 -0.320422 0.94412 0.077163
-29.4543 56.2576 15.9561 -0.327352 0.940864 0.0867118
-29.16 56.2136 17.3037 -0.311964 0.944346 0.104181
-30.1389 55.8533 17.7211 -0.294435 0.949862 0.105123
-31.3816 55.4694 17.7336 -0.294501 0.951865 0.0849854
-32.5909 55.1015 17.6767 -0.30156 0.95304 0.0278714
-34.0454 54.6205 17.3219 -0.322005 0.946475 0.019284
-33.3068 54.9101 16.3559 -0.342291 0.938466 0.0460244
-32.7409 55.1735 15.2627 -0.344466 0.936611 0.0631424
-32.0348 55.5359 13.7301 -0.337902 0.938173 0.0750009
-31.6173 55.7877 12.5295 -0.337113 0.937931 0.0814845
-30.8044 56.0908 12.3625 -0.320868 0.94343 0.0835664
-29.9446 56.274 13.691 -0.323413 0.943514 0.0720124
-29.8901 56.2359 14.4178 -0.320657 0.944332 0.07359
-49.2005 46.9332 -16.2585 -0.510067 0.845696 -0.156942
-49.316 46.8347 -16.4265 -0.502511 0.847958 -0.168672
-50.8569 46.0932 -15.7122 -0.458854 0.873174 -0.164378
-49.9992 46.7806 -14.4892 -0.484825 0.864195 -0.134579
-50.2464 47.0046 -11.9391 -0.469304 0.877074 -0.102444
-51.4838 46.1672 -13.6132 -0.428569 0.894395 -0.128005
-52.371 45.5978 -14.7836 -0.362024 0.912825 -0.188913
-54.7376 44.793 -14.814 -0.297746 0.954641 0.00293226
-53.2062 45.4541 -12.9887 -0.385816 0.920875 -0.055994
-51.788 46.2763 -11.1609 -0.45827 0.886408 -0.0653375
-51.6894 46.3381 -11.0294 -0.466296 0.882217 -0.0652704
-53.5626 45.4218 -10.6461 -0.432297 0.90086 -0.0396319
-54.8958 44.7746 -12.2853 -0.412365 0.911007 -0.00453479
-56.3359 44.2254 -13.9811 -0.334173 0.939046 0.080758
-56.9427 44.0415 -14.6776 -0.370999 0.922169 0.109381
-57.1853 43.7395 -12.3723 -0.419435 0.906267 0.0524871
-55.6081 44.428 -10.4658 -0.435577 0.900056 0.0131077
-54.9683 44.7379 -9.66972 -0.447346 0.894344 0.00547135
-56.4434 43.9653 -8.82011 -0.464501 0.884729 0.0386431
-57.058 43.6752 -9.5817 -0.455728 0.889414 0.0354249
