-57.8951 43.782 -5.50736 -0.47988 0.875322 0.0592698
-58.0208 43.7999 -6.83613 -0.478096 0.876434 0.0573427
-58.0321 43.8812 -8.34241 -0.47098 0.880633 0.0514278
-57.919 44.0193 -9.77048 -0.460166 0.886764 0.0435631
-57.8781 44.1136 -11.1521 -0.442264 0.89552 0.0490772
-57.9552 44.1761 -12.5458 -0.436489 0.896639 0.0742622
-57.9191 44.2947 -13.8447 -0.420837 0.904447 0.0697964
-58.0401 44.4023 -15.2744 -0.406328 0.905929 0.118651
-58.1209 44.5338 -16.4781 -0.398386 0.908808 0.12392
-57.5134 44.8241 -16.7045 -0.310282 0.943846 0.113368
-56.5697 45.0444 -15.9509 -0.308805 0.947683 0.0764376
-55.1989 45.3782 -15.4926 -0.230944 0.972871 0.0137098
-53.8898 45.693 -15.507 -0.243319 0.959569 -0.141506
-52.3633 46.0594 -15.9609 -0.373987 0.90719 -0.19149
-51.191 46.4823 -16.5255 -0.47351 0.857723 -0.200246
-50.3119 46.831 -17.2951 -0.543192 0.825526 -0.146079
-49.525 47.2851 -18.0002 -0.570039 0.814332 -0.109153
-48.5043 48.0674 -18.0118 -0.617483 0.784513 -0.0567656
-47.9541 48.5526 -17.3698 -0.620218 0.782802 -0.0498881
-48.5929 48.1728 -16.2818 -0.570074 0.814103 -0.110687
-49.2247 47.9354 -15.0355 -0.524022 0.843153 -0.120394
-49.4334 47.9922 -13.811 -0.498645 0.858074 -0.122731
-49.4865 48.1663 -12.3565 -0.491188 0.862939 -0.118608
-49.45 48.3179 -11.1689 -0.478495 0.873712 -0.0871305
-49.8438 48.1885 -10.2095 -0.481408 0.873095 -0.0769842
-51.0196 47.5374 -10.17 -0.475906 0.877168 -0.0639206
-52.5599 46.7315 -10.0547 -0.465388 0.883872 -0.0467406
-53.6095 46.2022 -9.70976 -0.460598 0.886735 -0.0393866
-54.633 45.6745 -9.11165 -0.463016 0.886342 -0.00381908
-55.6668 45.1273 -8.30881 -0.458427 0.888368 0.0254518
-56.5621 44.6242 -7.47439 -0.471329 0.880966 0.0416246
-57.3687 44.1237 -6.3512 -0.476134 0.877621 0.0553979
-57.6717 43.9315 -5.9371 -0.478158 0.876467 0.0563129
-56.8063 44.3624 -5.27867 -0.478807 0.875862 0.0599346
-56.1338 44.7853 -6.21681 -0.476928 0.877361 0.0526946
-55.3043 45.2798 -7.12044 -0.470304 0.881526 0.0412616
-54.4759 45.7492 -7.86694 -0.468589 0.883201 0.0195055
-53.4636 46.2922 -8.47173 -0.471143 0.882029 0.00242693
-52.1213 47.0019 -8.91803 -0.475151 0.879294 -0.030067
-51.004 47.6151 -9.02242 -0.481396 0.875648 -0.0387163
-49.6962 48.3471 -8.97541 -0.488361 0.871644 -0.0417189
-48.5187 49.0114 -8.83099 -0.474776 0.877252 -0.0708342
-48.1809 49.1428 -9.46743 -0.469753 0.879973 -0.0703327
-48.3792 48.9413 -10.701 -0.473035 0.877943 -0.0735426
-48.4863 48.7265 -12.2831 -0.476452 0.874025 -0.095252
-48.4236 48.6211 -13.5134 -0.496531 0.862253 -0.0993053
-48.1802 48.606 -14.8497 -0.541832 0.834188 -0.0973368
-47.5557 48.9215 -15.9701 -0.557092 0.828538 -0.039256
-46.9585 49.317 -16.9781 -0.601516 0.79817 -0.0158657
-46.1213 49.9602 -17.8475 -0.602042 0.798328 0.0126426
-45.299 50.6247 -18.5252 -0.594325 0.80107 0.0706703
-45.3752 50.6251 -19.2521 -0.607889 0.792694 0.0459101
-46.4784 49.7271 -19.115 -0.631199 0.774277 0.0455653
-47.4597 48.9115 -19.1779 -0.640532 0.767895 -0.0074931
-48.4878 48.022 -19.192 -0.639386 0.768118 -0.032349
-49.5526 47.1365 -19.2015 -0.607754 0.78974 -0.0795304
-50.5683 46.4114 -19.0187 -0.589868 0.802418 -0.090438
-51.1309 46.1876 -17.8161 -0.529593 0.814456 -0.232812
-52.0783 45.8964 -17.1508 -0.380933 0.89525 -0.231122
-53.2057 45.6314 -16.785 -0.140393 0.974351 -0.175869
-54.5838 45.4745 -16.6498 -0.186436 0.980864 -0.0472526
-55.9413 45.3079 -16.8875 -0.179442 0.976865 0.0778983
-56.9183 45.1339 -17.5831 -0.331742 0.93411 0.131835
-57.4472 45.077 -18.6876 -0.396145 0.913325 0.0943755
-58.2363 44.7654 -19.2222 -0.404978 0.912732 0.0515733
-59.058 44.3253 -18.6529 -0.443519 0.890848 0.0958507
-59.1563 44.1462 -17.2785 -0.412731 0.902572 0.122543
-59.2 43.9328 -15.8339 -0.483099 0.868234 0.112995
-59.083 43.8202 -14.5745 -0.444158 0.890195 0.101374
-59.0093 43.7274 -13.373 -0.459098 0.884656 0.081318
-58.98 43.6171 -11.9848 -0.451455 0.888853 0.078287
-58.9635 43.5373 -10.7586 -0.46116 0.885231 0.0600844
-59.0489 43.3826 -9.11191 -0.471969 0.879972 0.0537978
-59.0637 43.2818 -7.64602 -0.47547 0.877884 0.0569974
-59.0978 43.1839 -6.40805 -0.479204 0.875752 0.0584851
-59.0696 43.0857 -4.76368 -0.479013 0.875539 0.0630609
-59.0671 42.997 -3.53927 -0.478647 0.875644 0.0643807
-59.0219 42.9211 -2.16946 -0.47719 0.876435 0.0644297
-58.7527 42.9709 -0.825722 -0.476518 0.876929 0.0626597
-58.6846 42.896 0.720956 -0.471646 0.879492 0.0635818
-58.6256 42.8418 1.89168 -0.469404 0.880433 0.0670342
-58.5638 42.783 3.11433 -0.463431 0.88346 0.0687745
-58.5586 42.6768 4.53793 -0.459843 0.885387 0.0680799
-57.9927 42.9196 5.19448 -0.458076 0.886064 0.0710497
-58.4613 42.6013 6.1757 -0.452358 0.88921 0.0683912
-58.4349 42.5242 7.44451 -0.446973 0.892671 0.0579063
-58.4177 42.4555 8.69392 -0.450453 0.891464 0.0486973
-58.3306 42.4298 10.1394 -0.444283 0.894826 0.0431935
-58.2977 42.4106 11.3245 -0.433233 0.901004 0.0220892
-58.3943 42.3414 12.5143 -0.432538 0.901539 0.00884948
-58.3654 42.3537 13.7117 -0.434102 0.900745 -0.00984577
-58.3397 42.3872 14.9174 -0.420266 0.906553 -0.033999
-58.4052 42.4156 16.1505 -0.446139 0.893687 -0.0465118
-58.1161 42.6395 17.5745 -0.4263 0.899964 -0.0837768
-58.0731 42.7632 18.8969 -0.500926 0.864778 -0.0350877
-57.174 43.278 19.2732 -0.379383 0.923176 -0.0617631
-56.4741 43.476 18.4883 -0.269873 0.95713 -0.104826
-55.9471 43.5344 17.4529 -0.278482 0.958461 -0.0616402
-55.0151 43.7738 16.5621 -0.271924 0.960517 0.000327425
-55.4668 43.588 15.5981 -0.319774 0.947048 -0.00486402
-56.245 43.3022 14.6888 -0.376312 0.926444 -0.0061687
-56.974 42.9935 13.4394 -0.398431 0.917091 0.0132398
-57.4327 42.7974 12.3403 -0.420187 0.907256 0.0169346
-57.7499 42.6766 11.2207 -0.433231 0.901005 0.0220828
-57.6469 42.7697 10.0355 -0.440304 0.89697 0.0393081
-57.7177 42.8053 8.72175 -0.443058 0.89497 0.0522378
-57.7664 42.8897 7.06868 -0.450564 0.890398 0.0646802
-57.7419 43.001 5.77134 -0.457193 0.886298 0.0738205
-58.0023 42.9611 4.59187 -0.458951 0.885834 0.068276
-57.685 43.2241 3.36882 -0.465321 0.882285 0.0709871
-57.7803 43.2949 1.85769 -0.468525 0.880732 0.0692411
-57.8203 43.3847 0.399738 -0.472644 0.878772 0.0660914
-57.8985 43.4386 -0.880072 -0.47567 0.877273 0.0642475
-57.8569 43.5735 -2.39816 -0.478201 0.875779 0.0658336
-57.6032 43.798 -3.53929 -0.479113 0.875333 0.0651433
-57.1807 44.1122 -4.65175 -0.478817 0.875555 0.0643279
-56.9327 44.2786 -5.07576 -0.478333 0.875845 0.063979
-56.0696 44.7005 -4.36819 -0.480021 0.87495 0.06358
-55.2037 45.2545 -5.60621 -0.475777 0.877947 0.0533427
-54.3777 45.7509 -6.44371 -0.482454 0.874954 0.0411491
-53.5373 46.2336 -7.109 -0.471688 0.88139 0.0257399
-52.4238 46.8497 -7.71511 -0.473809 0.880587 0.00843389
-51.2594 47.5038 -7.76343 -0.481313 0.876547 0.00191229
-50.2197 48.0935 -7.84641 -0.490879 0.870761 -0.0271526
-49.0307 48.7829 -7.64244 -0.50139 0.864817 -0.0212006
-48.0049 49.3705 -7.31287 -0.485315 0.873778 -0.0313241
-46.7807 50.0819 -6.5552 -0.466844 0.882553 -0.0561691
-46.056 50.506 -5.72788 -0.469441 0.881927 -0.0426279
-45.2239 51.0205 -4.80124 -0.490126 0.870651 -0.0417604
-44.3264 51.548 -3.92667 -0.488194 0.871236 -0.0493119
-43.6308 52.0019 -3.05074 -0.489612 0.870777 -0.0174841
-42.8034 52.4725 -2.24322 -0.473637 0.88059 -0.00208732
-41.8959 52.9249 -1.34486 -0.418057 0.908041 -0.0217231
-41.0267 53.2546 -0.576867 -0.276265 0.96058 -0.0310397
-40.0998 53.5937 0.386107 -0.292414 0.954098 -0.0641642
-39.3321 53.8742 1.25015 -0.297744 0.954367 -0.0230535
-38.4826 54.2048 2.14288 -0.3099 0.94688 -0.0859086
-37.5653 54.4765 2.14017 -0.251371 0.96181 -0.108063
-37.1182 54.4462 1.04842 -0.203018 0.972964 -0.110016
-38.0184 54.1399 0.127984 -0.236478 0.965553 -0.108178
-38.8612 53.8421 -0.706171 -0.245221 0.963898 -0.103769
-39.7549 53.5222 -1.64977 -0.244874 0.965713 -0.0860612
-40.62 53.2109 -2.49302 -0.258275 0.95992 -0.108833
-41.4694 52.8972 -3.23259 -0.257704 0.958249 -0.122176
-42.2438 52.5002 -4.23601 -0.330312 0.92071 -0.201196
-43.145 51.9712 -5.11215 -0.360557 0.919714 -0.154193
-44.1362 51.4358 -6.04208 -0.397712 0.911567 -0.103719
-45.0765 50.9168 -7.01219 -0.42467 0.900442 -0.0904457
-46.0072 50.3932 -7.81886 -0.427419 0.900965 -0.0740377
-46.9498 49.8328 -8.90643 -0.455267 0.887543 -0.0707122
-47.2803 49.5525 -10.2604 -0.459515 0.885247 -0.0718125
-47.3793 49.3993 -11.482 -0.467581 0.880925 -0.0729249
-47.4524 49.2534 -12.673 -0.482017 0.872739 -0.0763919
-47.3177 49.2096 -14.0136 -0.512364 0.855645 -0.0674621
-46.8077 49.4695 -15.1018 -0.531138 0.845222 -0.0573906
-46.1732 49.8671 -16.1788 -0.537087 0.843522 -0.00281042
-45.3491 50.4729 -16.9726 -0.565071 0.824438 0.0315661
-44.3237 51.2584 -17.8878 -0.564833 0.822005 0.0726091
-43.4295 51.8946 -18.336 -0.525232 0.844591 0.103908
-42.5131 52.5508 -18.7072 -0.537813 0.826297 0.167303
-41.4497 53.0791 -18.8208 -0.380413 0.918526 0.107683
-40.2434 53.5796 -18.7404 -0.375654 0.922172 0.0921021
-39.0119 54.0299 -18.7234 -0.347617 0.933649 0.0863802
-38.056 54.4154 -19.1667 -0.362204 0.928599 0.0806988
-38.1944 54.4057 -20.3949 -0.336531 0.941524 0.0165009
-39.4643 53.9561 -20.4481 -0.344407 0.93873 0.0130526
-40.5864 53.5321 -20.4662 -0.359273 0.933192 0.00866703
-41.7575 53.067 -20.4847 -0.389558 0.920995 0.0035904
-42.8854 52.4801 -20.5131 -0.574657 0.815686 0.0665245
-43.9579 51.742 -20.4307 -0.557364 0.828257 0.0577502
-45.096 50.9212 -20.4809 -0.61259 0.788488 0.0549548
-46.2208 50.0042 -20.4757 -0.655936 0.751514 0.070533
-47.1933 49.1598 -20.4035 -0.670203 0.742165 0.00449397
-48.1626 48.2826 -20.4419 -0.671918 0.740611 0.00460329
-49.1942 47.3846 -20.4107 -0.646061 0.763061 -0.0184857
-50.3661 46.4369 -20.3245 -0.600074 0.798129 -0.0538608
-51.493 45.6639 -20.304 -0.550482 0.834314 -0.0287632
-51.6443 45.6041 -18.9858 -0.641178 0.763923 -0.0728851
-52.4191 45.4634 -18.0819 -0.110183 0.947236 -0.301006
-53.6594 45.4042 -17.9147 0.0181095 0.985607 -0.168081
-54.8848 45.4519 -17.8253 0.0471915 0.998862 -0.00689626
-56.0766 45.4969 -18.1207 -0.266776 0.906192 0.26563
-56.4343 45.4867 -19.277 -0.330895 0.943434 0.0210063
-56.9933 45.2913 -20.3468 -0.336294 0.941515 -0.0188799
-58.1077 44.8595 -20.4065 -0.395007 0.917986 -0.00656024
-59.394 44.216 -20.3061 -0.49926 0.865913 -0.0305713
-60.1509 43.7537 -19.3954 -0.552022 0.832877 0.0272717
-60.1823 43.6308 -18.0223 -0.539516 0.840105 0.0560908
-60.179 43.4981 -16.6972 -0.536136 0.836559 0.112816
-60.2297 43.3163 -15.4966 -0.486382 0.866596 0.111554
-60.1613 43.2129 -14.3193 -0.487956 0.867529 0.0963983
-60.1237 43.0765 -12.7092 -0.473815 0.87646 0.0850318
-60.0194 43.0323 -11.5372 -0.46823 0.880891 0.0690298
-60.0365 42.9374 -10.3556 -0.471242 0.879812 0.0621382
-60.1503 42.7753 -8.90232 -0.472747 0.879102 0.0607419
-60.1137 42.7109 -7.62554 -0.476685 0.877197 0.0574205
-60.2044 42.5804 -6.3954 -0.476529 0.877162 0.0592141
-60.1355 42.5248 -5.04129 -0.476117 0.877201 0.0618712
-60.1142 42.4308 -3.57906 -0.476339 0.876947 0.063752
-60.1011 42.3512 -2.35382 -0.473787 0.87851 0.0612024
-59.9314 42.3553 -1.12147 -0.471653 0.879645 0.0613893
-59.7671 42.3267 0.566161 -0.471681 0.879682 0.0605892
-59.6515 42.2827 2.12617 -0.465672 0.882792 0.0618189
-59.6066 42.2185 3.37609 -0.460919 0.885207 0.0628928
-59.5179 42.1416 5.0802 -0.456063 0.887749 0.062515
-59.6031 42.0116 6.33719 -0.446762 0.892724 0.0587152
-59.5274 41.952 7.83913 -0.446704 0.892856 0.0571326
-59.4406 41.9255 9.1127 -0.437951 0.897983 0.0427231
-59.4342 41.8825 10.3724 -0.443548 0.895751 0.029537
-59.4254 41.8475 12.006 -0.442646 0.896621 0.0115612
-59.5065 41.8008 13.2701 -0.443648 0.896197 -0.00260177
-59.4203 41.8625 14.8236 -0.441425 0.896972 -0.0229132
-59.5257 41.8506 16.1075 -0.462928 0.885817 -0.0301698
-59.3192 42.0255 17.5112 -0.466466 0.883437 -0.0440637
-59.4143 42.0307 18.8755 -0.477961 0.878254 -0.014939
-59.0818 42.2111 20.1041 -0.472055 0.881383 0.0156356
-57.6495 42.9734 20.3341 -0.461066 0.885292 0.0504769
-56.42 43.4984 20.2991 -0.325561 0.94514 0.0268471
-55.5375 43.7777 19.7919 -0.259895 0.965553 0.00358249
-55.4159 43.7797 18.4181 -0.325197 0.940033 -0.102883
-54.4475 43.9026 17.7986 -0.123742 0.991338 -0.0440157
-53.2763 44.0489 17.7586 -0.154564 0.980467 0.12163
-52.0374 44.2288 17.7986 -0.276684 0.936224 0.204499
-51.0877 44.4529 18.4054 -0.608074 0.780016 0.147722
-51.0006 44.4302 19.6012 -0.566475 0.823673 0.0258625
-50.3865 44.8339 20.3684 -0.588263 0.807537 0.0390175
-49.2203 45.7282 20.3602 -0.639891 0.76469 0.0760814
-48.1323 46.6471 20.3295 -0.646405 0.761573 0.0465497
-47.1405 47.5223 20.2815 -0.672457 0.738344 0.0514761
-46.1709 48.4131 20.3775 -0.681753 0.730927 0.030955
-44.9765 49.4904 20.3843 -0.664005 0.747596 0.0140414
-44.0662 50.2882 20.3243 -0.638433 0.76901 -0.00355977
-42.9273 51.1493 20.2677 -0.575508 0.817557 -0.0197889
-41.8017 51.9511 20.3996 -0.58987 0.807225 -0.0163124
-40.6174 52.6296 20.3824 -0.450355 0.892386 -0.00111306
-39.5281 53.1133 20.3761 -0.36241 0.931845 -0.0180161
-38.2325 53.5794 20.3744 -0.340264 0.940319 -0.00461326
-37.1034 53.9898 20.3293 -0.342822 0.939387 0.00459262
-35.928 54.4243 20.0621 -0.344686 0.938647 0.011556
-35.9442 54.4219 18.8304 -0.349885 0.936735 -0.010438
-37.137 53.9724 18.7166 -0.363349 0.931325 -0.0242083
-38.5974 53.4108 18.7804 -0.358776 0.93297 -0.028994
-39.8752 52.882 18.7021 -0.394799 0.915243 -0.0804
-41.0263 52.3517 18.6985 -0.441561 0.88441 -0.147485
-42.0651 51.6844 18.7799 -0.560129 0.825452 -0.0698864
-43.2144 50.846 18.6887 -0.590419 0.804732 -0.0617405
-44.3596 50.0119 18.8399 -0.621631 0.781809 -0.0302086
-45.2868 49.2377 18.7744 -0.643483 0.765366 -0.00264623
-46.4668 48.2179 18.7975 -0.664254 0.747303 0.0174625
-47.4416 47.3697 18.7063 -0.651141 0.755591 0.0713999
-48.4285 46.5378 18.5461 -0.646719 0.759195 0.0733376
-49.6099 45.5975 18.1658 -0.619052 0.782205 0.07022
-50.689 44.8577 17.6224 -0.543158 0.83885 0.0361969
-51.7037 44.5132 17.0593 -0.369894 0.909156 0.188516
-52.7473 44.3175 16.5198 -0.242483 0.940375 0.238532
-53.7701 44.1352 15.71 -0.291788 0.947864 0.128118
-54.7639 43.8624 14.6695 -0.356112 0.933122 0.049675
-55.5945 43.5702 13.7984 -0.388846 0.920685 0.0337431
-56.1302 43.3798 12.7033 -0.413317 0.910023 0.0320397
-56.4725 43.269 11.5485 -0.412352 0.910234 0.03794
-56.5684 43.2793 10.3629 -0.439555 0.896812 0.0502078
-56.5971 43.3322 9.18571 -0.448039 0.891995 0.0600391
-56.6619 43.4098 7.60119 -0.450764 0.890183 0.0660499
-56.6414 43.528 6.24139 -0.456309 0.886884 0.0722077
-56.7563 43.5704 5.06204 -0.462207 0.883218 0.0793098
-56.6242 43.7557 3.71554 -0.465355 0.882026 0.0739981
-56.7178 43.8318 2.23263 -0.468172 0.880625 0.0729024
-56.7415 43.9175 1.03018 -0.473737 0.877798 0.0710155
-56.8692 43.9466 -0.21866 -0.476213 0.876739 0.0674569
-56.8388 44.0613 -1.49903 -0.478593 0.87544 0.0674803
-56.7137 44.2237 -2.72144 -0.480177 0.874556 0.0676828
-56.3842 44.489 -3.83814 -0.479975 0.874935 0.0641237
-56.2651 44.5718 -4.07604 -0.479972 0.874938 0.0641204
-56.9787 43.1273 16.9981 -0.376725 0.923037 -0.0755656
-56.644 43.1782 15.9585 -0.365354 0.929126 -0.0565681
-57.2406 42.9178 15.5216 -0.39391 0.918367 -0.037902
-57.1025 43.0534 16.7505 -0.394528 0.915724 -0.0761358
-31.6909 55.8431 16.4878 -0.310669 0.948293 0.0649844
-31.6274 55.8984 15.9974 -0.310548 0.948212 0.0667308
-30.6051 56.2469 15.9338 -0.316452 0.945453 0.0773122
-30.8501 56.2664 14.6617 -0.324451 0.9429 0.0753023
-31.0539 56.2825 13.5894 -0.32222 0.943706 0.0747483
-31.8192 56.0384 13.2789 -0.332667 0.939823 0.0778809
-32.3001 55.7947 14.221 -0.335647 0.9393 0.0711043
-32.9382 55.4655 15.7875 -0.335463 0.940498 0.0541154
-33.56 55.2119 16.6699 -0.315438 0.948454 0.0295052
-34.2596 54.9726 17.4974 -0.297668 0.954653 0.00554085
-33.3768 55.2425 17.7997 -0.307127 0.951414 0.0220069
-32.1953 55.6053 17.7916 -0.285413 0.95729 0.0461123
-30.8382 56.0074 17.8136 -0.284979 0.955186 0.0800059
-30.1826 56.2557 17.341 -0.305228 0.947484 0.095448
-30.5844 56.2207 16.3322 -0.312463 0.945745 0.0890695
-30.6014 56.2188 16.2927 -0.314532 0.945597 0.0829489
-56.8456 44.8849 -15.231 -0.338991 0.935947 0.0953271
-57.2413 44.6818 -14.7508 -0.344414 0.932315 0.110308
-57.2938 44.5402 -13.358 -0.409904 0.908952 0.0760653
-56.3863 44.9898 -14.4612 -0.374325 0.924706 0.0692711
-55.9268 45.1674 -14.9894 -0.289072 0.956877 0.0286994
-55.2039 45.3784 -14.5242 -0.304013 0.952246 -0.028365
-56.1209 45.0381 -13.4662 -0.371628 0.927886 0.030341
-57.0464 44.5835 -12.3375 -0.416535 0.907666 0.0513914
-57.3609 44.4186 -11.9472 -0.430062 0.901575 0.0470062
-57.3349 44.3569 -10.6477 -0.441536 0.896211 0.0430306
-56.2775 44.9191 -11.9692 -0.414967 0.909603 0.0205977
-55.2323 45.3728 -13.215 -0.365899 0.930628 -0.00706703
-54.2729 45.6762 -14.3078 -0.285702 0.956678 -0.0560492
-53.7822 45.7866 -14.8496 -0.278828 0.958636 -0.057195
-52.1769 46.2534 -15.4055 -0.374074 0.907405 -0.191531
-53.2236 46.0377 -14.2434 -0.375436 0.919006 -0.120315
-54.253 45.7529 -13.0796 -0.369613 0.927557 -0.054991
-55.3811 45.3136 -11.7513 -0.423008 0.906105 -0.00621708
-56.3149 44.8629 -10.6078 -0.433166 0.901201 0.0143009
-57.1725 44.3933 -9.52638 -0.460532 0.886891 0.0365321
-57.4404 44.2401 -9.18455 -0.462921 0.885386 0.0423827
-57.441 44.1718 -7.8481 -0.472522 0.88024 0.0435904
-56.2391 44.8598 -9.38048 -0.444678 0.895141 0.0313768
-55.294 45.3484 -10.5579 -0.426532 0.904359 0.0143053
-54.4073 45.7479 -11.6317 -0.394179 0.918807 -0.020425
-53.43 46.116 -12.7844 -0.405126 0.911474 -0.0713289
-52.2503 46.4528 -14.1404 -0.424174 0.890825 -0.162809
-51.1595 46.7368 -15.4002 -0.450053 0.873091 -0.187524
-50.2464 47.0391 -16.5307 -0.515669 0.839445 -0.171519
-49.9196 47.1515 -16.9428 -0.543765 0.826399 -0.146232
-48.9908 47.7982 -16.9785 -0.571868 0.812917 -0.110145
-49.853 47.4111 -15.8318 -0.52174 0.837806 -0.160834
-50.9609 47.0272 -14.4592 -0.4691 0.867142 -0.167361
-52.0202 46.7062 -13.2097 -0.427274 0.896896 -0.114083
-53.1421 46.311 -11.8735 -0.423714 0.90316 -0.0690505
-54.4072 45.7862 -10.3535 -0.42895 0.903228 -0.0134137
-54.9631 45.5143 -9.66807 -0.44851 0.893632 0.0161394
-52.9489 46.4928 -10.8613 -0.451365 0.890376 -0.0591531
-51.9536 46.8779 -12.0649 -0.450486 0.887328 -0.0985448
-51.0214 47.2107 -13.1916 -0.468921 0.874934 -0.120847
-49.8908 47.607 -14.5815 -0.502419 0.852559 -0.143935
-50.0258 47.7465 -13.202 -0.486401 0.863007 -0.136502
-50.9269 47.408 -12.0845 -0.463708 0.879202 -0.109443
-51.8965 47.0214 -10.8912 -0.455867 0.886624 -0.0779953
-51.9772 46.9886 -10.7925 -0.452683 0.888948 -0.0696381
-50.9442 47.5272 -10.8174 -0.467678 0.880281 -0.0798948
-50.0553 47.9013 -11.9351 -0.482997 0.869576 -0.102724
-50.0402 47.9073 -11.954 -0.486646 0.866534 -0.11088
