56.1702 47.9469 15.757 0.254327 0.965013 -0.0637748
54.9305 48.2716 15.8641 0.207713 0.971955 0.101256
53.7747 48.6224 15.8224 0.371987 0.919252 0.128848
52.6206 49.0235 16.2932 0.41193 0.898237 0.145502
51.6049 49.4303 17.1264 0.538534 0.827051 0.147763
50.6094 50.0796 18.0118 0.611879 0.787989 0.066832
49.7093 50.8125 18.104 0.647088 0.762149 0.0186614
48.7145 51.6627 18.1937 0.631819 0.77395 -0.0425074
47.7488 52.3994 18.1653 0.575587 0.816883 -0.0374345
46.7625 52.9306 18.2146 0.39464 0.910802 -0.121242
46.8335 52.808 17.6124 0.380574 0.909095 -0.168825
47.4742 52.3254 16.7506 0.474042 0.868467 -0.145085
48.0878 51.8252 15.3706 0.450982 0.887154 -0.0976077
48.512 51.5473 13.9768 0.45798 0.888319 -0.00415407
48.8062 51.421 12.7483 0.425816 0.904503 0.019056
48.847 51.4434 11.5965 0.409347 0.911219 0.04565
48.8716 51.4844 10.4865 0.413668 0.909163 0.0479847
49.0893 51.4436 9.32182 0.43194 0.901441 0.0164773
50.4512 50.764 9.04046 0.465738 0.884749 -0.0166823
51.5207 50.1757 8.84763 0.48975 0.871626 -0.0203206
52.5182 49.6005 8.53979 0.482665 0.874374 -0.0500452
53.6322 48.9459 8.0018 0.495703 0.865794 -0.0683993
54.5311 48.4024 7.62542 0.492087 0.868245 -0.0631511
55.4553 47.8292 7.00343 0.494966 0.866036 -0.0706357
56.2464 47.2992 6.13123 0.501233 0.861834 -0.07733
56.782 47.0703 7.09169 0.504667 0.859735 -0.0785314
56.8377 47.1348 8.23308 0.496189 0.865504 -0.068556
56.7648 47.2708 9.41952 0.487341 0.870559 -0.0680115
56.7507 47.3611 10.5436 0.482281 0.874051 -0.0580324
56.7802 47.4301 11.8038 0.471622 0.878494 -0.0747898
56.6476 47.5655 12.8736 0.432864 0.899503 -0.0578858
56.6432 47.6472 13.9832 0.390416 0.918806 -0.0551897
56.5747 47.8206 15.459 0.312244 0.942597 -0.0956208
56.3417 47.8953 15.6599 0.254327 0.965013 -0.0637752
56.3387 48.0213 16.8225 0.136287 0.98899 -0.057657
55.0225 48.1469 16.844 0.0888945 0.988088 0.125619
53.8401 48.3661 16.8674 0.298097 0.929238 0.2183
52.7998 48.6577 17.3373 0.454883 0.858308 0.22541
52.0305 48.9084 18.2028 0.643938 0.751029 0.145943
51.6522 49.0565 19.1674 0.655263 0.751079 0.0794189
50.657 49.9417 19.1671 0.658873 0.74936 0.0657748
49.6939 50.792 19.2416 0.673595 0.738418 0.0316651
48.7956 51.6168 19.2096 0.687917 0.725213 0.0112747
47.7995 52.401 19.2798 0.583538 0.81195 -0.0148476
46.7587 53.0174 19.3187 0.441923 0.895646 -0.0502275
45.6258 53.5233 19.314 0.399331 0.91345 -0.07835
44.4978 53.9696 19.0255 0.364241 0.92769 -0.0789033
44.8742 53.7103 18.0471 0.36591 0.922215 -0.125014
45.7861 53.1947 17.1579 0.394822 0.905599 -0.15443
46.4664 52.7486 16.3187 0.403288 0.901956 -0.154385
47.0626 52.3209 15.0919 0.422331 0.900919 -0.0938238
47.5084 52.0217 13.8508 0.419344 0.907502 -0.0242907
47.8223 51.8681 12.5641 0.39993 0.91627 0.0224795
47.853 51.8899 11.3581 0.36578 0.929918 0.0381646
47.8313 51.9703 9.97419 0.363869 0.929444 0.0611014
47.5893 52.1377 8.8721 0.417115 0.905806 0.0743631
47.0876 52.4601 7.8913 0.411146 0.903101 0.118086
47.7763 52.1189 8.05192 0.417119 0.905805 0.0743576
48.9553 51.5383 8.23277 0.44214 0.896391 0.0260041
50.3524 50.8017 7.93934 0.478955 0.87714 -0.0225381
51.3467 50.2268 7.78895 0.496698 0.866894 -0.0422698
52.3731 49.6234 7.45417 0.490697 0.869674 -0.0536936
53.534 48.8997 6.8065 0.494887 0.865278 -0.0798393
54.4981 48.3116 6.33843 0.486913 0.86956 -0.0823465
55.3373 47.764 5.53395 0.49345 0.866459 -0.0758671
56.0936 47.2693 4.81386 0.499966 0.862621 -0.076844
56.7802 46.7805 3.92049 0.494992 0.864471 -0.0875948
57.1523 46.4462 2.7569 0.496644 0.862817 -0.0940117
57.4982 46.1313 1.71432 0.500816 0.860796 -0.0906269
57.7304 45.8857 0.660099 0.498042 0.86221 -0.0923787
57.7972 45.9684 1.81801 0.500768 0.860783 -0.0910157
57.8579 46.0477 2.9205 0.508365 0.85677 -0.0866592
57.8307 46.1847 4.16963 0.516091 0.85287 -0.0790996
57.7205 46.3596 5.3109 0.506375 0.858911 -0.0765208
57.7279 46.4588 6.53622 0.511775 0.855277 -0.0807083
57.7826 46.5565 7.86873 0.514127 0.854602 -0.0729941
57.7561 46.692 9.28832 0.504385 0.860642 -0.0699349
57.7603 46.7871 10.4938 0.490579 0.868811 -0.0668521
57.7641 46.8808 11.6391 0.485822 0.869722 -0.0859722
57.6852 47.094 13.2612 0.46314 0.880298 -0.102845
57.6856 47.2178 14.401 0.428284 0.897893 -0.101784
57.6706 47.38 15.5868 0.410769 0.903206 -0.122945
57.7232 47.5705 16.9007 0.436042 0.886538 -0.154593
56.6984 47.9492 16.8732 0.229476 0.961009 -0.154282
56.522 47.9871 16.8469 0.22943 0.961022 -0.154268
56.2569 48.0812 17.8556 -0.10461 0.990503 -0.0149908
57.3291 47.9919 18.1911 0.472597 0.86943 -0.144024
57.4801 47.933 19.374 0.466894 0.883022 0.0256254
58.0126 47.6578 19.9569 0.461948 0.886691 -0.0195848
58.6008 47.2975 18.8224 0.499179 0.86554 -0.0407465
58.7821 47.1214 17.6623 0.468784 0.87802 -0.0965513
58.7248 46.9971 16.3683 0.448425 0.883893 -0.129563
58.7145 46.7723 14.9745 0.4804 0.866443 -0.13452
58.7169 46.6054 13.7767 0.466759 0.877057 -0.112908
58.7104 46.4529 12.5591 0.491299 0.864335 -0.10663
58.7315 46.32 11.4552 0.510205 0.854603 -0.0959669
58.7562 46.1908 10.3375 0.506344 0.858588 -0.0797665
58.7241 46.1079 9.19224 0.5204 0.850236 -0.0791753
58.7192 46.0123 8.08381 0.516515 0.852752 -0.07743
58.6929 45.8947 6.7151 0.522642 0.84856 -0.0823897
58.7046 45.7757 5.49557 0.520159 0.850556 -0.0773888
58.7413 45.6509 4.36093 0.523508 0.848642 -0.0758017
58.7937 45.5062 3.12674 0.519184 0.850933 -0.079725
58.7471 45.408 1.84195 0.513097 0.853757 -0.0884886
58.7198 45.309 0.681695 0.502904 0.85995 -0.0869097
58.7125 45.204 -0.445163 0.5064 0.858449 -0.0813543
58.7402 45.0572 -1.81793 0.500948 0.861462 -0.0832674
58.6748 44.9916 -2.91585 0.498837 0.862994 -0.0800242
58.6951 44.8711 -4.1569 0.484527 0.871691 -0.0734046
58.7387 44.753 -5.31986 0.480154 0.874608 -0.0671769
58.7558 44.6401 -6.73814 0.480741 0.874709 -0.061421
58.7315 44.5747 -7.85261 0.475324 0.87772 -0.060616
58.7335 44.5001 -8.96019 0.473783 0.878892 -0.055493
58.6552 44.4508 -10.3458 0.465334 0.883098 -0.0600258
58.6549 44.3761 -11.5722 0.443569 0.894639 -0.051954
58.6777 44.3153 -12.6844 0.450348 0.892175 -0.033397
58.6451 44.307 -13.8781 0.419586 0.907535 -0.0180762
58.6686 44.2856 -15.1662 0.416587 0.909008 0.0119899
58.7918 44.2633 -16.4702 0.422341 0.905811 0.0328778
58.6781 44.363 -17.6818 0.429281 0.902252 0.0407232
58.7134 44.4259 -19.1659 0.434009 0.89928 0.0541474
57.8379 44.8306 -20.1242 0.411913 0.910391 -0.0378692
56.8362 45.2108 -20.3398 0.327423 0.944861 -0.00561891
56.0609 45.4677 -19.8722 0.298157 0.954428 0.0102402
55.9912 45.4823 -18.6866 0.259585 0.965153 0.030438
55.1316 45.5215 -18.0253 0.118023 0.977543 0.116248
53.9746 45.6232 -17.9327 0.12463 0.983088 -0.128312
52.7399 45.8158 -17.8493 0.211426 0.932426 -0.293054
52.852 45.9584 -17.3446 0.269263 0.922594 -0.265017
53.7403 45.883 -16.601 0.244629 0.954219 -0.16744
54.515 45.7831 -15.7935 0.23365 0.967462 -0.0832724
55.3368 45.6459 -14.6405 0.314756 0.945795 -0.0687527
55.8844 45.5031 -13.6823 0.348612 0.935067 -0.0641873
56.272 45.4605 -12.383 0.410343 0.908309 -0.0802092
56.3224 45.5505 -11.1011 0.430409 0.898998 -0.080935
56.2813 45.7162 -9.59274 0.438942 0.893934 -0.0905504
56.2088 45.856 -8.44495 0.45093 0.889965 -0.0679668
56.2805 45.9071 -7.33328 0.451393 0.888968 -0.0773273
56.1944 46.0733 -5.88718 0.460801 0.88455 -0.0721678
56.268 46.1505 -4.66216 0.468955 0.879281 -0.0833064
56.3332 46.2385 -3.41641 0.474197 0.876184 -0.0862126
56.2562 46.4215 -2.10796 0.478414 0.87296 -0.0951884
56.2718 46.5415 -0.924492 0.482086 0.871429 -0.0903783
56.3903 46.6073 0.292507 0.478579 0.872898 -0.0949189
56.29 46.7972 1.55307 0.485649 0.868965 -0.0949927
56.0705 47.0437 2.63333 0.486179 0.868312 -0.0983101
55.6121 47.4338 3.77804 0.489686 0.865824 -0.102743
54.7216 48.0375 4.75693 0.485573 0.870136 -0.0840946
53.8339 48.5986 5.45647 0.476732 0.874024 -0.0938511
52.8528 49.2121 6.01362 0.488809 0.867252 -0.0945533
51.886 49.8266 6.50559 0.509918 0.855326 -0.0910683
50.61 50.5964 6.76795 0.50106 0.863377 -0.0572386
49.4735 51.248 7.00139 0.486373 0.872516 -0.046434
48.4082 51.8211 7.02238 0.484472 0.874743 0.0105842
47.4927 52.3667 6.65636 0.52414 0.851202 -0.0251239
46.51 52.8187 6.23732 0.280822 0.957398 -0.0201598
45.6037 53.1056 5.35534 0.284342 0.957764 0.0428643
44.8529 53.3634 4.53608 0.317983 0.945339 0.0722615
44.0246 53.6792 3.71793 0.300129 0.953638 0.0221913
43.2214 53.9517 2.8468 0.293747 0.954758 0.0433381
42.3855 54.2341 2.03804 0.256131 0.963824 0.0737575
41.377 54.5074 1.82542 0.207527 0.971661 0.113173
40.6926 54.5347 2.80455 0.199176 0.974654 0.101878
41.3686 54.3062 3.66409 0.202873 0.974451 0.0963639
42.2027 54.0506 4.45461 0.213771 0.971491 0.102385
43.0667 53.7699 5.34235 0.222755 0.970431 0.092972
43.9579 53.4813 6.17605 0.224591 0.970079 0.0922304
44.7711 53.2073 7.03085 0.228213 0.968845 0.0962167
45.6642 52.9025 7.88082 0.253678 0.961579 0.104939
46.3965 52.5885 8.89454 0.31925 0.940861 0.113402
46.8122 52.3435 10.1743 0.32005 0.944512 0.0739222
46.8904 52.254 11.5945 0.34041 0.939283 0.0365686
46.6642 52.346 13.0385 0.378368 0.925225 -0.0216008
46.3252 52.5427 14.2207 0.387545 0.918657 -0.0719563
45.8052 52.8918 15.3683 0.375935 0.915108 -0.145773
45.037 53.3799 16.4371 0.378075 0.914023 -0.147041
44.2822 53.8091 17.1809 0.355561 0.920643 -0.16122
43.5296 54.2416 17.9195 0.354813 0.922683 -0.150032
43.4405 54.4013 18.9937 0.407966 0.911151 -0.0529314
43.5672 54.4023 20.1169 0.375487 0.926672 -0.0169981
44.4763 54.0525 20.4535 0.377907 0.925835 -0.00408688
45.7142 53.5474 20.4027 0.380684 0.924445 -0.0219365
46.7369 53.085 20.4404 0.443484 0.895308 -0.0417783
47.8195 52.4436 20.4209 0.585415 0.807507 -0.0722663
48.7262 51.7003 20.4023 0.668188 0.742633 -0.0116535
49.5318 50.9028 20.3608 0.710465 0.703013 0.0318069
50.5841 49.9057 20.3017 0.682084 0.727988 0.0692529
51.515 49.057 20.3473 0.669611 0.739294 0.0711633
52.5536 48.2282 20.2863 0.61895 0.78338 0.0567146
52.7212 48.1623 19.1733 0.644422 0.760798 0.070546
53.1907 48.1023 18.0735 0.379672 0.694127 0.611586
54.3505 48.0135 17.8868 0.0204322 0.955644 0.293816
55.4724 48.0455 17.9356 -0.0380444 0.995666 0.0747047
56.1166 48.0786 17.8709 -0.0188579 0.99982 0.00226814
56.6847 45.1239 -16.2773 0.321631 0.946844 0.00165888
56.684 45.1241 -16.276 0.31662 0.948542 0.00455821
55.8606 45.3961 -15.6777 0.316637 0.948364 -0.0107126
56.6087 45.1788 -14.492 0.350579 0.935654 -0.0130484
57.3042 44.9335 -13.362 0.400588 0.914924 -0.0494392
57.3966 44.9639 -12.0573 0.411195 0.909042 -0.0647043
57.6582 44.8516 -11.8945 0.443568 0.894639 -0.0519495
57.7252 44.743 -13.3489 0.427555 0.903214 -0.0332493
57.63 44.7533 -14.6733 0.382258 0.923873 -0.0129492
57.7082 44.7197 -15.7793 0.387092 0.921863 0.0122416
57.7029 44.7586 -16.8988 0.387898 0.920629 0.0444677
57.564 44.8633 -18.0016 0.401382 0.913708 0.0573911
57.4809 45.0039 -19.0622 0.441252 0.89376 0.0805611
56.8951 45.2104 -18.516 0.331047 0.937257 0.10935
56.3581 45.2635 -17.5566 0.273632 0.960992 0.0402561
55.4309 45.4513 -17.0441 0.224765 0.972642 0.0160489
55.5325 45.463 -16.1582 0.256421 0.964829 -0.0516914
57.7536 45.1282 -7.51694 0.467547 0.881398 -0.0669259
57.7705 45.2131 -6.23272 0.4747 0.877787 -0.0644039
57.7614 45.3127 -5.05127 0.474804 0.876701 -0.0771751
57.7114 45.4133 -4.23105 0.481501 0.872646 -0.0810824
57.7095 45.5204 -3.07533 0.490631 0.866986 -0.0870816
57.7913 45.5933 -1.92636 0.492604 0.866045 -0.0854863
57.624 45.8059 -0.692333 0.49427 0.865144 -0.0848581
57.7565 45.8431 0.401109 0.494884 0.864344 -0.0894405
57.2322 46.0463 -0.536815 0.490642 0.866356 -0.0930731
57.1877 45.9344 -1.88542 0.480517 0.871874 -0.0945461
57.3842 45.7155 -2.94394 0.478169 0.873551 -0.0908517
57.1237 45.7366 -4.17379 0.474454 0.876443 -0.0821
57.2442 45.5542 -5.48743 0.469301 0.879429 -0.0795882
57.2674 45.4345 -6.84385 0.462151 0.883981 -0.0706502
57.3866 45.3239 -7.4607 0.461066 0.884646 -0.0694271
57.1791 45.3832 -8.11206 0.461738 0.884611 -0.0652779
57.4602 45.1383 -9.35043 0.455516 0.887065 -0.0749354
57.4002 45.0738 -10.5827 0.445034 0.893156 -0.0649251
57.7437 44.9035 -10.5703 0.445037 0.893155 -0.0649238
57.775 44.9679 -9.4918 0.453436 0.889067 -0.0620653
57.6757 45.0988 -8.43229 0.463602 0.883452 -0.0677173
57.2822 45.3526 -7.79796 0.461741 0.884609 -0.0652816
43.4485 52.4781 -18.7532 0.423255 0.903956 0.0609794
42.3752 52.9026 -18.7178 0.330329 0.941005 0.0734327
41.2821 53.305 -18.7519 0.356116 0.933175 0.0486323
40.0192 53.7716 -18.7403 0.341387 0.938976 0.0421736
38.8685 54.1989 -18.7246 0.360168 0.932539 0.0254769
38.242 54.4516 -19.5428 0.359163 0.933265 0.00429551
38.7077 54.2589 -20.5616 0.351921 0.935453 -0.0328607
39.8433 53.8517 -20.5555 0.329854 0.943888 -0.0158332
40.9365 53.4655 -20.4948 0.342519 0.93949 -0.00589447
42.0879 53.0333 -20.47 0.357129 0.933875 -0.0168627
43.1362 52.6034 -20.5038 0.393604 0.91879 -0.0294785
44.1831 52.0951 -20.5162 0.488997 0.866303 -0.101862
45.157 51.3564 -20.4852 0.616298 0.787012 -0.0280899
46.3123 50.3864 -20.4163 0.659943 0.751199 -0.0132318
47.2799 49.5332 -20.3685 0.67135 0.740734 -0.0218583
48.4982 48.4257 -20.2049 0.671517 0.740196 -0.0342915
49.3734 47.6335 -20.4746 0.669796 0.740875 -0.0469913
50.3252 46.8687 -20.3674 0.617135 0.785833 -0.0401376
51.4213 46.0497 -20.3618 0.579983 0.814475 -0.0157898
51.5013 46.0165 -19.246 0.608029 0.793373 -0.0293384
51.249 46.3242 -18.2931 0.595864 0.789974 -0.144527
50.3234 47.0163 -18.4727 0.610329 0.786731 -0.0924409
49.3915 47.7559 -18.5771 0.635072 0.763449 -0.117601
48.4019 48.5809 -18.8409 0.656743 0.75156 -0.056249
47.1756 49.663 -18.8072 0.644573 0.764208 -0.022635
45.9601 50.6858 -18.7733 0.630942 0.775673 0.0156114
45.0756 51.4132 -18.7402 0.632287 0.77431 0.0256085
44.1013 52.1218 -18.7408 0.511853 0.850938 0.116383
43.5714 52.4211 -18.7603 0.423247 0.903959 0.0609855
32.71 56.1992 -18.0184 0.278739 0.958787 -0.0541263
33.4271 55.9854 -17.6414 0.325002 0.944557 -0.0467608
32.697 56.2313 -17.5065 0.299194 0.952763 -0.0522167
32.5072 56.2668 -17.9031 0.288453 0.956024 -0.0530406
49.9572 51.0113 9.78142 0.43369 0.899984 0.044066
49.4196 51.2368 10.4529 0.421062 0.905968 0.0439257
49.4567 51.1572 11.6857 0.420267 0.906779 0.033577
50.4981 50.7146 10.3794 0.451904 0.891108 0.0413462
51.1558 50.3969 9.54247 0.479664 0.87729 -0.016885
52.3677 49.7085 9.26166 0.483989 0.874986 -0.012435
51.4211 50.2379 10.4964 0.473485 0.880626 0.0176062
50.29 50.7466 11.9112 0.449404 0.891887 0.0507324
49.4452 51.1151 12.9845 0.457621 0.888833 0.0236664
48.538 51.5805 15.4789 0.48161 0.876169 -0.0195097
49.6392 50.9803 14.0122 0.475877 0.879143 0.0254817
50.6968 50.4969 12.6588 0.459046 0.886092 0.0641696
51.7759 50.0148 11.3152 0.469803 0.881507 0.0472345
52.863 49.4437 9.92971 0.478543 0.878064 0.000824356
54.027 48.7484 8.41606 0.499569 0.865223 -0.0426626
55.8093 47.6601 7.40969 0.495985 0.865478 -0.0703322
54.8462 48.2979 8.67449 0.490078 0.870056 -0.0531665
53.8418 48.9107 9.97651 0.478794 0.877768 -0.016747
52.8602 49.4459 11.2239 0.474795 0.879791 0.0231765
51.8463 49.9104 12.4714 0.46821 0.881194 0.0654049
50.7956 50.3558 13.7809 0.474266 0.877155 0.075306
49.7447 50.8691 15.1393 0.510991 0.85936 0.0197351
48.8003 51.4965 16.484 0.564496 0.823556 -0.055669
48.0828 52.0754 17.5503 0.580921 0.805737 -0.115407
48.9904 51.4063 17.5459 0.598749 0.799862 -0.0414706
49.9795 50.6676 16.0888 0.559764 0.828168 0.0283218
51.0833 50.126 14.655 0.491782 0.866396 0.086656
52.1297 49.685 13.3642 0.45906 0.884534 0.0828504
53.2253 49.218 12.0246 0.440003 0.897096 0.0402017
54.2468 48.7096 10.7628 0.468773 0.883187 -0.0152254
55.398 48.0268 9.28816 0.484551 0.872914 -0.0568497
56.198 47.5035 8.24205 0.497749 0.864634 -0.0682158
56.1683 47.6203 9.6198 0.487618 0.870585 -0.0656519
55.2129 48.2013 10.8489 0.463041 0.88595 -0.0261837
54.1548 48.7448 12.1475 0.450159 0.892907 0.00859405
52.9079 49.27 13.6457 0.426647 0.901365 0.0742527
51.8491 49.6655 14.913 0.476807 0.873831 0.0952594
50.844 50.0944 16.1692 0.545504 0.834862 0.0736932
49.9694 50.6315 17.3929 0.5979 0.801517 0.00930265
51.7205 49.5484 16.255 0.493824 0.855729 0.154482
52.7642 49.1859 15.0142 0.452024 0.882471 0.130072
53.8722 48.8146 13.7293 0.399151 0.915399 0.0521761
55.2225 48.2289 12.1287 0.435425 0.900216 0.00410888
56.1523 47.7142 10.9746 0.476213 0.877348 -0.0590115
56.1418 47.7837 12.2967 0.442686 0.89567 -0.0424758
55.1051 48.2828 13.534 0.396697 0.917721 -0.0204728
53.9201 48.6954 14.8817 0.370491 0.922481 0.108469
53.6857 48.754 15.1406 0.371976 0.919255 0.128857
54.6438 48.4061 15.2873 0.281694 0.956292 0.0784523
55.7625 48.0261 14.0417 0.381719 0.924015 -0.0220719
56.0655 47.8826 13.6843 0.393613 0.918514 -0.0374358
56.0211 47.9669 15.0196 0.326185 0.944537 -0.0381295
55.9274 48.0032 15.1235 0.325978 0.944688 -0.0360827
