-58.0408 45.3216 -5.88897 -0.480383 0.874711 0.0641392
-57.8921 45.5053 -7.30351 -0.487228 0.871027 0.0626137
-57.7747 45.6526 -8.74411 -0.470444 0.88149 0.0407133
-57.8238 45.6957 -10.0021 -0.467825 0.882108 0.0550055
-57.8565 45.7584 -11.3475 -0.427165 0.902318 0.0579052
-57.9282 45.8444 -12.8552 -0.412852 0.90797 0.0694389
-57.8887 45.9828 -14.2683 -0.367819 0.926751 0.0756818
-57.822 46.192 -15.9147 -0.341325 0.934516 0.0956975
-56.3048 46.6068 -15.5263 -0.243112 0.967869 0.0523893
-54.9916 46.9231 -15.542 -0.247144 0.965646 -0.0803027
-53.7823 47.2354 -15.493 -0.29975 0.934578 -0.191611
-52.5919 47.5935 -15.7456 -0.414893 0.87269 -0.257441
-51.2618 47.9746 -16.9251 -0.540527 0.81302 -0.216397
-50.4492 48.3756 -17.786 -0.627671 0.763456 -0.1522
-49.4052 49.2333 -17.859 -0.641946 0.764647 -0.05675
-48.4368 50.0723 -17.797 -0.645057 0.764089 0.00830071
-48.0399 50.4011 -17.2224 -0.637825 0.769398 -0.0191974
-48.7149 49.9258 -16.0044 -0.578022 0.814452 -0.0505113
-49.3729 49.64 -14.3878 -0.513838 0.852519 -0.0932914
-49.6132 49.6483 -13.1779 -0.489795 0.865242 -0.106295
-49.6521 49.831 -11.4819 -0.458837 0.882972 -0.0983902
-49.8163 49.8589 -10.2596 -0.459505 0.885961 -0.0625772
-50.9548 49.2506 -10.2379 -0.4837 0.872261 -0.0720766
-52.2274 48.5524 -10.1546 -0.469913 0.881005 -0.05393
-53.3318 47.9771 -9.83862 -0.463758 0.885186 -0.03536
-54.6909 47.2808 -9.23744 -0.450992 0.892323 0.0115906
-55.6851 46.7496 -8.56397 -0.459314 0.887435 0.0376369
-56.5607 46.2501 -7.79639 -0.460895 0.886343 0.0444175
-57.3716 45.7579 -6.84394 -0.474544 0.877411 0.0704076
-57.7677 45.5012 -6.29377 -0.477673 0.876336 0.0620406
-56.9382 45.8935 -5.50044 -0.472813 0.878029 0.0742437
-56.1053 46.4139 -6.58553 -0.469001 0.881542 0.0540523
-55.2237 46.9317 -7.41251 -0.468674 0.882452 0.0402921
-54.1398 47.5435 -8.21056 -0.468751 0.882633 0.0350813
-53.1095 48.1077 -8.67563 -0.483993 0.875069 -0.00197164
-51.9575 48.7403 -9.01427 -0.488659 0.872169 -0.0231186
-50.6522 49.4765 -9.03397 -0.492488 0.869472 -0.0384057
-49.4295 50.1606 -8.94396 -0.46519 0.88168 -0.0789872
-48.2726 50.7691 -8.8811 -0.460873 0.882605 -0.0927628
-48.5107 50.5249 -10.1678 -0.452032 0.88796 -0.0848193
-48.5399 50.3688 -11.6742 -0.437791 0.895708 -0.0768055
-48.4991 50.2491 -13.2899 -0.484839 0.871444 -0.0703136
-48.2102 50.3272 -14.5561 -0.505375 0.859799 -0.0730916
-47.5925 50.7118 -15.8334 -0.537223 0.841636 0.0381822
-46.9254 51.2475 -16.9651 -0.614317 0.786111 0.0671934
-46.1721 51.9576 -17.9308 -0.664882 0.734256 0.129227
-45.2955 52.585 -18.7316 -0.470017 0.880087 0.0533327
-45.9359 52.2268 -19.1432 -0.546686 0.836538 0.0365933
-47.041 51.3246 -19.0351 -0.661738 0.747902 0.0523036
-48.1818 50.2769 -19.0684 -0.683042 0.73034 -0.00758496
-49.1884 49.3074 -19.0737 -0.706708 0.704302 -0.0657737
-50.1043 48.4109 -19.086 -0.719001 0.685538 -0.103674
-51.1835 47.4949 -18.8974 -0.609547 0.765033 -0.20251
-51.7736 47.3712 -17.8005 -0.570072 0.783041 -0.248725
-52.6963 47.2198 -16.8627 -0.407299 0.876514 -0.256541
-54.0425 46.9465 -16.7325 -0.0704321 0.971161 -0.227784
-55.4494 46.8236 -16.7383 -0.0926344 0.994786 0.0147234
-56.8052 46.6251 -16.8079 -0.205166 0.962596 0.171491
-57.799 46.4172 -17.5898 -0.403643 0.906791 0.120692
-58.5082 46.2446 -18.8411 -0.424893 0.899087 0.105322
-59.1304 45.8311 -17.7895 -0.420499 0.902242 0.0950784
-59.0967 45.704 -16.4906 -0.411691 0.902575 0.125975
-59.046 45.5676 -15.1954 -0.44172 0.889865 0.11412
-59.0551 45.4245 -13.8942 -0.45389 0.885927 0.0950034
-59.0397 45.2689 -12.3959 -0.452883 0.885932 0.100109
-59.0102 45.1644 -11.1451 -0.453874 0.887865 0.0753913
-58.9811 45.0873 -9.91266 -0.467912 0.881106 0.0670699
-58.9531 44.984 -8.33688 -0.48607 0.871907 0.0592854
-59.0594 44.8334 -6.98642 -0.48604 0.87197 0.0585899
-59.1862 44.6756 -5.74962 -0.488118 0.870533 0.0625547
-59.1883 44.5782 -4.48899 -0.478747 0.87532 0.0679498
-59.123 44.5131 -3.24585 -0.47672 0.87622 0.0705438
-58.8834 44.5327 -1.89302 -0.47211 0.878578 0.0721699
-58.8574 44.4286 -0.433637 -0.470007 0.87985 0.0704016
-58.6414 44.4389 0.835439 -0.46491 0.882328 0.0731888
-58.178 44.7575 -0.0648617 -0.465687 0.881942 0.0728912
-58.2033 44.8804 -1.66734 -0.468375 0.880248 0.076083
-58.0288 45.1038 -3.20025 -0.475868 0.876411 0.0738533
-57.4518 45.5321 -4.5305 -0.474796 0.876788 0.0762338
-57.0403 45.8227 -5.31363 -0.472813 0.878029 0.0742463
-56.0153 46.3219 -4.78754 -0.465031 0.882271 0.0731095
-55.0745 46.9195 -6.0127 -0.467411 0.881392 0.0683719
-54.0119 47.5512 -6.90096 -0.469664 0.881243 0.0531651
-53.0019 48.1349 -7.42095 -0.483367 0.874341 0.0417866
-51.7044 48.8822 -7.83757 -0.489606 0.871819 0.00896799
-50.5754 49.5581 -7.8381 -0.516577 0.856132 0.0136335
-49.3816 50.2793 -7.78089 -0.482863 0.873989 -0.0546586
-48.2278 50.9208 -7.49165 -0.470059 0.880858 -0.0559816
-46.9216 51.7178 -6.72467 -0.466514 0.872387 -0.141687
-46.269 52.2339 -5.80589 -0.411259 0.906174 -0.015276
-45.4765 52.5346 -4.90731 -0.404615 0.913302 0.0424378
-44.4439 52.9411 -4.04792 -0.325668 0.943928 -0.0542305
-43.6161 53.3053 -3.0956 -0.302095 0.947271 -0.106843
-42.7015 53.6498 -2.18113 -0.287965 0.954653 -0.0755944
-41.8712 53.9913 -1.25039 -0.360743 0.931443 -0.0438346
-40.8482 54.3894 -0.495885 -0.292975 0.948138 -0.123285
-40.0512 54.4661 -1.47951 -0.222306 0.964908 -0.139756
-40.7014 54.1911 -2.3797 -0.241529 0.962002 -0.127338
-41.5667 53.8446 -3.42857 -0.250994 0.960968 -0.11637
-42.4952 53.513 -4.21113 -0.24875 0.962132 -0.11139
-43.3599 53.1778 -5.13105 -0.255829 0.959803 -0.115458
-44.2959 52.825 -6.13082 -0.246954 0.964641 -0.0920955
-45.2039 52.4865 -7.03827 -0.259662 0.950459 -0.170757
-46.2551 51.8598 -7.93556 -0.387809 0.910665 -0.142238
-47.0277 51.357 -9.05392 -0.422949 0.900121 -0.104263
-47.44 50.9969 -10.5007 -0.413062 0.906591 -0.0855667
-47.4251 50.9008 -11.8217 -0.41021 0.911203 -0.0379032
-47.3028 50.8731 -13.6011 -0.456403 0.889396 -0.0223502
-46.9097 51.1154 -14.8643 -0.476639 0.87701 0.0605785
-46.2999 51.5605 -15.9824 -0.529436 0.845291 0.0719785
-45.5941 52.1187 -16.9319 -0.465416 0.864398 0.190275
-44.7077 52.7252 -17.6942 -0.417094 0.885696 0.2039
-43.7351 53.2356 -18.3999 -0.343711 0.930588 0.125973
-42.5578 53.7461 -18.9243 -0.362869 0.928716 0.0762386
-41.3027 54.2199 -18.8895 -0.359613 0.928636 0.091174
-40.9562 54.4163 -20.1223 -0.363194 0.931514 0.0176278
-42.0387 54.0136 -20.4483 -0.344533 0.938757 0.00570496
-43.2495 53.5547 -20.3832 -0.363761 0.93139 0.00837613
-44.6135 53.0416 -20.3772 -0.370718 0.928431 0.0241841
-45.7188 52.4945 -20.4383 -0.507018 0.857884 0.0834732
-46.8572 51.5719 -20.3881 -0.672634 0.737285 0.0630424
-47.8196 50.6628 -20.4162 -0.706428 0.707342 0.0250387
-48.6897 49.7597 -20.3537 -0.730397 0.682743 0.0173191
-49.5464 48.8302 -20.2922 -0.749684 0.661325 -0.0245547
-50.5636 47.6876 -20.3706 -0.737962 0.674343 -0.0252674
-51.6081 46.9228 -20.3983 -0.416375 0.90483 -0.0869907
-52.2676 46.6564 -19.4411 -0.428138 0.9033 -0.0273211
-52.6534 46.656 -18.1431 -0.363635 0.817598 -0.410074
-53.8428 46.713 -17.8509 0.0849777 0.965819 -0.232803
-55.1858 46.7916 -17.854 0.155246 0.979543 -0.0930855
-56.5041 46.8814 -17.9226 0.0686992 0.96898 0.219944
-57.2958 46.8022 -18.8418 -0.407652 0.910318 0.0717075
-57.3894 46.7717 -20.1876 -0.317454 0.947098 0.0472035
-58.519 46.3332 -20.3665 -0.406674 0.912831 0.0359091
-59.8236 45.6608 -20.275 -0.481392 0.875832 0.0174043
-60.1337 45.4026 -18.9355 -0.4831 0.871225 0.0840109
-60.1935 45.2576 -17.5164 -0.468192 0.880162 0.0781749
-60.1965 45.1166 -16.2134 -0.450541 0.885557 0.113148
-60.1652 44.9298 -14.7114 -0.487571 0.865177 0.116452
-60.1901 44.7672 -13.4162 -0.489044 0.866431 0.100628
-60.1143 44.6554 -12.0165 -0.480522 0.872709 0.0864682
-60.1013 44.5383 -10.6949 -0.477181 0.875631 0.0746245
-60.1706 44.3865 -9.32746 -0.487473 0.870374 0.0694126
-60.1134 44.2876 -7.63289 -0.487974 0.870367 0.0659027
-60.2637 44.1127 -6.31425 -0.486302 0.871737 0.0598529
-60.2405 44.0392 -5.07984 -0.48595 0.871665 0.0636088
-60.2417 43.9237 -3.53126 -0.479757 0.874861 0.066718
-60.0448 43.9385 -2.3104 -0.475087 0.877216 0.0691653
-59.9813 43.8779 -1.06525 -0.470832 0.879729 0.0662845
-59.8383 43.8589 0.170288 -0.467152 0.881571 0.0678078
-59.7423 43.8165 1.39775 -0.466073 0.882171 0.0674528
-59.7167 43.71 2.92926 -0.459318 0.885479 0.0703807
-59.6097 43.6612 4.23602 -0.455137 0.887693 0.069652
-59.642 43.541 5.56259 -0.450714 0.890113 0.0675041
-59.6943 43.4203 6.82377 -0.442595 0.89439 0.0646256
-59.6814 43.3367 8.2075 -0.435531 0.898766 0.0498924
-59.527 43.3555 9.44386 -0.43874 0.89819 0.0275799
-59.4942 43.3266 10.9203 -0.434222 0.900613 0.0186336
-59.4791 43.3166 12.1822 -0.432744 0.901468 0.00938332
-59.5996 43.2721 13.6183 -0.425718 0.904821 -0.00680109
-59.5758 43.3337 14.9355 -0.433615 0.899358 -0.0530659
-59.5573 43.4447 16.3814 -0.456862 0.886973 -0.0674986
-59.4963 43.5923 17.7843 -0.495573 0.866299 -0.0627119
-59.5884 43.6145 19.0186 -0.490666 0.870056 -0.0471536
-58.9089 44.045 20.2865 -0.476056 0.878858 -0.0312883
-57.7143 44.603 20.2454 -0.342233 0.939347 -0.0224329
-56.3437 45.0256 20.1919 -0.258467 0.965985 -0.00826529
-56.1413 45.0846 18.8969 -0.27971 0.959713 -0.0266887
-55.4954 45.1439 17.8846 -0.0621184 0.9717 -0.181638
-54.1262 45.148 17.8263 -0.0337061 0.995824 0.0733351
-52.8028 45.3068 17.7203 -0.133713 0.960663 0.242221
-51.7961 45.5166 18.1133 -0.474329 0.747461 0.465095
-51.5367 45.4525 19.3013 -0.505284 0.859594 0.0759069
-50.827 45.9398 20.3762 -0.560988 0.82626 -0.0508555
-49.8584 46.7107 20.3905 -0.65615 0.752115 0.0566226
-48.7507 47.7119 20.3371 -0.693093 0.719667 0.0401224
-47.5716 48.8564 20.2977 -0.709963 0.703531 0.030035
-46.5823 49.845 20.2575 -0.695526 0.718357 0.0143559
-45.698 50.7046 20.1901 -0.695658 0.718333 0.00757955
-44.4295 51.8349 20.29 -0.620337 0.782404 0.0349711
-43.2816 52.519 20.289 -0.460874 0.886972 0.0295766
-42.0762 53.073 20.3427 -0.371592 0.928284 -0.0144215
-40.9256 53.5294 20.3306 -0.365266 0.93085 -0.00990453
-39.6157 54.0232 20.34 -0.346006 0.938232 0.000498854
-38.5768 54.413 20.0675 -0.365435 0.930835 -0.00165051
-38.7212 54.3423 18.782 -0.363597 0.931413 -0.0162552
-40.108 53.8015 18.7095 -0.363844 0.930645 -0.0372932
-41.2685 53.346 18.7381 -0.369459 0.926037 -0.0771704
-42.4139 52.8698 18.7047 -0.392417 0.912513 -0.11545
-43.7159 52.2838 18.8339 -0.420607 0.894583 -0.147187
-44.7542 51.5377 18.7749 -0.654564 0.744192 -0.114334
-45.9558 50.4579 18.8155 -0.675625 0.735872 -0.0449688
-46.9332 49.5393 18.8818 -0.688345 0.724969 0.0245261
-47.8589 48.6474 18.7867 -0.684934 0.72654 0.0548117
-49.0751 47.5463 18.6311 -0.664724 0.744302 0.064125
-50.0232 46.775 18.2997 -0.641967 0.758348 0.111965
-51.0361 46.1385 17.6868 -0.537055 0.791952 0.288716
-52.1855 45.7532 17.0177 -0.429736 0.845381 0.317266
-53.2859 45.5207 16.2876 -0.244639 0.963523 0.108512
-54.3362 45.322 15.3959 -0.290589 0.953241 0.0820946
-55.1314 45.1226 14.4554 -0.322389 0.944522 0.0628009
-55.9281 44.8664 13.4941 -0.362327 0.931514 0.0316357
-56.5605 44.6565 11.9363 -0.402669 0.914547 0.0347246
-56.8806 44.5851 10.4514 -0.412863 0.909808 0.0423474
-56.8263 44.6937 9.10052 -0.427722 0.901933 0.0597532
-56.7742 44.8255 7.57576 -0.445681 0.892675 0.0670781
-56.833 44.9043 6.23165 -0.449067 0.8902 0.0766848
-56.8263 45.0532 4.59359 -0.450205 0.889297 0.0804172
-56.8302 45.1888 3.05833 -0.455385 0.886696 0.079963
-56.8896 45.2824 1.66512 -0.457303 0.885807 0.0788676
-57.021 45.3434 0.204376 -0.464035 0.882394 0.0777931
-57.0963 45.42 -1.11134 -0.465904 0.881281 0.0792325
-57.0191 45.5753 -2.38167 -0.470349 0.87911 0.0770546
-56.721 45.8416 -3.55544 -0.471219 0.878631 0.0771475
-56.2315 46.175 -4.38988 -0.466863 0.881099 0.0754581
-57.1362 44.4444 15.8456 -0.344655 0.935218 -0.0799799
-57.2325 44.397 15.672 -0.340878 0.937704 -0.0671837
-56.4473 44.6544 14.7786 -0.336858 0.941125 -0.0284814
-57.1424 44.382 13.7484 -0.374253 0.927324 -0.000465469
-57.6565 44.1618 12.5156 -0.406005 0.91386 0.00448504
-58.3135 43.8778 11.4181 -0.42126 0.90663 0.0223397
-57.9831 44.0786 10.0941 -0.43399 0.900183 0.036376
-57.9084 44.1829 8.71623 -0.439461 0.897066 0.0461425
-57.8866 44.2746 7.50117 -0.447789 0.891789 0.0647315
-57.8949 44.3678 6.25045 -0.448083 0.890894 0.0743629
-57.9344 44.4612 4.91631 -0.452629 0.888398 0.0766373
-57.9127 44.5571 3.92629 -0.454952 0.887202 0.0767488
-57.9374 44.6773 2.38737 -0.455961 0.886799 0.0754097
-58.4277 44.5017 1.43615 -0.463317 0.883323 0.0712059
-58.6946 44.258 2.72845 -0.458097 0.885721 0.0751355
-58.5583 44.1988 4.25317 -0.454191 0.887645 0.0761316
-58.4723 44.134 5.55695 -0.450462 0.889751 0.0736689
-58.6608 43.94 6.78344 -0.448539 0.891235 0.067181
-58.5408 43.9111 8.03276 -0.443643 0.894326 0.0579787
-58.4305 43.8914 9.3967 -0.440238 0.896877 0.0423378
-58.3338 43.8882 10.6951 -0.432509 0.901311 0.0239718
-58.3594 43.8453 12.1661 -0.419663 0.907579 0.0135581
-58.4289 43.8187 13.4239 -0.414703 0.909708 -0.0212555
-58.4329 43.8613 14.8491 -0.408624 0.912121 -0.0325764
-58.3751 44.0075 16.2429 -0.364371 0.92719 -0.0869097
-58.3623 44.1542 17.6589 -0.416179 0.905406 -0.0838731
-58.1207 44.3898 18.7632 -0.422714 0.905751 -0.0304556
-57.1061 44.7387 18.3913 -0.311467 0.946041 -0.0894159
-56.6611 44.7442 17.2795 -0.292478 0.947546 -0.128894
-55.4178 44.9967 16.6817 -0.207592 0.978028 -0.0191379
-55.8723 44.8533 15.5286 -0.298845 0.954238 0.0110159
-56.1855 44.7586 15.1245 -0.336862 0.941123 -0.0284808
-33.8789 55.8986 17.2694 -0.294575 0.954384 0.0477661
-32.7436 56.2735 16.9212 -0.299655 0.951926 0.063592
-33.4292 56.0134 17.7696 -0.295343 0.953776 0.0550309
-34.1335 55.8087 17.5774 -0.28689 0.957029 0.0422961
-57.0788 46.3467 -15.0589 -0.304919 0.945607 0.113362
-57.1674 46.3058 -14.9555 -0.304916 0.945609 0.113362
-56.2276 46.6192 -14.7297 -0.271551 0.96241 -0.00523326
-57.0897 46.2672 -13.7296 -0.391879 0.916979 0.0747028
-57.2646 46.0949 -12.1845 -0.412921 0.908116 0.0694422
-56.0542 46.6544 -13.6298 -0.350831 0.936332 0.0141299
-55.1246 46.956 -14.6807 -0.28101 0.958246 -0.0528945
-53.7544 47.3326 -14.9245 -0.297247 0.947423 -0.118464
-55.1931 46.9623 -13.3271 -0.360796 0.931649 -0.0430827
-56.443 46.454 -11.8578 -0.410483 0.911689 0.0180678
-57.1053 46.1154 -11.0412 -0.451204 0.89145 0.041617
-57.2148 45.9875 -9.55534 -0.459324 0.887413 0.0389888
-55.9777 46.6549 -11.1021 -0.438261 0.898846 0.00160068
-54.6416 47.223 -12.6979 -0.398758 0.915504 -0.0533288
-53.3259 47.593 -14.1816 -0.367265 0.915819 -0.162457
-52.7206 47.7375 -14.8631 -0.41011 0.895875 -0.170931
-50.0834 48.8278 -16.9047 -0.594438 0.794482 -0.124269
-51.366 48.3115 -15.2416 -0.486528 0.857372 -0.167937
-52.7011 47.9603 -13.7047 -0.410325 0.90461 -0.115383
-54.2533 47.4321 -11.8803 -0.425734 0.903017 -0.0575381
-55.4586 46.9068 -10.4239 -0.436608 0.899636 -0.00545006
-56.6476 46.2592 -8.93077 -0.466996 0.883292 0.041351
-57.142 45.9679 -8.29986 -0.467384 0.883072 0.0416685
-54.9137 47.1685 -9.77552 -0.438943 0.898493 0.00625597
-53.5024 47.8142 -11.511 -0.436789 0.897865 -0.0552638
-52.1466 48.2969 -13.1327 -0.426095 0.895301 -0.129917
-50.7526 48.7544 -14.8153 -0.508179 0.848123 -0.149805
-49.5639 49.275 -16.3787 -0.591889 0.801395 -0.0862145
-49.0473 49.5978 -17.145 -0.606827 0.793098 -0.0525055
-49.796 49.3316 -14.8144 -0.52232 0.841923 -0.135455
-51.0163 48.864 -13.2848 -0.464871 0.875433 -0.132334
-52.4596 48.3394 -11.5176 -0.446197 0.890009 -0.0937668
-53.2275 48.0059 -10.5639 -0.455117 0.889922 -0.0301138
-51.8954 48.6843 -10.9489 -0.472182 0.879129 -0.0646267
-50.705 49.1526 -12.4331 -0.468838 0.875424 -0.117576
-50.1966 49.3413 -13.0648 -0.478309 0.870654 -0.114815
-50.3752 49.4339 -11.5941 -0.465815 0.878643 -0.104899
-50.9193 49.2141 -10.9101 -0.485007 0.871291 -0.0749624
