-48.9464 52.5487 -18.4533 -0.590863 0.803171 0.0250016
-48.0034 53.1344 -18.4362 -0.508697 0.859801 0.0437162
-47.0351 53.6045 -18.1815 -0.433954 0.897285 0.0807034
-47.5439 53.22 -17.2261 -0.474836 0.868313 0.143401
-48.0951 52.8031 -16.3932 -0.444401 0.890454 0.0871959
-48.7086 52.4193 -15.1575 -0.457442 0.887293 0.00450382
-49.0331 52.3158 -13.9984 -0.425171 0.904414 -0.0355775
-49.1673 52.3506 -12.7855 -0.385167 0.919202 -0.0819379
-49.2771 52.445 -11.5562 -0.365674 0.923546 -0.11552
-49.2873 52.636 -10.3563 -0.329566 0.931496 -0.153954
-49.8202 52.5741 -9.58921 -0.315876 0.937147 -0.148017
-50.8285 52.112 -9.4535 -0.559771 0.819957 -0.110429
-51.9945 51.3849 -9.44808 -0.516485 0.852701 -0.0783802
-53.0101 50.7489 -9.18768 -0.505384 0.861831 0.042839
-53.876 50.2355 -8.84631 -0.50113 0.862086 0.0753448
-54.7859 49.685 -8.45763 -0.486497 0.87012 0.0787142
-55.6601 49.1559 -7.95054 -0.471529 0.87812 0.0810274
-56.5001 48.6482 -7.34315 -0.468264 0.879267 0.0872857
-57.2138 48.1931 -6.5564 -0.462516 0.882285 0.0874787
-57.8616 47.7653 -5.67365 -0.4595 0.883486 0.0911733
-58.4918 47.4436 -5.68304 -0.46007 0.883924 0.0831184
-58.5256 47.5276 -6.78654 -0.473941 0.876599 0.0833938
-58.3894 47.7261 -8.11917 -0.471727 0.877979 0.0814106
-58.3426 47.8722 -9.49503 -0.473544 0.877738 0.0730217
-58.447 47.9107 -10.6724 -0.46966 0.880366 0.0661406
-58.497 47.9552 -11.7297 -0.469739 0.881163 0.0538245
-58.4626 48.0561 -12.9626 -0.427265 0.9025 0.0542119
-58.422 48.1439 -14.2151 -0.369823 0.928347 0.0374441
-58.3629 48.2632 -15.4681 -0.364942 0.926021 0.0964493
-57.5953 48.5338 -15.8525 -0.270202 0.961987 0.0396469
-56.442 48.8286 -15.782 -0.238423 0.966478 -0.0703581
-55.3987 49.0945 -16.0111 -0.219284 0.968388 -0.118906
-54.0117 49.4321 -16.2006 -0.22585 0.92322 -0.303067
-53.1021 49.6666 -16.686 -0.444881 0.852219 -0.266772
-52.2763 49.89 -17.6303 -0.564151 0.795729 -0.21861
-51.4601 50.362 -18.2622 -0.633982 0.753962 -0.172067
-50.5674 51.1498 -18.2678 -0.652849 0.754111 -0.0579131
-49.6667 51.9159 -18.3601 -0.705887 0.708226 0.0118338
-49.2009 52.3447 -18.441 -0.643803 0.764371 -0.0260559
-49.2599 52.2663 -19.4803 -0.626089 0.779581 -0.0163148
-50.1379 51.432 -19.3345 -0.695016 0.717372 -0.0420927
-51.0242 50.5821 -19.3561 -0.69735 0.707816 -0.106594
-51.8812 49.7351 -19.4387 -0.65902 0.730592 -0.167768
-52.6243 49.2498 -18.964 -0.600914 0.783422 -0.158592
-53.0518 49.2572 -17.9153 -0.528993 0.774543 -0.34677
-54.0522 49.0667 -17.1438 -0.287863 0.890898 -0.330554
-55.3322 48.8891 -16.999 -0.115528 0.967306 -0.223843
-56.5774 48.7806 -16.8439 -0.14771 0.98746 0.0557242
-57.8839 48.573 -17.1011 -0.251082 0.960294 0.121433
-58.8468 48.383 -17.7766 -0.355105 0.921526 0.155736
-59.3651 48.1534 -17.6497 -0.371401 0.917333 0.143393
-59.3415 47.9715 -16.3658 -0.369229 0.920237 0.129741
-59.4089 47.7953 -15.1946 -0.411123 0.905859 0.10197
-59.4139 47.6833 -14.0312 -0.41381 0.907442 0.0728653
-59.431 47.5667 -12.7652 -0.462463 0.88309 0.0792467
-59.4523 47.4606 -11.6842 -0.462526 0.883404 0.0752848
-59.4002 47.3875 -10.5204 -0.462639 0.883222 0.0767068
-59.3251 47.3092 -9.113 -0.474469 0.8771 0.0746574
-59.4377 47.1087 -7.55764 -0.476114 0.875312 0.0844666
-59.477 46.9702 -6.31309 -0.4795 0.874039 0.0783299
-59.4582 46.8846 -5.26235 -0.480009 0.873482 0.0813683
-59.4627 46.7289 -3.77404 -0.468431 0.879169 0.08732
-59.357 46.6384 -2.2519 -0.462355 0.882777 0.0832656
-59.2571 46.5626 -0.884406 -0.458928 0.884643 0.0824163
-59.1366 46.5192 0.276741 -0.45958 0.884664 0.0784597
-59.1042 46.4069 1.64259 -0.458431 0.884896 0.0823603
-58.9453 46.3831 2.80145 -0.453731 0.887603 0.0792965
-58.8928 46.3029 3.97628 -0.442636 0.893106 0.080208
-58.9832 46.1441 5.2629 -0.447172 0.891238 0.0756097
-58.972 46.0336 6.665 -0.437938 0.896224 0.0705526
-58.7736 46.0467 7.71918 -0.435738 0.897414 0.0691443
-58.8882 45.918 8.85456 -0.427116 0.902467 0.0557878
-58.8004 45.8895 10.1869 -0.415099 0.908892 0.0385706
-58.8231 45.8447 11.3512 -0.413451 0.910319 0.0168522
-58.8147 45.8371 12.4307 -0.39303 0.919417 0.00936125
-58.8149 45.8396 13.4854 -0.392744 0.919645 -0.00235123
-58.881 45.8503 14.7228 -0.381052 0.924048 -0.0276073
-58.8781 45.901 15.905 -0.37055 0.926645 -0.0634118
-58.7872 46.0305 17.2596 -0.382417 0.92168 -0.0652894
-58.8742 46.1458 18.4192 -0.385727 0.910204 -0.15081
-58.6098 46.3814 19.3484 -0.406826 0.912386 -0.0367276
-58.2135 46.4258 18.7932 -0.292771 0.950016 -0.10842
-57.6841 46.4676 17.6895 -0.304645 0.94928 -0.0709369
-56.6729 46.6797 16.9977 -0.233077 0.969834 -0.0597319
-55.5388 46.9062 16.7433 -0.184869 0.98261 -0.0172941
-55.6297 46.907 16.1338 -0.220879 0.973282 0.0627261
-56.2769 46.7742 15.2208 -0.288806 0.957325 0.0109505
-56.8604 46.6007 14.1979 -0.328375 0.944494 0.00738188
-57.3415 46.4385 13.2423 -0.365211 0.930872 0.00493738
-57.6639 46.3366 12.0831 -0.386606 0.921697 0.0293268
-57.8237 46.3109 10.8183 -0.397706 0.916564 0.0417149
-57.8618 46.348 9.692 -0.421987 0.904905 0.0554338
-57.8617 46.4164 8.61608 -0.420653 0.905205 0.0604479
-57.8379 46.5209 7.40382 -0.426509 0.90169 0.0710248
-57.9037 46.5791 6.33804 -0.429858 0.899625 0.076797
-57.9485 46.6555 5.23767 -0.430432 0.898868 0.0822495
-57.988 46.7383 4.13244 -0.443524 0.892544 0.0815558
-57.8105 46.9319 2.97994 -0.439661 0.894386 0.0822932
-57.9125 46.9824 1.91066 -0.440462 0.893492 0.0875248
-57.9327 47.0936 0.690985 -0.440877 0.893379 0.08658
-58.0759 47.1505 -0.692902 -0.443762 0.891925 0.0868625
-58.1244 47.2428 -1.91223 -0.453246 0.887051 0.0877623
-57.8525 47.5233 -3.3345 -0.450836 0.887828 0.092241
-57.4446 47.8534 -4.48827 -0.451125 0.887374 0.0951531
-56.8557 48.2535 -5.4078 -0.451295 0.886842 0.0992187
-56.1035 48.7314 -6.23527 -0.461502 0.881015 0.104056
-55.2051 49.2943 -6.95522 -0.477021 0.873598 0.0963163
-54.3459 49.8329 -7.52339 -0.493931 0.863647 0.0999324
-53.3848 50.4317 -7.89896 -0.517516 0.851317 0.0828426
-52.3328 51.1259 -8.23625 -0.539005 0.841276 0.0327864
-51.4112 51.7493 -8.41202 -0.549964 0.833602 0.0514547
-50.553 52.364 -8.48939 -0.433416 0.885197 0.111617
-49.5226 52.7663 -8.56938 -0.297041 0.954739 -0.0154935
-48.3237 53.1181 -8.48257 -0.266827 0.962769 -0.0433477
-48.0993 53.1395 -8.99061 -0.242107 0.966047 -0.090204
-48.3191 52.9462 -10.1825 -0.250044 0.958764 -0.135094
-48.2817 52.8098 -11.3054 -0.289272 0.952496 -0.0952518
-48.1656 52.7358 -12.556 -0.315165 0.947032 -0.056336
-47.9316 52.7675 -14.0716 -0.3669 0.930118 -0.00185839
-47.5136 53.0026 -15.3516 -0.393245 0.915712 0.0826446
-46.9978 53.3233 -16.271 -0.381867 0.912134 0.148961
-46.4334 53.6878 -17.1643 -0.34929 0.923342 0.157423
-45.9098 54.0197 -17.9901 -0.326226 0.934227 0.144212
-46.114 54.051 -19.1999 -0.356882 0.93282 0.0487811
-47.0968 53.6467 -19.4587 -0.381529 0.923911 0.0276209
-48.1386 53.0952 -19.4983 -0.541001 0.840193 -0.00146943
-49.1169 52.3807 -19.5015 -0.622419 0.782359 -0.0214688
-49.1624 52.3444 -19.4933 -0.626089 0.779581 -0.0163093
-49.1352 52.3795 -20.5531 -0.644936 0.763014 0.00956543
-48.2751 52.9956 -20.5342 -0.544426 0.83802 -0.0113536
-47.2881 53.553 -20.5321 -0.434905 0.900238 -0.0207255
-46.2306 54.0342 -20.4969 -0.394327 0.918833 0.0101992
-45.2406 54.4285 -20.2997 -0.363006 0.931618 0.0177484
-45.1268 54.4332 -19.1146 -0.390284 0.918387 0.0623868
-44.7358 54.4912 -18.0686 -0.347569 0.912425 0.21374
-45.0174 54.2132 -17.1699 -0.336668 0.928526 0.156507
-45.765 53.8073 -16.2713 -0.319718 0.936723 0.142582
-46.3228 53.4924 -15.4105 -0.356241 0.929968 0.0886328
-46.7781 53.2221 -14.461 -0.327896 0.941361 0.0719264
-46.9438 53.125 -13.3887 -0.323732 0.946062 0.0127726
-47.2322 53.0561 -12.3213 -0.29357 0.955237 -0.0365955
-47.2385 53.1304 -11.2216 -0.281975 0.955503 -0.0860979
-47.3423 53.2226 -10.0168 -0.237526 0.965188 -0.109517
-46.8513 53.4568 -9.00043 -0.23284 0.967032 -0.103013
-46.1611 53.7145 -8.08792 -0.224369 0.969009 -0.103312
-45.4342 53.9735 -7.32879 -0.221833 0.967327 -0.122757
-44.6067 54.2474 -6.65399 -0.219889 0.96723 -0.126943
-44.1466 54.4942 -5.63279 -0.226622 0.963816 -0.140358
-44.7709 54.4597 -4.77092 -0.295432 0.945278 -0.136166
-45.67 54.1351 -5.02869 -0.309618 0.949012 -0.0583507
-46.3569 53.8702 -5.794 -0.323817 0.945028 -0.0445763
-47.127 53.571 -6.72022 -0.290539 0.954839 -0.061648
-48.1235 53.246 -7.30029 -0.320485 0.947028 -0.0206734
-49.1638 52.8889 -7.538 -0.315957 0.94781 0.042743
-50.1334 52.4559 -7.51102 -0.51977 0.831517 0.196005
-51.0541 51.8607 -7.38965 -0.521454 0.844244 0.123844
-51.9618 51.2483 -7.1648 -0.546792 0.829897 0.110861
-52.8267 50.6599 -6.89867 -0.520017 0.846272 0.115763
-53.9245 49.9621 -6.56977 -0.495603 0.86059 0.117314
-54.6903 49.4568 -6.01788 -0.475321 0.872259 0.115042
-55.4232 48.9865 -5.40179 -0.460477 0.880771 0.110469
-56.2088 48.4983 -4.6823 -0.446277 0.888953 0.102953
-56.6842 48.1589 -3.78295 -0.44442 0.890528 0.0971644
-57.0205 47.8793 -2.7323 -0.439694 0.893231 0.0937406
-57.1414 47.691 -1.46981 -0.443695 0.891727 0.0891757
-57.0378 47.6148 -0.175306 -0.432839 0.896842 0.0912379
-56.981 47.5314 0.982311 -0.433846 0.896901 0.0857132
-56.8991 47.4498 2.19092 -0.434658 0.896193 0.0889092
-56.8776 47.3474 3.36017 -0.433223 0.897266 0.0850355
-57.012 47.1823 4.40224 -0.427373 0.900103 0.0846559
-56.9964 47.0919 5.44643 -0.42622 0.901058 0.0801885
-56.921 47.0144 6.70144 -0.422527 0.902708 0.0810848
-56.914 46.9076 7.97607 -0.417692 0.905474 0.0750396
-56.8459 46.8335 9.3025 -0.4149 0.906961 0.0726625
-56.8065 46.7671 10.542 -0.404798 0.912319 0.061755
-56.7589 46.7294 11.6017 -0.387615 0.92057 0.0480079
-56.4446 46.7957 12.7836 -0.350754 0.935717 0.0374734
-55.8699 46.9591 13.8463 -0.327528 0.943797 0.0444071
-55.253 47.117 14.8866 -0.309938 0.945817 0.0875068
-54.4851 47.2358 15.7066 -0.249942 0.953895 0.153529
-53.5733 47.3832 16.4016 -0.273572 0.932725 0.232637
-52.6843 47.5631 17.1364 -0.432462 0.877558 0.207047
-51.8409 47.8896 17.6549 -0.585044 0.795571 0.157448
-50.913 48.5055 18.1461 -0.661362 0.736539 0.141811
-50.0711 49.205 18.4292 -0.662578 0.746795 0.0573455
-49.2018 50.0131 18.5947 -0.670945 0.741436 -0.0102913
-48.2688 50.8857 18.6442 -0.670179 0.739204 -0.0500638
-47.4294 51.5895 18.6851 -0.612693 0.78594 -0.0752816
-46.4596 52.2898 18.6469 -0.584457 0.806322 -0.090647
-45.4495 52.9301 18.6277 -0.506963 0.852288 -0.125714
-44.5004 53.4594 18.6063 -0.465226 0.870927 -0.156646
-43.4136 53.9299 18.6257 -0.381619 0.919684 -0.0924569
-42.4019 54.3815 18.8266 -0.391064 0.918571 -0.0574069
-42.2678 54.4719 19.8691 -0.363076 0.931593 -0.0176227
-42.9097 54.2265 20.487 -0.377563 0.925772 -0.0198152
-44.0037 53.78 20.4645 -0.383575 0.923233 -0.0226326
-45.0246 53.3408 20.4894 -0.437624 0.896957 -0.0480552
-45.9362 52.8142 20.4401 -0.557206 0.826563 -0.0794666
-46.8485 52.1736 20.5319 -0.585775 0.808655 -0.0541803
-47.7271 51.4734 20.5415 -0.661408 0.748597 -0.0462766
-48.536 50.7345 20.473 -0.719056 0.693524 -0.0322808
-49.2652 49.9413 20.5097 -0.724311 0.689179 -0.00712603
-50.1669 48.9921 20.5057 -0.736445 0.675785 0.0310357
-51.1402 48.0713 20.4551 -0.676785 0.734103 0.0535466
-52.0919 47.2874 20.4029 -0.590771 0.801976 0.0724675
-52.5792 47.0422 19.4993 -0.555235 0.829867 0.0550989
-52.7808 47.1264 18.2874 -0.63402 0.650222 0.418606
-53.7266 46.9487 17.8753 -0.202897 0.917073 0.343236
-54.8629 46.8727 17.8278 -0.00725177 0.997774 0.0662854
-55.9331 46.8508 17.8509 0.0560621 0.998303 -0.0054655
-57.1289 46.7342 18.5027 -0.307715 0.945593 -0.10567
-57.1325 46.7797 19.7244 -0.228049 0.973619 -0.00771241
-57.5777 46.664 20.4613 -0.267643 0.962184 0.0460499
-58.7053 46.3042 20.4673 -0.362692 0.927767 0.0877645
-59.6894 45.8517 20.0308 -0.473737 0.880139 0.0304792
-59.842 45.7275 18.9402 -0.488669 0.868814 -0.0704592
-59.8277 45.6353 17.8071 -0.420439 0.904452 -0.0720928
-59.8708 45.5149 16.4503 -0.408916 0.910711 -0.0582053
-59.8274 45.4615 15.3875 -0.425871 0.902917 -0.055126
-59.7885 45.4316 14.2193 -0.423568 0.905089 -0.037482
-59.82 45.3911 13.109 -0.421007 0.907008 -0.00940344
-59.7915 45.3993 12.0477 -0.413334 0.910554 0.00672575
-59.8183 45.3998 10.8477 -0.426364 0.904346 0.0193177
-59.8307 45.4265 9.776 -0.424112 0.904858 0.0368837
-59.8451 45.4846 8.44416 -0.432995 0.900134 0.0476842
-59.9253 45.5223 7.1998 -0.439743 0.896461 0.0546228
-59.9139 45.6109 6.10856 -0.446393 0.892455 0.0652459
-59.9171 45.6991 4.99292 -0.447143 0.891535 0.0722934
-59.9075 45.7921 3.93283 -0.452751 0.888574 0.0738472
-59.9703 45.8583 2.79714 -0.457825 0.885847 0.075306
-60.0115 45.9316 1.71967 -0.458787 0.884998 0.0793316
-60.1021 45.9848 0.571611 -0.466563 0.880936 0.079185
-60.1498 46.0611 -0.54164 -0.466064 0.880955 0.0818755
-60.2792 46.0911 -1.62028 -0.465528 0.881485 0.0791747
-60.3799 46.157 -2.90381 -0.474053 0.876654 0.0818775
-60.4549 46.2372 -4.20856 -0.47959 0.873502 0.0835968
-60.4623 46.3361 -5.29653 -0.479748 0.873637 0.0812416
-60.4285 46.4749 -6.59277 -0.483369 0.871546 0.0822345
-60.4197 46.6098 -7.99415 -0.482002 0.872531 0.0797716
-60.3304 46.7626 -9.15928 -0.479248 0.874409 0.075692
-60.3835 46.8632 -10.5909 -0.48033 0.873018 0.0843986
-60.3705 47.0016 -11.9969 -0.485723 0.870329 0.0812404
-60.3553 47.117 -13.089 -0.45621 0.885543 0.0876677
-60.3588 47.2347 -14.2981 -0.482572 0.872054 0.0815215
-60.4256 47.3143 -15.4257 -0.48135 0.871531 0.0934628
-60.3414 47.514 -16.6894 -0.44716 0.885372 0.127144
-60.4182 47.6436 -17.8051 -0.488439 0.861405 0.132096
-60.4071 47.8008 -18.8915 -0.528692 0.841853 0.108097
-60.1724 48.0848 -20.2218 -0.549166 0.835499 -0.0189382
-59.1855 48.5234 -20.4152 -0.291034 0.956509 -0.0135193
-58.3081 48.7799 -20.0542 -0.276617 0.960979 0.00138916
-58.3296 48.7271 -18.9596 -0.349555 0.933712 0.0774165
-57.7316 48.8232 -18.0922 -0.0354399 0.951701 0.231103
-56.6892 48.7705 -17.9198 0.0247611 0.999481 0.0206267
-55.574 48.683 -17.9834 0.116445 0.974666 -0.178901
-54.4964 48.5995 -18.0056 -0.111429 0.885944 -0.449856
-53.5599 48.6019 -18.446 -0.631955 0.677282 -0.376725
-53.4233 48.5683 -19.5229 -0.615843 0.783993 -0.078048
-52.9109 48.8437 -20.4842 -0.555504 0.826165 -0.0900926
-52.0411 49.4642 -20.4706 -0.625725 0.77131 -0.0985064
-51.2274 50.2228 -20.4652 -0.720477 0.685606 -0.104193
-50.4789 51.0263 -20.4133 -0.743133 0.666425 -0.0602572
-49.63 51.9254 -20.4971 -0.717679 0.696315 0.00903405
-49.2945 52.2347 -20.5496 -0.672736 0.739786 -0.0119609
-57.2434 46.5125 16.1032 -0.2875 0.956077 -0.0348516
-57.8133 46.2741 15.363 -0.325559 0.944806 -0.0276136
-57.7098 46.3075 14.8263 -0.323644 0.946173 -0.00342986
-57.1297 46.5363 15.8172 -0.2875 0.956077 -0.0348586
-57.1174 46.5436 16.0398 -0.247525 0.968716 -0.0179063
-50.6815 48.5761 19.4662 -0.670932 0.738785 0.0635831
-51.5126 47.8542 19.2538 -0.616756 0.781872 0.0863904
-51.3543 48.0089 18.987 -0.659127 0.747722 0.0803914
-50.7405 48.5305 19.3721 -0.670472 0.739363 0.0617194
-49.3127 52.1837 -17.6431 -0.579617 0.806242 0.118395
-48.6099 52.5588 -16.728 -0.54892 0.833893 0.0575363
-49.438 52.0712 -15.2187 -0.427403 0.903022 -0.0433326
-50.5924 51.2851 -16.8381 -0.5899 0.805867 -0.0509585
-51.1624 50.7419 -17.6946 -0.615771 0.775844 -0.13745
-52.4409 50.0538 -16.726 -0.499619 0.834013 -0.234101
-51.398 51.0149 -15.1528 -0.479692 0.861242 -0.167802
-50.2424 51.8078 -13.5411 -0.434808 0.896135 -0.0887942
-49.7114 52.1176 -12.8415 -0.374203 0.922346 -0.0961821
-49.9588 52.3911 -10.3391 -0.393087 0.906313 -0.155175
-51.1896 51.5682 -11.9886 -0.425912 0.897925 -0.111043
-52.5857 50.5957 -13.9404 -0.439116 0.886946 -0.143192
-53.7119 49.7208 -15.5663 -0.415227 0.885165 -0.209928
-53.8138 49.6394 -15.7078 -0.385576 0.894779 -0.225168
-55.5327 49.1938 -14.9557 -0.257678 0.960295 -0.10694
-54.2955 49.8751 -13.3932 -0.418824 0.902311 -0.102086
-52.8451 50.7798 -11.4315 -0.45941 0.884392 -0.0824141
-51.7973 51.4517 -10.0213 -0.509426 0.858335 -0.0612008
-53.533 50.4628 -9.60022 -0.504993 0.863002 0.0144682
-54.9004 49.7321 -11.3563 -0.455317 0.890322 -0.00365027
-56.1486 49.0816 -12.9361 -0.401673 0.915127 -0.0346666
-57.6338 48.4792 -14.6875 -0.375824 0.926462 0.020608
-57.7307 48.4429 -14.801 -0.367546 0.927591 0.0669731
-57.8247 48.3177 -12.2792 -0.427364 0.903598 0.0294942
-56.483 48.9107 -10.6411 -0.448381 0.892974 0.0394031
-55.1908 49.5059 -9.03474 -0.475868 0.877377 0.0613093
-56.5446 48.6959 -8.07202 -0.465936 0.880993 0.0821847
-57.8032 48.1662 -9.61679 -0.465107 0.882428 0.0706867
-57.9691 47.8601 -7.20041 -0.464369 0.881452 0.0860482
-57.7021 47.9682 -6.86994 -0.462525 0.882328 0.0869977
