-56.9522 51.1313 -15.5205 -0.250542 0.954004 -0.123381
-55.488 51.4324 -15.9424 -0.284822 0.899045 -0.319543
-54.2876 51.7505 -16.4866 -0.442619 0.834375 -0.328491
-53.1346 52.1088 -17.628 -0.556078 0.818046 -0.146874
-52.1892 52.7042 -18.0634 -0.563748 0.822777 -0.0722916
-51.1144 53.3865 -17.6782 -0.477239 0.877508 0.008131
-50.6017 53.6548 -16.5624 -0.416545 0.907176 -0.0388253
-49.4811 54.0369 -15.7366 -0.326531 0.944098 0.0374154
-48.8322 54.2032 -14.8054 -0.303835 0.951185 0.0541379
-49.2327 54.067 -13.5625 -0.275955 0.961155 -0.00550132
-49.4565 54.0475 -12.2421 -0.249145 0.966949 -0.050994
-50.2613 53.9458 -11.0091 -0.247352 0.963749 -0.099956
-50.9117 53.8385 -9.96607 -0.305593 0.951169 -0.0434478
-51.9763 53.4254 -9.47283 -0.396116 0.917753 0.0286452
-53.44 52.718 -9.06806 -0.437497 0.891533 0.117255
-54.4635 52.1567 -8.58647 -0.438854 0.891489 0.112498
-55.6217 51.4832 -7.86533 -0.431187 0.892179 0.134442
-56.6825 50.9039 -7.38652 -0.433628 0.89253 0.123904
-57.7758 50.2378 -6.30775 -0.423702 0.898044 0.118296
-58.2467 50.0761 -6.83973 -0.437035 0.892646 0.110377
-58.2741 50.2247 -8.08418 -0.438782 0.891998 0.108673
-58.3761 50.3396 -9.45801 -0.447688 0.887795 0.106753
-58.5233 50.406 -10.6774 -0.453009 0.886665 0.0926313
-58.372 50.5817 -11.9069 -0.440491 0.895888 0.0578962
-58.3245 50.6654 -13.4172 -0.409173 0.91164 0.0367772
-58.3747 50.6516 -14.6948 -0.343155 0.938812 0.0150389
-57.8231 50.82 -15.4559 -0.293152 0.953103 -0.0564046
-57.2698 51.0196 -15.4703 -0.340119 0.938249 -0.0633031
-57.4251 50.8432 -16.6286 -0.159438 0.965986 -0.202649
-58.6946 50.6103 -16.7674 -0.225522 0.972532 0.0422202
-59.4668 50.3069 -15.9843 -0.348636 0.935618 0.0554288
-59.4605 50.214 -14.3551 -0.396687 0.915176 0.0713636
-59.3418 50.1981 -13.1018 -0.430746 0.899068 0.0692128
-59.4295 50.0488 -11.8682 -0.463825 0.883048 0.0713617
-59.4712 49.9099 -10.634 -0.471164 0.878782 0.0758146
-59.3912 49.7825 -9.04771 -0.471262 0.876095 0.101753
-59.3238 49.6316 -7.57772 -0.446128 0.888008 0.111146
-59.3752 49.456 -6.3068 -0.436555 0.893713 0.10311
-59.4483 49.284 -5.06723 -0.444832 0.890745 0.0931091
-59.4385 49.1566 -3.83469 -0.432558 0.896587 0.0950036
-59.4382 48.9936 -2.25295 -0.421777 0.903121 0.0804729
-59.2669 48.9611 -0.949105 -0.417121 0.90589 0.0733062
-59.1133 48.8736 0.634367 -0.43098 0.896929 0.098808
-58.9277 48.8135 1.96215 -0.415145 0.905526 0.0876002
-58.9579 48.6795 3.20594 -0.418536 0.903702 0.0902779
-58.0232 49.1525 2.69937 -0.40022 0.912474 0.0849419
-58.1344 49.2617 1.12414 -0.401036 0.910326 0.102353
-58.1918 49.3843 -0.261652 -0.405043 0.909628 0.0922878
-58.3862 49.4294 -1.65426 -0.419864 0.903777 0.0830735
-58.3851 49.557 -2.94412 -0.411006 0.906367 0.097845
-57.8418 49.9729 -4.42472 -0.410404 0.905805 0.105251
-57.1563 50.4083 -5.39747 -0.420663 0.899931 0.114571
-56.2922 50.909 -6.14973 -0.416813 0.900493 0.123938
-55.226 51.5122 -6.78933 -0.429803 0.893089 0.132894
-54.2412 52.0893 -7.39844 -0.437467 0.888783 0.136689
-53.1456 52.7157 -7.93324 -0.446612 0.886831 0.118433
-52.025 53.3243 -8.32615 -0.433459 0.896095 0.0921107
-50.9182 53.863 -8.55763 -0.405575 0.912388 0.0129684
-50.035 54.1658 -9.40235 -0.314595 0.945761 -0.07423
-49.2384 54.2395 -10.6704 -0.240398 0.963728 -0.115922
-48.457 54.3381 -11.6735 -0.253646 0.96562 -0.0569318
-48.2981 54.3315 -12.9988 -0.261843 0.964761 -0.00793968
-47.8936 54.4623 -14.1849 -0.25509 0.966777 0.0141527
-47.5139 54.631 -15.4683 -0.266619 0.961439 0.0646127
-46.9676 54.911 -16.628 -0.276693 0.95524 0.104675
-48.1247 54.5613 -16.5802 -0.27415 0.956917 0.094043
-49.7562 54.0426 -17.2219 -0.36858 0.920043 0.130604
-50.2288 53.8812 -18.3278 -0.487597 0.87224 0.0380446
-50.9281 53.5116 -19.2623 -0.518233 0.855091 -0.00394148
-52.0202 52.7706 -19.3064 -0.602807 0.796594 -0.0454021
-53.3524 51.6884 -19.4702 -0.650498 0.757516 -0.0490235
-53.9362 51.4031 -17.9608 -0.6331 0.739343 -0.216533
-55.0866 51.1086 -17.0988 -0.350462 0.80084 -0.485625
-56.3461 50.9624 -16.7993 -0.0771063 0.950726 -0.29477
-57.0249 50.9034 -16.6522 -0.157911 0.962213 -0.221834
-57.124 50.6449 -17.8981 0.0643353 0.971009 -0.230223
-58.4485 50.7063 -17.9084 -0.0111935 0.996242 0.0858917
-59.3485 50.5258 -18.4886 -0.414087 0.909717 0.0307717
-59.4385 50.535 -19.8589 -0.398554 0.916737 0.0266389
-60.2017 50.2015 -19.8422 -0.401442 0.915687 0.0190323
-60.4199 50.0495 -18.6348 -0.459208 0.88709 0.0436781
-60.4474 49.9483 -17.3887 -0.463358 0.884487 0.0539204
-60.5055 49.8651 -15.9044 -0.47411 0.880022 0.0279405
-60.5426 49.7098 -14.3972 -0.467949 0.876918 0.109719
-60.4321 49.6306 -13.0777 -0.472622 0.877143 0.0851122
-60.46 49.4541 -11.5435 -0.480649 0.87285 0.0842296
-60.4704 49.2912 -9.90879 -0.487371 0.868231 0.0929426
-60.4159 49.1652 -8.50735 -0.483155 0.869604 0.101735
-60.4405 49.0098 -7.14309 -0.465755 0.879256 0.0990575
-60.4788 48.8227 -5.59057 -0.467037 0.879159 0.0932017
-60.4798 48.6797 -4.26818 -0.46727 0.879 0.0949575
-60.4537 48.5577 -2.97909 -0.45014 0.88803 0.0934039
-60.3748 48.448 -1.3616 -0.444876 0.892683 0.072131
-60.2736 48.3634 0.0730204 -0.46 0.883081 0.0925652
-60.1298 48.3008 1.29218 -0.448729 0.888521 0.0952624
-60.0066 48.2348 2.60505 -0.453047 0.887365 0.0856258
-59.9565 48.1272 4.07623 -0.442555 0.893514 0.0760108
-60.0147 47.9892 5.33408 -0.436515 0.896004 0.0814342
-60.076 47.8379 6.69214 -0.435461 0.896732 0.0790275
-60.0518 47.7442 8.02966 -0.431465 0.899274 0.0715322
-59.9593 47.7045 9.28327 -0.419457 0.906033 0.0561595
-59.9271 47.6347 10.7945 -0.408083 0.911047 0.057756
-59.9005 47.5923 12.1719 -0.40914 0.911866 0.0332237
-59.9404 47.5575 13.5247 -0.386153 0.922225 -0.000830362
-59.9713 47.5738 14.8582 -0.399804 0.91556 -0.0436694
-60.049 47.6144 16.2576 -0.398928 0.915334 -0.0549451
-59.945 47.7218 17.7445 -0.431489 0.901872 -0.0210839
-59.8589 47.8051 19.1938 -0.421063 0.906741 -0.0229586
-59.3607 48.0776 20.2221 -0.357862 0.933045 -0.0369001
-58.288 48.4648 20.1785 -0.321913 0.946693 -0.0120037
-58.1673 48.4631 18.8415 -0.320661 0.946901 -0.0235637
-57.5678 48.5575 17.8888 -0.0107815 0.988658 -0.142666
-56.3286 48.5843 17.8548 0.00294512 0.994704 0.10274
-55.092 48.6271 17.7855 -0.0858465 0.981847 0.169135
-53.8283 48.758 18.0302 -0.273639 0.812286 0.515086
-53.4965 48.9042 19.2105 -0.694624 0.718014 0.0442003
-53.0645 49.2684 20.3568 -0.687762 0.725275 0.0303358
-52.1737 50.1365 20.3667 -0.705255 0.708826 0.013445
-51.24 51.1163 20.3878 -0.732118 0.681045 0.00495129
-50.3334 52.1007 20.4186 -0.732645 0.674731 0.0704085
-49.236 52.984 20.3839 -0.512444 0.858537 0.0172137
-48.1124 53.5704 20.4538 -0.423065 0.906056 -0.00457276
-46.8392 54.1498 20.4553 -0.415306 0.909523 -0.0169804
-46.2196 54.4064 19.6071 -0.415222 0.909016 -0.0344561
-46.8307 54.0759 18.7246 -0.409086 0.908339 -0.0869992
-47.9425 53.5542 18.7369 -0.420669 0.903151 -0.0857659
-49.0448 53.004 18.5911 -0.475856 0.865901 -0.154093
-50.0954 52.2229 18.7236 -0.668716 0.734195 -0.117374
-50.9561 51.35 18.5329 -0.708679 0.702969 -0.0521075
-51.825 50.5405 18.1616 -0.649437 0.760125 0.021019
-52.9195 49.6649 17.4034 -0.647481 0.754 0.110689
-53.9945 49.2483 16.504 -0.332613 0.912507 0.238118
-54.9672 49.0837 15.7247 -0.242862 0.957534 0.152801
-55.7443 48.9803 14.7092 -0.268676 0.958605 0.0942803
-56.3764 48.8694 13.6147 -0.311947 0.947676 0.0645549
-56.8868 48.7843 12.3743 -0.336185 0.939953 0.0588915
-57.0484 48.8113 11.1757 -0.359416 0.930439 0.0714399
-57.0631 48.9078 9.92599 -0.368756 0.926661 0.0720879
-57.1598 49.0011 8.30983 -0.372553 0.924651 0.0786263
-57.1606 49.114 7.05653 -0.371261 0.924944 0.0814588
-57.1455 49.2378 5.69034 -0.379119 0.921142 0.0880057
-57.1197 49.3814 4.28931 -0.380117 0.920969 0.0853809
-57.0408 49.5364 3.05364 -0.388016 0.916125 0.100789
-57.1072 49.6499 1.67249 -0.382103 0.919783 0.0894233
-57.1397 49.7609 0.4489 -0.386362 0.917819 0.0912876
-57.2505 49.8585 -0.983297 -0.390341 0.915123 0.100914
-57.3561 49.9792 -2.54235 -0.41006 0.906661 0.0990815
-56.9838 50.2779 -3.736 -0.396422 0.91087 0.11474
-56.1227 50.802 -4.85922 -0.405393 0.905632 0.1242
-55.1986 51.3333 -5.54734 -0.424334 0.895231 0.135903
-54.1829 51.9164 -6.09148 -0.440685 0.886848 0.138914
-53.112 52.5451 -6.6631 -0.450669 0.881799 0.139024
-52.0903 53.1459 -7.07509 -0.462957 0.878623 0.114115
-50.9158 53.7911 -7.34173 -0.490464 0.867645 0.0778784
-49.9733 54.341 -7.83442 -0.485026 0.866739 -0.116245
-49.2222 54.4772 -8.84944 -0.291376 0.949756 -0.114298
-48.3941 54.5062 -10.1026 -0.223382 0.965757 -0.131756
-47.4204 54.6616 -10.7566 -0.211769 0.975682 -0.0564921
-47.2827 54.6117 -12.3029 -0.229915 0.973048 -0.0177676
-46.9585 54.6909 -13.5385 -0.234794 0.971838 0.0200943
-46.5634 54.8488 -14.7398 -0.270684 0.960488 0.0647522
-45.9242 55.1402 -15.9731 -0.274287 0.955987 0.104191
-45.3587 55.424 -17.0311 -0.261653 0.957865 0.118083
-45.6544 55.4581 -17.9323 -0.257607 0.955156 0.145996
-46.9252 55.0932 -17.8721 -0.277555 0.950655 0.138603
-48.1243 54.7362 -17.8445 -0.283282 0.949213 0.136918
-49.1474 54.4454 -18.275 -0.446586 0.883272 0.115902
-49.3383 54.3819 -19.5343 -0.446321 0.894871 0.00201002
-49.9592 54.075 -20.4496 -0.459706 0.888061 0.00431989
-51.0856 53.4174 -20.4345 -0.552938 0.832548 0.00957149
-52.1061 52.6699 -20.4584 -0.617387 0.786043 -0.0296229
-53.1481 51.7964 -20.4385 -0.638253 0.76888 -0.0354491
-54.2761 50.8179 -20.4478 -0.655551 0.755057 -0.0119149
-54.6059 50.5349 -19.2583 -0.685851 0.727704 -0.00748251
-54.973 50.4765 -18.1171 -0.319967 0.754075 -0.544959
-56.2401 50.5947 -17.9361 0.126815 0.938155 -0.322154
-56.9104 50.6301 -17.9009 0.116501 0.965558 -0.22663
-58.1823 48.6428 7.58074 -0.393866 0.915429 0.0819255
-58.3272 48.4406 9.13978 -0.400354 0.913649 0.068741
-58.1184 48.441 10.457 -0.37671 0.923872 0.067456
-58.0913 48.3679 11.7055 -0.358447 0.932764 0.0383168
-57.8241 48.4058 13.0985 -0.330894 0.943067 0.0336657
-57.2405 48.5493 14.4472 -0.313381 0.948847 0.0353506
-56.4832 48.7075 15.7701 -0.238785 0.970577 0.0310178
-56.0589 48.6869 16.7619 -0.143257 0.98829 0.0525307
-57.3282 48.5168 16.8258 -0.208014 0.974875 -0.0796819
-58.4895 48.2765 17.2196 -0.279381 0.957583 -0.0705768
-58.9826 48.0726 16.5672 -0.318865 0.943789 -0.0871054
-58.9114 48.0212 15.2618 -0.349222 0.935671 -0.04781
-58.8982 47.9947 13.7805 -0.378715 0.92536 -0.0157614
-58.7698 48.0601 12.4989 -0.371709 0.928291 0.0104285
-58.8061 48.1027 11.1273 -0.398876 0.915608 0.0465469
-58.9594 48.1248 9.86693 -0.394046 0.917347 0.0565372
-59.0315 48.1853 8.49701 -0.409822 0.90882 0.0777574
-59.0204 48.2993 7.17803 -0.415597 0.906164 0.0784028
-59.0464 48.4125 5.76622 -0.406587 0.910367 0.076919
-58.9983 48.539 4.48368 -0.419018 0.904082 0.0840153
-58.3326 48.9439 3.4651 -0.412472 0.906607 0.0886166
-58.4125 48.7812 4.71763 -0.404964 0.91049 0.0832274
-58.1833 48.7468 6.3434 -0.403445 0.911403 0.081104
-58.2116 48.6446 7.39885 -0.40249 0.912439 0.0738626
-57.0863 51.1402 -14.7442 -0.342684 0.936382 -0.0758755
-57.8111 50.8888 -13.9266 -0.405845 0.913749 -0.0187901
-57.818 50.8903 -12.6072 -0.442343 0.896606 0.0207258
-56.6984 51.3829 -13.9209 -0.414864 0.906929 -0.0732697
-55.5548 51.6692 -15.2046 -0.472627 0.849886 -0.233061
-55.4065 51.6829 -15.3602 -0.373271 0.867419 -0.329018
-52.5929 52.5315 -17.3171 -0.523244 0.840454 -0.1409
-53.6614 52.2122 -16.0359 -0.420591 0.873018 -0.246866
-54.8294 52.1176 -14.8277 -0.382606 0.887577 -0.256553
-55.9507 51.7501 -13.5074 -0.437413 0.897201 -0.0608237
-57.069 51.2363 -12.1753 -0.433887 0.899784 0.0461714
-57.8494 50.7922 -11.221 -0.442332 0.892749 0.0856766
-57.7909 50.6899 -9.9213 -0.442465 0.890358 0.107181
-56.5712 51.4345 -11.4367 -0.43666 0.896305 0.077232
-55.4884 51.9992 -12.7649 -0.417512 0.908489 0.0182293
-54.3199 52.4446 -14.1475 -0.298725 0.94348 -0.143559
-53.1612 52.6009 -15.395 -0.382957 0.905806 -0.18127
-52.0365 52.9255 -16.7275 -0.461222 0.88416 -0.0743979
-51.679 53.0741 -17.1892 -0.524986 0.850634 -0.0284693
-51.2351 53.3571 -16.4061 -0.439413 0.895105 -0.0755219
-52.3261 53.0013 -15.0853 -0.373037 0.921449 -0.108514
-53.4561 52.7839 -13.8359 -0.310975 0.944755 -0.103597
-54.5391 52.4312 -12.5865 -0.408477 0.91273 0.00842571
-55.6141 51.8767 -11.2604 -0.427528 0.90148 0.0674873
-56.8873 51.1073 -9.67121 -0.43974 0.891854 0.105944
-57.5686 50.6657 -8.81774 -0.44402 0.889122 0.110946
-57.4829 50.5396 -7.53842 -0.429714 0.895223 0.117989
-56.3834 51.2608 -8.91608 -0.433133 0.893848 0.115894
-55.398 51.8872 -10.1525 -0.430418 0.897842 0.0928478
-54.3855 52.4666 -11.4293 -0.451585 0.891085 0.045149
-53.3311 52.949 -12.6987 -0.332776 0.940608 -0.0671985
-52.2189 53.1695 -13.9213 -0.295516 0.950561 -0.095419
-51.0733 53.456 -15.2212 -0.363609 0.930619 -0.0416732
-50.8056 53.5698 -15.5681 -0.393678 0.919246 -0.0021299
-50.0019 53.854 -15.1556 -0.304856 0.952036 0.0262844
-51.122 53.5165 -13.8433 -0.276478 0.96039 -0.0348002
-52.2519 53.2763 -12.5919 -0.261442 0.962609 -0.0709352
-53.3705 52.9406 -11.3277 -0.385752 0.922433 0.0176672
-54.4751 52.3108 -9.93957 -0.441221 0.893835 0.0798894
-55.5144 51.6429 -8.61419 -0.436163 0.892587 0.114237
-53.6027 52.7178 -9.67537 -0.440104 0.892778 0.0962065
-52.4902 53.2663 -11.0139 -0.30844 0.95124 -0.00249093
-51.229 53.574 -12.423 -0.264907 0.961565 -0.0722338
-49.9971 53.8466 -13.7912 -0.27835 0.960272 -0.0199862
-49.826 53.8924 -13.9866 -0.293359 0.956001 -0.00175139
-49.957 53.9037 -12.5135 -0.249402 0.966975 -0.0525218
-51.1115 53.7006 -11.256 -0.260694 0.96202 -0.080975
-52.2507 53.3391 -9.95607 -0.381504 0.921712 0.0700126
