56.8021 53.8417 -15.3991 0.161228 0.98172 -0.100507
56.4768 53.8023 -16.3448 0.193359 0.974715 -0.11105
57.377 53.6519 -16.187 0.168208 0.978369 -0.1204
57.5102 53.7474 -15.2345 0.12895 0.986429 -0.101615
57.2186 53.8151 -14.9381 0.144437 0.984806 -0.0946883
56.951 53.833 -15.2263 0.161602 0.982817 -0.0891946
56.4307 53.9779 -14.626 0.212333 0.974936 -0.0656815
55.8391 54.0683 -15.3177 0.231286 0.967943 -0.0956054
55.4242 54.1265 -16.1379 0.311917 0.946125 -0.0869261
54.7976 54.3292 -16.6448 0.362087 0.931636 -0.013417
54.8105 54.3205 -16.9037 0.362092 0.931634 -0.0134221
55.7113 53.8889 -17.327 0.429517 0.877472 -0.213445
56.6458 53.5948 -17.1929 0.0969753 0.949742 -0.297634
57.6842 53.4389 -17.2776 0.0922516 0.97722 -0.189079
58.2265 53.497 -16.5337 0.0772651 0.987567 -0.136813
58.3105 53.6105 -15.5665 0.112977 0.98715 -0.112322
58.3487 53.7052 -14.5991 0.123421 0.987449 -0.0985446
58.3387 53.7883 -13.6099 0.127161 0.98864 -0.0798564
58.3299 53.8628 -12.7505 0.123092 0.989476 -0.0760681
58.4082 53.9152 -11.9276 0.122584 0.989494 -0.0766506
58.437 53.9622 -11.0778 0.118524 0.991729 -0.0492517
58.3472 54.0206 -10.2674 0.124062 0.990311 -0.0623838
58.3911 54.0822 -9.33965 0.140762 0.987294 -0.0737319
58.4276 54.1381 -8.50711 0.132898 0.987617 -0.0823573
58.4095 54.2143 -7.65493 0.107487 0.990523 -0.0852353
58.3901 54.2943 -6.70017 0.110642 0.991948 -0.0616171
58.4486 54.332 -5.88311 0.106699 0.99256 -0.0582949
58.4311 54.3915 -5.04771 0.109516 0.991423 -0.0713163
58.417 54.4484 -4.2385 0.103365 0.991785 -0.0746529
58.2544 54.5132 -3.59029 0.0884931 0.993629 -0.0696707
57.5123 54.5581 -3.91775 0.0993537 0.992451 -0.0719064
57.2688 54.5298 -4.65254 0.0963907 0.992994 -0.0683436
57.4183 54.4614 -5.48522 0.0894487 0.994127 -0.0609092
57.4172 54.4135 -6.30489 0.0963708 0.993932 -0.0529249
57.3228 54.3683 -7.1077 0.0918543 0.993459 -0.0678405
57.3837 54.3013 -7.97491 0.0944387 0.99337 -0.065539
57.3995 54.2376 -8.89727 0.11412 0.991107 -0.0684335
57.4817 54.1687 -9.71112 0.11269 0.991056 -0.0714749
57.375 54.1203 -10.5612 0.109889 0.991977 -0.0624947
57.3707 54.0691 -11.4131 0.112606 0.991304 -0.0680185
57.5112 53.9974 -12.277 0.120214 0.990647 -0.0645542
57.2691 53.9559 -13.2124 0.11851 0.989879 -0.0778459
56.7509 53.9696 -14.019 0.163281 0.982981 -0.0841923
56.5972 53.9687 -14.3592 0.1672 0.982973 -0.0762147
55.8884 54.1403 -13.9877 0.203608 0.976872 -0.0653111
55.3575 54.227 -14.5941 0.229697 0.972336 -0.0424581
54.8299 54.3401 -15.3922 0.264234 0.964387 -0.0117442
54.2115 54.5366 -16.0354 0.321493 0.946223 0.0361205
53.5572 54.7784 -16.5424 0.338065 0.938715 0.0607256
52.6724 55.1136 -17.1324 0.288978 0.952842 0.0925383
52.1469 55.344 -17.8719 0.291987 0.952263 0.0890939
52.9185 55.1279 -18.0248 0.278492 0.954845 0.103506
53.7384 54.8525 -18.0645 0.311562 0.932094 0.16201
54.5006 54.5094 -18.0365 0.468874 0.882463 0.0376316
55.2294 54.0423 -18.1304 0.59638 0.784531 -0.16983
55.9763 53.4806 -18.0753 0.343918 0.766801 -0.541975
56.9617 53.3348 -17.8858 0.115764 0.938666 -0.324814
57.7826 53.3323 -17.8681 0.0895406 0.982601 -0.162722
58.7483 53.3177 -17.7695 -0.0304033 0.991785 -0.111298
59.1632 53.3758 -17.098 0.0451767 0.995873 -0.0706657
59.1539 53.4589 -16.0726 0.114888 0.987753 -0.105567
59.1558 53.5491 -15.1712 0.132547 0.986031 -0.100868
59.1971 53.6149 -14.3216 0.141708 0.987783 -0.0648423
59.2036 53.6783 -13.448 0.144886 0.986577 -0.0753295
59.2488 53.7562 -12.527 0.144931 0.986003 -0.0824151
59.28 53.8078 -11.534 0.176737 0.983299 -0.0434319
59.2304 53.8775 -10.5373 0.143306 0.987537 -0.0650609
59.2513 53.9436 -9.52414 0.145039 0.986466 -0.0764775
59.2571 54.0151 -8.63094 0.171546 0.980405 -0.0968402
59.2408 54.0966 -7.82182 0.163384 0.982303 -0.0915811
59.1857 54.1769 -6.99619 0.133704 0.988552 -0.0699118
59.2625 54.2044 -6.07602 0.183255 0.981616 -0.0532135
59.2914 54.2715 -5.11514 0.146157 0.985279 -0.088612
59.2957 54.3632 -4.09264 0.133257 0.987431 -0.084991
59.3957 54.3989 -3.21331 0.15012 0.987326 -0.0514931
59.2972 54.4928 -2.22938 0.129141 0.986821 -0.0965327
59.0996 54.567 -1.68766 0.121935 0.98689 -0.105737
58.4263 54.5891 -2.25113 0.0885545 0.993268 -0.0746822
57.7743 54.5983 -2.90901 0.0793958 0.99509 -0.0588052
57.0159 54.6533 -3.1604 0.118158 0.992387 -0.0347487
56.4768 54.7054 -3.46688 0.148522 0.987055 -0.0605253
56.4848 54.6319 -4.40954 0.11285 0.991889 -0.0584898
56.521 54.575 -5.22677 0.132973 0.989194 -0.0617585
56.6025 54.5116 -6.08685 0.122449 0.990698 -0.0593613
56.4569 54.4739 -6.93129 0.120184 0.989467 -0.0803744
56.5149 54.4028 -7.75654 0.105724 0.992328 -0.0640687
56.5428 54.3455 -8.64206 0.114202 0.991439 -0.0633022
56.567 54.2865 -9.60002 0.131308 0.988803 -0.0708976
56.5289 54.2297 -10.5054 0.133991 0.98863 -0.0682454
56.5593 54.1711 -11.5176 0.15725 0.986101 -0.053503
56.7032 54.0971 -12.3874 0.156929 0.985438 -0.0654631
56.294 54.1151 -13.0846 0.188255 0.980895 -0.0490302
55.947 54.1364 -13.8632 0.203607 0.976872 -0.0653119
54.3671 56.0237 7.24571 0.31293 0.94558 -0.0884931
54.3553 55.9257 6.15672 0.312927 0.945581 -0.0884952
55.2576 55.5818 5.41159 0.292335 0.952506 -0.0852842
55.9381 55.4104 5.78515 0.27789 0.958316 -0.0662345
55.8418 55.5229 6.9017 0.283507 0.956754 -0.0644331
55.9361 55.5734 7.98842 0.306206 0.949454 -0.0690414
55.6284 55.7843 9.40175 0.320418 0.944296 -0.0750779
54.8215 56.121 10.19 0.329123 0.941326 -0.0746026
54.9626 55.9855 9.08032 0.323336 0.943421 -0.0735586
54.5693 56.007 7.77126 0.320366 0.942683 -0.0933521
53.7041 56.331 7.98611 0.334414 0.938203 -0.0891163
53.3717 56.3455 6.97611 0.334579 0.936831 -0.101945
53.3389 56.2605 6.01292 0.322889 0.942285 -0.088554
54.104 55.9277 5.17524 0.31074 0.947396 -0.0766908
54.8472 55.6428 4.66094 0.281481 0.956684 -0.0743244
55.8532 55.287 3.85286 0.25499 0.963935 -0.0735579
56.3811 55.1117 3.05962 0.22211 0.972385 -0.0716612
56.6095 54.9977 1.96224 0.206214 0.977718 -0.0370725
56.4937 54.9706 0.982933 0.20867 0.975433 -0.0703253
56.6984 54.8981 0.531029 0.186352 0.981187 -0.0504001
56.6563 54.9653 1.42589 0.202478 0.977585 -0.0574946
56.6688 55.0059 2.36608 0.194475 0.979706 -0.048531
56.5512 55.0935 3.34007 0.224998 0.972447 -0.0597748
56.715 55.1047 4.27092 0.245128 0.967555 -0.0604174
56.7325 55.1514 5.21789 0.252102 0.966576 -0.0462047
56.7549 55.2163 6.32401 0.264012 0.962641 -0.0585738
56.7337 55.2713 7.25542 0.290687 0.955617 -0.0469488
56.7223 55.3354 8.29078 0.305016 0.950845 -0.0534502
56.7481 55.3967 9.33121 0.31297 0.947592 -0.0641773
56.5893 55.5183 10.4369 0.327622 0.942862 -0.0602878
55.7269 55.8612 10.9643 0.332972 0.940032 -0.0739555
54.8194 56.2016 11.2046 0.331904 0.939589 -0.0832191
54.215 56.362 10.5863 0.325556 0.942539 -0.0750641
53.9995 56.3665 9.67032 0.327548 0.942175 -0.0708471
53.8758 56.3345 8.72191 0.33456 0.939335 -0.0756253
53.84 56.319 8.37063 0.334304 0.938857 -0.0821336
56.7597 54.8525 -0.167059 0.184295 0.981752 -0.0468757
56.5646 54.8712 -0.541263 0.187193 0.980904 -0.0527398
56.522 54.829 -1.4923 0.18572 0.981119 -0.0539855
56.6988 54.811 -1.21208 0.177338 0.982916 -0.0492493
56.6865 54.8514 -0.476958 0.183885 0.981863 -0.0461544
