2.23217 20.3273 18.4161 0.0162634 0.996431 0.0753044
2.21865 20.3537 17.7089 0.106886 0.994114 0.0139615
1.68599 20.3725 17.3749 0.00492905 0.999299 0.0280504
1.60716 20.3304 18.2164 -0.101121 0.993551 0.0512942
1.64775 20.2956 18.9431 -0.0450605 0.99682 0.0657214
1.72527 20.2993 19.6293 -0.0464912 0.997987 -0.023846
2.23391 20.3025 19.3702 -0.00834187 0.999843 0.00170012
2.21394 20.3134 18.7094 0.0343829 0.998132 0.0505005
2.85811 20.2433 18.8288 0.169682 0.985203 -0.0170623
2.84871 20.2446 19.5173 0.164789 0.986074 0.0224216
2.79179 20.2543 20.2341 0.176768 0.983613 -0.035473
2.0928 20.3228 20.4158 0.00800354 0.999324 -0.0358783
1.41727 20.2949 20.3914 -0.107654 0.993304 -0.0310764
1.07067 20.2334 19.8162 -0.141311 0.989751 0.0196336
1.03143 20.2225 19.0279 -0.131652 0.990623 0.0102995
0.989607 20.2481 18.2531 -0.15483 0.986635 0.0506616
0.966595 20.2789 17.5771 -0.171132 0.984288 0.0434752
1.02991 20.3302 16.8723 -0.194808 0.976348 0.0917934
1.61534 20.4314 16.7387 0.00972506 0.994573 0.102549
2.35077 20.3925 16.5282 0.170349 0.977465 0.106345
2.79981 20.2847 16.7785 0.198649 0.979138 0.0421993
2.82464 20.2693 17.4336 0.164475 0.986277 -0.00244859
2.85585 20.2642 18.1393 0.195977 0.980459 0.0171406
2.87039 20.2408 18.6009 0.18432 0.982057 0.022459
3.4991 20.1069 18.6878 0.262445 0.964925 0.00303851
3.46033 20.1124 19.428 0.259796 0.965624 0.00878744
3.4384 20.1144 20.2684 0.237034 0.971263 -0.0137952
3.35957 20.1539 20.951 0.292553 0.955354 -0.0413709
2.73767 20.3143 21.0524 0.228505 0.970972 -0.0698237
1.96571 20.3849 21.044 0.0147873 0.987373 -0.141451
1.22657 20.3171 21.0358 -0.15416 0.98353 -0.0852068
0.546489 20.1659 21.0127 -0.237832 0.968333 -0.0759436
0.43671 20.1043 20.2586 -0.237258 0.9712 -0.0169869
0.469923 20.1011 19.5853 -0.248955 0.968245 0.00943552
0.358572 20.0892 18.7528 -0.247518 0.968774 0.0074386
0.365378 20.114 17.9873 -0.275655 0.960898 0.0262552
0.374751 20.1304 17.3234 -0.301071 0.953509 0.0121929
0.414378 20.1533 16.6091 -0.331374 0.943376 0.000394484
0.47423 20.1731 15.9538 -0.403997 0.914747 -0.00483839
0.566695 20.2014 15.1378 -0.487017 0.873123 -0.0217151
0.615561 20.2102 14.4592 -0.559159 0.828949 -0.013522
0.697496 20.2505 13.6483 -0.60325 0.7975 -0.00917906
0.779644 20.3003 12.856 -0.668301 0.743655 -0.000625428
0.789203 20.2938 12.0851 -0.704481 0.709226 -0.0265744
0.806409 20.281 11.2889 -0.745895 0.665688 -0.0180017
0.817197 20.2725 10.5986 -0.767568 0.640743 -0.0154858
0.9377 20.4061 10.0146 -0.782731 0.622324 -0.00667596
0.868807 20.3016 9.33112 -0.796081 0.604873 -0.0195946
0.883924 20.2985 8.57605 -0.804353 0.593928 -0.0141351
1.04616 20.5166 8.27502 -0.809519 0.586954 -0.012021
1.0108 20.4799 8.93083 -0.800101 0.599635 -0.0162151
1.06279 20.5608 9.56874 -0.791869 0.610609 -0.00999032
1.03063 20.5266 10.3404 -0.782311 0.622488 0.0121396
1.0452 20.5499 11.0015 -0.759163 0.650892 -0.00269175
1.03346 20.5401 11.811 -0.724294 0.689477 0.00449462
1.00832 20.5146 12.5827 -0.692259 0.721562 -0.00768256
1.02254 20.512 13.3842 -0.633327 0.773548 0.022822
0.952326 20.4469 14.0415 -0.59703 0.802163 -0.00143941
0.835588 20.3543 14.7629 -0.525657 0.850677 -0.00568456
0.979005 20.4235 15.4104 -0.469319 0.882695 0.0238397
1.17096 20.4652 16.0307 -0.299151 0.945954 0.11397
1.80417 20.52 16.0601 0.0682079 0.985339 0.146067
2.46221 20.4523 15.6849 0.276422 0.948507 0.154391
2.92447 20.3305 15.2385 0.42297 0.900315 0.102421
3.2807 20.1579 15.697 0.342688 0.939064 -0.0255064
3.39382 20.1241 16.3693 0.287047 0.957803 -0.0147234
3.42108 20.1201 17.0736 0.288582 0.957443 -0.00475447
3.44637 20.1186 17.7731 0.264349 0.964211 -0.0195934
3.51806 20.1014 18.4668 0.25968 0.965693 -0.00204925
3.51726 20.1016 18.4875 0.259676 0.965694 -0.00204979
1.00795 20.4547 7.8429 -0.813538 0.581388 -0.0118966
1.08857 20.5679 7.85344 -0.814792 0.579661 -0.0103543
1.07583 20.5359 7.14685 -0.816475 0.577305 -0.00884376
1.09281 20.5466 6.49322 -0.817671 0.575563 -0.0118929
0.910523 20.2853 6.39483 -0.818049 0.575031 -0.0116259
0.972482 20.3887 7.12469 -0.818324 0.574563 -0.0146573
0.97337 20.402 7.63957 -0.81392 0.580852 -0.0120194
1.06454 20.4805 4.97545 -0.813456 0.58159 -0.00654966
1.0955 20.5351 5.67637 -0.816985 0.576584 -0.0093123
0.986308 20.3878 6.12093 -0.818009 0.575108 -0.0106065
0.967126 20.3492 5.45659 -0.816955 0.576636 -0.00839108
1.00892 20.4045 5.14172 -0.814108 0.58069 -0.00483252
0.895752 20.2222 0.0573939 -0.722126 0.691678 0.00800658
1.00836 20.3308 -0.431253 -0.699833 0.714118 -0.00673618
1.03817 20.3747 0.224735 -0.722063 0.691751 -0.0102872
0.96019 20.2926 0.294576 -0.737679 0.67515 -0.00144742
1.05353 20.4329 2.97108 -0.792213 0.610133 -0.0104396
1.06875 20.4652 3.70098 -0.79874 0.601608 -0.00909945
0.970264 20.3248 3.06787 -0.79639 0.604733 -0.00372898
1.04745 20.4227 2.72847 -0.790705 0.612169 -0.0058947
0.941071 20.2991 4.1504 -0.809271 0.587349 -0.00937333
1.10522 20.5217 4.0552 -0.803032 0.595799 -0.0128044
0.986508 20.3686 4.71075 -0.813093 0.582112 -0.00497586
0.932141 20.2879 4.2537 -0.810668 0.58547 -0.00650895
