0.779243 20.5629 18.3254 -0.278637 0.958006 0.0674886
1.05412 20.6547 17.814 -0.189569 0.980205 0.0562972
1.46867 20.7421 17.3515 -0.108396 0.992035 0.0617538
2.08048 20.775 17.3611 0.0528484 0.995442 0.026995
2.08193 20.7642 17.8918 -0.00794409 0.999793 -0.0187508
2.13689 20.7125 18.6892 0.0148692 0.998408 0.0520603
2.48783 20.6861 19.2009 0.0503898 0.997966 -0.0390481
2.23469 20.696 19.3789 -0.0131533 0.999823 0.00069337
1.5986 20.6695 19.3239 -0.0913039 0.995664 -0.0178088
0.998105 20.5892 19.3539 -0.234805 0.971879 -0.0178078
0.507315 20.4477 18.9175 -0.26863 0.962742 -0.0310898
0.631674 20.5015 18.6069 -0.29274 0.954683 0.0536966
0.0866733 20.3406 18.2524 -0.360081 0.931758 0.0459957
0.267026 20.4321 17.5931 -0.376656 0.925876 0.029732
0.356765 20.4819 16.9762 -0.385081 0.922741 0.0154813
0.382431 20.5078 16.3325 -0.425733 0.904782 0.0110029
0.52764 20.5904 15.8518 -0.444252 0.895129 0.0371996
0.816596 20.7027 16.3002 -0.363531 0.92793 0.0824083
1.37439 20.8219 16.5929 -0.132908 0.981196 0.135591
2.00014 20.8399 16.5678 0.078195 0.984083 0.156651
2.69585 20.7488 16.2521 0.225669 0.973437 0.0386525
3.20361 20.5877 15.8453 0.368088 0.929763 0.00724843
3.45895 20.4836 16.307 0.338355 0.941014 0.00305465
3.29191 20.5493 16.8923 0.309734 0.949989 -0.0128094
2.96338 20.6447 17.4413 0.170657 0.98511 -0.0103946
2.83288 20.6736 18.0314 0.207031 0.977954 0.0272775
2.9925 20.6141 18.6178 0.176025 0.984341 0.00933548
3.3636 20.5211 19.1342 0.28334 0.958247 0.0195197
3.58652 20.4365 19.7168 0.345128 0.938272 0.0181588
3.44105 20.4833 20.3131 0.304937 0.951237 -0.0464846
2.84255 20.6385 20.3021 0.188049 0.981201 -0.0311165
2.22839 20.7054 20.1961 0.0488662 0.99723 -0.0501594
1.61105 20.7006 20.1832 -0.138518 0.989416 -0.0288975
1.02196 20.5933 20.275 -0.228139 0.973626 -0.00209995
0.41342 20.4312 20.186 -0.288078 0.957595 0.00480861
0.180945 20.3517 19.6274 -0.312225 0.949896 -0.014584
-0.0773773 20.2553 19.0641 -0.352221 0.935889 0.00728181
-0.0504822 20.2794 18.4812 -0.346573 0.937479 0.031938
-0.0128552 20.2966 18.3838 -0.35382 0.934605 0.0353773
-0.494118 20.1145 18.248 -0.381525 0.924134 0.00659949
-0.521263 20.0883 18.909 -0.354197 0.935167 0.00287322
-0.427609 20.1168 19.5584 -0.386822 0.921938 0.0106397
-0.350842 20.1528 20.2589 -0.383697 0.923443 -0.00536349
-0.164904 20.2487 20.8759 -0.366384 0.925366 -0.0972657
0.401497 20.476 21.0274 -0.271097 0.949312 -0.159103
1.09873 20.6573 20.986 -0.228817 0.967229 -0.110054
1.81049 20.7639 20.972 -0.1091 0.989851 -0.0909648
2.47169 20.7372 21.0174 0.133738 0.988969 -0.0636813
3.08479 20.6246 21.0324 0.222672 0.969809 -0.0994329
3.75321 20.4191 21.0724 0.377444 0.921921 -0.0797863
4.24785 20.1843 20.8226 0.414067 0.909689 -0.0209746
4.21909 20.1997 20.2053 0.387001 0.921912 0.00148466
4.31 20.1613 19.5312 0.38059 0.924678 0.0110539
4.18205 20.2341 18.9496 0.380066 0.923578 0.0504856
3.71053 20.4338 18.4191 0.286053 0.957926 0.0234966
3.58805 20.4788 17.8024 0.259783 0.964141 -0.0359641
3.92923 20.3265 17.2536 0.348211 0.934433 -0.0747275
4.16896 20.1897 16.7312 0.409189 0.910537 -0.0590474
4.11139 20.182 16.1293 0.421061 0.905714 -0.0488748
4.01522 20.2133 15.3711 0.47589 0.878275 -0.00868685
3.97433 20.2126 14.6362 0.541447 0.839648 -0.00701644
3.45827 20.532 14.6634 0.482319 0.870172 0.100847
2.98515 20.7326 15.1437 0.451326 0.886495 0.0912566
2.37929 20.8761 15.6834 0.307699 0.930758 0.197514
1.80157 20.9642 15.888 0.0733244 0.980927 0.177947
1.23339 20.929 15.7973 -0.433418 0.897331 0.0833399
0.979795 20.8418 15.2665 -0.462545 0.885235 0.0488342
0.959157 20.8888 14.5876 -0.578386 0.812923 0.0680227
0.943477 20.9164 13.862 -0.604889 0.796118 0.0174841
0.964174 20.9563 13.2488 -0.632338 0.769427 0.0763857
0.973473 21.0058 12.5674 -0.685513 0.727835 0.0181338
0.949604 21.0095 11.8968 -0.722353 0.691257 0.0192366
1.01585 21.108 11.2272 -0.759791 0.650167 0.000550443
1.02537 21.113 10.5793 -0.760362 0.649341 -0.0143387
1.05324 21.1654 9.89179 -0.790599 0.611931 0.0212191
1.07585 21.2047 9.21486 -0.800728 0.598972 0.00821065
1.01187 21.1206 8.61353 -0.806589 0.591112 -0.000792263
0.997586 21.0968 7.85361 -0.81295 0.582235 -0.0106811
1.02182 21.1169 6.96673 -0.815751 0.578334 -0.00842446
1.01843 21.1 6.33584 -0.81662 0.577063 -0.0113757
0.991306 21.0476 5.66538 -0.815245 0.578991 -0.0120883
1.02322 21.0768 5.02663 -0.812235 0.58317 -0.0136417
1.01473 21.0466 4.36637 -0.805309 0.592658 -0.0152661
1.0236 21.0418 3.73821 -0.802319 0.596323 -0.0244255
0.988553 20.976 3.13353 -0.792062 0.610288 -0.0135658
0.965559 20.929 2.45972 -0.776994 0.628827 -0.0282077
0.985126 20.9336 1.81656 -0.76954 0.637396 -0.0349377
0.969598 20.8932 1.18992 -0.74727 0.664196 -0.0204738
0.970144 20.864 0.468576 -0.723654 0.688768 -0.0377042
0.957739 20.8295 -0.237846 -0.711689 0.702056 -0.0248151
0.972503 20.8163 -0.990748 -0.66741 0.743698 -0.03661
0.95477 20.7638 -1.65026 -0.63214 0.772339 -0.0541973
0.94664 20.7285 -2.32901 -0.603196 0.796664 -0.0384899
0.94882 20.7001 -2.92835 -0.565281 0.824375 -0.0293638
0.927857 20.6528 -3.63576 -0.543988 0.836938 -0.0574382
0.940044 20.6256 -4.34202 -0.485584 0.871935 -0.0586797
0.961169 20.6005 -5.07558 -0.456433 0.888779 -0.0417137
0.933528 20.5532 -5.82159 -0.442061 0.896123 -0.0356274
0.963173 20.5329 -6.57602 -0.388664 0.920358 -0.0433789
0.854365 20.4673 -7.21468 -0.374611 0.926798 -0.0267057
0.91059 20.465 -7.81539 -0.337139 0.941079 -0.0265438
0.889952 20.4428 -8.42175 -0.321391 0.946398 -0.0304063
0.886028 20.4191 -9.09379 -0.297206 0.954199 -0.0342198
0.846129 20.3853 -9.70406 -0.281887 0.958942 -0.031149
0.849486 20.3675 -10.3361 -0.267419 0.963213 -0.0258893
0.907318 20.3617 -11.039 -0.253343 0.967013 -0.0255087
0.885114 20.3297 -11.7246 -0.222782 0.97435 -0.0293151
0.871906 20.3087 -12.4032 -0.204749 0.978331 -0.0307652
0.870366 20.2846 -13.0396 -0.178628 0.983029 -0.0417781
0.904476 20.2555 -13.8378 -0.15403 0.987235 -0.038468
0.876519 20.2196 -14.5244 -0.113116 0.991914 -0.0575462
0.898339 20.1854 -15.2118 -0.094118 0.994123 -0.0522364
0.913974 20.1485 -15.8286 -0.0574683 0.996195 -0.0655276
0.901369 20.1069 -16.4313 -0.0283052 0.99636 -0.0804113
0.867878 20.055 -17.0879 0.0265526 0.996848 -0.0734028
0.479579 20.0392 -17.6189 0.0592751 0.996714 -0.0552026
0.230808 20.0354 -18.225 0.0646018 0.997659 -0.0223381
0.127251 20.0302 -18.8331 0.0657958 0.99767 -0.0180459
0.127913 20.0351 -19.447 0.0673088 0.997618 0.015126
0.0911889 20.0437 -20.1006 0.101415 0.994767 0.012371
0.0249284 20.0579 -20.715 0.140532 0.989794 0.0195539
-0.376716 20.118 -21.1293 0.0688295 0.996083 0.0555133
-1.19315 20.1602 -21.137 0.0150776 0.997708 0.0590512
-1.8339 20.1298 -21.1516 -0.0696758 0.996133 0.0532428
-2.29974 20.0693 -20.8641 -0.126764 0.991202 0.0380828
-2.32117 20.0429 -20.2243 -0.113029 0.992679 0.0425667
-2.30898 20.0405 -19.5492 -0.092255 0.995637 0.00293252
-2.12042 20.0679 -18.9763 -0.0843802 0.994878 -0.0556595
-1.44459 20.1078 -18.7027 0.00859992 0.999027 -0.0296179
-1.3028 20.0896 -17.946 0.0282177 0.998838 0.0390618
-1.27186 20.0619 -17.2226 -0.00728403 0.999041 0.0424888
-1.22643 20.0366 -16.5233 -0.0538072 0.997505 0.0456998
-0.9436 20.0296 -15.8732 -0.0703005 0.997281 0.0221153
-0.608562 20.0444 -15.3273 -0.0945078 0.995048 0.0306691
-0.503249 20.0504 -14.6344 -0.11459 0.993063 0.0193371
-0.391571 20.06 -13.9091 -0.150036 0.988675 0.00320804
-0.298275 20.0722 -13.2022 -0.174534 0.984612 -0.00173454
-0.260049 20.0788 -12.5575 -0.197237 0.98032 -0.00263525
-0.240459 20.0806 -11.9059 -0.214481 0.976721 0.00376238
-0.178898 20.0926 -11.2569 -0.225271 0.974279 0.00195959
-0.173465 20.0913 -10.5875 -0.239309 0.970891 -0.0018565
-0.165536 20.0917 -9.81513 -0.269629 0.962926 -0.00251509
-0.084396 20.1219 -9.1142 -0.284173 0.95877 -0.00218869
-0.0715782 20.1222 -8.45307 -0.319722 0.947429 0.00726378
0.0220808 20.1467 -7.75048 -0.327646 0.94477 0.00762691
0.0178146 20.1425 -7.12727 -0.355086 0.934831 0.00228174
0.0719907 20.1602 -6.33461 -0.399607 0.916666 0.00608144
0.15364 20.1926 -5.57776 -0.419383 0.907781 0.00718199
0.151187 20.1869 -4.89961 -0.450961 0.892502 0.00867285
0.202068 20.1969 -4.2876 -0.478847 0.877475 0.0272647
0.291892 20.247 -3.67517 -0.527648 0.849129 0.0206333
0.331663 20.2722 -3.06591 -0.544554 0.838702 0.00634409
0.400239 20.3094 -2.29509 -0.615711 0.787707 0.0198815
0.371916 20.2792 -1.6971 -0.656945 0.753088 0.0312659
0.426756 20.3139 -1.02243 -0.667432 0.744623 0.00844741
0.485547 20.3617 -0.217386 -0.712906 0.701129 0.0131955
0.439517 20.3023 0.483859 -0.727283 0.68537 0.0306243
0.455118 20.3066 1.10391 -0.749902 0.661544 0.00252739
0.496928 20.3509 1.75858 -0.773429 0.633829 0.00825436
0.481493 20.3234 2.5406 -0.779089 0.626766 0.0109647
0.497687 20.3408 3.25128 -0.792107 0.610379 0.00173967
0.525621 20.373 3.88234 -0.804698 0.593685 -0.000290375
0.516513 20.3669 4.49556 -0.808668 0.588209 -0.00814116
0.508803 20.3657 5.32756 -0.815222 0.579124 -0.0053643
0.495661 20.3547 6.01104 -0.816709 0.576985 -0.00870558
0.43737 20.2839 6.66871 -0.81725 0.576161 -0.0116366
0.459469 20.331 7.30074 -0.816771 0.576753 -0.0155167
0.43995 20.3255 7.98778 -0.811558 0.584029 -0.0168398
0.473655 20.3905 8.59228 -0.806554 0.590794 -0.020519
0.418043 20.3425 9.30836 -0.787551 0.615928 -0.0198991
0.409377 20.3566 10.0083 -0.781347 0.623072 -0.0335089
0.384885 20.3571 10.6224 -0.77108 0.636007 -0.0304958
0.347526 20.355 11.3222 -0.740508 0.671012 -0.0365423
0.281839 20.3365 11.9699 -0.7024 0.708313 -0.0588814
0.260382 20.331 12.6117 -0.687647 0.726037 -0.00341305
0.132686 20.2494 13.1986 -0.63962 0.766154 -0.0624047
0.0538872 20.2344 13.8157 -0.613971 0.786373 -0.0682496
-0.033328 20.2384 14.5527 -0.535504 0.841861 -0.0671271
-0.126929 20.2273 15.1635 -0.510481 0.857899 -0.0572954
-0.214851 20.2128 15.807 -0.454404 0.890129 -0.0344559
-0.307026 20.1877 16.4737 -0.42586 0.904627 -0.0171022
-0.321247 20.1895 17.2203 -0.412443 0.910975 -0.00381119
-0.441649 20.139 17.8183 -0.392068 0.919892 0.00902151
-0.461223 20.1275 18.0087 -0.401336 0.915845 0.00535922
-0.574485 20.0778 -19.4397 0.047891 0.998542 0.0236779
-0.573421 20.0951 -20.1006 0.0539198 0.99841 0.0164446
-0.921441 20.1213 -20.5065 0.0169678 0.99876 0.0468085
-1.54676 20.1119 -20.4691 -0.0478512 0.997773 0.0464765
-1.64272 20.0922 -19.8098 -0.0448127 0.99872 0.00749223
-1.2656 20.0952 -19.352 0.00219918 0.999987 0.00452993
-0.778831 20.0807 -18.8774 0.0407455 0.999074 -0.0108975
-0.582992 20.0706 -18.9424 0.0490792 0.998743 0.00247183
-0.590074 20.0744 -19.189 0.050532 0.998587 0.0164395
