0.828882 20.9885 18.5774 -0.207416 0.977554 0.0363906
1.02142 21.0751 17.7687 -0.216318 0.972865 0.0820941
1.78595 21.1397 18.0173 -0.025634 0.996395 0.0684459
1.7717 21.128 18.9165 -0.0233178 0.997184 0.0389947
0.842319 20.9858 18.7753 -0.210596 0.977195 0.0271936
-0.0733942 20.6481 18.7958 -0.412341 0.910497 0.0244523
-0.0361976 20.7143 17.8193 -0.415272 0.908057 0.0491379
-0.0609768 20.7385 16.7613 -0.472857 0.881134 -0.00292006
0.0814064 20.8036 15.7922 -0.487709 0.872425 -0.0078967
0.422526 20.9726 16.1724 -0.455161 0.889838 0.0318864
1.30493 21.1832 16.7463 -0.147026 0.988199 0.0389867
2.31299 21.1711 16.7057 0.116338 0.990557 0.0725389
3.06846 21.0304 16.451 0.293783 0.955262 0.034136
3.13318 21.0049 16.6074 0.333349 0.94129 0.0330113
2.75492 21.0926 17.5428 0.157434 0.98741 -0.00944458
2.82264 21.0561 18.5229 0.120649 0.992642 -0.0103113
3.34218 20.9515 19.3402 0.269909 0.962868 0.00586863
3.54934 20.8658 19.9265 0.277169 0.960168 0.035333
2.56459 21.0734 19.8738 0.0954198 0.995428 -0.00420559
1.46277 21.0919 19.9495 -0.0956495 0.995393 -0.00661623
0.394441 20.8367 19.9053 -0.324563 0.945338 0.00310271
-0.0612296 20.6519 19.167 -0.4142 0.910178 0.00388251
-0.0839042 20.6427 18.8966 -0.413807 0.910353 0.0045365
-0.963694 20.2331 18.8353 -0.45653 0.88962 0.0125367
-0.873671 20.2935 17.7501 -0.468863 0.882947 0.0239204
-0.891329 20.2764 16.6989 -0.509272 0.859749 -0.0383891
-0.802812 20.2717 15.6566 -0.511899 0.857078 -0.0571196
-0.522542 20.3693 14.7315 -0.554714 0.829689 -0.0625181
-0.377145 20.3811 13.7493 -0.628562 0.773929 -0.0770721
-0.257385 20.3897 12.6933 -0.676348 0.733916 -0.0620676
-0.133186 20.4242 11.6592 -0.723968 0.686794 -0.0641724
-0.0709389 20.4186 10.5583 -0.768752 0.638562 -0.0342361
-0.00659777 20.437 9.44774 -0.787638 0.615601 -0.0257372
0.0281714 20.4332 8.41384 -0.805654 0.591965 -0.0223643
0.0704285 20.4506 7.32466 -0.815753 0.578178 -0.01605
0.0739084 20.4299 6.1779 -0.815551 0.578596 -0.0101874
0.0705753 20.413 5.16893 -0.81381 0.581114 -0.00446142
0.0681432 20.4052 3.961 -0.803824 0.594864 -0.00179602
0.0668375 20.415 2.8662 -0.788117 0.615523 0.00201415
0.0353269 20.3951 1.79319 -0.77083 0.636907 0.0130742
0.00769992 20.3945 0.682608 -0.73581 0.676246 0.0356469
-0.0652406 20.3635 -0.396463 -0.695023 0.718002 0.0376315
-0.111051 20.3695 -1.5147 -0.645457 0.761935 0.0532935
-0.215314 20.3413 -2.52022 -0.599563 0.798908 0.0476545
-0.356546 20.3052 -3.69621 -0.50742 0.860976 0.0352864
-0.495372 20.2729 -4.66261 -0.452341 0.891026 0.0382271
-0.68326 20.2298 -5.71797 -0.425052 0.904281 0.0359481
-0.890683 20.1939 -6.87501 -0.373561 0.926206 0.0509328
-1.03277 20.1834 -7.88896 -0.337198 0.940561 0.0390439
-1.12924 20.1827 -8.88127 -0.307058 0.951022 0.034414
-1.17712 20.2092 -9.86813 -0.267354 0.96272 0.0408913
-1.17823 20.2421 -10.8896 -0.241267 0.970059 0.0261264
-1.16766 20.274 -11.9631 -0.212687 0.976678 0.0282496
-1.18692 20.2988 -12.9677 -0.1811 0.982963 0.0305976
-1.16271 20.3338 -14.0008 -0.145436 0.988733 0.0352919
-1.15752 20.3646 -15.0028 -0.121157 0.992199 0.0293495
-1.12872 20.4084 -16.0909 -0.0563678 0.997504 0.0425359
-1.14341 20.4464 -17.1 -0.0246774 0.999245 0.0279808
-1.24431 20.48 -18.2403 0.0177592 0.999788 0.00450192
-1.93335 20.4644 -18.9303 -0.0248377 0.999533 -0.0148902
-2.91425 20.287 -19.059 -0.250937 0.966749 -0.0463113
-3.33174 20.1562 -19.8163 -0.277028 0.960848 -0.000561745
-3.35648 20.1779 -20.8596 -0.307859 0.950882 0.0319628
-2.40793 20.4327 -21.0325 -0.220587 0.97233 0.0754225
-1.35826 20.5367 -21.02 -0.034368 0.997984 0.0533514
-0.337245 20.4905 -21.0162 0.102776 0.992161 0.0686633
0.656636 20.3014 -20.9955 0.234969 0.971241 0.0254065
1.20432 20.1505 -20.3769 0.255272 0.966818 -0.00993242
1.27826 20.155 -19.3652 0.264787 0.96347 -0.0401743
0.896177 20.3138 -18.3685 0.156848 0.980645 -0.117125
0.812573 20.4157 -17.3778 0.0495457 0.992825 -0.108829
0.792767 20.4996 -16.321 -0.0259245 0.995961 -0.085959
0.763318 20.552 -15.3285 -0.0760626 0.995656 -0.0517469
0.790404 20.6072 -14.3371 -0.124782 0.990972 -0.0454254
0.77317 20.65 -13.2437 -0.167726 0.984952 -0.0395789
0.779579 20.69 -12.1481 -0.205594 0.978299 -0.0257485
0.747193 20.7173 -11.1104 -0.250249 0.967844 -0.0255649
0.781187 20.7565 -10.1011 -0.270961 0.962015 -0.0332666
0.762379 20.7813 -9.12315 -0.299875 0.953657 -0.0236505
0.783634 20.8241 -8.01748 -0.342712 0.938958 -0.0301185
0.801207 20.8726 -6.92362 -0.377673 0.925087 -0.039718
0.791571 20.9143 -5.91825 -0.404647 0.913569 -0.0369465
0.79912 20.9675 -4.90234 -0.466126 0.883898 -0.0372896
0.811879 21.0275 -3.91796 -0.526397 0.849212 -0.0417707
0.845625 21.1117 -2.80748 -0.565364 0.823433 -0.0414702
0.857677 21.1833 -1.70422 -0.622101 0.781542 -0.046539
0.865055 21.2425 -0.616724 -0.683381 0.727844 -0.05028
0.951561 21.3952 0.42532 -0.730158 0.681849 -0.0441601
0.931969 21.435 1.41749 -0.758335 0.650141 -0.0473742
0.969542 21.5369 2.40923 -0.777183 0.628269 -0.0347958
0.963442 21.5797 3.3871 -0.795372 0.605457 -0.0275514
0.969729 21.6345 4.37868 -0.805155 0.592462 -0.026747
0.967402 21.6644 5.35105 -0.812757 0.582302 -0.0185985
0.971922 21.6964 6.37852 -0.815822 0.578192 -0.0111219
0.976998 21.7193 7.54279 -0.812704 0.582652 -0.00311687
0.974353 21.7117 8.69119 -0.801542 0.597882 0.00579872
0.963815 21.6731 9.84096 -0.782224 0.62281 0.0143284
0.919134 21.5755 10.9717 -0.752402 0.658374 0.0169522
0.915987 21.5213 12.023 -0.705102 0.707511 0.0475372
0.857351 21.4077 13.0865 -0.648936 0.759812 0.0395979
0.875589 21.3286 14.1196 -0.564459 0.822356 0.071178
0.951456 21.2611 15.1502 -0.461528 0.880864 0.104987
1.51815 21.3326 15.8821 -0.0834883 0.971649 0.201634
2.54401 21.2515 15.6335 0.341263 0.920523 0.190201
3.2678 21.0355 14.9703 0.437279 0.896671 0.0690562
3.96166 20.6865 14.2906 0.572328 0.818417 0.0478431
4.46613 20.3257 14.1168 0.628498 0.777197 0.0309184
4.55822 20.2961 15.1803 0.523252 0.851761 -0.0266806
4.60389 20.323 16.3065 0.506977 0.856481 -0.0926052
3.98793 20.6952 17.0888 0.369426 0.927301 -0.0603143
3.6188 20.8826 18.058 0.246094 0.969243 -0.00224103
4.30023 20.5974 18.9611 0.424506 0.900881 0.0905947
4.84292 20.2768 19.4302 0.485261 0.873437 0.0403675
4.82492 20.2825 20.4641 0.48778 0.872406 -0.0312915
4.15919 20.6445 20.8903 0.419092 0.904821 -0.0752331
3.13109 21.0127 20.9295 0.281295 0.954628 -0.0977664
2.15556 21.1554 20.9003 0.00347748 0.997008 -0.0759771
1.07102 21.0636 20.9398 -0.199844 0.974776 -0.0958753
0.118403 20.7792 20.8428 -0.35632 0.930577 -0.0764768
-0.76787 20.3491 20.8459 -0.471529 0.881368 -0.0291776
-0.863816 20.2762 19.8211 -0.440925 0.897543 -0.00128683
-0.971302 20.2277 18.9462 -0.456614 0.889575 0.0126441
-0.105034 20.4353 -18.2358 0.0719318 0.996568 -0.0309258
-0.705488 20.4581 -19.0427 0.0566695 0.998265 0.0109744
-1.46179 20.482 -19.7228 -0.0626711 0.997335 0.0373444
-1.6281 20.4811 -20.0137 -0.0756639 0.996356 0.0304632
-0.529597 20.4757 -20.1079 0.077897 0.99649 0.026103
0.293359 20.3554 -19.5378 0.17406 0.984689 -0.00954893
-0.0676701 20.4179 -18.5705 0.097806 0.994431 -0.0392576
-0.0823971 20.4221 -18.5009 0.0964361 0.994539 -0.0398809
