0.3552 21.3082 17.6896 -0.353569 0.935407 -0.0014134
0.316596 21.2659 18.7005 -0.238216 0.970744 -0.0301661
1.32661 21.4843 18.7692 -0.123994 0.99113 0.0478128
1.49405 21.5522 17.9305 -0.0799901 0.990591 0.0914214
0.556131 21.384 17.6235 -0.311755 0.947599 0.0378151
0.401031 21.3253 17.5842 -0.353565 0.935409 -0.00141634
0.896904 21.4988 16.6934 -0.304223 0.949214 0.0802528
0.19343 21.2705 15.9016 -0.43581 0.900038 -0.00015243
-0.0491203 21.1455 14.8114 -0.533833 0.845385 -0.0159953
-0.144456 21.0688 13.8403 -0.597255 0.801712 0.00305357
0.0837577 21.2417 12.7673 -0.681082 0.732032 -0.0159804
-0.101134 21.0941 13.3826 -0.658471 0.751939 -0.031683
-0.246913 21.0038 14.4147 -0.587276 0.808131 -0.0320169
-0.330916 20.994 15.5343 -0.520377 0.853358 -0.031431
-0.538893 20.886 16.6451 -0.49159 0.870793 -0.00752603
-0.617636 20.8437 17.7608 -0.470984 0.882139 -0.00211741
-0.655875 20.8125 18.9046 -0.451903 0.892013 0.00984901
-0.363584 20.9433 19.7998 -0.424503 0.905426 -0.00131008
0.595009 21.303 19.8353 -0.263844 0.964383 -0.0187468
1.77597 21.5174 19.7657 -0.0495647 0.998211 -0.0139662
2.88437 21.4528 19.7768 0.202131 0.979184 -0.0184676
3.44753 21.3085 19.5414 0.282521 0.959075 0.0189157
2.74045 21.4578 18.7914 0.14048 0.990076 0.00383899
2.56464 21.5317 17.6873 0.110466 0.992664 0.0491427
2.54789 21.5702 16.8644 0.189825 0.979522 0.0644571
1.53509 21.6239 16.8887 -0.0782033 0.993154 0.057492
1.17402 21.5769 16.82 -0.218419 0.969223 0.0710815
1.57424 21.757 15.9655 -0.0820896 0.954571 0.260087
0.919176 21.6799 15.2216 -0.416368 0.901542 0.11773
0.794637 21.7393 14.1922 -0.546821 0.830788 0.103646
0.831933 21.8923 13.1015 -0.661938 0.746769 0.0578631
0.867405 21.9944 12.0863 -0.695404 0.717578 0.0386705
0.916336 22.1356 11.0023 -0.748376 0.659983 0.0642439
0.93833 22.2454 9.91235 -0.777835 0.627287 0.0385339
0.942896 22.312 8.7132 -0.803363 0.59498 0.0246112
0.945018 22.3345 7.63301 -0.815628 0.578575 0.00168076
0.950963 22.3355 6.57188 -0.817965 0.57517 -0.010457
0.946398 22.3031 5.56565 -0.816775 0.576653 -0.0186864
0.947446 22.2569 4.44331 -0.810968 0.584449 -0.027399
0.945213 22.1886 3.37892 -0.796764 0.602928 -0.0405518
0.931261 22.0892 2.26907 -0.77042 0.635374 -0.0524727
0.849732 21.9081 1.15627 -0.758101 0.650115 -0.0505448
0.842139 21.8164 0.0528499 -0.717062 0.695536 -0.0430126
0.804729 21.6929 -1.10604 -0.666267 0.743751 -0.0503523
0.855151 21.6457 -2.14522 -0.616837 0.785117 -0.0545329
0.779726 21.5078 -3.15742 -0.558332 0.828275 -0.0465829
0.79763 21.4539 -4.15166 -0.525703 0.848548 -0.059363
0.724146 21.3447 -5.26028 -0.445908 0.893847 -0.0461654
0.72011 21.2887 -6.2649 -0.38806 0.920526 -0.0450959
0.754541 21.2535 -7.34278 -0.360369 0.931422 -0.0508745
0.750728 21.209 -8.33919 -0.325213 0.944924 -0.036431
0.693441 21.1544 -9.37853 -0.285645 0.958137 -0.0195121
0.711006 21.1252 -10.4461 -0.254101 0.966634 -0.0319407
0.69194 21.0851 -11.4541 -0.21339 0.976594 -0.0269413
0.692327 21.0559 -12.5151 -0.203174 0.978691 -0.0297433
0.710919 21.0139 -13.5736 -0.156001 0.986871 -0.0401165
0.709289 20.966 -14.69 -0.112503 0.992091 -0.0556708
0.702876 20.906 -15.8703 -0.0578401 0.996662 -0.0576181
0.726943 20.834 -17.014 0.0217997 0.997992 -0.059151
0.793756 20.7443 -18.0573 0.0905628 0.99142 -0.0942607
1.36641 20.5437 -18.9358 0.258109 0.96216 -0.080924
2.09328 20.2345 -19.4052 0.394287 0.918429 -0.0320379
2.03612 20.2241 -20.5227 0.382306 0.923868 -0.0122601
1.24662 20.521 -20.916 0.327051 0.944676 0.0249858
0.247302 20.7788 -20.939 0.214324 0.975477 0.0501009
-0.847673 20.9239 -20.9582 0.100788 0.992572 0.0594847
-1.88234 20.8858 -20.9295 -0.0884313 0.993026 0.0779646
-2.94819 20.7097 -20.9688 -0.2674 0.961878 0.0563897
-3.95934 20.3502 -20.933 -0.38332 0.922241 0.0503686
-4.12603 20.2374 -19.9219 -0.385426 0.922564 0.00470642
-3.76773 20.4041 -19.123 -0.369317 0.927813 -0.0526146
-2.822 20.701 -19.1106 -0.225594 0.9726 -0.0561754
-1.84064 20.8598 -18.7852 -0.0415282 0.998865 -0.0233051
-1.2264 20.8671 -18.002 0.00969676 0.99927 0.0369515
-1.08669 20.8302 -17.0064 -0.0274106 0.99886 0.0390771
-1.09457 20.7904 -15.9609 -0.0649428 0.997055 0.0407779
-1.07362 20.7553 -14.8754 -0.12033 0.9918 0.043039
-1.09717 20.7238 -13.6948 -0.156564 0.987325 0.0260194
-1.11662 20.6952 -12.6855 -0.19198 0.981158 0.0217582
-1.1102 20.6724 -11.6582 -0.226231 0.97387 0.0199336
-1.08439 20.6519 -10.5648 -0.249819 0.967724 0.0331699
-1.04321 20.6289 -9.367 -0.285035 0.958084 0.0283607
-1.08475 20.5788 -8.25318 -0.325705 0.944831 0.0333143
-1.10853 20.5376 -7.25714 -0.353116 0.934558 0.0426234
-1.14176 20.4632 -6.1233 -0.394904 0.91609 0.0694992
-1.15116 20.3804 -4.9655 -0.455063 0.887873 0.0646594
-1.11112 20.3107 -3.85317 -0.511942 0.856626 0.0640904
-0.895397 20.3469 -2.81883 -0.560755 0.825064 0.0694446
-0.685695 20.4058 -1.80132 -0.628079 0.774125 0.0790449
-0.659496 20.3376 -0.667834 -0.685238 0.72748 0.034954
-0.436839 20.4934 0.402848 -0.724001 0.688895 0.0312683
-0.388114 20.4992 1.52827 -0.75979 0.64954 0.0285521
-0.373737 20.4849 2.54453 -0.781769 0.623494 0.00895011
-0.350907 20.4958 3.63294 -0.796846 0.604007 0.014593
-0.387877 20.431 4.63246 -0.810386 0.585863 0.00270458
-0.352979 20.4868 5.67991 -0.813171 0.581988 -0.00649813
-0.357947 20.4961 6.68158 -0.815385 0.578761 -0.0135088
-0.380232 20.5022 7.82972 -0.81316 0.581685 -0.0198924
-0.417707 20.5013 8.84683 -0.796652 0.603964 -0.0236056
-0.491882 20.4585 9.83687 -0.779188 0.625176 -0.0449471
-0.552519 20.4774 10.9569 -0.755324 0.652788 -0.0579012
-0.651989 20.4712 12.0256 -0.711274 0.69888 -0.0752099
-0.862685 20.4062 13.1328 -0.655603 0.747303 -0.108271
-1.05716 20.3896 14.1896 -0.600537 0.792024 -0.109785
-1.19966 20.4157 15.1754 -0.531089 0.843618 -0.0790759
-1.40313 20.3593 16.1995 -0.519216 0.854107 -0.0302718
-1.4757 20.3355 17.2267 -0.528604 0.848838 -0.00716095
-1.55063 20.3002 18.3089 -0.528906 0.848674 -0.00329384
-1.50608 20.3238 19.422 -0.530192 0.847811 0.010319
-1.49441 20.3279 20.4854 -0.515091 0.857009 -0.0107204
-0.788382 20.7546 20.8301 -0.473942 0.879104 -0.0438929
0.254596 21.2319 20.8618 -0.3501 0.93386 -0.0629592
1.3621 21.5051 20.856 -0.150464 0.987248 -0.0519704
2.38169 21.5509 20.8909 0.062186 0.996463 -0.0565187
3.44343 21.3468 20.8006 0.282397 0.956688 -0.0638868
4.42293 20.9493 20.8604 0.460741 0.885535 -0.0595371
5.31565 20.4269 20.7512 0.547329 0.834346 -0.0616099
5.45241 20.3204 19.6112 0.537991 0.842476 0.0219743
4.92253 20.6956 19.0178 0.51516 0.85398 0.0645039
4.05038 21.1372 18.7362 0.331371 0.942197 0.0495722
3.53481 21.3184 17.9197 0.235422 0.97163 0.0221154
3.96699 21.1507 17.0288 0.382796 0.92178 -0.0577471
4.7015 20.73 16.3108 0.528425 0.844114 -0.0898496
5.07092 20.3927 15.3001 0.581107 0.812027 -0.0540992
4.96558 20.4206 14.2698 0.623783 0.781494 -0.00511018
4.78825 20.5676 13.4445 0.664716 0.747055 0.007843
4.13024 21.0707 14.1694 0.598169 0.79962 0.0461145
3.41168 21.4569 14.9443 0.453009 0.8873 0.0734317
2.6897 21.6589 15.6407 0.232432 0.965357 0.118577
1.81377 21.7435 15.9546 0.0589779 0.976981 0.198717
0.299246 21.398 5.65872 -0.813073 0.582024 -0.0125307
0.330888 21.4647 6.71676 -0.813631 0.581284 -0.0106429
0.309072 21.4517 7.71483 -0.811158 0.584787 -0.00555346
0.200309 21.3195 8.67548 -0.795902 0.605408 -0.00454679
0.282917 21.4341 9.59626 -0.780996 0.624448 -0.000634782
0.143316 21.2558 9.56184 -0.786849 0.617123 -0.0051912
0.225056 21.3476 8.36218 -0.804199 0.594259 -0.0109928
0.211644 21.3115 7.42517 -0.812113 0.583431 -0.00899265
0.288799 21.4001 6.43258 -0.8144 0.580182 -0.0118468
0.191092 21.2537 5.96957 -0.81267 0.582608 -0.0115601
-0.441497 20.8588 -18.4513 0.0702903 0.997208 -0.000792871
-0.918612 20.8687 -19.3045 0.0281266 0.999591 -0.00520672
-1.40218 20.8877 -19.9043 -0.0573782 0.998004 0.0263602
-0.292481 20.8422 -19.9722 0.133698 0.990459 0.0334154
0.794562 20.6371 -19.7762 0.240123 0.970544 -0.0196143
0.103345 20.7901 -18.9985 0.145752 0.989148 -0.018534
-0.282317 20.8447 -18.4301 0.0901687 0.995794 -0.0162346
