1.04361 21.8499 18.7417 -0.247493 0.968783 0.0144034
1.42447 21.949 18.1331 -0.147157 0.988943 0.01833
0.311416 21.6795 17.6276 -0.341658 0.938773 0.026781
-0.250079 21.4466 18.0767 -0.439352 0.897748 0.0141705
0.210528 21.6146 18.756 -0.37608 0.92644 0.00956232
0.887759 21.8101 18.7442 -0.246508 0.969 0.0163521
0.911069 21.8033 19.7602 -0.27647 0.960881 0.0165082
-0.0704063 21.4742 19.8255 -0.365567 0.930527 0.0219148
-1.1219 20.9734 19.7056 -0.461172 0.887239 0.00573136
-1.19192 20.939 18.655 -0.514113 0.857684 -0.00814461
-1.2063 20.9441 17.3779 -0.523187 0.852042 0.00366689
-0.554351 21.3259 16.374 -0.485731 0.874048 -0.00152704
-0.256998 21.4875 15.3164 -0.503661 0.863642 -0.0206119
-0.109858 21.5667 15.4654 -0.46046 0.887672 -0.0035873
0.50051 21.788 16.5407 -0.366444 0.927671 0.0692673
1.44197 22.0291 17.0103 -0.0832016 0.991742 0.0976
2.51753 21.9865 17.0799 0.180666 0.980342 0.0725475
2.49077 21.9546 17.883 0.168025 0.985434 0.026229
2.77843 21.8759 18.8575 0.145259 0.989179 -0.00695935
3.09303 21.834 19.7689 0.211292 0.977098 -0.0251928
1.95428 21.957 19.789 -0.015559 0.999849 0.00771262
1.04774 21.8426 19.7505 -0.274252 0.961561 0.0136433
1.09188 21.865 20.7905 -0.222816 0.973339 -0.0486295
2.20119 21.9778 20.8429 -0.01456 0.996708 -0.0694064
3.31208 21.825 20.8208 0.265154 0.96407 -0.0162004
4.39537 21.4305 20.7898 0.409958 0.9112 -0.0406141
5.37884 20.8603 20.8401 0.570409 0.820091 -0.0366318
5.99968 20.3785 20.4258 0.62056 0.784057 -0.00460943
6.01096 20.3827 19.3867 0.630185 0.776287 0.0120489
5.36325 20.881 19.0841 0.580681 0.811939 0.0574523
4.47984 21.3821 18.9529 0.427268 0.899626 0.0743739
3.59003 21.7206 18.2395 0.25414 0.966426 0.00621355
3.83502 21.6136 17.1553 0.323749 0.945332 -0.0391662
4.65754 21.2022 16.3252 0.471145 0.880573 -0.042402
5.39241 20.6448 15.6106 0.620233 0.778564 -0.0954416
5.55702 20.4083 14.4838 0.659323 0.748903 -0.066542
5.46935 20.46 13.3957 0.696329 0.717685 -0.00727422
5.10452 20.8131 13.1523 0.681291 0.731368 0.0307
4.46063 21.3371 13.7862 0.633263 0.772697 0.0437745
3.81467 21.7186 14.4877 0.508676 0.856549 0.0815076
3.16443 21.9759 15.2882 0.402283 0.910351 0.0869392
2.38356 22.1342 15.9458 0.252282 0.959548 0.122355
1.30408 22.1236 15.9417 -0.263058 0.921451 0.285881
0.820586 22.0668 15.0103 -0.458981 0.870733 0.156821
0.864194 22.2919 13.95 -0.606683 0.782878 0.137975
0.867544 22.4756 12.8112 -0.642674 0.759152 0.10324
0.817318 22.5534 11.6958 -0.722102 0.686369 0.0864082
0.746109 22.5688 10.6527 -0.760826 0.648168 0.031868
0.649697 22.5207 9.61583 -0.786471 0.616829 0.0313916
0.61087 22.5144 8.47952 -0.807686 0.589328 0.0172469
0.593074 22.5042 7.38429 -0.814835 0.579693 -1.58921e-05
0.614461 22.5202 6.32657 -0.817467 0.575828 -0.013026
0.642195 22.5253 5.1948 -0.815206 0.578743 -0.0222689
0.686053 22.5345 4.16743 -0.806236 0.590453 -0.0366192
0.741053 22.5355 3.13275 -0.789907 0.611948 -0.0395912
0.812472 22.5378 2.05125 -0.772711 0.631799 -0.0601683
0.870068 22.5044 1.03085 -0.748225 0.66011 -0.0664391
0.888805 22.3931 -0.149809 -0.708348 0.701763 -0.0759708
0.870228 22.2383 -1.31387 -0.663397 0.744085 -0.077582
0.818653 22.0818 -2.3254 -0.608524 0.787892 -0.0944765
0.836716 21.9853 -3.4565 -0.541052 0.838166 -0.0688329
0.754781 21.856 -4.55292 -0.481226 0.873887 -0.0655049
0.736287 21.7642 -5.63789 -0.424662 0.902963 -0.0656077
0.753532 21.7061 -6.66416 -0.36979 0.927012 -0.0624831
0.692993 21.6224 -7.75571 -0.352176 0.934689 -0.0482521
0.712679 21.5842 -8.87079 -0.317971 0.947279 -0.0394633
0.70093 21.5408 -10.0286 -0.26658 0.963037 -0.0360443
0.677132 21.4956 -11.1071 -0.237229 0.971025 -0.0288645
0.742699 21.472 -12.1678 -0.209942 0.97715 -0.0332103
0.668997 21.4107 -13.1882 -0.167697 0.98463 -0.0458327
0.650403 21.3681 -14.2617 -0.138068 0.989854 -0.0328857
0.636716 21.3171 -15.3008 -0.078118 0.99574 -0.0489751
0.668084 21.2615 -16.3519 -0.0245631 0.996217 -0.0833583
0.692217 21.1821 -17.4353 0.0362432 0.995721 -0.085008
0.970757 21.0631 -18.4304 0.207168 0.973591 -0.0959233
1.74394 20.7993 -19.0439 0.375813 0.924776 -0.0594417
2.67651 20.3674 -19.2149 0.456046 0.888262 -0.0548932
2.72246 20.3101 -20.1992 0.461832 0.886777 -0.0131293
2.35234 20.504 -20.9173 0.450595 0.892299 0.0277029
1.3467 20.8981 -20.9294 0.283452 0.958539 0.0292968
0.275923 21.1651 -20.9333 0.201276 0.977906 0.0564604
-0.749442 21.2928 -20.9329 0.0656855 0.99736 0.0309637
-1.84144 21.2936 -20.9143 -0.0724436 0.99506 0.0595577
-2.90689 21.1265 -20.9475 -0.269081 0.961848 0.0494405
-3.9273 20.774 -20.9568 -0.386281 0.919568 0.068784
-4.79396 20.3181 -20.747 -0.51414 0.857231 0.0257087
-4.80223 20.3032 -19.5559 -0.502896 0.864217 -0.015016
-4.10913 20.6788 -19.2122 -0.403457 0.912658 -0.0615835
-3.12762 21.035 -19.1375 -0.280689 0.959391 -0.0279809
-2.05718 21.2389 -18.9131 -0.0734456 0.996433 -0.0204634
-1.3345 21.2503 -18.2133 0.0164246 0.999736 0.0160261
-1.08966 21.2176 -17.1942 -0.00321745 0.999216 0.0394586
-1.03987 21.1913 -16.1592 -0.0565829 0.997822 0.0339197
-1.05274 21.1547 -15.0957 -0.0970484 0.994883 0.0243133
-1.05322 21.1275 -13.8544 -0.146557 0.988963 0.0211495
-1.09797 21.0939 -12.7186 -0.185646 0.982098 0.031928
-1.09733 21.069 -11.5471 -0.22159 0.974829 0.0246349
-1.05803 21.0576 -10.5093 -0.250481 0.967864 0.0223265
-1.10124 21.0167 -9.29518 -0.289594 0.956678 0.0292595
-1.08691 20.9835 -8.18402 -0.326966 0.944551 0.0276443
-1.10765 20.9416 -7.01383 -0.375341 0.926195 0.0357919
-1.13794 20.8855 -5.94188 -0.413315 0.909375 0.0467888
-1.14562 20.8223 -4.88847 -0.464586 0.883792 0.0554191
-1.17518 20.7087 -3.75131 -0.518454 0.850928 0.0827414
-1.215 20.5639 -2.6247 -0.571345 0.811819 0.119496
-1.22306 20.4451 -1.52906 -0.645258 0.760479 0.0728907
-1.12705 20.4038 -0.336948 -0.701779 0.707185 0.0859976
-0.999457 20.4344 0.81472 -0.742839 0.667101 0.0554492
-0.929878 20.441 1.93878 -0.766445 0.641104 0.0393316
-0.873366 20.4688 2.97437 -0.789066 0.613772 0.0238537
-0.849208 20.467 4.12466 -0.806238 0.591491 0.010893
-0.847949 20.455 5.3333 -0.816811 0.576905 6.59588e-05
-0.84176 20.4721 6.35823 -0.817125 0.576364 -0.0105318
-0.864068 20.4699 7.42371 -0.815967 0.577578 -0.0244924
-0.891594 20.4835 8.48597 -0.810886 0.58417 -0.0347764
-0.959742 20.4764 9.65268 -0.785849 0.616408 -0.0496572
-1.04356 20.479 10.7038 -0.767375 0.636638 -0.0763316
-1.18375 20.4522 11.8017 -0.731437 0.675741 -0.0915103
-1.27995 20.5299 12.9929 -0.677645 0.726602 -0.112678
-1.24856 20.7376 14.1894 -0.601859 0.788789 -0.122699
-1.21323 20.8892 15.2473 -0.51182 0.850767 -0.119312
-1.66321 20.6684 16.1853 -0.557162 0.829689 0.0186673
-2.11996 20.3402 16.9183 -0.595358 0.803356 -0.0129724
-2.10787 20.3485 18.0206 -0.584455 0.811426 -0.000167744
-2.10867 20.3378 19.0911 -0.571667 0.820479 -0.00316845
-2.11141 20.3422 20.2333 -0.570482 0.821243 -0.00944
-1.63266 20.6822 20.8523 -0.549485 0.834767 -0.0330272
-0.67861 21.2321 20.8606 -0.453031 0.890026 -0.0461022
0.281574 21.6427 20.8517 -0.311681 0.949116 -0.0443028
0.932228 21.8249 20.7865 -0.24256 0.969517 -0.0346699
-0.000606287 21.647 5.95487 -0.813295 0.581708 -0.012827
-0.0354871 21.6175 6.98599 -0.813006 0.58215 -0.0110525
-0.0148977 21.6626 8.09198 -0.809148 0.587529 -0.00947241
-0.0249019 21.6587 9.22541 -0.794537 0.607215 0.000800776
0.0377536 21.7411 10.3387 -0.769388 0.638687 -0.0109707
0.0716283 21.7739 11.4145 -0.732451 0.680759 -0.00903522
0.0919916 21.7853 12.48 -0.685441 0.727722 0.02408
-0.0137742 21.6559 13.7484 -0.616107 0.786822 0.0363597
-0.255168 21.4694 14.6328 -0.553782 0.832659 -0.00222861
-0.442847 21.3221 13.5863 -0.643574 0.764827 -0.0291841
-0.5003 21.2228 12.5563 -0.678236 0.733207 -0.0483191
-0.39874 21.2723 11.474 -0.728931 0.684153 -0.0243815
-0.286727 21.3469 10.3385 -0.761707 0.647092 -0.0327709
-0.283598 21.3244 9.20512 -0.792381 0.609889 -0.0129867
-0.207127 21.3994 8.10008 -0.806472 0.591185 -0.0101354
-0.214677 21.3675 6.99802 -0.812849 0.582371 -0.011028
-0.149604 21.439 5.95506 -0.813283 0.581783 -0.0100041
-0.203185 21.3456 4.90587 -0.809454 0.587143 -0.00609357
-0.214342 21.3162 3.78376 -0.796677 0.604337 -0.00907457
-0.229311 21.2826 2.67166 -0.781039 0.624408 -0.00406524
-0.257412 21.2427 1.53841 -0.757068 0.653318 0.00291658
-0.288975 21.2185 0.348055 -0.722731 0.690938 0.0161182
-0.381346 21.1383 -0.675366 -0.678857 0.73377 0.0270856
-0.339857 21.1895 -1.7004 -0.629808 0.776606 -0.0150095
-0.306426 21.2164 -2.62319 -0.588819 0.808195 0.0106503
-0.137673 21.3407 -2.70649 -0.59053 0.806957 0.00971438
0.0129214 21.4772 -1.75959 -0.633953 0.773199 -0.0158698
0.0982462 21.5869 -0.63777 -0.683306 0.729942 -0.0166591
0.182776 21.715 0.437942 -0.728896 0.684184 -0.0245471
0.162316 21.726 1.52209 -0.753741 0.656397 -0.0284679
0.0922913 21.6823 2.56231 -0.779519 0.626066 -0.0197457
0.0385462 21.6489 3.78348 -0.79442 0.607119 -0.016187
0.00886583 21.6399 5.04594 -0.809804 0.586547 -0.0131768
0.00755693 21.655 5.7871 -0.812969 0.58219 -0.0116546
-0.166388 21.2135 -18.4192 0.0870175 0.995588 -0.0144505
-0.815911 21.2635 -19.3389 0.0341876 0.99888 0.0327079
-1.00834 21.2836 -19.8765 0.0368435 0.999245 0.0122891
0.0143004 21.186 -19.8448 0.144248 0.989495 0.00964785
0.564421 21.0869 -19.8095 0.202596 0.979134 -0.0158462
0.0390708 21.1797 -18.8994 0.128821 0.991643 -0.00558414
-0.0953208 21.1999 -18.6319 0.121897 0.99234 -0.0168974
