2.95433 0.976795 10.6013 0.056898 0.998266 -0.0013957
4.03326 0.876922 11.1405 0.113264 0.993523 0.00906912
5.17491 0.715929 11.5418 0.176634 0.983824 -0.0298385
5.76509 0.617694 12.6995 0.206244 0.978365 0.00492377
5.85367 0.602133 13.764 0.189608 0.981502 -0.0264939
5.77446 0.627312 15.0199 0.211882 0.97726 0.0082332
5.60272 0.653025 16.1381 0.179638 0.983575 0.0168929
5.55954 0.651156 17.2137 0.184373 0.982828 -0.0024999
4.57141 0.83233 17.6377 0.155683 0.987732 -0.0101911
3.54663 0.968773 17.7718 0.078115 0.996927 0.00594208
2.42057 1.04285 17.8887 0.00871511 0.999947 -0.00544739
1.16356 1.02066 17.8558 -0.0519107 0.998606 0.00960247
0.0476681 0.947297 17.7254 -0.0906937 0.99563 -0.01319
-1.08532 0.836139 17.7101 -0.121792 0.992363 -0.0181751
-2.27608 0.627987 17.017 -0.176809 0.984043 -0.017114
-2.23304 0.614111 15.7615 -0.206895 0.978208 -0.0112503
-2.14763 0.632207 14.2558 -0.198595 0.980035 -0.00407597
-2.10516 0.621837 13.0189 -0.18406 0.982498 -0.0286309
-2.08579 0.601332 11.9862 -0.176252 0.984345 8.14535e-05
-2.04702 0.605057 10.7947 -0.172284 0.98501 -0.00808964
-1.96706 0.618306 9.52565 -0.184929 0.982699 -0.00280972
-1.86622 0.616286 8.23682 -0.187621 0.982069 -0.0183271
-1.44888 0.679908 7.57952 -0.147983 0.98899 -0.000393433
-0.448862 0.83405 8.25379 -0.127826 0.991192 -0.0346272
0.464143 0.954554 8.80785 -0.0716691 0.996339 -0.00208791
1.58474 0.989356 9.49235 -0.0149455 0.999696 -0.00421605
2.40652 0.994083 10.2108 -0.00885074 0.999897 -0.00795328
2.53667 0.997207 10.3063 0.0154966 0.999403 -0.00408012
3.18477 0.947292 9.49776 0.0695199 0.997471 -0.0147751
4.59545 0.797408 10.1797 0.147403 0.988973 -0.0142823
5.84663 0.58991 10.5519 0.195908 0.980617 -0.00329168
6.65867 0.42148 11.2161 0.20976 0.977743 0.00433523
6.82734 0.37989 12.3864 0.216492 0.976274 -0.0035373
6.85626 0.379222 13.6088 0.224098 0.974498 -0.011576
6.83899 0.392934 14.9612 0.216332 0.97631 -0.00445646
6.58869 0.447093 16.161 0.207415 0.978245 0.00383005
6.73378 0.42393 17.4001 0.210274 0.977507 -0.00566988
6.6761 0.442267 18.3926 0.210546 0.977452 -0.00592293
5.5371 0.669511 18.7485 0.175596 0.984377 -0.012966
4.38839 0.866639 18.8156 0.152252 0.988326 0.00557397
3.36438 0.996342 18.9208 0.100514 0.994929 -0.00371108
2.33582 1.05011 19.0724 0.00876951 0.999946 -0.00554471
1.251 1.0374 19.0382 -0.0195563 0.999397 -0.0239487
0.151176 0.996558 18.8476 -0.0608403 0.997274 -0.0290244
-1.11134 0.86888 18.8044 -0.137164 0.989955 -0.0283204
-2.40091 0.645452 18.5791 -0.192256 0.981023 -0.0223967
-3.33992 0.419129 17.5212 -0.229737 0.973082 -0.0182253
-3.33821 0.389573 16.2309 -0.217994 0.975794 -0.0174703
-3.18291 0.411678 15.125 -0.219043 0.975664 -0.00202779
-3.13509 0.4143 13.7647 -0.227672 0.973691 -0.00951442
-3.11918 0.40125 12.4587 -0.202394 0.979121 -0.0189526
-3.09288 0.395862 11.3983 -0.211108 0.97746 -0.00236634
-3.05793 0.399712 10.2862 -0.21743 0.97598 -0.0136681
-2.96078 0.411356 8.99017 -0.222121 0.975 -0.00612322
-2.90718 0.400669 7.68315 -0.206323 0.978359 -0.0133031
-2.93193 0.392962 6.57397 -0.205721 0.97861 -0.0013243
-2.47912 0.491404 5.65674 -0.202164 0.979336 0.00556226
-1.42364 0.682023 6.09546 -0.145538 0.989311 -0.00912678
-0.483857 0.81587 6.90062 -0.129941 0.991519 0.00241864
0.490809 0.924386 7.54659 -0.0462774 0.99775 -0.0485199
1.62131 0.967707 8.16224 0.0149608 0.999362 -0.0323853
2.58542 0.979241 8.89942 0.0442583 0.997932 -0.0353932
3.00139 0.957377 9.31576 0.0741438 0.997024 -0.0199402
3.67382 0.881183 8.54745 0.13038 0.991374 -0.00541212
4.9527 0.729167 9.14143 0.139884 0.989807 -0.0238152
6.3152 0.500491 9.50255 0.196794 0.980356 -0.0131656
7.3804 0.268923 10.2003 0.246844 0.96898 -0.00321609
7.82296 0.151321 11.3207 0.239741 0.970819 0.00589389
7.84937 0.134972 12.6408 0.246921 0.968509 -0.0176601
7.89533 0.136675 13.7403 0.241116 0.970432 -0.00986613
7.88317 0.144917 14.8157 0.245202 0.969471 -0.00171047
7.71316 0.178329 16.0965 0.242211 0.970182 0.00894752
7.81532 0.164706 17.2234 0.249926 0.96821 -0.00302987
7.84142 0.160306 18.6832 0.261333 0.965196 -0.00705283
7.10681 0.347109 19.6413 0.233702 0.972281 -0.0073251
5.85487 0.625246 19.9418 0.19148 0.981377 -0.00520677
4.49557 0.852517 19.9532 0.145105 0.9894 -0.00574504
3.4651 0.995301 20.0445 0.0852122 0.995438 -0.0282276
2.21158 1.06219 20.1782 0.0169375 0.999722 -0.0164068
1.09515 1.0579 20.0016 -0.00493163 0.999468 -0.0322542
-0.179147 1.00087 19.9443 -0.0702877 0.996889 -0.0225239
-1.22009 0.867077 19.9217 -0.142255 0.989722 -0.00793444
-2.59594 0.631572 19.7064 -0.211641 0.977046 -0.0198427
-3.60527 0.384574 19.2447 -0.244579 0.969532 -0.0137214
-4.30893 0.195769 18.4263 -0.258146 0.966078 -0.00709043
-4.43543 0.142278 17.0994 -0.246365 0.968966 -0.020252
-4.46134 0.123087 16.0052 -0.233977 0.972123 -0.0119925
-4.27444 0.154398 14.8117 -0.228069 0.973634 -0.00474159
-4.10886 0.186447 13.5834 -0.230155 0.973139 -0.00540989
-4.16939 0.160565 12.5307 -0.235549 0.971783 -0.0124144
-4.10114 0.166011 11.3918 -0.233893 0.972255 -0.00367212
-4.09754 0.155068 10.2253 -0.240799 0.970506 -0.0115619
-3.98257 0.173371 9.08049 -0.237269 0.971416 -0.00731335
-3.91672 0.183753 8.04807 -0.231288 0.972885 0.000955132
-4.05607 0.144579 7.00985 -0.229753 0.973227 -0.00645207
-3.87113 0.185715 5.8133 -0.235707 0.971797 0.0015903
-3.13728 0.352451 4.74314 -0.211038 0.977472 -0.00345313
-2.55329 0.47474 3.86322 -0.198579 0.980056 0.00748063
-1.76395 0.617067 3.17086 -0.138362 0.990322 0.0108654
-1.46557 0.665832 3.81822 -0.153702 0.988072 -0.00272343
-0.963156 0.738453 4.80419 -0.148174 0.98892 0.00441181
-0.107954 0.84766 5.8353 -0.121837 0.992542 -0.00403181
0.865746 0.92414 6.51612 -0.0587791 0.998089 -0.016864
2.14727 0.941961 7.12845 0.0112872 0.999929 0.00370726
3.04306 0.907463 7.72168 0.0592413 0.998041 -0.0201342
3.58513 0.88935 8.41876 0.0592672 0.998039 -0.0201351
1.39318 0.977165 -9.29067 -0.0104521 0.999922 0.00260696
1.97413 0.93572 -8.05313 0.0532031 0.99854 0.00937664
2.3332 0.922486 -6.87109 0.0689614 0.997602 -0.00561391
2.84685 0.893704 -5.89258 0.0498327 0.998724 0.00812862
4.00871 0.772549 -6.00794 0.115068 0.993284 0.00308098
5.11467 0.621533 -6.21522 0.139011 0.990245 0.00949782
5.26709 0.595768 -7.51426 0.144658 0.989291 -0.0188285
5.10546 0.604513 -8.66263 0.162621 0.986678 0.00464937
5.01793 0.617184 -10.0937 0.180759 0.983378 -0.00816073
4.86149 0.635358 -11.4217 0.17019 0.985411 0.00100283
4.84195 0.6319 -12.5478 0.196354 0.980454 0.000443067
4.84319 0.624321 -13.6457 0.186507 0.982427 -0.0072118
4.75504 0.639615 -14.8473 0.18041 0.983495 0.003425
4.6791 0.652657 -15.9414 0.166091 0.986106 -0.00308037
4.49987 0.688832 -17.0795 0.198693 0.979999 -0.0111208
3.41526 0.861008 -17.5418 0.15567 0.987783 0.00716794
2.2671 1.0117 -17.8445 0.111081 0.99351 -0.0140964
1.15223 1.06683 -17.8977 0.0335556 0.999332 -0.0119483
0.0523387 1.04818 -17.8997 -0.0197443 0.999774 0.00701722
-1.37931 0.979258 -17.8095 -0.0969532 0.995179 0.0148088
-2.91537 0.805705 -17.511 -0.150004 0.988533 -0.00200556
-3.75029 0.641366 -16.7024 -0.156631 0.986793 0.0413162
-3.6285 0.630375 -15.5822 -0.158961 0.987222 0.0111343
-3.0373 0.712138 -14.624 -0.17101 0.984775 0.0311947
-1.81047 0.869293 -13.7911 -0.133229 0.990539 0.0329078
-0.737162 0.965517 -13.089 -0.0578484 0.998008 0.0239655
0.0472935 0.978901 -12.1097 -0.0578323 0.997977 0.0257255
0.573192 0.991058 -11.1281 -0.0573073 0.998234 0.0155443
1.02576 0.971338 -10.0828 -0.0145683 0.999894 0.000156433
1.27195 0.974839 -9.53193 -0.0139124 0.999901 -0.00141158
0.414852 0.965454 -8.86797 -0.0399007 0.998846 -0.00155785
0.924711 0.957747 -7.85501 -0.0189552 0.999726 0.00346589
1.24698 0.95903 -6.74161 0.018848 0.999792 0.000616642
1.61427 0.945395 -5.18044 0.0368734 0.999174 0.0170984
2.37452 0.90981 -4.47497 0.0398749 0.999099 -0.0123723
3.50556 0.852435 -4.8029 0.0779527 0.996419 -0.00868289
5.01747 0.646107 -4.99961 0.158485 0.987148 -0.0131552
6.17207 0.434893 -5.22614 0.187151 0.982218 -0.0149426
6.42166 0.372551 -6.68568 0.226673 0.97388 -0.0133406
6.21906 0.409505 -7.81265 0.209188 0.977589 -0.0224755
6.11147 0.403332 -9.1654 0.217201 0.976042 -0.0128858
6.00353 0.40751 -10.4745 0.217874 0.975807 -0.0181928
5.88741 0.415621 -11.6394 0.218124 0.975854 -0.0114284
5.89585 0.407761 -12.7304 0.21742 0.976076 0.00208085
5.83995 0.408982 -13.9746 0.217039 0.976091 -0.00338871
5.72542 0.437988 -15.0546 0.238345 0.971177 -0.00138049
5.70482 0.434991 -16.2602 0.224097 0.974337 -0.0211548
5.78387 0.401618 -17.4623 0.229743 0.973221 -0.00774116
5.08727 0.560497 -18.1962 0.204786 0.97865 -0.0111697
3.86965 0.794322 -18.5443 0.154373 0.987498 0.00149368
2.50617 0.956842 -18.9144 0.101289 0.994825 0.00803116
1.14899 1.05064 -18.9956 0.0220151 0.999693 0.0113961
-0.141697 1.05504 -19.018 -0.0151474 0.999815 0.0118616
-1.22798 1.00587 -18.9697 -0.0895056 0.995979 -0.00373122
-2.33564 0.887904 -18.7822 -0.125363 0.992066 0.00941879
-3.63018 0.689834 -18.4973 -0.191684 0.981395 0.00575037
-4.7519 0.442298 -17.7934 -0.216823 0.976073 0.0163814
-4.77539 0.415252 -16.5089 -0.225666 0.974091 0.0134944
-4.67603 0.414055 -15.2852 -0.203686 0.978694 0.0258993
-4.21344 0.48412 -14.2771 -0.198005 0.979868 0.024052
-3.11266 0.674436 -13.347 -0.180367 0.983363 0.0191595
-2.03842 0.808321 -12.7151 -0.129156 0.991449 0.0149627
-1.00118 0.901481 -11.7921 -0.06867 0.997213 0.0262788
-0.455676 0.926898 -10.7942 -0.0646431 0.997753 0.0156758
0.00550483 0.938037 -9.72199 -0.062544 0.99798 0.00726545
0.210233 0.951754 -9.26071 -0.0665448 0.997783 -0.000136111
-0.779243 0.877918 -8.8139 -0.0558324 0.998294 0.0171053
-1.18091 0.859439 -9.9088 -0.0708335 0.997426 0.00792127
-2.00667 0.789898 -11.3128 -0.127377 0.991778 0.0123354
-2.93553 0.662949 -11.9707 -0.172444 0.984481 0.0325599
-3.88813 0.505196 -12.5683 -0.189216 0.981608 0.0253479
-4.81689 0.333117 -13.2879 -0.209208 0.9776 0.0230163
-5.38539 0.227308 -14.2464 -0.249265 0.967689 0.0341652
-5.81877 0.150889 -15.4335 -0.24322 0.969824 0.0154102
-5.87198 0.154323 -16.5949 -0.249905 0.968179 0.0133316
-6.04769 0.125163 -17.6799 -0.248343 0.968467 0.0199085
-5.56555 0.263843 -18.6651 -0.24239 0.970095 0.0127346
-4.28394 0.567405 -19.4223 -0.210111 0.977558 0.0104823
-3.01408 0.810395 -19.7629 -0.18187 0.983027 0.0241131
-1.91898 0.951999 -19.9736 -0.102758 0.994391 0.0104054
-0.688897 1.05464 -20.16 -0.0847503 0.996015 0.0277798
0.578897 1.0715 -20.1575 0.0153348 0.999861 0.00653393
1.75509 1.02772 -20.1299 0.0697014 0.997393 0.0186531
3.10419 0.90406 -19.9297 0.102643 0.994582 0.016436
4.14429 0.73372 -19.6591 0.180095 0.983645 -0.0029546
5.43899 0.468898 -19.3972 0.222036 0.974963 -0.00977571
6.52037 0.220047 -19.0027 0.230895 0.972932 -0.00821438
6.88794 0.120936 -17.5333 0.252995 0.967417 0.00989547
6.70754 0.183057 -16.099 0.256879 0.966393 -0.00990603
6.78192 0.182565 -14.769 0.251228 0.967731 -0.0195087
6.91838 0.16221 -13.598 0.237307 0.971341 -0.013107
6.9882 0.160312 -12.5094 0.237939 0.971187 -0.0104287
6.87466 0.189742 -11.4175 0.240321 0.970683 0.00444339
7.08747 0.152195 -10.2945 0.248157 0.968281 -0.0291383
7.15217 0.17444 -9.02832 0.231941 0.972314 -0.0220327
7.26812 0.161996 -7.65907 0.236874 0.971507 -0.00807673
7.43479 0.137704 -6.35033 0.237858 0.971164 -0.0162366
7.4643 0.149119 -5.23903 0.234445 0.97203 -0.013844
7.1052 0.24091 -4.18148 0.216786 0.976204 -0.00545919
5.94636 0.483488 -3.87334 0.189957 0.98178 0.00494532
4.65941 0.716548 -3.85535 0.172105 0.985045 -0.00818275
3.24772 0.875747 -3.68283 0.0693662 0.997373 -0.004975
2.24527 0.924465 -3.12365 0.0352923 0.99921 0.0111934
1.31762 0.935146 -2.51238 0.0283167 0.999528 -0.0119273
0.611016 0.914119 -2.92329 -0.0619689 0.99765 0.0291118
0.581162 0.927607 -4.32742 -0.0283731 0.999484 -0.00445238
0.495729 0.940445 -5.64154 -0.0290865 0.999404 0.0142733
0.0615085 0.932895 -6.8745 -0.0415208 0.999136 0.00193154
-0.417004 0.895483 -7.96271 -0.063586 0.997963 -0.00520609
-0.721594 0.877858 -8.62221 -0.0654373 0.997704 0.0142525
3.67561 0.821294 -16.807 0.135146 0.990826 -0.000452635
3.91777 0.788377 -16.5604 0.154873 0.987829 0.0144442
4.25954 0.724109 -13.6432 0.145511 0.989355 -0.00169084
2.25669 0.965986 -15.6848 0.0617909 0.998049 0.00890372
0.777503 1.06436 -17.1748 -0.0241809 0.999707 -0.000918979
-1.42239 0.960895 -16.8303 -0.0994376 0.994966 0.0124177
0.745851 1.01056 -14.6435 0.0148564 0.999774 0.0151939
2.69402 0.920322 -12.6755 0.109239 0.994009 0.00368302
4.26764 0.737569 -11.0761 0.149679 0.988721 -0.00509217
4.63125 0.684623 -8.14219 0.152228 0.988343 -0.00217061
2.69865 0.908139 -10.1108 0.0959854 0.995383 0.00040516
0.788604 1.02146 -12.0365 -0.0131102 0.999611 0.024597
4.09644 0.875739 11.7612 0.119777 0.992757 -0.00935954
5.27804 0.71049 12.9697 0.16847 0.985614 0.0135286
5.12548 0.757104 15.3772 0.158972 0.98723 0.0102199
3.17831 0.968424 13.3942 0.0675686 0.997711 -0.00256182
1.33942 0.991346 11.5411 -0.0240775 0.999478 -0.0215382
-0.345825 0.864389 9.83764 -0.114671 0.993403 0.000753507
-1.2683 0.724296 8.89491 -0.159769 0.987042 -0.0148767
-1.24985 0.730568 11.4755 -0.134999 0.990803 -0.00917932
0.420761 0.962877 13.178 -0.0538398 0.998543 -0.0035991
2.25873 1.02473 15.029 0.0322007 0.999425 -0.0106197
4.19864 0.882583 16.9957 0.142563 0.989751 0.0082841
4.27714 0.870603 17.0763 0.142563 0.989751 0.00828408
2.02877 1.03741 17.3596 -0.00615561 0.999858 0.0157154
0.199749 0.979267 15.5172 -0.110549 0.993859 0.0047418
-1.41434 0.771158 13.8765 -0.154585 0.987657 -0.025237
-1.68381 0.727396 16.1615 -0.162362 0.986629 -0.0141763
-0.884401 0.850855 16.9783 -0.116899 0.993061 -0.0128407
