-10.4605 13.3433 -18.5947 -0.751981 0.656295 0.0564812
-9.82242 14.1137 -18.5425 -0.783909 0.616984 0.0678098
-9.04327 15.1756 -18.6129 -0.817178 0.571653 0.0734318
-8.47728 16.0144 -18.6421 -0.828773 0.55187 0.092602
-7.94349 16.8732 -18.6672 -0.857777 0.501645 0.112117
-7.39253 17.7169 -18.6016 -0.824056 0.549872 0.13628
-6.92383 18.2243 -17.8852 -0.811917 0.564058 0.150428
-6.4804 18.5535 -17.0222 -0.75676 0.625199 0.189023
-5.54862 19.3812 -16.2753 -0.721884 0.659511 0.209591
-4.70595 20.1359 -16.1235 -0.677458 0.706249 0.205263
-3.87253 20.5756 -15.6197 -0.549618 0.797717 0.248128
-3.85756 20.3219 -14.589 -0.566167 0.804604 0.179071
-4.07319 19.9549 -13.4253 -0.588122 0.791386 0.161232
-4.89355 19.3204 -13.5359 -0.65818 0.734237 0.156215
-5.66207 18.5649 -13.7569 -0.734288 0.655777 0.174686
-6.60297 17.4687 -13.7429 -0.761877 0.626884 0.161751
-7.52608 16.2844 -13.5468 -0.766787 0.625982 0.142008
-8.12166 15.5236 -13.3793 -0.766816 0.628888 0.128426
-8.84469 14.6425 -13.2567 -0.75095 0.652212 0.102416
-9.57812 13.7711 -13.1209 -0.746366 0.658928 0.0925847
-10.2182 13.0598 -12.907 -0.724067 0.685235 0.0786114
-10.9913 12.2515 -12.6442 -0.692674 0.717435 0.0740962
-11.7374 11.5033 -12.237 -0.676194 0.732831 0.0756269
-12.4817 10.7761 -11.6934 -0.663916 0.745258 0.0616905
-13.1986 10.1107 -11.1897 -0.646106 0.761543 0.050992
-13.8204 9.55653 -10.6461 -0.63817 0.768845 0.0402008
-14.544 8.92664 -9.957 -0.621375 0.782461 0.0376833
-14.9167 8.69328 -10.9575 -0.61491 0.787557 0.0404948
-15.2486 8.49394 -11.9974 -0.612274 0.789644 0.0397828
-15.5856 8.27883 -13.0189 -0.616007 0.786963 0.0349902
-16.0145 7.98143 -14.0333 -0.619443 0.784582 0.0268489
-16.5496 7.59668 -14.8662 -0.601663 0.798486 0.0205445
-17.246 7.09896 -15.6972 -0.597362 0.801537 0.0264098
-17.9458 6.60114 -16.4567 -0.586816 0.809665 0.00948111
-18.01 6.56297 -17.1717 -0.590594 0.806868 0.0116444
-17.1601 7.19417 -17.4565 -0.593675 0.804641 0.0100987
-16.2835 7.86717 -17.6706 -0.616192 0.787413 0.0146242
-15.3813 8.58441 -17.8345 -0.627405 0.778551 0.005234
-14.654 9.20412 -17.9695 -0.646255 0.76274 0.0211135
-13.902 9.86776 -18.1414 -0.668074 0.743565 0.0280782
-13.1305 10.5715 -18.2231 -0.677134 0.7354 0.0260062
-12.2576 11.4123 -18.4331 -0.709269 0.704051 0.0305224
-11.3372 12.3744 -18.5158 -0.732514 0.679729 0.0319586
-10.7099 13.0699 -18.5776 -0.7357 0.674872 0.057391
-10.8148 13.0072 -19.5416 -0.741669 0.670457 0.020347
-11.796 11.9384 -19.4443 -0.720427 0.69297 0.0277911
-12.7117 11.0059 -19.3121 -0.690878 0.722539 0.0236658
-13.5663 10.1975 -19.1332 -0.676612 0.736098 0.0188513
-14.5063 9.35087 -19.0225 -0.654653 0.755732 0.0172917
-15.3997 8.58586 -18.8096 -0.633497 0.773504 0.0182869
-16.3106 7.85761 -18.6635 -0.613821 0.789415 0.00698502
-17.2251 7.16299 -18.4638 -0.599789 0.799996 0.0146305
-18.0767 6.52997 -18.2039 -0.587171 0.809344 0.0123724
-18.913 5.93012 -18.1627 -0.576944 0.816691 0.0095226
-19.6904 5.38566 -17.8688 -0.568343 0.822722 0.0101114
-20.7398 4.66438 -17.6952 -0.561369 0.827486 0.0105352
-20.5372 4.7978 -17.2258 -0.565042 0.825008 0.00943574
-19.8077 5.29068 -16.7912 -0.565631 0.824525 0.0147184
-19.0549 5.80462 -16.2202 -0.57336 0.819157 0.0154782
-18.3697 6.27606 -15.6359 -0.588535 0.808218 0.0202715
-17.6914 6.75261 -14.9446 -0.588397 0.808313 0.0204744
-16.9461 7.27651 -14.0079 -0.600943 0.799019 0.0208494
-16.4074 7.64577 -12.9488 -0.602211 0.797737 0.0309281
-16.0712 7.86429 -12.0557 -0.601818 0.798013 0.0314628
-15.7768 8.0453 -11.1369 -0.599575 0.799484 0.0364902
-15.4173 8.26223 -10.0304 -0.598281 0.800381 0.0380692
-15.5858 8.08065 -8.86518 -0.596464 0.80181 0.0363735
-15.9359 7.75802 -7.72589 -0.589261 0.80678 0.0430711
-16.4589 7.31837 -6.56487 -0.582194 0.811708 0.0466696
-17.0725 6.83388 -5.56837 -0.572431 0.818671 0.0457503
-17.4798 6.50093 -4.48888 -0.565213 0.824033 0.038792
-17.6438 6.33816 -3.42378 -0.562158 0.826093 0.0393477
-18.045 6.01476 -2.26464 -0.553757 0.831726 0.0398213
-18.6582 5.56074 -1.21748 -0.55034 0.834175 0.0357439
-19.244 5.14337 -0.388188 -0.54617 0.83714 0.0299106
-19.6249 4.86312 0.550223 -0.545348 0.837783 0.0267598
-19.8292 4.69871 1.50117 -0.539338 0.841606 0.0285248
-20.1261 4.47425 2.5778 -0.536556 0.843457 0.0262224
-20.4279 4.25221 3.54827 -0.536464 0.843521 0.0260468
-20.9067 3.91843 4.60423 -0.530765 0.84717 0.0243339
-21.3633 3.61203 5.47075 -0.531978 0.846583 0.017088
-21.9883 3.21302 6.36324 -0.523873 0.851713 0.0119295
-22.6001 2.83079 7.02961 -0.519011 0.854713 0.00963393
-23.4047 2.33003 7.94745 -0.519118 0.854616 0.0121821
-24.3231 1.76444 8.67238 -0.514202 0.857508 0.0166234
-25.1959 1.23087 9.15604 -0.515054 0.85701 0.0158681
-25.8263 0.839654 9.90633 -0.51437 0.857449 0.0142931
-25.9503 0.752807 10.9078 -0.513067 0.858293 0.00973904
-25.857 0.798667 11.9105 -0.510288 0.859981 0.00622778
-25.9159 0.755687 12.9908 -0.509494 0.860446 0.00696104
-25.9592 0.724003 13.9784 -0.506867 0.862008 0.00528939
-25.8241 0.794712 15.0482 -0.506418 0.862258 0.00714454
-25.6924 0.86076 16.3658 -0.506958 0.861933 0.00774169
-25.0622 1.22467 17.334 -0.509955 0.860133 0.0105605
-24.226 1.71847 17.796 -0.515881 0.856614 0.00781102
-23.3939 2.22079 18.2219 -0.518791 0.854884 0.00538692
-22.0789 3.03063 18.745 -0.526497 0.850173 0.00216141
-20.9411 3.73937 19.0465 -0.529166 0.848517 0.00146807
-19.9212 4.37894 19.2411 -0.538698 0.842487 0.00449111
-18.7952 5.10417 19.3933 -0.545225 0.838282 0.0035364
-17.8685 5.70612 19.5557 -0.547673 0.836671 0.00496812
-16.7213 6.46461 19.5722 -0.556966 0.83051 0.00495078
-15.6844 7.16952 19.6311 -0.572776 0.819692 0.00229991
-14.8655 7.74784 19.6107 -0.578452 0.815708 0.00221504
-14.0084 8.37452 19.7645 -0.594353 0.804135 -0.0081616
-13.1768 8.99638 19.7265 -0.603909 0.797016 -0.004207
-12.2858 9.68243 19.691 -0.626464 0.779259 -0.00906769
-11.5291 10.308 19.6909 -0.647424 0.761956 -0.00874922
-10.7623 10.9766 19.6548 -0.662051 0.74922 -0.0163872
-9.90262 11.75 19.6728 -0.680233 0.732539 -0.0191201
-9.01472 12.6095 19.6069 -0.708962 0.704653 -0.0227081
-8.26463 13.399 19.5775 -0.728274 0.6851 -0.015944
-7.59426 14.1526 19.5322 -0.756631 0.653566 -0.0165792
-6.7972 15.1126 19.5312 -0.773155 0.634065 -0.0138933
-6.01925 16.1209 19.531 -0.796446 0.604644 -0.00897651
-5.22925 17.1937 19.4658 -0.804771 0.593488 -0.0101402
-4.29305 18.4831 19.4055 -0.809805 0.586538 0.0135943
-4.03136 18.8624 18.6393 -0.803831 0.594388 0.0236248
-4.00344 18.8861 17.6421 -0.802528 0.5956 -0.0347731
-3.98933 18.824 16.5478 -0.810885 0.581916 -0.0619556
-3.94589 18.7628 15.5484 -0.815365 0.574569 -0.0705117
-3.81928 18.6936 14.2999 -0.803144 0.580246 -0.135184
-3.59515 18.7312 13.2076 -0.780265 0.605495 -0.156723
-3.24603 18.8864 12.1576 -0.768691 0.621296 -0.152001
-2.84037 19.1468 11.2303 -0.751233 0.644373 -0.142942
-2.71505 19.0818 10.1426 -0.751092 0.649885 -0.116231
-2.7399 18.853 8.84864 -0.754054 0.651527 -0.082415
-2.70201 18.7938 7.87008 -0.756595 0.651091 -0.0596339
-2.65881 18.7925 6.7147 -0.765497 0.643236 -0.0161603
-2.63424 18.8023 5.67419 -0.768885 0.639351 -0.00680117
-2.64737 18.804 4.49997 -0.768523 0.639402 0.0222562
-2.63011 18.8739 3.25073 -0.766258 0.641664 0.0331895
-2.65912 18.9037 2.27581 -0.770454 0.634534 0.0613833
-2.70462 19.0213 0.846611 -0.760976 0.642698 0.0886322
-2.72043 19.2122 -0.527294 -0.756629 0.644604 0.109541
-2.66165 19.4925 -1.73844 -0.744877 0.656744 0.117664
-2.68104 19.6825 -2.89507 -0.744344 0.655892 0.125527
-3.00267 19.5056 -3.86341 -0.740517 0.660552 0.123714
-3.65805 18.7528 -3.76884 -0.748783 0.650171 0.128214
-4.46043 17.8179 -3.81857 -0.755084 0.641619 0.134806
-5.0994 16.9821 -3.49479 -0.757813 0.638186 0.135685
-5.5279 16.3358 -2.80159 -0.742066 0.657843 0.127748
-5.88684 15.7602 -1.89431 -0.726768 0.674224 0.130908
-6.22655 15.25 -1.00921 -0.719917 0.687142 0.0969431
-6.78459 14.585 -0.254923 -0.689496 0.719299 0.0829692
-7.41966 13.9107 0.57114 -0.681783 0.727514 0.0766613
-8.02805 13.2988 0.995252 -0.671925 0.736096 0.0817259
-8.82026 12.5675 1.36991 -0.639099 0.764452 0.0846451
-9.51766 11.9743 1.72411 -0.614061 0.788114 0.0424866
-10.3298 11.3251 1.97929 -0.624218 0.780071 0.0429211
-11.2028 10.6333 2.16216 -0.606079 0.794232 0.0431652
-12.0555 10.0027 2.08311 -0.594372 0.803139 0.0410314
-13 9.3324 1.68884 -0.587873 0.808021 0.0388254
-13.882 8.72246 1.05301 -0.587581 0.807767 0.0475541
-14.4225 8.39572 0.0688911 -0.581763 0.811963 0.0475869
-14.7414 8.24203 -1.25467 -0.582599 0.81146 0.0459485
-14.8538 8.23585 -2.49217 -0.583544 0.810389 0.052404
-14.9856 8.20319 -3.55046 -0.582475 0.811739 0.0424634
-15.0143 8.24533 -4.60832 -0.592466 0.803987 0.0508837
-15.1081 8.25372 -5.77964 -0.595505 0.801619 0.0527008
-14.918 8.45319 -6.70742 -0.596625 0.80107 0.0482158
-14.613 8.74396 -7.72025 -0.609155 0.791421 0.0505595
-14.3199 9.02813 -8.60058 -0.612711 0.78874 0.0497496
-13.6812 9.59906 -9.50363 -0.624426 0.779682 0.0467686
-12.9494 10.2566 -10.2438 -0.646146 0.760687 0.0613972
-12.2654 10.8906 -10.7529 -0.655259 0.752374 0.067292
-11.4676 11.6587 -11.331 -0.672503 0.736876 0.0683352
-10.488 12.6476 -11.7754 -0.692627 0.717492 0.0739814
-9.62596 13.5677 -12.0899 -0.707957 0.69858 0.103836
-8.66273 14.6778 -12.283 -0.75126 0.650023 0.114151
-7.96006 15.5259 -12.4252 -0.761301 0.636986 0.120461
-7.18099 16.496 -12.5885 -0.764015 0.630891 0.134984
-6.5729 17.2555 -12.688 -0.762365 0.630904 0.144081
-5.67942 18.2722 -12.7469 -0.741091 0.652351 0.157717
-4.77322 19.1965 -12.5685 -0.714588 0.673175 0.190265
-3.90692 19.8633 -12.3394 -0.594325 0.78883 0.156607
-3.04855 20.5104 -12.3415 -0.575067 0.807212 0.126961
-3.00822 20.6532 -13.4041 -0.519421 0.848184 0.103088
-3.05714 20.8157 -14.5995 -0.467889 0.869659 0.147592
-3.05204 20.9916 -15.7851 -0.418564 0.890101 0.177591
-3.51231 20.9869 -16.736 -0.356927 0.919905 0.162411
-4.36293 20.6376 -17.0196 -0.53832 0.830815 0.141273
-5.27574 19.8952 -17.1055 -0.673361 0.706431 0.218038
-5.95476 19.3052 -17.4309 -0.741457 0.622189 0.25124
-6.53665 18.8942 -18.3816 -0.797551 0.586486 0.140589
-6.75106 18.7607 -19.3665 -0.816735 0.573491 0.0614945
-7.34868 17.9759 -19.5919 -0.823666 0.566015 0.0301345
-7.92855 17.0625 -19.6069 -0.879573 0.473169 0.0496221
-8.64755 15.8728 -19.5946 -0.832351 0.552366 0.0456467
-9.26232 14.9727 -19.5755 -0.818586 0.570929 0.0629134
-9.84944 14.1662 -19.4774 -0.77521 0.630079 0.0452643
-10.5567 13.2933 -19.5612 -0.761052 0.647342 0.0279322
-10.6751 13.1926 -20.5031 -0.762052 0.646844 0.0153613
-11.362 12.426 -20.4377 -0.743009 0.669065 0.0170056
-12.1866 11.5637 -20.4012 -0.718647 0.695257 0.0126582
-12.8867 10.8689 -20.3023 -0.699794 0.714277 -0.00986308
-13.7891 10.0204 -20.1307 -0.673183 0.739292 0.00724206
-14.6232 9.26453 -20.0356 -0.651528 0.758478 0.0136345
-15.3287 8.6584 -19.7546 -0.647596 0.761794 0.0170027
-16.1861 7.96615 -19.6101 -0.620639 0.783967 0.01425
-17.1143 7.25753 -19.486 -0.598349 0.801192 0.00522283
-17.9384 6.6473 -19.2469 -0.590605 0.806865 0.0124644
-18.9074 5.94596 -19.1376 -0.580484 0.814185 0.0112334
-19.6851 5.40072 -18.836 -0.569611 0.821875 0.00783026
-20.5289 4.81908 -18.7888 -0.566891 0.823771 0.00603992
-21.5019 4.15961 -18.6075 -0.556087 0.83109 0.00652265
-22.5167 3.48398 -18.0694 -0.547598 0.836714 0.00571108
-22.2431 3.65566 -17.046 -0.548539 0.836059 0.010455
-21.4051 4.20365 -16.5735 -0.554757 0.831907 0.0132668
-20.6649 4.69414 -16.1852 -0.55882 0.829209 0.0115146
-19.8601 5.23618 -15.6841 -0.566958 0.823634 0.0136658
-19.0473 5.78857 -15.0574 -0.575571 0.81758 0.016763
-18.3354 6.27696 -14.4854 -0.573618 0.818869 0.020402
-17.695 6.71759 -13.6254 -0.587414 0.809059 0.019212
-17.1194 7.10292 -12.5976 -0.58801 0.80847 0.0249044
-16.7187 7.35943 -11.59 -0.590357 0.806615 0.0291654
-16.3306 7.5989 -10.4412 -0.598314 0.800363 0.0379341
-16.3684 7.5122 -9.119 -0.594638 0.803251 0.0345384
-16.8271 7.12055 -7.84347 -0.578345 0.814772 0.040799
-17.4256 6.65336 -6.85762 -0.572356 0.819316 0.0336118
-17.8189 6.33899 -5.97712 -0.565531 0.823827 0.0385083
-18.3744 5.89334 -4.52166 -0.560889 0.827096 0.0362725
-18.466 5.78575 -3.51593 -0.558011 0.829029 0.0362706
-18.8804 5.47159 -2.58013 -0.553533 0.832166 0.0331687
-19.4924 5.02952 -1.6575 -0.549978 0.834408 0.0358797
-20.1483 4.56592 -0.617462 -0.540416 0.840759 0.032678
-20.4761 4.32076 0.336253 -0.535805 0.843841 0.0287802
-20.6653 4.16852 1.42929 -0.536473 0.843449 0.028088
-20.9519 3.95789 2.35439 -0.52874 0.84836 0.0268212
-21.2649 3.73517 3.32826 -0.526245 0.849962 0.0251269
-21.8298 3.35309 4.45352 -0.522682 0.852168 0.0247566
-22.2803 3.05465 5.34791 -0.518568 0.854817 0.0193582
-22.913 2.65536 6.09444 -0.517829 0.855342 0.0156175
-23.6908 2.173 6.92413 -0.516274 0.856339 0.0120032
-24.5533 1.64294 7.7316 -0.513563 0.857935 0.0141567
-25.4055 1.12617 8.17642 -0.512464 0.858436 0.0216213
-26.4608 0.472395 8.93081 -0.518205 0.855079 0.016268
-26.7407 0.2893 9.96008 -0.515428 0.856877 0.00980188
-26.6993 0.30225 11.1165 -0.514747 0.857314 0.00668679
-26.6595 0.317678 12.613 -0.504711 0.863257 0.00740797
-26.7549 0.25525 13.9745 -0.505778 0.862663 0.00108572
-26.7062 0.282624 14.9645 -0.501776 0.86499 0.00349276
-26.6638 0.298937 15.9891 -0.497339 0.86751 0.00897132
-26.4456 0.412869 17.069 -0.501668 0.86496 0.0118196
-25.7424 0.81458 18.1181 -0.505771 0.862634 0.00767573
-24.7729 1.38617 18.5936 -0.511256 0.859418 0.00430763
-23.895 1.91147 19.0541 -0.52027 0.85399 0.00386617
-22.9034 2.518 19.5506 -0.526498 0.850172 0.00216212
-22.0176 3.06737 19.8235 -0.528045 0.849216 0.00100735
-21.016 3.6905 20.1089 -0.529586 0.848252 0.00220669
-20.1238 4.24814 20.2084 -0.533938 0.845501 -0.000566233
-19.2038 4.8358 20.3561 -0.541241 0.840858 0.00155352
-18.1985 5.48751 20.422 -0.545279 0.838241 0.00474903
-17.259 6.10194 20.5844 -0.554242 0.832326 0.00698068
-16.4174 6.66306 20.4678 -0.556966 0.83051 0.00495032
-15.5794 7.23926 20.6356 -0.567772 0.823152 0.00746737
-14.7124 7.85666 20.5734 -0.586312 0.810046 0.00148397
-13.836 8.50109 20.7715 -0.597278 0.802007 0.00351413
-13.0641 9.0849 20.6248 -0.611156 0.791455 0.00109732
-12.183 9.77832 20.681 -0.616917 0.786975 -0.00544204
-11.2088 10.592 20.6074 -0.650334 0.759541 -0.00763732
-10.2283 11.4742 20.5936 -0.669627 0.7426 -0.0118066
-9.20049 12.4515 20.581 -0.703254 0.710583 0.00579866
-8.35784 13.3199 20.4787 -0.717654 0.696397 -0.0018358
-7.52028 14.2588 20.4603 -0.74997 0.661406 -0.0092787
-6.6842 15.2724 20.561 -0.783392 0.621137 -0.0144322
-5.96026 16.2076 20.4827 -0.787733 0.615998 0.00480163
-5.20471 17.2208 20.5073 -0.804215 0.594309 0.00457727
-4.43397 18.2718 20.5517 -0.807665 0.589598 0.00646949
-3.78758 19.1588 20.4199 -0.807452 0.589881 0.00782131
-3.48991 19.5683 19.65 -0.802782 0.59626 0.0038964
-3.48014 19.5849 18.5657 -0.787142 0.616703 0.00205663
-3.4605 19.5935 17.5658 -0.795014 0.606062 -0.0253335
-3.43605 19.5712 16.5617 -0.801903 0.595941 -0.0417181
-3.3985 19.5471 15.5959 -0.809564 0.583868 -0.0608639
-3.33334 19.4843 14.541 -0.842265 0.518862 -0.14267
-3.05872 19.5369 13.473 -0.795562 0.571204 -0.201815
-2.78397 19.5702 12.5217 -0.760395 0.619643 -0.194528
-2.32781 19.8421 11.7187 -0.705846 0.669336 -0.23023
-2.06207 19.9137 10.7638 -0.732438 0.671657 -0.111403
-2.06912 19.7411 9.71293 -0.743971 0.66266 -0.0859613
-2.07192 19.603 8.63688 -0.756721 0.650003 -0.0697024
-2.03477 19.5633 7.66535 -0.764168 0.64336 -0.0462127
-2.02046 19.5441 6.60999 -0.761645 0.647809 -0.0154626
-2.00664 19.5503 5.53142 -0.768697 0.639612 0.00148851
-2.0167 19.5587 4.37208 -0.77153 0.636032 0.0142111
-1.99997 19.633 3.26178 -0.773635 0.633051 0.0269138
-2.06022 19.6409 2.12452 -0.783091 0.618837 0.0615936
-2.0541 19.777 0.995272 -0.769513 0.634044 0.0764022
-2.07935 19.8872 -0.0314998 -0.763003 0.639647 0.0931614
-2.06955 20.0443 -1.00168 -0.749881 0.653881 0.100588
-2.02367 20.2713 -2.12259 -0.734085 0.671212 0.10293
-2.08727 20.3719 -3.08262 -0.71848 0.687697 0.10103
-2.08829 20.5395 -4.35415 -0.682439 0.725097 0.0922497
-2.27336 20.482 -5.27234 -0.672123 0.734067 0.0969385
-3.0683 19.6404 -4.9253 -0.743934 0.654096 0.13638
-3.6666 18.9151 -4.6976 -0.742157 0.658284 0.125957
-4.64096 17.8205 -4.83912 -0.7547 0.641999 0.135152
-5.3453 16.9353 -4.60353 -0.758702 0.635612 0.142716
-5.88208 16.158 -3.91382 -0.750635 0.646817 0.134814
-6.23046 15.632 -3.17256 -0.73328 0.669267 0.119924
-6.50802 15.1651 -2.21412 -0.706857 0.694844 0.132459
-6.96216 14.5583 -1.35679 -0.694593 0.709716 0.117656
-7.54214 13.9185 -0.662476 -0.674535 0.734471 0.0740955
-8.1836 13.2728 0.0489714 -0.659913 0.748162 0.0690473
-8.90478 12.6075 0.36468 -0.642124 0.762074 0.0831797
-9.93842 11.7129 0.852139 -0.61242 0.787608 0.0679343
-10.867 10.9541 1.17962 -0.61589 0.785898 0.0551652
-11.8094 10.2352 1.20023 -0.592983 0.803757 0.0484279
-12.6287 9.65233 0.84195 -0.593768 0.803258 0.0470548
-13.4752 9.06047 0.318107 -0.586512 0.808649 0.0457342
-13.8691 8.83874 -0.676246 -0.585869 0.808518 0.0552812
-14.0088 8.79874 -1.70748 -0.591598 0.80455 0.051942
-14.0738 8.83083 -2.86091 -0.59081 0.805157 0.0513992
-14.2055 8.79107 -3.84045 -0.59625 0.801186 0.0501748
-14.2374 8.83628 -4.80176 -0.603637 0.795219 0.056995
-14.2803 8.88816 -6.00227 -0.602359 0.796474 0.0527585
-13.9376 9.21476 -6.95324 -0.611659 0.789296 0.0537105
-13.6209 9.53243 -7.90717 -0.624478 0.779051 0.055601
-13.2456 9.89955 -8.76622 -0.630288 0.774018 0.0600037
-12.4167 10.6531 -9.53549 -0.63961 0.766256 0.0608648
-11.5513 11.4603 -10.0742 -0.662295 0.745934 0.0701641
-10.8714 12.1307 -10.6459 -0.67676 0.730945 0.0860368
-10.0787 12.9148 -10.835 -0.699266 0.707103 0.103801
-9.45273 13.5993 -11.1237 -0.720227 0.685626 0.105186
-8.8166 14.3342 -11.3277 -0.735195 0.66669 0.122529
-7.91835 15.3785 -11.4104 -0.75245 0.646156 0.127671
-7.15357 16.3304 -11.6692 -0.760016 0.635106 0.1379
-6.50619 17.1047 -11.6636 -0.759791 0.635007 0.13957
-5.85976 17.8301 -11.6032 -0.739444 0.659057 0.137352
-5.06604 18.6999 -11.6899 -0.703687 0.69795 0.133005
-4.3694 19.3729 -11.4881 -0.686513 0.716418 0.119937
-3.35413 20.2063 -11.2283 -0.599987 0.798479 0.0449642
-2.56659 20.7456 -10.5513 -0.570355 0.820955 0.0269766
-2.16902 21.0279 -11.3225 -0.532374 0.845064 0.0494463
-2.19174 21.064 -12.346 -0.54592 0.837304 0.0298831
-2.2148 21.1314 -13.5199 -0.476171 0.875969 0.0770694
-2.197 21.2329 -14.6925 -0.436471 0.896519 0.0758076
-2.18838 21.3282 -15.6734 -0.330762 0.939821 0.0806183
-2.32003 21.3916 -16.6699 -0.299989 0.947444 0.111162
-3.35971 21.2634 -17.7213 -0.308124 0.923353 0.21884
-4.40727 20.8321 -17.9506 -0.497305 0.840195 0.216241
-5.27309 20.2651 -18.0062 -0.596875 0.730625 0.328412
-6.00302 19.6932 -18.3136 -0.700407 0.566655 0.433972
-6.16633 19.6102 -19.4066 -0.825768 0.56396 0.00741878
-6.32601 19.4228 -20.4063 -0.806913 0.590466 0.0119641
-6.95388 18.5354 -20.6216 -0.820192 0.57176 -0.0193808
-7.50757 17.7378 -20.5337 -0.833559 0.551527 -0.0240081
-8.13804 16.7288 -20.5304 -0.855473 0.517797 0.00719862
-8.73415 15.7967 -20.5541 -0.829165 0.558943 0.00827572
-9.50283 14.6833 -20.4985 -0.819936 0.572452 0.00194561
-10.325 13.6247 -20.5069 -0.776888 0.629623 0.00450161
-10.6047 13.2796 -20.52 -0.776879 0.629633 0.00451705
-14.2001 8.44772 1.85967 -0.581174 0.812672 0.0416411
-14.7628 8.0924 1.11931 -0.570134 0.820186 0.0467821
-15.1993 7.83832 0.213914 -0.571323 0.819594 0.0430859
-15.5064 7.69274 -1.08646 -0.571125 0.819745 0.0428191
-15.6503 7.64815 -2.21104 -0.575408 0.816687 0.0435506
-15.7776 7.6174 -3.19298 -0.573653 0.817761 0.0465625
-15.7652 7.6825 -4.22354 -0.579306 0.813804 0.0461129
-15.8953 7.65099 -5.29816 -0.581261 0.812424 0.0458516
-16.39 7.28633 -5.1066 -0.576833 0.815677 0.0436022
-16.6993 7.01544 -4.04357 -0.572717 0.818631 0.0428808
-16.8952 6.82843 -3.03305 -0.561061 0.826686 0.0424257
-17.3815 6.43282 -1.68194 -0.558783 0.828444 0.0379632
-17.9221 6.02614 -0.707899 -0.555233 0.831007 0.0337107
-18.4981 5.61274 0.151303 -0.549534 0.834997 0.0281405
-18.8742 5.33015 1.07413 -0.549312 0.834979 0.0326479
-19.1201 5.13163 2.10494 -0.538523 0.842061 0.0304517
-19.403 4.91671 3.1364 -0.536651 0.843425 0.0253093
-19.7511 4.66308 4.17199 -0.537474 0.842857 0.0267067
-20.2038 4.35151 5.06879 -0.536591 0.843661 0.0174737
-20.6836 4.03122 5.95189 -0.533025 0.845973 0.0146265
-21.4913 3.50798 7.11358 -0.522418 0.85259 0.0130157
-22.3642 2.95982 8.135 -0.519613 0.854312 0.0123941
-23.2116 2.4315 9.00081 -0.519489 0.854359 0.0142111
-23.9745 1.96026 9.54294 -0.516634 0.8561 0.0134987
-24.861 1.4156 10.1732 -0.515405 0.856854 0.0125368
-25.1288 1.24178 11.1 -0.514153 0.85762 0.0115295
-25.09 1.25267 12.1276 -0.511721 0.859098 0.00955464
-25.1376 1.2146 13.1998 -0.508744 0.860883 0.00768393
-25.097 1.22781 14.3177 -0.507212 0.861784 0.0079638
-24.9759 1.29038 15.3528 -0.507221 0.861792 0.00634003
-24.5295 1.5464 16.4467 -0.510331 0.859963 0.00390142
-23.7673 2.0011 16.9836 -0.51724 0.855834 0.00238789
-22.8332 2.56635 17.3707 -0.52198 0.852941 0.00297036
-21.7643 3.22951 17.7794 -0.52893 0.848661 0.00279597
-20.4901 4.02242 18.1059 -0.528847 0.848713 0.00278666
-19.2688 4.80209 18.285 -0.539207 0.842157 0.00514804
-18.3862 5.3736 18.4472 -0.546811 0.837244 0.00393679
-17.2692 6.10669 18.6354 -0.550067 0.835112 0.00369734
-15.9689 6.97548 18.6387 -0.559284 0.828976 -0.000484225
-14.9541 7.67885 18.6455 -0.579955 0.814606 -0.00514415
-14.1061 8.29232 18.7818 -0.596251 0.802729 -0.00989031
-12.919 9.18977 18.7521 -0.609371 0.792867 -0.00523328
-11.9476 9.95831 18.7354 -0.63405 0.773292 -0.000181307
-11.1182 10.6524 18.7234 -0.653551 0.756866 -0.00501896
-10.1528 11.5102 18.7217 -0.678002 0.735042 -0.00519097
-9.42212 12.1982 18.7053 -0.696252 0.717739 -0.00900103
-8.45963 13.1723 18.6233 -0.727228 0.686308 -0.0110483
-7.67889 14.0323 18.5961 -0.760351 0.648938 -0.0273207
-7.0346 14.801 18.5597 -0.775667 0.630862 -0.0188047
-6.41343 15.5865 18.5756 -0.796097 0.604926 -0.0118283
-5.71223 16.5187 18.4894 -0.805433 0.592418 -0.017215
-5.08664 17.3836 18.4234 -0.822506 0.568738 -0.00453599
-4.5766 18.1167 17.9756 -0.841511 0.539952 -0.0176388
-4.5341 18.0446 16.4831 -0.82449 0.561975 -0.0656954
-4.45507 17.9208 14.9131 -0.818354 0.567173 -0.0928018
-4.33571 17.8735 13.8651 -0.791308 0.596903 -0.12993
-4.10603 17.9365 12.684 -0.778367 0.617334 -0.114114
-3.7638 18.1783 11.7953 -0.764813 0.629741 -0.135972
-3.41196 18.3727 10.6809 -0.751059 0.649914 -0.116281
-3.38061 18.2199 9.54563 -0.751273 0.652548 -0.0988441
-3.36985 18.0817 8.45359 -0.749642 0.65673 -0.0821134
-3.32138 18.0469 7.43951 -0.757861 0.650777 -0.0460537
-3.25822 18.0567 6.03645 -0.764897 0.643838 -0.0199354
-3.26992 18.0288 4.95705 -0.77083 0.636781 0.00832942
-3.29386 18.0449 3.80064 -0.769618 0.636984 0.0410139
-3.27315 18.1487 2.66717 -0.759558 0.649515 0.0346691
-3.3416 18.1633 1.65142 -0.756996 0.64931 0.0727726
-3.38265 18.2579 0.591839 -0.755629 0.647692 0.097569
-3.32508 18.4794 -0.421143 -0.755932 0.646836 0.100843
-3.31457 18.6633 -1.38338 -0.755832 0.643161 0.122727
-3.42331 18.79 -2.67322 -0.751692 0.645326 0.135999
-4.19543 17.9136 -2.81818 -0.758855 0.63685 0.13618
-4.85693 17.0284 -2.31384 -0.756265 0.642239 0.124869
-5.26629 16.395 -1.51499 -0.753857 0.645568 0.122235
-5.54982 15.9161 -0.65985 -0.722495 0.683152 0.106321
-5.97223 15.3738 0.0802082 -0.714525 0.694211 0.0867463
-6.5341 14.7201 0.847174 -0.703835 0.706965 0.0694055
-7.05498 14.1565 1.46024 -0.686083 0.724078 0.0699703
-7.73504 13.4755 1.88535 -0.674245 0.736951 0.0462251
-8.49574 12.7811 2.24253 -0.648094 0.760578 0.0386696
-9.28068 12.1166 2.63702 -0.619264 0.784448 0.0339589
-10.0274 11.5156 2.89926 -0.619879 0.783833 0.0367166
-10.8105 10.8947 3.07567 -0.615446 0.787408 0.034851
-11.6953 10.2179 3.13173 -0.593916 0.803671 0.0371035
-12.7659 9.44697 2.83111 -0.585957 0.809464 0.0375997
-13.6014 8.86128 2.36241 -0.58939 0.807034 0.0362685
-14.0077 8.5787 2.04775 -0.587845 0.808159 0.0362428
-16.9931 7.30287 -16.4427 -0.595441 0.803298 0.0127188
-16.6974 7.53759 -16.9144 -0.610455 0.791878 0.0165721
-16.5197 7.64107 -15.693 -0.60117 0.798849 0.0208411
-15.8739 8.17257 -16.7429 -0.624259 0.780974 0.0194857
-15.6013 8.39936 -17.1934 -0.623819 0.781408 0.0158494
-14.5471 9.27244 -17.4559 -0.642687 0.765463 0.0319526
-15.1239 8.76561 -16.4701 -0.630209 0.776104 0.0223421
-15.9101 8.10004 -15.1741 -0.618598 0.785387 0.0224479
-15.9546 8.06287 -15.1017 -0.618599 0.785386 0.0224475
-15.4025 8.48026 -14.4896 -0.619022 0.784987 0.024648
-14.7428 9.05007 -15.5872 -0.627828 0.777968 0.0244706
-14.163 9.56935 -16.5825 -0.656534 0.753687 0.0303037
-13.6659 10.0553 -17.4875 -0.667396 0.74422 0.0268296
-12.6625 10.9955 -17.7915 -0.698951 0.714402 0.0331225
-13.3358 10.3045 -16.52 -0.673845 0.737793 0.0399374
-13.8839 9.77189 -15.5321 -0.645997 0.762251 0.0407705
-14.4945 9.2122 -14.4772 -0.632653 0.773657 0.0347122
-15.0532 8.7165 -13.5387 -0.622693 0.781731 0.0339074
-14.8944 8.78362 -12.2742 -0.620758 0.783026 0.0391152
-14.1823 9.41966 -13.4664 -0.629172 0.776399 0.0367041
-13.4865 10.0705 -14.6758 -0.65419 0.754773 0.0485105
-12.9241 10.6406 -15.7062 -0.677256 0.734442 0.0438052
-12.3239 11.2692 -16.8464 -0.695092 0.717162 0.0502628
-11.912 11.7332 -17.6759 -0.718541 0.694297 0.040621
-10.9451 12.7698 -18.0632 -0.734319 0.676737 0.0529362
-11.5242 12.0706 -16.8336 -0.718912 0.692818 0.0562922
-12.0227 11.4932 -15.8234 -0.685228 0.726407 0.0528794
-12.6454 10.8223 -14.6345 -0.677499 0.733616 0.0529438
-13.2624 10.1972 -13.5083 -0.659786 0.750382 0.0401206
-13.8044 9.68107 -12.5647 -0.634441 0.771705 0.0442354
-14.4404 9.09918 -11.4932 -0.629707 0.775647 0.0429076
-14.4488 9.09163 -11.4793 -0.624178 0.779959 0.0454483
-13.507 9.87028 -11.5323 -0.648443 0.760039 0.0431591
-12.8673 10.4996 -12.6541 -0.667773 0.74249 0.0527936
-12.249 11.1323 -13.7852 -0.685038 0.726995 0.0469146
-11.6287 11.8031 -14.9676 -0.702267 0.710138 0.0502474
-11.0426 12.508 -16.1784 -0.726855 0.68365 0.0656124
-10.5835 13.0967 -17.1799 -0.732508 0.678967 0.0493428
-10.2007 13.6094 -18.0567 -0.768263 0.637718 0.055571
-9.49456 14.4879 -18.0629 -0.792012 0.606528 0.0695749
-10.0119 13.7236 -16.7935 -0.764001 0.643025 0.053111
-10.599 12.9276 -15.4744 -0.739824 0.66968 0.0647232
-11.1802 12.2088 -14.2535 -0.714344 0.697844 0.0522274
-11.8156 11.4895 -13.0123 -0.686097 0.725413 0.0551965
-11.9043 11.3936 -12.8456 -0.684825 0.726834 0.0522248
-10.813 12.4898 -13.3488 -0.703353 0.708066 0.062744
-10.3288 13.1157 -14.3891 -0.731299 0.678019 0.0741034
-9.88197 13.7287 -15.3972 -0.753324 0.654323 0.0660568
-9.36768 14.4848 -16.6214 -0.783547 0.616595 0.0765828
-8.89055 15.2951 -17.9121 -0.812926 0.575534 0.0889495
-8.86355 15.3456 -17.9919 -0.812925 0.575535 0.0889494
-8.19778 16.3453 -18.1125 -0.828939 0.551326 0.0943358
-8.56622 15.6131 -16.9942 -0.805813 0.584175 0.0969805
-8.98663 14.8591 -15.8368 -0.774933 0.625048 0.0937731
-9.46151 14.1121 -14.6473 -0.759184 0.645724 0.0817314
-9.94353 13.428 -13.539 -0.731278 0.676053 0.0904696
-9.08814 14.4361 -13.8158 -0.755164 0.649463 0.0890208
-8.6568 15.1299 -14.9189 -0.768969 0.630518 0.105521
-8.26366 15.8401 -16.0005 -0.798486 0.592929 0.104191
-7.83502 16.7075 -17.2968 -0.822989 0.553981 0.125676
-7.65619 17.1323 -17.909 -0.832018 0.535426 0.145134
-7.19214 17.7069 -17.4243 -0.804888 0.57051 0.16332
-7.55859 16.8443 -16.1887 -0.808077 0.572085 0.140463
-7.94439 16.0694 -15.0359 -0.790446 0.600317 0.121717
-8.38166 15.2889 -13.8282 -0.775841 0.622124 0.105037
-8.39038 15.2741 -13.805 -0.775841 0.622124 0.105037
-7.60199 16.3099 -14.0952 -0.779277 0.612907 0.130658
-7.16472 17.1741 -15.4033 -0.78062 0.603164 0.163785
-6.86617 17.8509 -16.3706 -0.772275 0.607877 0.184599
-6.73827 18.1449 -16.7767 -0.772611 0.604413 0.194312
-6.24755 18.5859 -16.1971 -0.757029 0.625421 0.18909
-6.60562 17.8159 -15.0985 -0.777139 0.604009 0.176717
-6.78141 17.4519 -14.554 -0.774764 0.612254 0.157753
-6.15202 18.1635 -14.3944 -0.74899 0.641514 0.165751
-5.78969 18.8688 -15.4049 -0.710587 0.683937 0.165216
-5.67232 19.0591 -15.6879 -0.716477 0.67195 0.187466
-4.8728 19.8456 -15.6597 -0.682623 0.704193 0.195289
-5.33846 19.0972 -14.5886 -0.682599 0.704227 0.19525
-5.45409 18.908 -14.3104 -0.691386 0.703663 0.163843
-4.74249 19.5865 -14.1505 -0.659266 0.735449 0.156472
-4.28824 20.1275 -15.0222 -0.535876 0.812601 0.229166
-16.912 6.74737 -1.63064 -0.56282 0.825729 0.0374906
-16.2807 7.22636 -2.58615 -0.569281 0.820835 0.0463603
-16.0217 7.35438 -1.50651 -0.570317 0.820561 0.0376519
-16.7489 6.80249 -0.395551 -0.563646 0.82502 0.0405602
-17.3994 6.32134 0.588421 -0.552521 0.83287 0.0323827
-18.1178 5.80404 1.66852 -0.551 0.83381 0.0340674
-18.6971 5.39104 2.5394 -0.546791 0.836711 0.0305602
-24.5416 1.59585 10.9942 -0.514645 0.857312 0.0125129
-23.9156 1.98679 10.1129 -0.516961 0.855907 0.0132154
-24.6449 1.51456 12.586 -0.515442 0.856849 0.0114002
-23.8247 2.02207 11.4428 -0.517087 0.855864 0.0108114
-22.9812 2.55135 10.2539 -0.519824 0.854162 0.0137764
-22.2259 3.02943 9.17732 -0.52139 0.853201 0.014162
-21.4606 3.51241 8.07273 -0.52236 0.852638 0.0121911
-20.6813 4.01157 6.94748 -0.529679 0.848044 0.0161781
-19.7532 4.62703 5.59755 -0.535531 0.84427 0.0203587
-18.8486 5.23859 4.26065 -0.543298 0.839233 0.0226889
-18.1217 5.74381 3.16204 -0.547582 0.836177 0.0310281
-17.3939 6.26536 2.06291 -0.553136 0.832348 0.03516
-16.6305 6.82339 0.903104 -0.555744 0.830731 0.032147
-15.984 7.30994 -0.0887301 -0.563646 0.82502 0.0405611
-15.8245 7.4313 -0.332628 -0.567565 0.822238 0.0423607
-15.5412 7.57763 0.703342 -0.56988 0.820826 0.038486
-16.1741 7.10106 1.6798 -0.563975 0.825079 0.0343001
-16.8119 6.63026 2.66047 -0.556429 0.830212 0.033673
-17.4522 6.16681 3.638 -0.548729 0.835559 0.027179
-18.2078 5.63911 4.79162 -0.543297 0.839234 0.0226891
-18.8582 5.18902 5.76704 -0.537514 0.842842 0.0263781
-19.5358 4.73372 6.76159 -0.531679 0.846726 0.0193064
-20.2819 4.243 7.84365 -0.528546 0.848782 0.0144215
-21.2651 3.61545 9.27173 -0.52678 0.849952 0.0092064
-22.0209 3.13658 10.3545 -0.523023 0.852211 0.0135317
-22.7115 2.69817 11.3325 -0.519492 0.854387 0.0122848
-23.4725 2.22293 12.4021 -0.517734 0.85548 0.0103071
-24.3445 1.67856 13.629 -0.511735 0.859075 0.0108165
-24.6613 1.48739 14.0654 -0.508013 0.861305 0.00870243
-24.3036 1.69178 15.0157 -0.512512 0.858663 0.00551517
-23.6166 2.11129 14.063 -0.516597 0.856139 0.0124136
-22.7589 2.64972 12.8525 -0.518368 0.855075 0.0118832
-22.0854 3.07258 11.9044 -0.523225 0.852124 0.0109732
-21.2582 3.6004 10.7299 -0.525425 0.850736 0.0132964
-20.5745 4.03906 9.74712 -0.527846 0.849277 0.0103228
-19.8205 4.52185 8.64804 -0.533253 0.84591 0.00884249
-19.0717 5.01374 7.55856 -0.538521 0.842466 0.0156698
-18.3276 5.51201 6.46513 -0.545419 0.837986 0.0172548
-17.4451 6.1291 5.12566 -0.549412 0.835114 0.0270406
-16.7186 6.63894 4.01517 -0.555109 0.831345 0.0268198
-16.0374 7.13675 2.96385 -0.556921 0.829852 0.0344201
-15.3747 7.63006 1.92565 -0.560493 0.827082 0.0422232
-15.1023 7.83753 1.50777 -0.563423 0.824917 0.0454549
-14.6175 8.13044 2.25287 -0.570171 0.82032 0.0444969
-15.2915 7.63005 3.29765 -0.566394 0.823657 0.0280661
-16.0678 7.05844 4.51381 -0.562785 0.826243 0.0244081
-16.7677 6.5621 5.58873 -0.555397 0.83127 0.0229071
-17.5671 5.99953 6.81824 -0.5491 0.835557 0.0182698
-18.3072 5.49884 7.91529 -0.542358 0.840042 0.0133173
-19.0094 5.03079 8.94339 -0.537239 0.843299 0.0148733
-19.7832 4.52878 10.0763 -0.532239 0.846529 0.0104822
-20.5544 4.03013 11.1885 -0.52788 0.849227 0.0124706
-21.4305 3.47238 12.4337 -0.527687 0.8494 0.0081463
-22.1156 3.03984 13.4034 -0.524297 0.851495 0.0083157
-22.7956 2.61088 14.3664 -0.525508 0.850758 0.00719445
-23.524 2.15504 15.3838 -0.518688 0.85495 0.00486557
-23.9052 1.9229 15.9107 -0.515609 0.856813 0.0044735
-23.2667 2.30578 16.4695 -0.520434 0.853896 0.00313148
-22.5746 2.73762 15.5083 -0.527285 0.849662 0.00673144
-21.702 3.28811 14.2818 -0.526817 0.849954 0.00642791
-20.9103 3.79032 13.1598 -0.528895 0.848666 0.0059586
-20.1153 4.29719 12.0282 -0.531352 0.847131 0.00583216
-19.2001 4.88772 10.7073 -0.532227 0.846539 0.0102982
-18.521 5.33011 9.71545 -0.536522 0.843797 0.0122704
-17.8306 5.79157 8.69683 -0.542808 0.839661 0.0181511
-17.1614 6.24615 7.70243 -0.548786 0.835723 0.0200378
-16.5037 6.70839 6.69016 -0.551694 0.833776 0.0212375
-15.7845 7.22248 5.57507 -0.561127 0.827324 0.0259167
-15.1115 7.7114 4.53416 -0.569421 0.821686 0.0243295
-14.4161 8.23492 3.41851 -0.581154 0.813292 0.0285649
-13.9382 8.60177 2.66386 -0.589775 0.806817 0.0348173
-13.2924 9.05497 3.11597 -0.584434 0.810674 0.0352776
-13.9279 8.55662 4.15463 -0.581562 0.812932 0.0304656
-14.5654 8.07173 5.18438 -0.568437 0.822401 0.0231309
-15.2859 7.53796 6.31313 -0.567377 0.823003 0.0273602
-16.0461 6.9931 7.49393 -0.55692 0.830258 0.0226149
-16.7228 6.51643 8.53686 -0.547206 0.836834 0.0165306
-17.4434 6.02893 9.60702 -0.547788 0.836524 0.0124716
-18.1711 5.54078 10.6868 -0.539993 0.841538 0.0148526
-18.8591 5.09196 11.692 -0.532019 0.84671 0.00624062
-19.6055 4.61308 12.7683 -0.53589 0.844263 0.00642597
-20.3656 4.12563 13.8548 -0.531138 0.847253 0.00734346
-21.1504 3.62555 14.9666 -0.530258 0.847808 0.00694352
-21.8768 3.16689 15.9826 -0.527236 0.849697 0.00608641
-22.2909 2.90607 16.5577 -0.528999 0.848613 0.00392049
-21.685 3.28096 17.1659 -0.528966 0.848636 0.00335775
-20.9471 3.74333 16.1405 -0.527547 0.849514 0.00437202
-20.2124 4.21109 15.1027 -0.530258 0.847808 0.0069437
-19.4866 4.67513 14.0739 -0.538119 0.842855 0.00479546
-18.6738 5.20295 12.9005 -0.538506 0.842616 0.00289149
-17.885 5.71454 11.7543 -0.540516 0.841323 0.00429455
-17.2123 6.16663 10.7572 -0.549769 0.835272 0.0086242
-16.4017 6.7178 9.5401 -0.557737 0.829967 0.00919708
-15.6365 7.25061 8.37145 -0.559458 0.828722 0.0150469
-14.9098 7.7722 7.23942 -0.567248 0.823348 0.018112
-14.247 8.26313 6.20062 -0.575558 0.817318 0.0269002
-13.5942 8.75635 5.14061 -0.579099 0.814786 0.027732
-12.9919 9.22694 4.14221 -0.58359 0.811352 0.0336333
-12.707 9.45309 3.66616 -0.584443 0.810669 0.0352491
-11.768 10.1417 3.62013 -0.593916 0.803671 0.0371036
-12.3751 9.65065 4.64934 -0.589483 0.807349 0.0264196
-13.0292 9.14583 5.74285 -0.590052 0.807005 0.0241186
-13.6371 8.67848 6.74509 -0.580063 0.814066 0.0286997
-14.2626 8.21076 7.74193 -0.569529 0.821823 0.0156109
-14.8979 7.75276 8.73446 -0.565642 0.824465 0.0174855
-15.5878 7.26036 9.80956 -0.559175 0.828973 0.0112676
-16.2904 6.77625 10.8754 -0.553742 0.832647 0.00828676
-16.9593 6.32402 11.8767 -0.551147 0.834391 0.0053788
-17.844 5.73411 13.1783 -0.546373 0.837527 0.00503465
-18.5786 5.25705 14.2314 -0.539248 0.842132 0.0051331
-19.2456 4.82249 15.1897 -0.5357 0.844395 0.00483547
-20.1373 4.25248 16.4537 -0.534036 0.845455 0.003388
-20.7743 3.8478 17.3499 -0.528818 0.848731 0.00274502
-19.9144 4.39092 17.5987 -0.540417 0.841397 0.000876079
-19.109 4.90672 16.4558 -0.538427 0.842672 -0.000720476
-18.2964 5.43604 15.294 -0.545521 0.838093 0.00279329
-17.6336 5.86969 14.3385 -0.545182 0.838315 -0.00204217
-16.9047 6.34904 13.2832 -0.550484 0.834815 0.0071997
-16.0855 6.89988 12.0775 -0.550874 0.834564 0.00636426
-15.3723 7.39251 10.992 -0.560441 0.828165 0.00693068
-14.6635 7.88975 9.89288 -0.570321 0.821273 0.015662
-13.9978 8.37198 8.8439 -0.568278 0.822687 0.0156541
-13.2665 8.91179 7.68726 -0.580799 0.813665 0.0249299
-12.5395 9.48371 6.46817 -0.591711 0.805876 0.0210336
-11.7691 10.076 5.17258 -0.589483 0.807348 0.0264187
-11.1403 10.5964 4.09028 -0.611057 0.790572 0.0400795
-11.0051 10.7107 3.8525 -0.611937 0.790267 0.0317866
-9.91382 11.5762 3.48349 -0.617235 0.785881 0.0375692
-10.5088 11.0644 4.54675 -0.628171 0.777116 0.0386285
-11.1487 10.5287 5.66626 -0.604095 0.796778 0.0146285
-11.8633 9.97191 6.8797 -0.596363 0.802523 0.0175639
-12.6671 9.34164 8.23842 -0.599975 0.799813 0.0181507
-13.2771 8.87359 9.2284 -0.577346 0.81645 0.00900541
-14.0806 8.28654 10.5054 -0.576584 0.816999 0.00791831
-14.7181 7.83646 11.4994 -0.567753 0.823184 0.00490483
-15.5269 7.26673 12.7367 -0.555079 0.831765 0.00737885
-16.2035 6.81469 13.7402 -0.551719 0.834028 -0.0018396
-16.9354 6.33129 14.8068 -0.552893 0.833251 -0.00136086
-17.7479 5.795 15.9802 -0.552398 0.83358 -0.000793238
-18.4149 5.35809 16.9358 -0.548523 0.83613 -0.00281925
-18.8674 5.06344 17.5795 -0.539813 0.841779 0.00301207
-17.9558 5.65987 17.7711 -0.548248 0.8363 0.00506879
-17.2189 6.14533 16.7156 -0.552341 0.833618 0.000184045
-16.2909 6.76025 15.3545 -0.553762 0.832674 -0.00164005
-15.6329 7.19617 14.3845 -0.554832 0.831922 0.00819509
-14.889 7.70264 13.2734 -0.575325 0.817902 -0.00611383
-14.2207 8.17954 12.2415 -0.581358 0.813647 0.00145811
-13.557 8.65208 11.206 -0.577847 0.816143 0.00200061
-12.8725 9.15895 10.106 -0.597735 0.801683 0.0041511
-12.1539 9.71734 8.92266 -0.614869 0.788597 0.00714117
-11.4873 10.2368 7.79503 -0.59918 0.800454 0.0160218
-10.88 10.7174 6.76029 -0.604914 0.796238 0.0091933
-10.2698 11.2171 5.6847 -0.628185 0.777965 0.0124283
-9.67583 11.7112 4.6432 -0.605466 0.79519 0.0329307
-9.01156 12.2979 3.4248 -0.642868 0.76545 0.0283949
-8.72972 12.5554 2.90229 -0.644624 0.76396 0.0287097
-7.61277 13.5571 2.37649 -0.683238 0.728542 0.0491204
-8.1517 13.0335 3.40039 -0.654075 0.756094 0.0225569
-8.77021 12.4579 4.57532 -0.642869 0.765449 0.0283951
-9.38056 11.9266 5.67341 -0.617563 0.786518 0.00242219
-10.1468 11.2967 7.03199 -0.629394 0.777043 0.00821436
-10.8307 10.7423 8.22452 -0.612715 0.790296 0.00340631
-11.4849 10.2312 9.33052 -0.610526 0.791988 0.00351415
-12.3123 9.57532 10.7258 -0.607792 0.79404 0.00943156
-12.9357 9.10055 11.7437 -0.584687 0.811258 -0.00158382
-13.5976 8.62353 12.7846 -0.586332 0.810069 0.00181827
-14.3076 8.11841 13.8833 -0.580388 0.81429 -0.00901404
-15.1059 7.56798 15.0807 -0.572725 0.819722 -0.00643214
-15.9117 7.02367 16.2994 -0.560512 0.828142 -0.00287043
-16.6124 6.54749 17.3321 -0.552581 0.833458 0.0011998
-17.1431 6.1921 18.1016 -0.55184 0.833939 0.0043563
-16.0972 6.88863 18.0776 -0.563277 0.826267 0.000969969
-15.2961 7.44176 16.8959 -0.573007 0.819545 0.00298829
-14.4731 8.01834 15.6445 -0.579208 0.815136 -0.00847303
-13.826 8.47079 14.6508 -0.581415 0.813552 -0.00945867
-13.1537 8.94632 13.6096 -0.59636 0.802698 -0.00553601
-12.5377 9.40335 12.6321 -0.602415 0.798166 -0.00532988
-11.7956 9.96337 11.4234 -0.612561 0.790413 -0.00410493
-11.1361 10.5061 10.2878 -0.61907 0.785335 -0.00113197
-10.4821 11.0189 9.16992 -0.621894 0.783097 -0.00250347
-9.88883 11.495 8.13977 -0.626276 0.779601 0.000984326
-9.23148 12.0526 6.9492 -0.636679 0.771128 0.000818926
-8.55826 12.6121 5.74072 -0.64685 0.762487 0.0140647
-7.97292 13.1525 4.64006 -0.659374 0.751486 0.0222344
-7.44052 13.6529 3.62571 -0.661767 0.749402 0.0214777
-6.86634 14.2484 2.4755 -0.677897 0.732782 0.0590536
-6.32959 14.8841 1.29468 -0.708539 0.703166 0.0594199
-4.22151 17.7667 -2.26029 -0.759636 0.636759 0.132253
-4.72166 16.9115 -0.857962 -0.761538 0.637185 0.118552
-5.30549 16.0089 0.658516 -0.731573 0.676249 0.0865384
-5.96725 15.153 2.21445 -0.727698 0.682236 0.0707829
-6.56792 14.4557 3.51284 -0.694863 0.718376 0.0331879
-7.21829 13.8211 4.78381 -0.673412 0.739162 0.0124998
-7.86431 13.2031 6.01623 -0.659526 0.751637 0.00822983
-8.56104 12.6238 7.28561 -0.653684 0.756594 -0.0162242
-9.4057 11.9045 8.83276 -0.658897 0.752217 0.00502903
-10.173 11.2776 10.181 -0.634352 0.773013 -0.00700638
-10.9892 10.6146 11.6064 -0.62952 0.776972 0.00438596
-11.8103 9.9567 12.9959 -0.611772 0.791028 0.00296285
-12.6285 9.34327 14.3094 -0.595958 0.802912 -0.0129087
-13.3956 8.79378 15.5056 -0.594422 0.804023 -0.0144943
-14.184 8.22899 16.7341 -0.577092 0.816679 0.000801953
-15.0452 7.61299 18.0447 -0.573007 0.819545 0.00298812
-14.1156 8.27932 18.1381 -0.593878 0.80455 -0.00286833
-13.2614 8.9119 16.8083 -0.593673 0.804674 -0.00725932
-12.2138 9.67815 15.1732 -0.618523 0.7856 -0.0162086
-11.4262 10.2658 13.9013 -0.635809 0.77153 -0.0221102
-10.5514 10.9754 12.4111 -0.638491 0.769565 0.00997297
-9.63127 11.7276 10.7874 -0.634193 0.773153 -0.00573914
-8.86304 12.3873 9.39329 -0.672059 0.740451 -0.00830543
-8.14228 13.0072 8.06052 -0.666243 0.745092 -0.0309515
-7.36166 13.6597 6.63269 -0.663943 0.747659 -0.0136196
-6.58493 14.3993 5.13942 -0.705944 0.708136 -0.0136966
-5.90067 15.0901 3.7706 -0.728136 0.685345 0.0109976
-5.34479 15.8022 2.48152 -0.74071 0.667571 0.07549
-4.81678 16.4986 1.22228 -0.747347 0.662406 0.0518852
-4.31951 17.2504 -0.0686748 -0.763233 0.637719 0.103871
-3.81711 18.0893 -1.45204 -0.754249 0.646494 0.114687
-3.68149 18.3153 -1.81774 -0.753654 0.644716 0.127854
-3.79145 17.8159 0.359935 -0.760408 0.641777 0.0995075
-4.3306 17.003 1.76831 -0.751804 0.656662 0.0598814
-4.94118 16.1914 3.22338 -0.747551 0.661617 0.0585713
-5.49565 15.5213 4.47177 -0.741401 0.670878 0.0157268
-6.31949 14.6678 6.15058 -0.704486 0.709718 0.000613688
-6.98304 14.0472 7.43424 -0.695542 0.717955 -0.0276122
-7.74837 13.3991 8.85558 -0.688702 0.724119 -0.0366109
-8.45741 12.7664 10.1979 -0.694965 0.718683 -0.0227835
-9.19781 12.1414 11.5468 -0.668041 0.74356 -0.0289987
-10.0229 11.441 13.0291 -0.665722 0.745934 -0.0199393
-10.7422 10.8427 14.2776 -0.655444 0.754628 -0.0304845
-11.5123 10.2468 15.5613 -0.637466 0.770228 -0.0196373
-12.2957 9.66393 16.8115 -0.616906 0.786897 -0.014836
-13.0817 9.05889 18.0512 -0.610026 0.792347 -0.00741759
-13.1362 9.01773 18.1358 -0.610055 0.79233 -0.00680096
-12.1371 9.80296 18.0899 -0.635644 0.771951 -0.0069962
-11.3857 10.3963 16.8646 -0.632311 0.77448 -0.0190548
-10.5057 11.0907 15.3978 -0.656125 0.754186 -0.026514
-9.77972 11.6796 14.1449 -0.684932 0.72803 -0.0289864
-8.95993 12.3968 12.6541 -0.682857 0.730079 -0.0262905
-8.18014 13.063 11.2176 -0.700215 0.71393 -0.00157186
-7.37178 13.7962 9.66416 -0.693995 0.71935 -0.0301053
-6.56498 14.4932 8.13509 -0.706007 0.706541 -0.0485148
-5.91688 15.0887 6.86521 -0.730341 0.682382 -0.0309235
-5.23877 15.7623 5.51485 -0.721343 0.692572 -0.00281711
-4.6439 16.4516 4.19584 -0.744692 0.666093 0.0418701
-4.02067 17.2718 2.72586 -0.746415 0.662899 0.0585585
-3.6899 17.736 1.90271 -0.753293 0.654138 0.0682136
-3.67353 17.6092 3.5697 -0.767455 0.638577 0.0568541
-4.24121 16.8721 4.89893 -0.764203 0.644657 0.0202669
-4.90203 16.1415 6.33182 -0.7447 0.664207 -0.0652014
-5.57589 15.5071 7.66498 -0.746198 0.664546 -0.0395824
-6.2487 14.8916 9.00418 -0.72927 0.680518 -0.0711418
-6.9479 14.277 10.3397 -0.727332 0.684838 -0.044548
-7.61131 13.6544 11.6498 -0.751504 0.659728 -0.00116229
-8.29172 13.0428 12.9572 -0.710111 0.701808 -0.0566389
-9.10119 12.3317 14.4488 -0.693051 0.719586 -0.0433031
-9.84076 11.6869 15.7931 -0.675492 0.736935 -0.025244
-10.6429 11.0334 17.1596 -0.656039 0.754152 -0.0294524
-11.1419 10.6271 18.0018 -0.652894 0.757425 -0.00598806
-10.3683 11.3019 18.2352 -0.679879 0.733131 -0.016858
-9.61475 11.947 16.9276 -0.69807 0.715862 -0.0154975
-8.86808 12.6148 15.5519 -0.711561 0.701775 -0.0345515
-7.98419 13.4059 13.8974 -0.732549 0.678687 -0.0525029
-7.31213 14.0478 12.5595 -0.753753 0.65491 -0.0543043
-6.68054 14.65 11.2857 -0.741116 0.668484 -0.0622597
-5.86799 15.3766 9.70504 -0.743804 0.663581 -0.0801013
-5.11729 16.0508 8.22585 -0.751223 0.657897 -0.0532452
-4.40379 16.7448 6.78609 -0.74504 0.664464 -0.0583332
-3.745 17.447 5.36518 -0.780188 0.625544 -0.00149454
-3.61668 17.6063 5.06458 -0.772283 0.63518 0.0112028
-3.64245 17.6227 6.65948 -0.763155 0.645884 -0.0206966
-4.28482 16.9796 7.98545 -0.750602 0.658248 -0.0574987
-4.97903 16.3385 9.36977 -0.751806 0.65517 -0.0744309
-5.76866 15.6337 10.9273 -0.746026 0.661596 -0.0757354
-6.48837 14.9749 12.3714 -0.764666 0.640427 -0.0716856
-7.14603 14.3333 13.7354 -0.753123 0.6559 -0.0510013
-7.94401 13.5658 15.33 -0.726061 0.685576 -0.0531114
-8.60541 12.9479 16.5995 -0.730659 0.681944 -0.0330167
-9.40735 12.1983 18.0918 -0.704171 0.709028 -0.0377242
-8.5026 13.1096 17.9771 -0.721527 0.691981 -0.0236929
-7.75367 13.8571 16.5008 -0.757466 0.652245 -0.0286572
-7.0174 14.5888 14.9972 -0.756009 0.651809 -0.0599644
-6.32446 15.2828 13.5201 -0.764724 0.641918 -0.0560145
-5.6994 15.8867 12.2077 -0.758259 0.645194 -0.0936387
-4.95791 16.5518 10.7224 -0.763299 0.638431 -0.0988911
-4.13117 17.2885 9.06927 -0.75347 0.652727 -0.0789377
-3.86256 17.5304 8.54641 -0.751278 0.654748 -0.0829825
-3.73942 17.8254 9.68354 -0.757426 0.647011 -0.0876531
-4.38001 17.2667 10.9617 -0.763854 0.635075 -0.114921
-5.28541 16.4825 12.7672 -0.770099 0.62851 -0.109189
-6.01257 15.7653 14.3403 -0.786572 0.613117 -0.0734251
-6.67451 15.0848 15.7897 -0.782732 0.619839 -0.0559534
-7.37048 14.344 17.2764 -0.767725 0.640376 -0.022736
-7.76576 13.9152 18.108 -0.75084 0.660327 -0.0143736
-6.9034 14.9351 17.8624 -0.77224 0.634585 -0.0307616
-6.16451 15.7662 16.2061 -0.794967 0.604819 -0.0471345
-5.49706 16.4798 14.6912 -0.790394 0.607107 -0.0818444
-4.80972 17.146 13.1983 -0.784778 0.609273 -0.113621
-4.25075 17.642 12.0504 -0.764813 0.62974 -0.135972
-4.82818 17.3665 14.6721 -0.799167 0.594909 -0.0861115
-5.42725 16.7354 16.0556 -0.811984 0.58043 -0.0615118
-6.04002 16.032 17.4858 -0.803423 0.593965 -0.0414428
-6.27755 15.7431 18.0393 -0.792692 0.609189 -0.0229656
-5.55003 16.721 17.9448 -0.804569 0.593119 -0.0296471
-4.95258 17.4445 16.4873 -0.81143 0.581389 -0.0597268
-4.80734 17.6119 16.1432 -0.811708 0.580909 -0.0606192
