1.145 22.2537 18.7172 -0.229366 0.973195 0.0125023
1.34481 22.3092 18.1996 -0.128332 0.991029 0.0370739
0.296205 22.0862 17.8401 -0.283429 0.953855 0.0991394
-0.645964 21.6766 17.8443 -0.463519 0.884572 0.0517935
-0.487225 21.7356 18.6748 -0.418359 0.90828 -0.00191742
0.608736 22.1268 18.7127 -0.269194 0.962878 0.02001
0.948222 22.2075 18.7425 -0.225535 0.973962 0.0230467
0.978412 22.2158 19.8 -0.212233 0.976856 0.0266574
2.05251 22.3235 19.7197 0.0060809 0.999976 -0.00316824
3.19093 22.2125 19.5453 0.196873 0.980403 -0.00709896
2.78476 22.3066 18.7327 0.204791 0.978741 0.0112736
2.63673 22.3301 17.5923 0.139919 0.990071 0.0135028
2.08968 22.4149 17.2118 0.0854135 0.991442 0.0943755
0.952372 22.3298 17.0575 -0.223656 0.973196 0.0535486
0.110029 22.1076 16.3613 -0.431491 0.902115 0.00213888
-0.4069 21.8447 15.9011 -0.491093 0.8711 0.00340607
-1.07719 21.4629 16.8837 -0.516189 0.856098 0.0240275
-1.74108 21.0347 17.5274 -0.549411 0.835223 0.0234666
-1.73989 21.0364 18.5966 -0.563021 0.826419 0.00195848
-1.73176 21.0513 19.6944 -0.541699 0.840573 -0.000469352
-0.718082 21.6152 19.7329 -0.42837 0.903523 0.0120778
0.445269 22.0709 19.7689 -0.277498 0.960725 -0.00155683
0.800835 22.1706 19.7992 -0.25512 0.966851 -0.00262906
0.807221 22.1877 20.8732 -0.246147 0.965764 -0.0785961
1.84942 22.3471 20.7726 -0.025659 0.996188 -0.079538
2.90745 22.3023 20.7551 0.121682 0.985472 -0.112625
4.04234 21.9985 20.8346 0.343094 0.936875 -0.0674683
5.25224 21.3888 20.7861 0.508428 0.85893 -0.0587378
6.21048 20.7068 20.8139 0.615793 0.786679 -0.0439787
6.54251 20.4022 20.0317 0.653036 0.757108 0.00935916
6.36119 20.5845 19.1112 0.661282 0.748627 0.0475891
5.41885 21.3105 19.0674 0.546203 0.834162 0.0716365
4.34064 21.8885 18.9617 0.357683 0.93196 0.0592814
3.65277 22.1312 18.1026 0.271671 0.962122 -0.022406
3.89325 22.0288 17.0771 0.356357 0.933079 -0.0447385
4.63383 21.66 16.2634 0.467655 0.883588 -0.0185683
5.39115 21.1321 15.5686 0.581483 0.812599 -0.0394999
6.0132 20.5462 14.9054 0.673146 0.735912 -0.0728607
6.03278 20.4506 13.768 0.701254 0.711815 -0.039526
5.99415 20.4514 12.543 0.744454 0.667593 -0.0104005
5.2945 21.1941 12.9222 0.695508 0.716512 0.0462798
4.60554 21.7433 13.6561 0.643097 0.762698 0.0686562
3.85368 22.1706 14.5348 0.515878 0.850472 0.102798
3.09408 22.4182 15.3136 0.346257 0.929972 0.123524
2.27352 22.532 16.068 0.204578 0.970031 0.131104
1.22341 22.5211 16.0915 -0.217656 0.952754 0.210272
0.770993 22.4986 15.1727 -0.416238 0.901688 0.117071
0.6534 22.6174 14.0315 -0.582748 0.800428 0.137127
0.411 22.5854 12.8359 -0.661594 0.74543 0.0767784
0.236652 22.5153 11.5991 -0.715104 0.697609 0.0443582
0.186092 22.5244 10.4532 -0.756947 0.6529 0.0214469
0.154426 22.53 9.35432 -0.795095 0.605916 0.0262468
0.0958817 22.4684 8.13184 -0.811146 0.584822 0.00505298
0.101074 22.4735 7.06571 -0.814719 0.579803 -0.00782988
0.124744 22.4865 5.94407 -0.816156 0.577603 -0.0162675
0.139505 22.4707 4.80725 -0.810861 0.584902 -0.0194101
0.17455 22.4672 3.70972 -0.796332 0.603939 -0.0333516
0.235793 22.487 2.61465 -0.775229 0.630492 -0.0361016
0.308189 22.4945 1.55125 -0.752999 0.656459 -0.0445258
0.462333 22.5773 0.49496 -0.726466 0.68429 -0.063202
0.621842 22.5974 -0.7624 -0.684507 0.723516 -0.0875989
0.760968 22.593 -1.83673 -0.635913 0.764114 -0.107747
0.793411 22.4791 -2.97089 -0.573714 0.811459 -0.111252
0.765201 22.3342 -4.17937 -0.506028 0.857177 -0.0894757
0.717067 22.202 -5.27482 -0.438693 0.897231 -0.0498214
0.721981 22.1193 -6.54237 -0.380966 0.922524 -0.0596281
0.713004 22.0423 -7.73899 -0.350699 0.935011 -0.0525883
0.700703 21.9858 -8.83987 -0.318028 0.947175 -0.041431
0.666517 21.9298 -10.031 -0.270979 0.961823 -0.03665
0.6535 21.8823 -11.1576 -0.235825 0.97117 -0.0345169
0.667667 21.8422 -12.3562 -0.207923 0.977314 -0.0403267
0.67718 21.7961 -13.4722 -0.147298 0.987889 -0.0487649
0.65759 21.7449 -14.5551 -0.127543 0.99104 -0.039558
0.671944 21.6866 -15.6723 -0.0675634 0.996818 -0.0419204
0.668001 21.6189 -16.7384 -0.00460802 0.997244 -0.0694592
0.766654 21.5312 -17.8524 0.0773934 0.994362 -0.0724887
1.35017 21.3349 -18.7298 0.246182 0.965755 -0.0776198
2.32968 20.9488 -19.1117 0.395242 0.917984 -0.0329914
3.27426 20.434 -19.2523 0.53645 0.842116 -0.0506044
3.386 20.3336 -20.3105 0.522433 0.852602 -0.0115442
2.82807 20.6697 -20.9319 0.488328 0.871291 0.038678
1.69241 21.1878 -20.9309 0.358501 0.933519 0.00448424
0.595582 21.4972 -20.9258 0.204806 0.977681 0.0468375
-0.517679 21.6701 -20.9333 0.113867 0.991746 0.0589429
-1.6874 21.6932 -20.9029 -0.0543626 0.997705 0.040368
-2.85018 21.5256 -20.906 -0.209666 0.976217 0.05514
-3.94151 21.1875 -20.9369 -0.362393 0.930766 0.0458495
-4.90969 20.7037 -20.9368 -0.520147 0.853399 0.0340116
-5.36258 20.3718 -20.2967 -0.567884 0.822686 0.02638
-5.32507 20.4067 -19.2501 -0.553003 0.831091 -0.0589513
-4.33756 21.0028 -19.132 -0.413479 0.908889 -0.0459125
-3.2106 21.4235 -19.1647 -0.281346 0.957834 -0.0577065
-2.16873 21.6231 -18.9836 -0.108758 0.993813 -0.0213042
-1.33613 21.6444 -18.1873 0.0212818 0.99964 0.0163154
-1.10186 21.6121 -17.1512 -0.0128414 0.999324 0.0318531
-1.07413 21.5694 -16.0433 -0.061588 0.996857 0.0498364
-1.0374 21.5352 -14.7844 -0.105421 0.993958 0.0305696
-1.04851 21.5171 -13.6593 -0.169237 0.985388 0.0192173
-1.0725 21.4896 -12.4732 -0.202531 0.979114 0.016353
-1.0923 21.4596 -11.3004 -0.235717 0.971674 0.01655
-1.0763 21.4433 -10.2165 -0.26288 0.964786 0.00870785
-1.12028 21.4109 -9.1484 -0.286939 0.9576 0.0251812
-1.12918 21.3745 -8.07788 -0.329317 0.943756 0.0257056
-1.12947 21.3448 -6.87948 -0.383246 0.923022 0.0339446
-1.1483 21.2904 -5.73157 -0.434872 0.898637 0.0577766
-1.15358 21.2258 -4.62805 -0.484938 0.872521 0.0595109
-1.18409 21.1359 -3.5508 -0.510313 0.857701 0.0626876
-1.18303 21.0419 -2.39091 -0.588352 0.806242 0.0496025
-1.24488 20.9038 -1.23021 -0.653686 0.753329 0.0720406
-1.27668 20.7759 -0.0866607 -0.714163 0.697505 0.058809
-1.3061 20.6518 1.03623 -0.748533 0.660763 0.0548668
-1.30821 20.5736 2.24553 -0.778524 0.626632 0.0343999
-1.29664 20.5317 3.40777 -0.798852 0.600946 0.0248064
-1.30353 20.4858 4.50074 -0.812192 0.58332 0.00865187
-1.28253 20.5046 5.59904 -0.817297 0.576205 -0.000832535
-1.30294 20.4942 6.81023 -0.818006 0.574982 -0.0161591
-1.31712 20.5166 7.91373 -0.814395 0.579804 -0.0242368
-1.33111 20.5734 9.01387 -0.803965 0.592591 -0.0497561
-1.30982 20.6976 10.0957 -0.781876 0.620694 -0.0583943
-1.27664 20.8488 11.1517 -0.755865 0.650797 -0.0708474
-1.25429 21 12.2604 -0.709392 0.700841 -0.0733173
-1.17792 21.1923 13.4218 -0.649094 0.757198 -0.0729907
-1.18223 21.2979 14.5129 -0.578556 0.811797 -0.0791108
-1.35149 21.3007 15.6725 -0.474143 0.88018 -0.0217171
-2.23812 20.7218 16.1863 -0.597495 0.80119 0.0283679
-2.58789 20.4337 16.871 -0.617191 0.786682 0.00527248
-2.64434 20.3947 18.0262 -0.601532 0.798838 -0.0040427
-2.68272 20.3674 19.2697 -0.593855 0.804502 -0.0106043
-2.63848 20.407 20.3311 -0.600542 0.79955 -0.0083309
-2.13536 20.7877 20.8397 -0.576901 0.816284 -0.0294168
-1.14758 21.395 20.8501 -0.50276 0.862685 -0.0548314
-0.149819 21.8891 20.7932 -0.360864 0.932075 -0.0318414
0.546907 22.1219 20.8597 -0.265814 0.962659 -0.0430328
-0.668838 21.3794 6.3142 -0.815039 0.579306 -0.0106996
-0.51479 21.5817 5.48384 -0.81288 0.582337 -0.0102961
-0.668762 21.3686 5.63503 -0.813571 0.581393 -0.00920072
-0.693046 21.343 6.19267 -0.815093 0.579255 -0.00922435
-0.626118 21.4427 6.49434 -0.814626 0.579875 -0.0113635
-0.545346 21.5663 7.00723 -0.813375 0.581629 -0.0112737
-0.540547 21.5984 8.11589 -0.808317 0.588571 -0.0143829
-0.496339 21.6858 9.22026 -0.791128 0.611517 -0.0127535
-0.610284 21.5517 9.67803 -0.789654 0.613191 -0.0210366
-0.648443 21.4627 8.51534 -0.800164 0.599367 -0.0215202
-0.681324 21.387 7.42856 -0.810578 0.585334 -0.0181542
-0.671912 21.3821 6.66973 -0.814503 0.580029 -0.0122683
-0.618941 21.4199 1.61454 -0.762569 0.646834 -0.00806439
-0.571575 21.4749 0.479936 -0.734645 0.678401 -0.00828249
-0.503207 21.5503 -0.593141 -0.683085 0.730106 0.0126869
-0.370779 21.6684 -1.55466 -0.641822 0.766647 -0.00904905
-0.317083 21.6932 -2.6578 -0.590767 0.806765 -0.0012679
-0.265993 21.7201 -3.80062 -0.527533 0.849505 0.00706275
-0.138193 21.8242 -2.71249 -0.590771 0.806763 -0.00126274
-0.0996783 21.8861 -1.75237 -0.632404 0.773853 -0.0348776
-0.229281 21.8142 -0.548107 -0.686569 0.726313 -0.03306
-0.310782 21.756 0.550235 -0.730725 0.682585 -0.0107396
-0.415875 21.6571 1.57173 -0.760831 0.648824 -0.0127502
-0.396727 21.6965 2.66622 -0.780805 0.624763 -0.00184632
-0.449488 21.6449 3.70509 -0.796945 0.60395 -0.0110357
-0.472657 21.6306 4.82059 -0.807669 0.589572 -0.00832885
-0.666157 21.3615 4.31003 -0.804625 0.593781 0.000604099
-0.633714 21.4014 3.23725 -0.794685 0.607019 -0.00200228
-0.595653 21.4482 2.13396 -0.771612 0.636051 0.00513985
-0.60792 21.4335 1.72342 -0.767355 0.641201 -0.00159946
-0.35129 21.8826 15.1422 -0.505441 0.862583 -0.00417727
-0.310285 21.9241 13.9098 -0.620789 0.783962 0.0050301
-0.209241 21.9876 14.393 -0.556348 0.830448 0.0288467
-0.232349 21.9594 14.893 -0.524449 0.851276 0.0167863
-1.14204 21.678 -19.7883 0.0141589 0.998571 0.0174089
-0.613226 21.6296 -19.0083 0.0694529 0.997502 0.0129159
0.0214319 21.5724 -18.7867 0.134608 0.990787 -0.0148942
0.775793 21.4391 -19.5623 0.23012 0.972878 -0.0235029
0.0301413 21.5748 -19.8593 0.154802 0.987713 0.0185108
-0.88849 21.664 -19.8311 0.0605914 0.997664 0.0315322
