0.241064 22.4482 18.3033 -0.331426 0.941879 0.0542394
0.259769 22.4311 18.7318 -0.308866 0.948904 0.0553379
-0.722845 22.043 18.8027 -0.413178 0.909764 0.0401769
-1.48324 21.641 18.2956 -0.536674 0.843632 0.0161918
-0.608679 22.1341 17.6544 -0.410942 0.90935 0.0598958
0.116166 22.4095 18.2076 -0.337388 0.939432 0.0603009
0.551043 22.5934 17.2955 -0.286931 0.956341 0.0555158
-0.199485 22.3888 16.4003 -0.398834 0.914196 0.0674573
-0.687259 22.1514 16.2776 -0.453542 0.890904 0.0242775
-1.38791 21.7446 16.9632 -0.519757 0.853759 0.0307902
-2.28359 21.1615 17.0998 -0.598763 0.8009 0.00360931
-2.3838 21.0582 17.9973 -0.584816 0.81052 0.0289044
-2.37562 21.0421 19.0673 -0.577474 0.816339 0.0107072
-1.85329 21.3875 19.7519 -0.54577 0.837907 -0.00574981
-0.840487 21.9672 19.8324 -0.44326 0.896133 0.0215751
0.123058 22.3565 19.7642 -0.330304 0.943099 0.0382436
1.15494 22.6401 19.8049 -0.172845 0.984485 0.0091752
2.18253 22.7226 19.8104 0.00529127 0.999906 0.00620677
3.20356 22.6307 19.7185 0.199756 0.979732 -0.012803
2.70581 22.7305 18.7731 0.0259187 0.998778 0.0403827
2.31629 22.769 17.8635 0.0772704 0.99563 0.0519656
1.24984 22.7328 17.6902 -0.0971563 0.993295 0.0626507
0.748039 22.6451 17.4234 -0.286928 0.956342 0.0555167
1.16197 22.8614 16.4971 -0.196158 0.970772 0.129859
0.546546 22.7638 15.6505 -0.365107 0.924566 0.108968
0.118314 22.6584 14.6368 -0.536686 0.840475 0.0694593
-0.104763 22.5862 13.6161 -0.619311 0.782332 0.0664109
-0.207007 22.5644 12.5222 -0.677903 0.734164 0.038086
-0.274801 22.5454 11.4126 -0.732572 0.679862 0.0286377
-0.298677 22.5427 10.3082 -0.767657 0.640264 0.0228856
-0.336907 22.5273 9.23603 -0.79797 0.602692 0.00259159
-0.327994 22.5431 8.15218 -0.811283 0.584648 0.00239093
-0.326773 22.5354 6.84411 -0.815775 0.578299 -0.00882106
-0.325161 22.5145 5.74477 -0.8141 0.580486 -0.0166247
-0.291089 22.5268 4.59178 -0.807841 0.589072 -0.0192677
-0.283891 22.4867 3.44828 -0.793954 0.607402 -0.0250678
-0.201153 22.5447 2.42163 -0.770072 0.63669 -0.0402022
-0.142269 22.545 1.29115 -0.746125 0.664578 -0.0393711
-0.0657321 22.5536 0.250277 -0.735342 0.675672 -0.0523404
0.0534177 22.5804 -0.91517 -0.667296 0.74187 -0.0659208
0.147227 22.585 -1.94327 -0.629851 0.774298 -0.0612416
0.354359 22.639 -3.0105 -0.569785 0.81672 -0.0911759
0.602855 22.6923 -4.0511 -0.515723 0.853469 -0.0743155
0.732722 22.6566 -5.09573 -0.441779 0.894275 -0.0714341
0.753622 22.5729 -6.20598 -0.397265 0.914777 -0.0732376
0.709193 22.4765 -7.29806 -0.351341 0.933874 -0.0665219
0.72368 22.4216 -8.42346 -0.32196 0.945904 -0.0401006
0.688195 22.364 -9.45188 -0.28412 0.957984 -0.0376542
0.743321 22.3245 -10.6181 -0.255797 0.965304 -0.0524947
0.708258 22.2659 -11.7756 -0.217985 0.975148 -0.0396015
0.597593 22.2016 -12.7966 -0.187175 0.981585 -0.0381597
0.682861 22.1715 -13.8319 -0.141756 0.988671 -0.049352
0.675011 22.1172 -14.9264 -0.101789 0.993825 -0.0435509
0.671299 22.0638 -15.9694 -0.0550478 0.99791 -0.0337995
0.689919 21.9841 -17.1276 0.0281914 0.996791 -0.0749146
0.865992 21.8785 -18.1433 0.161127 0.980703 -0.110723
1.60493 21.6515 -18.8949 0.259258 0.963353 -0.0688169
2.52067 21.2738 -19.1024 0.436088 0.898885 -0.0428137
3.45516 20.7602 -19.1449 0.51146 0.858246 -0.0367972
4.04302 20.3321 -19.9112 0.583898 0.811568 -0.0149769
3.88233 20.4578 -20.9705 0.602724 0.797509 0.026412
3.01109 21.0105 -20.9551 0.465811 0.884283 0.0326068
2.0512 21.4536 -20.9363 0.39435 0.917849 0.045175
1.05068 21.7901 -20.938 0.285136 0.958339 0.016385
0.0203351 21.9974 -20.938 0.146633 0.986821 0.063734
-1.18799 22.0971 -20.9293 0.0587871 0.994782 0.0787062
-2.28896 22.0327 -20.8645 -0.131794 0.988317 0.0629503
-3.29722 21.8238 -20.9309 -0.243971 0.967896 0.0604673
-4.31855 21.4516 -20.8867 -0.412379 0.908392 0.0630112
-5.23665 20.9423 -20.9318 -0.542282 0.838507 0.0510079
-5.95798 20.4009 -20.6127 -0.619977 0.784039 0.0298212
-5.92857 20.4201 -19.5125 -0.606921 0.794519 -0.0172368
-5.21678 20.9495 -19.1654 -0.537451 0.842329 -0.0294566
-4.20128 21.5235 -19.1825 -0.435208 0.899551 -0.0371831
-3.23434 21.8319 -19.1472 -0.236145 0.970342 -0.0516871
-2.18569 22.0179 -19.0542 -0.105526 0.994139 -0.0234914
-1.41198 22.0401 -18.3756 0.00161913 0.99998 0.00612076
-1.11501 22.0045 -17.3421 0.00131297 0.99899 0.0449065
-1.09275 21.9643 -16.2317 -0.0557453 0.997253 0.0487741
-1.07375 21.9323 -15.1833 -0.1062 0.993931 0.0256827
-1.06349 21.9081 -14.1464 -0.153837 0.987975 0.0103332
-1.07186 21.8897 -13.0613 -0.177571 0.983938 0.0182935
-1.09113 21.8673 -11.9181 -0.208112 0.977978 0.0157602
-1.07944 21.8493 -10.7157 -0.247506 0.968857 0.00754184
-1.10804 21.8287 -9.6295 -0.282694 0.959067 0.0165835
-1.1012 21.8065 -8.4186 -0.311255 0.950175 0.013852
-1.14344 21.7693 -7.33029 -0.353371 0.935348 0.0158393
-1.14962 21.7324 -6.1922 -0.392341 0.919356 0.0292149
-1.15857 21.6848 -5.04498 -0.463284 0.88553 0.0347112
-1.17955 21.6208 -3.93859 -0.507968 0.859831 0.0495183
-1.19614 21.5493 -2.83058 -0.569111 0.819453 0.0678901
-1.21817 21.4755 -1.80656 -0.635694 0.770009 0.0514218
-1.24302 21.3789 -0.6751 -0.691253 0.721609 0.0374951
-1.27793 21.29 0.426753 -0.723034 0.689857 0.0351458
-1.29876 21.2166 1.59565 -0.762623 0.646493 0.0196352
-1.28472 21.2002 2.64525 -0.783532 0.621227 0.0117759
-1.36533 21.0654 3.86852 -0.802561 0.596423 0.0132506
-1.35742 21.0656 4.97781 -0.812185 0.583373 0.00276977
-1.37187 21.0512 6.12833 -0.81613 0.577813 -0.00797773
-1.30415 21.1711 7.22215 -0.812817 0.582274 -0.0169013
-1.30833 21.2059 8.33852 -0.804194 0.593554 -0.0310665
-1.32155 21.2438 9.39532 -0.79642 0.603429 -0.0394803
-1.28626 21.3668 10.4361 -0.767695 0.638312 -0.0565939
-1.27629 21.4645 11.6265 -0.735133 0.675316 -0.0593858
-1.21527 21.6056 12.6564 -0.685703 0.725202 -0.0623973
-1.24679 21.6882 13.8924 -0.628176 0.773494 -0.0812973
-1.34584 21.7524 15.1418 -0.535255 0.840416 -0.074656
-1.71435 21.5594 16.0267 -0.524245 0.850967 0.0319736
-2.62006 20.918 15.9161 -0.632626 0.773332 0.0341478
-3.21466 20.4004 15.9656 -0.666548 0.74495 0.0276465
-3.22732 20.3869 17.0546 -0.658959 0.752168 -0.000501935
-3.20468 20.4074 18.1027 -0.637699 0.770271 -0.00351594
-3.25604 20.3724 19.1525 -0.620497 0.784121 -0.00356744
-3.22114 20.4034 20.3774 -0.629441 0.776971 -0.0109653
-2.59306 20.9013 20.8407 -0.592984 0.804728 -0.0279766
-1.72792 21.4949 20.7818 -0.538851 0.841725 -0.0274372
-0.693517 22.0577 20.8637 -0.417754 0.908223 -0.0221191
0.284856 22.4362 20.8472 -0.311258 0.949233 -0.0455629
1.34838 22.6977 20.8925 -0.148538 0.985509 -0.072396
2.44106 22.7586 20.8463 0.0238039 0.991605 -0.109576
3.58298 22.5816 20.8478 0.267084 0.961039 -0.0661323
4.65256 22.1918 20.8579 0.428877 0.901956 -0.0503432
5.55912 21.6856 20.8572 0.539207 0.841954 -0.0192418
6.52754 20.9472 20.8536 0.644308 0.764117 -0.0296175
7.09524 20.3972 20.4275 0.704433 0.709771 -0.000720803
7.07309 20.4298 19.1919 0.688001 0.725521 0.0126386
6.30181 21.1446 19.0245 0.642727 0.764259 0.0490124
5.38373 21.7984 19.0212 0.513649 0.857316 0.0342622
4.4242 22.2887 19.1327 0.403889 0.913007 0.0507609
3.68836 22.543 18.5408 0.22882 0.973124 0.0101251
3.68489 22.524 17.4529 0.30628 0.951909 -0.00791165
4.41475 22.2258 16.5802 0.423125 0.905055 -0.026184
5.17347 21.7775 15.9033 0.537036 0.842252 -0.0469448
5.78756 21.2748 15.1735 0.641753 0.76346 -0.0726737
6.49714 20.5535 14.4132 0.716681 0.695719 -0.0457154
6.56179 20.4119 13.386 0.748292 0.662419 -0.0354855
6.49183 20.4553 12.2148 0.760325 0.649321 -0.0169646
6.02644 21.0064 12.1452 0.754913 0.655612 0.0166951
5.39571 21.6451 12.8154 0.688721 0.723357 0.0491646
4.76265 22.161 13.4596 0.634884 0.768217 0.0809051
4.08352 22.549 14.1787 0.494969 0.859052 0.130519
3.50127 22.7328 15.0352 0.399974 0.905438 0.142136
2.93205 22.8252 15.9948 0.293861 0.948168 0.120924
2.19537 22.8772 16.8647 0.0769142 0.987371 0.131645
1.28463 22.8707 16.5631 -0.150567 0.978502 0.140939
-1.03696 22.0576 -19.9094 0.0143556 0.999062 0.017921
-0.872025 22.0348 -19.328 0.0494504 0.998643 0.0163108
-0.192875 21.9956 -18.5098 0.0614625 0.997993 -0.0152505
0.389749 21.9159 -19.2855 0.144213 0.989319 0.00375728
0.520892 21.885 -19.9703 0.199293 0.979938 -0.00148975
-0.689342 22.0363 -19.8957 0.0769875 0.99699 0.00914003
-0.928694 22.0515 -19.8809 0.048331 0.9983 0.0325722
