-1.4501 22.1037 18.3246 0.459771 -0.885558 -0.0654454
-2.17747 21.663 17.9331 0.555115 -0.83061 -0.0439833
-2.24726 21.5972 18.8858 0.540728 -0.841155 -0.00396287
-1.25802 22.1891 19.0004 0.493676 -0.869614 -0.00588283
-1.3705 22.1369 18.4606 0.452323 -0.890909 -0.0295517
-0.68804 22.5127 17.9332 0.413411 -0.908214 -0.0650575
-0.123553 22.7044 18.6734 0.3467 -0.93753 -0.0289268
0.609267 22.9152 19.335 0.274259 -0.960945 -0.0288208
0.592649 22.9089 19.9049 0.269743 -0.962924 0.00396466
-0.299063 22.6166 19.9144 0.361424 -0.932378 -0.00225334
-1.16986 22.2292 19.9207 0.471674 -0.881742 0.0023501
-2.07943 21.6959 19.9604 0.544672 -0.838514 0.0118472
-2.93192 21.1072 19.8445 0.597903 -0.801167 0.00475516
-3.10651 20.9674 19.011 0.611163 -0.791493 -0.00215304
-3.05025 21.01 18.0005 0.624781 -0.780719 -0.00865673
-3.07152 21.0189 16.9531 0.631512 -0.774843 -0.0265559
-2.33727 21.5879 16.9372 0.570133 -0.820384 -0.0408722
-1.5195 22.1101 16.9919 0.525812 -0.849892 -0.031668
-0.921631 22.4338 17.4978 0.459996 -0.886836 -0.0430923
-0.761541 22.4883 17.8008 0.414868 -0.907694 -0.0630567
-0.0588406 22.842 17.3077 0.363607 -0.928321 -0.077527
-0.42857 22.7277 16.4138 0.471408 -0.881495 -0.0262903
-0.479517 22.7384 15.3166 0.482869 -0.874691 -0.0397299
-0.656095 22.6533 14.3868 0.559145 -0.827378 -0.0504069
-0.717852 22.6077 13.4608 0.650626 -0.757661 -0.031321
-0.729869 22.6067 12.496 0.70356 -0.709105 -0.0347281
-0.77712 22.5742 11.4404 0.726726 -0.686685 0.0020352
-0.783831 22.5687 10.4863 0.757731 -0.652527 0.00288519
-0.81212 22.5415 9.45964 0.792862 -0.609338 0.00484353
-0.819742 22.5239 8.5062 0.804754 -0.593601 0.00293172
-0.79518 22.5487 7.40424 0.814379 -0.580282 0.00717618
-0.779772 22.5551 6.43471 0.817225 -0.576233 0.00981873
-0.775731 22.5384 5.47382 0.813417 -0.581448 0.0164546
-0.763421 22.5266 4.37672 0.807993 -0.588989 0.01547
-0.739247 22.5262 3.35258 0.789481 -0.613399 0.0214941
-0.738575 22.4887 2.25017 0.769708 -0.637913 0.0248334
-0.642413 22.5455 1.04255 0.745302 -0.665674 0.0374413
-0.558349 22.5909 0.0621119 0.71167 -0.702117 0.0231695
-0.551734 22.5532 -0.974133 0.655981 -0.754238 0.0285449
-0.3572 22.6775 -1.97126 0.624169 -0.780063 0.040003
-0.247199 22.6914 -2.94078 0.581324 -0.811042 0.0653732
-0.126029 22.7185 -3.94241 0.516197 -0.855257 0.0455619
0.000399355 22.7329 -4.90184 0.452066 -0.890102 0.0579124
0.169293 22.7577 -5.88891 0.416103 -0.907346 0.0595533
0.415844 22.8027 -6.86233 0.368252 -0.928131 0.0541524
0.605553 22.8179 -7.79307 0.338485 -0.939436 0.053661
0.745974 22.8097 -8.849 0.300712 -0.952541 0.046632
0.786708 22.7722 -9.83434 0.2766 -0.960104 0.0411317
0.79979 22.7288 -10.7762 0.242628 -0.969251 0.0407523
0.783021 22.6784 -11.7753 0.217391 -0.975098 0.0437432
0.760415 22.6272 -12.7181 0.183403 -0.981685 0.0509461
0.733021 22.5691 -13.759 0.1506 -0.987078 0.0547441
0.694828 22.5111 -14.8359 0.102221 -0.993299 0.0538994
0.707122 22.4614 -15.7704 0.0573549 -0.996807 0.0542026
0.648849 22.3986 -16.7914 0.0136354 -0.996384 0.0818868
0.786299 22.332 -17.7317 -0.0781211 -0.991987 0.0965216
1.28095 22.1539 -18.7078 -0.246564 -0.965471 0.0840944
2.16203 21.855 -19.0197 -0.350066 -0.934344 0.0601007
2.99059 21.462 -19.1899 -0.431581 -0.900425 0.054517
3.78591 20.9972 -19.1116 -0.552148 -0.832322 0.0293997
4.5585 20.4018 -19.3229 -0.627919 -0.776932 0.0413522
4.61871 20.3421 -20.3073 -0.626013 -0.779812 -0.00140803
4.15267 20.7157 -20.9765 -0.597052 -0.801299 -0.0317718
3.36308 21.2398 -20.9964 -0.486498 -0.873067 -0.0327668
2.45753 21.6997 -20.9617 -0.39139 -0.919456 -0.0376135
1.45022 22.0674 -20.9724 -0.299789 -0.953424 -0.0309992
0.472523 22.3108 -20.9203 -0.19384 -0.980402 -0.0351733
-0.460501 22.462 -20.951 -0.102397 -0.992809 -0.0560158
-1.4104 22.4952 -20.9686 0.0197475 -0.99849 -0.0472104
-2.43481 22.4293 -20.9893 0.127719 -0.988231 -0.0745987
-3.35413 22.2355 -20.9772 0.266676 -0.962651 -0.0467735
-4.26989 21.9142 -21.0034 0.392572 -0.918809 -0.0409576
-5.1369 21.4629 -20.954 0.515698 -0.85289 -0.0771071
-6.01108 20.8529 -20.9746 0.623008 -0.781531 -0.0327074
-6.55336 20.3915 -20.5832 0.654909 -0.755306 -0.0222225
-6.54785 20.3931 -19.5175 0.653282 -0.757098 0.00502578
-5.9997 20.8571 -19.0693 0.607777 -0.792167 0.0526936
-5.17001 21.4437 -19.1205 0.543359 -0.836108 0.073292
-4.31147 21.899 -19.1043 0.357733 -0.928177 0.0923327
-3.40535 22.2189 -19.1537 0.267025 -0.961528 0.0645078
-2.36062 22.4128 -19.092 0.125258 -0.991336 0.0379638
-1.54522 22.447 -18.6586 -0.014298 -0.999662 -0.0213964
-1.09581 22.4164 -17.8523 -0.0188178 -0.999085 -0.0382073
-1.1384 22.3795 -16.871 0.0291454 -0.998975 -0.0340405
-1.18737 22.3337 -15.8564 0.0654339 -0.997026 -0.0407102
-1.1053 22.305 -14.7755 0.113733 -0.993099 -0.0286083
-1.11517 22.2823 -13.6722 0.162716 -0.986526 -0.0139548
-1.13544 22.2616 -12.7245 0.188745 -0.981902 -0.0155824
-1.13642 22.2463 -11.7442 0.224285 -0.974271 -0.0221681
-1.14035 22.2288 -10.6559 0.254289 -0.966983 -0.0155313
-1.10837 22.2275 -9.65621 0.277599 -0.960671 -0.00579308
-1.17476 22.191 -8.5305 0.306155 -0.951912 -0.00800837
-1.18269 22.1674 -7.44173 0.349494 -0.936806 -0.010101
-1.18159 22.1476 -6.407 0.379423 -0.924867 -0.0256518
-1.18561 22.1217 -5.41048 0.452368 -0.891195 -0.0336776
-1.20085 22.0848 -4.47375 0.493921 -0.868614 -0.037265
-1.2072 22.0415 -3.42924 0.545108 -0.837956 -0.0252355
-1.22611 21.9932 -2.3859 0.614201 -0.788192 -0.0367793
-1.2545 21.9339 -1.45842 0.668831 -0.742039 -0.0434061
-1.21963 21.9295 -0.517241 0.695781 -0.718148 -0.0077417
-1.28225 21.8426 0.409144 0.723418 -0.689958 -0.0229496
-1.29245 21.8097 1.39679 0.759542 -0.6501 -0.00941038
-1.38751 21.6956 2.32 0.78298 -0.621475 -0.0266702
-1.34937 21.7312 3.25796 0.793129 -0.609015 -0.00483098
-1.3814 21.6835 4.37932 0.806318 -0.591475 0.000102253
-1.35884 21.7225 5.44113 0.814065 -0.580747 0.00480617
-1.36223 21.7315 6.40472 0.816744 -0.576914 0.00996727
-1.32912 21.8015 7.45957 0.813014 -0.582056 0.0148078
-1.37515 21.7656 8.40502 0.805034 -0.592905 0.0195971
-1.37339 21.808 9.40398 0.796981 -0.603554 0.0216468
-1.34532 21.9016 10.4298 0.767113 -0.639849 0.0456052
-1.29173 22.0119 11.4018 0.742254 -0.669208 0.0349117
-1.28211 22.0576 12.3248 0.699268 -0.713091 0.0491005
-1.24074 22.1527 13.3567 0.660673 -0.748746 0.050977
-1.20908 22.2545 14.3871 0.58467 -0.809946 0.0463511
-1.26988 22.2664 15.3723 0.506754 -0.861719 0.0195982
-1.80018 21.9802 16.1088 0.522601 -0.850621 -0.057728
-2.56866 21.4802 15.8793 0.593188 -0.801158 -0.0774469
-3.28401 20.9024 15.4182 0.695668 -0.715436 -0.0647656
-3.77153 20.4179 15.4475 0.721578 -0.691604 -0.0317642
-3.76252 20.4042 16.3961 0.683634 -0.729602 -0.0150285
-3.78752 20.3848 17.4114 0.673575 -0.739009 0.00273549
-3.8006 20.3854 18.4362 0.651239 -0.758853 -0.00544644
-3.82336 20.3667 19.3971 0.653579 -0.756858 0.000677932
-3.82797 20.3745 20.3316 0.665389 -0.746418 0.0108601
-3.47295 20.6993 20.886 0.653462 -0.755639 0.0416562
-2.61853 21.3549 20.8948 0.561951 -0.826561 0.0266447
-1.74235 21.9165 20.9213 0.509212 -0.860486 0.0163508
-0.902301 22.3743 20.8694 0.43199 -0.901427 0.0266644
0.07021 22.7614 20.8769 0.341348 -0.938753 0.038888
1.10688 23.0445 20.9024 0.215525 -0.975702 0.0388581
1.9402 23.1681 20.6376 0.118469 -0.992943 0.00539358
1.98608 23.1768 19.6152 0.133144 -0.991074 -0.00665854
1.55642 23.1463 18.7521 0.143544 -0.985817 -0.0869479
0.777585 23.0278 18.2328 0.23302 -0.969813 -0.0718676
0.0622588 22.8702 17.5209 0.357346 -0.929112 -0.095159
0.0254205 22.8624 17.4596 0.360476 -0.928716 -0.086343
-1.49009 22.4646 -19.8404 0.0386659 -0.999064 -0.00490609
-0.726976 22.4294 -19.1979 -0.0649626 -0.9978 -0.0132374
-0.207265 22.3938 -18.4053 -0.0464111 -0.998909 -0.00417205
0.273377 22.3307 -18.9715 -0.140602 -0.989657 0.026035
0.922268 22.1875 -19.6888 -0.225096 -0.97373 0.0137752
1.53258 22.031 -19.8678 -0.307416 -0.951531 0.00921643
0.584115 22.2619 -19.9312 -0.196294 -0.980538 -0.00380344
-0.375259 22.4102 -19.9906 -0.0957977 -0.99538 -0.00640955
-1.34229 22.4679 -19.8417 -0.0116292 -0.999271 -0.011703
