5.37482 22.0928 14.5307 -0.614515 -0.788242 -0.0188955
5.7097 21.8112 14.1696 -0.655664 -0.753986 -0.0383683
6.04834 21.5059 13.7508 -0.696091 -0.717479 -0.0261183
6.34953 21.2015 13.3871 -0.722037 -0.691571 0.00369886
6.40035 21.147 12.8659 -0.755497 -0.655073 -0.0101971
5.86947 21.6962 13.2704 -0.715283 -0.698081 -0.0293553
5.58138 21.9545 13.6731 -0.668649 -0.742235 -0.0374553
5.35095 22.1249 14.185 -0.65869 -0.751922 -0.0272214
5.28769 22.1578 14.4993 -0.602843 -0.7971 -0.0304852
4.87243 22.4743 14.43 -0.591389 -0.803958 -0.058274
4.74166 22.523 15.0686 -0.552495 -0.831863 -0.0481068
4.72794 22.5014 15.7042 -0.520583 -0.852597 -0.0455242
5.12465 22.2667 15.4732 -0.547478 -0.835697 0.00805533
5.5333 21.9576 15.0707 -0.620376 -0.783249 0.0406849
5.93252 21.613 14.6472 -0.671419 -0.741065 0.00423436
6.261 21.3037 14.2828 -0.684156 -0.728932 0.0242676
6.61746 20.9315 13.8984 -0.711746 -0.700656 0.0499844
6.79253 20.7138 13.4158 -0.76023 -0.648918 0.0282837
6.78949 20.6982 12.7735 -0.765656 -0.643 0.017875
6.7591 20.7288 12.1378 -0.772406 -0.635009 0.0123499
6.58099 20.9534 11.9466 -0.778175 -0.62795 -0.0110641
6.27595 21.3086 12.2427 -0.75479 -0.655494 -0.0245578
5.93743 21.6657 12.5691 -0.730257 -0.681202 -0.0518535
5.62123 21.9695 12.9071 -0.708302 -0.703378 -0.0597325
5.19841 22.3144 13.3969 -0.662241 -0.745077 -0.0793538
4.95988 22.458 13.9177 -0.625916 -0.776251 -0.0743839
4.91332 22.4699 14.165 -0.597809 -0.797724 -0.0791291
4.46804 22.798 14.0994 -0.548469 -0.828151 -0.113889
4.61004 22.7853 13.538 -0.561921 -0.808227 -0.175456
4.85763 22.658 13.042 -0.6479 -0.753896 -0.108938
5.21041 22.3947 12.6889 -0.678465 -0.72812 -0.0957371
5.53501 22.1198 12.3228 -0.699692 -0.709786 -0.0814154
6.01055 21.6405 11.8855 -0.760466 -0.647385 -0.0502543
6.35972 21.2427 11.5148 -0.779594 -0.625812 -0.0226794
6.68941 20.842 11.1399 -0.79561 -0.604923 -0.029368
7.05707 20.3613 10.9174 -0.799016 -0.60118 -0.00923753
7.10078 20.2969 11.4425 -0.793423 -0.608671 -0.000508025
7.11362 20.2857 12.0267 -0.784528 -0.620032 0.00871553
7.15156 20.2575 12.6329 -0.778024 -0.627726 0.0252834
7.15567 20.2825 13.2178 -0.769413 -0.637635 0.0377557
7.19728 20.2804 13.9031 -0.770799 -0.635013 0.051257
6.94456 20.6184 14.3628 -0.757363 -0.649862 0.0638776
6.64536 20.9547 14.6433 -0.704122 -0.707783 0.0557609
6.32966 21.2831 14.976 -0.66882 -0.741483 0.0484534
6.01461 21.5861 15.3053 -0.629526 -0.771239 0.0932731
5.64949 21.9047 15.6533 -0.580606 -0.811651 0.0614732
5.30712 22.1667 16.0062 -0.495875 -0.866515 0.057097
4.83358 22.451 16.4899 -0.473325 -0.880195 0.034933
4.39041 22.6864 16.9518 -0.427684 -0.903865 0.00682083
3.99197 22.8702 17.2633 -0.388047 -0.921638 -0.00182915
4.04708 22.8469 16.7134 -0.439901 -0.897993 -0.00982467
4.14316 22.8177 16.1708 -0.469076 -0.883089 -0.0109737
4.1953 22.819 15.5455 -0.480384 -0.874723 -0.0639572
4.2834 22.8296 14.9116 -0.524554 -0.847599 -0.079006
4.43965 22.7926 14.3064 -0.545806 -0.832109 -0.0983514
4.44958 22.7918 14.257 -0.542834 -0.834296 -0.0963421
6.20345 21.7011 20.0719 -0.598014 -0.801424 0.0067015
6.09284 21.7839 20.076 -0.598656 -0.800885 0.0139462
6.10824 21.7723 20.0744 -0.598658 -0.800883 0.0139452
6.17393 21.7359 20.5676 -0.600921 -0.797124 0.0508598
6.63183 21.3579 20.5117 -0.656716 -0.752553 0.0453836
7.07534 20.9542 20.538 -0.687351 -0.726205 0.0132325
7.36395 20.6577 20.1977 -0.708688 -0.705522 -7.65916e-05
7.36457 20.6628 19.6512 -0.715845 -0.698135 -0.0131784
7.06775 20.9642 19.3412 -0.693965 -0.719929 -0.0106882
6.44386 21.5197 19.3938 -0.661737 -0.747769 -0.0537336
5.88251 21.9415 19.3718 -0.584551 -0.809085 -0.0573209
5.40953 22.2483 19.4107 -0.521571 -0.853069 -0.015372
4.93595 22.5045 19.3838 -0.454129 -0.890926 0.00412634
4.67307 22.6332 19.7536 -0.441095 -0.897457 7.23871e-05
4.6624 22.6393 20.2924 -0.437079 -0.899376 0.0069773
5.04017 22.4537 20.5028 -0.4656 -0.884517 0.0153982
5.52309 22.1764 20.5636 -0.526482 -0.849696 0.0288495
5.95976 21.8895 20.5982 -0.577004 -0.814948 0.0540896
6.03116 21.8383 20.5874 -0.577003 -0.814949 0.0540897
6.07438 21.8521 21.1265 -0.59132 -0.800766 0.0823313
5.4574 22.2528 21.0912 -0.499447 -0.863374 0.0687036
4.98335 22.511 21.073 -0.432827 -0.898759 0.0699489
4.43766 22.7618 21.1113 -0.391923 -0.917736 0.0644823
4.13318 22.8712 20.7428 -0.345112 -0.938473 0.0129163
4.18629 22.8591 20.1025 -0.402029 -0.915584 -0.00612982
4.1355 22.8749 19.586 -0.36217 -0.931668 0.028781
4.11285 22.8712 19.0329 -0.355879 -0.934434 0.0135099
4.63984 22.66 18.8083 -0.414835 -0.905023 -0.0940494
5.16817 22.4115 18.8392 -0.428606 -0.900794 -0.0697657
5.75145 22.0734 18.8137 -0.552809 -0.82911 -0.0766026
6.24048 21.7189 18.8083 -0.630683 -0.773458 -0.0632517
6.65024 21.3813 18.8168 -0.663832 -0.745008 -0.0652214
7.12702 20.9434 18.7655 -0.68994 -0.721456 -0.0590291
7.4932 20.5543 18.8422 -0.727129 -0.685689 -0.0313189
7.74517 20.2663 19.1356 -0.733086 -0.679664 -0.0222212
7.7463 20.255 19.7334 -0.736169 -0.676721 -0.00631056
7.74894 20.257 20.3139 -0.72178 -0.692096 0.00598256
7.74467 20.2685 20.8462 -0.722863 -0.690861 0.0134168
7.47113 20.5637 21.0998 -0.728362 -0.684552 0.0296296
6.94312 21.1039 21.108 -0.694039 -0.71888 0.0390178
6.50876 21.496 21.0535 -0.647749 -0.759016 0.0656996
6.26465 21.6969 21.0966 -0.624211 -0.779302 0.0551526
