-4.75169 22.5724 -19.845 0.391743 -0.919705 0.0217088
-5.29098 22.281 -19.8683 0.484669 -0.874674 0.00502422
-5.64089 22.0743 -19.8359 0.510445 -0.859657 0.020894
-6.1453 21.7096 -19.8104 0.615155 -0.788334 -0.0106743
-6.63564 21.306 -19.7359 0.652045 -0.758034 0.0148481
-6.99342 20.995 -19.9002 0.670131 -0.741763 0.00516726
-6.86136 21.1161 -20.2312 0.661317 -0.749366 -0.0333162
-6.47234 21.4511 -20.2767 0.626879 -0.778942 -0.0165029
-6.05457 21.7835 -20.2773 0.62339 -0.781904 0.00339898
-5.59698 22.0993 -20.0582 0.524324 -0.851514 -0.00281257
-5.25568 22.298 -20.2028 0.487587 -0.873046 0.007019
-4.81506 22.5283 -20.2476 0.440286 -0.897169 0.0351421
-4.5841 22.6435 -19.903 0.392808 -0.919591 0.00732317
-4.3715 22.743 -19.4266 0.357499 -0.932784 0.0459135
-4.95419 22.4803 -19.3734 0.436151 -0.899048 0.0293645
-5.42217 22.2257 -19.3924 0.498284 -0.865387 0.0466933
-5.8671 21.933 -19.3573 0.586992 -0.808982 0.0314443
-6.3017 21.5966 -19.326 0.612094 -0.790246 0.0264538
-6.7527 21.2209 -19.2848 0.657116 -0.752399 0.0411067
-7.14779 20.8517 -19.333 0.688478 -0.723752 0.0466985
-7.40016 20.6058 -19.6517 0.691928 -0.721849 0.0130404
-7.45421 20.558 -20.1658 0.706248 -0.70792 -0.00793104
-7.32652 20.6932 -20.6782 0.702736 -0.710749 -0.0305302
-6.88719 21.1146 -20.7234 0.676018 -0.735785 -0.0380126
-6.46903 21.4644 -20.7579 0.630911 -0.774891 -0.0379859
-6.06507 21.7872 -20.7618 0.623118 -0.7811 -0.0400938
-5.5927 22.1091 -20.7221 0.540799 -0.83918 -0.0511425
-5.11505 22.387 -20.7376 0.470948 -0.880574 -0.0528961
-4.65127 22.6158 -20.7189 0.419494 -0.907318 -0.028279
-4.27591 22.7695 -20.4287 0.380433 -0.924327 -0.0298551
-3.97785 22.8729 -20.0009 0.314942 -0.949077 -0.00802024
-3.45192 23.0214 -19.8108 0.248906 -0.968067 -0.0248103
-3.05473 23.1029 -20.0319 0.156996 -0.987025 -0.0259954
-2.62393 23.1784 -20.5428 0.109653 -0.993081 -0.0400384
-2.14487 23.2309 -20.7179 0.0728812 -0.996152 -0.0448427
-1.62777 23.2603 -20.772 0.0259011 -0.998244 -0.0520338
-1.09076 23.2636 -20.7237 -0.0262705 -0.997608 -0.0560043
-0.578619 23.2322 -20.725 -0.0805112 -0.995498 -0.0492602
0.104163 23.1461 -20.6444 -0.16807 -0.984112 -0.0572442
0.61311 23.0503 -20.6648 -0.214264 -0.975916 -0.0409801
1.12974 22.9241 -20.6502 -0.25004 -0.967666 -0.0332087
1.66904 22.7738 -20.7063 -0.300385 -0.953628 -0.0190191
2.17015 22.6067 -20.6845 -0.331768 -0.943348 -0.00487909
2.73701 22.3835 -20.7148 -0.404354 -0.914476 -0.0152128
3.23933 22.1524 -20.7406 -0.446192 -0.893607 -0.0487818
3.74618 21.8807 -20.79 -0.494013 -0.868362 -0.0430835
4.37847 21.486 -20.6978 -0.531599 -0.846961 0.00586611
4.81496 21.1751 -20.7467 -0.600749 -0.798596 -0.0294584
5.2097 20.8477 -20.7062 -0.665233 -0.746154 -0.0268349
5.49459 20.5841 -20.4079 -0.685965 -0.727632 0.00189056
5.54244 20.5401 -19.8918 -0.67565 -0.737194 0.00653864
5.43074 20.6502 -19.3809 -0.680804 -0.732338 0.0137075
4.97947 21.0552 -19.3141 -0.643123 -0.76453 0.0353178
4.48 21.4447 -19.309 -0.608674 -0.792143 0.0450052
4.05115 21.7318 -19.3322 -0.527208 -0.847155 0.0616122
3.55129 22.014 -19.3587 -0.459269 -0.886788 0.0494369
2.93626 22.3087 -19.4037 -0.407758 -0.912467 0.0328664
2.44648 22.5181 -19.3723 -0.369994 -0.928677 0.025543
1.8726 22.721 -19.3275 -0.31296 -0.948311 0.0525633
1.27217 22.8982 -19.3975 -0.258938 -0.965705 0.0190981
0.647517 23.0518 -19.3923 -0.208545 -0.976377 0.0565406
0.125445 23.1512 -19.3231 -0.122083 -0.991085 0.0533515
-0.394743 23.2124 -19.3652 -0.0979924 -0.993774 0.0465839
-0.91267 23.2345 -19.3927 -0.0269514 -0.99942 0.007906
-1.42701 23.2403 -19.3561 0.00122785 -0.999217 0.0367983
-2.03821 23.2167 -19.3575 0.039522 -0.998969 0.0223208
-2.57081 23.1696 -19.391 0.119177 -0.992174 0.0372525
-3.17865 23.0717 -19.6182 0.156626 -0.986768 0.0419279
-3.68843 22.957 -19.7222 0.263275 -0.963323 0.0519096
-4.20435 22.8076 -19.5143 0.332366 -0.942319 0.0169806
-3.93163 22.9181 -19.1266 0.34502 -0.932913 0.103127
-3.41946 23.0543 -19.1759 0.177578 -0.973166 0.130436
-2.97301 23.1373 -18.9183 0.13903 -0.988086 0.0659847
-2.33469 23.2111 -18.8584 0.0703822 -0.996638 0.0419426
-1.75458 23.2435 -18.8746 0.0386977 -0.998178 0.0462884
-1.23003 23.2576 -18.8657 0.0165944 -0.999233 0.0354696
-0.647698 23.248 -18.8991 -0.0414952 -0.997586 0.0521588
-0.0300186 23.1981 -18.832 -0.128388 -0.989884 0.0603894
0.496989 23.1201 -18.8387 -0.189651 -0.978712 0.068985
1.1255 22.9738 -18.83 -0.244372 -0.967506 0.0626306
1.62494 22.8264 -18.8513 -0.304429 -0.951401 0.0464774
2.22011 22.6332 -18.8102 -0.324855 -0.941937 0.0849899
2.68753 22.4314 -18.935 -0.385907 -0.922154 0.0207122
3.21116 22.2075 -18.847 -0.393211 -0.916103 0.078362
3.79633 21.913 -18.8731 -0.470809 -0.878066 0.0856644
4.28863 21.6205 -18.8326 -0.5361 -0.839612 0.0874565
4.70381 21.306 -18.8353 -0.627024 -0.776741 0.058538
5.19571 20.8874 -18.8424 -0.66125 -0.749197 0.0381083
5.58096 20.538 -18.8003 -0.686378 -0.725999 0.0424641
5.87996 20.2383 -19.0886 -0.68488 -0.728241 0.0245603
5.89835 20.2086 -19.6275 -0.691073 -0.722637 0.0146271
5.88753 20.2104 -20.1901 -0.691611 -0.722268 -0.00187007
5.87348 20.2222 -20.7067 -0.706992 -0.707139 -0.010792
5.59162 20.5198 -21.2237 -0.709675 -0.703912 -0.0210706
5.19915 20.8821 -21.2232 -0.669534 -0.740839 -0.0533331
4.71723 21.271 -21.2293 -0.597547 -0.797718 -0.0787472
4.22057 21.6145 -21.2089 -0.535334 -0.842744 -0.0565592
3.66547 21.9594 -21.2437 -0.501562 -0.856527 -0.121643
3.17419 22.2052 -21.2202 -0.455871 -0.889733 -0.023585
2.70706 22.4139 -21.215 -0.375404 -0.925344 -0.0456206
2.20853 22.6055 -21.1752 -0.335158 -0.941443 -0.0302257
1.60126 22.8045 -21.2352 -0.286952 -0.957452 -0.0282803
1.09201 22.9528 -21.202 -0.267324 -0.963123 -0.0221552
0.597452 23.0752 -21.2458 -0.223537 -0.974172 -0.0319378
0.0340956 23.1888 -21.1731 -0.179056 -0.982508 -0.0493012
-0.599246 23.2649 -21.221 -0.0865357 -0.993338 -0.0730277
-1.11675 23.2911 -21.209 0.00443191 -0.997604 -0.0690336
-1.64324 23.2831 -21.2449 0.04463 -0.997241 -0.0593113
-2.19106 23.2448 -21.2287 0.0797927 -0.996001 -0.038884
-2.72902 23.1945 -21.1217 0.0804701 -0.996118 -0.0356835
-3.13802 23.1228 -20.7112 0.111659 -0.991539 -0.0421637
-3.4494 23.0309 -20.2998 0.221707 -0.949708 -0.163967
-3.91249 22.9223 -20.6487 0.383902 -0.917942 -0.0900181
-4.12026 22.8605 -21.1506 0.371827 -0.92693 -0.0489235
-4.58223 22.6727 -21.2264 0.41204 -0.908125 -0.074376
-5.16724 22.3878 -21.2333 0.449492 -0.891225 -0.0606192
-5.61315 22.1289 -21.2076 0.537027 -0.840488 -0.0679159
-6.06713 21.816 -21.2053 0.595554 -0.797006 -0.0859592
-6.50739 21.4602 -21.2361 0.628162 -0.773547 -0.0838875
-6.91556 21.1115 -21.2141 0.66482 -0.746027 -0.0381846
-7.33825 20.7085 -21.2146 0.72612 -0.687148 -0.0240025
-7.72934 20.2892 -21.0709 0.73239 -0.680666 -0.0172757
-7.77493 20.2362 -20.4964 0.722535 -0.691302 -0.00669504
-7.82111 20.1883 -19.9438 0.716951 -0.697111 0.00230936
-7.78848 20.2207 -19.3017 0.709146 -0.704518 0.0211347
-7.56976 20.4637 -18.8981 0.704607 -0.708691 0.0349156
-7.1882 20.8421 -18.8523 0.700105 -0.712451 0.047536
-6.72386 21.2745 -18.8259 0.664883 -0.741414 0.0907479
-6.33491 21.6016 -18.8591 0.637699 -0.768803 0.0477712
-5.87367 21.9592 -18.8759 0.581128 -0.810781 0.0701712
-5.27493 22.3497 -18.8973 0.508128 -0.857911 0.0671206
-4.80986 22.5933 -18.8338 0.435376 -0.893324 0.111446
-4.31575 22.801 -18.8718 0.361844 -0.925274 0.113743
-4.02916 22.8915 -19.0415 0.3273 -0.940758 0.0844005
4.17573 21.6264 -19.7883 -0.512849 -0.857345 0.0372762
4.65204 21.2994 -19.7661 -0.582946 -0.812353 -0.00364436
5.15566 20.8905 -19.9208 -0.65363 -0.756593 0.000907337
4.82739 21.1639 -20.2648 -0.632539 -0.774359 -0.00637709
4.38194 21.4854 -20.2008 -0.557419 -0.829782 -0.000350928
3.86018 21.808 -20.3357 -0.503639 -0.863896 -0.0056458
3.39748 22.0683 -20.2766 -0.44451 -0.895725 -0.000915769
2.87876 22.3182 -20.1403 -0.404249 -0.914646 -0.00214988
2.37617 22.5242 -20.2076 -0.359645 -0.933011 0.0120487
1.88111 22.7031 -20.1717 -0.310063 -0.950716 -9.77079e-05
1.37892 22.8552 -20.1835 -0.274736 -0.961473 -0.00947919
0.83008 22.9994 -20.1602 -0.243518 -0.969866 -0.00771874
0.291434 23.1113 -20.1568 -0.178145 -0.983988 -0.00557094
-0.230696 23.1892 -20.2081 -0.113626 -0.993359 -0.0180897
-0.741792 23.2295 -20.2302 -0.0571989 -0.998121 -0.0219847
-0.652637 23.2197 -19.8771 -0.0442619 -0.99901 0.0045689
0.0173846 23.1576 -19.8011 -0.124162 -0.992248 0.0034155
0.538656 23.0691 -19.8922 -0.190176 -0.981468 0.0148298
1.12803 22.9269 -19.9013 -0.251519 -0.967556 0.0224653
1.66358 22.7781 -19.9211 -0.29482 -0.954913 0.0220045
2.13467 22.6204 -19.8317 -0.315314 -0.94888 0.00925154
2.6459 22.4254 -19.8747 -0.386026 -0.921894 0.0123737
3.08964 22.2248 -20.0594 -0.426975 -0.903902 0.00207944
3.49114 22.0266 -19.8648 -0.44313 -0.896357 0.0134286
4.02873 21.7156 -19.8165 -0.520525 -0.853709 0.0152927
-1.91348 23.2168 -19.8214 0.0418818 -0.998824 -0.0169561
-1.31893 23.2363 -19.8282 -0.0149289 -0.999888 0.000668647
-0.781881 23.2318 -20.25 -0.0392625 -0.999099 -0.0160925
-1.30181 23.2439 -20.2335 -0.00238066 -0.999625 -0.0262825
-1.73443 23.2305 -20.0457 0.0349017 -0.998842 -0.0331117
-2.15612 23.2141 -20.2074 0.065571 -0.99771 -0.0165806
-2.21392 23.2061 -19.9546 0.0889334 -0.995602 -0.017762
-2.05425 23.2168 -19.9698 0.0502369 -0.998276 -0.0248479
