-1.96385 0.990135 6.91561 -0.189751 0.981359 -0.00321911
-0.92767 1.15358 7.71095 -0.142041 0.98978 -0.00840713
0.22123 1.32773 8.41481 -0.122648 0.992337 -0.01498
1.38845 1.39432 8.98736 -0.0362393 0.999343 8.60617e-05
2.60465 1.40477 9.76396 0.0346323 0.998686 -0.0143528
4.19624 1.27616 10.6574 0.131703 0.991047 -0.0043475
5.46705 1.06869 11.0185 0.180095 0.983617 0.00798453
6.63409 0.82478 11.6639 0.220034 0.975492 -0.000206653
6.79003 0.78661 12.9978 0.239175 0.970951 0.00701121
6.74252 0.806929 14.558 0.228745 0.973483 -0.00261777
6.73269 0.810793 15.9852 0.222093 0.974988 0.00326168
6.52152 0.841457 17.4157 0.212299 0.977174 0.00638842
5.30377 1.09504 17.8463 0.198746 0.980049 -0.001981
3.88683 1.34969 17.8886 0.121881 0.991733 -0.00197474
2.37714 1.45948 17.8631 0.0098245 0.999942 -0.00443186
1.02442 1.42965 17.7784 -0.053909 0.998484 0.0110811
-0.773471 1.28319 17.716 -0.111388 0.993226 -0.0259628
-2.22051 1.04628 17.4184 -0.188205 0.981867 -0.0221503
-3.21065 0.806849 16.3085 -0.227063 0.973723 -0.0174723
-3.2288 0.785355 14.9809 -0.246738 0.969071 -0.00474204
-3.20593 0.780437 13.6658 -0.24775 0.968763 -0.010896
-3.01965 0.799029 12.0183 -0.211486 0.977204 -0.0186181
-3.05899 0.78994 10.6406 -0.220133 0.975469 0.00155826
-3.02407 0.78746 9.07874 -0.232294 0.972585 -0.00983083
-2.70848 0.826442 7.71524 -0.20659 0.978223 -0.0127432
-2.07063 0.966165 6.99808 -0.218385 0.975858 -0.0021333
-3.20143 0.710554 6.29238 -0.221819 0.975075 -0.00120469
-3.94591 0.53885 7.39881 -0.257942 0.966131 -0.00749211
-4.15653 0.496264 8.75275 -0.256201 0.966548 -0.0119534
-4.13579 0.518885 10.2523 -0.26274 0.96483 -0.00719989
-4.11382 0.530087 11.7776 -0.25865 0.965952 -0.00602761
-4.26565 0.501544 13.1635 -0.271013 0.962548 -0.00694175
-4.29204 0.502314 14.5637 -0.260301 0.965499 -0.00572884
-4.36312 0.509735 16.0773 -0.264006 0.964333 -0.0173866
-4.25727 0.559399 17.4028 -0.27468 0.961284 -0.0219803
-3.43281 0.794715 18.3199 -0.240117 0.970592 -0.0172018
-1.88732 1.14352 18.8254 -0.178518 0.983614 -0.0201974
-0.339115 1.3613 18.8858 -0.102339 0.994311 -0.0295219
1.25922 1.45252 19.0707 -0.0201789 0.999382 -0.0232821
2.61618 1.46235 19.1132 0.0396144 0.998504 0.0139487
4.10831 1.31148 19.1265 0.168196 0.98572 0.0081673
5.47341 1.06673 19.1265 0.194732 0.980823 -0.00805521
6.99684 0.725197 18.853 0.230888 0.972949 -0.00676433
7.68201 0.557427 17.6987 0.245975 0.969145 0.0159601
7.86317 0.520141 16.2145 0.265755 0.963873 0.00570404
7.79646 0.533493 14.7747 0.275472 0.961304 -0.00215232
7.84609 0.515025 13.4464 0.27404 0.961644 -0.00967452
7.82464 0.519428 12.0976 0.278124 0.960513 -0.0078178
7.55916 0.59464 10.6598 0.271059 0.96254 0.00666027
6.49208 0.854016 10.0088 0.217419 0.976076 -0.00219469
5.16601 1.11446 9.74272 0.160601 0.986742 -0.0202405
3.84563 1.29023 9.19058 0.13563 0.99016 -0.0344617
2.56906 1.36869 8.26448 0.0738352 0.996554 -0.0377957
1.19136 1.36304 7.57046 -0.00548567 0.999328 -0.0318958
-0.00729947 1.27745 6.90724 -0.100091 0.994367 -0.0201063
-1.02952 1.13406 6.00756 -0.141335 0.989773 -0.0105473
-1.7793 0.993055 4.85724 -0.170372 0.985089 -0.0239189
-2.81759 0.798895 5.74575 -0.217938 0.975961 0.00145343
-2.99226 0.759485 6.0178 -0.220993 0.975268 0.00222496
-3.98746 0.525086 5.31439 -0.232384 0.972598 -0.00713593
-3.27765 0.683781 4.19074 -0.222935 0.974802 0.0072342
-2.3759 0.899621 3.0713 -0.22143 0.975127 0.00976918
-1.41424 1.09585 2.01782 -0.153886 0.987599 0.0244936
-1.01204 1.11665 3.31206 -0.150162 0.988498 -0.0179816
-0.547033 1.18825 4.66263 -0.130726 0.991279 0.0166421
0.412415 1.27605 5.72843 -0.0603029 0.99779 -0.00312413
1.57348 1.34846 6.44389 -0.026323 0.999521 -0.0153495
3.33076 1.30176 7.20934 0.0644146 0.997789 0.0163416
4.3825 1.19886 8.09673 0.137753 0.990415 0.0100876
5.72147 0.998796 8.60559 0.168755 0.985584 -0.0117639
7.06847 0.709694 8.84417 0.262092 0.964984 -0.00774493
8.75338 0.238277 9.79823 0.284829 0.958575 0.00246095
8.79949 0.2321 11.0297 0.291594 0.956528 -0.00452691
8.87546 0.205971 12.437 0.30612 0.951922 -0.00138142
8.89968 0.208371 13.7806 0.278893 0.960282 -0.00875944
8.91692 0.208036 15.2827 0.276328 0.961055 0.00407853
8.90176 0.199899 16.7242 0.302651 0.953066 0.0025667
8.82707 0.215686 18.0873 0.290379 0.956895 0.00564489
8.30176 0.368527 19.4933 0.288713 0.957403 0.004831
7.09377 0.705895 20.1177 0.261188 0.965235 -0.00893768
5.813 1.00923 20.3943 0.197448 0.98029 -0.00678053
4.1454 1.32154 20.3473 0.175425 0.983911 -0.0338288
2.66869 1.46998 20.3231 0.0414111 0.998148 -0.0334866
1.29842 1.4782 20.1854 -0.00445876 0.999481 -0.0318984
-0.106075 1.41616 20.0498 -0.0491288 0.99845 -0.0236402
-1.79888 1.17099 20.0539 -0.16386 0.986442 -0.00902726
-3.11702 0.889704 19.7352 -0.24204 0.970266 -0.00126236
-4.43661 0.526726 19.2888 -0.283707 0.958908 -0.00254029
-5.4927 0.203605 18.1376 -0.288663 0.95737 -0.0107785
-5.48454 0.193435 16.7125 -0.300426 0.953732 -0.0111726
-5.3513 0.220076 15.3097 -0.280323 0.959906 6.37626e-05
-5.42141 0.177718 13.8978 -0.297615 0.954453 -0.0211034
-5.20082 0.231389 12.1896 -0.275421 0.961287 -0.00820237
-5.24232 0.206817 10.5566 -0.284341 0.95864 -0.00693422
-5.23368 0.203421 9.07225 -0.288638 0.957321 -0.00334052
-5.26159 0.186473 7.61329 -0.281734 0.95947 -0.00664113
-4.82429 0.301631 6.35414 -0.25784 0.966184 -0.00248987
-4.05387 0.509945 5.41328 -0.232384 0.972598 -0.00713602
1.38195 1.38632 -9.2621 -0.0102254 0.999925 0.00173083
1.98441 1.34428 -8.04491 0.0557232 0.99841 0.00856154
2.43791 1.32476 -6.8644 0.071376 0.997421 -0.00717616
3.46601 1.23709 -5.89892 0.108768 0.993677 -0.0278622
4.64573 1.0876 -6.03967 0.144382 0.989489 0.00806906
6.05458 0.847456 -6.12515 0.195591 0.980645 0.00885923
6.19789 0.809059 -7.2412 0.221576 0.974965 -0.0186397
6.04098 0.810399 -8.46606 0.241111 0.969862 -0.0338882
5.82735 0.835026 -9.9498 0.210388 0.977507 -0.0131179
5.73642 0.826565 -11.484 0.23405 0.971905 -0.0239098
5.73284 0.812002 -12.7301 0.235389 0.971879 0.00376
5.59022 0.833738 -13.9956 0.247537 0.968741 -0.00567444
5.41606 0.875691 -15.3994 0.219443 0.975618 0.0037569
5.22836 0.917095 -16.6503 0.248397 0.968552 -0.0114992
4.021 1.16864 -17.1945 0.147057 0.989126 -0.00173258
2.77821 1.36248 -17.5449 0.116386 0.993178 0.00720318
1.58899 1.46124 -17.7087 0.0440415 0.998848 0.0190626
0.0122756 1.4578 -17.7228 -0.0199526 0.999769 0.00693666
-1.36761 1.38403 -17.6326 -0.103642 0.994465 0.0172008
-2.52925 1.25871 -17.4596 -0.125124 0.991783 0.00179621
-3.69047 1.05787 -17.2504 -0.197898 0.978938 0.0420273
-4.38747 0.860426 -16.2036 -0.242313 0.969569 0.0311197
-4.1443 0.873344 -14.8526 -0.212147 0.976772 0.0298323
-3.22489 1.0459 -14.1109 -0.190343 0.981629 0.0131729
-2.13317 1.20483 -13.3799 -0.144185 0.989048 0.0311779
-1.09197 1.33637 -12.7185 -0.104793 0.993286 0.0300663
0.143842 1.38046 -11.5439 -0.0590464 0.998107 0.0172131
0.770556 1.38598 -10.4029 0.000269936 0.999527 0.0307535
1.21563 1.38295 -9.55252 -0.0137731 0.9999 -0.00253944
0.20744 1.36004 -8.95781 -0.0725733 0.997332 0.003908
0.751017 1.36648 -7.89615 -0.0126311 0.999809 0.014907
1.22734 1.37026 -6.73339 0.0188414 0.999792 0.000153455
1.56875 1.35856 -5.16552 0.0362847 0.999205 0.0165327
2.0028 1.33681 -4.30025 0.0321445 0.999358 -0.0157927
3.43208 1.26826 -4.62982 0.0493879 0.998729 -0.00375637
4.91743 1.06903 -4.86818 0.164561 0.986075 -0.0176007
6.5127 0.750029 -4.74746 0.232447 0.972593 0.00558254
7.48222 0.507613 -5.30771 0.264458 0.964357 -0.00848004
7.33859 0.525403 -6.50297 0.268859 0.962791 -0.0273462
7.25981 0.51987 -7.82259 0.261842 0.964786 -0.023962
7.06705 0.538305 -9.0522 0.251648 0.967637 -0.0155406
6.89107 0.561449 -10.5018 0.260275 0.965086 -0.0294353
6.8974 0.53446 -11.6902 0.251364 0.9677 -0.0157496
6.8806 0.519991 -12.9187 0.257837 0.965979 -0.0201005
6.76569 0.527071 -14.4652 0.263664 0.964586 -0.00628463
6.62673 0.554796 -16.2565 0.270315 0.962554 -0.0188181
7.14794 0.391205 -17.2481 0.285458 0.958229 -0.0176143
6.53656 0.558655 -18.1994 0.270757 0.962603 -0.00931134
5.20663 0.910437 -18.2943 0.231934 0.972461 -0.0117863
3.91622 1.18731 -18.5402 0.166747 0.985316 0.00246607
2.50572 1.36497 -18.8541 0.106697 0.994257 0.00827006
1.13498 1.46222 -18.9412 0.0229726 0.999685 0.010118
-0.137382 1.46612 -18.956 -0.0152802 0.999821 0.0111793
-1.36931 1.40146 -18.8714 -0.0939021 0.995572 -0.00439703
-2.55866 1.25517 -18.6609 -0.148634 0.988656 0.0216219
-3.94422 1.00885 -18.4881 -0.219345 0.975474 0.0184159
-4.98847 0.750754 -17.9979 -0.24006 0.970506 0.0221076
-5.56434 0.565482 -16.47 -0.256948 0.966015 0.0281687
-5.57542 0.543022 -15.181 -0.264834 0.964122 0.0182279
-4.92471 0.673422 -13.921 -0.228625 0.973208 0.0244098
-3.98677 0.867125 -13.1556 -0.208853 0.977644 0.0243454
-2.80587 1.08654 -12.4188 -0.18813 0.98153 0.0347343
-1.81316 1.22194 -11.7866 -0.125951 0.991828 0.0185897
-0.943498 1.29691 -11.0017 -0.0773382 0.996896 0.0147552
-0.179523 1.33243 -9.60064 -0.0645313 0.997862 0.00590653
0.078798 1.35086 -9.16997 -0.0685058 0.997649 -0.00160106
-0.983384 1.26956 -8.63565 -0.0897744 0.995404 0.0333264
-1.66093 1.2202 -9.8776 -0.126233 0.991848 0.00477714
-2.61075 1.09891 -11.0074 -0.169949 0.984804 0.00768539
-3.6659 0.899495 -11.5339 -0.191593 0.981385 0.0132466
-4.75811 0.673687 -12.1819 -0.228239 0.973092 0.0192994
-5.68367 0.457796 -12.9572 -0.25375 0.966727 0.0323931
-6.63727 0.216341 -13.7766 -0.268363 0.963079 0.0214735
-6.85158 0.184165 -14.903 -0.271596 0.962254 0.0173985
-6.83124 0.20976 -16.542 -0.282473 0.959179 0.0135684
-6.83975 0.231567 -17.7677 -0.278832 0.959923 0.0282956
-6.04313 0.486526 -18.7548 -0.272814 0.961927 0.0156747
-5.06088 0.761836 -19.4115 -0.235651 0.97166 0.0186019
-3.68926 1.07692 -19.7919 -0.193353 0.980748 0.0273552
-2.52104 1.27722 -19.9306 -0.128174 0.99161 0.015505
-1.24487 1.41608 -20.1132 -0.083698 0.996421 0.0118585
-0.0346058 1.48149 -20.2448 -0.0145016 0.999842 0.0103095
1.26009 1.47498 -20.2748 0.0345191 0.998729 0.0193864
2.53426 1.37442 -20.07 0.100756 0.9948 0.0133786
3.7754 1.20341 -19.9262 0.188647 0.981975 -0.00746587
4.97795 0.943247 -19.6768 0.21843 0.975761 -0.0116911
6.58258 0.526356 -19.5155 0.268016 0.963264 -0.016887
7.60805 0.242904 -18.9701 0.284421 0.958642 -0.0104575
8.00932 0.135849 -17.712 0.282963 0.959098 -0.0073277
7.94831 0.168078 -16.2197 0.281577 0.959379 -0.0162161
7.88751 0.210898 -15.0348 0.276939 0.96066 -0.0208956
8.01275 0.192837 -13.7611 0.270301 0.962671 -0.0141971
8.00303 0.207818 -12.5558 0.284345 0.958698 -0.00675554
8.01067 0.234705 -11.1754 0.281598 0.959299 -0.0211513
8.1104 0.23466 -9.55435 0.300898 0.95361 -0.00936349
8.2899 0.207257 -8.35213 0.303456 0.952078 -0.0381684
8.38152 0.21128 -7.13542 0.279318 0.96 -0.0195384
8.53408 0.200761 -5.71671 0.277608 0.960363 -0.0252456
8.64113 0.189256 -4.53584 0.283228 0.958474 -0.0307445
8.61802 0.218511 -3.35776 0.268503 0.963193 -0.012822
7.52579 0.523267 -3.29628 0.265056 0.964105 -0.0151721
6.40078 0.785598 -3.49257 0.225906 0.973859 -0.0237886
4.83217 1.09609 -3.67481 0.175327 0.984442 -0.0113508
3.64961 1.25415 -3.49785 0.0855973 0.996317 -0.00342549
2.41466 1.32968 -2.97649 0.0455663 0.998958 0.00258608
1.37037 1.34873 -2.28384 0.000647341 0.99935 0.0106996
0.0911071 1.26287 -1.52017 -0.0736853 0.997135 0.0171172
0.31431 1.3094 -2.95909 -0.0616382 0.997623 0.0307945
0.396048 1.33398 -4.27454 -0.0294961 0.999451 -0.00456079
0.226168 1.34337 -5.89935 -0.0409044 0.999114 0.00988356
-0.17423 1.33013 -7.0175 -0.0637669 0.997872 -0.0135894
-0.74575 1.28202 -8.13943 -0.0823949 0.996423 -0.0033727
-0.841253 1.2728 -8.3494 -0.0897819 0.995407 0.0332421
-3.50214 1.02507 -15.5393 -0.176271 0.984288 0.0102798
-2.6881 1.18887 -16.3827 -0.16246 0.98497 0.0586653
-2.2653 1.27666 -16.8169 -0.12513 0.991485 0.036068
-0.813637 1.42647 -16.9921 -0.0671289 0.997712 0.00799039
-1.61612 1.33419 -16.1777 -0.100218 0.994492 0.0306985
-2.68195 1.15363 -15.0843 -0.158958 0.98725 0.0083488
-2.87523 1.12313 -14.8856 -0.161545 0.986849 -0.00565375
-2.23952 1.22087 -14.2402 -0.140017 0.989908 0.0218475
-1.23604 1.34248 -15.2644 -0.110624 0.993736 0.0158624
-0.347965 1.44252 -16.165 -0.0436069 0.998669 0.0275497
0.38753 1.46711 -16.9058 -0.025923 0.999664 -0.000452327
1.84271 1.43801 -17.0777 0.0614169 0.997772 0.0260588
0.92958 1.45101 -16.1562 0.035033 0.999115 0.0232658
0.140789 1.44022 -15.3609 0.00636322 0.999796 0.0191487
-0.959637 1.36465 -14.2465 -0.0876145 0.996132 0.0067526
-1.43576 1.3202 -13.7631 -0.115581 0.993077 0.020948
-0.538055 1.38984 -13.3765 -0.0611149 0.997978 0.0174325
0.25513 1.41919 -14.1787 -0.00885775 0.999806 -0.0175729
1.11693 1.42071 -15.0486 0.0220486 0.999605 0.0174066
2.18676 1.38733 -16.1306 0.0687819 0.997237 0.0280686
2.87466 1.34234 -16.8286 0.138556 0.99017 0.0190957
3.90154 1.1858 -16.5844 0.146378 0.989226 0.00211488
2.91114 1.30943 -15.5698 0.112707 0.993567 -0.010989
2.0266 1.37545 -14.6713 0.0801206 0.996783 0.00200168
1.19052 1.42056 -13.8253 0.0129291 0.999833 -0.0129081
0.391023 1.43643 -13.018 -0.0243322 0.999633 0.0119022
0.00853911 1.40103 -12.6312 -0.058299 0.997731 0.0336761
0.860556 1.43709 -12.194 -0.0122988 0.999599 0.0254908
1.80327 1.40061 -13.1464 0.0602945 0.998178 0.00249157
2.94486 1.30932 -14.3042 0.0770688 0.996939 -0.0131872
3.8451 1.17899 -15.229 0.172035 0.985017 0.0120523
4.303 1.10403 -15.7016 0.186109 0.982524 -0.00319254
4.89817 0.991636 -15.0186 0.205977 0.978553 0.00272526
4.01346 1.15154 -14.1019 0.159069 0.987253 0.00528712
3.20727 1.27183 -13.2746 0.122647 0.99237 0.0126211
2.29779 1.3663 -12.3484 0.0700753 0.997397 0.0169963
1.35894 1.39399 -11.4005 0.0368932 0.998836 0.0310772
1.28723 1.39439 -11.3282 0.0306234 0.99947 0.0110192
1.76137 1.38988 -10.511 0.0302147 0.999533 0.00446289
2.57612 1.32904 -11.3346 0.0850355 0.996044 -0.0257915
3.45715 1.2378 -12.231 0.119129 0.992865 -0.00519713
4.23446 1.11839 -13.031 0.160411 0.98701 -0.00886725
4.94963 0.978086 -13.7731 0.1922 0.980834 -0.0320033
5.07245 0.967822 -12.5984 0.210637 0.97753 -0.00818263
4.17947 1.13245 -11.6733 0.142912 0.989613 -0.0155777
3.33622 1.25827 -10.8096 0.101548 0.994826 0.00316407
2.24879 1.3463 -9.70879 0.0685005 0.997651 0.000658565
2.17681 1.35119 -9.63593 0.0685004 0.997651 0.000658482
2.48262 1.32165 -8.64891 0.0585562 0.998184 0.0141541
3.38973 1.25035 -9.56847 0.0979073 0.995178 -0.00583682
4.20712 1.14818 -10.401 0.139693 0.990088 -0.0145166
4.94155 1.00747 -11.1616 0.185125 0.982714 -0.00120746
5.1533 0.981045 -10.0813 0.196915 0.980351 -0.0116488
4.16898 1.16506 -9.06431 0.177191 0.984148 0.00748511
3.31553 1.25985 -8.19503 0.0729842 0.997207 0.015859
3.00504 1.27759 -7.88134 0.0738464 0.997258 0.00488095
3.26515 1.25975 -6.84881 0.0868452 0.996206 0.00562658
4.19104 1.15522 -7.79027 0.163581 0.986432 -0.0139059
5.05526 1.003 -8.68084 0.175597 0.98445 0.00479308
5.37249 0.94801 -9.00782 0.175597 0.98445 0.00479304
5.23223 0.992901 -7.56111 0.154872 0.98734 -0.0342804
4.43313 1.11797 -6.74207 0.131932 0.991251 0.004045
4.33056 1.13202 -6.63734 0.129561 0.991552 -0.00616359
-1.39927 1.08851 8.21211 -0.166197 0.98586 -0.0213935
-2.25904 0.949537 9.10009 -0.193707 0.980885 -0.0185107
-2.37784 0.928126 9.22345 -0.199058 0.979931 -0.0105535
-2.35509 0.940561 10.4996 -0.180163 0.983593 -0.00930421
-1.42162 1.10759 9.53294 -0.167171 0.985893 -0.00829252
-0.578077 1.23178 8.66541 -0.124607 0.992122 -0.0128956
0.15513 1.33075 9.21473 -0.122775 0.992419 -0.00551073
-0.808788 1.20098 10.202 -0.147032 0.988947 0.019127
-1.66429 1.07059 11.0831 -0.158127 0.987407 -0.00491044
-2.32205 0.951257 11.7665 -0.183991 0.982928 0.00080337
-2.55754 0.93082 13.3113 -0.222742 0.974667 -0.0202661
-1.57004 1.10483 12.2841 -0.169937 0.985143 -0.024775
-0.711909 1.20735 11.404 -0.144264 0.989414 -0.015761
0.162448 1.32748 10.5073 -0.103262 0.99465 0.00282169
1.11085 1.38533 9.54555 -0.0340794 0.999399 -0.0063698
1.79453 1.40413 10.1533 -0.00593417 0.99998 -0.00237582
0.743228 1.38353 11.2155 -0.0527809 0.998567 -0.00879292
-0.184545 1.29143 12.1629 -0.12041 0.992419 -0.0246072
-1.08077 1.19624 13.0798 -0.134956 0.990473 -0.0273839
-2.04889 1.05001 14.0789 -0.196969 0.980382 -0.00743085
-2.67419 0.915974 14.7347 -0.218973 0.97573 0.0010616
-2.63326 0.930397 15.9936 -0.213058 0.976754 -0.0236121
-1.61564 1.12763 14.9315 -0.160725 0.986996 0.00271196
-0.580749 1.28363 13.8658 -0.127948 0.991648 -0.0162594
0.384469 1.37208 12.8818 -0.0740562 0.99725 -0.00300071
1.25396 1.41295 11.9991 -0.0267676 0.999382 -0.0227928
2.30469 1.41836 10.9366 0.0144703 0.999878 -0.00584436
2.41796 1.41391 10.8221 0.0441409 0.999014 0.0048067
3.32498 1.37198 11.2042 0.114579 0.993405 -0.00431919
2.44003 1.40908 12.0988 0.0294309 0.999495 0.0119584
1.49054 1.43523 13.0605 -0.0229525 0.999722 -0.00547638
0.577377 1.39399 13.9863 -0.0652292 0.997302 -0.0336593
-0.346292 1.32081 14.9252 -0.131617 0.991297 0.00257209
-1.28337 1.18921 15.8884 -0.154552 0.987974 -0.00450361
-2.06257 1.06433 16.6947 -0.181287 0.983418 -0.00495917
-0.984169 1.2461 16.8791 -0.120754 0.99266 -0.00665707
-0.0617611 1.35939 15.9346 -0.124655 0.9922 0.0010118
0.822821 1.43311 15.0344 -0.0513152 0.998673 0.00431317
1.75267 1.44089 14.0955 0.00512473 0.999971 -0.00560484
2.6748 1.41793 13.1625 0.0447663 0.99884 -0.0177151
3.59422 1.34271 12.228 0.0720568 0.997244 -0.0176942
4.24993 1.27024 11.5597 0.115343 0.993199 -0.0158667
5.32359 1.10912 11.754 0.178428 0.983425 -0.0322256
4.41066 1.25734 12.6945 0.153407 0.988154 0.00427117
3.53269 1.36251 13.592 0.0681524 0.997672 -0.00245019
2.68834 1.41226 14.4477 0.0524381 0.998599 -0.00711683
1.60163 1.4705 15.5459 0.0164827 0.99965 -0.0206721
0.67714 1.43457 16.4834 -0.0761936 0.997093 -0.000655119
0.183688 1.37884 16.9858 -0.102828 0.994654 0.009482
1.27896 1.45111 17.1745 -0.0335038 0.999407 0.00792492
2.18649 1.47056 16.2572 0.00655136 0.999965 -0.00527226
3.34013 1.38305 15.0871 0.0914887 0.995788 -0.00600165
4.21262 1.28471 14.1985 0.106875 0.994269 -0.00249703
5.04532 1.15601 13.342 0.155773 0.987764 -0.00756479
6.02801 0.964278 12.3185 0.221599 0.97512 -0.00589048
6.13553 0.939157 12.2052 0.221599 0.97512 -0.00589053
6.11925 0.954704 13.5276 0.216825 0.976052 -0.0175995
5.04386 1.17664 14.6472 0.174327 0.984405 -0.023616
3.92937 1.33841 15.7895 0.114345 0.993423 -0.00599742
3.01842 1.42667 16.716 0.0770169 0.996998 -0.00791863
2.58193 1.46096 17.1578 0.0349706 0.999362 0.00724847
3.98821 1.32165 17.0285 0.155092 0.987899 0.00155567
4.88925 1.19273 16.1049 0.187294 0.981954 0.0262077
5.79121 1.02706 15.1701 0.221397 0.975124 0.0107845
6.17357 0.945306 14.7715 0.23201 0.972679 0.00815601
6.13748 0.941106 16.1074 0.215191 0.976515 0.0105658
5.23058 1.11205 17.0492 0.197762 0.980198 0.010096
