-1.99248 23.613 -20.017 0.0581852 -0.998301 -0.00297599
-1.50201 23.6344 -20.2576 0.0195472 -0.999806 -0.00239747
-0.860427 23.6275 -20.2518 -0.0479253 -0.998492 -0.0175091
-0.263087 23.5816 -20.2927 -0.119087 -0.99235 -0.032549
0.16899 23.5208 -20.0304 -0.16161 -0.986851 0.00256008
0.549482 23.4474 -20.0489 -0.208191 -0.978088 0.00110764
0.952513 23.3513 -20.3063 -0.269069 -0.96298 -0.0150481
1.49038 23.2021 -20.2457 -0.280264 -0.95978 -0.00120853
2.05948 23.0216 -20.2299 -0.329603 -0.944031 0.0129464
2.62602 22.8168 -20.2134 -0.352128 -0.935751 0.0194109
3.16038 22.5999 -20.1994 -0.402461 -0.915351 0.012551
3.66863 22.3609 -20.246 -0.45991 -0.887766 0.0188221
4.19367 22.0731 -20.3016 -0.50214 -0.864705 -0.011902
4.83575 21.6334 -20.2823 -0.594577 -0.802904 -0.0427125
5.32759 21.2522 -20.2925 -0.66622 -0.745071 -0.0319389
5.68931 20.9255 -20.1182 -0.682938 -0.729936 -0.0171269
5.42385 21.1618 -19.8227 -0.660336 -0.750878 -0.00332559
4.96286 21.5414 -19.7969 -0.606172 -0.795304 0.00682842
4.41175 21.9479 -19.8417 -0.553815 -0.831248 0.0182854
3.90735 22.242 -19.8408 -0.474415 -0.880251 0.00936418
3.34178 22.5243 -19.8959 -0.417692 -0.908389 0.00750822
2.80544 22.7553 -19.8516 -0.393212 -0.919442 0.00320199
2.36407 22.9239 -19.8669 -0.322193 -0.946407 0.0224889
1.71239 23.1363 -19.8455 -0.302766 -0.952921 0.0119966
1.01425 23.3354 -19.8796 -0.274167 -0.961613 0.0115364
0.50971 23.4561 -19.8353 -0.217302 -0.976021 -0.00560458
-0.0345307 23.5467 -19.8067 -0.127804 -0.991718 -0.0127317
-0.762808 23.6173 -19.8139 -0.0576957 -0.998284 0.009967
-1.48265 23.6336 -19.7244 -0.00764213 -0.999891 0.0115355
-1.91616 23.617 -19.845 0.0592187 -0.998234 0.0017424
-2.06253 23.6127 -19.3249 0.0553816 -0.998365 0.0141264
-1.49432 23.6401 -19.2861 0.0291965 -0.9993 0.021113
-0.904692 23.6278 -19.3147 -0.0303859 -0.998114 0.0533439
-0.35286 23.5969 -19.3204 -0.118429 -0.989724 0.0801281
0.248481 23.5218 -19.3556 -0.159433 -0.984117 0.06535
0.854859 23.3785 -19.3531 -0.23223 -0.97145 0.04851
1.392 23.2387 -19.3509 -0.268773 -0.962426 0.038683
2.03069 23.0477 -19.3924 -0.311759 -0.949177 0.0404114
2.57116 22.8606 -19.3708 -0.348023 -0.936911 0.0328387
3.08518 22.6564 -19.3419 -0.387681 -0.921072 0.034901
3.65366 22.3921 -19.3803 -0.445043 -0.894146 0.0493599
4.16382 22.1264 -19.3278 -0.498201 -0.864474 0.0669322
4.61934 21.8143 -19.3768 -0.590609 -0.803748 0.068371
5.13956 21.4117 -19.2767 -0.647264 -0.760874 0.0434332
5.69742 20.9191 -19.3568 -0.655309 -0.75444 0.0205763
6.05738 20.5735 -19.7653 -0.695004 -0.718963 0.00780826
6.08703 20.5447 -20.5005 -0.695311 -0.718602 -0.00921821
5.81003 20.8229 -20.779 -0.700682 -0.712835 -0.0301882
5.32835 21.2711 -20.7322 -0.666407 -0.74465 -0.0360938
4.87172 21.6325 -20.7932 -0.592509 -0.804737 -0.0364966
4.39574 21.955 -20.7762 -0.53517 -0.843827 -0.039357
3.77796 22.315 -20.7142 -0.46212 -0.884599 -0.0528003
3.17728 22.5969 -20.7334 -0.395329 -0.918246 -0.0232319
2.63914 22.8171 -20.7427 -0.358375 -0.933392 -0.0168264
2.08386 23.0159 -20.7477 -0.310704 -0.950404 -0.0110814
1.412 23.2266 -20.7461 -0.290389 -0.956877 -0.0078295
0.790067 23.4037 -20.7453 -0.246221 -0.968878 -0.0219812
0.2133 23.5228 -20.7355 -0.182098 -0.982098 -0.0459117
-0.427343 23.6112 -20.745 -0.0840334 -0.994438 -0.0635003
-1.0991 23.6484 -20.7526 -0.0433297 -0.997688 -0.0523657
-1.75662 23.6364 -20.7644 0.0465913 -0.998803 -0.0148757
-2.37878 23.594 -20.5611 0.0785924 -0.996779 -0.0159354
-2.55408 23.5716 -19.9254 0.0934131 -0.995625 -0.00233641
-2.30053 23.5981 -19.427 0.0741084 -0.996982 0.013479
-2.28123 23.5995 -19.4058 0.0553857 -0.998365 0.0141263
-2.35554 23.6058 -18.8471 0.0950824 -0.994892 0.0338943
-1.78458 23.6386 -18.8174 0.0549475 -0.997688 0.0393191
-1.20817 23.6602 -18.8439 0.00786954 -0.998154 0.0590061
-0.642124 23.6436 -18.8251 -0.0655325 -0.996125 0.058643
-0.043956 23.5963 -18.8684 -0.122052 -0.989059 0.0828631
0.606655 23.4725 -18.8126 -0.253486 -0.965213 0.0640988
1.19191 23.3109 -18.8815 -0.261506 -0.964551 0.0354479
1.72901 23.1592 -18.8243 -0.29714 -0.953219 0.0518993
2.26609 22.9925 -18.8529 -0.32012 -0.946005 0.0509713
2.8876 22.7591 -18.8428 -0.352957 -0.93485 0.037328
3.47743 22.5143 -18.8298 -0.401361 -0.913417 0.0675392
4.27742 22.0859 -18.8131 -0.521665 -0.850294 0.0694065
4.83925 21.6866 -18.8132 -0.63672 -0.76705 0.0788747
5.33533 21.2768 -18.8334 -0.649889 -0.746157 0.136208
5.76063 20.8819 -18.8306 -0.675254 -0.733723 0.0753824
6.19309 20.4614 -18.8517 -0.725251 -0.687872 0.0290386
6.40177 20.2325 -19.2467 -0.712999 -0.701165 -0.000181401
6.4237 20.2077 -19.8928 -0.708764 -0.705429 0.00379979
6.44665 20.1822 -20.4602 -0.711813 -0.702342 0.00607317
6.41428 20.2127 -21.0287 -0.728843 -0.684539 -0.013936
6.10844 20.542 -21.2734 -0.72116 -0.692445 -0.018393
5.68303 20.9695 -21.277 -0.689301 -0.723283 -0.0396007
5.25273 21.3625 -21.2277 -0.639536 -0.766557 -0.0478121
4.82003 21.7042 -21.2832 -0.582156 -0.804565 -0.117343
4.32401 22.03 -21.2854 -0.527765 -0.845595 -0.0742313
3.85379 22.3131 -21.2635 -0.468743 -0.875859 -0.0912457
3.3242 22.5589 -21.282 -0.400808 -0.914944 -0.0472287
2.80792 22.7684 -21.2643 -0.355342 -0.934124 -0.0338307
2.25799 22.9712 -21.2278 -0.306336 -0.95076 -0.0323574
1.61523 23.1686 -21.2367 -0.292107 -0.956368 -0.00541326
1.00746 23.3622 -21.2144 -0.304098 -0.950707 -0.0488384
0.459798 23.5016 -21.2123 -0.19 -0.979539 -0.0663536
-0.187661 23.6204 -21.2202 -0.13427 -0.98673 -0.0912964
-0.790846 23.6647 -21.2351 -0.0509954 -0.992888 -0.10758
-1.44762 23.6675 -21.2621 0.0181315 -0.998638 -0.0489262
-2.05597 23.6376 -21.2667 0.0705648 -0.996415 -0.046663
-2.67197 23.5827 -21.2292 0.0955916 -0.995225 -0.0197094
-2.87613 23.5552 -20.7315 0.0872107 -0.996006 -0.0191596
-3.0569 23.5175 -20.0816 0.122203 -0.992072 -0.012765
-2.94615 23.5364 -19.4255 0.102238 -0.994751 0.0042171
-2.64144 23.578 -18.8602 0.0950823 -0.994892 0.0338909
