9.49251 19.6482 8.15414 0.780779 0.618373 0.0847853
9.57794 19.4792 9.41149 0.79343 0.608607 0.00816573
9.54664 19.5107 10.6522 0.799628 0.600467 -0.0050807
9.59807 19.4787 11.8212 0.789006 0.6142 -0.0138597
9.37353 19.8496 12.9509 0.792509 0.604418 -0.0812892
8.80108 20.7108 13.7514 0.789771 0.60902 -0.0730226
8.13162 21.6007 14.4435 0.753955 0.652874 -0.0728583
7.37581 22.4587 15.2168 0.693107 0.71787 -0.0653143
6.58147 23.1893 15.3323 0.664055 0.744564 -0.0682284
6.33457 23.3979 14.0405 0.654882 0.755273 0.0263163
6.42875 23.3779 12.8754 0.627211 0.77736 0.0481431
6.51489 23.3838 11.5335 0.612238 0.790113 0.0277056
6.53347 23.3838 11.2391 0.610595 0.791011 0.0384019
-17.5434 9.56923 -16.7746 -0.637956 0.769953 0.0136099
-17.4103 9.68363 -17.0039 -0.647342 0.762053 0.0149686
-17.0034 10.0189 -16.1618 -0.65613 0.754443 0.0175742
-16.4419 10.5345 -17.1687 -0.66244 0.748999 0.0132097
-16.3344 10.6331 -17.3639 -0.66244 0.748998 0.0132118
-15.5559 11.3558 -17.2407 -0.687077 0.726505 0.0107384
-16.2076 10.7141 -16.0152 -0.663796 0.747642 0.0201319
-16.4323 10.4999 -15.6045 -0.658918 0.751853 0.0233265
-16.1581 10.7193 -14.5243 -0.666797 0.745133 0.0126356
-15.6324 11.2205 -15.4886 -0.693728 0.719689 0.0281
-15.1683 11.6997 -16.3862 -0.703466 0.710133 0.0291107
-14.659 12.2541 -17.4248 -0.710409 0.703537 0.0188113
-13.8137 13.1506 -17.5632 -0.732503 0.680352 0.0236871
-14.2867 12.608 -16.5603 -0.72406 0.68877 0.0365167
-14.7611 12.0765 -15.5844 -0.714258 0.698925 0.0366011
-15.2286 11.5743 -14.6589 -0.691453 0.721724 0.0317179
-15.7295 11.075 -13.7167 -0.664358 0.746703 0.0326209
-15.3593 11.3581 -12.7932 -0.681924 0.730363 0.0393669
-14.7537 11.9949 -13.9618 -0.687695 0.725048 0.0371709
-14.3109 12.4929 -14.862 -0.707928 0.704531 0.0497427
-13.8423 13.0377 -15.8445 -0.723871 0.689006 0.0358075
-13.3492 13.6352 -16.9221 -0.757092 0.652093 0.0398298
-13.0483 14.0336 -17.6327 -0.758754 0.6498 0.045303
-12.3169 14.9159 -17.6665 -0.773889 0.631563 0.0471576
-12.7037 14.3746 -16.7186 -0.768876 0.637287 0.0519123
-13.1017 13.8428 -15.7892 -0.751155 0.658501 0.046279
-13.634 13.1765 -14.6169 -0.725272 0.686171 0.0561277
-14.1164 12.6015 -13.5989 -0.709396 0.703283 0.0463683
-14.6937 11.9699 -12.4543 -0.700034 0.712986 0.0400336
-15.1058 11.5376 -11.6645 -0.676146 0.735683 0.0399554
-14.8389 11.7085 -10.5544 -0.671818 0.738701 0.0546088
-14.2549 12.3495 -11.6919 -0.694655 0.717142 0.0562299
-13.7026 12.9728 -12.8 -0.722763 0.690094 0.0372037
-13.2465 13.5156 -13.7584 -0.733828 0.676639 0.0604675
-12.7431 14.1815 -14.9037 -0.74957 0.65963 0.0550661
-12.3563 14.7205 -15.8223 -0.760116 0.646021 0.0698618
-11.9774 15.2633 -16.7537 -0.793095 0.60682 0.0526386
-11.628 15.8151 -17.694 -0.796514 0.601041 0.0656892
-10.947 16.7654 -17.7647 -0.815716 0.57506 0.0625509
-11.2739 16.1889 -16.8121 -0.803753 0.588853 0.085049
-11.6336 15.6037 -15.8484 -0.780822 0.620384 0.0737653
-12.0072 15.0317 -14.8986 -0.77528 0.626732 0.0784103
-12.3891 14.5017 -14.0014 -0.749273 0.658569 0.0698267
-12.838 13.887 -12.9617 -0.738377 0.670189 0.0751411
-13.3209 13.292 -11.9394 -0.708741 0.702657 0.0629204
-13.8655 12.6592 -10.8322 -0.69412 0.717792 0.0545064
-14.3972 12.0558 -9.77737 -0.681633 0.72775 0.0758661
-14.8172 11.6036 -8.96838 -0.662979 0.745973 0.0631186
-14.0501 12.2832 -8.80248 -0.68169 0.728136 0.0715308
-14.5178 11.787 -7.90568 -0.665435 0.744348 0.0560525
-15.104 11.1846 -6.78557 -0.654836 0.753071 0.0638357
-15.7696 10.5298 -5.56965 -0.632929 0.77203 0.0580549
-16.3085 10.0193 -4.61109 -0.621024 0.781974 0.0533476
-16.9152 9.47243 -3.55645 -0.615319 0.786337 0.055282
-17.6044 8.87379 -2.39302 -0.598407 0.799776 0.0476134
-18.2505 8.3478 -1.317 -0.584774 0.810392 0.0361055
-27.8244 2.00574 8.54112 -0.495598 0.868444 0.0137179
-28.3126 1.716 9.20877 -0.497136 0.867522 0.0161586
-28.349 1.66705 10.7135 -0.496661 0.867802 0.0157379
-27.3859 2.24491 9.39515 -0.501219 0.865238 0.0119251
-26.7397 2.63417 8.50204 -0.508728 0.860833 0.0127434
-25.5805 3.32464 8.34075 -0.512673 0.858461 0.0145118
-26.3853 2.82802 9.4754 -0.507343 0.86165 0.0127143
-27.1888 2.34141 10.5813 -0.5031 0.864127 0.0132444
-28.1125 1.78766 11.8424 -0.500456 0.865664 0.0130238
-28.2361 1.71353 12.0105 -0.500285 0.865754 0.0135841
-28.1203 1.76008 13.3102 -0.498421 0.866848 0.0123085
-27.3327 2.23251 12.2381 -0.50185 0.864838 0.0141926
-26.5396 2.7107 11.149 -0.504419 0.863346 0.0139825
-25.6666 3.24705 9.93985 -0.512962 0.858283 0.0148701
-24.8893 3.72967 8.83622 -0.517669 0.855458 0.0145081
-24.1331 4.20688 7.74018 -0.521379 0.853181 0.0156727
-10.4204 17.4678 -17.398 -0.816883 0.568928 0.0949899
-10.8996 16.5902 -16.0069 -0.796547 0.597674 0.0910993
-11.4823 15.608 -14.4297 -0.767804 0.635939 0.0778427
-12.0672 14.7527 -13.0137 -0.747022 0.659681 0.0823418
-12.305 14.418 -12.4598 -0.738378 0.670188 0.0751405
-11.0923 15.9727 -13.6251 -0.773222 0.627891 0.088777
-10.589 16.8229 -14.997 -0.788556 0.607484 0.0956135
-10.0528 17.8375 -16.5508 -0.803548 0.583679 0.116742
-9.56612 18.3911 -16.0386 -0.784357 0.603373 0.143963
-10.0025 17.5434 -14.7472 -0.789174 0.602029 0.121514
-10.2511 17.0865 -14.0239 -0.778227 0.617846 0.112381
-9.38448 18.2866 -14.5449 -0.775955 0.615701 0.137135
-9.08708 18.8603 -15.4228 -0.768286 0.621555 0.152993
-28.0386 1.79001 14.6582 -0.496726 0.867858 0.00929138
-27.388 2.17597 13.7751 -0.501404 0.865119 0.0127798
-26.5817 2.66285 12.6707 -0.503115 0.864109 0.01381
-25.8784 3.0891 11.6997 -0.506228 0.862265 0.0152758
-25.1552 3.53982 10.693 -0.514956 0.857111 0.0134893
-24.5246 3.93448 9.79993 -0.517129 0.855796 0.0138135
-23.7955 4.39533 8.75162 -0.524536 0.851259 0.0148635
-23.0171 4.8957 7.61798 -0.528212 0.849025 0.0121828
-22.1815 5.44122 6.38399 -0.539649 0.841757 0.0149846
-21.3477 6.00003 5.14265 -0.539841 0.841564 0.018491
-20.6676 6.46941 4.10035 -0.551815 0.833583 0.0252819
-20.1067 6.87202 3.22177 -0.557695 0.829767 0.0215116
-19.4154 7.37537 2.11836 -0.564597 0.824928 0.0268905
-18.7562 7.87595 1.07422 -0.57667 0.816084 0.0381884
-18.1991 8.31562 0.166219 -0.582566 0.811883 0.0382405
-17.5733 8.81873 -0.859053 -0.593404 0.803868 0.0408388
-16.9337 9.35496 -1.93924 -0.606936 0.793416 0.0460345
-16.4158 9.80685 -2.82642 -0.619145 0.783146 0.0578067
-15.889 10.2946 -3.75609 -0.621784 0.781367 0.0533907
-15.2231 10.9304 -4.93896 -0.632844 0.771387 0.0668726
-14.69 11.4731 -5.93281 -0.649308 0.757981 0.062157
-14.0647 12.1346 -7.13587 -0.66098 0.747977 0.0603062
-14.0407 12.159 -7.18163 -0.665435 0.744348 0.0560528
-13.9671 12.0924 -5.68486 -0.663637 0.745 0.0675332
-14.5361 11.4855 -4.59512 -0.651068 0.754572 0.082051
-15.1484 10.8717 -3.46817 -0.639111 0.767103 0.0555963
-15.6422 10.4076 -2.59052 -0.622993 0.779971 0.0593675
-16.2875 9.82186 -1.45468 -0.61341 0.788384 0.0466825
-16.8931 9.29956 -0.419379 -0.600584 0.798234 0.0460625
-17.63 8.69216 0.795165 -0.586055 0.80913 0.0429843
-18.3226 8.14575 1.9269 -0.578963 0.814624 0.0344817
-18.9607 7.6595 2.94984 -0.567336 0.822993 0.0284981
-19.5206 7.25128 3.8483 -0.562108 0.826604 0.0275591
-20.3019 6.68276 5.08396 -0.55778 0.82945 0.0298812
-20.949 6.23739 6.05762 -0.54234 0.839986 0.0170638
-21.5797 5.81554 6.99869 -0.539577 0.841786 0.0159012
-22.2758 5.35218 8.03381 -0.538437 0.842555 0.0136329
-23.1173 4.80437 9.26618 -0.531479 0.846954 0.0141315
-23.9418 4.2783 10.4545 -0.525931 0.850423 0.0133282
-24.5739 3.87958 11.3489 -0.516229 0.856335 0.0140764
-25.3364 3.40253 12.4153 -0.51427 0.857557 0.0111173
-26.054 2.96082 13.4108 -0.508985 0.860667 0.0136901
-26.9244 2.4358 14.6021 -0.503121 0.864187 0.00712095
-27.5993 2.03561 15.5181 -0.502663 0.864449 0.00761536
-27.8593 1.88107 15.8739 -0.503012 0.864233 0.00893088
-26.9341 2.41751 16.0675 -0.505269 0.862926 0.00791543
-26.3167 2.78504 15.2236 -0.503933 0.863741 0.0016758
-25.61 3.21191 14.265 -0.515087 0.857118 0.00585112
-24.9563 3.61669 13.3583 -0.514217 0.857558 0.0132431
-24.3459 3.99901 12.5052 -0.517024 0.855887 0.0119568
-23.5615 4.49569 11.398 -0.523818 0.851697 0.0150357
-22.8179 4.97889 10.3301 -0.531201 0.847152 0.0125996
-22.1792 5.3927 9.3989 -0.535679 0.844331 0.0123741
-21.5017 5.84135 8.39681 -0.538952 0.842238 0.0128816
-20.89 6.2495 7.48466 -0.541568 0.840533 0.0144384
-20.1384 6.75771 6.3561 -0.550561 0.834697 0.0127722
-19.5759 7.15485 5.50327 -0.557289 0.829689 0.0323314
-18.9622 7.60679 4.5261 -0.562237 0.826442 0.0297218
-18.2518 8.13821 3.37063 -0.570453 0.820687 0.03251
-17.5992 8.64162 2.30687 -0.575337 0.816941 0.0399271
-17.0178 9.10935 1.35546 -0.588505 0.80712 0.0471058
-16.4858 9.55509 0.473854 -0.594482 0.802349 0.0531741
-15.951 10.0193 -0.440461 -0.613525 0.788035 0.0508669
-15.4179 10.4974 -1.37696 -0.624135 0.779286 0.0562953
-14.8395 11.051 -2.4255 -0.63355 0.771549 0.0576778
-14.2681 11.6072 -3.4699 -0.649448 0.757847 0.0623263
-13.588 12.3355 -4.77167 -0.661503 0.745648 0.0801355
-13.3336 12.6162 -5.2723 -0.670837 0.736601 0.0859991
-12.8739 12.9486 -4.53302 -0.670838 0.736601 0.0859988
-13.3303 12.4399 -3.62519 -0.663829 0.743105 0.0844173
-13.823 11.9212 -2.68212 -0.647388 0.759273 0.0662871
-14.3666 11.3848 -1.67727 -0.640634 0.765641 0.0581546
-14.8929 10.8803 -0.713117 -0.634941 0.770539 0.0558547
-15.4953 10.3214 0.363459 -0.613522 0.787836 0.0539009
-16.0263 9.84603 1.28581 -0.598134 0.799868 0.0494754
-16.5431 9.41005 2.14855 -0.58626 0.809145 0.039782
-17.0905 8.97014 3.03969 -0.585328 0.809836 0.0394588
-17.6258 8.55388 3.92185 -0.57201 0.819749 0.0285561
-18.2733 8.06512 4.98381 -0.571953 0.819793 0.028449
-18.829 7.64883 5.88 -0.567319 0.822774 0.0345317
-19.3897 7.24771 6.74523 -0.556839 0.830522 0.0127796
-20.0835 6.76797 7.79652 -0.552329 0.833459 0.0166937
-20.7058 6.34756 8.72967 -0.541155 0.840818 0.0132968
-21.4136 5.87742 9.77654 -0.539856 0.841683 0.0111559
-22.0044 5.48725 10.6463 -0.538673 0.842452 0.0102716
-22.5991 5.09743 11.5051 -0.535655 0.844366 0.010911
-23.41 4.57397 12.6604 -0.528515 0.848876 0.00906608
-24.2039 4.06713 13.7812 -0.522965 0.852273 0.0117797
-24.9102 3.62913 14.7607 -0.515874 0.856645 0.00573415
-25.6369 3.18527 15.7535 -0.514072 0.857723 0.00636378
-26.0526 2.93338 16.3196 -0.507311 0.861746 0.00538769
-25.3329 3.36041 16.8039 -0.514173 0.857674 0.00467451
-24.6822 3.75652 15.9183 -0.51538 0.856929 0.00752137
-24.011 4.1705 14.9909 -0.525009 0.851059 0.00797288
-23.4071 4.55436 14.1421 -0.529723 0.848115 0.00972692
-22.7597 4.97329 13.2203 -0.530965 0.847303 0.0124297
-22.1621 5.36249 12.3637 -0.534687 0.844957 0.0125364
-21.3206 5.91943 11.1439 -0.540129 0.841525 0.00987278
-20.6266 6.3765 10.1238 -0.537912 0.842935 0.0105313
-19.9102 6.85525 9.06194 -0.545999 0.837645 0.0153242
-19.3058 7.27505 8.14005 -0.552889 0.833039 0.0189498
-18.7424 7.67372 7.28768 -0.57056 0.821028 0.019341
-18.1937 8.08081 6.41924 -0.575665 0.817483 0.0181982
-17.4858 8.61388 5.27444 -0.580854 0.813783 0.0191518
-16.8565 9.09659 4.23162 -0.585747 0.810078 0.0259625
-16.3099 9.52693 3.3212 -0.596463 0.802407 0.0193403
-15.779 9.95839 2.45674 -0.59545 0.802134 0.0449554
-15.2473 10.4317 1.53175 -0.613839 0.787595 0.0538219
-14.6345 11.0078 0.433532 -0.629879 0.774309 0.0608112
-14.1133 11.5121 -0.521516 -0.637547 0.768078 0.0599098
-13.5807 12.0314 -1.50933 -0.641842 0.764441 0.0605761
-13.0516 12.5794 -2.52532 -0.661338 0.747303 0.0645756
-12.4562 13.2343 -3.71209 -0.66764 0.739958 0.0819696
-12.4227 13.272 -3.77942 -0.671566 0.735945 0.0859378
-11.6978 13.9164 -3.56774 -0.678038 0.729757 0.0878595
-12.238 13.3071 -2.48995 -0.671858 0.737537 0.068165
-12.7065 12.8036 -1.56189 -0.656336 0.751464 0.0672673
-13.1806 12.2998 -0.629508 -0.649073 0.757571 0.0692078
-13.7242 11.7577 0.388593 -0.63464 0.770299 0.0622272
-14.2275 11.2738 1.31115 -0.634195 0.770992 0.0580343
-14.7199 10.8136 2.19844 -0.630317 0.774959 0.0462489
-15.3538 10.2501 3.30176 -0.61975 0.784432 0.0240012
-16.0541 9.68348 4.47095 -0.596909 0.801788 0.0289113
-16.6667 9.20092 5.50182 -0.589541 0.807483 0.0203216
-17.2794 8.72896 6.50602 -0.575167 0.817616 0.0262286
-18.0012 8.18555 7.65797 -0.574027 0.818454 0.0250265
-18.6888 7.67963 8.72755 -0.563861 0.825637 0.019606
-19.2682 7.27391 9.61302 -0.561365 0.827529 0.00807206
-19.8534 6.87694 10.4882 -0.545661 0.837987 0.0056746
-20.6439 6.35072 11.6576 -0.547336 0.836862 0.00920776
-21.2289 5.95974 12.5107 -0.544862 0.838467 0.00987836
-21.854 5.54762 13.4124 -0.540577 0.841273 0.00598093
-22.5794 5.07157 14.4559 -0.535633 0.844405 0.00884893
-23.193 4.67522 15.3247 -0.533228 0.845942 0.00709164
-23.9218 4.21666 16.3408 -0.522102 0.852864 0.00573081
-24.2655 4.00352 16.8165 -0.52065 0.853763 0.00364154
-23.4806 4.48172 17.2054 -0.52503 0.851082 0.00176851
-22.8435 4.8858 16.3147 -0.53748 0.843258 0.00561617
-22.1725 5.32098 15.3664 -0.539723 0.841826 0.00533879
-21.4729 5.78068 14.3655 -0.544239 0.838883 0.00889193
-20.7353 6.27345 13.2909 -0.548267 0.836247 0.00972653
-20.052 6.73169 12.294 -0.547744 0.836609 0.00788627
-19.3457 7.20852 11.2575 -0.5544 0.832238 0.00455424
-18.608 7.71652 10.1355 -0.564753 0.825164 0.0125799
-17.8536 8.25486 8.97312 -0.575622 0.817628 0.0120088
-17.2039 8.7428 7.94098 -0.581553 0.813109 0.0254879
-16.6204 9.18494 7.00433 -0.587659 0.80884 0.0208461
-16.0848 9.60435 6.12016 -0.591362 0.805942 0.0273393
-15.4876 10.089 5.10234 -0.605953 0.795032 0.0272897
-14.9654 10.5234 4.20831 -0.610607 0.791163 0.0349253
-14.3074 11.0932 3.07508 -0.62516 0.779429 0.0408014
-13.7587 11.6097 2.06975 -0.641601 0.765463 0.0491349
-13.2207 12.1288 1.07652 -0.644507 0.76251 0.0564721
-12.7213 12.6263 0.140481 -0.653754 0.754262 0.0607864
-12.1341 13.2519 -1.01579 -0.660156 0.747542 0.0733171
-11.6811 13.7606 -1.92946 -0.670156 0.73872 0.0720049
-11.2142 14.2867 -2.85879 -0.689907 0.719644 0.0783664
-11.0961 14.4337 -3.11605 -0.700978 0.707974 0.0860351
-10.5083 14.9646 -2.68659 -0.700389 0.708836 0.0837017
-10.9628 14.4012 -1.69975 -0.68748 0.721896 0.0789786
-11.4243 13.8724 -0.763249 -0.677468 0.731021 0.0815207
-11.8706 13.3823 0.133113 -0.669166 0.740863 0.0577787
-12.4583 12.7638 1.27798 -0.660252 0.748041 0.0670891
-13.0215 12.2117 2.32975 -0.644131 0.763411 0.0479511
-13.5879 11.6631 3.3882 -0.636911 0.768822 0.0570602
-14.2294 11.0801 4.53237 -0.62313 0.781326 0.0351841
-14.7593 10.632 5.45225 -0.614066 0.788636 0.0312449
-15.4797 10.0344 6.69723 -0.599985 0.799517 0.028114
-16.0059 9.61926 7.57304 -0.590058 0.807124 0.0195371
-16.706 9.08247 8.70313 -0.585147 0.810754 0.0167985
-17.2571 8.67075 9.58011 -0.579876 0.81455 0.0158988
-17.8048 8.26559 10.4409 -0.573714 0.818925 0.0146167
-18.4998 7.77448 11.5116 -0.561172 0.827634 0.0104165
-19.1641 7.3166 12.4985 -0.552344 0.833576 0.00821163
-19.8974 6.81902 13.5796 -0.550665 0.834649 0.0113777
-20.5174 6.40192 14.486 -0.547701 0.836619 0.00961397
-21.1443 5.98369 15.3904 -0.543354 0.839463 0.0082516
-21.8163 5.54235 16.3468 -0.539816 0.841756 0.00674631
-22.5029 5.09516 17.3171 -0.537759 0.843064 0.00761217
-22.5739 5.04898 17.4171 -0.537758 0.843065 0.0076122
-21.6758 5.61947 17.6404 -0.539812 0.841726 0.00997267
-21.0848 6.00713 16.8045 -0.541376 0.840741 0.00822182
-20.4328 6.43947 15.8738 -0.543338 0.839468 0.00879978
-19.6187 6.99227 14.6866 -0.558817 0.829275 0.00518188
-18.7848 7.56585 13.4529 -0.562316 0.826908 0.00493026
-18.1844 7.97946 12.5511 -0.56244 0.826832 0.00306491
-17.5331 8.4411 11.5626 -0.573847 0.818926 0.00771657
-16.9625 8.8528 10.6746 -0.584212 0.811466 0.0147914
-16.2046 9.42753 9.4662 -0.584392 0.811206 0.0207451
-15.6698 9.83787 8.60007 -0.591748 0.805832 0.0216517
-15.1131 10.292 7.66165 -0.611307 0.790811 0.0303518
-14.5736 10.7389 6.73359 -0.618179 0.7858 0.0193162
-14.0456 11.1795 5.8125 -0.619273 0.784853 0.0224944
-13.4889 11.6734 4.81362 -0.635453 0.771161 0.0388523
-12.9088 12.2044 3.76436 -0.647231 0.760947 0.0452933
-12.3864 12.7215 2.77583 -0.651528 0.757209 0.0463192
-11.8456 13.2646 1.73943 -0.662119 0.747384 0.0549261
-11.4014 13.7439 0.862351 -0.667991 0.740195 0.0768079
-10.9565 14.2355 -0.0322299 -0.688122 0.722245 0.0696358
-10.5234 14.7499 -0.948743 -0.699584 0.710293 0.0778844
-10.0385 15.3495 -1.99789 -0.704701 0.704451 0.0845341
-9.85357 15.5831 -2.40266 -0.708356 0.699778 0.0924242
-9.26062 16.136 -1.99157 -0.711755 0.697412 0.0837969
-9.74571 15.5215 -0.930369 -0.706629 0.703147 0.0791129
-10.1611 15.0097 -0.032529 -0.692506 0.717455 0.075455
-10.5912 14.491 0.896208 -0.689087 0.71992 0.0829164
-11.1584 13.8595 2.03979 -0.672527 0.7386 0.0466642
-11.62 13.3834 2.94465 -0.677557 0.734102 0.0448319
-12.1481 12.8476 3.96369 -0.664704 0.745461 0.0495598
-12.6695 12.3599 4.93297 -0.650461 0.759192 0.0229759
-13.1551 11.9151 5.82242 -0.639394 0.76846 0.0253848
-13.6431 11.4848 6.70259 -0.64387 0.764948 0.0169073
-14.197 11.0143 7.67603 -0.62718 0.778219 0.0319354
-14.7216 10.5582 8.59901 -0.614631 0.788479 0.0230139
-15.2926 10.1043 9.54448 -0.60225 0.798198 0.0132444
-15.8871 9.63392 10.5228 -0.599275 0.80021 0.0230978
-16.4723 9.19684 11.4487 -0.583532 0.812047 0.00836678
-17.1878 8.67853 12.5535 -0.583012 0.812457 0.00318302
-17.8861 8.18529 13.6142 -0.57578 0.817604 0.00014336
-18.5977 7.68344 14.6905 -0.572922 0.819587 0.00608671
-19.2931 7.2052 15.7184 -0.558817 0.829275 0.00518155
-19.9549 6.75095 16.6798 -0.559736 0.828642 0.00692074
-20.4692 6.40701 17.4181 -0.552268 0.833656 0.00410117
-19.6727 6.93676 17.7717 -0.564616 0.825314 0.00811804
-18.972 7.41807 16.762 -0.567099 0.823638 0.00436014
-18.3769 7.83605 15.8816 -0.569961 0.821664 0.00345653
-17.7241 8.2957 14.9001 -0.575738 0.817625 0.00383993
-17.122 8.72211 13.9811 -0.574793 0.818298 0.00140428
-16.5194 9.15687 13.0443 -0.584449 0.811427 -0.00216061
-15.9079 9.60641 12.0921 -0.596386 0.80266 0.00777409
-15.2957 10.0672 11.1156 -0.609065 0.793069 0.00901852
-14.773 10.4954 10.242 -0.611364 0.791326 0.00612844
-14.1544 10.998 9.20636 -0.637377 0.770045 0.0279597
-13.4667 11.6066 7.98331 -0.649298 0.760367 0.0159246
-12.958 12.0532 7.07019 -0.648939 0.760665 0.0163658
-12.3687 12.5884 5.99056 -0.655042 0.755361 0.0186782
-11.8834 13.0401 5.08178 -0.665364 0.74636 0.0154024
-11.3824 13.5292 4.12278 -0.674869 0.736569 0.0449209
-10.7379 14.2088 2.83785 -0.683665 0.728489 0.0436556
-10.2919 14.6844 1.9493 -0.692466 0.71983 0.0483249
-9.86217 15.1846 1.04212 -0.704346 0.705608 0.0775467
-9.40022 15.7521 0.0256218 -0.700868 0.709462 0.0738028
-8.89936 16.386 -1.08369 -0.706159 0.702336 0.0898034
-8.67073 16.6803 -1.59231 -0.713612 0.694218 0.0939079
-8.05587 17.2785 -1.2723 -0.719908 0.687038 0.0985445
-8.52623 16.6496 -0.189897 -0.709371 0.70047 0.0783248
-9.02453 16.0395 0.907761 -0.707991 0.702999 0.0673841
-9.43369 15.5464 1.79879 -0.708291 0.703014 0.0639989
-9.86477 15.0521 2.70626 -0.700776 0.711737 0.0484153
-10.4814 14.3908 3.96232 -0.699398 0.714086 0.0303918
-10.9555 13.8931 4.91458 -0.683438 0.729652 0.0228178
-11.4181 13.4417 5.81402 -0.68921 0.724363 0.0169579
-12.0361 12.8496 6.9929 -0.667183 0.744343 0.028658
-12.5687 12.3676 7.96704 -0.643036 0.765768 0.0102095
-13.0584 11.9359 8.84584 -0.654133 0.756271 0.0127997
-13.5629 11.4711 9.76078 -0.66211 0.749262 0.0147475
-14.1227 11.0099 10.7131 -0.623887 0.781515 0.000298623
-14.6481 10.5817 11.5975 -0.633924 0.773361 0.00726174
-15.1707 10.1606 12.4618 -0.602813 0.797882 0.00095229
-15.7427 9.73038 13.3816 -0.60154 0.798806 -0.00760671
-16.4311 9.22495 14.4558 -0.593073 0.805111 -0.00777474
-17.0039 8.80618 15.3449 -0.595713 0.803196 -0.00124986
-17.6168 8.36766 16.2822 -0.580398 0.814324 0.00379677
-18.2883 7.8895 17.2825 -0.570709 0.821131 0.00595251
-18.3577 7.84057 17.3835 -0.570709 0.82113 0.0059534
-17.6195 8.34974 17.8091 -0.575789 0.817598 0.000380086
-16.9056 8.87085 16.7313 -0.595167 0.803543 0.0097907
-16.3176 9.31335 15.8226 -0.592864 0.805282 0.00570946
-15.593 9.85431 14.694 -0.610811 0.791674 -0.012742
-15.0344 10.2769 13.8096 -0.622071 0.782921 -0.00789722
-14.3944 10.7834 12.7513 -0.630394 0.77626 0.00489995
-13.8335 11.2572 11.7882 -0.649778 0.760123 -0.00132783
-13.2625 11.7332 10.8093 -0.662458 0.749098 0.00150944
-12.7483 12.1953 9.87586 -0.680108 0.7331 -0.00413499
-12.1675 12.7253 8.81552 -0.655223 0.755236 -0.0173536
-11.589 13.2351 7.7616 -0.677559 0.735427 0.00786051
-11.0544 13.7585 6.72338 -0.699948 0.714123 0.0100411
-10.5565 14.2614 5.73556 -0.701276 0.712806 0.0109104
-10.0832 14.7521 4.78023 -0.704432 0.70939 0.0232616
-9.63014 15.246 3.84426 -0.712531 0.701082 0.0279685
-9.19493 15.7279 2.93402 -0.716412 0.697102 0.0283195
-8.70672 16.2857 1.8917 -0.720479 0.69234 0.0396887
-8.1683 16.9269 0.717187 -0.715803 0.695283 0.0648651
-7.70531 17.5146 -0.324375 -0.725218 0.684187 0.0771208
-7.35595 17.9953 -1.13601 -0.720294 0.686648 0.0984449
-6.8661 18.4243 -0.506549 -0.724628 0.683244 0.0899577
-7.26422 17.8973 0.395315 -0.716459 0.693013 0.0801199
-7.71029 17.3502 1.38263 -0.720201 0.692303 0.0450257
-8.19945 16.7777 2.4453 -0.717119 0.695779 0.0403939
-8.64082 16.2854 3.38013 -0.717638 0.696091 0.0212978
-9.0834 15.7923 4.31359 -0.722551 0.690722 0.0287067
-9.6285 15.1984 5.45699 -0.720819 0.693051 0.0100318
-10.1502 14.6661 6.51777 -0.710218 0.70397 -0.00393249
-10.6993 14.1208 7.60706 -0.709435 0.70477 -0.00132508
-11.2166 13.6043 8.63094 -0.713729 0.700354 -0.00976784
-11.7938 13.0749 9.71625 -0.692028 0.721852 -0.00521259
-12.4283 12.4905 10.8904 -0.682047 0.731305 0.00235263
-12.9149 12.0378 11.7914 -0.655124 0.755479 0.00807034
-13.4811 11.5402 12.7918 -0.643594 0.765328 0.00779598
-14.072 11.0428 13.7998 -0.631707 0.775206 -0.0015029
-14.6322 10.6038 14.7204 -0.622778 0.782382 -0.00505671
-15.1937 10.1707 15.6174 -0.610636 0.791904 0.00339033
-15.7384 9.74965 16.472 -0.606735 0.794904 0.000261733
-16.5178 9.15478 17.6766 -0.597241 0.802062 3.93969e-06
-15.639 9.82494 17.8622 -0.611847 0.790973 -0.00233306
-14.9902 10.3288 16.8506 -0.619174 0.785218 -0.00748472
-14.4212 10.7725 15.9427 -0.633782 0.773423 0.0117073
-13.7116 11.3407 14.7727 -0.637326 0.770529 -0.0100057
-13.0389 11.9124 13.6176 -0.649403 0.760443 0.00140557
-12.4475 12.4477 12.5597 -0.66563 0.746262 0.00544737
-11.763 13.0903 11.2787 -0.672247 0.73999 0.0223328
-11.1788 13.6734 10.1336 -0.698771 0.715252 -0.0115485
-10.6387 14.2014 9.07699 -0.71527 0.698838 -0.00372876
-10.182 14.6545 8.16751 -0.714737 0.699294 -0.0118097
-9.72523 15.1064 7.25435 -0.714768 0.69927 -0.011323
-9.26214 15.5874 6.29187 -0.730658 0.682522 -0.0174141
-8.74762 16.1306 5.21548 -0.730865 0.682519 -0.00231502
-8.19458 16.7288 4.05874 -0.720225 0.69364 0.0118248
-7.75343 17.2135 3.13028 -0.719222 0.694228 0.0277084
-7.28479 17.7417 2.12593 -0.71944 0.693526 0.0377967
-6.84288 18.2715 1.16002 -0.724884 0.686795 0.0534404
-6.38114 18.8598 0.124065 -0.721254 0.688213 0.0784542
-6.11282 19.216 -0.495822 -0.722944 0.685956 0.0825641
-5.42636 19.9016 -0.309526 -0.717222 0.69148 0.0863018
-5.8279 19.3897 0.597645 -0.720604 0.690257 0.0653792
-6.33385 18.757 1.72793 -0.724242 0.688478 0.0383656
-6.78026 18.254 2.68167 -0.734498 0.678343 0.0190585
-7.22975 17.7536 3.6391 -0.729221 0.684277 -0.000848487
-7.68324 17.2677 4.58121 -0.732746 0.680464 0.0072052
-8.22115 16.6945 5.70055 -0.731583 0.681715 -0.0072065
-8.70824 16.1961 6.71257 -0.736912 0.675578 -0.0235438
-9.19495 15.6855 7.73824 -0.744006 0.66802 -0.0142796
-9.65027 15.2225 8.67814 -0.739004 0.672927 -0.0322955
-10.1224 14.7325 9.64905 -0.737774 0.674929 -0.0126314
-10.7258 14.1212 10.8559 -0.698238 0.715862 -0.00230072
-11.1791 13.6658 11.7496 -0.712314 0.701734 0.0133313
-11.7188 13.1226 12.8068 -0.700721 0.713315 -0.0130846
-12.2555 12.6273 13.7942 -0.692832 0.721094 -0.00269322
-12.8153 12.1127 14.8045 -0.678108 0.734686 -0.0201234
-13.4217 11.607 15.837 -0.649337 0.76039 -0.0129993
-13.9456 11.17 16.7159 -0.652676 0.757588 -0.00864589
-14.5971 10.64 17.7745 -0.621292 0.783579 0.000364563
-14.6258 10.6173 17.82 -0.621292 0.783579 0.000364563
-13.6537 11.4326 17.7806 -0.650216 0.759665 -0.0113312
-12.9613 12.0278 16.6096 -0.666928 0.74508 -0.00791251
-12.3896 12.524 15.6116 -0.673653 0.738927 -0.0133271
-11.8646 13.0174 14.6471 -0.7071 0.706973 -0.0141022
-11.3662 13.5099 13.6969 -0.718255 0.69549 -0.0200901
-10.8411 14.0189 12.6853 -0.735359 0.677552 -0.0130571
-10.315 14.5731 11.6076 -0.729488 0.683903 -0.011181
-9.78134 15.1223 10.5311 -0.737856 0.67482 -0.0136231
-9.2798 15.6507 9.49293 -0.737814 0.674887 -0.0125866
-8.81413 16.1486 8.49738 -0.7593 0.649759 -0.0357398
-8.28151 16.6945 7.38219 -0.752679 0.65679 -0.0458332
-7.77941 17.1955 6.34299 -0.744987 0.666309 -0.0320558
-7.32974 17.6675 5.40766 -0.750005 0.661082 -0.0215027
-6.77664 18.241 4.2724 -0.733184 0.680014 -0.00470016
-6.34529 18.7056 3.37156 -0.728349 0.685047 0.0147817
-5.8535 19.2325 2.35693 -0.723879 0.689634 0.0201154
-5.24519 19.9504 1.0299 -0.712844 0.698307 0.0649665
-4.81439 20.487 0.0623941 -0.708367 0.700542 0.0863569
-4.08948 21.203 0.200403 -0.703082 0.708073 0.065647
-4.53187 20.6661 1.16359 -0.712812 0.698344 0.064921
-4.99796 20.1273 2.19036 -0.715223 0.698158 0.032115
-5.48524 19.5979 3.20819 -0.717776 0.696137 0.0138093
-5.94463 19.1243 4.14087 -0.717919 0.696074 -0.00856492
-6.44634 18.6033 5.16328 -0.729692 0.683572 -0.0167065
-7.05448 18.0114 6.378 -0.738159 0.674159 -0.02511
-7.64831 17.4293 7.5755 -0.748733 0.660912 -0.0509229
-8.15739 16.9313 8.62786 -0.766838 0.63951 -0.0546405
-8.64093 16.415 9.66986 -0.761799 0.647019 -0.0320685
-9.06081 15.9587 10.5924 -0.764453 0.643999 -0.0296043
-9.66204 15.3006 11.8482 -0.760002 0.649256 -0.0293803
-10.1765 14.7506 12.9344 -0.747067 0.664487 -0.0186338
-10.7246 14.187 14.0266 -0.736741 0.675956 -0.017181
-11.1684 13.73 14.9152 -0.733982 0.678606 -0.0276242
-11.6517 13.2624 15.8273 -0.70745 0.706455 -0.0208746
-12.1376 12.7906 16.7313 -0.701553 0.712598 -0.00519705
-12.6167 12.3302 17.6033 -0.691107 0.722715 -0.00735629
-12.6294 12.3188 17.6256 -0.670249 0.742014 -0.0134904
-11.8878 13.0393 17.8658 -0.697793 0.716295 0.00243517
-11.4032 13.5338 16.9384 -0.721481 0.692377 -0.00890112
-10.9407 14.0122 16.036 -0.726267 0.687412 -0.00144086
-10.4141 14.5584 14.9781 -0.744745 0.66681 -0.0268268
-9.96834 15.0197 14.0712 -0.759421 0.65016 -0.023922
-9.28188 15.7807 12.6149 -0.779569 0.625567 -0.0306462
-8.85092 16.2703 11.6928 -0.787835 0.614424 -0.0424221
-8.29015 16.8928 10.437 -0.778019 0.626955 -0.040176
-7.78505 17.4381 9.33374 -0.76684 0.639509 -0.054641
-7.34806 17.863 8.42495 -0.764128 0.642065 -0.0621399
-6.88212 18.3129 7.49003 -0.73691 0.672313 -0.0704199
-6.39308 18.7534 6.57385 -0.737214 0.672058 -0.0696649
-5.8556 19.2512 5.52267 -0.725974 0.686049 -0.047953
-5.36993 19.7321 4.55532 -0.727113 0.686178 -0.0215972
-4.85348 20.2523 3.52138 -0.727049 0.686329 -0.0187678
-4.36608 20.7681 2.51358 -0.718902 0.694699 0.023936
-3.88665 21.3078 1.47941 -0.726485 0.686701 0.0257013
-3.43443 21.8313 0.513168 -0.708719 0.703859 0.0479663
-3.20384 22.0998 0.0156835 -0.69103 0.721254 0.0476487
-2.19889 23.0427 -0.297609 -0.641485 0.766805 0.0225376
-2.67105 22.5837 0.59956 -0.700873 0.712841 0.0252025
-3.20905 22.011 1.70484 -0.724167 0.689517 0.0121744
-3.65352 21.5234 2.65301 -0.727574 0.685803 0.0176071
-4.14611 21.0007 3.68678 -0.726886 0.686688 -0.00978896
-4.74971 20.3982 4.87679 -0.723547 0.689803 -0.0255257
-5.29904 19.8777 5.94498 -0.724111 0.687784 -0.0511432
-5.86009 19.3764 7.02373 -0.730731 0.677795 -0.0813991
-6.4858 18.8338 8.16483 -0.748607 0.657754 -0.0833507
-6.98716 18.3884 9.1015 -0.779845 0.619956 -0.0865811
-7.49207 17.9046 10.1919 -0.778421 0.622488 -0.0810503
-7.98062 17.3622 11.2931 -0.799173 0.598807 -0.0524703
-8.47083 16.8008 12.394 -0.785877 0.617392 -0.0349826
-9.00259 16.1816 13.5625 -0.787985 0.615057 -0.0280129
-9.50963 15.5999 14.6642 -0.773748 0.633148 -0.020911
-9.94079 15.1037 15.6023 -0.759438 0.650326 -0.0181672
-10.4459 14.5611 16.6403 -0.745245 0.666745 -0.00777521
-10.9166 14.0483 17.5989 -0.744036 0.668069 -0.00969587
-11.0503 13.9033 17.8665 -0.732123 0.68115 -0.00555706
-10.2065 14.8416 17.7762 -0.753504 0.657433 -0.0037871
-9.74087 15.3785 16.7805 -0.771522 0.636104 -0.0111592
-9.23541 15.9767 15.6649 -0.776213 0.630047 -0.0231138
-8.76792 16.5249 14.6226 -0.786495 0.617177 -0.0227558
-8.26699 17.12 13.4985 -0.794311 0.607075 -0.0230003
-8.16926 17.2446 13.2633 -0.8072 0.589756 -0.0248252
-8.15813 17.3147 14.8402 -0.799985 0.599859 -0.013922
-8.58255 16.8009 15.8125 -0.784236 0.620186 -0.0185064
-9.04507 16.2343 16.8679 -0.780083 0.625592 -0.0102511
-9.34998 15.8639 17.564 -0.769843 0.63822 -0.00425455
-8.65378 16.7253 17.6285 -0.787757 0.615928 -0.00845182
-8.21257 17.2805 16.5938 -0.798498 0.601873 -0.0122424
-8.16679 17.339 16.4856 -0.798498 0.601873 -0.0122432
-7.74466 20.3685 -15.1028 -0.743984 0.649598 0.156556
-7.72458 20.4045 -15.1536 -0.71703 0.673459 0.179781
-6.84713 21.3053 -15.2494 -0.697263 0.696356 0.170039
-6.79307 21.3862 -15.3608 -0.628574 0.756018 0.182569
-5.96656 21.9454 -15.0854 -0.592017 0.788821 0.165158
-5.86526 22.058 -15.2598 -0.542881 0.824025 0.16206
0.756206 23.8909 -14.4553 0.0365118 0.997537 -0.0598917
0.34675 23.9198 -14.0188 -0.0842431 0.996406 -0.00881991
0.936521 23.9321 -13.2662 -0.00677312 0.999975 -0.0021543
1.76314 23.7976 -14.1596 0.149254 0.987734 -0.0458838
2.17461 23.6636 -14.6448 0.238967 0.967263 -0.085425
3.5315 23.1284 -14.9471 0.441266 0.893468 -0.0836596
2.7558 23.535 -13.9218 0.300349 0.948915 -0.0966946
1.98657 23.837 -13.0114 0.200166 0.972979 -0.115085
1.49246 23.9571 -12.4704 0.0592549 0.997834 -0.0285699
1.97859 23.9372 -11.5968 0.144735 0.985461 -0.0889841
2.81193 23.654 -12.5579 0.284954 0.954144 -0.0917135
3.5719 23.2463 -13.5249 0.445594 0.890535 -0.0916185
4.30044 22.777 -14.5662 0.490503 0.868244 -0.0745578
4.7528 22.4294 -15.256 0.535183 0.841021 -0.0791401
5.56024 21.8708 -15.0972 0.630985 0.769884 -0.0955852
4.95802 22.4131 -14.0989 0.521135 0.846694 -0.107363
4.30695 22.9003 -13.1156 0.471807 0.867195 -0.159283
3.36359 23.5503 -11.8062 0.410957 0.899025 -0.151224
2.53412 23.8826 -10.8048 0.179241 0.980535 -0.0801461
2.39212 23.9224 -10.6365 0.179243 0.980535 -0.0801482
2.58369 23.9988 -9.43458 0.286637 0.95572 -0.0666155
3.45723 23.6476 -10.4917 0.374471 0.919519 -0.119397
4.17983 23.264 -11.4288 0.385152 0.913049 -0.134159
4.84588 22.7114 -12.4219 0.538362 0.833943 -0.121269
5.53628 22.0864 -13.5462 0.568924 0.81822 -0.0827195
6.11662 21.4924 -14.5735 0.62215 0.775472 -0.107572
6.48746 21.0512 -15.2959 0.677984 0.726932 -0.109121
7.17792 20.4394 -15.1014 0.695307 0.711434 -0.102031
6.64339 21.138 -13.9911 0.666886 0.731789 -0.140525
6.09445 21.7702 -12.9694 0.596371 0.787245 -0.156801
5.39266 22.4569 -11.7768 0.547028 0.827621 -0.125714
4.64778 23.0771 -10.6296 0.453295 0.87758 -0.156131
3.7417 23.6432 -9.40697 0.381657 0.922521 -0.0573809
2.98762 23.9505 -8.47304 0.290972 0.953834 -0.0744068
2.86582 23.9994 -8.32264 0.284369 0.954907 -0.0853668
2.64028 24.2079 -6.58064 0.160227 0.984191 -0.0754701
3.54463 23.8649 -7.70043 0.276643 0.956484 -0.092778
4.51547 23.361 -8.95343 0.369947 0.925923 -0.0761902
5.17571 22.902 -9.90384 0.50841 0.850369 -0.13562
5.75674 22.3607 -10.838 0.548541 0.816727 -0.179051
6.52859 21.5992 -12.1533 0.574238 0.807488 -0.134959
7.08825 20.8816 -13.238 0.646283 0.742149 -0.177574
7.60442 20.1546 -14.3614 0.700001 0.699897 -0.141927
8.08918 19.4371 -15.4822 0.725797 0.676154 -0.126627
8.27565 19.1534 -15.9282 0.725396 0.677739 -0.120296
9.66082 17.3415 -17.5993 0.733045 0.671852 -0.10611
9.23065 17.9991 -16.5407 0.733069 0.668029 -0.127857
8.78069 18.713 -15.4093 0.726708 0.673619 -0.134658
8.27856 19.494 -14.1991 0.724424 0.674168 -0.143899
7.78844 20.2514 -13.0451 0.695521 0.701148 -0.15698
7.23076 21.0506 -11.8617 0.6592 0.735142 -0.158183
6.58824 21.7981 -10.6782 0.577186 0.80592 -0.131714
6.04103 22.3938 -9.71821 0.589879 0.798903 -0.11746
5.16492 23.078 -8.38687 0.469372 0.880598 -0.0650879
4.48233 23.5144 -7.43504 0.404745 0.910324 -0.0865559
3.487 24.0455 -6.14558 0.303296 0.934246 -0.187606
2.72067 24.4146 -5.23234 0.233637 0.960269 -0.152635
2.40317 24.5122 -4.88686 0.144927 0.981909 -0.121862
4.07183 24.008 -5.38687 0.286413 0.943246 -0.168092
4.82083 23.5093 -6.39186 0.389401 0.904932 -0.171654
5.4987 23.0374 -7.33709 0.440722 0.89265 -0.0945523
6.14076 22.5041 -8.33375 0.574598 0.810923 -0.110641
6.79775 21.8572 -9.44415 0.627312 0.770581 -0.112627
7.31834 21.2692 -10.3953 0.654896 0.746569 -0.117245
7.82005 20.595 -11.4037 0.69585 0.697507 -0.171105
8.35119 19.7621 -12.6252 0.720087 0.677055 -0.151891
8.76599 19.0977 -13.6259 0.722179 0.675075 -0.150767
9.24419 18.3238 -14.8115 0.732992 0.666877 -0.134152
9.73134 17.5508 -16.0123 0.732579 0.668108 -0.130229
10.1982 16.831 -17.1527 0.732306 0.669888 -0.122387
10.4143 16.5105 -17.684 0.731209 0.673708 -0.107011
11.0758 15.8186 -17.5215 0.729761 0.674826 -0.109814
10.6333 16.4753 -16.4659 0.73656 0.666288 -0.116357
10.2085 17.1334 -15.4416 0.737706 0.662753 -0.128645
9.7923 17.7999 -14.4184 0.737543 0.661038 -0.138054
9.23893 18.7077 -13.0374 0.734282 0.662257 -0.14915
8.67413 19.6409 -11.6562 0.720673 0.675096 -0.157724
8.17052 20.4611 -10.4719 0.702791 0.694367 -0.154723
7.61787 21.1951 -9.34111 0.638081 0.76089 -0.117895
7.02786 21.8363 -8.2772 0.626326 0.772165 -0.10713
6.42838 22.4834 -7.23761 0.519244 0.835797 -0.178405
5.81241 23.0449 -6.27527 0.502346 0.851102 -0.152558
5.39985 23.4019 -5.65514 0.41412 0.892944 -0.176509
6.42968 22.8362 -5.62683 0.482139 0.851019 -0.208106
7.06456 22.1395 -6.72736 0.596818 0.785382 -0.164264
7.6387 21.4601 -7.77237 0.675621 0.720363 -0.156889
8.20698 20.6985 -8.90858 0.677572 0.726385 -0.115159
8.73355 19.9713 -10.0275 0.724154 0.676383 -0.134565
9.19319 19.1943 -11.1521 0.733243 0.659985 -0.163629
9.62262 18.4678 -12.2228 0.736349 0.659777 -0.149949
10.0611 17.7332 -13.3093 0.736273 0.661026 -0.144732
10.5394 16.9494 -14.5054 0.738386 0.660361 -0.136784
11.0132 16.2004 -15.6472 0.729771 0.672213 -0.124756
11.4926 15.4908 -16.7665 0.729918 0.674361 -0.111606
11.7819 15.1073 -17.4016 0.704931 0.701983 -0.101455
12.5894 14.2851 -17.4532 0.702974 0.707078 -0.0766007
12.0386 15.0025 -16.2743 0.719155 0.684505 -0.119454
11.5833 15.6681 -15.229 0.723296 0.679907 -0.120704
11.1706 16.2978 -14.2555 0.736114 0.663701 -0.132802
10.7293 17.0108 -13.1802 0.739367 0.659164 -0.137257
10.2119 17.8791 -11.8981 0.73875 0.657141 -0.149714
9.74344 18.6905 -10.7191 0.736859 0.657306 -0.158072
9.35723 19.3525 -9.75647 0.720586 0.67794 -0.145438
8.82935 20.1349 -8.58229 0.718071 0.684472 -0.125981
8.32853 20.8629 -7.51985 0.694086 0.707178 -0.134702
7.77407 21.6176 -6.40382 0.690448 0.707608 -0.15024
7.07134 22.4203 -5.13459 0.606394 0.783375 -0.136422
6.94507 22.5584 -4.91968 0.611474 0.774167 -0.163598
7.78416 21.8349 -4.84355 0.666881 0.735227 -0.121291
8.31128 21.1752 -5.86024 0.708606 0.697112 -0.109146
8.90628 20.363 -7.08392 0.708278 0.691764 -0.140728
9.40986 19.5745 -8.21714 0.735316 0.664567 -0.132894
9.99662 18.6766 -9.52474 0.749907 0.650541 -0.120151
10.4641 17.8515 -10.7418 0.747732 0.648029 -0.144757
10.8954 17.1158 -11.8252 0.742878 0.654286 -0.141573
11.3569 16.3644 -12.927 0.736132 0.663344 -0.134478
11.9457 15.4434 -14.3235 0.72449 0.6765 -0.132144
12.4545 14.7188 -15.4667 0.71189 0.692046 -0.119517
12.92 14.0871 -16.4753 0.692489 0.714188 -0.101954
13.3962 13.5103 -17.4387 0.680534 0.728958 -0.0741186
14.2032 12.7775 -17.3693 0.665225 0.742883 -0.0748359
13.6829 13.3645 -16.3717 0.692944 0.714638 -0.0955073
13.1783 14.0042 -15.3384 0.706423 0.699968 -0.104936
12.6041 14.7841 -14.1026 0.714281 0.689834 -0.118031
12.1725 15.4322 -13.1187 0.726827 0.674663 -0.128653
11.7262 16.1178 -12.0933 0.739673 0.658992 -0.13643
11.2951 16.8223 -11.0613 0.748134 0.650882 -0.129028
10.7019 17.8205 -9.58118 0.758971 0.638039 -0.129883
10.2958 18.4958 -8.59023 0.756273 0.643603 -0.117581
9.88792 19.1643 -7.63184 0.763293 0.63331 -0.127679
9.4234 19.895 -6.5658 0.739586 0.663025 -0.115806
8.98294 20.5309 -5.61476 0.709789 0.695582 -0.111198
8.49896 21.1685 -4.65474 0.710092 0.696336 -0.104333
8.25109 21.4902 -4.1583 0.707014 0.700045 -0.100341
8.88481 20.8955 -3.84586 0.750074 0.651801 -0.112003
9.37953 20.1853 -4.8978 0.74462 0.661225 -0.0912247
9.92822 19.3976 -6.07369 0.771182 0.629973 -0.0917219
10.3651 18.6914 -7.12436 0.763045 0.634797 -0.121631
10.9167 17.7913 -8.41879 0.765874 0.633428 -0.110481
11.4445 16.9249 -9.65584 0.758876 0.640531 -0.117593
11.8762 16.2181 -10.7401 0.748134 0.650882 -0.129026
12.2988 15.5553 -11.726 0.733445 0.669297 -0.11874
12.7987 14.8157 -12.8415 0.719867 0.682982 -0.123799
13.3906 13.9755 -14.131 0.710725 0.695115 -0.108102
14.0267 13.1673 -15.4153 0.687869 0.717796 -0.107729
14.5887 12.5254 -16.4823 0.66477 0.742454 -0.0827217
15.0179 12.0589 -17.2745 0.662418 0.745055 -0.0780727
15.8457 11.3517 -17.1741 0.645664 0.759457 -0.0796423
15.208 12.0265 -16.0246 0.66118 0.745786 -0.0815066
14.5672 12.7412 -14.8367 0.677828 0.730082 -0.0867745
13.9488 13.5028 -13.628 0.696177 0.708566 -0.115203
13.4363 14.1871 -12.5745 0.721981 0.681489 -0.11965
12.9102 14.9447 -11.4297 0.723882 0.680492 -0.113693
12.4525 15.63 -10.3898 0.741855 0.660553 -0.115421
11.9645 16.3931 -9.24291 0.753496 0.647301 -0.115088
11.4744 17.1725 -8.12218 0.763768 0.636274 -0.108698
11.0201 17.9037 -7.06091 0.770367 0.629932 -0.0985909
10.5143 18.7086 -5.85903 0.771383 0.628839 -0.0976201
9.95256 19.5687 -4.567 0.776108 0.62506 -0.0834088
9.43459 20.3354 -3.4232 0.746531 0.657088 -0.104532
9.2967 20.551 -3.09159 0.750142 0.651754 -0.111818
9.71811 20.1206 -2.40995 0.780305 0.621337 -0.0711636
10.1657 19.4678 -3.43965 0.769941 0.632167 -0.086922
10.6889 18.6475 -4.66148 0.771839 0.631423 -0.0746323
11.1167 18.0002 -5.65705 0.772597 0.628327 -0.0911007
11.5863 17.2568 -6.76616 0.770809 0.629433 -0.0983262
12.0269 16.5612 -7.77992 0.759652 0.642813 -0.0985854
12.4846 15.8524 -8.81801 0.752907 0.650223 -0.101691
12.9435 15.1703 -9.84007 0.740197 0.664111 -0.105191
13.5538 14.297 -11.1776 0.725906 0.67923 -0.108201
14.0263 13.664 -12.1523 0.705152 0.70132 -0.104453
14.5595 12.9825 -13.2091 0.681098 0.723249 -0.11409
15.1407 12.2802 -14.3155 0.664901 0.740644 -0.0967099
15.8716 11.4903 -15.6401 0.646089 0.759079 -0.079798
16.6315 10.7177 -16.9698 0.627468 0.775591 -0.0688631
16.7004 10.6531 -17.0864 0.625995 0.777464 -0.0606717
17.3915 10.1302 -16.7048 0.616695 0.784633 -0.0635439
16.7922 10.7084 -15.6901 0.636363 0.767591 -0.0764631
16.1304 11.394 -14.5251 0.644187 0.76004 -0.0858042
15.4578 12.1287 -13.3139 0.672063 0.734999 -0.0900425
14.8777 12.8143 -12.2275 0.690499 0.716347 -0.100292
14.373 13.446 -11.2407 0.705308 0.702046 -0.0983469
13.793 14.2189 -10.0444 0.719561 0.688164 -0.0930727
13.3138 14.8848 -9.02166 0.741315 0.665084 -0.0900884
12.7918 15.641 -7.90002 0.749833 0.655939 -0.0865708
12.3596 16.2898 -6.90573 0.769557 0.6323 -0.0893252
11.8521 17.0735 -5.75609 0.78438 0.615794 -0.074474
11.4082 17.7476 -4.69848 0.784076 0.617945 -0.058046
10.953 18.4291 -3.66857 0.790594 0.607952 -0.0731833
10.5322 19.0697 -2.67089 0.783557 0.61972 -0.0445542
10.149 19.6032 -1.80489 0.783762 0.620556 -0.0250377
10.4635 19.2053 -0.971755 0.794358 0.607438 0.00374642
11.0034 18.47 -2.18925 0.800397 0.59915 -0.0196184
11.4693 17.8074 -3.2609 0.794171 0.606245 -0.0419447
11.9226 17.1313 -4.29561 0.784551 0.618139 -0.048832
12.5007 16.2828 -5.62618 0.776847 0.62631 -0.0651447
13.0066 15.5442 -6.72972 0.752596 0.653039 -0.0844953
13.4839 14.8637 -7.79471 0.749832 0.65594 -0.0865701
14.0906 14.0371 -9.05371 0.732827 0.674686 -0.0881112
14.5942 13.3719 -10.0834 0.712484 0.696593 -0.0844044
15.124 12.7187 -11.115 0.695213 0.71343 -0.0877334
15.7918 11.9392 -12.3687 0.67217 0.735419 -0.0857108
15.8774 11.8416 -12.5257 0.671993 0.735056 -0.0900988
15.2581 12.7432 -9.79355 0.709529 0.701145 -0.0704606
14.7156 13.4128 -8.73292 0.728615 0.680612 -0.0767325
14.2367 14.031 -7.76474 0.733837 0.675286 -0.0739715
13.7484 14.6874 -6.72407 0.743206 0.665587 -0.0681005
13.2634 15.3474 -5.71492 0.760887 0.646239 -0.0585334
12.7903 16.0108 -4.71242 0.778351 0.625408 -0.0550852
12.3282 16.6676 -3.6204 0.784721 0.618282 -0.0440454
11.8716 17.3071 -2.63245 0.794773 0.606218 -0.0289085
11.4142 17.938 -1.57352 0.796984 0.603889 -0.0115978
10.8649 18.661 -0.382418 0.797911 0.602529 0.0172281
10.7113 18.8575 -0.0586232 0.800913 0.598553 0.0165077
11.0266 18.4047 0.680251 0.802129 0.595471 0.0447521
11.5101 17.8077 -0.307977 0.802778 0.595834 0.0230073
11.979 17.1938 -1.33497 0.801268 0.598247 -0.00839668
12.4577 16.5544 -2.37066 0.789495 0.613216 -0.0257739
12.9599 15.8845 -3.46125 0.775884 0.630057 -0.0321304
13.4468 15.225 -4.55972 0.768104 0.639095 -0.0396655
14.0239 14.4633 -5.75471 0.745254 0.664281 -0.0576761
14.6275 13.6884 -6.98016 0.730879 0.67999 -0.05856
15.0422 13.1692 -7.81487 0.715125 0.696097 -0.0636053
15.1952 13.1179 -6.55152 0.719457 0.693102 -0.0446268
14.6586 13.7697 -5.48664 0.732112 0.679746 -0.0442305
14.168 14.383 -4.50839 0.746862 0.664083 -0.0345071
13.6259 15.0731 -3.3496 0.764768 0.643877 -0.0235019
13.0291 15.8416 -2.07493 0.781845 0.623451 -0.00514649
12.5647 16.4396 -1.09194 0.789743 0.613265 0.0145346
12.0651 17.0594 -0.0842714 0.789854 0.613127 0.0143757
11.588 17.6356 0.891318 0.796841 0.602716 0.0421647
11.149 18.1577 1.77296 0.806614 0.58882 0.0516253
11.4378 17.6874 2.57376 0.798405 0.597374 0.0754563
11.9666 17.0891 1.5448 0.790302 0.610157 0.0559657
12.4733 16.5069 0.48747 0.79251 0.608515 0.0404631
13.087 15.7741 -0.724675 0.772869 0.634539 0.00581363
13.6511 15.0826 -1.86565 0.771773 0.635836 -0.00893983
14.2403 14.3662 -3.08006 0.748144 0.663008 -0.0264936
14.839 13.6428 -4.3118 0.743611 0.667525 -0.0381094
15.3272 13.0632 -5.2589 0.733288 0.678583 -0.0425812
15.392 13.0736 -3.8411 0.727525 0.685034 -0.0378957
14.7747 13.7773 -2.61479 0.736735 0.676061 -0.01277
14.1959 14.4478 -1.4685 0.755787 0.654814 -0.00197967
13.6511 15.0865 -0.389155 0.759612 0.650283 0.0110344
13.0634 15.7564 0.765376 0.774409 0.631742 0.0345313
12.534 16.3395 1.79171 0.778455 0.625441 0.0532064
11.8804 17.0515 3.04358 0.79004 0.607995 0.0786059
11.2905 17.6833 4.2438 0.804369 0.589906 0.0707287
11.2449 17.7331 4.34673 0.807848 0.585879 0.0642407
11.0262 17.846 6.32663 0.785857 0.616555 0.0478378
11.5614 17.2539 5.1702 0.78316 0.620289 0.0436211
12.072 16.6923 4.04625 0.781359 0.62237 0.0461817
12.8469 15.8985 2.58699 0.77188 0.632494 0.0644463
13.3778 15.3223 1.57912 0.775358 0.63035 0.0384583
13.9579 14.6912 0.474664 0.762743 0.646298 0.0228661
14.498 14.0987 -0.587447 0.757995 0.651822 0.0238845
15.0077 13.5384 -1.55673 0.737404 0.675424 -0.00614358
15.4837 13.0127 -2.48253 0.713318 0.700654 -0.0161836
15.6909 12.8192 -1.34354 0.720393 0.693565 -0.000828089
15.1614 13.3712 -0.35524 0.735299 0.677519 0.0174191
14.5378 14.0057 0.815191 0.754124 0.656246 0.0252422
13.9385 14.6486 1.95352 0.757088 0.652458 0.0334094
13.1764 15.4365 3.37093 0.751224 0.65838 0.046892
12.6092 16.0048 4.46411 0.760039 0.64776 0.0524143
12.1292 16.5159 5.47031 0.780112 0.623898 0.046662
11.601 17.0934 6.58464 0.78408 0.618679 0.0495503
11.1305 17.6266 7.5908 0.786506 0.616487 0.0367755
11.4016 17.2333 8.49855 0.76698 0.640304 0.0418652
11.9267 16.6433 7.40064 0.772041 0.635154 0.0230552
12.415 16.1012 6.38078 0.772617 0.633546 0.0410317
12.9305 15.5739 5.31561 0.755833 0.653281 0.0440564
13.5606 14.9462 4.10213 0.745996 0.664292 0.0469695
14.1794 14.3183 2.92076 0.752193 0.657602 0.0420038
14.7403 13.7557 1.92014 0.735256 0.677254 0.0269428
15.4189 13.0595 0.636932 0.716284 0.6976 0.0170501
15.9872 12.5035 -0.391918 0.711269 0.702903 0.00490551
16.184 12.2958 0.754484 0.708325 0.705823 0.00945417
15.5245 12.9236 1.94277 0.713398 0.700607 0.0145826
14.9716 13.4615 2.94252 0.732754 0.679897 0.0284913
14.4078 14.0174 3.97303 0.730025 0.68237 0.0378834
13.7637 14.637 5.18129 0.747831 0.662106 0.048619
13.154 15.2388 6.37215 0.753143 0.656259 0.0458173
12.5837 15.8458 7.54194 0.755243 0.655317 0.0129724
12.0083 16.4836 8.73493 0.77103 0.635693 0.0375024
11.5 17.0452 9.7987 0.762489 0.646976 0.00567167
11.213 17.3789 10.4358 0.769613 0.637886 -0.0282381
11.1717 17.5006 12.1893 0.78335 0.620805 -0.0310435
11.6492 16.885 11.0821 0.762765 0.646247 -0.023524
12.1128 16.3254 10.0527 0.756127 0.654372 0.0084013
12.6405 15.7405 8.9556 0.755633 0.654582 0.0232685
13.1407 15.1966 7.91164 0.75585 0.654527 0.0169077
13.6647 14.6473 6.87128 0.73426 0.678255 0.0288488
14.204 14.121 5.83387 0.747471 0.664205 0.0109279
14.7947 13.5581 4.7185 0.718748 0.694248 0.0376956
15.5071 12.8927 3.45389 0.714082 0.699729 0.0216045
16.2177 12.2194 2.18531 0.703224 0.710514 0.0254272
16.6197 11.8522 1.47806 0.686482 0.726587 0.0285155
16.8871 11.5753 2.51336 0.679658 0.733496 0.00700271
16.1892 12.2097 3.72957 0.689685 0.723943 0.0155137
15.6302 12.7317 4.72343 0.697658 0.716144 0.0202787
15.0113 13.3071 5.83764 0.699531 0.714328 0.0197775
14.3729 13.9015 7.03279 0.708996 0.70476 0.0252474
13.7437 14.5358 8.25212 0.735206 0.677814 0.00630539
13.143 15.1709 9.46727 0.739024 0.6734 0.0194038
12.5956 15.7667 10.5923 0.749233 0.662292 0.00426438
12.1289 16.3379 11.6298 0.763393 0.64554 -0.0225865
11.6132 16.998 12.8067 0.769269 0.637981 -0.0347185
11.1944 17.5913 13.8062 0.781154 0.623093 -0.0394227
10.7159 18.3218 15.0308 0.799506 0.597557 -0.0609589
10.4962 18.6987 15.6422 0.81072 0.580752 -0.0738885
10.9283 18.1801 16.2658 0.80542 0.588654 -0.0691755
11.3802 17.4424 15.043 0.78796 0.613341 -0.0541502
11.7975 16.8547 14.0269 0.774178 0.631515 -0.042863
12.2436 16.2566 12.9957 0.765359 0.643117 -0.0250231
12.8342 15.5132 11.6761 0.74723 0.663915 -0.0294
13.3231 14.9485 10.6268 0.733771 0.679389 -0.00327496
13.9086 14.3547 9.48351 0.728786 0.684684 0.00885353
14.5644 13.6804 8.19638 0.717818 0.695963 0.0193122
15.1633 13.1226 7.0872 0.695 0.718705 0.0209498
15.7643 12.5736 5.99739 0.688783 0.724934 0.0069506
16.3365 12.0502 4.97817 0.679541 0.733632 0.00289226
17.0014 11.4546 3.82733 0.668957 0.743288 0.00441105
17.3397 11.1579 3.25203 0.659944 0.751306 -0.00370041
17.8397 10.7149 3.92144 0.65656 0.754224 0.00868334
17.1275 11.3309 5.12754 0.666739 0.74527 0.00554946
16.4616 11.9189 6.28553 0.680853 0.732268 0.0149131
15.6848 12.6065 7.65601 0.671874 0.740539 0.0136676
15.0321 13.1973 8.8405 0.704058 0.71014 0.00177056
14.4141 13.8208 10.0314 0.711924 0.702181 0.0103278
13.796 14.4464 11.2383 0.728549 0.684993 -0.00102909
13.2827 15.0238 12.3086 0.7505 0.660739 -0.0132004
12.776 15.6387 13.3984 0.759842 0.64967 -0.023866
12.3026 16.2638 14.4951 0.773845 0.632853 -0.025725
11.8619 16.8681 15.5609 0.787336 0.614737 -0.0468964
11.4783 17.465 16.566 0.799722 0.597086 -0.0627206
11.2866 17.7812 17.0967 0.813644 0.580318 -0.0348479
11.8799 16.9808 17.2789 0.799858 0.599055 -0.0368861
12.3709 16.2609 16.0179 0.779764 0.624909 -0.0381753
12.8034 15.6792 14.9847 0.767652 0.640545 -0.0203204
13.2813 15.0919 13.9179 0.746222 0.665178 -0.0262898
13.8449 14.4252 12.731 0.728609 0.684572 -0.0221302
14.3861 13.8386 11.6367 0.711495 0.702667 -0.00587529
14.9413 13.2868 10.5617 0.69297 0.72092 0.00813032
15.5709 12.6886 9.39546 0.681127 0.732105 0.00940469
16.2012 12.1265 8.27114 0.671866 0.740545 0.0137633
16.7978 11.5949 7.21656 0.681339 0.731946 0.00567042
17.583 10.9178 5.8647 0.665191 0.746537 0.0143003
18.3363 10.2874 4.60789 0.642228 0.766512 -0.00178015
18.676 10.0033 5.5722 0.636125 0.771559 0.00650655
18.0031 10.553 6.68443 0.639113 0.769067 0.00832626
17.3877 11.0765 7.73153 0.662521 0.748997 0.00827935
16.6531 11.6997 8.99255 0.665513 0.746212 0.0161111
16.0928 12.1955 9.98244 0.682432 0.730938 0.00406904
15.485 12.7591 11.0922 0.672832 0.739724 0.0102684
14.818 13.4203 12.3675 0.699932 0.714095 -0.0127861
14.3002 13.9643 13.3852 0.728163 0.684962 -0.0246128
13.6811 14.654 14.6568 0.738193 0.67454 -0.0081204
13.1985 15.2283 15.718 0.768014 0.640108 -0.020403
12.5781 16.0623 17.2141 0.782702 0.621778 -0.0277549
12.499 16.1776 17.4204 0.793004 0.608073 -0.0372916
13.1523 15.3655 17.5129 0.77093 0.635907 -0.0359032
13.5879 14.8092 16.4873 0.75389 0.656853 -0.0139363
