-2.09045 23.992 -19.9884 0.0772542 -0.996994 0.00583992
-1.6829 24.0145 -19.7631 0.0367572 -0.999235 0.0112609
-1.09802 24.0253 -19.8526 0.000837712 -0.999957 -0.00441211
-0.643649 24.012 -19.7895 -0.0621787 -0.998065 0.00093213
-0.00548674 23.9499 -19.8131 -0.135217 -0.990379 0.0294357
0.587663 23.8428 -19.7832 -0.246287 -0.968917 0.0103975
1.0953 23.7037 -19.8341 -0.270678 -0.962581 0.00199332
1.67037 23.5313 -19.787 -0.305207 -0.952181 0.014118
1.5546 23.5626 -20.2786 -0.302539 -0.953086 0.00988082
0.909036 23.7551 -20.3242 -0.270678 -0.962581 0.00199328
0.41139 23.8715 -20.2238 -0.190237 -0.981558 0.017393
-0.162897 23.9674 -20.1745 -0.126639 -0.99192 -0.00762362
-0.67536 24.0128 -20.2419 -0.0481247 -0.99847 -0.0155234
-1.19609 24.0295 -20.3144 0.0140966 -0.999882 -0.00605772
-1.67825 24.0156 -20.2925 0.0404971 -0.999087 -0.0135754
-2.03138 23.9954 -20.2024 0.0784761 -0.996855 -0.00425877
-2.54869 23.9534 -20.2268 0.0975765 -0.995196 -0.00414896
-2.57184 23.9522 -19.7146 0.101549 -0.994828 0.000345817
-2.22565 23.985 -19.3298 0.0763145 -0.996995 0.013299
-1.63913 24.0238 -19.3101 0.0530242 -0.998176 0.0288784
-0.898983 24.0324 -19.3564 0.00536966 -0.999782 0.0201833
-0.400494 24.0081 -19.3279 -0.0861407 -0.994908 0.052322
0.116871 23.9467 -19.3706 -0.147973 -0.987859 0.0473211
0.791497 23.796 -19.3232 -0.255987 -0.966451 0.0184713
1.31005 23.6498 -19.3772 -0.275012 -0.961228 0.0202295
1.84057 23.4828 -19.3824 -0.298919 -0.953961 0.0227417
2.26602 23.3412 -19.6428 -0.313012 -0.949738 0.00461882
2.34893 23.3092 -20.1757 -0.311192 -0.950296 0.00984988
2.08552 23.3921 -20.5775 -0.30677 -0.951741 0.00518328
1.46109 23.5883 -20.7614 -0.301834 -0.953343 0.0057257
0.884213 23.7673 -20.7795 -0.259336 -0.96524 -0.0118744
0.225972 23.9118 -20.72 -0.186139 -0.981836 -0.0367388
-0.262553 23.9871 -20.6718 -0.114309 -0.990892 -0.0711844
-0.868927 24.0423 -20.7568 -0.032755 -0.998718 -0.0276222
-1.50551 24.0276 -20.7255 0.0219772 -0.99937 -0.021672
-2.16195 23.9933 -20.7399 0.0719713 -0.996775 -0.0298424
-2.53576 23.9569 -20.4831 0.0900756 -0.995909 -0.00719109
-2.54954 23.9547 -20.3608 0.0924575 -0.995673 -0.00880675
-3.01411 23.911 -20.4381 0.0967484 -0.99526 -0.00981628
-2.99677 23.9173 -20.9934 0.105222 -0.994364 -0.0129527
-2.53668 23.9681 -21.2221 0.104124 -0.994367 -0.0197666
-2.00787 24.0183 -21.232 0.0995684 -0.994307 -0.0350346
-1.50844 24.0598 -21.2604 0.0474538 -0.996687 -0.0598537
-0.934203 24.0641 -21.2392 -0.0262325 -0.99744 -0.0609568
-0.417694 24.0387 -21.1792 -0.0999934 -0.989553 -0.103853
0.115923 23.9555 -21.2219 -0.191346 -0.978835 -0.072593
0.722795 23.827 -21.2104 -0.216666 -0.973126 -0.0779855
1.19851 23.6842 -21.2435 -0.323163 -0.945389 -0.0326804
1.77016 23.4885 -21.1859 -0.299238 -0.95415 0.00742678
2.26113 23.326 -21.1375 -0.325322 -0.945287 0.0244643
2.67929 23.1946 -20.8262 -0.298982 -0.953899 0.026205
2.91369 23.1225 -20.3456 -0.307014 -0.951668 0.00514256
2.79134 23.1677 -19.7494 -0.312477 -0.949915 0.00443638
2.61372 23.2267 -19.2586 -0.322812 -0.946463 0.000388641
2.1284 23.3962 -18.8703 -0.335103 -0.942008 0.00782276
1.5691 23.5818 -18.8663 -0.292614 -0.955777 0.0294387
0.994914 23.7482 -18.8805 -0.273628 -0.961743 0.0133252
0.325408 23.929 -18.8984 -0.248205 -0.96762 0.04589
-0.176487 24.0147 -18.8874 -0.0893727 -0.992925 0.0647871
-0.683335 24.0417 -18.872 -0.0511922 -0.997776 0.0426985
-1.28996 24.0526 -18.8956 -0.00203072 -0.996822 0.0796289
-1.9349 24.0197 -18.848 0.0697494 -0.99686 0.0371028
-2.44875 23.974 -18.8765 0.125134 -0.991958 0.0182281
-2.98773 23.9088 -19.0093 0.118545 -0.992929 0.00314993
-3.05934 23.9019 -19.5171 0.10848 -0.994002 -0.0079286
-3.02211 23.9061 -20.0188 0.103036 -0.9946 0.007911
-3.02479 23.9082 -20.2566 0.096752 -0.99526 -0.0098124
