-1.2292 24.4163 -19.8267 0.0168451 -0.999491 0.00445112
-0.667625 24.4028 -19.8292 -0.0742711 -0.997163 0.00456986
-0.0258087 24.3341 -19.7748 -0.139218 -0.990261 -0.000948392
0.442991 24.2503 -19.7816 -0.226969 -0.973854 0.00971568
0.89683 24.1275 -19.8553 -0.283027 -0.959031 0.0017957
1.34343 23.9911 -19.8268 -0.307592 -0.951387 0.0126336
1.66938 23.8839 -20.1827 -0.317246 -0.948294 0.00454274
1.21187 24.0323 -20.3346 -0.30971 -0.950827 0.00291899
0.601159 24.2047 -20.2675 -0.233409 -0.972156 0.0207884
-0.00139028 24.3322 -20.1759 -0.144715 -0.989294 -0.0163401
-0.586715 24.3936 -20.1221 -0.0668462 -0.997678 0.0130836
-1.04576 24.4177 -20.2494 0.016903 -0.999493 0.00416872
-1.7381 24.3922 -20.3466 0.0659253 -0.997695 -0.0108586
-2.19273 24.3551 -20.2105 0.0743526 -0.997169 -0.00666107
-1.79998 24.3873 -19.8019 0.0814018 -0.996432 0.022312
-1.34206 24.412 -19.8078 0.0409952 -0.999033 0.0159051
-1.41091 24.4189 -19.3428 0.0460136 -0.998147 0.0335712
-0.831485 24.4215 -19.3424 -0.0471467 -0.998712 0.0187501
-0.204231 24.3774 -19.3412 -0.11563 -0.992339 0.0435085
0.280679 24.308 -19.3214 -0.187317 -0.980276 0.0624315
0.768733 24.1769 -19.3385 -0.28262 -0.957866 0.0511812
1.31181 24.0121 -19.3547 -0.301945 -0.952832 0.0306521
1.85487 23.8274 -19.3352 -0.331194 -0.943479 0.0125695
2.17271 23.7133 -19.6517 -0.327524 -0.944811 0.00777821
2.15484 23.7156 -20.2954 -0.33703 -0.941388 0.0135091
1.76068 23.8508 -20.7327 -0.323302 -0.946296 0.000159418
1.1843 24.0469 -20.8094 -0.315655 -0.948717 -0.0172313
0.597509 24.2167 -20.7456 -0.245972 -0.968945 -0.0253608
0.0880215 24.3308 -20.7179 -0.189694 -0.980972 -0.0404661
-0.467264 24.4078 -20.6371 -0.092359 -0.993848 -0.0386132
-1.02178 24.428 -20.7229 0.0340867 -0.998973 -0.0298442
-1.5164 24.4099 -20.7826 0.0497461 -0.996839 -0.0619502
-2.20628 24.3603 -20.7808 0.0886784 -0.995519 -0.0328201
-2.71319 24.3102 -20.4289 0.0949548 -0.995399 -0.0128216
-2.75455 24.3042 -19.8809 0.105328 -0.994396 0.00832093
-2.62564 24.3216 -19.4371 0.112445 -0.993554 0.01437
-2.16186 24.3693 -19.3213 0.0800092 -0.996503 0.0240249
-1.61798 24.4063 -19.3371 0.0570484 -0.997964 0.02852
-1.58501 24.424 -18.8683 0.0670358 -0.997165 0.0341691
-2.11217 24.3891 -18.8284 0.0711477 -0.99671 0.0388306
-2.79409 24.306 -18.9407 0.129306 -0.99154 0.0112539
-3.20282 24.2523 -19.31 0.130009 -0.99145 -0.00581235
-3.24055 24.2507 -19.821 0.112838 -0.99359 -0.00293796
-3.23346 24.2541 -20.3246 0.108887 -0.993979 -0.0121262
-3.15118 24.2696 -20.9205 0.104509 -0.994412 -0.0143639
-2.837 24.308 -21.1998 0.104586 -0.994354 -0.0178928
-2.28253 24.3676 -21.2813 0.107609 -0.993678 -0.0309414
-1.75891 24.4177 -21.2805 0.0909513 -0.995274 -0.034031
-1.21965 24.4536 -21.2497 0.0328967 -0.99592 -0.084026
-0.698178 24.4574 -21.1772 -0.0298032 -0.996158 -0.0718211
-0.115365 24.4058 -21.2243 -0.12177 -0.988463 -0.0900702
0.55888 24.2509 -21.2303 -0.265371 -0.95981 -0.0913386
1.06505 24.0976 -21.2597 -0.325405 -0.943147 -0.0677179
1.55382 23.9277 -21.2569 -0.329895 -0.943401 -0.031935
2.04554 23.7451 -21.2005 -0.368839 -0.929493 -0.000427646
2.41807 23.6108 -20.841 -0.350087 -0.93652 0.0191938
2.65495 23.5328 -20.3924 -0.34577 -0.938098 0.0202025
2.75152 23.5081 -19.8983 -0.342199 -0.939402 0.0205824
2.60265 23.5638 -19.4205 -0.330549 -0.943774 -0.00356457
2.39661 23.6326 -18.994 -0.346195 -0.938029 -0.0158166
1.7478 23.8687 -18.8611 -0.341381 -0.939906 0.00589257
1.20055 24.0647 -18.8724 -0.304316 -0.95186 0.0368067
0.663759 24.2299 -18.848 -0.284494 -0.958137 0.0322081
0.143581 24.3665 -18.863 -0.191964 -0.979352 0.0634048
-0.47254 24.4333 -18.8364 -0.037567 -0.997194 0.0647576
-1.08798 24.4484 -18.8512 -0.0135578 -0.998901 0.0448633
-1.37646 24.4383 -18.8676 0.0513834 -0.99741 0.0458871
