-1.13426 24.2823 19.662 0.428054 -0.902698 -0.0436535
-0.67586 24.4722 19.824 0.378452 -0.925531 -0.0129232
-0.544966 24.5182 20.1291 0.344178 -0.938901 0.00243384
-1.04095 24.3174 20.2198 0.407983 -0.912355 -0.0100696
-1.53583 24.0717 20.1822 0.471461 -0.881739 -0.0161651
-1.84908 23.9068 19.9551 0.474424 -0.880149 -0.0153637
-1.52102 24.0911 19.6208 0.473934 -0.880326 -0.0203159
-1.29216 24.21 19.6084 0.443069 -0.895693 -0.0317375
-1.12988 24.2975 19.1856 0.445652 -0.894186 -0.0345281
-0.594477 24.5264 19.3399 0.368215 -0.925714 -0.0785876
0.0442456 24.7356 19.3089 0.252677 -0.96558 -0.0617237
0.645575 24.8739 19.2539 0.192573 -0.980441 -0.0398412
1.12226 24.9537 19.2282 0.150634 -0.987794 -0.0396647
1.60379 25.0027 19.2619 0.0956561 -0.995197 -0.0207832
2.09116 25.0428 19.2689 0.0682058 -0.997541 -0.0161347
2.61894 25.0801 19.3241 0.0638978 -0.997944 -0.00495295
2.86401 25.0928 19.6906 0.0630937 -0.997978 -0.00765925
2.84106 25.0885 20.1725 0.0617995 -0.998072 -0.00545404
2.67229 25.0767 20.63 0.0628814 -0.99801 -0.000533332
2.04331 25.0293 20.6732 0.0883652 -0.995954 0.0163647
1.49501 24.9735 20.6514 0.113172 -0.993147 0.0291598
0.996062 24.9086 20.6852 0.15603 -0.987208 0.0219952
0.401914 24.8018 20.6207 0.199559 -0.97956 0.0252542
-0.0944616 24.6798 20.5249 0.269905 -0.961465 0.052303
-0.635233 24.4922 20.6299 0.371254 -0.927497 0.0422157
-1.07939 24.3015 20.671 0.433864 -0.900866 0.00123023
-1.51723 24.0771 20.6463 0.47323 -0.880936 0.00207453
-1.9473 23.8447 20.6459 0.487295 -0.873183 -0.000395384
-2.26126 23.6718 20.3082 0.490687 -0.871089 -0.0207662
-2.28636 23.6727 19.6765 0.489843 -0.87154 -0.0210808
-2.06204 23.8102 19.1981 0.479472 -0.877246 -0.0221822
-1.62382 24.0507 19.1314 0.475545 -0.878137 -0.0522704
-1.21962 24.2555 19.1503 0.442341 -0.894873 -0.0594703
-1.11422 24.3333 18.6655 0.444562 -0.894455 -0.0472589
-1.56555 24.1054 18.6612 0.455726 -0.888747 -0.0488876
-2.02242 23.8574 18.6871 0.492954 -0.868891 -0.0427653
-2.54613 23.5484 18.7158 0.504298 -0.86151 -0.0590259
-2.70548 23.4347 19.2099 0.528589 -0.848497 -0.00856929
-2.70231 23.434 19.7112 0.502299 -0.864636 0.00275196
-2.69093 23.4325 20.2005 0.489054 -0.871911 -0.0241801
-2.6313 23.4523 20.7981 0.514493 -0.857487 -0.00364588
-2.33414 23.625 21.0753 0.496262 -0.868172 0.00123847
-1.79411 23.9273 21.1981 0.479964 -0.87726 0.00702577
-1.36128 24.1608 21.1133 0.465416 -0.884963 0.0151054
-0.924162 24.388 21.1871 0.43623 -0.898728 0.0446334
-0.4361 24.6052 21.1273 0.39241 -0.916615 0.0763682
0.0107078 24.7512 21.0165 0.170521 -0.981388 0.0883126
0.549034 24.8559 21.1682 0.166663 -0.984015 0.0627473
1.24394 24.9581 21.1784 0.120691 -0.991788 0.042319
1.80754 25.0178 21.1287 0.0848019 -0.995827 0.0337187
2.28556 25.0541 21.176 0.0683559 -0.997553 0.0146735
2.90292 25.0911 21.1478 0.0583569 -0.998292 0.00261766
3.27887 25.1113 20.8944 0.0510784 -0.998688 0.00368647
3.32443 25.1164 20.342 0.0572624 -0.998325 -0.00790572
3.32858 25.1208 19.7682 0.0598634 -0.998163 -0.00932994
3.33041 25.1249 19.2412 0.0621437 -0.998056 -0.00274785
3.2217 25.1206 18.7788 0.0560312 -0.998425 -0.00270198
2.69338 25.0876 18.7805 0.0648297 -0.997885 -0.00475239
2.07491 25.0522 18.789 0.0643473 -0.99762 -0.0246678
1.55415 25.0118 18.7826 0.0910787 -0.995435 -0.02854
0.926146 24.9488 18.763 0.13031 -0.988944 -0.0632314
0.300321 24.838 18.7653 0.219097 -0.972067 -0.0830481
-0.245016 24.7134 18.8807 0.175359 -0.971627 -0.158712
-0.687404 24.5309 18.7758 0.456158 -0.883041 -0.110262
-1.02534 24.3768 18.6894 0.442217 -0.894755 -0.0610113
0.821293 24.8825 20.1482 0.139949 -0.989969 -0.0110647
1.36051 24.9611 20.2035 0.128328 -0.991591 -0.00160265
1.97048 25.0252 20.1674 0.0950978 -0.995444 -0.00350495
2.3548 25.0572 19.989 0.0776745 -0.996858 -0.0113422
2.04886 25.0371 19.7009 0.0841128 -0.996456 -0.000778124
1.41617 24.9742 19.7654 0.115076 -0.992902 -0.0226911
0.860696 24.9004 19.6833 0.167496 -0.985112 -0.0215744
0.398077 24.805 19.7585 0.227334 -0.973409 -0.0186842
-0.154701 24.6602 19.8637 0.301027 -0.952472 -0.0076946
-0.196517 24.6455 20.0471 0.301027 -0.952472 -0.00769461
0.290592 24.7732 20.107 0.227341 -0.973408 -0.0186892
0.54012 24.8256 20.1317 0.207759 -0.977857 -0.0251277
