-22.0422 5.95488 4.98276 -0.540847 0.840813 0.0227698
-21.479 6.34347 3.92377 -0.54928 0.835368 0.0212192
-21.0758 6.64179 2.72694 -0.55447 0.831819 0.0247011
-20.7401 6.9051 1.51875 -0.565964 0.823939 0.0283751
-20.0314 7.43632 0.282112 -0.570425 0.820781 0.0305566
-19.2589 8.01515 -0.580191 -0.581163 0.813086 0.0337603
-18.6585 8.49202 -1.6069 -0.585956 0.809552 0.0357839
-18.1843 8.90652 -2.89266 -0.596124 0.801419 0.0483437
-17.5081 9.5142 -4.27834 -0.612239 0.789004 0.0511233
-16.8291 10.127 -5.51252 -0.619595 0.78355 0.0456548
-15.9996 10.9108 -6.85149 -0.649633 0.758038 0.0578649
-15.4925 11.4379 -8.05127 -0.652214 0.755762 0.0586532
-15.3304 11.6849 -9.53692 -0.665137 0.744586 0.0564326
-15.4473 11.6838 -11.022 -0.674494 0.73631 0.0539129
-15.692 11.5322 -12.2651 -0.683234 0.729209 0.038029
-16.1692 11.1788 -13.7888 -0.662972 0.747792 0.03556
-16.8827 10.5902 -15.0634 -0.672763 0.739527 0.02213
-17.8076 9.82329 -16.1513 -0.648532 0.760988 0.0169972
-18.6318 9.1474 -16.9135 -0.631755 0.775054 0.0132747
-17.9289 9.73986 -17.5392 -0.646359 0.76295 0.0101687
-16.9625 10.5816 -17.658 -0.66334 0.748228 0.0115894
-16.0694 11.3943 -17.7849 -0.685517 0.72803 0.00623612
-15.1956 12.2524 -17.8515 -0.712356 0.701733 0.0109492
-14.3003 13.1881 -17.9735 -0.731332 0.681855 0.0150802
-13.4967 14.0984 -18.1118 -0.766169 0.642338 0.019678
-12.4514 15.3718 -18.1627 -0.775795 0.629643 0.0411325
-11.5243 16.6604 -18.2197 -0.81859 0.571427 0.0581542
-10.6848 17.8225 -17.6966 -0.821939 0.563179 0.0851224
-9.99398 18.5652 -16.3875 -0.807676 0.578722 0.112874
-9.23977 19.4143 -15.8082 -0.774866 0.61447 0.148303
-8.43803 20.3308 -15.645 -0.73732 0.657283 0.156008
-7.60137 21.186 -15.5641 -0.682993 0.707509 0.181528
-7.38418 21.3844 -15.5202 -0.687092 0.706941 0.167071
-7.43442 21.6308 -16.6877 -0.680167 0.711158 0.177841
-6.39411 22.5439 -16.8725 -0.59806 0.764131 0.241705
-5.25538 23.21 -16.9583 -0.380094 0.883573 0.273547
-4.13618 23.6333 -16.6629 -0.320383 0.925673 0.194013
-2.7783 24.0356 -16.6527 -0.224316 0.96593 0.125872
-1.51341 24.236 -16.5236 -0.110706 0.990887 0.0706125
-0.219918 24.2838 -16.3142 0.017484 0.998158 0.0580983
0.995988 24.1547 -16.3147 0.191345 0.981388 -0.000601939
2.31484 23.829 -16.3358 0.308594 0.947277 -0.0862303
3.59623 23.3543 -16.5681 0.352242 0.934498 -0.0337396
4.67558 22.8263 -16.7275 0.501309 0.860907 -0.0342606
5.95886 21.8755 -16.7976 0.629495 0.777004 -0.000906653
6.85419 21.0421 -16.7608 0.68799 0.717433 -0.109359
7.86133 19.9809 -17.0135 0.730311 0.672589 -0.119461
8.49232 19.1726 -17.725 0.741354 0.662208 -0.10897
8.7568 18.737 -18.8364 0.750018 0.658389 -0.0632206
9.40785 17.9579 -19.2875 0.75084 0.658538 -0.0506694
10.3432 16.9272 -19.2398 0.734906 0.672167 -0.0900257
11.3128 15.8974 -19.1028 0.721991 0.686678 -0.083421
12.1643 15.0411 -19.0012 0.708435 0.70053 -0.085673
13.1218 14.1295 -18.9497 0.689057 0.721459 -0.0685174
14.0511 13.2613 -18.7578 0.674488 0.734665 -0.070717
14.9771 12.4391 -18.8066 0.647214 0.760283 -0.0555164
16.0364 11.5471 -18.6694 0.644671 0.762511 -0.054559
17.0293 10.7193 -18.6816 0.63071 0.774532 -0.0480052
18.149 9.83391 -18.4957 0.6142 0.78726 -0.053715
19.1551 9.07065 -18.4125 0.606016 0.79338 -0.0573839
20.264 8.25525 -18.2954 0.587621 0.808024 -0.0423991
21.2737 7.5251 -18.2378 0.579238 0.814201 -0.0380874
22.3645 6.76655 -18.1672 0.567855 0.822541 -0.0309577
23.7426 5.83152 -18.0697 0.558301 0.829255 -0.0252321
24.7717 5.14758 -17.9361 0.552327 0.833316 -0.0227884
25.7883 4.48085 -17.947 0.539397 0.841803 -0.0190535
27.0104 3.70612 -17.9369 0.538335 0.842475 -0.0207632
28.1063 3.0134 -17.8802 0.532594 0.846074 -0.0223993
29.4952 2.15887 -17.5828 0.524399 0.851199 -0.0215987
30.5336 1.53068 -17.2233 0.516591 0.856064 -0.0167885
31.4594 0.996188 -16.2837 0.512073 0.85857 -0.0250764
31.6645 0.912575 -15.1101 0.508412 0.860585 -0.0301747
31.4581 1.08678 -13.663 0.508035 0.860711 -0.0328124
31.1235 1.33814 -12.3869 0.513184 0.857511 -0.0362164
30.6486 1.68497 -10.8438 0.516695 0.855417 -0.0358861
30.543 1.81597 -9.26498 0.516497 0.855491 -0.0369727
30.4875 1.92106 -7.68916 0.520801 0.852772 -0.0393126
30.6386 1.89288 -6.28739 0.516921 0.855261 -0.036346
29.619 2.49227 -6.807 0.521598 0.852499 -0.0343664
28.6105 3.07154 -7.84202 0.532203 0.845598 -0.0415142
27.7995 3.5384 -8.82999 0.541967 0.839496 -0.0389509
27.1207 3.93205 -9.82483 0.542676 0.839213 -0.0348604
26.3303 4.4088 -10.7009 0.551118 0.833594 -0.0372561
25.5347 4.89013 -11.8199 0.555321 0.83095 -0.0337789
24.7571 5.37478 -12.6471 0.557317 0.829528 -0.035639
23.7968 5.98969 -13.3913 0.55837 0.828668 -0.0391567
22.7917 6.67199 -13.7703 0.577323 0.815263 -0.0446152
21.7665 7.39466 -14.0444 0.591433 0.804751 -0.0505608
20.6365 8.23277 -14.1641 0.603154 0.796177 -0.0480384
19.5508 9.06639 -14.0664 0.60796 0.792685 -0.0451107
18.6093 9.84302 -13.6438 0.628071 0.776386 -0.0524658
17.7977 10.5741 -12.9542 0.644556 0.761915 -0.0635133
17.1735 11.212 -11.9091 0.663201 0.74448 -0.0768075
16.7309 11.7405 -10.766 0.679957 0.728322 -0.084838
16.4904 12.1007 -9.50806 0.687205 0.723583 -0.0642932
16.4311 12.2786 -8.16048 0.701338 0.710381 -0.0582396
16.504 12.3122 -6.59786 0.709704 0.702777 -0.0488785
16.6298 12.2697 -5.06068 0.69773 0.715697 -0.0308402
16.8548 12.0946 -3.52233 0.710091 0.703827 -0.0191106
17.0918 11.8895 -2.30476 0.699761 0.714377 0.000965769
17.3816 11.6078 -0.861783 0.687198 0.726465 0.00274851
17.8 11.2065 0.506129 0.67594 0.736943 0.00450832
18.1382 10.9039 1.66081 0.664297 0.747342 0.0138092
18.6469 10.4444 2.67174 0.654289 0.756191 -0.00898671
19.4627 9.78279 3.93005 0.643898 0.764894 -0.018252
20.3159 9.10522 4.42931 0.623873 0.78095 -0.0299836
21.4345 8.25725 4.83396 0.604714 0.796363 -0.00949422
22.3891 7.54968 5.085 0.587051 0.80949 -0.0055794
23.3549 6.86894 5.37934 0.571833 0.820363 -0.00356595
24.4512 6.11815 5.83882 0.561641 0.827362 -0.00508074
25.4755 5.43877 6.24905 0.549269 0.835567 -0.0100061
26.6065 4.70985 6.61076 0.541766 0.840448 -0.0117023
27.6818 4.03454 6.98855 0.529803 0.848074 -0.00875329
28.7895 3.35303 7.45522 0.523279 0.852144 -0.00548365
29.7644 2.7626 8.14571 0.517679 0.855545 -0.00634841
30.5414 2.30348 8.98931 0.511709 0.859151 -0.00366565
31.3316 1.83992 10.2557 0.507264 0.861789 0.000206133
31.7581 1.5889 11.6547 0.505104 0.863056 0.00113879
32.2327 1.30941 12.9958 0.503558 0.86396 0.00146559
32.5397 1.12971 14.2559 0.496923 0.867791 0.00237099
32.817 0.966586 15.5922 0.492886 0.870077 0.00473074
32.8447 0.933292 17.2502 0.493745 0.869528 0.0117125
31.7055 1.57611 18.092 0.499487 0.86628 0.00812304
30.6618 2.18313 18.4865 0.506088 0.862438 0.0087226
29.2285 3.03865 18.6923 0.518187 0.855231 0.00727499
28.1578 3.69061 18.9419 0.531592 0.846926 0.0109666
26.8707 4.50219 19.1663 0.538634 0.842459 0.01172
25.3126 5.51504 19.1867 0.548088 0.836352 0.010694
24.2806 6.2063 19.3195 0.560639 0.828037 0.00439477
22.7803 7.24595 19.3982 0.57927 0.815124 0.00431337
21.7407 7.99278 19.4632 0.59109 0.806592 -0.00472079
20.7009 8.77053 19.5596 0.608531 0.793523 -0.00331452
19.4388 9.77333 19.5238 0.625952 0.779818 0.0082218
18.4386 10.6084 19.5578 0.649019 0.760747 0.00625419
17.2799 11.6241 19.4139 0.665499 0.746396 -0.00173963
16.2335 12.6125 19.3684 0.691381 0.722433 0.0091118
15.2081 13.6378 19.3774 0.717995 0.696036 0.00411827
14.3501 14.5764 19.3598 0.751394 0.6598 0.00841707
13.3606 15.7536 19.2445 0.781701 0.623651 0.00139948
12.6004 16.723 19.2481 0.79078 0.612015 -0.0102586
11.8487 17.7544 19.2668 0.826252 0.562482 -0.0303637
11.3118 18.5238 18.734 0.832934 0.552436 -0.032168
10.973 18.9324 17.4692 0.831329 0.551939 -0.0636787
10.1017 20.0725 16.6737 0.808267 0.580446 -0.0989331
9.27948 21.1541 16.5638 0.793389 0.600911 -0.0970969
8.38588 22.194 16.4709 0.732652 0.673064 -0.100201
7.52651 23.0146 16.4168 0.670923 0.735055 -0.0976015
6.83398 23.6475 17.3955 0.560132 0.826362 -0.0581196
6.42143 23.9439 18.503 0.4891 0.871863 -0.0252168
5.8497 24.2379 18.5732 0.423152 0.905729 0.0204013
5.35113 24.482 17.4848 0.428016 0.903627 0.0151675
4.46034 24.8343 16.7054 0.254973 0.966373 -0.0188536
3.30833 25.0896 16.4888 0.16709 0.98589 0.0101257
2.11214 25.1779 16.6202 0.0228276 0.996957 0.0745296
0.79121 25.0557 16.5863 -0.174504 0.981323 0.0809522
-0.422544 24.7242 16.4329 -0.33009 0.941408 0.0607676
-1.51681 24.2894 16.1465 -0.426566 0.901948 0.064894
-2.46637 23.8563 15.4681 -0.459466 0.886875 0.048334
-2.8654 23.7148 14.3264 -0.446449 0.893738 0.0436915
-3.4942 23.4133 13.3164 -0.453615 0.889855 -0.0489073
-3.7984 23.0171 12.1578 -0.587397 0.783379 -0.203124
-4.4189 22.3287 11.2365 -0.631864 0.756215 -0.169914
-5.08883 21.5852 10.5577 -0.66998 0.722416 -0.171006
-5.8801 20.647 9.91398 -0.703794 0.689055 -0.172688
-6.66852 19.711 9.78146 -0.768508 0.621342 -0.152741
-7.37123 18.8948 10.4399 -0.82345 0.559287 -0.0955354
-7.67313 18.5459 11.6477 -0.83689 0.546886 -0.0219166
-7.70007 18.5341 13.0248 -0.827837 0.560487 -0.0155779
-7.72982 18.5393 14.4054 -0.807715 0.589252 -0.0194746
-7.85557 18.4044 15.7685 -0.801298 0.59813 -0.012416
-7.76521 18.559 17.3289 -0.812042 0.583456 -0.012925
-7.80825 18.5234 18.5876 -0.812323 0.583154 -0.00798214
-8.38965 17.7315 19.2314 -0.802801 0.596164 -0.00926735
-9.19628 16.6831 19.2115 -0.784898 0.619539 0.00528142
-10.1527 15.5206 19.1935 -0.759092 0.650969 0.00440723
-11.1707 14.3699 19.2381 -0.735606 0.677366 -0.00768642
-12.0556 13.4409 19.278 -0.702021 0.711919 -0.0183817
-13.0032 12.5255 19.3819 -0.686058 0.727469 -0.0106124
-14.1186 11.5243 19.3657 -0.649995 0.759864 -0.000180768
-15.1569 10.6575 19.3199 -0.629886 0.776667 -0.00562764
-16.1778 9.84732 19.4205 -0.61049 0.792023 0.00125206
-17.3251 8.9836 19.273 -0.592057 0.805889 0.00348382
-18.3426 8.25005 19.2078 -0.574099 0.818685 0.0127438
-19.4997 7.44434 19.2704 -0.567572 0.823209 0.0137437
-20.5031 6.77065 19.1793 -0.550619 0.834516 0.0200304
-21.8293 5.9055 19.1087 -0.538849 0.842383 0.00118063
-23.1581 5.06866 18.9219 -0.531714 0.846919 0.00289717
-24.3439 4.3356 18.6715 -0.52134 0.853332 0.00545904
-25.5858 3.58286 18.4023 -0.516028 0.856546 0.00667105
-26.702 2.91592 18.1984 -0.510321 0.859942 0.00850662
-27.8316 2.25744 17.9914 -0.500126 0.865909 0.00867739
-29.1568 1.50129 17.5045 -0.494844 0.86896 0.00624006
-30.1303 0.953261 16.8629 -0.491247 0.871006 0.00499736
-30.2519 0.892706 15.6732 -0.49473 0.869009 0.00805887
-30.1957 0.940568 14.2235 -0.494466 0.869131 0.0107116
-30.145 0.994749 12.5029 -0.491554 0.870706 0.0156078
-30.2593 0.955056 11.144 -0.489886 0.871629 0.0165534
-30.3173 0.954473 9.5892 -0.49024 0.871399 0.0180629
-30.4501 0.913889 8.0801 -0.488596 0.87227 0.0204719
-30.5474 0.886623 6.85764 -0.485823 0.873925 0.015089
-30.085 1.15601 6.08795 -0.487383 0.873062 0.0148672
-28.9661 1.77619 6.37152 -0.489 0.872144 0.015542
-27.6951 2.49224 6.54206 -0.494212 0.86921 0.0151117
-26.4976 3.19008 6.53057 -0.507169 0.861713 0.0151644
-25.1651 3.99293 6.24502 -0.513589 0.857887 0.0160202
-24.1616 4.60955 5.68599 -0.519591 0.85425 0.0167882
-23.2511 5.18877 4.87589 -0.529706 0.847982 0.0184097
-22.5201 5.67704 3.89319 -0.535944 0.843987 0.0212102
-22.0612 5.99779 2.78611 -0.537441 0.842904 0.0258843
-21.728 6.25321 1.42908 -0.539395 0.841603 0.0275207
-21.2188 6.62898 0.14549 -0.557191 0.830049 0.0235983
-20.42 7.21499 -0.884276 -0.563232 0.825604 0.0337282
-19.6892 7.76382 -1.80271 -0.577209 0.815813 0.035655
-19.2123 8.15394 -2.88047 -0.579905 0.813337 0.0464814
-18.8248 8.50599 -4.00595 -0.59504 0.802309 0.0466962
-18.1431 9.0833 -5.22666 -0.603987 0.795463 0.0493724
-17.4897 9.64294 -6.32612 -0.620605 0.782865 0.0437745
-16.7357 10.3458 -7.62665 -0.63258 0.772374 0.0572765
-16.2875 10.7979 -8.81702 -0.650344 0.758333 0.0439086
-16.2169 10.9362 -10.1543 -0.658375 0.751148 0.048161
-16.4574 10.8205 -11.6865 -0.661149 0.748655 0.048782
-16.7629 10.6112 -12.9249 -0.656191 0.753798 0.0340313
-17.2637 10.2207 -13.9472 -0.654878 0.755171 0.0290677
-17.9961 9.62072 -14.8219 -0.638286 0.769387 0.0251907
-18.7541 9.01854 -15.6662 -0.628385 0.777426 0.0230979
-20.0258 8.04718 -16.716 -0.604467 0.796543 0.0104133
-20.9309 7.38359 -17.168 -0.586337 0.809915 0.0155701
-21.729 6.82607 -18.0551 -0.580708 0.813942 0.0153559
-20.7052 7.56132 -18.2416 -0.582241 0.812998 0.00554924
-19.7122 8.30313 -18.4476 -0.611618 0.791 0.0116948
-18.4669 9.3007 -18.6454 -0.63735 0.770463 0.00909806
-17.3905 10.2071 -18.7473 -0.644816 0.764322 0.00493584
-16.3741 11.1215 -18.8741 -0.678158 0.734832 -0.0110852
-15.3097 12.1463 -19.0359 -0.712054 0.702107 -0.0016477
-14.4556 13.0356 -19.1274 -0.735899 0.677069 0.00548767
-13.5553 14.0564 -19.2954 -0.764079 0.64501 0.0120779
-12.7796 15.0072 -19.3191 -0.791744 0.610418 0.0230333
-11.9248 16.1636 -19.3543 -0.813717 0.580981 0.0178685
-11.165 17.2768 -19.3301 -0.836797 0.546565 0.0321976
-10.4965 18.3049 -19.2051 -0.841974 0.538582 0.0315309
-10.1596 18.7047 -18.1374 -0.834967 0.539238 0.109513
-9.55433 19.3336 -17.0604 -0.799079 0.575834 0.171097
-8.67439 20.3693 -16.7965 -0.730488 0.654269 0.195754
-7.56837 21.5056 -16.6996 -0.680167 0.711158 0.17784
-7.85561 21.6007 -17.873 -0.672434 0.702294 0.233536
-6.90092 22.4735 -17.8963 -0.597828 0.765927 0.236554
-6.02183 23.182 -18.432 -0.42428 0.887795 0.167405
-5.61902 23.3922 -18.5322 -0.454107 0.884465 0.107129
-4.48241 23.7716 -17.8939 -0.34543 0.914053 0.212567
-3.31126 24.1023 -17.837 -0.219206 0.961597 0.165167
-2.09708 24.285 -17.7587 -0.0960343 0.981322 0.162199
-0.880262 24.3703 -17.6161 -0.0671239 0.993224 0.0948725
0.285242 24.3186 -17.5765 0.117552 0.991422 0.0571388
1.58416 23.9939 -17.3754 0.291182 0.956128 -0.0318037
2.81077 23.5527 -17.6689 0.255211 0.961541 -0.101523
4.02248 23.1469 -17.8826 0.359166 0.932936 0.0251132
5.08224 22.563 -17.9078 0.569863 0.821284 0.0230779
6.09658 21.7148 -17.913 0.681018 0.730776 -0.046697
6.98305 20.8311 -17.8884 0.720015 0.692615 -0.0431649
7.81575 19.8643 -18.1578 0.732327 0.673854 -0.0980695
8.02458 19.5517 -19.338 0.747967 0.66362 -0.011441
8.26306 19.2236 -20.5049 0.765147 0.643455 -0.0227142
9.18644 18.1328 -20.486 0.756364 0.652716 -0.0432994
10.0176 17.1718 -20.5339 0.751438 0.657998 -0.0487742
10.8627 16.2273 -20.3928 0.725646 0.68748 -0.0284477
11.8296 15.2627 -20.2666 0.708916 0.702645 -0.0610154
12.6993 14.4245 -20.1385 0.693984 0.716958 -0.0657646
13.7645 13.429 -19.93 0.686249 0.725286 -0.0549776
14.7894 12.514 -19.9466 0.652537 0.755542 -0.0573587
15.7596 11.6928 -19.8597 0.642179 0.76396 -0.0622467
16.8721 10.7812 -19.7832 0.634919 0.770332 -0.0588804
17.832 10.0125 -19.7149 0.626528 0.778212 -0.042989
18.8092 9.26793 -19.5741 0.609368 0.791625 -0.044733
20.0175 8.37311 -19.4851 0.59634 0.801843 -0.0377613
21.0037 7.66828 -19.4377 0.577863 0.815706 -0.0264293
22.1686 6.86063 -19.2623 0.568459 0.82199 -0.0344432
23.1847 6.17132 -19.2367 0.557522 0.829889 -0.0213088
24.2578 5.45529 -19.1839 0.552943 0.832975 -0.0201785
25.3291 4.75318 -19.0752 0.544148 0.83877 -0.0191977
26.6577 3.90309 -19.0731 0.535648 0.844205 -0.019914
27.8696 3.13638 -19.0262 0.533643 0.84553 -0.0173915
28.9417 2.4675 -18.9158 0.527197 0.849542 -0.0181321
29.9767 1.84258 -18.6114 0.516427 0.856215 -0.0140763
31.0006 1.23162 -18.2405 0.513593 0.857937 -0.0121231
32.0998 0.586829 -17.4448 0.512255 0.858793 -0.00833474
32.4866 0.379553 -16.3068 0.51813 0.854537 -0.0331518
32.7353 0.286722 -14.9278 0.508178 0.860733 -0.0299065
32.4882 0.479367 -13.6547 0.506994 0.861276 -0.0340702
32.1208 0.751102 -12.2561 0.509194 0.860042 -0.0323033
31.6658 1.07777 -10.7502 0.512921 0.857706 -0.0353672
31.5059 1.22504 -9.51014 0.512076 0.858205 -0.0355198
31.4168 1.3429 -8.10892 0.512164 0.857873 -0.0417307
31.5054 1.35099 -6.75746 0.509079 0.86001 -0.0349417
31.7907 1.23951 -5.44716 0.512664 0.857746 -0.0378577
32.5124 0.872913 -3.91519 0.510295 0.859388 -0.0322603
32.1745 1.09726 -3.18924 0.510531 0.859413 -0.027683
31.0262 1.7489 -4.08903 0.515002 0.856642 -0.0304886
30.0359 2.31348 -4.92102 0.517275 0.855138 -0.0341011
29.0094 2.91219 -5.77156 0.526744 0.849388 -0.0328764
28.2456 3.35263 -6.67354 0.532766 0.845529 -0.0352439
27.499 3.79025 -7.58409 0.539798 0.840957 -0.0375495
26.7493 4.22823 -8.5823 0.542143 0.839425 -0.0380189
25.9914 4.68588 -9.44105 0.548363 0.835569 -0.0334888
25.3007 5.10641 -10.3519 0.551751 0.833453 -0.030449
24.302 5.73302 -11.5914 0.566427 0.823417 -0.0338281
23.3368 6.36619 -12.3794 0.578974 0.814134 -0.0442142
22.2252 7.14187 -12.649 0.583148 0.810744 -0.0511325
21.1517 7.91769 -12.986 0.599405 0.798796 -0.05137
19.8104 8.94345 -12.9257 0.610851 0.789501 -0.0595716
18.9281 9.67657 -12.5073 0.625675 0.7772 -0.0670102
18.2078 10.3224 -11.8348 0.651367 0.756246 -0.0617416
17.5923 10.9882 -10.5039 0.664243 0.744206 -0.0695453
17.3128 11.3369 -9.3146 0.687204 0.723584 -0.0642939
17.2722 11.4768 -8.1167 0.68355 0.728899 -0.03828
17.3155 11.512 -6.77036 0.689718 0.723012 -0.039284
17.4105 11.488 -5.49565 0.692212 0.720826 -0.0342071
17.6119 11.3482 -4.22257 0.687525 0.725917 -0.0188219
17.8353 11.16 -3.01699 0.678535 0.734192 -0.0178729
18.102 10.94 -1.50225 0.674883 0.737828 -0.00677961
18.5014 10.5878 -0.191915 0.657888 0.752997 0.0100343
18.9004 10.2396 0.961755 0.641685 0.766968 -0.000210738
19.4037 9.8192 2.08941 0.635327 0.772199 -0.00143786
20.0877 9.27009 3.17201 0.626417 0.779445 -0.00612921
21.0133 8.55596 3.52275 0.610079 0.792333 -0.00350154
22.0029 7.81994 3.77165 0.588699 0.808288 -0.0102135
22.9641 7.12837 3.98586 0.579213 0.8151 -0.0111768
24.1204 6.33004 4.44025 0.565852 0.824455 -0.00900689
25.0599 5.69633 4.86906 0.55057 0.834619 -0.0168255
26.208 4.94906 5.25318 0.543199 0.839535 -0.0107863
27.2664 4.27733 5.56027 0.530956 0.847318 -0.011526
28.2548 3.66685 5.97206 0.527324 0.849599 -0.0105146
29.2451 3.0638 6.49332 0.522381 0.852646 -0.0106397
30.171 2.51069 7.04235 0.515804 0.856657 -0.00919192
31.233 1.88838 8.10928 0.507448 0.861659 -0.00638525
31.9799 1.45793 9.03165 0.502021 0.864844 -0.00442016
32.4913 1.16212 10.5908 0.504058 0.863669 0.000464093
32.8692 0.942019 11.8429 0.500045 0.866 7.80469e-05
33.2873 0.704608 13.0902 0.494904 0.868948 -0.000114194
33.6307 0.509243 14.4166 0.492493 0.870315 0.00145674
33.8966 0.358324 15.5971 0.481934 0.876189 0.00558937
33.9783 0.296327 16.8504 0.490263 0.871451 0.0146785
33.6604 0.459982 18.0547 0.493475 0.869696 0.0104621
32.6427 1.02962 18.9583 0.497082 0.867658 0.00888582
31.4229 1.72791 19.4835 0.503279 0.864086 0.00777862
30.3604 2.35006 19.6763 0.510294 0.859978 0.00610127
28.919 3.21357 20.0131 0.517427 0.855688 0.00820039
27.8789 3.8511 20.2244 0.529994 0.847946 0.00968547
26.8287 4.51549 20.3327 0.539918 0.841664 0.00946847
25.7696 5.20147 20.3121 0.551462 0.834141 0.00846904
24.671 5.93568 20.3679 0.560635 0.828037 0.0052343
23.6805 6.61082 20.494 0.567859 0.82311 0.00220363
22.6565 7.32517 20.523 0.582586 0.812746 0.00421886
21.3678 8.26092 20.5754 0.591565 0.806233 0.00624496
20.3789 9.01193 20.6118 0.614742 0.788696 0.00710088
19.4054 9.7814 20.6743 0.63029 0.776238 0.0117846
18.2188 10.7787 20.6903 0.659056 0.752021 0.0104393
17.2982 11.5956 20.6594 0.670217 0.742098 0.00997604
16.0722 12.7507 20.5699 0.699936 0.714067 0.00516684
15.0179 13.8317 20.553 0.735121 0.677927 -0.00346822
14.1906 14.757 20.5062 0.757982 0.652273 -0.00179691
13.4037 15.6987 20.501 0.773651 0.633126 0.0248215
12.6672 16.6463 20.4754 0.794924 0.606683 -0.00570319
11.942 17.6468 20.4784 0.824818 0.565386 -0.00374994
11.2468 18.6755 20.5303 0.833931 0.551845 -0.00505203
10.7196 19.4758 20.1171 0.836233 0.548373 -0.00114229
10.681 19.5006 18.7809 0.847516 0.530088 -0.0266262
10.2683 20.0317 17.7758 0.821535 0.559686 -0.108357
9.53472 21.0218 17.7416 0.792988 0.60006 -0.105296
8.72662 22.0103 17.7834 0.743694 0.662041 -0.0928447
7.90916 22.8676 17.7742 0.664445 0.735591 -0.131981
7.37703 23.3479 18.741 0.557194 0.83012 -0.0208608
7.38157 23.3349 19.9444 0.545428 0.83813 0.00639474
6.21857 24.0311 20.3657 0.491899 0.870599 0.00960906
5.10478 24.5555 20.3317 0.404555 0.91449 0.00552827
4.91826 24.6484 19.2305 0.412524 0.910816 0.0030225
4.42666 24.8578 18.1035 0.375481 0.926065 0.0376568
3.36759 25.0867 17.7121 0.0840374 0.99625 -0.0205772
1.97782 25.0943 17.7993 -0.0525127 0.99689 0.0577354
0.746782 24.9723 17.7661 -0.160061 0.984171 0.0660813
-0.590877 24.6089 17.7003 -0.330509 0.943457 0.0255265
-1.75632 24.0964 17.3443 -0.450325 0.891508 0.0491991
-2.68177 23.6555 16.7191 -0.475271 0.87431 0.098488
-3.4431 23.3076 15.9719 -0.474173 0.878421 0.0594602
-3.73417 23.2357 14.8005 -0.466469 0.881904 0.068048
-4.04881 23.1426 13.5357 -0.45081 0.891941 -0.0256777
-4.62444 22.5258 12.6916 -0.60944 0.758945 -0.229314
-5.28843 21.7375 11.9346 -0.656875 0.727598 -0.196381
-5.9593 20.9075 11.22 -0.697625 0.689449 -0.194883
-6.74906 19.8972 10.7721 -0.71262 0.652895 -0.247854
-7.1016 19.4657 11.7646 -0.852346 0.522972 0.00267263
-7.0695 19.475 13.2265 -0.832988 0.553032 0.0105781
-7.07154 19.4552 14.5295 -0.81317 0.58202 -0.00275365
-7.13162 19.384 15.8326 -0.804302 0.593961 -0.0173018
-7.08312 19.5017 17.3027 -0.809388 0.586773 -0.0239376
-7.16009 19.4332 18.5129 -0.815414 0.578801 -0.00908632
-7.13336 19.4801 19.8257 -0.817681 0.57567 0.00150757
-7.6318 18.7766 20.3382 -0.814291 0.580429 0.00573967
-8.45942 17.6418 20.4056 -0.802394 0.596794 0.00115647
-9.20968 16.6596 20.3262 -0.789015 0.614351 0.00523855
-10.0586 15.6239 20.3438 -0.76683 0.641792 0.0081636
-10.8619 14.698 20.4071 -0.743623 0.668378 0.00151149
-11.9761 13.5194 20.5243 -0.711316 0.702866 0.00311867
-12.8441 12.6729 20.5126 -0.688772 0.724961 0.00501158
-13.9731 11.6499 20.517 -0.663285 0.748311 0.00913326
-14.911 10.8538 20.4551 -0.638846 0.769218 0.0101608
-15.9019 10.0529 20.5258 -0.620027 0.78457 0.00403029
-17.1698 9.07312 20.5254 -0.598278 0.801081 0.013559
-18.1475 8.36539 20.464 -0.570552 0.821119 0.0152948
-19.3711 7.5148 20.4523 -0.566843 0.823774 0.00739192
-20.5318 6.73337 20.3282 -0.542317 0.840166 0.00373283
-21.5733 6.06503 20.309 -0.538615 0.84248 0.0110526
-22.597 5.41847 20.1929 -0.533043 0.846063 0.005303
-23.9276 4.58727 19.9975 -0.525463 0.850816 0.000490356
-25.1734 3.82457 19.6413 -0.519977 0.854127 0.00954248
-26.1914 3.20923 19.4364 -0.51706 0.855917 0.00738674
-27.2872 2.55889 19.2562 -0.502357 0.864625 0.00634355
-28.3817 1.93008 19.029 -0.497206 0.867592 0.0079542
-29.565 1.25944 18.6631 -0.493815 0.869536 0.00719641
-30.7236 0.609733 18.0386 -0.491674 0.870739 0.00840519
-31.2797 0.305151 16.9003 -0.492456 0.870337 0.00113148
-31.2026 0.352678 15.6524 -0.49517 0.868786 0.000897633
-31.1708 0.384131 14.3128 -0.497089 0.867593 0.0135685
-31.093 0.453789 12.8204 -0.493028 0.869878 0.0153776
-31.2482 0.392926 11.5175 -0.489506 0.871773 0.0197196
-31.312 0.383832 10.1744 -0.488307 0.872506 0.0170307
-31.3174 0.407727 8.94429 -0.488962 0.872065 0.0204573
-31.5413 0.323039 7.38585 -0.486031 0.873661 0.0219776
-31.65 0.294764 5.87594 -0.481813 0.876183 0.0120905
-31.4355 0.420942 4.58225 -0.487549 0.873074 0.0043555
-30.4367 0.980112 4.57106 -0.486025 0.873892 0.00959804
-29.3221 1.5982 5.02131 -0.490413 0.871403 0.0122534
-28.2549 2.19604 5.27601 -0.493131 0.869821 0.0152835
-27.2089 2.79209 5.5027 -0.503732 0.863659 0.0186305
-26.1819 3.40197 5.3819 -0.511943 0.858816 0.0186983
-25.0631 4.07875 5.00854 -0.51447 0.857332 0.0174008
-23.9213 4.79369 4.06194 -0.521807 0.852818 0.0204884
-23.2128 5.25895 3.14024 -0.529254 0.848129 0.0238336
-22.8352 5.52823 1.98741 -0.538097 0.842506 0.0251975
-22.4824 5.79299 0.644079 -0.537367 0.843004 0.0240901
-22.0341 6.11712 -0.494622 -0.54217 0.839672 0.0316345
-21.3692 6.58995 -1.39259 -0.555699 0.830825 0.0304687
-20.5296 7.20484 -2.4232 -0.566953 0.822977 0.0356762
-19.9683 7.65362 -3.55744 -0.579904 0.813337 0.0464831
-19.5646 8.00204 -4.79031 -0.588523 0.807559 0.0382816
-18.8374 8.59785 -6.05729 -0.597222 0.801121 0.0391327
-18.1992 9.13413 -7.08771 -0.60802 0.792813 0.0419487
-17.5708 9.70003 -8.23077 -0.627229 0.777163 0.0498423
-17.1633 10.0956 -9.36118 -0.63221 0.773789 0.0394935
-17.1604 10.1551 -10.6215 -0.64388 0.76433 0.0348769
-17.3798 10.0381 -11.9208 -0.652244 0.756759 0.0423269
-17.8704 9.67479 -13.192 -0.63235 0.774148 0.0287625
-18.5975 9.09691 -14.0432 -0.628971 0.77699 0.0232017
-19.5817 8.34886 -15.0251 -0.607708 0.79373 0.0226343
-20.4702 7.69861 -15.6396 -0.601079 0.799009 0.0169802
-21.5958 6.88698 -16.1641 -0.580457 0.814153 0.0137101
-22.6074 6.18955 -16.6365 -0.563062 0.82633 0.0118079
-23.5923 5.52733 -17.0063 -0.552321 0.833585 0.0087791
-24.3495 5.0326 -17.7393 -0.550511 0.834792 0.00754081
-23.7789 5.41726 -18.651 -0.557706 0.829966 0.00825221
-22.6755 6.17283 -19.0549 -0.565438 0.824788 -0.00179166
-21.3687 7.09051 -19.3259 -0.584817 0.811162 0.00230051
-20.4075 7.79791 -19.5072 -0.595573 0.803218 0.011562
-19.1851 8.73071 -19.5798 -0.606959 0.794731 -0.00195416
-18.2572 9.47831 -19.8155 -0.635533 0.772067 -0.00326255
-17.0648 10.4919 -19.8689 -0.657414 0.753524 0.00298639
-16.1423 11.3328 -20.121 -0.682561 0.730778 0.00611097
-15.1832 12.2759 -20.2012 -0.71258 0.701566 0.00330099
-14.3574 13.1513 -20.2819 -0.744706 0.667347 -0.00776695
-13.4829 14.142 -20.4372 -0.756072 0.654291 -0.0160867
-12.5124 15.3747 -20.5001 -0.800683 0.598963 0.00458544
-11.6581 16.5748 -20.5448 -0.824215 0.566248 0.00574757
-10.9438 17.6394 -20.4043 -0.832802 0.55357 -0.00135458
-10.1935 18.8063 -20.4411 -0.841354 0.540463 -0.00128382
-9.76316 19.4709 -19.5511 -0.848296 0.529423 0.0102466
-9.63991 19.6033 -18.3737 -0.859991 0.497548 0.113404
-8.84991 20.4998 -17.8605 -0.76029 0.612872 0.215164
-8.08321 21.3592 -17.876 -0.714132 0.66995 0.202936
23.8967 6.50287 6.87335 0.568205 0.822799 -0.00839758
24.9412 5.80595 7.30471 0.553708 0.832637 -0.0110394
26.1137 5.04142 7.68491 0.544328 0.838807 -0.0104984
27.1821 4.36066 8.03731 0.535551 0.844462 -0.00831752
28.3444 3.63726 8.49183 0.528074 0.849179 -0.00579662
29.2494 3.08297 9.22851 0.519872 0.854229 -0.005099
30.1462 2.54508 10.2788 0.51212 0.858902 -0.00445497
30.651 2.24005 11.4076 0.511145 0.859478 0.00445577
31.0256 2.0152 12.5487 0.504882 0.863184 0.00291717
31.3998 1.79214 13.8268 0.503217 0.864151 0.00373897
31.7375 1.58428 15.5126 0.501781 0.864956 0.00583384
31.5394 1.68655 16.8639 0.501487 0.865089 0.0110567
30.4951 2.29256 17.3322 0.506496 0.862197 0.00878574
29.3532 2.97575 17.4521 0.515662 0.856747 0.00880109
28.0151 3.79031 17.7685 0.528972 0.848577 0.0078141
26.7171 4.61416 18.0098 0.5409 0.841072 0.00501375
25.5362 5.38454 17.9888 0.548533 0.836053 0.0112751
24.1949 6.2714 18.1953 0.55935 0.828864 0.00739977
23.0002 7.09838 18.2577 0.576692 0.816929 0.00733675
21.9265 7.85954 18.317 0.580431 0.814306 0.00226148
20.8691 8.64499 18.3885 0.602999 0.797722 0.00554591
19.8478 9.4523 18.3618 0.627076 0.778957 0.00130863
18.885 10.2366 18.4196 0.636881 0.770909 -0.00907602
17.8594 11.1116 18.3359 0.652804 0.757511 -0.00488774
16.8908 12.0032 18.2076 0.684589 0.728927 0.00152723
15.9659 12.8893 18.1482 0.701988 0.712104 -0.011038
15.11 13.7456 18.1858 0.724521 0.689196 -0.00234039
14.1718 14.7695 18.1443 0.754829 0.655893 -0.0061547
13.2748 15.837 18.0271 0.769009 0.639086 -0.0105374
12.4241 16.9187 18.0588 0.795578 0.605582 -0.0164698
11.7277 17.8339 17.535 0.816837 0.574888 -0.0477584
11.1843 18.4984 16.3369 0.813159 0.579825 -0.0507516
10.4995 19.3504 15.5638 0.800147 0.595068 -0.0752236
10.7084 18.9257 14.4394 0.796837 0.599642 -0.0737071
11.141 18.2535 13.5365 0.79386 0.604125 -0.0694259
11.3675 17.8825 12.337 0.782727 0.621872 -0.0242372
11.5166 17.6671 11.145 0.773536 0.63323 -0.0257033
11.4834 17.68 9.91883 0.764523 0.644592 -0.00227373
11.4947 17.6863 8.72264 0.774981 0.631226 0.0309507
11.3883 17.8767 7.47697 0.785581 0.617994 0.0307505
11.2124 18.1822 6.30285 0.784877 0.617438 0.0523245
11.4087 18.0374 5.08036 0.81059 0.58356 0.049011
11.5061 18.0435 3.67919 0.808097 0.584841 0.0701403
11.439 18.2862 2.49089 0.805513 0.588264 0.0713754
11.1846 18.7522 1.20704 0.807128 0.589 0.0376028
10.7922 19.3339 0.0600189 0.806232 0.591371 0.0125734
10.465 19.7817 -1.15499 0.798844 0.601377 -0.00913192
10.0063 20.3548 -2.13388 0.78557 0.617505 -0.0331681
9.33672 21.0664 -3.04128 0.748166 0.654226 -0.110616
8.54415 21.7427 -3.9952 0.694339 0.705031 -0.144307
7.60989 22.5575 -4.59337 0.681921 0.724176 -0.100888
6.6479 23.177 -5.05476 0.559608 0.816408 -0.142537
5.30272 23.9233 -5.2947 0.426409 0.900382 -0.0787499
3.77439 24.5206 -5.17878 0.290335 0.951625 -0.0939823
2.54404 24.8107 -4.89451 0.146865 0.987273 -0.0610116
1.86463 24.8948 -4.90775 -0.00925877 0.996346 -0.080333
2.36519 24.7593 -6.16036 0.180168 0.977699 -0.107906
2.5919 24.5363 -7.56932 0.231299 0.96597 -0.115638
2.63527 24.4199 -8.8565 0.245869 0.96722 -0.0633667
2.49048 24.2884 -10.1919 0.176898 0.976526 -0.121504
2.08972 24.2767 -11.3581 0.180339 0.981548 -0.0523763
1.55719 24.2957 -12.4575 0.078324 0.996181 -0.0253854
0.748176 24.2838 -13.5742 0.00493211 0.999955 0.00811255
-0.30452 24.2176 -14.4127 -0.0974091 0.99504 -0.0129978
-1.63501 24.085 -14.9283 -0.160998 0.985504 0.0534938
-2.84031 23.811 -15.0567 -0.274411 0.956168 0.102187
-3.08473 23.7938 -15.4952 -0.26859 0.95574 0.120082
-1.86704 24.1048 -15.4356 -0.199362 0.973606 0.103136
-0.66896 24.214 -15.2052 -0.0923875 0.994303 0.0531646
0.657953 24.2142 -15.1982 0.0752549 0.996248 -0.0427416
1.90407 24.0377 -15.2064 0.197468 0.977374 -0.0708538
3.06276 23.6601 -15.3353 0.344629 0.934256 -0.0916357
4.56941 22.9255 -15.5434 0.444795 0.893597 -0.0554969
5.6164 22.2603 -15.6588 0.579547 0.809056 -0.0804485
6.72969 21.3257 -15.6014 0.677515 0.729681 -0.0924057
7.72953 20.3358 -15.7701 0.713012 0.692435 -0.108067
8.53278 19.3981 -16.2153 0.735757 0.665806 -0.123948
9.1324 18.5691 -17.0959 0.736983 0.665158 -0.119972
9.59219 17.915 -18.0727 0.734618 0.670707 -0.102405
10.5766 16.8478 -18.0124 0.733121 0.671729 -0.10634
11.5232 15.8301 -17.8964 0.719587 0.685817 -0.107305
12.4019 14.9537 -17.8261 0.699146 0.70933 -0.0892542
13.4917 13.896 -17.6985 0.685602 0.724867 -0.0672117
14.5287 12.938 -17.6495 0.664407 0.743817 -0.0727941
15.7354 11.8905 -17.5348 0.65308 0.754901 -0.0600906
16.6754 11.0917 -17.5208 0.642708 0.763666 -0.0610615
17.8504 10.1476 -17.399 0.625483 0.778146 -0.0570627
18.9775 9.28653 -17.2473 0.605944 0.793929 -0.0500824
20.0849 8.46005 -17.1612 0.597764 0.800017 -0.0514769
21.267 7.59063 -17.0983 0.582445 0.811725 -0.0431037
22.3128 6.8411 -17.0749 0.56578 0.823823 -0.034158
23.3692 6.12656 -16.9799 0.559135 0.828366 -0.0343134
24.7283 5.21831 -16.8105 0.554725 0.831507 -0.0293611
25.8076 4.50877 -16.8223 0.539601 0.841311 -0.0317903
27.1668 3.6425 -16.7606 0.539289 0.841623 -0.0289522
28.4395 2.83823 -16.6573 0.529523 0.848108 -0.0178145
29.6574 2.08564 -16.3806 0.523543 0.851871 -0.0147685
30.5851 1.54304 -15.5422 0.51541 0.856519 -0.0267517
30.5601 1.60206 -14.1802 0.518103 0.854642 -0.033995
30.2408 1.84548 -12.9308 0.520132 0.853349 -0.0353494
29.8354 2.1436 -11.7772 0.520956 0.852874 -0.0347052
29.5833 2.3513 -10.453 0.527546 0.848991 -0.0297654
29.5454 2.42504 -9.21407 0.523536 0.851061 -0.0398786
28.698 2.94517 -9.31174 0.530175 0.846908 -0.040439
27.8989 3.40634 -10.4718 0.534652 0.844627 -0.027439
27.0849 3.89063 -11.4359 0.538537 0.841967 -0.0327104
26.375 4.31256 -12.418 0.543965 0.838624 -0.0284829
25.5923 4.79112 -13.275 0.554354 0.831537 -0.0351892
24.7009 5.34936 -14.0564 0.555274 0.830757 -0.0387486
23.5956 6.06789 -14.7029 0.565062 0.824297 -0.03483
22.4943 6.81924 -15.0599 0.572682 0.819161 -0.031782
21.1405 7.78268 -15.3108 0.586034 0.809414 -0.0375884
20.0632 8.59256 -15.3192 0.599237 0.798901 -0.0516912
18.9333 9.47345 -15.0368 0.604828 0.794079 -0.0601733
17.9707 10.2815 -14.5147 0.633783 0.76969 -0.0767822
17.1497 11.0426 -13.7795 0.651853 0.754049 -0.0806097
16.4147 11.816 -12.5762 0.666934 0.739685 -0.0882235
15.96 12.3889 -11.3638 0.685503 0.72175 -0.0949892
15.7227 12.7664 -10.2156 0.699682 0.709419 -0.0846671
15.5822 13.0379 -8.92299 0.704997 0.704652 -0.0783985
15.6493 13.1144 -7.4711 0.716463 0.69482 -0.0624888
15.7315 13.1284 -6.25263 0.724913 0.687121 -0.0473992
15.835 13.0896 -4.82795 0.718424 0.695028 -0.0283445
16.0229 12.9405 -3.44596 0.728926 0.684259 -0.0174892
16.231 12.7514 -2.2537 0.71508 0.699042 0.000274028
16.521 12.452 -0.897674 0.707073 0.707005 0.0138272
16.7996 12.1575 0.246131 0.701458 0.712669 0.00294253
17.1876 11.7764 1.53444 0.685136 0.728017 0.0240671
17.6813 11.3038 2.95111 0.668472 0.74364 -0.00594506
18.2949 10.7663 3.94836 0.655714 0.754981 0.00237463
18.9767 10.1973 4.80468 0.637601 0.770353 0.00147492
19.8301 9.49683 5.42368 0.628225 0.778031 -0.000765848
20.8421 8.71187 5.85965 0.605152 0.796103 -0.00342429
21.8112 7.98518 6.15389 0.596187 0.802821 -0.0063107
23.1057 7.05208 6.55239 0.575237 0.817877 -0.0128041
23.6155 6.69968 6.76716 0.573725 0.818981 -0.0101159
-0.1944 24.8827 2.88471 -0.360986 0.92842 -0.0878919
-0.198612 24.7725 1.61546 -0.380641 0.922909 -0.0433912
-0.0596985 24.7861 0.432217 -0.366271 0.925522 -0.0962026
0.241006 24.8763 -0.729072 -0.338552 0.940143 0.00101178
0.833549 25.033 -1.88946 -0.122392 0.988007 -0.0928414
1.65516 25.0668 -2.82565 -0.0107948 0.997768 -0.0428219
2.66964 24.9071 -3.56503 0.154853 0.979096 -0.131875
3.78952 24.6113 -3.9495 0.253778 0.963115 -0.0894733
4.91514 24.2012 -4.12272 0.408895 0.905993 -0.109458
6.00873 23.6816 -4.08789 0.445401 0.889867 -0.0987631
7.25953 22.9743 -3.59596 0.569762 0.818908 -0.0640177
8.24044 22.2211 -2.9419 0.675109 0.729741 -0.107558
8.99169 21.589 -2.05942 0.726109 0.682783 -0.0757872
9.55384 20.9558 -1.20604 0.775444 0.631299 -0.0121723
10.0012 20.4051 0.0281857 0.803161 0.59576 -0.00166849
10.3646 19.8797 1.21962 0.811129 0.584579 0.0183933
10.6861 19.3504 2.26978 0.812288 0.581346 0.0471764
10.8558 18.9811 3.42975 0.820003 0.568625 0.0650182
10.755 18.975 4.71109 0.809343 0.58308 0.0705807
10.4402 19.2395 6.06761 0.808762 0.581768 0.0859889
10.5117 19.0187 7.11476 0.794042 0.604596 0.0629295
10.6687 18.7389 8.27282 0.781326 0.623227 0.0333625
10.6713 18.6841 9.52128 0.785433 0.618292 0.0280511
10.752 18.5878 10.7389 0.78201 0.623066 -0.0155972
10.6934 18.724 12.1763 0.777707 0.627994 -0.0281986
10.4087 19.1807 13.2319 0.793857 0.604126 -0.0694393
9.91589 19.9314 14.0476 0.796858 0.598542 -0.0821818
9.33667 20.7837 14.6176 0.785834 0.611698 -0.090227
8.72469 21.6398 15.3273 0.753702 0.650358 -0.0946938
8.06112 22.4538 15.9641 0.70196 0.706585 -0.0893879
7.15639 23.2833 15.9587 0.639978 0.765564 -0.0657011
6.35796 23.8587 15.2428 0.573077 0.818984 -0.029127
5.91135 24.1124 13.8658 0.520378 0.853783 0.0161473
5.99964 24.0998 12.6776 0.477826 0.864382 0.156607
6.13768 24.1311 11.4463 0.578547 0.814477 0.0437149
5.14262 24.6269 11.6383 0.394185 0.916206 0.0720086
3.79751 25.1462 12.1195 0.288226 0.957534 0.00737381
2.39018 25.3816 12.0988 0.100969 0.99377 0.0461372
1.18548 25.3559 11.6679 -0.0434115 0.996165 -0.068868
0.35028 25.1404 10.8908 -0.277047 0.956401 0.0924257
0.147587 25.1529 9.68903 -0.365965 0.930583 -0.00151503
0.532176 25.3158 8.55145 -0.241688 0.970209 0.013185
1.04277 25.4698 7.19806 -0.167436 0.981596 -0.0167496
0.698925 25.3624 5.9481 -0.126094 0.988928 -0.07824
0.235204 25.1556 4.58725 -0.311654 0.946103 -0.0879293
-0.118882 24.9475 3.25962 -0.360985 0.92842 -0.0878933
0.926901 25.2414 2.81351 -0.207806 0.978066 -0.0142576
0.891757 25.1937 1.61602 -0.315546 0.948311 0.0337364
1.06632 25.1367 0.175267 -0.245234 0.96042 -0.13211
1.6691 25.2199 -0.990195 -0.0957819 0.989246 -0.110538
2.37044 25.1465 -1.91801 0.0759392 0.987186 -0.124946
3.6994 24.8342 -2.70817 0.1778 0.974868 -0.134236
4.91062 24.3798 -2.91964 0.416573 0.891862 -0.17621
6.28959 23.6812 -2.79784 0.542209 0.837206 -0.0713824
7.284 23.0667 -2.34548 0.580955 0.807004 -0.105996
8.23012 22.3785 -1.47745 0.664597 0.745522 -0.0500818
8.93087 21.6953 -0.496642 0.740937 0.671455 -0.0126811
9.36258 21.2134 0.673186 0.748334 0.663252 0.00967144
9.73997 20.689 1.84195 0.785061 0.618621 0.031413
10.1321 20.0393 3.17047 0.808825 0.585568 0.0539634
10.0888 19.9384 4.66454 0.826462 0.558002 0.0745973
9.73221 20.3015 5.76711 0.824654 0.558508 0.0895214
9.27465 20.8245 6.74504 0.823876 0.559366 0.0913075
8.72341 21.5453 7.53454 0.826306 0.559357 0.0657547
7.98504 22.5046 8.05303 0.797082 0.602266 0.0422979
7.22031 23.3415 8.67855 0.662659 0.747733 0.0421757
6.44704 23.9179 9.471 0.609172 0.788782 0.0820497
5.46654 24.5538 10.166 0.517488 0.855541 0.0127934
4.33674 25.0477 10.7136 0.382954 0.920628 0.0760946
2.97215 25.3887 10.8944 0.103022 0.993064 0.0566613
1.73358 25.4618 10.6092 -0.0727584 0.984331 0.160621
1.46052 25.5058 9.43561 -0.195851 0.980281 0.0258336
1.94558 25.5164 8.36567 -0.00565652 0.999984 0.000903514
2.41207 25.5104 7.15445 0.120465 0.992563 -0.0175181
1.90801 25.4748 5.79649 -0.113741 0.992769 -0.0383864
1.47843 25.3882 4.70713 -0.109856 0.993541 -0.0284274
1.0992 25.2861 3.36913 -0.207805 0.978066 -0.0142589
1.48432 24.5589 -8.98241 0.07721 0.994358 -0.0647295
1.47989 24.6315 -7.75996 -0.0113533 0.996583 -0.0764263
1.27826 24.7739 -6.51465 0.0531545 0.989923 -0.131249
0.948792 24.8023 -5.39987 -0.205202 0.97823 -0.0309483
0.350916 24.7426 -4.11784 -0.324957 0.944359 -0.0441832
-0.363691 24.5463 -2.86545 -0.434844 0.896732 -0.0823548
-1.1657 24.1818 -2.04714 -0.5277 0.848252 -0.0433781
-2.13202 23.535 -1.46284 -0.59277 0.805313 -0.00646169
-3.04104 22.7989 -1.24981 -0.659745 0.750236 0.0433814
-4.08264 21.8352 -1.22403 -0.686922 0.725544 0.0415211
-4.96244 21.0281 -1.29774 -0.685039 0.725454 0.0666183
-5.83679 20.2181 -1.5551 -0.698101 0.710969 0.0847206
-6.68777 19.4217 -1.94558 -0.710701 0.696393 0.099703
-7.63718 18.5104 -2.46516 -0.719796 0.686253 0.104644
-8.48784 17.7003 -3.02607 -0.721308 0.684258 0.107232
-9.48279 16.7722 -3.76907 -0.716928 0.688922 0.106775
-10.2966 15.9823 -4.19689 -0.719921 0.686876 0.099575
-11.0462 15.2951 -4.78054 -0.706966 0.700131 0.0999471
-11.7183 14.729 -5.61526 -0.700628 0.707818 0.0893234
-12.394 14.168 -6.39992 -0.69469 0.71433 0.0844876
-12.8443 13.8852 -7.69078 -0.703487 0.705935 0.0822363
-12.8477 14.0426 -9.10678 -0.713853 0.695032 0.0856932
-12.5434 14.4791 -10.1791 -0.727104 0.681953 0.0788528
-11.9996 15.1803 -11.0376 -0.73638 0.670369 0.0913815
-11.4129 15.9323 -11.7166 -0.751842 0.653346 0.0887315
-10.6432 16.9079 -12.23 -0.760461 0.639541 0.1122
-9.80641 18.0178 -12.7318 -0.765402 0.629693 0.132836
-9.03771 19.051 -13.2129 -0.751934 0.638317 0.16476
-8.23121 19.9906 -13.2911 -0.733017 0.658627 0.169862
-7.24568 21.0011 -13.3921 -0.632191 0.749413 0.196623
-6.39067 21.7783 -13.7533 -0.575885 0.795099 0.188021
-5.24543 22.5623 -13.8458 -0.526699 0.831121 0.178398
-4.10787 23.193 -13.8954 -0.414799 0.899862 0.131485
-2.90731 23.6793 -13.9587 -0.310796 0.946283 0.0891921
-1.7058 24.0176 -13.7383 -0.188665 0.98152 0.0319947
-0.517029 24.1956 -13.1943 -0.145781 0.989305 0.00491285
0.356333 24.2853 -12.2984 -0.0660846 0.997672 -0.0148869
0.912656 24.3764 -11.2613 0.00488332 0.993831 -0.110794
1.33479 24.4509 -10.1151 0.0295904 0.992709 -0.116753
1.46712 24.5425 -9.20219 0.0468051 0.995858 -0.0779495
0.316643 24.4626 -9.25847 -0.215884 0.974417 -0.0485277
0.346323 24.5083 -7.99527 -0.233467 0.97218 -0.0184132
0.200154 24.5237 -6.74981 -0.280926 0.958198 -0.0541971
-0.145966 24.4577 -5.56188 -0.350857 0.934773 -0.0532853
-0.713059 24.2924 -4.3884 -0.38208 0.923138 -0.0410306
-1.46277 23.9706 -3.32211 -0.494122 0.868378 -0.0324165
-2.42248 23.3227 -2.52435 -0.60165 0.798759 0.00132407
-3.40171 22.526 -2.43368 -0.645677 0.761709 0.0538561
-4.37486 21.6702 -2.40283 -0.671091 0.738536 0.0648107
-5.37302 20.7808 -2.54107 -0.680545 0.726666 0.0938882
-6.36263 19.8914 -2.94962 -0.701325 0.706061 0.0974138
-7.40387 18.9236 -3.52767 -0.713268 0.69272 0.106065
-8.45925 17.928 -4.23805 -0.721553 0.681686 0.121102
-9.26408 17.1741 -4.83872 -0.724121 0.680454 0.112354
-10.046 16.4006 -5.23232 -0.723021 0.682304 0.107995
-10.9245 15.6064 -6.09103 -0.722819 0.68236 0.109162
-11.6831 14.9576 -7.00286 -0.710942 0.695729 0.102575
-12.0707 14.7507 -8.32331 -0.712514 0.694553 0.0995958
-11.8079 15.1849 -9.5223 -0.72407 0.683112 0.0952897
-11.3057 15.8507 -10.3252 -0.734645 0.669695 0.10865
-10.6925 16.6377 -10.9386 -0.75186 0.649998 0.110309
-9.95328 17.5624 -11.3281 -0.756496 0.642936 0.119777
-9.17112 18.5755 -11.8447 -0.750785 0.645922 0.13801
-8.49006 19.4371 -12.1992 -0.740618 0.653353 0.156887
-7.64225 20.3512 -12.172 -0.685464 0.713872 0.143211
-6.75551 21.2193 -12.3528 -0.628376 0.765498 0.13072
-5.53236 22.1557 -12.6571 -0.566047 0.816267 0.115327
-4.30216 22.915 -12.6315 -0.476068 0.870167 0.120875
-3.21619 23.473 -12.8371 -0.372503 0.924347 0.0754813
-2.02459 23.8894 -12.6151 -0.242286 0.969827 0.00421368
-0.784601 24.1501 -12.0008 -0.179232 0.983501 0.0245388
-0.225552 24.2881 -10.9737 -0.151871 0.985791 -0.0694817
0.261849 24.4006 -9.86621 -0.16762 0.983617 -0.0465134
0.313998 24.4528 -9.37368 -0.19105 0.97841 -0.0788288
6.9997 23.4254 12.0498 0.660621 0.746974 0.0746254
7.04004 23.4327 10.5696 0.657472 0.753413 -0.0099814
7.29579 23.2445 9.37553 0.637084 0.770474 0.0222189
8.03483 22.403 8.68195 0.804862 0.593057 0.0219375
8.6615 21.5849 7.97823 0.829244 0.554484 0.0700144
9.25327 20.7491 7.41431 0.831738 0.546879 0.0944469
9.93735 19.7197 7.58067 0.761869 0.638382 0.0971489
10.0249 19.5166 8.92593 0.773223 0.634039 0.0109738
10.0606 19.4585 10.2888 0.788758 0.614701 0.00188939
10.0255 19.5266 11.5435 0.784206 0.620391 -0.0112408
9.75178 19.9709 12.7207 0.793767 0.602596 -0.0817893
9.09206 20.9296 13.4164 0.789402 0.60959 -0.0724161
8.45977 21.7782 14.0384 0.759902 0.646636 -0.0664193
7.81511 22.5566 14.6891 0.72558 0.682581 -0.0872781
7.01176 23.3029 14.5942 0.677143 0.734383 -0.0292656
6.88451 23.4365 13.2349 0.632493 0.774158 0.0251477
6.97933 23.4285 12.2133 0.658493 0.749722 0.0654529
28.6923 2.69645 -15.8921 0.532688 0.846029 -0.0218746
29.974 1.95961 -14.1252 0.518216 0.85458 -0.0338471
30.012 1.93863 -14.0735 0.518215 0.85458 -0.0338471
29.2347 2.49067 -12.3286 0.530418 0.846802 -0.039786
27.8204 3.30435 -14.2861 0.539616 0.841329 -0.0313187
26.5895 4.03779 -16.0223 0.540118 0.841149 -0.027211
24.4754 5.40887 -16.1917 0.554728 0.831514 -0.0293618
25.7758 4.62638 -14.333 0.545402 0.837239 -0.0395889
27.0222 3.88732 -12.5777 0.544109 0.838437 -0.0311091
28.5058 3.02078 -10.5143 0.533669 0.845198 -0.0289531
28.708 2.90349 -10.2353 0.532888 0.845638 -0.0304492
22.3121 6.87235 -16.5004 0.565877 0.822859 -0.0518286
22.8536 6.54105 -15.7038 0.573159 0.818179 -0.0455131
20.5162 8.18784 -16.348 0.598066 0.800019 -0.0478201
20.4403 8.23756 -16.4647 0.598066 0.800019 -0.0478194
18.8874 9.43866 -15.9883 0.605265 0.794076 -0.0556536
18.4803 9.7092 -16.6336 0.611371 0.789258 -0.0574166
17.6623 10.4833 -15.0553 0.635625 0.768552 -0.0728574
16.6085 11.2085 -16.7922 0.641026 0.76479 -0.064665
14.723 12.8166 -17.1161 0.664403 0.74382 -0.0728005
15.9542 11.9442 -15.0109 0.657847 0.748202 -0.0862031
16.5313 11.5514 -14.0463 0.654967 0.750672 -0.0866573
15.7997 12.4083 -12.4232 0.678419 0.728963 -0.0914355
14.7093 13.1711 -14.2955 0.6826 0.722794 -0.107826
13.5669 13.9952 -16.2945 0.696352 0.710993 -0.0978917
13.1268 14.3138 -17.0715 0.702426 0.705613 -0.0933186
11.4977 15.9684 -17.2254 0.731723 0.672545 -0.110744
12.6143 15.1338 -15.2264 0.717125 0.687569 -0.113929
13.691 14.3314 -13.3069 0.713012 0.69056 -0.121412
14.8763 13.4744 -11.215 0.704838 0.701154 -0.107638
15.257 13.1838 -10.5221 0.700489 0.707176 -0.0960048
15.1082 13.6498 -7.90933 0.728531 0.682705 -0.0561815
14.0285 14.5424 -9.95836 0.726116 0.678925 -0.108707
12.9932 15.3385 -11.8533 0.729808 0.672937 -0.120564
11.9526 16.1174 -13.7295 0.72845 0.672104 -0.132804
10.7774 17.0016 -15.8137 0.736903 0.664389 -0.124743
9.93693 17.6518 -17.3226 0.73155 0.672418 -0.112644
9.17723 18.7253 -16.0032 0.734091 0.667155 -0.126552
10.3021 17.8834 -14.0543 0.735224 0.662757 -0.142126
11.5037 16.9944 -11.8934 0.742003 0.655701 -0.139602
12.5337 16.1894 -9.9836 0.746498 0.654777 -0.118352
13.6759 15.2284 -7.81006 0.748629 0.657767 -0.0830499
14.7915 14.1823 -5.53367 0.738782 0.672934 -0.0368954
15.507 13.465 -4.04223 0.731343 0.68144 -0.0278711
26.3704 4.88436 8.55522 0.544864 0.838489 -0.00774898
27.6877 4.05647 10.4581 0.531362 0.847141 0.00247789
29.0721 3.19058 12.4274 0.523384 0.852075 0.00616684
30.4173 2.36829 14.2909 0.510343 0.859963 0.00359124
30.988 2.02841 15.0743 0.506122 0.862445 0.00533485
30.0391 2.5725 16.6573 0.514195 0.857615 0.0100298
28.5246 3.51313 14.5548 0.523521 0.851955 0.00995096
27.1054 4.41618 12.5416 0.534171 0.845366 0.00434419
25.7427 5.30345 10.5585 0.546472 0.837477 -0.000265475
24.4109 6.18111 8.58261 0.561438 0.827459 -0.00996739
23.7997 6.5788 7.66867 0.568893 0.822338 -0.0110327
21.3382 8.33947 6.77045 0.595906 0.803044 -0.00406411
22.5942 7.44574 8.75701 0.580582 0.814105 -0.0125664
23.8824 6.54577 10.7399 0.566949 0.823752 -0.000977376
25.2135 5.64418 12.7334 0.551507 0.834111 0.00990207
26.6041 4.72167 14.7503 0.539049 0.842217 0.00980461
27.9025 3.87243 16.5975 0.532406 0.846437 0.00942128
28.1541 3.71246 16.9477 0.521135 0.85345 0.00636803
26.3852 4.83589 17.3613 0.543761 0.839176 0.0103496
25.0014 5.76294 15.3742 0.55077 0.834646 0.00417091
23.6281 6.70688 13.3463 0.572695 0.819628 0.0151594
22.2925 7.66587 11.2749 0.584769 0.811198 0.00206753
21.0551 8.56784 9.31037 0.596716 0.802452 -0.00105968
19.8174 9.49061 7.29103 0.620184 0.784456 0.000210046
18.6281 10.4837 5.20576 0.640542 0.767912 0.00422773
8.07172 20.0656 -15.2856 0.719756 0.679927 -0.140182
8.73171 19.5884 -14.1468 0.729099 0.669187 -0.143537
9.53669 19.0018 -12.7974 0.731029 0.666564 -0.145903
10.1065 18.597 -11.8004 0.735836 0.659266 -0.154636
10.6641 18.19 -10.795 0.745415 0.651252 -0.142224
11.3785 17.6345 -9.47022 0.753429 0.644683 -0.129341
11.9933 17.1123 -8.33253 0.762449 0.638156 -0.106902
12.536 16.6304 -7.26866 0.765809 0.636557 -0.0912781
13.0703 16.1275 -6.1664 0.767826 0.637171 -0.0667627
13.6055 15.5961 -5.02819 0.765284 0.642734 -0.0351123
14.1357 15.0323 -3.87898 0.762881 0.645433 -0.0378045
14.5882 14.5239 -2.86031 0.753234 0.657685 -0.00946635
15.1599 13.8822 -1.60589 0.740517 0.672032 0.00280013
15.6567 13.3306 -0.536798 0.722509 0.691097 0.0191084
16.1351 12.8169 0.464549 0.702698 0.711429 0.00919628
16.6478 12.2895 1.50104 0.70158 0.71233 0.0192939
16.7756 12.1567 1.7579 0.693404 0.720223 0.0216817
24.3954 6.14642 17.4493 0.55329 0.832943 0.00869896
22.8209 7.25415 15.1041 0.578725 0.8155 0.00601016
21.3794 8.31127 12.8646 0.593298 0.804899 0.011629
19.9884 9.38387 10.5938 0.615499 0.788132 0.00316595
18.617 10.4805 8.26743 0.640381 0.768047 -0.004096
17.268 11.6562 5.83338 0.665726 0.745875 0.0218875
16.0605 12.8159 3.5187 0.697336 0.716698 0.00819569
14.9468 14.0479 1.1875 0.732867 0.680216 0.0145625
13.8415 15.4054 -1.35698 0.776014 0.630694 0.00528169
12.8212 16.6362 -3.73861 0.777831 0.627841 -0.0282096
11.8006 17.708 -5.97709 0.769542 0.633434 -0.0810304
10.5387 18.8197 -8.41336 0.753003 0.646818 -0.120887
9.35438 19.7326 -10.5648 0.726535 0.66823 -0.160048
7.99155 20.6372 -12.8067 0.692701 0.709753 -0.128125
6.78851 21.4025 -14.7068 0.658521 0.74254 -0.12241
4.77239 22.8764 -14.8596 0.511334 0.855485 -0.0817493
6.32375 22.1051 -12.7129 0.567698 0.812207 -0.134306
7.86113 21.2616 -10.4297 0.679349 0.719561 -0.143937
9.22252 20.3414 -8.16738 0.716492 0.684545 -0.134303
10.4102 19.3991 -6.00621 0.770239 0.63023 -0.0976802
11.5732 18.2453 -3.59749 0.786119 0.615878 -0.0520718
12.4755 17.1318 -1.41258 0.794413 0.607372 0.00257224
13.3568 15.9296 0.761127 0.776323 0.629368 0.0348952
14.2786 14.7273 2.95222 0.753488 0.656666 0.0323272
15.2923 13.535 5.15122 0.701232 0.712626 0.0209289
16.471 12.3651 7.45135 0.67195 0.740483 0.012999
17.6194 11.317 9.58339 0.64557 0.763697 0.00256348
18.8295 10.2996 11.6965 0.62925 0.777203 -0.000255811
20.116 9.25628 13.8652 0.616789 0.787121 0.0034554
21.5512 8.15093 16.1597 0.594806 0.803851 0.00541297
22.4029 7.52537 17.4566 0.577161 0.816611 0.00564051
20.6434 8.82853 17.7494 0.614562 0.78882 0.00872421
