-8.16589 18.7362 20.4481 -0.810546 0.585672 0.00175768
-8.98911 17.6115 20.4127 -0.805058 0.593196 0.000609744
-9.81021 16.5484 20.4623 -0.779328 0.626478 0.00400275
-10.5122 15.6981 20.5257 -0.762899 0.646417 0.00696733
-11.2384 14.861 20.5074 -0.742046 0.670309 0.00431572
-12.2395 13.7948 20.5617 -0.714543 0.699582 0.00369391
-13.0194 13.0215 20.5904 -0.694506 0.71946 0.00620433
-14.1309 11.9937 20.6 -0.669222 0.743041 0.00559715
-15.1226 11.1464 20.6509 -0.644715 0.764252 0.0161727
-16.1311 10.3335 20.5982 -0.616596 0.787193 0.0116422
-17.2719 9.4534 20.5145 -0.606025 0.795329 0.0136006
-18.2003 8.76245 20.5311 -0.581275 0.813648 0.00981474
-19.124 8.10401 20.5634 -0.570847 0.821006 0.00687585
-19.5565 7.80545 20.5298 -0.56817 0.822909 0.00193365
-0.0188584 25.3062 3.25631 -0.325589 0.943407 -0.0530891
-0.130182 25.1555 1.9582 -0.345735 0.934857 -0.0806381
0.0662894 25.2015 0.74572 -0.335363 0.940379 -0.0447768
0.312929 25.2216 -0.576406 -0.305904 0.951394 -0.000645475
0.778827 25.3516 -1.59421 -0.275316 0.961314 0.00872877
1.37799 25.3582 -2.46098 -0.0914793 0.994269 -0.0263977
2.24789 25.327 -3.17492 0.0990663 0.98923 -0.074513
3.14556 25.1171 -3.69406 0.163178 0.978743 -0.12394
4.33975 24.7898 -4.05648 0.237761 0.967152 -0.0899253
5.429 24.3545 -4.21561 0.400535 0.913038 -0.0683068
6.40272 23.8774 -4.12344 0.523166 0.843704 -0.119119
7.29205 23.3469 -3.78838 0.564382 0.820837 -0.0805358
8.08459 22.7489 -3.43213 0.658262 0.743826 -0.11546
8.79172 22.21 -2.66942 0.685678 0.724139 -0.0687638
9.374 21.6884 -1.94226 0.719663 0.690813 -0.0645518
9.83707 21.1575 -1.14493 0.776187 0.630198 -0.0179908
10.303 20.5769 0.126517 0.799994 0.599984 0.00531454
10.7056 19.9957 1.43777 0.809215 0.586163 0.0360967
10.9852 19.4906 2.73838 0.8179 0.571952 0.0608149
11.0643 19.2388 3.8297 0.819173 0.56823 0.077908
10.969 19.2272 4.96404 0.805455 0.589396 0.062083
10.7986 19.3234 6.04845 0.815934 0.570597 0.0931162
10.9965 18.9331 7.06405 0.793165 0.606671 0.0532973
11.0704 18.7535 8.12128 0.794819 0.605075 0.0462048
11.052 18.7437 9.25037 0.786531 0.616619 -0.0339136
11.1429 18.6989 10.5664 0.777093 0.62885 -0.0259737
11.0994 18.8201 11.8071 0.777699 0.627459 -0.0384702
10.7777 19.3242 12.9228 0.78911 0.610482 -0.0675316
10.2928 20.0305 13.5304 0.792986 0.604192 -0.0781825
9.81887 20.7449 14.1428 0.797571 0.596962 -0.0867032
9.2407 21.5485 14.7885 0.764444 0.639686 -0.0801678
8.60412 22.3415 15.2332 0.747078 0.661014 -0.0702549
7.83544 23.1549 15.2875 0.67858 0.732843 -0.049702
7.00437 23.8365 14.6051 0.628912 0.776341 -0.027434
6.7143 24.0566 13.6039 0.602212 0.796314 0.0325396
6.74394 24.1363 12.5232 0.564485 0.814273 0.135224
6.80524 24.1739 11.4626 0.691457 0.718924 -0.0709644
5.8556 24.7421 11.8184 0.413325 0.909177 0.0329937
4.94227 25.073 12.3249 0.401533 0.915842 0.00218074
3.90907 25.4503 12.5502 0.25003 0.968235 -0.00248395
2.87314 25.6212 12.5422 0.109583 0.992748 0.049436
1.7252 25.6084 12.3381 -0.0847514 0.996395 0.00379311
0.576317 25.4866 11.636 -0.146029 0.988362 -0.0384248
-0.0655712 25.3928 10.3379 -0.282989 0.953623 -0.00217433
0.0758274 25.3615 9.3003 -0.371072 0.92691 -0.0344535
0.355158 25.4845 8.23049 -0.321427 0.943679 -0.0126614
0.805316 25.6326 7.28327 -0.263202 0.964379 0.0264127
0.778536 25.6491 6.20698 -0.263132 0.960194 -0.0656056
0.378161 25.4559 4.93097 -0.192107 0.981096 -0.0233587
0.103356 25.3604 3.81912 -0.308658 0.950856 -0.02456
0.0664443 25.344 3.64674 -0.308659 0.950856 -0.0245586
1.09116 25.5653 3.68169 -0.197036 0.980212 -0.0168682
1.49223 25.6577 4.95571 -0.130374 0.991285 -0.0188654
1.91643 25.7972 6.33202 -0.0849721 0.993766 -0.0628673
1.93842 25.8036 7.41215 -0.0284014 0.999539 0.0106905
1.26364 25.7321 8.64985 -0.175713 0.979324 0.0273657
0.908504 25.6459 9.797 -0.195791 0.978484 0.0648627
1.4909 25.6769 11.02 -0.197588 0.977832 0.0693053
2.49272 25.6569 11.3563 -0.0585079 0.988407 0.0938562
3.54113 25.5399 11.4237 0.175656 0.968141 0.178458
4.60014 25.2939 11.2099 0.342649 0.935058 0.0903867
5.56691 24.9081 10.7467 0.464104 0.884594 -0.00757776
6.51175 24.2608 10.0305 0.611672 0.788367 -0.065839
7.24831 23.7218 9.34063 0.625429 0.777616 0.0390293
7.65023 23.3736 9.12299 0.647882 0.761736 -0.00274237
7.54839 23.4531 10.3017 0.638508 0.769359 -0.00662406
7.55649 23.4529 11.3503 0.69126 0.722453 0.0148381
7.52554 23.4447 12.492 0.718718 0.694465 0.0341082
7.50626 23.383 13.593 0.70204 0.709546 0.0607002
8.07006 22.8433 14.336 0.722777 0.689378 -0.0484974
8.68226 22.1131 13.8052 0.764442 0.642234 -0.0562501
9.243 21.3649 13.1791 0.781881 0.618824 -0.0741392
9.78084 20.6 12.6993 0.793639 0.603878 -0.073952
10.3245 19.816 12.1114 0.769569 0.632347 -0.0888837
10.4932 19.5213 11.0439 0.776858 0.628951 -0.0271227
10.4609 19.5368 9.86955 0.797021 0.603851 -0.0110259
10.401 19.6115 8.816 0.800876 0.598745 0.010089
10.4664 19.5617 7.72792 0.786678 0.616498 0.0326912
10.1998 20.0192 6.85179 0.82186 0.534209 0.191931
9.62521 20.9071 7.0383 0.847319 0.520264 0.106653
9.96969 20.5262 6.16897 0.837917 0.534808 0.108642
10.3305 20.1322 5.27026 0.834956 0.543492 0.0860349
10.4976 20.0643 3.89665 0.831531 0.551219 0.0686594
10.3844 20.3316 2.82081 0.81948 0.571187 0.0468762
10.1091 20.7915 1.85202 0.80278 0.596063 0.0159338
9.78066 21.2585 0.854826 0.802924 0.595916 0.0140548
9.42478 21.6758 -0.104401 0.765706 0.642737 -0.0241512
8.81488 22.2943 -1.2824 0.703204 0.708857 -0.0550078
8.11934 22.8787 -2.17356 0.676299 0.731212 -0.0891496
7.39561 23.3826 -2.76164 0.580765 0.798825 -0.156813
6.50804 23.9277 -3.00914 0.523556 0.847869 -0.0837092
5.43255 24.472 -3.1586 0.377501 0.919022 -0.113541
4.28045 24.9442 -2.97872 0.26258 0.950118 -0.168308
3.14829 25.2729 -2.44505 0.170322 0.976851 -0.12943
2.10115 25.4678 -1.75842 -0.0273572 0.991888 -0.10411
1.57098 25.5191 -0.745244 -0.119611 0.992337 -0.0310006
1.08041 25.4465 0.17103 -0.217172 0.968337 -0.123126
0.897644 25.4892 1.56525 -0.303297 0.952274 0.0344138
0.907883 25.5173 2.63467 -0.22703 0.971446 -0.049527
1.05673 25.5542 3.27312 -0.201831 0.979374 -0.00954265
-17.9638 10.1607 -17.0096 -0.648898 0.760798 0.0108949
-17.9338 10.187 -17.0619 -0.648448 0.761206 0.00903223
-17.5183 10.5235 -16.2294 -0.644632 0.764295 0.0173937
-16.9908 11.0128 -17.1896 -0.66555 0.746339 0.00453969
-16.8145 11.172 -17.5094 -0.667539 0.744558 0.00494972
-16.0942 11.8535 -17.2993 -0.709702 0.704442 0.00915952
-16.652 11.306 -16.2376 -0.685284 0.728091 0.016403
-16.9776 10.9965 -15.6409 -0.675444 0.737283 0.0137881
-16.4571 11.4558 -15.0198 -0.68095 0.731657 0.0313865
-15.8588 12.0699 -16.1703 -0.698747 0.71475 0.0297468
-15.2684 12.6858 -17.341 -0.707681 0.70641 0.0131303
-15.2053 12.7512 -17.4661 -0.723022 0.690798 0.00609476
-14.3607 13.6608 -17.623 -0.754385 0.656343 0.0107777
-14.8692 13.0829 -16.5457 -0.731434 0.681563 0.0218203
-15.3377 12.5663 -15.5938 -0.708306 0.705132 0.03305
-15.9112 11.9511 -14.4644 -0.691784 0.721369 0.0325741
-15.9336 11.9277 -14.4211 -0.691785 0.721369 0.0325742
-15.734 12.0544 -13.1932 -0.693399 0.719243 0.0434476
-15.2133 12.6227 -14.2247 -0.709601 0.703538 0.0387437
-14.7007 13.2024 -15.2684 -0.731302 0.680805 0.0412576
-14.2689 13.7107 -16.1803 -0.743043 0.668426 0.0330583
-13.8083 14.2947 -17.2256 -0.762645 0.646549 0.0186021
-13.5725 14.6023 -17.7908 -0.768266 0.639543 0.0274285
-12.8272 15.5474 -17.9233 -0.794187 0.606248 0.0416003
-13.3233 14.8505 -16.6836 -0.771754 0.633766 0.0523165
-13.7312 14.3032 -15.7323 -0.754583 0.654757 0.0435715
-14.2659 13.6264 -14.5541 -0.7315 0.680607 0.0410074
-14.7874 13.0054 -13.4606 -0.707574 0.705259 0.0441587
-15.2802 12.4512 -12.4625 -0.694754 0.718138 0.0399309
-15.4365 12.2838 -12.1552 -0.694544 0.71843 0.0383031
-15.3067 12.3175 -10.7778 -0.693208 0.718447 0.0574231
-14.8161 12.8627 -11.7588 -0.712563 0.699682 0.0519593
-14.3466 13.405 -12.7259 -0.716967 0.695708 0.0441444
-13.896 13.9569 -13.6916 -0.725634 0.685233 0.0625395
-13.4537 14.5401 -14.6864 -0.753536 0.655089 0.0551526
-12.9967 15.1721 -15.7563 -0.770229 0.635559 0.0530366
-12.4947 15.9051 -16.9988 -0.786739 0.615298 0.0494951
-12.2077 16.3529 -17.7845 -0.804571 0.591993 0.0470143
-11.6327 17.1266 -17.551 -0.812533 0.579267 0.0651129
-12.0684 16.3953 -16.3338 -0.794955 0.602586 0.0702638
-12.4478 15.8048 -15.3665 -0.777048 0.626615 0.0595862
-12.8685 15.1854 -14.3477 -0.762491 0.642754 0.0739846
-13.372 14.4882 -13.179 -0.744255 0.665156 0.0604314
-13.828 13.9086 -12.1728 -0.720341 0.691903 0.0487772
-14.3195 13.3173 -11.1358 -0.708665 0.703288 0.0563863
-14.8427 12.7059 -10.061 -0.691925 0.719556 0.0589868
-15.3719 12.1193 -9.0094 -0.672295 0.737517 0.0639423
-28.7261 2.26478 7.66608 -0.494425 0.869118 0.0133204
-29.5568 1.77403 8.80094 -0.493466 0.869626 0.0155437
-29.7235 1.67543 9.0278 -0.493419 0.869644 0.0160241
-29.6783 1.67525 10.4165 -0.493645 0.869537 0.0148737
-28.8896 2.14362 9.33986 -0.495917 0.868238 0.015157
-27.977 2.68452 8.08742 -0.498448 0.866814 0.0135154
-27.603 2.90769 7.57345 -0.49905 0.866475 0.013062
-26.6306 3.47341 7.6766 -0.507671 0.861441 0.0137484
-27.3562 3.03408 8.68434 -0.500942 0.865365 0.0141827
-28.1669 2.5489 9.80112 -0.496516 0.867891 0.0153852
-28.9778 2.06614 10.913 -0.496801 0.867758 0.0136088
-29.4499 1.78549 11.557 -0.495269 0.868613 0.0148005
-29.476 1.74742 13.0385 -0.497041 0.867658 0.0109976
-28.5526 2.29582 11.789 -0.497058 0.867598 0.0143849
-27.859 2.71186 10.8351 -0.500846 0.865414 0.0145705
-27.0587 3.19147 9.73031 -0.502378 0.864561 0.0122252
-26.3247 3.63864 8.71079 -0.509848 0.86013 0.0152289
-25.4426 4.18548 7.46286 -0.514535 0.857341 0.0148368
-25.4049 4.20906 7.40929 -0.514008 0.857649 0.0153339
-23.8606 5.16134 6.66005 -0.524909 0.850959 0.0183873
-24.671 4.64149 7.83953 -0.518703 0.854836 0.0142427
-25.5304 4.10435 9.06308 -0.513474 0.857946 0.0165335
-26.249 3.6605 10.0664 -0.506614 0.862101 0.0111378
-27.1656 3.10395 11.3415 -0.501463 0.86504 0.0155172
-27.9726 2.61989 12.4505 -0.499853 0.866024 0.0122106
-28.8181 2.11753 13.5931 -0.497808 0.867232 0.00979152
-29.5467 1.6892 14.5747 -0.495354 0.868639 0.00954058
-29.3334 1.79844 15.7383 -0.496315 0.868095 0.00915255
-28.5586 2.25449 14.694 -0.498183 0.867001 0.0111247
-27.8074 2.69891 13.6789 -0.499801 0.866071 0.0109765
-27.0606 3.14518 12.6581 -0.502663 0.86443 0.00945667
-26.2717 3.62102 11.5689 -0.50764 0.861464 0.0134664
-25.582 4.0468 10.6035 -0.510159 0.859938 0.0156497
-24.7522 4.56569 9.43227 -0.516918 0.855856 0.017498
-24.0915 4.98738 8.48717 -0.525645 0.850509 0.0182161
-23.3518 5.46484 7.40754 -0.532287 0.846445 0.0142072
-22.5597 5.99067 6.2267 -0.541476 0.840537 0.0173542
-21.7162 6.56649 4.95109 -0.550325 0.834664 0.0218586
-21.0781 7.01149 3.97671 -0.557986 0.829633 0.0189733
-20.3532 7.53566 2.83444 -0.56553 0.824409 0.0229299
-19.6571 8.05202 1.72132 -0.568194 0.822232 0.033015
-18.9776 8.58893 0.613049 -0.589484 0.806911 0.0374608
-18.2158 9.2033 -0.663952 -0.594023 0.803532 0.0383791
-17.6086 9.71342 -1.69267 -0.609107 0.791816 0.0449032
-16.9787 10.2778 -2.7853 -0.627307 0.776002 0.0656256
-16.3656 10.8638 -3.90086 -0.636383 0.76904 0.0599548
-15.8361 11.3829 -4.87588 -0.645189 0.761954 0.056192
-15.1491 12.0865 -6.1686 -0.665738 0.743342 0.0650826
-14.6065 12.6799 -7.23002 -0.678038 0.732725 0.0581154
-14.124 13.2284 -8.20282 -0.698918 0.711965 0.0679677
-14.0475 13.3208 -8.36249 -0.701865 0.708447 0.0740859
-13.756 13.5016 -7.30223 -0.689913 0.720189 0.0731299
-14.2359 12.9381 -6.31551 -0.683127 0.726631 0.0731077
-14.7968 12.318 -5.21741 -0.670746 0.738592 0.06769
-15.3206 11.7618 -4.2152 -0.649862 0.757146 0.0664007
-15.8802 11.2078 -3.17795 -0.635312 0.769904 0.0602231
-16.4605 10.6449 -2.11064 -0.630636 0.774007 0.0566646
-17.0595 10.1019 -1.05717 -0.61256 0.78901 0.0472533
-17.6355 9.60802 -0.0727358 -0.598855 0.799843 0.0402853
-18.2277 9.12237 0.922205 -0.589853 0.806675 0.036726
-18.955 8.54032 2.1292 -0.58853 0.807802 0.0329983
-19.7448 7.93949 3.4077 -0.569048 0.821987 0.0228346
-20.4089 7.45344 4.46178 -0.557508 0.829744 0.0266209
-21.231 6.86626 5.7339 -0.55287 0.832901 0.0247216
-21.8567 6.43922 6.66961 -0.547893 0.836418 0.0147488
-22.6269 5.91729 7.83454 -0.542787 0.839719 0.0159541
-23.2604 5.49751 8.77019 -0.530692 0.847328 0.0200355
-23.9277 5.06191 9.73617 -0.524227 0.85141 0.0169447
-24.6345 4.61266 10.7439 -0.517295 0.855713 0.0126859
-25.3965 4.13801 11.8185 -0.514618 0.857352 0.0107294
-26.1679 3.66421 12.8908 -0.504827 0.863159 0.0102898
-26.8878 3.23031 13.8819 -0.501614 0.864999 0.0126603
-27.7562 2.71135 15.0681 -0.500533 0.865655 0.01038
-28.5513 2.24134 16.1435 -0.496248 0.868124 0.0099052
-27.7406 2.70527 16.4994 -0.50184 0.864925 0.00775181
-26.9383 3.18177 15.4142 -0.505719 0.862663 0.0077441
-26.0382 3.72297 14.1797 -0.511513 0.859252 0.00644081
-25.2819 4.18773 13.1321 -0.521336 0.853307 0.00871358
-24.546 4.64753 12.0996 -0.526178 0.850367 0.00346798
-23.8244 5.10411 11.0759 -0.529128 0.848458 0.0119203
-23.0257 5.62573 9.92347 -0.536927 0.843515 0.0138776
-22.3078 6.10443 8.86272 -0.542577 0.839862 0.0155218
-21.5441 6.62382 7.71107 -0.54816 0.8362 0.017052
-20.7309 7.18229 6.47766 -0.551565 0.833985 0.0156273
-20.0822 7.6389 5.4892 -0.555066 0.831246 0.030519
-19.4649 8.09677 4.51516 -0.569958 0.821087 0.0310415
-18.7596 8.63513 3.36693 -0.582229 0.812432 0.0310461
-18.1848 9.08884 2.41173 -0.586493 0.809077 0.0376868
-17.5594 9.59418 1.36432 -0.602079 0.797401 0.0406444
-16.8696 10.1791 0.1999 -0.613667 0.788439 0.0421423
-16.2429 10.7417 -0.902792 -0.62951 0.77547 0.0486162
-15.6106 11.3442 -2.05723 -0.643252 0.763902 0.0517744
-15.0485 11.8992 -3.10071 -0.64955 0.757608 0.0641495
-14.5188 12.4571 -4.11396 -0.666707 0.741369 0.0766432
-13.8995 13.1526 -5.33388 -0.682369 0.725909 0.0861861
-13.5607 13.556 -6.03687 -0.688606 0.720811 0.079074
-12.9769 14.0635 -5.57967 -0.694008 0.715282 0.0820044
-13.5131 13.4117 -4.45795 -0.682369 0.72591 0.0861867
-14.0918 12.7631 -3.31082 -0.669401 0.739756 0.0682929
-14.5898 12.2399 -2.35105 -0.654357 0.754107 0.0560239
-15.3066 11.5281 -1.01167 -0.645838 0.761769 0.0509979
-15.8367 11.0164 -0.0330434 -0.636989 0.769348 0.0484537
-16.539 10.3849 1.20349 -0.619134 0.783871 0.0471109
-17.2092 9.81403 2.34048 -0.606591 0.794088 0.0383582
-17.8136 9.31411 3.36928 -0.60104 0.798341 0.0374596
-18.4563 8.8129 4.43259 -0.582747 0.81211 0.029719
-19.1276 8.29547 5.52875 -0.572665 0.819171 0.0318398
-19.7664 7.82546 6.51748 -0.553165 0.833018 0.0094309
-20.4125 7.37429 7.51385 -0.554271 0.832125 0.0187534
-21.0868 6.9063 8.54333 -0.547794 0.836455 0.0162443
-21.9441 6.32414 9.83414 -0.545281 0.838154 0.0129212
-22.7594 5.77714 11.0318 -0.54487 0.838445 0.0112383
-23.5064 5.29254 12.0982 -0.531903 0.846796 0.00384054
-24.1886 4.8616 13.0606 -0.526336 0.850212 0.0104538
-25.0376 4.32585 14.251 -0.521375 0.853287 0.00836998
-25.8063 3.85087 15.3197 -0.512425 0.858682 0.00929674
-26.6366 3.35017 16.4493 -0.507211 0.861804 0.00561874
-26.9001 3.19289 16.806 -0.507038 0.861907 0.00539379
-25.9032 3.78217 16.8991 -0.511583 0.859215 0.00570519
-25.063 4.29486 15.7509 -0.521065 0.853469 0.00906515
-24.3457 4.74307 14.7597 -0.523524 0.851956 0.0096812
-23.4738 5.29785 13.5352 -0.528821 0.848654 0.0115951
-22.7532 5.76392 12.5052 -0.531014 0.847299 0.0104328
-21.8843 6.34216 11.2513 -0.545433 0.83799 0.0166152
-21.165 6.82655 10.1894 -0.550738 0.834556 0.0142543
-20.5005 7.28432 9.17725 -0.557565 0.830057 0.0112245
-19.6666 7.87016 7.89582 -0.565824 0.82441 0.0138022
-19.0421 8.32635 6.9094 -0.576794 0.816628 0.0206677
-18.3954 8.80629 5.89811 -0.583739 0.811636 0.0222835
-17.8056 9.26504 4.92621 -0.594721 0.803529 0.0254426
-17.2339 9.71869 3.96516 -0.596095 0.802157 0.0348647
-16.6122 10.243 2.90113 -0.606182 0.794167 0.042925
-15.9665 10.8037 1.78487 -0.620733 0.78255 0.0480159
-15.4226 11.304 0.815462 -0.637546 0.768244 0.0577552
-14.9032 11.8128 -0.155311 -0.645259 0.762369 0.0493323
-14.3788 12.3282 -1.13863 -0.650217 0.757696 0.055816
-13.8611 12.8674 -2.12917 -0.66586 0.743079 0.0668203
-13.2038 13.5904 -3.43264 -0.67717 0.731626 0.0785129
-12.6871 14.2106 -4.50305 -0.697346 0.710328 0.0956165
-12.5734 14.3549 -4.74598 -0.69772 0.709896 0.0960945
-12.0772 14.7574 -4.10443 -0.703279 0.704786 0.0931452
-12.6021 14.1048 -2.98943 -0.69277 0.716773 0.0794132
-13.2444 13.3831 -1.70103 -0.672965 0.736349 0.0700591
-13.7327 12.8562 -0.742121 -0.654588 0.753708 0.0586389
-14.3685 12.2242 0.46526 -0.646877 0.760758 0.0528881
-14.923 11.6714 1.51317 -0.640157 0.766706 0.0485922
-15.5439 11.087 2.63472 -0.625399 0.778895 0.0468929
-16.1647 10.5357 3.72268 -0.616127 0.78672 0.0381973
-16.7256 10.0732 4.68359 -0.599672 0.799886 0.0239951
-17.3934 9.54124 5.81111 -0.59376 0.804081 0.0300293
-18.0785 9.00661 6.92427 -0.575518 0.817391 0.0255073
-18.6998 8.54212 7.9154 -0.576013 0.817156 0.0215618
-19.3691 8.05714 8.95976 -0.566747 0.823813 0.0113621
-20.0272 7.59434 9.97722 -0.565482 0.824687 0.0110371
-20.7006 7.12098 11.0123 -0.562431 0.826752 0.012307
-21.4719 6.59655 12.1427 -0.551279 0.834214 0.0133725
-22.1885 6.11773 13.1836 -0.546205 0.837622 0.00705164
-22.935 5.63022 14.2568 -0.538007 0.84292 0.00579873
-23.6042 5.20173 15.2008 -0.532519 0.84641 0.00367732
-24.4944 4.63751 16.4366 -0.523334 0.852105 0.00613104
-24.9136 4.37609 17.0115 -0.520738 0.853706 0.00423552
-23.9915 4.94091 17.2209 -0.524734 0.851253 0.00464258
-23.2548 5.4115 16.1946 -0.539221 0.842147 0.00535173
-22.4502 5.93417 15.055 -0.541733 0.840546 0.00289117
-21.6753 6.44473 13.9396 -0.549374 0.835554 0.00614501
-20.9196 6.95424 12.833 -0.552938 0.833161 0.0101176
-20.2142 7.43943 11.7874 -0.562272 0.826832 0.0141433
-19.5053 7.94084 10.7038 -0.565636 0.824551 0.0130945
-18.8519 8.40698 9.68869 -0.575864 0.817529 0.00521158
-18.1333 8.92675 8.56031 -0.586034 0.810207 0.0113099
-17.5372 9.37851 7.59618 -0.579744 0.814603 0.0178504
-16.7822 9.97337 6.36636 -0.602634 0.797387 0.0317246
-16.0567 10.5608 5.13084 -0.610436 0.791655 0.02551
-15.3155 11.1959 3.82254 -0.616128 0.786719 0.0381972
-14.6119 11.8603 2.55962 -0.642066 0.764678 0.0549431
-14.1003 12.3684 1.59161 -0.647197 0.759957 0.0600129
-13.5839 12.8971 0.601109 -0.666097 0.744332 0.0477993
-13.0284 13.4632 -0.466996 -0.671228 0.739656 0.048602
-12.5422 13.9967 -1.42082 -0.682057 0.727694 0.0725208
-12.0141 14.6233 -2.53615 -0.693061 0.716548 0.0788992
-11.4789 15.2993 -3.68856 -0.705669 0.702825 0.0898224
-11.0017 15.6917 -3.01976 -0.709917 0.69782 0.095214
-11.5055 15.0625 -1.93508 -0.705372 0.704043 0.0823012
-12.0901 14.3711 -0.702125 -0.698155 0.712821 0.0668305
-12.6044 13.8052 0.325167 -0.681433 0.72953 0.0586106
-13.1846 13.1701 1.47901 -0.656208 0.751717 0.06567
-13.6846 12.6564 2.43407 -0.645695 0.761478 0.0568281
-14.36 11.9943 3.71237 -0.642615 0.76476 0.0467888
-14.9113 11.4903 4.70513 -0.635508 0.771523 0.0296841
-15.5041 10.9792 5.75654 -0.621728 0.782813 0.0256441
-16.2203 10.3772 6.99622 -0.6089 0.792919 0.0227978
-16.866 9.86708 8.05801 -0.594179 0.804266 0.010359
-17.5566 9.34196 9.17553 -0.593262 0.804907 0.0128486
-18.3287 8.76747 10.4199 -0.575169 0.81796 0.0110793
-18.9342 8.33136 11.375 -0.571949 0.82017 0.013974
-19.6725 7.79817 12.4927 -0.564864 0.825086 0.0127087
-20.3523 7.32468 13.507 -0.555962 0.831174 0.00754047
-20.9872 6.89344 14.4425 -0.551617 0.834068 0.00701684
-21.687 6.42467 15.461 -0.545618 0.838019 0.00503645
-22.4385 5.93203 16.5322 -0.540618 0.841246 0.00619602
-22.8658 5.65323 17.1346 -0.539909 0.84166 0.0103613
-22.1753 6.08925 17.6468 -0.542159 0.840198 0.0114118
-21.2293 6.71474 16.3012 -0.544534 0.8387 0.00803454
-20.4844 7.21742 15.2146 -0.55698 0.830377 0.0157245
-19.7666 7.71307 14.148 -0.558044 0.829781 0.00714389
-19.1284 8.16282 13.195 -0.571848 0.820344 0.0050702
-18.4441 8.6602 12.1516 -0.580741 0.813959 0.014527
-17.5626 9.31214 10.7659 -0.589161 0.807951 0.0102098
-16.7868 9.90668 9.48805 -0.594411 0.804086 0.0110532
-16.1576 10.3908 8.45097 -0.61229 0.790456 0.0167634
-15.4889 10.9419 7.3227 -0.623363 0.781462 0.0271196
-14.8744 11.4699 6.24468 -0.637589 0.770054 0.022269
-14.1411 12.1219 4.92059 -0.644979 0.763701 0.0276031
-13.5413 12.6812 3.81111 -0.654758 0.755113 0.0331261
-13.0364 13.1985 2.83252 -0.658863 0.750706 0.048379
-12.4569 13.8139 1.69471 -0.675127 0.734747 0.0659608
-11.8554 14.493 0.470255 -0.692974 0.718333 0.0615257
-11.3689 15.0609 -0.557017 -0.695215 0.715713 0.0665618
-10.8862 15.6462 -1.59185 -0.712439 0.697239 0.0793024
-10.4628 16.1903 -2.52655 -0.721251 0.687343 0.0857722
-9.92741 16.6811 -2.03258 -0.709741 0.699457 0.0838347
-10.5259 15.9197 -0.719776 -0.710811 0.699439 0.0743774
-11.029 15.3066 0.379754 -0.696703 0.714599 0.0628698
-11.683 14.5494 1.7587 -0.700139 0.712084 0.0523557
-12.2868 13.8966 2.97492 -0.696649 0.716227 0.0412245
-12.7631 13.371 3.94234 -0.698631 0.714386 0.0395753
-13.3737 12.7811 5.10927 -0.667423 0.744496 0.0164591
-13.9491 12.2504 6.17373 -0.659383 0.751356 0.0260363
-14.5067 11.7403 7.18684 -0.634027 0.772766 0.0290167
-15.2263 11.12 8.44455 -0.619515 0.78486 0.0140112
-15.8276 10.6357 9.46039 -0.613716 0.789519 0.00365268
-16.4335 10.1535 10.4879 -0.605108 0.796007 0.0147629
-17.1771 9.5835 11.7105 -0.594238 0.804238 0.00907887
-17.9957 8.96747 12.9872 -0.583581 0.811985 0.0106665
-18.8425 8.3576 14.2795 -0.575439 0.817842 0.00194865
-19.6227 7.80119 15.4435 -0.571112 0.820833 0.00804438
-20.2933 7.33204 16.4382 -0.560878 0.827881 0.0053665
-20.9556 6.88597 17.3952 -0.560175 0.828366 0.00376556
-21.2536 6.68602 17.822 -0.543818 0.839148 0.00958313
-20.1399 7.43368 17.7005 -0.565406 0.824757 0.00955808
-19.3509 7.98231 16.5548 -0.574069 0.818807 0.000461326
-18.4526 8.62935 15.2192 -0.581896 0.813236 0.00662717
-17.7929 9.10405 14.2159 -0.583731 0.811947 -0.000314516
-17.1744 9.5579 13.2605 -0.589044 0.807975 0.0142268
-16.5818 10.0194 12.308 -0.598222 0.80131 0.00571057
-15.8889 10.5628 11.1661 -0.614068 0.789073 0.0168697
-15.2885 11.0454 10.1433 -0.623042 0.782133 0.00929349
-14.6762 11.5631 9.06559 -0.635894 0.771691 0.0115323
-14.1306 12.0285 8.11191 -0.642597 0.766063 0.0147171
-13.5556 12.5529 7.063 -0.656061 0.753533 0.0420829
-13.0046 13.0979 6.00849 -0.678164 0.734378 0.0279759
-12.4534 13.6291 4.94739 -0.687947 0.725506 0.0192441
-11.9751 14.1424 3.96682 -0.700287 0.712904 0.0369557
-11.4403 14.7306 2.86057 -0.699958 0.71316 0.0382218
-10.9658 15.2539 1.88107 -0.703853 0.709055 0.0427943
-10.4698 15.8305 0.827214 -0.71353 0.698158 0.0587341
-9.99713 16.4079 -0.2061 -0.706314 0.70455 0.0687769
-9.52168 17.0008 -1.24117 -0.712835 0.696742 0.0801048
-9.367 17.1981 -1.57882 -0.718312 0.690227 0.0872656
-8.77542 17.7725 -1.19685 -0.726184 0.681709 0.0890539
-9.32171 17.0702 0.00756801 -0.715375 0.696237 0.0590921
-9.89477 16.3841 1.2301 -0.712791 0.698916 0.0587062
-10.3879 15.8091 2.27969 -0.708316 0.704675 0.0414976
-10.9459 15.1918 3.44777 -0.715237 0.698335 0.0276501
-11.4961 14.5853 4.6087 -0.711344 0.702456 0.0233604
-12.006 14.0473 5.65315 -0.699841 0.714 0.020658
-12.5527 13.4843 6.75433 -0.686937 0.726306 0.0244142
-13.2446 12.7875 8.10622 -0.671697 0.740745 0.0109826
-13.7895 12.3072 9.09335 -0.656326 0.754416 0.00957263
-14.3252 11.8376 10.0515 -0.635285 0.77221 0.0101985
-14.9375 11.3177 11.1356 -0.630998 0.775662 0.0137646
-15.5046 10.8507 12.1043 -0.616648 0.78719 0.00877082
-16.1989 10.2907 13.2517 -0.608926 0.792992 0.019307
-16.9091 9.7489 14.3828 -0.595185 0.803588 0.000819907
-17.5304 9.29057 15.3519 -0.582786 0.81262 0.00321698
-18.2621 8.75539 16.4744 -0.581897 0.813236 0.00662877
-18.9778 8.24332 17.5216 -0.574069 0.818806 0.000460148
-19.1544 8.12162 17.7778 -0.571222 0.820788 0.0036068
-18.0806 8.87667 17.7084 -0.57883 0.815412 -0.00769301
-17.3594 9.40065 16.6236 -0.59097 0.806599 0.012388
-16.6792 9.92295 15.5595 -0.598659 0.800987 0.00525157
-16.0006 10.4378 14.4747 -0.609261 0.792959 -0.0041498
-15.4029 10.9114 13.4952 -0.645029 0.764158 0.000569179
-14.8443 11.3865 12.5474 -0.642651 0.766158 0.0014285
-14.2452 11.8848 11.5173 -0.666702 0.745307 0.00513553
-13.7096 12.3653 10.5405 -0.650439 0.759347 -0.0179107
-13.1206 12.8905 9.46844 -0.66453 0.747108 0.0151555
-12.4534 13.5413 8.17919 -0.696574 0.717436 0.00840213
-11.8728 14.1531 6.98752 -0.710758 0.703118 0.0211632
-11.1775 14.889 5.53774 -0.720791 0.69295 0.0167216
-10.7014 15.4075 4.53096 -0.716556 0.697372 0.0147915
-10.227 15.9107 3.54617 -0.704473 0.709404 0.021538
-9.64108 16.5713 2.30745 -0.722415 0.690213 0.0415048
-9.07584 17.231 1.11113 -0.721934 0.690817 0.0397844
-8.52947 17.8978 -0.0587787 -0.724089 0.686883 0.0623445
-8.30861 18.187 -0.556261 -0.722388 0.68594 0.0874147
-7.63018 18.8869 -0.408636 -0.716857 0.693841 0.0685568
-8.12615 18.2552 0.688088 -0.724089 0.686883 0.0623437
-8.60081 17.6939 1.69883 -0.722619 0.690056 0.0405579
-9.13996 17.069 2.84167 -0.729162 0.683784 0.027614
-9.67792 16.4617 3.99371 -0.724028 0.68964 0.013436
-10.152 15.9571 4.98273 -0.715843 0.698205 0.00887003
-10.7415 15.3372 6.22116 -0.731428 0.681918 9.76266e-05
-11.369 14.6621 7.56039 -0.728725 0.684803 0.00218912
-11.8821 14.1165 8.62774 -0.715886 0.697896 0.0211836
-12.4384 13.524 9.77044 -0.70967 0.704351 0.016073
-12.9834 13.0117 10.8034 -0.677118 0.735592 -0.0203999
-13.534 12.5196 11.8094 -0.673365 0.73931 -0.000521275
-14.1102 12.0092 12.8362 -0.651356 0.758768 0.00253647
-14.7026 11.5046 13.8589 -0.645473 0.763778 -0.00281333
-15.4023 10.918 15.0503 -0.638563 0.769537 0.0070313
-16.0496 10.3989 16.107 -0.613946 0.789309 0.00785752
-16.8317 9.79545 17.3367 -0.60609 0.795396 0.00020133
-17.1113 9.5858 17.7615 -0.604125 0.796876 -0.00470565
-16.2431 10.2456 17.9577 -0.618935 0.785442 9.42357e-05
-15.5898 10.7612 16.9103 -0.623554 0.781756 -0.00618011
-14.9992 11.2405 15.9368 -0.641271 0.767028 0.0209694
-14.3102 11.8401 14.7515 -0.649121 0.760617 0.0102086
-13.7495 12.3191 13.7846 -0.650852 0.759196 -0.00372515
-13.1878 12.8267 12.775 -0.673783 0.738718 0.0176812
-12.6037 13.3847 11.674 -0.686718 0.726871 0.00875986
-12.0984 13.8679 10.6977 -0.723091 0.69075 -0.0020143
-11.5107 14.4887 9.48193 -0.737262 0.675506 0.0116714
-10.9653 15.0919 8.31692 -0.730161 0.683266 -0.00355897
-10.3563 15.7503 7.00558 -0.731569 0.681761 0.00288055
-9.81179 16.2998 5.87453 -0.720309 0.693424 0.0178075
-9.28514 16.8737 4.74486 -0.731207 0.682144 0.00392621
-8.7512 17.4559 3.60982 -0.736876 0.676007 0.00529855
-8.15084 18.1324 2.34314 -0.722228 0.691224 0.0244055
-7.64828 18.7132 1.28156 -0.722964 0.689211 0.0480857
-7.09765 19.3855 0.0830268 -0.713846 0.697176 0.0660998
-7.03851 19.4582 -0.0449477 -0.713846 0.697176 0.0660999
-6.36875 20.113 0.182333 -0.703335 0.707945 0.0642866
-6.84357 19.5475 1.19678 -0.711846 0.700229 0.0543541
-7.41088 18.9021 2.38956 -0.717354 0.696199 0.0266343
-7.92082 18.3434 3.44862 -0.725671 0.688036 0.00280381
-8.49688 17.7299 4.64687 -0.734168 0.678952 -0.00460613
-9.05487 17.1475 5.81239 -0.747546 0.663946 -0.0187452
-9.62152 16.5591 7.01656 -0.741612 0.669729 -0.0383982
-10.149 15.9706 8.18421 -0.747682 0.664048 0.00344804
-10.6338 15.4579 9.22896 -0.756925 0.653502 -0.000558031
-11.1617 14.8556 10.3758 -0.732763 0.68048 0.0021707
-11.6381 14.3514 11.369 -0.724039 0.68958 -0.0156908
-12.2336 13.7579 12.5505 -0.7064 0.707811 -0.00139808
-12.8362 13.154 13.7196 -0.689211 0.724561 0.000647648
-13.3719 12.669 14.6863 -0.666604 0.745364 -0.00842984
-13.9295 12.1789 15.6559 -0.668717 0.743486 -0.00684817
-14.6393 11.5478 16.8771 -0.655212 0.755358 -0.0114627
-15.2047 11.0712 17.8332 -0.635916 0.771747 -0.00429384
-15.2472 11.0374 17.9021 -0.622153 0.782896 0.000162649
-14.2891 11.86 17.8337 -0.653397 0.757012 -0.00222092
-13.4931 12.5669 16.4622 -0.67053 0.741859 0.00587367
-12.8835 13.1416 15.3716 -0.695702 0.717847 -0.0263569
-12.2233 13.7597 14.1481 -0.712404 0.701736 -0.00688877
-11.712 14.2897 13.1245 -0.724424 0.689355 -0.000355869
-11.1896 14.834 12.0529 -0.739773 0.672842 -0.00431943
-10.7055 15.3877 11.0021 -0.762845 0.646463 -0.0123919
-10.1852 15.9781 9.86386 -0.756924 0.653502 -0.000558958
-9.57286 16.6664 8.47839 -0.765431 0.643067 -0.0240956
-9.08729 17.1864 7.40562 -0.754741 0.655073 -0.035296
-8.49939 17.7862 6.16918 -0.743455 0.667729 -0.0375911
-8.00024 18.2783 5.15875 -0.738496 0.673659 -0.0283915
-7.51538 18.7747 4.16759 -0.730728 0.682573 -0.0114501
-6.82921 19.4866 2.7798 -0.720445 0.693455 0.00885801
-6.24674 20.1286 1.57778 -0.715465 0.697838 0.0336271
-5.75117 20.7013 0.533693 -0.695771 0.716153 0.0550298
-5.06327 21.3522 0.759706 -0.690016 0.721878 0.0526247
-5.68401 20.6738 2.03454 -0.698553 0.714641 0.0362156
-6.22221 20.1111 3.11623 -0.71741 0.696649 0.00161889
-6.82821 19.5078 4.30781 -0.716404 0.697098 -0.0286241
-7.31954 19.024 5.28384 -0.730484 0.681617 -0.0423317
-8.07892 18.3092 6.76709 -0.748689 0.660292 -0.0589855
-8.58438 17.8078 7.82143 -0.759521 0.648703 -0.0480778
-9.17025 17.1969 9.13095 -0.778246 0.627539 -0.0229764
-9.63071 16.6581 10.2129 -0.779132 0.6262 -0.0287578
-10.1225 16.0846 11.3335 -0.779565 0.626119 -0.0159464
-10.6344 15.477 12.4666 -0.757557 0.652769 -0.000389601
-11.1721 14.8862 13.6058 -0.74299 0.669137 -0.0148831
-11.6463 14.3804 14.585 -0.733255 0.67968 -0.0192868
-12.3893 13.6321 16.0373 -0.720958 0.692975 -0.00235023
-12.924 13.11 17.011 -0.699078 0.715027 0.00512362
-13.4528 12.601 17.9612 -0.677493 0.735503 -0.00612972
-12.405 13.6225 17.6451 -0.720728 0.693211 -0.00319262
-11.8801 14.1696 16.6412 -0.724772 0.688983 -0.00280396
-11.3099 14.7705 15.4963 -0.734158 0.678908 -0.0097387
-10.7893 15.3215 14.412 -0.746333 0.66551 -0.00916134
-10.3327 15.8292 13.4346 -0.762905 0.646508 -0.00167845
-9.884 16.3872 12.4157 -0.780618 0.625004 -0.00229757
-9.39386 16.9864 11.2829 -0.778062 0.628116 -0.00947411
-9.09945 17.3375 10.587 -0.796721 0.60322 -0.0369004
-9.13871 17.3223 12.3351 -0.789952 0.613153 0.00434815
-9.57728 16.7615 13.3734 -0.777886 0.628403 0.00192896
-10.0811 16.1469 14.4932 -0.77938 0.62643 -0.0123644
-10.5369 15.6344 15.4895 -0.759331 0.650567 -0.0133638
-11.0386 15.0761 16.566 -0.749933 0.661451 -0.00917049
-11.6161 14.4452 17.7469 -0.734919 0.678139 -0.00465149
-10.8037 15.352 17.7093 -0.744248 0.667887 -0.00461138
-10.3304 15.8921 16.6826 -0.775222 0.631566 -0.0124729
-9.74505 16.5842 15.3516 -0.780086 0.625365 -0.0196202
-9.29246 17.1295 14.3401 -0.793678 0.608249 -0.0104123
-9.06819 17.4133 13.8269 -0.794268 0.607503 -0.00888518
-9.13813 17.3602 15.5641 -0.794066 0.607514 -0.0196503
-9.71156 16.6651 16.8977 -0.783949 0.620741 -0.0102895
-9.95968 16.3636 17.4785 -0.770386 0.63751 -0.0093237
-9.34303 17.1366 17.6829 -0.783312 0.621609 0.0048378
-9.1527 17.3762 17.2186 -0.785931 0.618269 -0.00746535
-21.0143 7.10036 2.34104 -0.561196 0.827376 0.0225252
-20.3263 7.60892 1.24574 -0.568728 0.822072 0.0273026
-19.5997 8.16428 0.0819244 -0.585564 0.809787 0.0368733
-18.9294 8.6969 -1.03392 -0.590435 0.806354 0.0343387
-18.2664 9.23672 -2.15257 -0.605555 0.794489 0.0457133
-17.623 9.80134 -3.24205 -0.610029 0.790638 0.0524981
-16.9568 10.4159 -4.43228 -0.637215 0.768819 0.0536226
-16.3404 11.0057 -5.55084 -0.64514 0.761994 0.0562143
-15.6606 11.6867 -6.81598 -0.657565 0.751089 0.0589386
-15.1066 12.2692 -7.88576 -0.678039 0.732725 0.0581152
-14.5109 12.9339 -9.07167 -0.689516 0.720972 0.0690526
-14.0039 13.5394 -10.1269 -0.708853 0.702048 0.068234
-13.4943 14.1726 -11.2183 -0.72306 0.68807 0.0611888
-12.8722 14.9855 -12.6122 -0.738644 0.670389 0.0705985
-12.3911 15.6868 -13.7751 -0.757858 0.647784 0.0776394
-11.9613 16.352 -14.8505 -0.782696 0.615728 0.090922
-11.4522 17.2099 -16.2026 -0.80678 0.585885 0.0764577
-11.1362 17.7699 -17.103 -0.81601 0.571242 0.0883733
-10.7999 18.0869 -16.1811 -0.800863 0.58705 0.118282
-11.1726 17.4066 -15.14 -0.791078 0.603811 0.0980164
-11.6491 16.5999 -13.8739 -0.772082 0.627861 0.0983884
-12.0165 16.0196 -12.9399 -0.76175 0.641547 0.0903021
-10.9954 17.4029 -13.7882 -0.779259 0.616837 0.110754
-10.6015 18.1126 -14.8844 -0.787131 0.603568 0.127004
-10.3727 18.5397 -15.5362 -0.800864 0.587049 0.118281
-9.93225 18.9631 -14.8685 -0.772918 0.621028 0.130085
-9.76273 19.3014 -15.3687 -0.781605 0.606078 0.147522
0.450856 24.6025 -14.9791 0.0294856 0.999232 -0.0258226
0.444539 24.6024 -14.9724 -0.0299785 0.999523 -0.0073908
1.09775 24.595 -14.2918 0.0977902 0.992613 -0.0718114
1.86997 24.3974 -15.1666 0.182616 0.979593 -0.0839629
3.0077 24.0621 -15.1046 0.340887 0.93592 -0.0885954
2.29542 24.3771 -14.2335 0.242906 0.965532 -0.0935113
1.6805 24.5667 -13.5431 0.175078 0.984225 -0.0254841
2.25749 24.5004 -12.7962 0.223311 0.970864 -0.0869258
2.98705 24.1988 -13.6551 0.318697 0.942936 -0.0964555
3.74156 23.8106 -14.6295 0.43782 0.894457 -0.0908837
4.06127 23.6088 -15.0879 0.442287 0.892877 -0.0845809
5.12914 23.0522 -15.1527 0.50738 0.856401 -0.0956197
4.51482 23.4781 -14.2476 0.433312 0.896003 -0.0970527
3.7896 23.915 -13.2459 0.382705 0.920663 -0.076912
3.04745 24.3088 -12.3089 0.298312 0.950249 -0.0896534
2.64337 24.4782 -11.8302 0.236142 0.968193 -0.0826989
3.11556 24.4066 -10.9738 0.217129 0.969187 -0.116324
3.84278 24.0875 -11.8558 0.383176 0.91415 -0.132314
4.51249 23.6638 -12.7499 0.430404 0.892713 -0.133477
5.26537 23.1128 -13.858 0.491424 0.864661 -0.104226
5.90365 22.5877 -14.8619 0.60168 0.795426 -0.0726486
6.16042 22.3546 -15.2881 0.607437 0.790248 -0.0807998
7.01122 21.6285 -15.3421 0.678392 0.729622 -0.0862331
6.38604 22.3092 -14.1649 0.593662 0.797238 -0.109441
5.82155 22.8293 -13.2311 0.540443 0.829504 -0.140867
5.23755 23.3334 -12.3225 0.51217 0.849874 -0.124085
4.57764 23.8391 -11.3644 0.4268 0.901468 -0.0720858
3.85784 24.2546 -10.4195 0.392032 0.912257 -0.118735
3.19124 24.5263 -9.62131 0.245603 0.96181 -0.120835
3.19783 24.6317 -8.18239 0.238093 0.968055 -0.0786186
3.94033 24.3546 -9.06922 0.314729 0.946532 -0.0708676
4.62066 23.9824 -9.9484 0.398815 0.909845 -0.114577
5.3808 23.4482 -11.0116 0.476321 0.867384 -0.144095
6.05098 22.8664 -12.0644 0.542567 0.832755 -0.110185
6.73614 22.1909 -13.2188 0.596197 0.781355 -0.184484
7.26388 21.5798 -14.2263 0.659225 0.740153 -0.132652
7.78169 20.8958 -15.3432 0.703989 0.697165 -0.135503
7.82875 20.8273 -15.4507 0.703567 0.700431 -0.119956
8.66847 19.9014 -15.6953 0.729608 0.672695 -0.123103
8.10377 20.758 -14.3591 0.708792 0.692963 -0.131969
7.47767 21.6117 -13.0024 0.657069 0.741529 -0.135625
7.02498 22.1951 -12.1153 0.611306 0.783507 -0.111453
6.41415 22.7821 -11.0989 0.558959 0.813873 -0.15867
5.76572 23.3674 -10.0792 0.507274 0.851036 -0.13569
5.10987 23.8635 -9.10797 0.405897 0.908441 -0.0999137
4.31844 24.3446 -8.06621 0.342156 0.932557 -0.115178
3.58364 24.6391 -7.18638 0.245287 0.964509 -0.0977636
2.95656 24.8922 -6.42902 0.228692 0.962643 -0.144978
3.34911 24.9393 -5.43824 0.270958 0.957727 -0.0966503
4.12372 24.576 -6.38128 0.298043 0.945228 -0.133094
5.08395 24.0618 -7.57861 0.410443 0.903292 -0.124898
5.72991 23.5955 -8.48902 0.501413 0.858137 -0.11039
6.32787 23.1257 -9.38734 0.549911 0.82693 -0.11741
6.90888 22.5526 -10.3504 0.59382 0.793473 -0.133336
7.49393 21.9343 -11.3582 0.65256 0.747273 -0.125492
7.95121 21.3169 -12.3083 0.684882 0.71445 -0.143167
8.40088 20.6852 -13.2916 0.699357 0.700253 -0.143337
8.79667 20.0585 -14.2344 0.733137 0.664693 -0.143851
9.17192 19.4498 -15.1604 0.738597 0.659211 -0.141119
9.6083 18.7436 -16.2656 0.738083 0.662775 -0.126346
9.99419 18.1411 -17.238 0.740299 0.665281 -0.0967388
10.1745 17.8753 -17.6851 0.742575 0.662137 -0.100778
10.9351 17.0043 -17.8117 0.741488 0.663282 -0.101257
10.5114 17.6555 -16.7484 0.739142 0.662495 -0.121526
10.1076 18.2954 -15.7192 0.735855 0.663891 -0.133291
9.6363 19.0664 -14.5199 0.738913 0.658893 -0.140956
9.12454 19.918 -13.2582 0.727999 0.669823 -0.146133
8.70471 20.5937 -12.2523 0.716466 0.6797 -0.157113
8.28175 21.1935 -11.3399 0.685444 0.714636 -0.139504
7.83547 21.7956 -10.4024 0.6633 0.738539 -0.120806
7.21588 22.492 -9.28618 0.615245 0.780093 -0.113702
6.57367 23.1191 -8.2267 0.589918 0.79793 -0.123708
6.00607 23.6157 -7.34953 0.507831 0.84724 -0.15586
5.28043 24.1884 -6.33827 0.37659 0.912048 -0.16232
4.7789 24.4452 -5.71556 0.345795 0.931742 -0.11083
5.98266 23.9434 -5.76814 0.474389 0.87644 -0.0825063
6.64273 23.3178 -6.77253 0.535869 0.832878 -0.138415
7.27075 22.7035 -7.7904 0.558924 0.811216 -0.17185
7.76665 22.1164 -8.70002 0.612011 0.77221 -0.170689
8.30783 21.467 -9.72758 0.682157 0.720134 -0.12676
8.82928 20.7692 -10.8093 0.704391 0.696919 -0.134675
9.30646 20.0386 -11.9095 0.716466 0.6797 -0.157113
9.68479 19.392 -12.8564 0.732506 0.662733 -0.155627
10.1135 18.6686 -13.9215 0.741629 0.654156 -0.148551
10.4951 18.0284 -14.89 0.740144 0.659821 -0.129704
10.8699 17.4198 -15.8418 0.741052 0.659083 -0.128263
11.2829 16.7679 -16.8836 0.733508 0.670179 -0.113249
11.6072 16.3075 -17.6391 0.718941 0.68861 -0.0945523
12.4195 15.4461 -17.7387 0.720554 0.688022 -0.0861838
11.9256 16.1183 -16.633 0.711369 0.696566 -0.0935432
11.5201 16.7206 -15.6778 0.741053 0.659081 -0.128263
11.1 17.3988 -14.6407 0.74062 0.659208 -0.130104
10.7173 18.0422 -13.6654 0.740217 0.656166 -0.146717
10.254 18.8431 -12.4824 0.738845 0.656389 -0.152519
9.81899 19.6032 -11.3569 0.737496 0.657472 -0.15437
9.39666 20.2637 -10.3639 0.712673 0.68687 -0.142499
8.97261 20.9 -9.42583 0.694669 0.70587 -0.138499
8.53082 21.4907 -8.52152 0.680617 0.715854 -0.155931
7.90919 22.3113 -7.29703 0.617874 0.769685 -0.160677
7.24866 23.0119 -6.1594 0.55431 0.821216 -0.135441
6.96886 23.2764 -5.71839 0.555571 0.819739 -0.139172
7.68101 22.8509 -5.26664 0.61745 0.77634 -0.126697
8.16713 22.2899 -6.14577 0.651297 0.75507 -0.0753685
8.62058 21.7066 -7.03537 0.689743 0.710278 -0.140568
9.16989 20.9321 -8.18584 0.715883 0.684254 -0.138952
9.61104 20.2865 -9.14031 0.720445 0.681307 -0.129538
10.0155 19.6578 -10.0714 0.739718 0.659524 -0.133588
10.3976 19.023 -11.0136 0.748242 0.64742 -0.144849
10.8402 18.2541 -12.1592 0.743543 0.652005 -0.148435
11.3158 17.4324 -13.3766 0.739808 0.656216 -0.148538
11.6922 16.8139 -14.3051 0.734161 0.664807 -0.137985
12.0966 16.1837 -15.2634 0.722514 0.679082 -0.129696
12.5135 15.5859 -16.2026 0.700358 0.703888 -0.118491
12.9467 14.9877 -17.1771 0.706508 0.698449 -0.114088
13.0584 14.8333 -17.4308 0.699043 0.707645 -0.102848
13.8882 14.0197 -17.475 0.700439 0.70806 -0.0896458
13.3233 14.7533 -16.2781 0.706579 0.698435 -0.113728
12.9007 15.3338 -15.3488 0.708006 0.696946 -0.113987
12.4898 15.9224 -14.4361 0.723317 0.678363 -0.128981
12.0827 16.5581 -13.4755 0.731498 0.6672 -0.140553
11.6985 17.1942 -12.525 0.739858 0.657145 -0.14412
11.3144 17.8469 -11.5604 0.747305 0.649803 -0.138892
10.9452 18.477 -10.6156 0.750935 0.644626 -0.143364
10.5655 19.1229 -9.65902 0.74544 0.654339 -0.127121
10.0865 19.8749 -8.54219 0.733186 0.665822 -0.138271
9.69792 20.4987 -7.63777 0.725181 0.673021 -0.145452
9.11707 21.3245 -6.40126 0.70501 0.699269 -0.118252
8.6011 21.9838 -5.37625 0.695491 0.711445 -0.100688
8.386 22.2508 -4.95784 0.685822 0.720704 -0.10116
9.08243 21.6057 -4.72374 0.695489 0.711447 -0.100689
9.58086 20.9534 -5.72971 0.728409 0.678347 -0.0962621
10.0249 20.3292 -6.67315 0.729889 0.673434 -0.117254
10.4615 19.6316 -7.6962 0.758653 0.638012 -0.131857
10.8411 19.0045 -8.61569 0.750218 0.649197 -0.125367
11.2577 18.3219 -9.62797 0.754132 0.643748 -0.129899
11.6415 17.6781 -10.5805 0.750573 0.646192 -0.138114
12.0091 17.0622 -11.4971 0.743896 0.652745 -0.143329
12.4176 16.3957 -12.495 0.735833 0.663316 -0.136238
12.8433 15.7255 -13.5121 0.727134 0.674056 -0.130098
13.3472 14.9968 -14.6334 0.70868 0.696319 -0.113635
13.8398 14.3247 -15.6922 0.707671 0.697505 -0.112648
14.3928 13.6176 -16.8367 0.681011 0.725535 -0.0991125
14.7198 13.2411 -17.465 0.671073 0.736479 -0.0852011
15.4319 12.6517 -17.1705 0.649614 0.756574 -0.0748133
14.852 13.2925 -16.0872 0.671515 0.73533 -0.0914207
14.3076 13.9727 -14.9855 0.69762 0.707473 -0.113174
13.8753 14.5491 -14.0759 0.705124 0.699796 -0.114397
13.3954 15.2262 -13.0256 0.719451 0.68315 -0.125286
12.9255 15.9463 -11.9405 0.733335 0.667941 -0.126784
12.4041 16.7712 -10.7027 0.743344 0.656566 -0.12791
11.9656 17.4944 -9.62141 0.75232 0.646048 -0.128978
11.5712 18.1385 -8.67486 0.761665 0.637765 -0.114548
11.0299 19.0253 -7.35791 0.765073 0.63517 -0.105939
10.5419 19.8012 -6.20859 0.768684 0.631675 -0.100561
10.1048 20.4618 -5.22458 0.74725 0.657816 -0.094316
9.62021 21.1114 -4.21427 0.729532 0.678669 -0.0848085
9.50353 21.2803 -3.95422 0.73594 0.668842 -0.105084
9.96209 20.8699 -3.2783 0.761506 0.642198 -0.0876987
10.3832 20.2459 -4.2563 0.761409 0.644082 -0.073582
10.8329 19.5826 -5.2649 0.767906 0.63531 -0.0818652
11.2639 18.9143 -6.25765 0.768972 0.631337 -0.100479
11.7731 18.1117 -7.45723 0.768118 0.633038 -0.096214
12.1639 17.4759 -8.42191 0.758539 0.641494 -0.114473
12.5676 16.8357 -9.36242 0.754507 0.645284 -0.119703
12.9536 16.2203 -10.2913 0.750977 0.650315 -0.114563
13.506 15.3801 -11.5656 0.733335 0.667942 -0.126784
13.9263 14.7738 -12.486 0.714945 0.687926 -0.12495
14.3559 14.1814 -13.4062 0.701085 0.703319 -0.117563
14.861 13.5115 -14.456 0.697678 0.707363 -0.113503
15.3743 12.8928 -15.4645 0.669485 0.737543 -0.0884339
15.9073 12.3113 -16.4532 0.65542 0.75128 -0.0774754
16.2612 11.947 -17.0856 0.650977 0.755838 -0.0702688
17.0212 11.318 -16.8678 0.646099 0.760119 -0.0690985
16.5097 11.8381 -15.9693 0.648756 0.757647 -0.0713241
16.0167 12.3671 -15.0675 0.660419 0.74664 -0.0798514
15.4226 13.0573 -13.9328 0.677595 0.727981 -0.104444
14.9166 13.6973 -12.9172 0.694008 0.713282 -0.0978792
14.4337 14.343 -11.9071 0.709313 0.696672 -0.107342
14.0023 14.9387 -10.9863 0.725907 0.67962 -0.105712
13.5184 15.6496 -9.89895 0.744168 0.659207 -0.107979
13.084 16.3069 -8.89858 0.758081 0.644257 -0.101226
12.6554 16.9757 -7.88473 0.762799 0.639052 -0.0987457
12.2634 17.5945 -6.92886 0.771706 0.629595 -0.0898892
11.7633 18.3666 -5.79269 0.776022 0.624538 -0.0879899
11.3145 19.0617 -4.76089 0.77509 0.628203 -0.0677989
10.8975 19.6912 -3.78266 0.79106 0.605131 -0.0896712
10.3675 20.4447 -2.57533 0.774648 0.631381 -0.0357702
10.8176 19.899 -2.02063 0.788746 0.614719 0.000822988
11.2774 19.2598 -3.05333 0.794121 0.60581 -0.0486397
11.6867 18.6535 -4.03073 0.785807 0.616256 -0.0523006
12.1047 18.0359 -4.98171 0.787176 0.614256 -0.0551703
12.5282 17.4016 -5.93844 0.772938 0.628826 -0.0845246
12.9321 16.7911 -6.85381 0.767701 0.635972 -0.0785805
13.345 16.1631 -7.83118 0.757407 0.64697 -0.0881156
13.8058 15.4794 -8.8879 0.744448 0.661 -0.0942098
14.2496 14.8462 -9.85922 0.733332 0.67281 -0.0977236
14.8048 14.088 -11.0404 0.71932 0.687342 -0.100693
15.291 13.4505 -12.0466 0.696322 0.712082 -0.0898585
15.7756 12.8525 -13.0027 0.687136 0.720187 -0.0957887
16.2536 12.2794 -13.924 0.674255 0.732578 -0.0933258
16.7526 11.7361 -14.8361 0.653591 0.753352 -0.0726607
17.4547 11.0176 -16.0719 0.643237 0.763051 -0.0632407
18.0338 10.4678 -17.0503 0.633144 0.772037 -0.0555613
18.8615 9.82276 -16.8856 0.612663 0.788502 -0.05393
18.2312 10.3948 -15.8491 0.628807 0.775149 -0.0612088
17.6811 10.9332 -14.9044 0.640695 0.764336 -0.0728018
17.0734 11.5644 -13.83 0.657312 0.749139 -0.0820447
16.4269 12.285 -12.6453 0.680718 0.726553 -0.0935092
15.9546 12.8424 -11.7423 0.691344 0.717326 -0.0865325
15.4143 13.5113 -10.6703 0.701647 0.707773 -0.0821552
14.8504 14.2406 -9.51961 0.72781 0.679593 -0.0919019
14.4055 14.8501 -8.56568 0.739354 0.667224 -0.0903794
13.95 15.4889 -7.56111 0.75193 0.653955 -0.0833325
13.4616 16.1936 -6.46514 0.767623 0.637071 -0.0699685
12.9688 16.9083 -5.36377 0.776646 0.627514 -0.0552058
12.55 17.5219 -4.42443 0.783095 0.619303 -0.0567925
12.1041 18.1598 -3.40961 0.788357 0.613896 -0.0403167
11.6886 18.7456 -2.45011 0.802801 0.596236 -0.00373392
11.2404 19.3442 -1.47424 0.798842 0.601527 0.00412282
11.083 19.551 -1.14401 0.799314 0.600871 0.00719139
11.3604 19.1671 -0.307024 0.800744 0.598942 0.00876844
11.8649 18.5138 -1.36755 0.794701 0.606921 0.0098582
12.338 17.9007 -2.38279 0.790809 0.611938 -0.0123504
12.7423 17.3479 -3.30979 0.786292 0.617297 -0.0262624
13.309 16.5582 -4.56154 0.775104 0.630584 -0.0397164
13.7289 15.9711 -5.48806 0.770736 0.635384 -0.0474675
14.2158 15.2971 -6.53885 0.758248 0.648327 -0.068789
14.7471 14.5754 -7.69175 0.740495 0.667931 -0.0743956
15.2097 13.9603 -8.66491 0.727174 0.681664 -0.0809398
15.6985 13.3371 -9.65838 0.710332 0.699121 -0.0815928
15.5572 13.6833 -7.79105 0.726181 0.684413 -0.0651065
15.0843 14.2914 -6.8156 0.738302 0.672107 -0.0564108
14.5787 14.9468 -5.75772 0.757244 0.651566 -0.0452006
14.0793 15.6122 -4.68956 0.765696 0.641429 -0.0477342
13.5257 16.3472 -3.48667 0.775695 0.630749 -0.0212691
13.0516 16.968 -2.45887 0.790596 0.612161 -0.0147349
12.5326 17.6447 -1.31634 0.792971 0.609209 0.00785637
11.9691 18.3605 -0.168304 0.796987 0.603753 0.0171298
11.5986 18.8181 0.623358 0.7999 0.599703 0.0226974
11.8585 18.4096 1.43629 0.802109 0.595208 0.0484566
12.3697 17.7968 0.411984 0.798261 0.601337 0.0342687
12.9096 17.135 -0.673249 0.796032 0.605053 0.0156146
13.3794 16.551 -1.65978 0.786309 0.617833 0.00125774
13.8133 16.008 -2.57914 0.779104 0.626751 -0.0134041
14.3103 15.3851 -3.62534 0.761209 0.64821 -0.0196116
14.7833 14.7867 -4.62786 0.755332 0.654849 -0.0254444
15.2412 14.2105 -5.58092 0.745768 0.665039 -0.0394173
15.7021 13.6449 -6.50964 0.736075 0.675069 -0.0497539
15.809 13.6134 -5.1736 0.739628 0.672492 -0.026539
15.2404 14.2872 -4.01892 0.746409 0.664747 -0.0313864
14.6072 15.0451 -2.71203 0.766146 0.642567 -0.0113109
14.1541 15.5884 -1.79613 0.774557 0.632496 0.00322558
13.6637 16.1818 -0.776588 0.778168 0.627918 0.0131964
13.1563 16.7776 0.237088 0.785137 0.618269 0.036095
12.5714 17.4609 1.41484 0.79484 0.604699 0.0506815
12.0605 18.0422 2.41461 0.794022 0.603675 0.0714528
11.928 18.186 2.67227 0.799882 0.596134 0.0693786
11.9718 17.987 4.07766 0.78888 0.611412 0.0620029
12.5016 17.4043 2.95806 0.79218 0.606853 0.0646579
13.0514 16.8074 1.87113 0.78004 0.624383 0.0410255
13.5398 16.2643 0.896531 0.776842 0.628578 0.0374914
14.2229 15.4929 -0.441129 0.768488 0.639633 0.0171952
14.7533 14.8803 -1.50611 0.759234 0.650681 0.013336
15.3061 14.2415 -2.59226 0.746674 0.66519 0.000184876
15.7664 13.7217 -3.536 0.734327 0.678764 -0.00663632
15.8726 13.6048 -3.74296 0.726685 0.686621 -0.0219216
15.9939 13.4862 -2.45498 0.734326 0.678764 -0.00663522
15.4685 14.0623 -1.42318 0.739392 0.673132 0.0139103
14.8946 14.6936 -0.302522 0.755517 0.654882 0.0179873
14.4216 15.2145 0.608727 0.761989 0.647237 0.0213733
13.8974 15.7756 1.62113 0.771165 0.635432 0.0391205
13.4233 16.2795 2.57891 0.781335 0.621293 0.0592563
12.8684 16.8721 3.68089 0.778997 0.624787 0.0529629
12.289 17.5037 4.88966 0.781229 0.621749 0.0557629
12.0171 17.7906 5.45934 0.77952 0.623692 0.057933
12.0206 17.6366 6.88327 0.781309 0.620671 0.0657583
12.5555 17.0853 5.80837 0.779297 0.623484 0.0629598
13.173 16.4303 4.55546 0.760918 0.647564 0.0408013
13.6434 15.9356 3.61741 0.763387 0.644605 0.0415302
14.1003 15.4495 2.66731 0.762577 0.64569 0.0394954
14.6994 14.8339 1.49948 0.743354 0.668224 0.0300372
15.282 14.2203 0.410523 0.745597 0.666247 0.0141851
15.7982 13.6762 -0.57331 0.729203 0.684094 0.0167046
16.2852 13.1855 -1.49908 0.716959 0.697114 0.000756152
16.5226 12.9202 -0.440132 0.706761 0.70727 0.0160481
16.031 13.3991 0.482332 0.725374 0.687884 0.0254598
15.5223 13.9215 1.43152 0.743367 0.668209 0.030032
14.9039 14.5425 2.57379 0.737627 0.673034 0.054151
14.3727 15.0793 3.62534 0.760045 0.648952 0.0345369
13.8289 15.6486 4.73197 0.75675 0.652635 0.0373829
13.1568 16.3569 6.0735 0.75782 0.651561 0.0343083
12.6704 16.8474 7.03593 0.758917 0.65017 0.0363928
12.1807 17.353 8.06389 0.75365 0.655829 0.0435934
11.9806 17.5747 8.51675 0.735321 0.677218 -0.0260583
12.191 17.3787 9.69071 0.762163 0.646609 -0.0316857
12.6948 16.7798 8.55841 0.741577 0.670842 -0.00591249
13.1443 16.2884 7.5992 0.747886 0.663553 0.0190648
13.6886 15.7217 6.4991 0.747553 0.663878 0.0207518
14.288 15.0864 5.29288 0.755996 0.653663 0.0345601
14.891 14.4772 4.09863 0.740856 0.670984 0.030228
15.5217 13.8814 2.92011 0.707971 0.705449 0.0334496
16.0899 13.3005 1.87523 0.728967 0.684498 0.00830404
16.6505 12.7575 0.824509 0.709711 0.704265 0.017916
