12.2074 18.0076 11.1981 -0.777503 -0.6282 0.0285268
11.9485 18.3977 12.3746 -0.781314 -0.62288 0.0395967
11.5139 19.0391 13.3196 -0.792456 -0.60659 0.0634387
10.8108 20.0566 14.0938 -0.797377 -0.598862 0.0745222
10.357 20.7609 14.8581 -0.792927 -0.60356 0.0835644
10.2457 20.9164 14.9257 -0.792915 -0.60358 0.0835219
9.78303 21.4068 14.0248 -0.787252 -0.612622 0.069763
10.3071 20.63 13.31 -0.797877 -0.598176 0.0746816
10.8611 19.8352 12.778 -0.793524 -0.60467 0.068508
11.4547 18.9798 11.7843 -0.788268 -0.612933 0.0540514
11.6199 18.7042 10.6329 -0.773555 -0.63289 0.0311118
11.5355 18.7509 9.48045 -0.778382 -0.62692 0.0297633
11.5508 18.7282 8.21516 -0.793041 -0.608352 -0.0308733
11.5421 18.8193 6.94401 -0.782771 -0.620317 -0.0492164
11.322 19.2218 5.86538 -0.790507 -0.607251 -0.0790319
11.3374 19.3342 4.73454 -0.797089 -0.59984 -0.0695821
11.3688 19.4368 3.62289 -0.819002 -0.569454 -0.0699282
11.152 19.9048 2.03489 -0.810879 -0.583116 -0.0495078
10.8354 20.4114 0.837213 -0.801751 -0.597397 -0.0170731
10.3752 21.0456 -0.536138 -0.798736 -0.60168 -0.00138853
9.95046 21.5615 -1.59661 -0.772535 -0.634776 0.0103676
9.39192 22.1597 -2.42617 -0.700263 -0.709654 0.077608
8.72755 22.6738 -3.29182 -0.65994 -0.741396 0.121704
7.75422 23.4182 -3.97473 -0.62163 -0.774784 0.104207
6.76115 24.0327 -4.32597 -0.53929 -0.831621 0.132156
5.33684 24.7649 -4.30317 -0.407405 -0.90716 0.104224
4.27128 25.1577 -4.11226 -0.269822 -0.957727 0.099704
3.10904 25.4564 -3.66143 -0.186212 -0.975727 0.115247
1.90554 25.6089 -2.98389 0.0487299 -0.984695 0.116749
1.00844 25.5655 -2.05891 0.218083 -0.965309 0.124193
0.331553 25.4609 -0.908371 0.305852 -0.950458 0.0555309
0.0308251 25.498 0.6239 0.323923 -0.943136 0.0614671
-0.199396 25.4731 2.14092 0.319085 -0.946016 0.0569061
-0.0579919 25.5943 3.62093 0.318201 -0.947365 0.0353322
0.243659 25.7461 4.97257 0.231716 -0.97118 0.0558322
0.439045 25.8665 6.24232 0.303052 -0.952957 0.00567021
0.206579 25.8065 7.41232 0.320017 -0.947167 0.0191018
-0.139494 25.6457 8.59248 0.402196 -0.91511 -0.0279316
-0.317484 25.5728 9.87496 0.361609 -0.931973 0.0257823
0.0717877 25.6737 11.033 0.272681 -0.955665 -0.0782522
0.770192 25.8149 12.0207 0.156536 -0.986638 0.00990976
2.00713 25.9239 12.6526 0.0737215 -0.996833 -0.0298128
3.24658 25.8926 12.8927 -0.119613 -0.992638 -0.0190415
4.4101 25.6754 12.7094 -0.25215 -0.967578 -0.0145539
5.55225 25.2524 12.357 -0.360667 -0.930415 -0.0515646
6.54345 24.8706 11.8859 -0.519884 -0.852693 -0.0347434
7.35773 24.2201 11.6468 -0.740283 -0.672257 -0.00715427
7.46206 24.0548 12.9269 -0.687136 -0.726215 -0.0210679
7.82933 23.7091 14.1056 -0.68835 -0.725265 0.0128721
8.58157 22.929 14.6215 -0.756741 -0.651287 0.056213
9.26072 22.1071 14.4236 -0.777421 -0.625675 0.0644002
9.68233 21.542 14.0966 -0.783093 -0.618357 0.066335
9.25107 21.9942 13.2319 -0.782981 -0.61913 0.0601577
9.82275 21.196 12.638 -0.794339 -0.604009 0.0646811
10.4359 20.3074 11.9955 -0.795987 -0.601356 0.0691082
10.8747 19.6308 11.0878 -0.763318 -0.645217 0.0322722
10.916 19.5508 10 -0.778233 -0.627743 0.0170843
10.9064 19.5572 8.86351 -0.799205 -0.601026 -0.00623642
10.9681 19.5079 7.72949 -0.790408 -0.611958 -0.0276173
10.8504 19.7211 6.60148 -0.758048 -0.645991 -0.0897703
10.2785 20.611 6.48274 -0.852993 -0.507942 -0.117637
9.81906 21.279 6.97898 -0.848947 -0.523286 -0.0738981
10.3194 20.6322 6.05438 -0.843861 -0.526584 -0.102997
10.7249 20.1803 5.04995 -0.832937 -0.546885 -0.0844615
10.8216 20.2047 3.81636 -0.830347 -0.552759 -0.0705729
10.575 20.6978 2.24818 -0.818488 -0.572688 -0.0458898
10.2024 21.2463 1.25226 -0.801468 -0.597894 -0.0130996
9.90065 21.6535 0.206298 -0.76727 -0.641152 0.00852449
9.45674 22.1528 -0.915307 -0.759557 -0.650396 0.0076126
8.71967 22.8459 -1.94204 -0.686092 -0.725443 0.0532231
8.08659 23.3204 -2.7816 -0.627073 -0.766503 0.124005
7.20806 23.8965 -3.13788 -0.541245 -0.834614 0.101725
6.09536 24.527 -3.43202 -0.45114 -0.881564 0.138991
5.04237 25.0446 -3.2429 -0.356876 -0.914842 0.172349
3.75443 25.4483 -2.78151 -0.166493 -0.977484 0.129636
2.73922 25.6418 -2.31275 -0.0687908 -0.988291 0.136191
1.87044 25.763 -1.49106 0.119835 -0.987632 0.101111
1.35097 25.768 -0.46226 0.201319 -0.977076 0.0294099
0.971595 25.7911 0.734531 0.158101 -0.983966 0.0825501
0.802937 25.7542 2.00163 0.287206 -0.956825 0.0182053
0.943372 25.8443 3.55645 0.247655 -0.968014 0.0374784
1.24583 25.984 4.98119 0.183364 -0.981872 0.0480028
1.45336 26.1315 6.22585 0.211497 -0.973922 0.0821253
1.35427 26.166 7.42186 0.239073 -0.970666 0.0255228
0.921234 26.0452 8.47855 0.294841 -0.955223 -0.0248353
0.601482 25.927 9.78321 0.345621 -0.936146 -0.0233529
1.29401 25.9224 11.0902 0.192815 -0.975437 -0.105845
2.60659 25.9696 11.6737 0.0436573 -0.99904 -0.00368226
4.16749 25.7486 11.6297 -0.239616 -0.970868 -0.00017904
5.21245 25.4618 11.3728 -0.336002 -0.937004 -0.095534
6.36421 24.992 10.8468 -0.467242 -0.883018 -0.00880939
7.16784 24.3549 10.406 -0.659562 -0.746904 0.0667655
7.86993 23.7644 9.41371 -0.703019 -0.70892 -0.0402489
8.18154 23.409 9.92074 -0.731399 -0.681417 -0.0267865
8.11716 23.4206 11.2718 -0.743502 -0.668675 -0.00886377
8.11264 23.3884 12.5605 -0.746838 -0.664937 -0.00953226
8.31722 23.1664 13.5968 -0.771143 -0.633871 0.0565401
9.0393 22.2829 13.4427 -0.772601 -0.631762 0.0624625
9.06211 22.2525 13.4222 -0.779467 -0.623052 0.0649775
-3.45872 24.5099 -15.7641 0.301032 -0.946682 -0.114769
-3.31826 24.5278 -15.5427 0.301032 -0.946682 -0.114769
-3.34507 24.7179 -16.9088 0.26619 -0.947593 -0.176664
-4.54345 24.3432 -17.1874 0.36003 -0.913375 -0.188859
-5.46355 24.0678 -17.8561 0.413586 -0.882011 -0.225839
-6.17989 23.8485 -19.0485 0.452007 -0.890408 -0.0529037
-6.56584 23.5453 -18.1351 0.452107 -0.876818 -0.160789
-7.20206 22.9616 -17.2847 0.553441 -0.799921 -0.232012
-8.25315 22.0753 -17.0147 0.627467 -0.746102 -0.22275
-9.14609 21.1282 -16.97 0.75046 -0.636474 -0.17778
-9.92955 20.2212 -17.071 0.793865 -0.587913 -0.154935
-10.6795 19.244 -17.5071 0.82587 -0.550564 -0.121731
-11.0712 18.7859 -18.6504 0.843847 -0.532947 -0.0623698
-11.4788 18.216 -19.4698 0.828299 -0.559816 -0.0229665
-12.2748 17.0548 -19.4896 0.816056 -0.577677 -0.0182159
-13.0722 15.9579 -19.517 0.798619 -0.601392 -0.0231133
-13.8299 14.9829 -19.5428 0.779405 -0.626508 -0.00394834
-14.675 13.9708 -19.3746 0.756928 -0.653498 0.000322611
-15.5833 12.9567 -19.2899 0.733776 -0.679378 -0.00424828
-16.4008 12.0972 -19.1335 0.704656 -0.709475 -0.0102829
-17.4115 11.1377 -18.9965 0.67635 -0.736568 0.00355943
-18.3366 10.3219 -18.8846 0.643415 -0.765483 -0.0054777
-19.2431 9.56543 -18.775 0.629257 -0.777054 -0.00270051
-20.2613 8.75909 -18.6669 0.621833 -0.783087 -0.00998835
-21.2445 8.0108 -18.5727 0.595644 -0.80299 -0.0164058
-22.4836 7.11119 -18.3945 0.5734 -0.819264 -0.00442405
-23.5111 6.39264 -18.195 0.568344 -0.822731 -0.00995565
-22.8864 6.81697 -17.4665 0.574697 -0.818243 -0.0142131
-21.8584 7.53582 -17.1344 0.581534 -0.813342 -0.0157154
-20.8745 8.25772 -16.7392 0.598376 -0.801057 -0.0147571
-19.9978 8.9307 -16.2951 0.618809 -0.785244 -0.0215964
-19.0932 9.64281 -15.6591 0.639939 -0.768045 -0.0241013
-18.322 10.267 -14.7607 0.659254 -0.751675 -0.018118
-17.5477 10.9138 -13.7397 0.658667 -0.751937 -0.0273541
-16.9496 11.4007 -12.5408 0.67126 -0.740524 -0.0321544
-16.6839 11.5648 -11.0642 0.676781 -0.734281 -0.0528974
-16.6758 11.4963 -9.81286 0.658524 -0.751292 -0.0436574
-16.8673 11.2485 -8.64683 0.653103 -0.755283 -0.0539965
-17.3227 10.7827 -7.49712 0.647202 -0.760434 -0.0535678
-17.865 10.2747 -6.57844 0.628614 -0.776079 -0.0504544
-18.5492 9.66919 -5.74314 0.622662 -0.780902 -0.0495897
-19.0813 9.20892 -4.75305 0.606534 -0.794228 -0.0363099
-19.6587 8.71598 -3.59663 0.588611 -0.806787 -0.0513002
-20.3027 8.17466 -2.25561 0.584599 -0.810352 -0.0395548
-21.1431 7.53487 -1.10195 0.567542 -0.822635 -0.0337634
-21.9153 6.97806 -0.289878 0.559534 -0.828153 -0.0329225
-22.516 6.54807 0.972087 0.542469 -0.839697 -0.0252269
-22.7967 6.3292 2.21571 0.540424 -0.840971 -0.026633
-23.4947 5.85281 3.53503 0.533781 -0.845364 -0.0207947
-24.3105 5.31929 4.56231 0.524261 -0.851319 -0.0201631
-25.2627 4.72412 5.22161 0.516921 -0.855863 -0.0170582
-26.2598 4.11699 5.5492 0.512492 -0.858493 -0.0184529
-27.3104 3.49556 5.47181 0.505334 -0.862721 -0.0185341
-28.3623 2.89023 5.39507 0.494356 -0.869062 -0.0185322
-29.6392 2.17318 5.07317 0.491814 -0.870525 -0.0174862
-30.8362 1.51049 4.54877 0.489399 -0.871863 -0.0185544
-31.9333 0.911397 3.89616 0.486849 -0.873267 -0.0195558
-32.16 0.759368 5.02996 0.488278 -0.87249 -0.0186113
-32.0903 0.766353 6.44639 0.488604 -0.872266 -0.0204298
-31.8765 0.857488 7.76676 0.490654 -0.871188 -0.0170481
-31.8149 0.869052 9.12991 0.489469 -0.871925 -0.0128957
-31.7849 0.868306 10.3656 0.485957 -0.873913 -0.0109403
-31.7794 0.853836 11.5968 0.484961 -0.874443 -0.0127219
-31.7963 0.82285 13.0798 0.484028 -0.874963 -0.0125468
-31.7117 0.8481 14.607 0.486231 -0.873747 -0.0120657
-31.8025 0.778552 15.8696 0.490012 -0.871601 -0.0141515
-31.5126 0.9284 17.1525 0.487607 -0.873022 -0.00806197
-30.2695 1.61814 17.9382 0.491578 -0.870755 -0.0116724
-29.2154 2.21348 18.1588 0.495264 -0.868687 -0.00983553
-27.9032 2.96861 18.4195 0.501606 -0.865031 -0.0105767
-26.7359 3.6533 18.6208 0.509834 -0.86024 -0.00754416
-25.6526 4.29827 18.7978 0.515084 -0.857133 -0.00354838
-24.5935 4.94029 19.0748 0.5222 -0.852822 0.00119311
-23.4763 5.63777 19.2548 0.531768 -0.846888 0.00116842
-22.458 6.2874 19.39 0.543243 -0.839559 -0.00276087
-21.3248 7.01654 19.4583 0.540934 -0.841036 -0.00706878
-20.218 7.7554 19.4598 0.56796 -0.822968 -0.0120401
-19.226 8.44431 19.493 0.575518 -0.817541 -0.0201173
-18.0938 9.2745 19.5273 0.596862 -0.802214 -0.0137952
-17.0995 10.0265 19.5643 0.611471 -0.791051 -0.0150223
-15.9193 10.9675 19.5196 0.630499 -0.776071 -0.0094722
-14.7994 11.917 19.5729 0.648996 -0.760743 -0.00584056
-13.8535 12.7545 19.5793 0.680245 -0.732984 -0.000426106
-12.8736 13.7047 19.5438 0.709755 -0.704394 0.00705012
-11.8275 14.795 19.4855 0.737764 -0.675055 0.000260722
-10.8117 15.954 19.4251 0.763363 -0.64597 -0.000675549
-9.94526 17.0237 19.3508 0.789903 -0.613138 -0.00200975
-9.19693 18.0067 19.2835 0.806759 -0.590722 0.0131264
-8.65848 18.7353 18.721 0.814187 -0.580378 0.0161338
-8.46251 18.9636 17.1997 0.815098 -0.579045 0.0179366
-8.29721 19.1494 15.8413 0.799457 -0.600603 0.0120203
-8.56391 18.7743 14.7415 0.80195 -0.597371 0.00497284
-8.61051 18.7045 13.3761 0.802922 -0.596083 0.00141296
-8.66015 18.6655 12.1326 0.813633 -0.580547 -0.0266135
-8.69737 18.6662 10.8872 0.81613 -0.577686 -0.0145328
-8.52268 18.8891 9.71466 0.833282 -0.552166 0.0274592
-7.84811 19.651 8.94821 0.766123 -0.625165 0.149078
-7.07158 20.5737 8.98082 0.731578 -0.664496 0.15244
-6.31651 21.4759 9.54503 0.695036 -0.699287 0.167075
-5.46844 22.405 10.2029 0.653538 -0.742493 0.144378
-4.66917 23.2377 11.1304 0.600646 -0.771726 0.207648
-4.2082 23.7073 12.3162 0.523962 -0.850033 0.0539155
-4.04686 23.8405 13.7217 0.527075 -0.849768 -0.00889539
-3.95858 23.8529 14.9042 0.514246 -0.85596 -0.0537044
-3.51151 24.0228 15.9911 0.513154 -0.854342 -0.0822984
-2.44291 24.5854 16.5192 0.4779 -0.874008 -0.0878712
-1.25725 25.1313 16.7858 0.348682 -0.936301 -0.0419689
0.14935 25.5693 16.8787 0.25958 -0.965388 -0.0239219
1.51222 25.7955 16.7811 0.0695564 -0.996859 -0.0378725
2.77164 25.8183 16.7928 -0.0317766 -0.999434 -0.009563
3.99821 25.7182 16.8999 -0.109062 -0.992556 0.0542033
5.06548 25.4954 17.4673 -0.283279 -0.955845 0.0781886
5.62238 25.3407 18.669 -0.354567 -0.934311 -0.0313895
6.36207 25.0146 19.3138 -0.411365 -0.911452 0.00582113
7.41713 24.3769 19.3249 -0.625285 -0.780381 -0.00487142
7.92856 23.9558 18.3882 -0.645098 -0.763734 0.0236331
8.37043 23.446 17.2771 -0.689873 -0.715313 0.11137
9.09461 22.5883 16.802 -0.744148 -0.653393 0.139002
10.0957 21.3717 16.6609 -0.779825 -0.618962 0.0935928
10.8335 20.399 16.6987 -0.808886 -0.580224 0.095098
11.5093 19.5499 17.3046 -0.814591 -0.573286 0.0880381
12.0319 18.8924 18.1261 -0.825454 -0.562492 0.0472061
12.4296 18.3609 19.3932 -0.822213 -0.568872 0.0151046
13.1245 17.3903 19.4139 -0.798364 -0.601956 0.0135592
13.9897 16.2625 19.5474 -0.789737 -0.613348 0.00576127
14.9591 15.0652 19.5691 -0.761147 -0.648501 0.01012
15.758 14.1696 19.5258 -0.731577 -0.681746 0.00411017
16.7942 13.1011 19.6181 -0.703639 -0.710495 -0.00947625
17.6635 12.2513 19.632 -0.685344 -0.728079 -0.0089559
18.5605 11.4255 19.7325 -0.670916 -0.741521 -0.00353664
19.5505 10.5644 19.7072 -0.63114 -0.775667 0.00177389
20.7183 9.61986 19.6909 -0.620652 -0.784013 -0.00772148
22.0118 8.6278 19.6221 -0.599031 -0.800714 0.00438154
23.063 7.85328 19.6774 -0.586625 -0.809816 -0.00829675
24.0769 7.13194 19.6103 -0.571437 -0.820598 -0.00885681
25.3231 6.28084 19.4856 -0.558842 -0.829212 -0.0101307
26.3326 5.61119 19.4953 -0.549796 -0.835235 -0.01036
27.3762 4.93045 19.4634 -0.536143 -0.843895 -0.0189607
28.5178 4.21813 19.3186 -0.524938 -0.851025 -0.0135349
29.6157 3.55058 19.1805 -0.512578 -0.858551 -0.0124503
30.7112 2.90212 18.9764 -0.50968 -0.860258 -0.013252
32.0212 2.14528 18.849 -0.498515 -0.866849 -0.00742772
33.1076 1.53175 18.491 -0.48827 -0.872658 -0.00777586
34.1365 0.960786 17.6683 -0.485987 -0.87395 -0.00160592
34.4902 0.762421 16.3251 -0.488086 -0.872761 0.00414153
34.1101 0.976707 15.1359 -0.494988 -0.868894 -0.00095854
33.8294 1.14256 13.846 -0.497297 -0.867563 -0.00555289
33.4205 1.38256 12.564 -0.494794 -0.869009 -0.00116424
32.9246 1.66847 11.1699 -0.495256 -0.868745 -0.00128992
32.5104 1.90527 10.0481 -0.50124 -0.86529 0.00504963
31.8458 2.28538 8.96883 -0.505032 -0.863077 0.00568845
30.8919 2.8413 8.25323 -0.512271 -0.858771 0.00900607
29.9527 3.40063 7.59739 -0.517458 -0.85569 0.00564554
28.7493 4.13686 7.03319 -0.524994 -0.851064 0.00820696
27.5317 4.89384 6.58809 -0.532963 -0.846101 0.00797151
26.5648 5.51037 6.28043 -0.54519 -0.838231 0.0116869
25.3713 6.29644 5.93334 -0.552649 -0.833327 0.0115098
24.2522 7.04833 5.46874 -0.570375 -0.821314 0.0107159
23.1324 7.82885 5.00551 -0.577283 -0.816506 0.00761317
21.9264 8.71331 4.7914 -0.598305 -0.801215 0.00925956
20.8722 9.51845 4.40146 -0.610459 -0.792043 -0.00263949
20.005 10.2105 3.84947 -0.624618 -0.780927 0.0022016
19.2484 10.832 2.81763 -0.638504 -0.769562 0.0093575
18.8531 11.1727 1.70675 -0.658947 -0.75217 -0.00536518
18.3626 11.6209 0.401121 -0.672315 -0.740226 -0.00203907
17.9457 12.0075 -0.814516 -0.68154 -0.73176 -0.00529175
17.6091 12.3297 -1.95826 -0.700367 -0.713781 -0.00163458
17.4364 12.4856 -3.24893 -0.707089 -0.707079 0.00808213
17.2353 12.6538 -4.5847 -0.70608 -0.707824 0.0171727
17.0279 12.824 -5.88341 -0.71286 -0.70053 0.0330079
16.9745 12.7756 -7.52066 -0.712596 -0.699757 0.0504632
17.0513 12.5849 -8.86568 -0.691369 -0.719431 0.0653973
17.1681 12.3458 -10.0714 -0.694588 -0.715561 0.0743011
17.6565 11.7653 -11.3199 -0.670987 -0.73867 0.064373
18.3675 11.0245 -12.5633 -0.654312 -0.753407 0.0649184
19.1605 10.3071 -13.0587 -0.641728 -0.764427 0.0619372
20.0414 9.55275 -13.5953 -0.617595 -0.784899 0.0500618
21.2352 8.61298 -13.7449 -0.609615 -0.791105 0.049988
22.3614 7.78795 -13.5101 -0.589624 -0.806664 0.0404535
23.474 7.01552 -13.0856 -0.575572 -0.816763 0.0401888
24.5558 6.29929 -12.4316 -0.566689 -0.82297 0.0398099
25.427 5.74209 -11.6006 -0.560733 -0.82741 0.0311496
26.2127 5.25399 -10.578 -0.555286 -0.830819 0.0373838
26.8994 4.85305 -9.47627 -0.545803 -0.837041 0.0382273
27.7429 4.35495 -8.38893 -0.538314 -0.841882 0.0381173
28.6899 3.80013 -7.39323 -0.532164 -0.845833 0.0367371
29.6047 3.2649 -6.4728 -0.527497 -0.84878 0.0363192
30.4365 2.78777 -5.70566 -0.516897 -0.855428 0.0325616
31.4168 2.20834 -5.49448 -0.509808 -0.859379 0.0391822
31.2285 2.26838 -6.67676 -0.515736 -0.856001 0.0357471
31.0692 2.2876 -8.36083 -0.510533 -0.858979 0.0388841
31.2116 2.13615 -9.90415 -0.507325 -0.860954 0.0371213
31.5248 1.89972 -11.1354 -0.510332 -0.859493 0.0287661
32.0534 1.54612 -12.4438 -0.508868 -0.860323 0.0297339
32.6144 1.17841 -13.7492 -0.493624 -0.869133 0.0298451
33.0754 0.861938 -15.3398 -0.49207 -0.869982 0.0311956
33.0149 0.854032 -16.5892 -0.496363 -0.867778 0.0242059
32.0695 1.37542 -17.6162 -0.503961 -0.863619 0.0131474
30.9037 2.05983 -17.9798 -0.514678 -0.857217 0.0168711
29.6935 2.78356 -18.1931 -0.519512 -0.854267 0.0176635
28.4607 3.54073 -18.3157 -0.529434 -0.848176 0.0171378
27.3778 4.21894 -18.3713 -0.534967 -0.844689 0.0173977
26.3457 4.87874 -18.2777 -0.5342 -0.845106 0.0201148
25.3488 5.52697 -18.3436 -0.546273 -0.837367 0.0200416
24.3367 6.20674 -18.3608 -0.557909 -0.829544 0.0243792
23.3296 6.89032 -18.4249 -0.564908 -0.824509 0.0326037
22.2195 7.66324 -18.3877 -0.575775 -0.816599 0.0406105
21.1729 8.40214 -18.4691 -0.580748 -0.812988 0.0422251
20.1603 9.13708 -18.5885 -0.594781 -0.803256 0.031849
19.0628 9.96407 -18.7587 -0.60762 -0.792943 0.0451582
18.0857 10.7291 -18.8656 -0.625559 -0.778555 0.0501991
17.1083 11.5276 -18.9052 -0.640661 -0.765749 0.0557985
16.1223 12.3661 -18.9012 -0.644961 -0.761804 0.0606584
15.0963 13.2424 -19.0444 -0.658043 -0.749767 0.0692935
14.0519 14.2353 -19.0324 -0.686572 -0.72326 0.0741244
13.1012 15.1392 -19.2814 -0.697718 -0.713049 0.0689254
12.093 16.1287 -19.3872 -0.722672 -0.686302 0.0804421
11.1013 17.2065 -19.3422 -0.735382 -0.674176 0.0682361
10.1925 18.209 -19.5081 -0.749021 -0.661628 0.0348286
9.60782 18.9088 -18.8928 -0.746932 -0.663179 0.0476559
9.39889 19.257 -17.7928 -0.732389 -0.675051 0.0887858
8.68172 20.1711 -17.0858 -0.7465 -0.657016 0.105203
7.78853 21.1665 -16.9566 -0.716106 -0.695061 0.0565931
6.85162 22.1228 -16.8953 -0.642455 -0.762807 0.0652118
5.57682 23.0551 -16.9642 -0.507945 -0.859111 0.0055182
4.3403 23.7083 -16.9265 -0.401515 -0.913192 0.0697585
3.0521 24.2286 -16.8903 -0.347775 -0.932656 0.0959452
1.87667 24.6431 -16.9942 -0.293279 -0.954056 0.0613575
0.743233 24.9572 -16.8743 -0.200748 -0.977936 -0.0245452
-0.638333 25.0613 -16.9067 0.0105707 -0.998356 -0.0563318
-1.86036 25.0034 -16.9228 0.100196 -0.992649 -0.0678942
-3.05978 24.8072 -16.9578 0.258914 -0.951323 -0.166681
-3.3109 24.8945 -17.9032 0.153119 -0.981188 -0.11709
-4.45228 24.5718 -18.0915 0.371045 -0.914213 -0.16291
-5.08634 24.4078 -18.994 0.442598 -0.896449 -0.0154995
-5.58746 24.1797 -20.1357 0.477239 -0.878197 0.00857013
-6.64696 23.6333 -20.5113 0.468696 -0.883257 -0.013446
-7.32336 23.2604 -19.822 0.472647 -0.881108 -0.0158944
-7.35779 23.1807 -18.5437 0.484435 -0.869045 -0.100417
-8.12285 22.5142 -18.0014 0.666387 -0.705012 -0.238468
-8.97748 21.5833 -17.9151 0.742064 -0.643831 -0.186387
-9.77094 20.6524 -17.98 0.771191 -0.61461 -0.165888
-10.4826 19.7207 -18.265 0.85263 -0.508625 -0.113476
-10.6293 19.5647 -19.6014 0.860632 -0.509072 -0.0125535
-10.9679 19.0507 -20.5024 0.843136 -0.537687 -0.00363101
-11.639 18.01 -20.5239 0.833059 -0.552991 -0.011502
-12.3988 16.9011 -20.5348 0.819374 -0.573252 -0.00299106
-13.1887 15.8111 -20.5249 0.803461 -0.595347 -0.00351888
-14.1991 14.5196 -20.5364 0.775891 -0.630211 0.0205899
-15.3766 13.1864 -20.3252 0.741672 -0.670606 -0.00769827
-16.285 12.2223 -20.1855 0.714631 -0.699235 -0.0106488
-17.1956 11.3331 -19.9923 0.67767 -0.735358 0.00348005
-18.0907 10.5293 -19.9621 0.654677 -0.755841 0.000958747
-19.1591 9.63814 -19.8601 0.637384 -0.770534 0.00432027
-20.2153 8.80126 -19.6964 0.613113 -0.789927 0.00372617
-21.226 8.03291 -19.5722 0.599748 -0.800127 -0.00580089
-22.1638 7.34045 -19.4035 0.582786 -0.812533 -0.00418335
-23.1686 6.63384 -19.3221 0.572245 -0.820074 -0.000106155
-24.1179 5.9789 -19.0004 0.560344 -0.828219 0.00169474
-24.8817 5.46873 -18.275 0.555634 -0.831413 -0.00476078
-24.7098 5.57962 -17.2761 0.553651 -0.832748 -0.000929312
-23.6742 6.26814 -16.7407 0.563059 -0.826378 -0.00805377
-22.4619 7.09306 -16.2213 0.573798 -0.818866 -0.0138832
-21.2092 7.98376 -15.8001 0.586856 -0.809588 -0.0128462
-20.2974 8.66749 -15.3492 0.604394 -0.796362 -0.0226915
-19.3875 9.36762 -14.5772 0.625956 -0.7796 -0.0200667
-18.3546 10.1982 -13.4537 0.640879 -0.767412 -0.0186813
-17.7529 10.6814 -12.3014 0.658917 -0.75172 -0.0272939
-17.479 10.8319 -10.6392 0.661923 -0.74814 -0.0462996
-17.442 10.8109 -9.45607 0.646877 -0.761878 -0.0330391
-17.8609 10.3917 -8.43662 0.633907 -0.772413 -0.0392435
-18.3622 9.92045 -7.43723 0.622106 -0.78177 -0.0425623
-19.0444 9.33119 -6.61633 0.621157 -0.78242 -0.0445341
-19.6198 8.84458 -5.70564 0.598519 -0.800486 -0.0315832
-20.2511 8.31976 -4.38179 0.593105 -0.80443 -0.0334436
-20.8396 7.84337 -3.17898 0.57381 -0.81791 -0.0420311
-21.4152 7.39589 -2.22741 0.564507 -0.824645 -0.0359453
-22.2389 6.79931 -1.32292 0.547273 -0.836443 -0.029241
-22.9987 6.27472 -0.368663 0.537266 -0.842859 -0.0305639
-23.378 6.00095 0.784666 0.53332 -0.845651 -0.0210795
-23.7706 5.71007 2.17315 0.533945 -0.845297 -0.0193736
-24.4501 5.26121 3.41418 0.524999 -0.850813 -0.0221482
-25.3065 4.72086 4.06365 0.518166 -0.855043 -0.0199032
-26.2982 4.1176 4.52513 0.510255 -0.859818 -0.0188116
-27.5091 3.40296 4.47591 0.50529 -0.862677 -0.0215456
-28.8626 2.63029 4.23796 0.494131 -0.869198 -0.0181398
-30.0419 1.97229 3.82202 0.490064 -0.871508 -0.0175742
-31.0151 1.43718 3.29214 0.486628 -0.873436 -0.0173994
-32.0118 0.896856 2.69797 0.485671 -0.873851 -0.022553
-33.1115 0.287311 2.91076 0.477374 -0.877816 -0.0384985
-33.0829 0.251385 4.42685 0.507477 -0.861515 -0.0160567
-33.0227 0.272184 5.60918 0.458698 -0.888433 -0.0168054
-33.0393 0.228246 6.82903 0.48561 -0.873756 -0.0270788
-32.7747 0.346741 7.95962 0.491913 -0.870487 -0.0165456
-32.7098 0.364678 9.36995 0.487942 -0.872825 -0.00943889
-32.647 0.383539 10.8595 0.481743 -0.876259 -0.00973186
-32.6548 0.355358 12.5117 0.483375 -0.875308 -0.0134387
-32.6042 0.367329 13.6936 0.48528 -0.874317 -0.00858725
-32.6368 0.325794 15.1079 0.483012 -0.875385 -0.0200196
-32.6562 0.289887 16.2849 0.498894 -0.866542 -0.0143979
-32.4942 0.378594 17.5002 0.493118 -0.869948 -0.00182744
-31.8149 0.752543 18.4294 0.483667 -0.875243 -0.00393754
-30.7131 1.36023 18.9503 0.486987 -0.873383 -0.00653677
-29.3987 2.09873 19.2356 0.492948 -0.870001 -0.00950175
-28.169 2.79958 19.4716 0.503697 -0.863796 -0.0116152
-26.6967 3.66629 19.6813 0.509847 -0.860218 -0.00902522
-25.4838 4.3919 19.9258 0.519812 -0.854247 -0.00436372
-24.338 5.09823 20.1301 0.523612 -0.851954 -0.000330213
-23.1545 5.83935 20.2912 0.534638 -0.845068 -0.00108643
-22.0229 6.55928 20.4341 0.539318 -0.84208 -0.00513463
-20.9922 7.22518 20.4951 0.542996 -0.839734 -0.00144986
-19.9017 7.96161 20.52 0.564319 -0.825557 0.000138243
-18.8499 8.69954 20.57 0.580326 -0.814383 -0.00136456
-17.5775 9.64037 20.5889 0.599833 -0.799932 -0.0175396
-16.4653 10.5126 20.5649 0.618427 -0.785629 -0.018292
-15.3325 11.4458 20.5606 0.637162 -0.770568 -0.0157951
-14.3171 12.3353 20.5741 0.658391 -0.752673 -0.00148624
-13.4302 13.1577 20.6098 0.701378 -0.71277 0.0052273
-12.3146 14.2739 20.6033 0.718835 -0.695179 0.00105889
-11.5104 15.135 20.5129 0.739877 -0.672668 -0.0099787
-10.6514 16.1459 20.5212 0.770551 -0.637377 -0.000781502
-9.81598 17.1895 20.4745 0.788336 -0.615241 0.00223452
-9.07904 18.1734 20.4454 0.807409 -0.589992 0.00105645
-8.2856 19.2719 20.3163 0.812511 -0.582943 -0.00199872
-8.09886 19.5285 19.0305 0.817735 -0.575577 0.00428055
-8.01995 19.6048 17.7207 0.817959 -0.574615 0.0275055
-7.6491 20.0551 16.5496 0.80257 -0.595895 0.0279369
-7.49318 20.2247 15.5263 0.800713 -0.598799 0.0172862
-7.94641 19.5957 14.6259 0.79733 -0.603538 0.00275506
-8.00729 19.5379 13.3419 0.821071 -0.570533 -0.0182969
-8.05666 19.5364 12.0699 0.826801 -0.56093 -0.0410557
-8.12771 19.5249 10.7409 0.846895 -0.529695 -0.0468134
-7.81065 19.9482 9.80678 0.761312 -0.615138 0.204959
-7.10913 20.8101 10.1384 0.72002 -0.675323 0.159719
-6.45471 21.6593 10.8144 0.679194 -0.706918 0.197176
-5.78304 22.4369 11.4048 0.627623 -0.743828 0.229712
-5.17123 23.128 12.1774 0.453065 -0.875843 0.162553
-4.97124 23.2815 13.3926 0.503247 -0.863916 -0.00528514
-4.84785 23.2989 14.7467 0.548641 -0.834175 -0.0559002
-4.62056 23.3416 16.0677 0.529082 -0.844687 -0.0810997
-3.96159 23.6516 16.8868 0.509252 -0.853899 -0.107328
-2.78535 24.2827 17.3652 0.513631 -0.848238 -0.129133
-1.79153 24.8454 17.7768 0.488165 -0.87131 -0.050136
-0.726142 25.376 17.8705 0.314741 -0.944177 0.0483929
0.499043 25.6295 17.9056 0.186532 -0.981644 -0.0361635
1.83762 25.7798 17.9255 0.0791879 -0.996422 -0.0295372
3.01291 25.8166 17.838 0.00193905 -0.999708 0.0240889
4.18955 25.7723 18.0188 -0.191778 -0.9738 0.122208
4.52582 25.6995 19.1004 -0.30017 -0.952794 -0.00910332
4.90019 25.5696 20.4101 -0.324938 -0.945708 -0.00714815
6.12982 25.1325 20.4199 -0.37035 -0.927957 -0.000384836
7.20819 24.5377 20.434 -0.570159 -0.821428 0.0132634
8.33715 23.6476 20.3835 -0.65506 -0.755107 0.0266346
8.62789 23.3676 19.2847 -0.659435 -0.751751 0.00387814
8.83979 23.1424 18.1275 -0.668828 -0.730614 0.121602
9.61646 22.1921 17.8273 -0.765481 -0.629775 0.131806
10.3897 21.1739 17.7219 -0.794285 -0.59598 0.117561
11.1174 20.2009 17.9089 -0.809082 -0.580073 0.0943456
11.6144 19.5664 18.7698 -0.835175 -0.549797 0.00900657
11.6992 19.444 19.9412 -0.826585 -0.562809 0.00108073
12.1968 18.7141 20.4677 -0.824967 -0.565152 0.00396816
12.9249 17.6738 20.55 -0.812476 -0.582978 0.00445688
13.8066 16.5034 20.5641 -0.789735 -0.613166 -0.0156302
14.5642 15.5449 20.612 -0.781947 -0.623116 -0.0163942
15.5786 14.3567 20.5578 -0.745679 -0.665882 0.00351346
16.5797 13.2999 20.6395 -0.713747 -0.700219 -0.00323032
17.4288 12.4569 20.6702 -0.692612 -0.721019 -0.0116201
18.5001 11.4716 20.7439 -0.668586 -0.743498 -0.0132336
19.6172 10.5068 20.6744 -0.633079 -0.774005 -0.0112419
20.6392 9.67769 20.6828 -0.625042 -0.780586 -0.00284672
21.5911 8.9363 20.6829 -0.601508 -0.798854 -0.00454873
22.553 8.21898 20.6577 -0.593602 -0.804752 -0.00320943
23.5513 7.49589 20.7071 -0.579107 -0.815248 -0.00234345
24.6197 6.74666 20.6157 -0.567269 -0.823497 -0.00541898
25.7165 6.00791 20.4412 -0.553896 -0.832495 -0.0123006
26.8288 5.26987 20.5549 -0.550101 -0.834964 -0.0149873
27.8941 4.58857 20.3853 -0.535185 -0.844621 -0.0138688
28.9923 3.91206 20.3244 -0.520713 -0.853647 -0.012057
30.1114 3.24 20.1247 -0.514656 -0.857346 -0.00931131
31.2661 2.56918 20.0007 -0.498082 -0.867096 -0.00774213
32.5042 1.86169 19.8461 -0.494022 -0.869431 -0.00462205
33.6282 1.23583 19.3834 -0.486006 -0.873943 -0.00465181
34.5493 0.72972 18.7787 -0.481981 -0.876172 -0.00416222
35.3122 0.315631 17.8061 -0.476183 -0.879344 -0.00190879
35.5636 0.188264 16.567 -0.452487 -0.891608 0.0170202
35.1608 0.378738 15.3714 -0.490056 -0.871523 0.0127731
34.8381 0.56203 14.1642 -0.498735 -0.866747 -0.00370608
34.4335 0.803448 12.9831 -0.49764 -0.867356 -0.00681739
34.0643 1.01903 11.6457 -0.491822 -0.870687 -0.00386423
33.6206 1.27067 10.4861 -0.49485 -0.868975 0.00219831
33.2061 1.50334 9.3472 -0.494704 -0.869052 0.00398861
32.5563 1.86745 8.31109 -0.498903 -0.866627 0.00572597
31.6915 2.36152 7.56301 -0.501381 -0.865181 0.00885038
30.7985 2.88378 6.89692 -0.514925 -0.857203 0.00706636
29.8162 3.4739 6.45348 -0.516573 -0.856192 0.00939857
28.8877 4.03907 5.98466 -0.52269 -0.852455 0.0107173
27.7967 4.71569 5.60749 -0.531259 -0.847155 0.00963831
26.7637 5.36727 5.29577 -0.542515 -0.839927 0.0134743
25.6515 6.09459 4.90776 -0.555743 -0.831273 0.0116368
24.4835 6.87802 4.43086 -0.565222 -0.824867 0.010487
23.5188 7.54265 4.04747 -0.577354 -0.81643 0.0101728
22.4389 8.31967 3.78658 -0.590451 -0.806997 0.0111281
21.4636 9.05921 3.59545 -0.611959 -0.790843 0.00650218
20.5866 9.73683 3.03873 -0.62891 -0.777426 0.00900349
19.7909 10.3714 1.9111 -0.640045 -0.768305 0.00293442
19.2872 10.7987 0.566279 -0.652832 -0.757426 -0.00248372
18.8563 11.1787 -0.569683 -0.660668 -0.750663 0.00481812
18.4307 11.5507 -1.77615 -0.677596 -0.735372 0.00953042
18.1673 11.7805 -2.99337 -0.678574 -0.7345 0.00688198
17.9785 11.9285 -4.49789 -0.695056 -0.718821 0.0111765
17.8128 12.0544 -5.67032 -0.699298 -0.714318 0.0269548
17.7474 12.0654 -6.9169 -0.694181 -0.718414 0.0426826
17.7448 11.9725 -8.18421 -0.689289 -0.722429 0.0545554
17.7812 11.8184 -9.54262 -0.672469 -0.7371 0.0668483
18.2816 11.2765 -10.5448 -0.660014 -0.748671 0.0622379
18.7486 10.7761 -11.6798 -0.650459 -0.756843 0.0638622
19.7259 9.89866 -12.3364 -0.629364 -0.774956 0.0577071
20.7346 9.07289 -12.6462 -0.615029 -0.786717 0.0530585
21.8276 8.22825 -12.649 -0.60896 -0.792259 0.0386474
22.7772 7.5561 -12.2632 -0.585403 -0.809207 0.0498151
23.7321 6.89149 -11.9187 -0.566785 -0.822974 0.038299
24.5578 6.35804 -11.1297 -0.568291 -0.822056 0.0355722
25.2938 5.88007 -10.313 -0.56359 -0.825453 0.0303215
25.991 5.45913 -9.28263 -0.552265 -0.832774 0.0386103
26.7448 5.01429 -8.15928 -0.547743 -0.835781 0.03805
27.5074 4.56316 -7.15895 -0.543444 -0.838923 0.0296028
28.3585 4.04768 -6.38633 -0.532927 -0.845517 0.0330228
29.4469 3.41161 -5.23582 -0.525216 -0.8503 0.0336433
30.3807 2.87354 -4.34223 -0.517574 -0.854988 0.0329906
31.4608 2.2608 -3.48123 -0.508867 -0.86022 0.0328123
32.5142 1.66789 -2.71695 -0.502574 -0.864029 0.0291753
33.4621 1.13964 -2.17199 -0.494808 -0.868527 0.0283587
33.8168 0.920251 -2.76148 -0.490696 -0.870854 0.0288175
33.1756 1.25235 -3.72908 -0.500111 -0.865337 0.0328616
32.5722 1.55796 -4.83104 -0.499144 -0.865844 0.0341858
32.2049 1.72353 -5.92601 -0.501503 -0.864343 0.0374982
31.9266 1.8207 -7.50538 -0.505355 -0.862189 0.0352945
31.958 1.7391 -8.91987 -0.50492 -0.86227 0.0393288
32.1465 1.57884 -10.1318 -0.502617 -0.863762 0.0358776
32.5223 1.30956 -11.334 -0.501879 -0.864323 0.0323664
33.138 0.923824 -12.5443 -0.495328 -0.868275 0.0268389
33.6307 0.600575 -14.0642 -0.488034 -0.872397 0.0272703
33.9883 0.347864 -15.3434 -0.479181 -0.87684 0.0392003
34.0208 0.274363 -16.6726 -0.497408 -0.866971 0.0307516
33.3048 0.654069 -17.9549 -0.500914 -0.86536 0.0153923
32.3396 1.20291 -18.5479 -0.502921 -0.86417 0.0166639
31.11 1.9175 -19.0051 -0.514252 -0.857502 0.0153077
29.9703 2.59835 -19.2055 -0.515826 -0.856503 0.0180643
28.8071 3.30615 -19.2913 -0.528072 -0.848983 0.0191947
27.6886 4.00319 -19.3874 -0.533171 -0.845763 0.0203571
26.5897 4.69902 -19.3647 -0.536721 -0.84355 0.0188072
25.4527 5.43515 -19.3214 -0.546864 -0.836952 0.0212503
24.1376 6.31031 -19.387 -0.557825 -0.829593 0.0246287
23.0838 7.01096 -19.5439 -0.560245 -0.827738 0.0301979
22.0139 7.75486 -19.479 -0.576013 -0.816512 0.0389457
20.6835 8.6974 -19.6135 -0.582501 -0.811871 0.03946
19.6841 9.44253 -19.6763 -0.598671 -0.800128 0.0372586
18.5554 10.2976 -19.8224 -0.610353 -0.790835 0.0452743
17.346 11.2608 -19.9454 -0.630305 -0.774328 0.0559592
16.4154 12.0308 -19.9928 -0.643884 -0.762924 0.0578646
15.4609 12.8327 -20.0514 -0.642826 -0.763166 0.0659683
14.4807 13.7029 -20.1444 -0.685979 -0.724584 0.0646926
13.5374 14.6115 -20.272 -0.700832 -0.709419 0.0745664
12.6526 15.4869 -20.3918 -0.711323 -0.700931 0.0516409
11.7406 16.426 -20.3996 -0.735174 -0.676181 0.0476058
10.6307 17.6543 -20.5366 -0.750786 -0.659085 0.0438876
9.66283 18.7684 -20.5645 -0.756696 -0.653136 0.0287227
9.02272 19.5328 -19.9286 -0.759178 -0.650661 0.0145748
8.95052 19.6699 -18.5692 -0.735424 -0.676655 0.0200857
8.26519 20.5412 -17.93 -0.769029 -0.633091 0.087954
7.48287 21.441 -17.9704 -0.75 -0.660837 -0.00384182
6.63683 22.3264 -17.9289 -0.679896 -0.732264 -0.0201585
5.70371 23.065 -18.0794 -0.42066 -0.903106 -0.0862804
4.54347 23.5708 -17.9956 -0.359015 -0.932952 0.0248702
3.42598 23.9874 -17.8994 -0.284998 -0.950144 0.103498
2.22582 24.4396 -17.9176 -0.367255 -0.926285 0.0843796
1.09779 24.8716 -17.9392 -0.308996 -0.950001 -0.019121
-0.0697429 25.1469 -17.9278 -0.104256 -0.983501 -0.133995
-1.27731 25.1435 -17.8968 0.0493377 -0.991364 -0.121505
-2.46153 25.0311 -17.9699 0.123668 -0.985377 -0.117211
-3.12564 24.9289 -17.932 0.163737 -0.979528 -0.117114
-29.2051 2.24179 16.2172 0.497023 -0.867684 -0.00966002
-30.36 1.60245 14.6507 0.489126 -0.872133 -0.0117817
-30.4068 1.61562 11.7852 0.490083 -0.87156 -0.014194
-28.9247 2.43134 13.7808 0.498179 -0.867015 -0.0101167
-27.6702 3.13287 15.5069 0.500712 -0.865544 -0.0110205
-26.5709 3.76153 17.0169 0.507719 -0.861506 -0.00537302
-24.2775 5.13901 17.4288 0.525307 -0.85091 -0.00214959
-25.5677 4.36846 15.5846 0.512567 -0.858602 -0.00877972
-27.0321 3.53083 13.5513 0.503055 -0.864165 -0.0124108
-28.3007 2.81769 11.8146 0.501383 -0.865103 -0.0145672
-29.6863 2.05421 9.93827 0.495096 -0.868701 -0.0154229
-30.3534 1.69186 9.04649 0.490043 -0.87157 -0.0149735
-29.977 1.94897 6.74235 0.491402 -0.870757 -0.0174972
-28.6819 2.65269 8.46606 0.495135 -0.868683 -0.01519
-27.2299 3.46098 10.4385 0.504539 -0.863324 -0.0106341
-25.9262 4.1968 12.2368 0.512932 -0.858337 -0.0125748
-24.6596 4.93695 14.0139 0.519874 -0.854186 -0.00983905
-23.3896 5.70608 15.8429 0.534608 -0.845064 -0.00777333
-22.1645 6.48295 17.6523 0.545085 -0.838333 -0.00893811
-22.1112 6.51708 17.732 0.547851 -0.836556 -0.00576921
-20.0986 7.86235 17.8893 0.562663 -0.826684 -0.00204132
-21.3499 7.02881 15.9796 0.549774 -0.835294 -0.00571947
-22.5853 6.23323 14.1351 0.545967 -0.837709 -0.012785
-23.9725 5.38257 12.1365 0.525101 -0.851004 -0.00779407
-25.2462 4.63325 10.329 0.516198 -0.856344 -0.0146441
-26.5966 3.86221 8.46555 0.510096 -0.859976 -0.0155927
-27.6108 3.28937 7.08358 0.498699 -0.86666 -0.0141411
-25.5552 4.50863 7.05022 0.513912 -0.857676 -0.0169036
-24.2334 5.2739 8.8878 0.525368 -0.850657 -0.0192817
-23.0182 6.00402 10.6239 0.539213 -0.842043 -0.0145929
-21.7817 6.78508 12.4341 0.552434 -0.833448 -0.0134619
-20.4638 7.64116 14.4257 0.561221 -0.827607 -0.009866
-19.2182 8.48861 16.3477 0.578225 -0.815829 -0.00881992
-18.2775 9.15716 17.8427 0.596103 -0.802885 -0.00604945
-16.5478 10.4768 17.7664 0.617011 -0.786923 -0.00702845
-17.7389 9.56126 15.7621 0.594547 -0.804031 -0.00689854
-19.0297 8.641 13.7211 0.577554 -0.816312 -0.00811401
-20.2295 7.83738 11.8579 0.56488 -0.825066 -0.0132582
-21.4175 7.05814 10.0777 0.553538 -0.832708 -0.0138561
-22.8336 6.16994 8.0056 0.54415 -0.838813 -0.0171119
-24.0519 5.43823 6.27489 0.525257 -0.850691 -0.020737
-22.7202 6.30614 5.27835 0.539763 -0.841507 -0.0228443
-21.5133 7.05308 7.0267 0.548678 -0.835853 -0.0174033
-20.0802 7.97657 9.16177 0.565452 -0.824715 -0.0104345
-18.6717 8.93461 11.3482 0.58228 -0.812946 -0.00828784
-17.3453 9.86141 13.4433 0.590868 -0.806715 -0.00920098
-16.2358 10.719 15.2794 0.619961 -0.784631 0.00155157
-15.0941 11.6632 17.3144 0.645692 -0.763539 0.00951364
-14.7631 11.9484 17.924 0.644588 -0.764523 0.00322144
-13.3162 13.2679 17.607 0.6985 -0.715594 -0.00479859
-14.286 12.3755 15.7342 0.663015 -0.748515 0.0116492
-15.3994 11.3986 13.7032 0.650329 -0.759625 0.00656251
-16.4757 10.5471 11.8876 0.611927 -0.790878 -0.00752529
-17.6545 9.69233 9.98106 0.599137 -0.800568 -0.0112094
-18.7958 8.88387 8.19012 0.577999 -0.815907 -0.0146061
-19.9466 8.11191 6.43533 0.562065 -0.826912 -0.0173147
-21.2706 7.27384 4.47681 0.554037 -0.832356 -0.0150383
-21.816 6.92692 3.66905 0.551677 -0.833842 -0.0189867
-21.2346 7.37473 1.61387 0.566981 -0.823354 -0.0249043
-20.0216 8.1545 3.4202 0.571939 -0.819985 -0.0225985
-18.6859 9.02805 5.4426 0.589959 -0.806918 -0.0288413
-17.4724 9.86357 7.31675 0.599412 -0.800198 -0.0197241
-16.2333 10.7764 9.30323 0.620354 -0.78432 -0.001836
-15.1046 11.6577 11.1998 0.636535 -0.771108 -0.0146882
-14.0074 12.5975 13.1484 0.656009 -0.754748 -0.00273484
-13.0061 13.5491 15.0882 0.707067 -0.706983 0.015238
-12.1407 14.4606 16.9217 0.723114 -0.690714 0.00442896
-11.8096 14.8064 17.639 0.741712 -0.670682 0.00702788
-10.4804 16.3452 17.5197 0.773476 -0.633819 0.00281283
-11.3028 15.3455 15.5381 0.759244 -0.650745 -0.00894336
-12.1852 14.3775 13.6179 0.727903 -0.685673 0.00309438
-13.1532 13.4008 11.68 0.69263 -0.721251 -0.00776583
-14.3446 12.3217 9.50306 0.652571 -0.757634 -0.0118899
-15.4978 11.3993 7.55822 0.626743 -0.778729 -0.0278273
-16.6396 10.5531 5.71603 0.606229 -0.794926 -0.0240704
-17.7662 9.75961 3.94572 0.597877 -0.801034 -0.0297939
-19.0039 8.93422 2.05362 0.59017 -0.806487 -0.0357525
-20.2715 8.09871 0.136249 0.578318 -0.815194 -0.0317322
-19.2105 8.92226 -1.1793 0.594756 -0.803234 -0.0328735
-17.9688 9.75769 0.726063 0.603224 -0.796523 -0.040894
-16.6187 10.6919 2.84219 0.611795 -0.790157 -0.0368561
-15.4278 11.5458 4.74144 0.628652 -0.777214 -0.0270934
-14.2645 12.461 6.6755 0.660595 -0.750186 -0.0289044
-13.2028 13.3524 8.51422 0.69823 -0.71584 -0.0069113
-12.2047 14.3255 10.4191 0.729446 -0.683974 0.00941878
-11.2617 15.3746 12.4202 0.762935 -0.646466 0.00331647
-10.3953 16.4113 14.416 0.761317 -0.648377 -0.00171644
-9.62275 17.3991 16.3466 0.782743 -0.622142 0.0158866
-9.41465 17.6702 16.8815 0.787694 -0.616014 0.00806551
-9.54896 17.4585 13.2166 0.783349 -0.621426 -0.0139496
-10.3322 16.4969 11.3411 0.787206 -0.616678 -0.00386063
-11.2502 15.3855 9.30454 0.754186 -0.656586 -0.00993124
-12.1404 14.4272 7.50054 0.713253 -0.700795 -0.0124961
-13.2247 13.4411 5.55334 0.682044 -0.731029 -0.0203044
-14.4249 12.4533 3.50538 0.648907 -0.759356 -0.0479401
-15.7127 11.5037 1.40964 0.643306 -0.763891 -0.051266
-16.8793 10.6624 -0.462255 0.62525 -0.77895 -0.0479636
-18.1245 9.8029 -2.42813 0.610719 -0.790535 -0.0455675
-18.4295 9.59574 -2.90321 0.612531 -0.78881 -0.0508403
-17.601 10.3586 -4.52086 0.624513 -0.779364 -0.0507413
-16.4633 11.1576 -2.67668 0.635705 -0.769518 -0.0609981
-15.3374 11.9821 -0.829132 0.653754 -0.755067 -0.0498018
-14.2338 12.8103 0.983634 0.659 -0.749681 -0.0607979
-13.1465 13.6376 2.78997 0.675919 -0.735503 -0.0465622
-12.1393 14.5245 4.5859 0.706537 -0.706931 -0.0324838
-11.1119 15.525 6.49017 0.731072 -0.682181 -0.012754
-10.1369 16.6646 8.54758 0.779546 -0.626042 0.0194805
-9.50552 17.5236 10.05 0.791626 -0.610572 0.0230217
-8.88023 18.2172 8.2132 0.782711 -0.619663 0.0581533
-9.67594 17.1413 6.40351 0.756428 -0.653909 0.0148222
-10.6657 16.0592 4.42257 0.723701 -0.689773 -0.0216575
-11.8613 14.9383 2.22995 0.70588 -0.707256 -0.0390071
-12.9319 14.053 0.361999 0.681506 -0.728633 -0.0681381
-14.0877 13.1434 -1.59876 0.671119 -0.738462 -0.0653773
-15.3314 12.1998 -3.69034 0.655361 -0.752504 -0.0651198
-16.468 11.3756 -5.58437 0.653132 -0.755172 -0.0559774
-16.5521 11.3133 -5.72527 0.653553 -0.755124 -0.0515378
-15.6251 12.2329 -7.07122 0.673619 -0.737126 -0.0536887
-14.5581 13.0532 -5.21418 0.679794 -0.729278 -0.0776789
-13.4784 13.8705 -3.37761 0.681513 -0.727837 -0.0761158
-12.3934 14.7309 -1.509 0.70085 -0.710642 -0.06163
-11.3232 15.6155 0.370116 0.705862 -0.705439 -0.0641393
-10.1625 16.647 2.45323 0.72153 -0.691497 -0.0350279
-9.08531 17.7515 4.56046 0.733565 -0.679567 0.00837851
-8.23047 18.8193 6.40818 0.752391 -0.656392 0.0552935
-7.85146 19.3659 7.31291 0.762995 -0.641444 0.0799227
-6.15637 21.2628 7.70066 0.703503 -0.701977 0.110955
-7.01891 20.0977 5.79058 0.732551 -0.677101 0.0700221
-7.93042 18.9985 3.86528 0.729595 -0.683594 0.0197322
-8.9757 17.9273 1.80526 0.722174 -0.691033 -0.0306279
-10.0172 16.9906 -0.0892151 0.715445 -0.695805 -0.0631917
-11.1664 16.0257 -2.12608 0.711879 -0.698037 -0.0772791
-12.2338 15.1753 -3.98205 0.70442 -0.70459 -0.0857045
-13.3923 14.2556 -5.98149 0.703063 -0.70708 -0.0757647
-14.4327 13.4246 -7.84621 0.700367 -0.709499 -0.0780868
-15.4058 12.6437 -9.61603 0.696678 -0.714543 -0.0637876
-13.9918 14.0785 -9.87424 0.713591 -0.697436 -0.0661129
-15.0477 13.176 -11.9045 0.715181 -0.696964 -0.0525215
-15.9946 12.3547 -13.7528 0.69374 -0.719273 -0.0370306
-17.0353 11.4416 -15.7644 0.678807 -0.73423 -0.011299
-17.7442 10.82 -17.0909 0.673422 -0.739157 -0.0122277
-16.2816 12.2015 -17.4591 0.704057 -0.71008 -0.00951418
-15.1882 13.2337 -15.2579 0.7108 -0.702621 -0.0329698
-14.1888 14.1627 -13.1997 0.729878 -0.681014 -0.0591466
-13.3275 14.9395 -11.4445 0.736106 -0.673505 -0.0673777
-12.5462 15.9771 -12.7116 0.766532 -0.636095 -0.0883859
-13.4663 15.1144 -14.6703 0.756866 -0.651142 -0.0562944
-14.3623 14.221 -16.6257 0.760019 -0.648413 -0.0439596
-14.7663 13.7979 -17.5172 0.746411 -0.664815 -0.029873
-13.5427 15.2841 -17.9346 0.777754 -0.62769 -0.0332206
-12.6173 16.2681 -15.7631 0.78755 -0.612722 -0.0658547
-11.7151 17.1397 -13.7553 0.773825 -0.626473 -0.0934121
-11.6692 17.1817 -13.6564 0.773825 -0.626473 -0.093412
-10.8247 18.4208 -14.5415 0.786075 -0.605409 -0.124767
-11.7105 17.572 -16.5609 0.805898 -0.586143 -0.0834536
-12.2173 17.0245 -17.8465 0.81125 -0.5821 -0.0550708
-1.22165 25.1967 15.2154 0.323161 -0.945598 -0.0375779
-1.91394 24.9757 14.3776 0.411294 -0.911071 -0.0280511
-2.70131 24.618 13.3658 0.425089 -0.904966 0.018312
-2.72706 24.604 13.3321 0.434292 -0.899837 0.0410418
1.11211 25.7999 15.1823 0.14672 -0.98893 -0.0221666
-0.71052 25.433 13.0414 0.26475 -0.963521 -0.0391835
-2.32483 24.7553 11.0215 0.483861 -0.873575 0.0523913
-3.79446 23.5803 8.82229 0.614887 -0.782564 0.0975068
-5.03391 22.1829 6.55151 0.681753 -0.726697 0.08441
-6.14261 20.8808 4.33453 0.707285 -0.704774 0.0551528
-7.20254 19.7499 2.24353 0.713485 -0.700247 -0.0243555
-8.35814 18.6951 0.116681 0.721133 -0.689699 -0.0654422
-8.83411 18.2835 -0.744752 0.719191 -0.690425 -0.0779528
-6.66221 20.3991 0.330029 0.701038 -0.71117 -0.0527559
-5.51309 21.4388 2.41042 0.702952 -0.711229 -0.00336392
-4.39467 22.6009 4.50817 0.687148 -0.725204 0.0436583
-3.27558 23.7695 6.54403 0.645367 -0.760723 0.069305
-1.83723 24.868 8.72867 0.42236 -0.90493 0.0520899
-1.40144 25.0711 6.37318 0.499106 -0.865936 0.0323748
-2.83436 23.9894 4.18849 0.630886 -0.775781 0.0121197
-4.02673 22.864 2.05842 0.684107 -0.729372 0.00364494
-4.56317 22.3746 1.12674 0.683216 -0.729939 -0.0201405
-2.97663 23.8169 0.88196 0.666638 -0.745359 0.00578777
-1.69242 24.8102 2.92808 0.537578 -0.843198 0.00513532
-1.62735 24.8474 3.01951 0.551076 -0.834344 -0.0136175
6.99227 24.5142 16.7079 -0.553957 -0.830835 0.0533378
6.38405 24.8364 15.8521 -0.508235 -0.856901 0.0861241
5.6821 25.1665 14.9092 -0.406008 -0.913627 0.0210481
5.5675 25.2141 14.7613 -0.406008 -0.913627 0.0210479
11.4213 19.2903 14.4419 -0.797228 -0.599459 0.0712478
12.3624 18.2713 16.5674 -0.802075 -0.59479 0.0538623
12.2086 18.1437 13.3422 -0.786529 -0.614732 0.0589697
13.3296 16.9333 15.86 -0.782727 -0.620178 0.0521401
14.2006 15.9469 17.8685 -0.779521 -0.626375 0.00150492
15.6497 14.2712 17.855 -0.719694 -0.69428 0.00396052
14.4129 15.5776 15.2188 -0.749551 -0.661516 0.0238603
13.2052 16.8613 12.6126 -0.768613 -0.638638 0.0370862
12.6853 17.4331 11.4586 -0.774133 -0.632517 0.0252841
12.564 17.4894 8.14059 -0.75026 -0.660909 -0.0175814
13.695 16.2131 10.6353 -0.745899 -0.666038 0.00529558
14.9203 14.9338 13.217 -0.730943 -0.681819 0.0290783
16.0759 13.7674 15.5679 -0.731223 -0.682051 0.0109033
17.2462 12.6727 17.7789 -0.685331 -0.728167 0.00968352
19.1458 10.9235 18.0734 -0.653848 -0.756622 0.0025153
17.8609 12.0674 15.8105 -0.680788 -0.732287 0.0168051
16.5686 13.2575 13.4005 -0.695818 -0.718192 0.00610311
15.3593 14.425 11.0366 -0.709195 -0.704844 0.0154038
14.1563 15.6975 8.50895 -0.749032 -0.662529 -0.00228894
13.0394 17.0498 5.96963 -0.760571 -0.647021 -0.0538129
12.3373 18.0885 4.14569 -0.783867 -0.618423 -0.0557287
3.23796 25.176 -6.06351 -0.212719 -0.962097 0.170644
3.16002 25.1773 -6.15339 -0.21272 -0.962097 0.170644
3.54363 24.814 -8.48703 -0.255883 -0.964929 0.05861
5.20699 24.5294 -6.53473 -0.351758 -0.927112 0.129346
5.50361 24.4663 -6.17991 -0.356695 -0.926681 0.118451
7.95614 22.9975 -5.49666 -0.585808 -0.796122 0.151721
6.54692 23.6904 -7.51986 -0.540233 -0.833933 0.112717
4.99606 24.2403 -9.52481 -0.395549 -0.910629 0.119563
3.36052 24.6961 -11.4901 -0.275936 -0.959277 0.0603908
2.82909 24.7936 -12.0846 -0.244866 -0.964529 0.0986139
2.20732 24.6755 -15.4429 -0.286034 -0.956383 0.0593007
3.94477 24.2458 -13.4868 -0.408591 -0.906267 0.108324
5.64656 23.666 -11.4002 -0.494361 -0.856411 0.148884
7.13667 23.0118 -9.36912 -0.590293 -0.79838 0.118929
8.58532 22.1577 -7.13527 -0.654868 -0.743706 0.134347
10.0097 21.1588 -4.7172 -0.712653 -0.691187 0.119948
11.0855 20.1112 -2.4691 -0.789772 -0.612918 0.0243294
11.9668 18.9346 -0.291543 -0.795102 -0.606283 -0.015329
12.8361 17.6477 1.98362 -0.794167 -0.605072 -0.0564443
13.6531 16.4419 4.13335 -0.755695 -0.653478 -0.0434987
14.5961 15.2497 6.32153 -0.734871 -0.677636 -0.0278256
15.6273 14.1191 8.49791 -0.711483 -0.702588 -0.0127102
16.7153 13.0818 10.6089 -0.687963 -0.725502 0.0188272
17.8873 12.0268 12.7798 -0.670962 -0.741489 -0.00187697
19.2644 10.8236 15.2265 -0.642731 -0.766041 -0.00880969
20.5517 9.75161 17.3796 -0.619545 -0.784961 0.000353136
20.901 9.48284 17.9334 -0.615003 -0.788498 -0.00657142
22.8535 8.01987 17.9775 -0.580201 -0.81442 -0.00933687
21.5008 9.04138 15.8858 -0.602198 -0.798321 -0.00633721
20.0642 10.1624 13.536 -0.62995 -0.7766 0.00745199
18.8274 11.1872 11.4154 -0.655793 -0.754931 0.00389415
17.6745 12.1851 9.33428 -0.664087 -0.747649 0.00309975
16.4974 13.2941 7.09334 -0.699416 -0.71432 -0.0237645
15.3572 14.491 4.76321 -0.71172 -0.701684 -0.0330649
14.2869 15.8236 2.30964 -0.761844 -0.646352 -0.0426878
13.2521 17.2467 -0.263471 -0.791618 -0.610319 -0.0291912
12.33 18.4679 -2.55197 -0.78563 -0.618632 0.00897775
11.3554 19.5605 -4.75985 -0.773759 -0.631415 0.0511094
10.2698 20.5516 -6.94343 -0.729039 -0.672716 0.126311
9.02039 21.4127 -9.06362 -0.67769 -0.722433 0.137207
7.66485 22.2499 -11.2145 -0.65799 -0.73816 0.148895
6.18765 23.0552 -13.3826 -0.563342 -0.820956 0.0931476
4.79479 23.6544 -15.2019 -0.502276 -0.861605 0.0731864
6.86702 22.2794 -15.094 -0.658435 -0.742397 0.123733
8.23869 21.3925 -12.9151 -0.680331 -0.719441 0.139837
9.54159 20.5428 -10.7612 -0.713229 -0.686884 0.139621
10.8348 19.5888 -8.50606 -0.737271 -0.663804 0.12568
12.0671 18.5265 -6.07363 -0.775159 -0.62616 0.083981
13.2407 17.2724 -3.49228 -0.785288 -0.61858 0.0260983
14.2982 15.9532 -0.951033 -0.778936 -0.626968 -0.013048
15.3502 14.634 1.51449 -0.748424 -0.663063 -0.0144276
16.4768 13.3931 3.90104 -0.70758 -0.706633 0.000906725
17.5882 12.2931 6.08113 -0.683838 -0.729396 -0.0186589
18.7911 11.211 8.29806 -0.637997 -0.769985 -0.00917055
20.0049 10.2119 10.4148 -0.623507 -0.781793 -0.00619259
21.2945 9.21265 12.5392 -0.597677 -0.80172 -0.0052377
22.632 8.21192 14.667 -0.589912 -0.807465 -0.00203025
24.0508 7.18144 16.8255 -0.577222 -0.816566 -0.00585925
24.8273 6.6342 17.9739 -0.563928 -0.825788 -0.00763716
26.6819 5.40685 17.7406 -0.543893 -0.839087 -0.0106792
25.1538 6.4385 15.5326 -0.561168 -0.827575 -0.0144537
23.7654 7.41385 13.4492 -0.580019 -0.814529 -0.0110028
22.3762 8.42332 11.2665 -0.588488 -0.808505 -0.000952308
21.0921 9.36391 9.21417 -0.601999 -0.798483 0.00476452
19.7087 10.4517 6.87449 -0.633042 -0.774103 -0.0046463
18.3424 11.6375 4.39657 -0.661784 -0.749695 -0.000290514
17.1666 12.703 2.17688 -0.692706 -0.720536 -0.0313965
16.1114 13.826 -0.0157992 -0.729399 -0.683748 -0.0215543
15.1444 14.9552 -2.18841 -0.759921 -0.650006 0.0033595
14.1955 16.0427 -4.35527 -0.772618 -0.634218 0.028798
13.1856 17.0949 -6.54053 -0.771441 -0.631783 0.0756953
12.0641 18.1033 -8.79848 -0.762115 -0.637626 0.112314
10.8529 19.0477 -11.0375 -0.744156 -0.651164 0.149053
9.5716 19.9461 -13.2605 -0.728303 -0.668339 0.151321
8.34406 20.8271 -15.3689 -0.708179 -0.693532 0.132274
9.6406 19.3488 -15.7204 -0.736873 -0.663621 0.128944
10.9075 18.4149 -13.4934 -0.738078 -0.657283 0.152377
12.1589 17.5068 -11.2542 -0.746315 -0.651322 0.137091
13.3973 16.5134 -8.90541 -0.757285 -0.645447 0.0995827
14.5442 15.4702 -6.58893 -0.753937 -0.654453 0.0571819
15.5766 14.4289 -4.40742 -0.748034 -0.663433 0.0173547
16.3617 13.5907 -2.69658 -0.732178 -0.68107 0.00770545
21.202 9.27015 6.40364 -0.601989 -0.79849 -0.00490552
22.6762 8.18775 8.78634 -0.586076 -0.810225 0.00705794
24.1757 7.1413 11.1047 -0.571094 -0.820882 0.00208426
25.6663 6.12028 13.3575 -0.551041 -0.834419 -0.00995819
27.2931 5.03176 15.7238 -0.534383 -0.845147 -0.012703
28.5455 4.22707 17.4807 -0.521966 -0.852923 -0.00858996
30.3918 3.11501 17.1636 -0.511183 -0.859386 -0.0121657
28.7174 4.15297 14.8449 -0.525142 -0.850947 -0.0107147
27.2299 5.10611 12.7262 -0.542769 -0.839864 -0.00548595
25.6113 6.16992 10.3393 -0.550361 -0.834927 3.1773e-05
24.154 7.13425 8.15538 -0.577658 -0.816271 0.00356679
