-2.02635 1.3797 6.41233 -0.198756 0.979415 0.00127607
-1.01184 1.54723 7.23414 -0.142301 0.989822 0.00156581
0.13975 1.72358 8.11827 -0.12493 0.992056 -0.0147615
1.33352 1.80492 8.68886 -0.0183701 0.999619 -0.00648048
2.58217 1.81308 9.34961 0.0346021 0.998663 -0.0150794
3.70144 1.74596 10.0362 0.0699333 0.997447 -0.0143017
5.08461 1.55215 10.6434 0.167757 0.985591 -0.00268427
6.39456 1.28232 10.9723 0.225415 0.974261 0.00163548
7.57912 0.980279 11.437 0.279016 0.960262 0.0068539
7.92451 0.873691 12.6179 0.288962 0.957105 0.0180437
7.42258 1.01469 13.9433 0.256902 0.966406 -0.00639307
7.31697 1.04896 15.5406 0.268527 0.963211 0.0108348
7.38269 1.03266 16.8686 0.261221 0.965211 -0.00505727
6.37037 1.28052 17.6939 0.218497 0.975831 -0.00350658
4.83408 1.60307 17.5986 0.187104 0.982248 -0.00354516
3.24786 1.82465 17.6479 0.0852257 0.996326 0.00840077
1.8978 1.88096 17.7073 0.00292671 0.999809 -0.0193276
0.521644 1.8255 17.5927 -0.0777588 0.996398 0.0158538
-0.755064 1.69516 17.6443 -0.115708 0.992651 -0.0281248
-2.02633 1.48522 17.5393 -0.194849 0.980429 -0.0281662
-3.28828 1.19119 17.2428 -0.239006 0.97044 -0.0334841
-3.88858 0.996589 15.9003 -0.270595 0.962075 -0.0344895
-3.92626 0.974983 14.5292 -0.273629 0.961803 0.00201848
-3.8612 0.979584 13.1155 -0.267694 0.963455 -0.00973375
-3.85075 0.978813 11.6928 -0.283131 0.959048 -0.00776384
-3.86483 0.970345 10.2062 -0.265343 0.964136 -0.00584751
-3.6792 1.00231 8.90133 -0.254271 0.966952 -0.0187183
-3.10352 1.11907 7.57024 -0.23366 0.972303 -0.002681
-2.30096 1.31283 6.68022 -0.233201 0.972421 0.00368757
-3.22082 1.10159 5.80596 -0.237625 0.971255 0.0140704
-2.41474 1.28771 4.71887 -0.223733 0.974619 -0.000231005
-1.56843 1.44377 4.34571 -0.172889 0.984893 0.00979096
-0.778406 1.5695 5.51444 -0.127741 0.991773 -0.00821425
0.02227 1.67838 6.52403 -0.073924 0.996949 -0.0250497
1.28732 1.76879 7.27743 -0.0117688 0.999669 -0.00924518
2.49981 1.76934 7.83305 0.0415154 0.997956 -0.0367606
3.71136 1.70007 8.51584 0.133778 0.990911 -0.00189941
4.89983 1.55701 9.16266 0.143525 0.989252 -0.0251448
6.3852 1.28496 9.50333 0.219848 0.975423 -0.0147442
7.82225 0.913148 9.68275 0.288392 0.957322 -0.0107156
8.94006 0.560572 10.645 0.300986 0.953585 0.00917506
9.28631 0.442861 12.2194 0.319804 0.947453 0.00727107
8.80587 0.592097 13.784 0.306009 0.952024 -0.00285514
8.62044 0.652428 15.1945 0.314055 0.9494 0.00290536
8.52372 0.678229 16.5861 0.320175 0.947359 -0.000125643
8.63607 0.647238 18.2245 0.31399 0.949375 -0.00885303
7.30033 1.05342 19.0186 0.256635 0.966495 0.00502463
5.8941 1.39922 19.0552 0.211061 0.977252 -0.0122525
4.36528 1.68608 19.0206 0.167403 0.985865 0.00683097
2.65026 1.88213 19.0493 0.0402372 0.998501 0.0133933
1.28986 1.87274 19.0578 -0.0199121 0.99939 -0.0232459
-0.153532 1.7969 18.8973 -0.100876 0.994288 -0.0345407
-1.5873 1.60305 18.8668 -0.168577 0.985535 -0.0173814
-2.96629 1.312 18.7207 -0.219975 0.975436 -0.0116025
-4.18538 0.977949 18.3381 -0.306887 0.95171 -0.00804243
-5.13726 0.661423 17.5234 -0.313811 0.949454 -0.00577272
-5.13007 0.643885 16.2412 -0.292635 0.956092 -0.0158724
-5.13629 0.617222 14.9084 -0.280695 0.959788 -0.00423236
-5.08017 0.624012 13.3422 -0.293589 0.955915 -0.00566001
-5.08412 0.616852 12.0155 -0.296877 0.954886 -0.00612645
-5.06929 0.608879 10.6556 -0.301463 0.953463 -0.00539203
-4.92264 0.63894 9.08914 -0.297204 0.954759 -0.00946937
-4.70239 0.688464 7.71899 -0.283371 0.958963 -0.00877879
-3.95838 0.910668 6.56751 -0.2837 0.958881 0.00780744
-3.44541 1.04327 6.03897 -0.237625 0.971255 0.0140704
-4.29088 0.832857 5.09736 -0.284872 0.958404 0.0176142
-5.18535 0.553023 5.96781 -0.286185 0.958109 0.0111772
-6.01026 0.291572 7.40593 -0.307639 0.951497 -0.00327433
-6.12692 0.255796 8.81828 -0.323201 0.946321 -0.00417301
-6.14939 0.255721 10.193 -0.324505 0.945744 -0.013927
-6.23443 0.245329 11.6218 -0.30956 0.950772 -0.0143367
-6.27669 0.246725 12.9832 -0.307554 0.951516 -0.00525627
-6.32707 0.243791 14.3273 -0.299885 0.953635 -0.0220849
-6.31718 0.251475 15.6846 -0.314387 0.949196 -0.00864206
-6.39487 0.242283 17.1698 -0.323197 0.94632 -0.00449575
-6.25494 0.301797 18.5128 -0.321041 0.947005 -0.00891065
-5.38522 0.598641 19.3327 -0.310704 0.950461 -0.00787113
-3.88142 1.07591 19.9165 -0.270097 0.962545 -0.0235391
-2.30901 1.49802 20.1515 -0.234011 0.971866 -0.0201646
-0.726146 1.75334 20.1684 -0.141786 0.989651 -0.022069
0.601615 1.87636 20.1861 -0.0515255 0.998123 -0.0330906
2.52851 1.89267 20.3772 0.0186815 0.999719 -0.0146139
3.984 1.76541 20.3353 0.118615 0.992879 -0.0110696
5.48435 1.49473 20.4626 0.195537 0.980662 -0.00819524
6.74187 1.21149 20.4037 0.227252 0.973641 -0.0195067
8.25851 0.777949 20.2917 0.306473 0.951824 -0.0102428
9.52486 0.349556 19.5209 0.325714 0.945468 -0.000676049
9.90159 0.218498 18.1623 0.328114 0.944577 -0.00786853
9.6746 0.282791 16.685 0.332129 0.943201 0.00244439
9.81755 0.255151 15.3387 0.319545 0.947509 0.0108589
10.0612 0.183305 13.6994 0.311868 0.950122 -0.00245849
10.1242 0.158026 12.4207 0.31976 0.947449 0.00969755
10.1171 0.165469 11.1361 0.323222 0.946322 0.0010933
9.95593 0.212985 9.72254 0.326169 0.945262 -0.00963882
9.22667 0.447884 8.79415 0.322087 0.946569 -0.0163216
7.88499 0.875379 8.21635 0.287629 0.957506 -0.0126988
6.65792 1.2034 8.06906 0.218627 0.975724 -0.0128589
5.34496 1.4644 7.85222 0.182721 0.982985 -0.00132305
4.11462 1.65741 7.19328 0.144844 0.989431 0.00618071
2.81846 1.7577 6.54718 0.0373623 0.998902 0.00803416
1.57134 1.75476 6.01101 -0.0279596 0.999561 -0.00978793
0.563102 1.70704 5.11059 -0.0521009 0.998392 0.0223276
-0.307607 1.63339 3.98779 -0.103204 0.994539 -0.0155222
-0.751849 1.58026 2.40402 -0.124216 0.991563 0.0363327
-0.945925 1.58303 0.952821 -0.139354 0.990142 -0.00564704
-1.81483 1.4413 1.88166 -0.172663 0.984519 0.0301533
-2.72144 1.22933 2.96101 -0.226437 0.97399 0.00838345
-3.51853 1.03406 4.02594 -0.228327 0.973557 0.00726646
-4.10249 0.891717 4.93941 -0.263091 0.964415 0.0131913
1.30782 1.7961 -9.20364 -0.00944999 0.999936 0.00185118
1.88205 1.76044 -8.01429 0.0589823 0.998203 -0.00195098
2.42666 1.74054 -6.4452 0.0730057 0.997277 -0.0104459
3.39406 1.65827 -5.73079 0.112383 0.993214 -0.0299193
4.69692 1.48178 -5.91873 0.149733 0.988687 0.00883147
5.962 1.25675 -5.74521 0.205432 0.978616 0.0103758
7.02801 0.992608 -6.12106 0.262373 0.964668 -0.0240102
6.93229 0.991512 -7.70721 0.285039 0.95807 -0.0279938
6.83349 0.970629 -8.96901 0.263645 0.964336 -0.0213241
6.64913 1.00333 -10.518 0.261563 0.965052 -0.0161043
6.62758 0.985802 -12.0653 0.250299 0.968088 -0.0124866
6.62908 0.974806 -13.53 0.272968 0.961933 -0.0114166
6.52662 1.00417 -15.1154 0.270457 0.962729 0.00245167
6.42914 1.01351 -16.5219 0.269331 0.962857 -0.0163697
5.50514 1.25598 -17.2449 0.245334 0.96932 -0.0122658
4.20354 1.5572 -17.4136 0.180989 0.982793 -0.00871087
2.94642 1.75696 -17.555 0.135774 0.990483 0.0111619
1.59516 1.87433 -17.6544 0.045643 0.998794 0.0180732
0.032059 1.87277 -17.6791 -0.0185254 0.999799 0.0065675
-1.29774 1.80455 -17.6205 -0.101997 0.994641 0.0168799
-2.78337 1.63599 -17.4137 -0.159013 0.987094 -0.00415572
-4.03877 1.38792 -17.2191 -0.22977 0.973144 -0.0140162
-5.19969 1.07152 -16.5958 -0.256814 0.966165 0.0238926
-5.43353 0.992091 -15.4239 -0.268983 0.963029 0.0149231
-4.68409 1.16057 -14.3447 -0.222644 0.974631 0.022905
-3.55788 1.38524 -13.5646 -0.203717 0.9786 0.029012
-2.36522 1.57561 -12.9554 -0.139713 0.989843 0.0262771
-1.15685 1.72938 -12.3199 -0.136477 0.990453 0.0194151
-0.0673099 1.77798 -11.428 -0.0570012 0.998215 0.0177979
0.797124 1.78765 -10.0614 -0.00544575 0.999707 0.0151119
1.06665 1.79175 -9.61237 -0.0125428 0.999918 -0.00242026
-0.0160194 1.75399 -9.0321 -0.0766584 0.997006 0.010087
0.672673 1.7737 -7.70051 -0.0191521 0.999714 0.0026717
1.16661 1.7866 -6.2538 0.0171619 0.999821 -0.00802593
1.45108 1.76398 -4.47397 0.0343362 0.99928 3.82623e-06
2.15604 1.74958 -3.95217 0.0389038 0.999126 -0.0135247
3.46149 1.68194 -4.38659 0.0676933 0.997488 -0.00654168
4.81478 1.49423 -4.68447 0.171736 0.984791 -0.0192592
6.07889 1.25009 -4.36419 0.230535 0.972853 0.00043316
7.4933 0.892397 -4.14166 0.258389 0.96561 -0.0196193
8.37534 0.629034 -4.61411 0.277705 0.960562 -0.0141439
8.24724 0.631836 -6.00106 0.306913 0.95113 -0.0339943
8.12493 0.634124 -7.46461 0.306179 0.951771 -0.0196316
8.03306 0.634249 -8.77015 0.292388 0.955879 -0.0251118
7.87755 0.646982 -10.5796 0.295726 0.95515 -0.0153264
7.79903 0.651281 -12.2894 0.29522 0.955394 -0.00821306
7.76224 0.640027 -13.6266 0.295609 0.95519 -0.014907
7.68714 0.645665 -14.9623 0.302974 0.952975 -0.00664468
7.6698 0.636953 -16.223 0.313435 0.949414 -0.0169634
7.55401 0.650534 -17.5454 0.307114 0.951647 -0.00696369
6.65903 0.93222 -18.3602 0.288924 0.957214 -0.00506524
5.31538 1.29249 -18.5636 0.244205 0.96947 -0.0221878
3.94368 1.59276 -18.757 0.19762 0.980192 -0.013037
2.54389 1.77536 -18.8898 0.106836 0.99425 0.00733489
1.18552 1.87512 -18.9755 0.0243423 0.999662 0.00914476
-0.10494 1.88163 -18.9966 -0.0141178 0.999849 0.0101285
-1.35963 1.81501 -18.9329 -0.094414 0.995521 -0.00489332
-3.00324 1.59932 -18.6466 -0.147545 0.988893 0.0179015
-4.3249 1.32936 -18.4778 -0.232006 0.972592 0.00745566
-5.5864 0.988162 -17.9408 -0.291943 0.956186 0.0205027
-6.58805 0.65402 -16.7498 -0.305709 0.952079 0.00938299
-6.73804 0.587896 -15.4974 -0.310496 0.950354 0.0204823
-6.26318 0.713899 -14.2555 -0.31497 0.948744 0.0260434
-5.40234 0.94607 -13.3384 -0.277611 0.959904 0.0373954
-4.34979 1.18365 -12.5475 -0.21795 0.975237 0.0375497
-3.20037 1.40645 -11.9589 -0.1867 0.98204 0.0240412
-1.94055 1.60702 -11.3875 -0.125648 0.991632 0.0296452
-0.937099 1.70155 -10.4807 -0.0759373 0.996979 0.0163491
-0.144829 1.74606 -9.22786 -0.0722368 0.997351 0.00418861
-1.22939 1.65521 -8.582 -0.0905963 0.995296 0.0343242
-1.93184 1.59193 -9.62829 -0.139878 0.990165 -0.00258217
-3.14978 1.392 -10.5416 -0.20355 0.979046 0.00599064
-4.65509 1.06972 -11.3022 -0.251219 0.967691 0.0215082
-5.8302 0.768684 -11.952 -0.287829 0.956943 0.0376031
-6.76705 0.499053 -12.741 -0.306363 0.951502 0.0267796
-7.6103 0.263801 -14.089 -0.311321 0.949907 0.0274885
-7.87764 0.206754 -15.6367 -0.336627 0.941243 0.0272857
-7.75462 0.269193 -16.8822 -0.315062 0.949039 0.00774262
-7.43632 0.396741 -18.4315 -0.324226 0.945828 0.0169419
-6.23423 0.806407 -19.0686 -0.292147 0.956373 0.00118088
-5.07888 1.14576 -19.448 -0.245046 0.969484 0.00730935
-3.86065 1.44376 -19.8859 -0.198862 0.979683 0.0258341
-2.43263 1.70095 -20.1632 -0.129933 0.991414 0.0146688
-0.762529 1.87402 -20.2801 -0.0904607 0.995518 0.0275729
0.778514 1.89258 -20.3759 0.0173842 0.999841 0.00402713
2.08327 1.82838 -20.2239 0.0729768 0.997202 0.0162114
3.7404 1.62131 -20.1327 0.181007 0.983419 -0.011122
5.08386 1.33407 -19.8622 0.215394 0.976434 -0.0114951
6.36257 0.99568 -19.7477 0.261157 0.965283 0.00504262
7.88141 0.535918 -19.5536 0.313532 0.949476 -0.0125408
8.63615 0.292311 -18.5936 0.314252 0.949273 -0.0112365
8.74202 0.253821 -17.1415 0.34161 0.939808 -0.000453935
8.80653 0.252945 -15.6003 0.338545 0.940679 -0.020908
8.84003 0.271054 -14.3111 0.327117 0.944743 -0.0211236
8.95544 0.257072 -12.9219 0.330223 0.943748 -0.0170512
9.06086 0.247055 -11.4206 0.326495 0.945069 -0.0156795
9.13707 0.241717 -10.0661 0.325274 0.94553 -0.0130635
9.22633 0.234834 -8.70977 0.321873 0.945699 -0.0452915
9.32407 0.241333 -7.43577 0.324794 0.945416 -0.0261699
9.37411 0.25958 -6.19012 0.312526 0.949312 -0.0334419
9.58491 0.22976 -4.92395 0.308863 0.950801 -0.023882
9.6344 0.230645 -3.51286 0.33203 0.943269 0.000500689
9.40074 0.325556 -2.29577 0.330584 0.943589 -0.0188341
8.12831 0.723865 -2.73017 0.291715 0.956423 -0.0125376
6.61135 1.13805 -2.91835 0.241184 0.970083 -0.0277262
5.43258 1.40063 -3.22105 0.166941 0.985744 -0.0209779
4.15197 1.62327 -3.32706 0.124503 0.992137 0.00621731
2.95495 1.71741 -2.87534 0.0547719 0.99844 0.00504695
1.63539 1.75639 -2.1299 0.0268423 0.999567 -0.0120942
0.194806 1.6854 -1.0846 -0.0790766 0.996792 -0.0123869
-0.720538 1.60186 0.248178 -0.112157 0.993539 -0.0173283
-0.50056 1.62097 -0.515223 -0.12267 0.99223 0.0207927
-0.181802 1.6602 -1.81047 -0.0748246 0.997051 0.0170463
0.120664 1.71283 -3.02985 -0.0743803 0.996552 0.0344236
0.16316 1.73948 -4.69371 -0.0680167 0.997678 0.00345608
-0.20241 1.74302 -6.50481 -0.0421854 0.999087 0.0049511
-0.891143 1.67696 -7.91964 -0.101337 0.994852 -0.000384465
-1.12536 1.65865 -8.40717 -0.0905964 0.995296 0.0343242
5.95443 1.1598 -13.5604 0.248869 0.968432 -0.0142913
4.01385 1.57195 -15.5944 0.169557 0.98545 0.0117984
2.75059 1.77488 -16.8933 0.0793154 0.996505 0.0261958
-0.0188858 1.87099 -17.0233 -0.0253912 0.999678 5.88934e-05
1.83175 1.80952 -15.1537 0.0556412 0.998449 0.00184513
3.86424 1.59115 -13.0762 0.155014 0.987906 -0.00347851
5.86636 1.19945 -10.988 0.252659 0.967392 -0.0177997
6.00435 1.16676 -10.8421 0.252101 0.967458 -0.0216855
6.21706 1.17595 -7.9626 0.235053 0.97155 -0.0289807
4.31539 1.5389 -9.94723 0.183768 0.982922 -0.00970765
2.26189 1.77546 -12.0452 0.0929717 0.995332 0.0258837
0.154771 1.83304 -14.1812 -0.00616585 0.999838 -0.0168879
-1.70933 1.73488 -16.0736 -0.124184 0.991898 0.0267862
-2.36482 1.67131 -16.745 -0.140712 0.988508 0.0552465
-4.40957 1.26782 -16.2086 -0.232424 0.972546 0.0115175
-2.51845 1.59588 -14.2374 -0.160673 0.986708 0.0243226
-1.6438 1.68668 -13.3427 -0.135677 0.990273 0.0308419
4.85714 1.46468 -6.72166 0.141973 0.98987 0.00120759
3.82113 1.62406 -7.79207 0.11424 0.9934 0.010259
2.90487 1.70757 -8.72578 0.0661585 0.997735 0.0121618
1.72174 1.79984 -9.92884 0.0325939 0.999457 0.0048761
1.69022 1.79939 -9.96069 -0.0129957 0.999915 -0.00133758
4.04499 1.7033 11.0311 0.116396 0.99318 0.0067818
5.77989 1.42332 12.8244 0.210765 0.977375 0.0177662
6.69084 1.20727 13.7884 0.253019 0.967434 -0.00731588
6.6141 1.22522 16.3824 0.221618 0.975123 0.00462536
4.9639 1.60008 14.6448 0.182022 0.982977 -0.0249774
3.16979 1.79753 12.8073 0.0684123 0.997596 -0.0110684
1.42935 1.81588 11.0439 -0.0291248 0.999488 -0.0132188
-0.532851 1.65141 9.04734 -0.127648 0.991726 -0.0136192
-1.95273 1.39364 7.58188 -0.196804 0.980443 7.36206e-05
-3.06184 1.16825 9.08712 -0.250151 0.968116 -0.0132438
-1.29254 1.52727 10.9327 -0.142862 0.98974 -0.00219837
0.396503 1.78814 12.6686 -0.0911245 0.995722 -0.0153098
2.20479 1.85904 14.4988 0.0349081 0.99939 -0.000478761
4.09787 1.72795 16.4256 0.144302 0.989532 0.00167144
4.53592 1.65505 16.8787 0.152909 0.988141 0.0140018
1.96192 1.88223 16.9216 -0.00487022 0.999843 0.0170115
0.244003 1.8145 15.183 -0.106221 0.994297 -0.00949751
-1.44485 1.56472 13.4535 -0.193122 0.980738 -0.0292599
-3.11595 1.16176 11.7003 -0.235694 0.971823 0.00306334
-3.16438 1.18606 14.322 -0.268005 0.963398 -0.00614414
-1.3943 1.58294 16.1751 -0.159434 0.986987 -0.0209117
-0.711347 1.69038 16.8765 -0.126373 0.991903 -0.0126152
