11.7211 19.3952 13.1963 0.793232 0.605255 -0.0664393
12.18 18.7244 12.4699 0.785522 0.616117 -0.0564731
12.5211 18.2184 11.282 0.776959 0.628873 -0.0292079
12.6381 18.0335 10.2295 0.771469 0.635948 -0.0194323
12.6776 17.9593 9.13703 0.758311 0.651646 -0.0122461
12.6431 17.9814 7.85825 0.758722 0.651082 0.0207899
12.7139 17.9451 6.74198 0.776982 0.627707 0.0477764
12.5776 18.2176 5.45916 0.776321 0.628057 0.0535633
12.2798 18.7008 4.25189 0.783899 0.617682 0.0624373
12.2499 18.8494 3.17411 0.798768 0.599365 0.0522639
12.1008 19.2132 1.77936 0.805244 0.590313 0.0557883
11.8171 19.6781 0.632733 0.806 0.591337 0.0261669
11.5004 20.1366 -0.466815 0.80243 0.596706 0.00692293
11.1936 20.5412 -1.4116 0.793848 0.608087 -0.00600932
10.7781 21.0577 -2.27933 0.775713 0.630298 -0.0295312
10.2673 21.624 -3.12207 0.761474 0.646441 -0.0476573
9.63693 22.2093 -4.00814 0.721206 0.685025 -0.0997097
8.90153 22.7714 -4.69442 0.671059 0.73283 -0.112235
8.08465 23.4094 -5.1765 0.570521 0.805204 -0.161534
7.18455 23.9775 -5.54374 0.561726 0.817914 -0.112426
6.2191 24.5834 -5.63311 0.49094 0.86333 -0.101942
4.98182 25.1246 -5.45115 0.330441 0.932441 -0.140256
3.96904 25.4599 -5.29816 0.278439 0.95256 -0.119807
2.99883 25.6686 -4.91833 0.142799 0.985011 -0.096759
2.44346 25.7191 -4.98782 0.00705941 0.998225 -0.0591335
2.69219 25.5815 -6.1675 0.143211 0.983591 -0.109723
2.85175 25.3956 -7.41609 0.209327 0.969794 -0.125225
2.97718 25.2564 -8.71692 0.208755 0.976664 -0.0504886
2.96438 25.1746 -10.0229 0.273371 0.960959 -0.0427384
2.59337 25.1741 -11.4928 0.191323 0.979544 -0.0623586
2.12881 25.1791 -12.5731 0.112137 0.993238 -0.0300511
1.59792 25.194 -13.6283 0.149988 0.987041 -0.0565636
0.604516 25.2738 -14.7716 0.0410058 0.998976 -0.0037798
-0.438036 25.3272 -15.5007 -0.0198017 0.997889 0.0279425
-1.54071 25.3138 -15.9326 -0.0638952 0.992296 0.106142
-0.624686 25.3443 -15.9251 -0.020398 0.997311 0.0700178
0.701828 25.316 -15.9678 0.120013 0.991282 0.0262995
1.79315 25.0987 -15.9857 0.247447 0.967764 -0.0145918
2.83818 24.7726 -15.9011 0.379694 0.91962 -0.100655
4.21693 24.1886 -15.8201 0.410767 0.906259 -0.0995638
5.34916 23.6039 -16.0381 0.503458 0.860711 -0.0755398
6.42205 22.9294 -16.0959 0.542128 0.837425 -0.0693983
7.28782 22.2635 -15.8325 0.657259 0.75275 -0.0371285
8.12505 21.4648 -15.9056 0.702651 0.706054 -0.0881446
8.93441 20.5819 -16.1668 0.731755 0.672355 -0.111461
9.61357 19.7918 -16.356 0.741368 0.659883 -0.122179
10.1692 19.0546 -16.9593 0.746201 0.658614 -0.0970134
10.5905 18.477 -17.7498 0.744418 0.66469 -0.0634666
11.243 17.6905 -18.4107 0.72643 0.681868 -0.085763
12.1034 16.7859 -18.3779 0.715082 0.693256 -0.0896309
13.1427 15.7356 -18.1804 0.720992 0.688163 -0.0812546
14.0616 14.8237 -18.1496 0.693635 0.716741 -0.0709833
14.9552 13.9906 -18.0202 0.681694 0.727808 -0.0747529
15.8375 13.1709 -17.969 0.670255 0.738812 -0.0685937
16.6596 12.4441 -18.0189 0.656875 0.750857 -0.0687523
17.4703 11.7401 -17.9935 0.646157 0.759966 -0.06945
18.4131 10.9675 -17.8652 0.633471 0.771689 -0.0564926
19.3417 10.2412 -17.7386 0.613097 0.787996 -0.0557262
20.1981 9.58843 -17.6523 0.604337 0.795275 -0.047267
21.0847 8.93471 -17.508 0.595515 0.80202 -0.0460544
22.241 8.10293 -17.4238 0.585597 0.809694 -0.0382986
23.3268 7.33281 -17.4166 0.577726 0.81538 -0.0369115
24.6504 6.41443 -17.378 0.564714 0.824762 -0.0286124
25.5935 5.77873 -17.4313 0.556566 0.830196 -0.0317458
26.4942 5.18245 -17.4392 0.551748 0.83351 -0.0288348
27.4662 4.55913 -17.4914 0.533887 0.845362 -0.0178435
28.5188 3.89822 -17.5045 0.531586 0.846776 -0.0196794
29.4985 3.29688 -17.3939 0.516436 0.856031 -0.0224804
30.5154 2.68873 -17.1873 0.516517 0.855982 -0.0224829
31.4924 2.10778 -17.0326 0.510289 0.859701 -0.022764
32.6155 1.4698 -16.5048 0.496414 0.867744 -0.0242459
32.5884 1.52276 -15.4399 0.488857 0.871849 -0.0298781
32.135 1.82259 -14.221 0.495173 0.868282 -0.029841
31.669 2.13444 -13.0225 0.501477 0.864653 -0.0299249
31.2214 2.44397 -11.8255 0.50942 0.860042 -0.0286322
30.8306 2.71056 -10.823 0.515603 0.856282 -0.0301649
30.5 2.95783 -9.67191 0.519974 0.853331 -0.0380059
30.3947 3.08162 -8.36079 0.522462 0.851903 -0.0359825
30.3505 3.17358 -6.89351 0.520458 0.852961 -0.0397516
29.6841 3.54792 -7.63163 0.52414 0.850899 -0.0352815
28.8674 4.0158 -8.54805 0.525577 0.84994 -0.0369552
28.194 4.4055 -9.35758 0.535365 0.84389 -0.0351334
27.4791 4.82135 -10.2927 0.541766 0.839771 -0.0357118
26.7619 5.2536 -11.0861 0.548258 0.835561 -0.0353792
26.1845 5.60452 -11.9114 0.561509 0.826925 -0.0300412
25.3779 6.10965 -12.8782 0.557784 0.829158 -0.0370794
24.5728 6.63151 -13.5206 0.566642 0.822897 -0.0419158
23.5159 7.34333 -14.0416 0.577706 0.815213 -0.0410209
22.5181 8.04828 -14.3329 0.595557 0.801993 -0.0460227
21.5411 8.76209 -14.5264 0.594857 0.802497 -0.0463041
20.6245 9.46434 -14.4927 0.612908 0.788275 -0.0544666
19.7985 10.1416 -14.2685 0.631226 0.772747 -0.0664523
18.9588 10.8663 -13.9096 0.636022 0.768048 -0.0746844
18.2212 11.541 -13.4255 0.65484 0.750824 -0.0863058
17.621 12.1435 -12.6944 0.663616 0.744572 -0.0718689
17.2287 12.6211 -11.643 0.690505 0.719043 -0.0786117
16.8343 13.1198 -10.5479 0.691973 0.718011 -0.0749452
16.5568 13.5403 -9.2568 0.703935 0.706441 -0.0725489
16.4641 13.7797 -7.79321 0.716224 0.695099 -0.0610764
16.4864 13.8543 -6.51973 0.734301 0.677133 -0.0472732
16.5705 13.8243 -5.31653 0.736431 0.675947 -0.0267111
16.762 13.6492 -3.98622 0.736703 0.676064 -0.0142677
16.9692 13.4386 -2.82327 0.716501 0.697464 -0.0108893
17.1912 13.2158 -1.53928 0.705048 0.709001 -0.0149987
17.4125 12.9889 -0.488709 0.701136 0.712893 0.00800581
17.7394 12.6533 0.474623 0.701471 0.712662 0.00295146
18.1419 12.2762 1.59735 0.679078 0.733966 0.0118502
18.5153 11.92 2.7408 0.67372 0.73898 0.00318924
19.0001 11.4919 3.71964 0.656976 0.753888 -0.00600729
19.6303 10.9565 4.41661 0.648465 0.761148 -0.0120929
20.3508 10.3629 4.96013 0.630611 0.775975 -0.0138423
21.1255 9.74986 5.42113 0.617544 0.786536 -0.000651973
21.9609 9.1031 5.74621 0.608235 0.793736 -0.00580134
23.0304 8.30843 6.03954 0.593571 0.804768 -0.00417126
23.8781 7.70953 6.31182 0.566463 0.824065 -0.00603348
24.8527 7.04423 6.77993 0.562881 0.826514 -0.00624676
25.8766 6.35493 7.10476 0.555186 0.831667 -0.00990905
26.864 5.70745 7.37916 0.545519 0.838038 -0.00946962
27.8336 5.08812 7.64735 0.535596 0.844328 -0.0147659
28.8737 4.44417 8.00999 0.526927 0.84989 -0.0057261
29.864 3.83818 8.39415 0.520021 0.854132 -0.00589978
30.8402 3.25771 8.93027 0.51259 0.85861 -0.00629065
31.8018 2.69696 9.74077 0.503794 0.863821 -0.00235313
32.401 2.35402 10.6647 0.498835 0.866695 -0.00183022
32.8108 2.12054 11.7011 0.498129 0.867099 0.000424368
33.2452 1.86842 12.7351 0.493346 0.869819 0.00235566
33.5948 1.66758 13.834 0.486885 0.873453 0.00470631
33.9939 1.43968 14.9949 0.485789 0.874067 0.0037558
34.2207 1.31104 16.0447 0.485056 0.874467 0.00537843
33.818 1.52724 17.2951 0.484437 0.874807 0.00567139
32.8935 2.03582 17.799 0.487532 0.873082 0.00591871
31.9772 2.55321 17.9826 0.497454 0.867489 0.00152253
30.8188 3.22887 18.0658 0.506114 0.862392 0.011351
29.7516 3.8634 18.2532 0.517035 0.855926 0.00570178
28.6783 4.52125 18.352 0.530677 0.847542 0.00443675
27.5646 5.22667 18.5364 0.534468 0.84508 0.0107239
26.2333 6.08326 18.5866 0.542015 0.840331 0.00799411
25.3276 6.6956 18.5886 0.559565 0.828718 0.0105856
24.1718 7.49086 18.6375 0.575397 0.817783 0.00787949
23.1209 8.2452 18.6105 0.5886 0.808351 0.00820274
22.2596 8.87083 18.6352 0.584181 0.811577 -0.0086767
21.2999 9.60581 18.7371 0.618138 0.786031 -0.00722911
20.4343 10.292 18.7453 0.631294 0.775431 -0.000845467
19.5231 11.0513 18.7198 0.646819 0.762484 0.011133
18.6983 11.7795 18.6548 0.675376 0.737306 0.0157373
17.7658 12.6636 18.521 0.689301 0.724419 0.00607138
16.5518 13.8676 18.4791 0.707902 0.706289 -0.00551102
15.7577 14.7157 18.4931 0.73805 0.674621 -0.00242707
14.7682 15.8729 18.4762 0.763685 0.645335 -0.0181418
13.8358 17.0601 18.4109 0.796588 0.603202 -0.0377953
13.1887 17.9207 18.1611 0.804607 0.592506 -0.0392762
12.7471 18.451 17.1074 0.81014 0.583436 -0.0572402
12.2234 19.0993 16.3832 0.807057 0.586237 -0.0706108
11.6331 19.8379 15.8298 0.806959 0.585288 -0.0790885
10.9905 20.6897 15.61 0.798989 0.595296 -0.084855
10.6561 21.1451 15.6941 0.79593 0.599283 -0.0857674
10.8509 21.0516 16.7226 0.792183 0.601342 -0.104083
11.7103 19.8938 16.9315 0.812742 0.576178 -0.0858715
12.2712 19.1702 17.5693 0.823183 0.563679 -0.0680849
12.6154 18.7562 18.4976 0.824753 0.563172 -0.0511847
12.9184 18.3552 19.4381 0.818633 0.573863 -0.0228189
13.5537 17.4875 19.4703 0.801145 0.598085 -0.0214681
14.4955 16.2608 19.4435 0.785043 0.619258 -0.0150501
15.246 15.3298 19.5253 0.757459 0.652806 0.0100256
16.0288 14.4311 19.4937 0.730501 0.682905 -0.00301829
16.8995 13.4999 19.5191 0.717903 0.695827 0.00595085
17.8438 12.5672 19.565 0.696429 0.717462 0.0134294
18.6273 11.8361 19.6653 0.673911 0.738794 0.00193396
19.4546 11.0972 19.6975 0.648752 0.760982 0.00522991
20.5448 10.2046 19.7259 0.626488 0.779398 0.00713042
21.3972 9.53043 19.7158 0.613631 0.789511 0.0107665
22.5998 8.62093 19.6334 0.593701 0.804615 0.0106448
23.6825 7.82949 19.6672 0.584584 0.811241 0.0122548
24.5521 7.21372 19.615 0.571707 0.82037 0.0120129
25.4799 6.57902 19.5829 0.559459 0.828736 0.0139638
26.6444 5.80399 19.6118 0.545386 0.838077 0.0134545
27.6066 5.18251 19.5146 0.54095 0.840947 0.0134489
28.7277 4.47724 19.3817 0.530053 0.847846 0.0141444
29.7504 3.85033 19.2646 0.518357 0.85504 0.0132875
30.7233 3.27188 19.1447 0.505342 0.862868 0.00723185
31.7602 2.67269 18.9792 0.498822 0.866687 0.0045224
32.9238 2.01089 18.8535 0.490121 0.8716 0.00980203
33.8781 1.4831 18.5228 0.482396 0.875917 0.00770751
34.972 0.892741 17.4513 0.475298 0.879818 0.00352995
35.2014 0.772852 16.3106 0.479134 0.877742 8.61663e-05
35.0126 0.876164 15.2444 0.479161 0.877727 0.00027194
34.6265 1.09215 14.0921 0.485935 0.873992 0.00234265
34.1787 1.34432 12.8331 0.487047 0.873372 0.00214896
33.7707 1.57589 11.6935 0.489599 0.871947 0.000657699
33.3601 1.80747 10.6873 0.491965 0.87061 -0.00137837
32.8745 2.07829 9.51407 0.493941 0.869491 -0.0027305
32.1344 2.499 8.70835 0.502551 0.864542 -0.00322991
31.3442 2.95685 8.08339 0.505143 0.863019 -0.00532377
30.4504 3.48219 7.55114 0.512106 0.858915 -0.00353368
29.4252 4.09959 7.14802 0.522493 0.852639 -0.00282051
28.3405 4.76404 6.8068 0.525407 0.850831 -0.00563345
27.2495 5.45039 6.44634 0.539858 0.841713 -0.00845473
26.0619 6.22347 6.09898 0.554443 0.832208 -0.00480518
25.1363 6.84148 5.8085 0.559715 0.828614 -0.0108474
24.1287 7.52598 5.34304 0.569804 0.821693 -0.0120038
23.2536 8.14123 5.05016 0.585215 0.810792 -0.00413032
22.1555 8.95178 4.73537 0.600586 0.799512 -0.00879439
21.243 9.65259 4.37472 0.615798 0.787893 -0.00357721
20.2232 10.4572 3.7389 0.622043 0.782983 -0.000838119
19.5594 11.0047 3.02416 0.635779 0.77187 0.00107677
19.0482 11.4541 1.71855 0.658303 0.752737 0.0048686
18.6731 11.8001 0.770258 0.663938 0.74773 0.00749846
18.24 12.1946 -0.422304 0.667411 0.744672 -0.000471346
17.918 12.5094 -1.45247 0.689922 0.72385 -0.000155898
17.748 12.6569 -2.53744 0.696278 0.71758 -0.0152723
17.5187 12.8628 -3.81367 0.699865 0.714207 -0.00988004
17.3003 13.0608 -5.11879 0.715646 0.69821 -0.0187827
17.2131 13.1001 -6.36388 0.721492 0.691371 -0.0365261
17.1608 13.0565 -7.77281 0.710838 0.701339 -0.0532262
17.2315 12.8887 -8.95758 0.70721 0.704382 -0.0608266
17.5006 12.5184 -10.1634 0.679369 0.73001 -0.0744584
17.9268 12.0198 -11.2327 0.67636 0.73345 -0.0677294
18.3977 11.5004 -12.2421 0.653968 0.75323 -0.0701117
19.1018 10.841 -12.878 0.639161 0.766389 -0.0642012
20.2808 9.82541 -13.4014 0.630091 0.774646 -0.0539338
21.2791 9.02484 -13.5694 0.608065 0.792657 -0.0441734
22.202 8.3304 -13.4176 0.596628 0.801762 -0.0348309
23.0897 7.6887 -13.1714 0.58703 0.808457 -0.0423328
24.0372 7.03744 -12.7584 0.572346 0.81907 -0.0388633
24.8493 6.50664 -12.1218 0.567818 0.822252 -0.038521
25.5415 6.06129 -11.3368 0.561047 0.827282 -0.0288107
26.1282 5.69822 -10.5075 0.55485 0.831122 -0.0371114
27.05 5.14186 -9.40118 0.546583 0.836561 -0.0375976
27.8157 4.6921 -8.26093 0.536173 0.843391 -0.0347702
28.783 4.1251 -7.25282 0.528913 0.847984 -0.0340337
29.4372 3.74786 -6.41795 0.527846 0.848768 -0.0311529
30.1979 3.31303 -5.59967 0.521805 0.852373 -0.0343482
31.07 2.81527 -4.86959 0.51152 0.858593 -0.0341196
31.9601 2.29594 -4.69495 0.505007 0.862449 -0.0338816
31.6128 2.4564 -5.74068 0.511428 0.858464 -0.0380151
31.3529 2.56899 -6.87483 0.511091 0.858794 -0.0352291
31.2428 2.57979 -8.10872 0.505778 0.861649 -0.041466
31.2794 2.51021 -9.18155 0.504963 0.86227 -0.0387472
31.555 2.30077 -10.2465 0.500796 0.86485 -0.035196
31.9931 2.00372 -11.4109 0.505579 0.86216 -0.0327159
32.543 1.63531 -12.7987 0.492941 0.869602 -0.0265189
32.9626 1.36501 -13.8547 0.486134 0.873353 -0.0291041
33.3234 1.13364 -14.8414 0.480544 0.876299 -0.0343223
33.7215 0.870578 -15.9569 0.482943 0.874998 -0.0338364
33.563 0.921643 -17.0812 0.488628 0.872132 -0.0250646
32.5923 1.45414 -17.7393 0.496234 0.868083 -0.013561
31.3408 2.1745 -18.1063 0.507766 0.861353 -0.0144347
30.1443 2.88755 -18.2861 0.514093 0.857604 -0.0149864
29.1787 3.46984 -18.4682 0.521158 0.853248 -0.0190196
28.2457 4.04796 -18.482 0.532209 0.846423 -0.0179461
27.1435 4.74398 -18.4664 0.536456 0.843737 -0.0179518
26.0397 5.45413 -18.4283 0.547582 0.83651 -0.0201026
24.9471 6.18153 -18.4329 0.559851 0.828221 -0.0248327
23.938 6.86806 -18.4297 0.567984 0.822375 -0.0329825
22.9388 7.55208 -18.5017 0.572148 0.819223 -0.0381166
21.932 8.26407 -18.5154 0.580894 0.81273 -0.0447924
20.9849 8.94685 -18.5846 0.586992 0.80837 -0.0444886
19.7926 9.83457 -18.6791 0.603933 0.795558 -0.0483285
18.7866 10.5975 -18.8353 0.611436 0.789966 -0.0456476
17.6622 11.5049 -19.0123 0.639567 0.766812 -0.0543472
16.8121 12.2226 -19.0855 0.651769 0.756195 -0.0580237
15.6854 13.2129 -19.0021 0.670255 0.738812 -0.0685945
14.7504 14.0801 -19.078 0.684118 0.725966 -0.0703075
13.8546 14.9151 -19.2006 0.6946 0.715119 -0.0769074
13.0951 15.6766 -19.1837 0.709143 0.701184 -0.073394
12.0798 16.6785 -19.41 0.724639 0.683904 -0.0825915
11.24 17.5901 -19.4374 0.736813 0.67306 -0.0629018
10.3704 18.5795 -19.4654 0.75504 0.654898 -0.0319823
10.0404 19.0403 -18.302 0.74442 0.664689 -0.0634662
9.57605 19.6572 -17.433 0.746246 0.658629 -0.0965671
8.93581 20.433 -17.0578 0.745144 0.662559 -0.0724613
7.97251 21.5006 -16.9436 0.709166 0.702934 -0.0394552
7.05421 22.4151 -16.8936 0.610818 0.787074 -0.0597468
6.1837 23.0364 -17.218 0.545369 0.835829 0.00113691
5.26849 23.5547 -17.0906 0.50661 0.859816 -0.0438046
4.01348 24.1687 -16.9099 0.409376 0.908042 -0.0887167
2.70614 24.7002 -16.9045 0.372141 0.920866 -0.116121
1.69497 25.0724 -17.0029 0.333327 0.940598 -0.0645705
0.469694 25.3727 -16.9667 0.171825 0.981209 0.0877826
-0.681813 25.4271 -16.9682 2.67524e-05 0.993587 0.113069
-1.74866 25.4054 -17.0275 -0.0736237 0.990146 0.115661
-2.83646 25.2751 -17.0966 -0.147778 0.979887 0.134078
-3.97607 24.9521 -16.9621 -0.320839 0.932808 0.159525
-4.92345 24.6566 -17.3797 -0.438653 0.875527 0.202575
-5.5911 24.4968 -18.3908 -0.454682 0.882856 0.110756
-6.30131 24.1937 -19.3969 -0.463778 0.885709 0.0172279
-7.03975 23.7774 -18.9507 -0.51021 0.859334 0.0350945
-7.24749 23.5322 -17.912 -0.5286 0.831734 0.169707
-8.0601 22.7943 -17.092 -0.519913 0.830369 0.197118
-8.94863 21.9377 -16.9569 -0.725376 0.661463 0.190394
-9.78374 20.9779 -16.9806 -0.757183 0.629782 0.173345
-10.5448 20.0281 -17.1042 -0.796498 0.586488 0.147047
-11.1597 19.2371 -17.5399 -0.818746 0.561908 0.116814
-11.5404 18.7949 -18.5092 -0.843245 0.535363 0.0482151
-12.0172 18.1384 -19.4564 -0.831889 0.554664 0.0175951
-12.6604 17.1986 -19.5049 -0.820589 0.571221 0.018468
-13.3954 16.1769 -19.5242 -0.802255 0.596647 0.0200106
-14.1549 15.1885 -19.5474 -0.782354 0.622829 0.00260337
-14.9831 14.1873 -19.3291 -0.760063 0.649845 -0.00239182
-15.8755 13.1832 -19.2836 -0.735891 0.677097 0.00194834
-16.6604 12.3506 -19.1224 -0.710312 0.703871 0.00476452
-17.4692 11.569 -18.9846 -0.68207 0.731282 -0.00215549
-18.4895 10.6486 -18.876 -0.650006 0.759868 0.00960687
-19.4507 9.83722 -18.8048 -0.632907 0.774064 0.00430977
-20.5473 8.96297 -18.6802 -0.614385 0.788818 0.0118697
-21.4984 8.2385 -18.5823 -0.60171 0.798645 0.00630712
-22.4236 7.55435 -18.4327 -0.583889 0.811719 0.0058942
-23.5275 6.78181 -18.3189 -0.568245 0.822772 0.0119803
-23.7728 6.60571 -17.8083 -0.566103 0.824291 0.00847376
-22.7223 7.3286 -17.2398 -0.57527 0.817813 0.0156745
-21.8577 7.94342 -16.9809 -0.593772 0.804499 0.0147031
-20.8302 8.70594 -16.6816 -0.613223 0.789605 0.0174123
-19.8635 9.46313 -16.2495 -0.625682 0.779584 0.0266669
-19.1346 10.0485 -15.6329 -0.647123 0.761927 0.026047
-18.3405 10.712 -14.721 -0.667374 0.744532 0.0157354
-17.6433 11.3082 -13.7355 -0.666668 0.74494 0.0248843
-17.0948 11.7664 -12.5588 -0.677985 0.734517 0.0286511
-16.8666 11.9119 -11.1832 -0.679045 0.732452 0.0478615
-16.8776 11.8103 -9.71019 -0.671918 0.738967 0.0495336
-17.1093 11.5139 -8.48536 -0.66603 0.744045 0.052249
-17.5811 11.0324 -7.51466 -0.660179 0.749357 0.0512575
-18.107 10.5369 -6.6917 -0.636341 0.770197 0.0432127
-18.7108 9.98998 -5.71073 -0.616896 0.785921 0.0417657
-19.3608 9.42924 -4.61957 -0.610538 0.790856 0.0423021
-19.7711 9.06129 -3.68755 -0.59684 0.800966 0.0468838
-20.2692 8.64475 -2.77956 -0.586418 0.809199 0.0362175
-20.8701 8.16523 -1.75725 -0.58095 0.813003 0.0390245
-21.6005 7.62203 -0.885553 -0.558859 0.828862 0.0257668
-22.3942 7.06768 -0.050398 -0.553744 0.83245 0.0198389
-22.9136 6.69341 1.03138 -0.544922 0.838061 0.0267184
-23.1956 6.47762 2.0572 -0.543705 0.838797 0.0282648
-23.6911 6.12612 3.13537 -0.535055 0.844547 0.0210423
-24.2932 5.72246 4.03751 -0.529228 0.848132 0.0239821
-25.1362 5.18978 4.62805 -0.520295 0.853788 0.0177876
-26.0686 4.62082 4.98278 -0.512545 0.858481 0.0170131
-27.2881 3.89412 5.19594 -0.507494 0.861426 0.0196941
-28.5785 3.14917 5.18833 -0.49903 0.866387 0.0184707
-29.7252 2.50879 4.7056 -0.493015 0.869821 0.0186308
-30.7256 1.95973 4.17938 -0.486857 0.873306 0.0174903
-31.6883 1.436 3.64924 -0.484221 0.87475 0.0185186
-32.7396 0.867327 3.15764 -0.480966 0.876445 0.022405
-33.0258 0.685132 4.07463 -0.485311 0.874113 0.0200122
-32.7794 0.795429 5.26148 -0.485597 0.873976 0.0190013
-32.6973 0.818095 6.3326 -0.48576 0.873899 0.0183858
-32.6188 0.838811 7.42263 -0.486526 0.873463 0.0188192
-32.4942 0.883675 8.71544 -0.486957 0.873284 0.0157016
-32.4706 0.880457 9.7941 -0.486166 0.873783 0.0120796
-32.4219 0.892421 10.8928 -0.484419 0.874766 0.011023
-32.3587 0.912912 12.0383 -0.482002 0.876094 0.0115407
-32.3832 0.884888 13.1258 -0.481719 0.876241 0.0121916
-32.3159 0.900883 14.587 -0.481187 0.87653 0.0124473
-32.4154 0.830759 15.6708 -0.482513 0.875799 0.0125163
-32.3378 0.859015 16.8291 -0.483447 0.875325 0.0091588
-31.4332 1.34575 17.9412 -0.483 0.875572 0.00913492
-30.5268 1.84555 18.2134 -0.487192 0.873257 0.00815323
-29.3869 2.4881 18.33 -0.494901 0.868883 0.0107001
-28.1326 3.20799 18.5623 -0.501048 0.86535 0.0109836
-26.9637 3.89173 18.7445 -0.509249 0.860586 0.00749627
-26.008 4.45936 18.8769 -0.514599 0.857426 0.00298571
-24.8272 5.17429 19.1159 -0.522286 0.852765 -0.00282132
-23.8674 5.77265 19.3121 -0.535109 0.84478 -0.00248379
-22.6886 6.5242 19.3409 -0.542221 0.840223 0.00470156
-21.7093 7.1588 19.4376 -0.546635 0.837352 0.0056706
-20.7364 7.79834 19.4673 -0.549336 0.835513 0.012183
-19.672 8.54778 19.4522 -0.582699 0.812645 0.00841984
-18.4342 9.45747 19.5382 -0.599073 0.800644 0.00841197
-17.4244 10.2253 19.5828 -0.613769 0.789232 0.0165601
-16.4669 10.9925 19.6031 -0.626768 0.779046 0.0158199
-15.5883 11.7287 19.5672 -0.656047 0.754593 0.0138828
-14.5094 12.6786 19.5664 -0.669718 0.742529 -0.0112938
-13.5288 13.5948 19.6019 -0.691194 0.722668 0.00123668
-12.3836 14.7758 19.5202 -0.735781 0.677217 -0.00195707
-11.5249 15.7484 19.4765 -0.761517 0.648144 0.00138182
-10.725 16.7043 19.368 -0.776865 0.629508 0.0141666
-10.0236 17.5843 19.3165 -0.79387 0.607935 0.0135912
-9.34873 18.4885 19.2481 -0.809778 0.586665 -0.00480504
-9.07888 18.8362 18.3815 -0.805771 0.592028 -0.01523
-8.72304 19.2983 17.2433 -0.810955 0.58473 -0.0205866
-8.25353 19.8997 16.2853 -0.805061 0.592726 -0.0231113
-8.73517 19.229 15.3657 -0.800977 0.598557 -0.012574
-9.07128 18.7639 14.2158 -0.799551 0.600567 -0.00101424
-9.08831 18.7382 13.0292 -0.804469 0.593994 0.00107259
-9.09651 18.7465 11.9104 -0.806718 0.590816 0.0116013
-9.15654 18.7004 10.5362 -0.832213 0.554256 0.0114898
-9.06185 18.8235 9.39566 -0.84368 0.534509 -0.0500431
-8.50137 19.4947 8.46797 -0.777777 0.617822 -0.11213
-7.67648 20.487 8.41587 -0.735673 0.662281 -0.142022
-7.00987 21.2953 8.88508 -0.693401 0.703886 -0.154075
-6.16284 22.2692 9.65903 -0.666049 0.729207 -0.156958
-5.35172 23.1128 10.461 -0.597873 0.782275 -0.167712
-4.90407 23.6175 11.3452 -0.514541 0.85116 -0.103797
-4.70125 23.813 12.3794 -0.522734 0.852066 -0.0262806
-4.70979 23.8354 13.5176 -0.527479 0.849511 -0.00958438
-4.5836 23.8876 14.5762 -0.556461 0.82826 0.065851
-4.31043 23.9376 15.8861 -0.538807 0.837066 0.0934546
-3.28396 24.5072 16.4506 -0.519227 0.846564 0.117188
-2.35635 25.024 16.7515 -0.499896 0.860383 0.0992198
-1.31001 25.5265 16.8931 -0.359859 0.932576 -0.0283383
-0.165005 25.8567 16.8868 -0.24625 0.968988 0.00664197
0.935918 26.0729 16.7893 -0.178987 0.983685 -0.00163239
2.17753 26.1679 16.8765 -0.0139763 0.998776 0.0184583
3.29131 26.1423 16.8313 0.0754388 0.995198 -0.0230191
4.35285 26.0158 16.9963 0.178639 0.981624 -0.0636516
5.21894 25.8286 17.6127 0.322832 0.943253 -0.0778016
5.66858 25.7197 18.6292 0.341083 0.93973 -0.00828741
6.09539 25.5223 19.4951 0.422874 0.90618 -0.00386111
7.20948 24.8891 19.3891 0.539886 0.841429 -0.0228047
8.14498 24.2208 19.2826 0.592506 0.803933 0.05126
8.52603 23.892 18.2047 0.664256 0.746592 -0.0369344
8.94761 23.4278 17.3455 0.692068 0.712899 -0.106823
9.51035 22.7235 16.8318 0.726751 0.67717 -0.111445
10.309 21.7649 16.722 0.780517 0.616158 -0.104061
10.5608 21.4312 16.7078 0.792182 0.601343 -0.104083
10.6386 21.517 17.7816 0.790477 0.601958 -0.113106
11.3341 20.5614 17.7918 0.811053 0.576362 -0.0999989
11.9761 19.7012 18.2575 0.839041 0.540499 -0.0613014
12.1257 19.5134 19.5374 0.827842 0.56084 -0.0116444
12.4042 19.1156 20.4643 0.824508 0.565816 -0.0046405
13.0339 18.2112 20.5394 0.814571 0.58002 -0.00593836
13.6622 17.356 20.5259 0.798962 0.601332 0.00556173
14.413 16.375 20.4657 0.783676 0.62102 0.0136568
15.4296 15.1181 20.5637 0.765603 0.643287 0.00577611
16.2442 14.1936 20.6432 0.735236 0.677807 0.00226554
17.1841 13.2008 20.6113 0.719737 0.694245 0.00178726
18.0456 12.366 20.6614 0.679972 0.733224 0.00449299
18.9446 11.5456 20.6926 0.671023 0.741265 0.0159503
19.8137 10.7952 20.649 0.634747 0.772619 0.0124663
20.918 9.89676 20.6925 0.625408 0.780276 0.00586828
21.9493 9.09452 20.7479 0.601921 0.798534 0.00586437
22.986 8.32247 20.6817 0.593167 0.805016 0.010064
23.9544 7.6184 20.6722 0.57941 0.814974 0.0100578
25.0369 6.86122 20.6311 0.56327 0.826174 0.0127727
26.0909 6.15394 20.5571 0.551138 0.834347 0.0105736
27.1361 5.46877 20.597 0.544671 0.838552 0.0128151
28.1485 4.82281 20.4517 0.531625 0.846851 0.0146556
29.06 4.25797 20.3958 0.520697 0.853636 0.0130693
30.225 3.55805 20.2755 0.509267 0.860563 0.00888577
31.3064 2.92692 20.0959 0.499262 0.866427 0.00643285
32.3394 2.33452 19.9733 0.496308 0.868119 0.00694519
33.3743 1.75354 19.7787 0.48625 0.873815 0.00301641
34.3274 1.22953 19.5493 0.480477 0.877 0.00348543
35.2001 0.758406 18.8596 0.476597 0.879085 0.00773964
35.8382 0.422661 18.073 0.46561 0.88499 -0.000344186
36.1501 0.262413 16.9554 0.470532 0.882346 0.00761875
35.9937 0.337433 15.6297 0.485456 0.87398 -0.0182318
35.708 0.488679 14.5305 0.486027 0.87393 -0.0017866
35.3323 0.701189 13.4533 0.487027 0.873383 0.00249337
34.9364 0.924991 12.3297 0.485156 0.874425 0.00164404
34.5227 1.15561 11.1928 0.487604 0.873064 -0.000600376
33.9556 1.46937 9.75279 0.487125 0.873329 -0.00234366
33.5328 1.69922 8.73405 0.493187 0.869901 -0.00627235
32.8087 2.10368 7.92119 0.496929 0.867765 -0.00628649
31.9566 2.59093 7.32071 0.503934 0.863702 -0.00775681
30.9812 3.1596 6.70732 0.510016 0.860135 -0.00606556
30.0138 3.73341 6.2872 0.512119 0.858871 -0.00858695
28.9113 4.40344 5.88245 0.526407 0.850188 -0.00867618
28.0195 4.95667 5.7351 0.530073 0.847915 -0.00694555
27.1212 5.52018 5.35483 0.539868 0.841657 -0.0124849
26.1476 6.15297 5.07717 0.554715 0.831958 -0.011609
25.0788 6.86483 4.72237 0.562826 0.826507 -0.00991928
24.1598 7.48959 4.34945 0.571481 0.820477 -0.0124889
23.3265 8.07556 4.0294 0.585481 0.810566 -0.0108145
22.2219 8.89362 3.66243 0.607672 0.794123 -0.0102202
21.2809 9.61248 3.26651 0.611761 0.79095 -0.0121128
20.4158 10.2976 2.73963 0.62852 0.777762 -0.00694153
19.8953 10.7265 1.78276 0.644486 0.764594 0.00579903
19.4319 11.1269 0.526077 0.649011 0.760756 0.00591373
18.8788 11.6179 -0.950124 0.667591 0.744507 -0.00556524
18.5245 11.9265 -1.96357 0.685505 0.727789 -0.017369
18.3009 12.1043 -3.35781 0.679565 0.733304 -0.0205475
18.1019 12.2761 -4.60433 0.700227 0.713664 -0.0182373
17.993 12.3279 -5.88366 0.705587 0.708059 -0.0282175
17.908 12.3549 -7.0216 0.699471 0.713141 -0.0465798
17.8946 12.3037 -8.2045 0.697811 0.71546 -0.0342928
18.0703 12.0537 -9.34765 0.686143 0.725242 -0.0568413
18.4116 11.6642 -10.3015 0.668224 0.741988 -0.0541445
18.8585 11.1791 -11.3492 0.652551 0.755753 -0.0549106
19.4656 10.6102 -11.9964 0.642086 0.764932 -0.0510311
20.3347 9.85273 -12.379 0.635111 0.770137 -0.0587729
21.3665 9.01164 -12.6031 0.615177 0.786642 -0.0511456
22.2214 8.36572 -12.455 0.607249 0.792922 -0.0502396
23.0679 7.75489 -12.1986 0.586888 0.808616 -0.0412619
23.9189 7.17168 -11.7301 0.58204 0.812267 -0.0380978
24.8577 6.55602 -10.8427 0.569447 0.821324 -0.0339658
25.5863 6.0902 -9.82804 0.566194 0.823536 -0.0343441
26.1724 5.73757 -8.98761 0.551971 0.833142 -0.0346906
26.9094 5.29056 -7.94723 0.545814 0.837256 -0.0329236
27.6598 4.83907 -7.0857 0.540604 0.84089 -0.0255319
28.402 4.39799 -6.24851 0.530585 0.847075 -0.0306275
29.0612 4.0198 -5.42432 0.528516 0.848248 -0.0338475
29.9536 3.50464 -4.54238 0.522292 0.852115 -0.0333393
30.7522 3.04332 -3.87343 0.519202 0.854101 -0.0306629
31.6196 2.54811 -3.31934 0.505708 0.862082 -0.0327705
32.4279 2.0965 -2.68607 0.502087 0.864292 -0.0300603
33.3473 1.58583 -2.14106 0.494446 0.868688 -0.0298077
34.2139 1.10968 -1.74149 0.492259 0.869981 -0.0285214
34.4032 0.984848 -2.31914 0.488677 0.871979 -0.0290157
33.7933 1.29686 -3.20946 0.491032 0.870544 -0.0322186
33.0952 1.65531 -4.30509 0.497523 0.86684 -0.0325221
32.6669 1.86109 -5.30103 0.498307 0.866274 -0.0354855
32.3162 2.01959 -6.40634 0.501874 0.864416 -0.0299963
32.0767 2.1147 -7.55935 0.499791 0.865377 -0.0364986
32.11 2.04762 -8.6759 0.499106 0.865642 -0.0394577
32.2984 1.88214 -9.99783 0.492936 0.869255 -0.0375494
32.8484 1.51458 -11.2864 0.493431 0.869002 -0.0368848
33.3359 1.20807 -12.2944 0.48805 0.872599 -0.0194702
33.7427 0.954114 -13.342 0.479155 0.877373 -0.0250611
34.2709 0.620332 -14.6346 0.47614 0.878486 -0.0385639
34.6025 0.385033 -15.7577 0.499563 0.865387 -0.0392666
34.7284 0.270688 -16.8594 0.495612 0.868126 -0.0269452
34.2833 0.495825 -17.848 0.489781 0.871579 -0.0215654
33.3283 1.02077 -18.47 0.49364 0.869512 -0.0158692
32.2964 1.60418 -18.9095 0.498384 0.866822 -0.0152646
31.2519 2.20968 -19.1374 0.512931 0.85831 -0.0143733
30.1014 2.89435 -19.377 0.514179 0.857527 -0.0162808
28.8529 3.65066 -19.4887 0.526522 0.849967 -0.0181593
27.7088 4.36587 -19.4533 0.533311 0.845749 -0.0169885
26.7242 4.98877 -19.4815 0.536715 0.843572 -0.0179859
25.7526 5.61655 -19.4854 0.547784 0.836368 -0.0205089
24.6505 6.35134 -19.4428 0.559456 0.828476 -0.025223
23.6513 7.0218 -19.5319 0.55721 0.82999 -0.0251858
22.4556 7.84122 -19.5528 0.572915 0.818708 -0.0381035
21.2276 8.71703 -19.6027 0.58733 0.808448 -0.0380069
20.3317 9.37513 -19.6624 0.60117 0.798228 -0.0377769
19.4107 10.0659 -19.7179 0.600543 0.798679 -0.0382075
18.5532 10.7245 -19.8592 0.622892 0.78147 -0.0361947
17.6842 11.4177 -20.0468 0.630558 0.774584 -0.0483937
16.8402 12.1186 -20.1558 0.650235 0.757778 -0.0544803
15.9441 12.8935 -20.0602 0.650165 0.756457 -0.0711254
15.0192 13.7186 -20.1521 0.684058 0.725534 -0.0752072
14.0726 14.6092 -20.1893 0.684008 0.725846 -0.0726695
13.2537 15.4157 -20.2097 0.711381 0.700393 -0.0572498
12.3603 16.3081 -20.4442 0.715749 0.697268 -0.0389994
11.5333 17.187 -20.4903 0.744982 0.665855 -0.0404821
10.6925 18.1478 -20.5236 0.758954 0.649574 -0.0451958
9.89924 19.0826 -20.5321 0.763268 0.64569 -0.0224958
9.51259 19.5567 -19.7853 0.756532 0.653874 -0.00907747
9.47831 19.6337 -18.7153 0.74038 0.670906 -0.0415208
8.89869 20.3654 -17.9881 0.781112 0.618473 -0.0776058
8.12163 21.3118 -17.9701 0.750431 0.66091 -0.0072197
7.39894 22.1088 -17.9009 0.729 0.681665 0.0618122
6.49471 22.9154 -18.0871 0.54732 0.825986 0.134863
5.95762 23.2642 -19.0862 0.404903 0.914326 0.00782405
6.07941 23.2107 -19.9145 0.394379 0.91894 -0.00378507
5.72002 23.3731 -19.3229 0.403418 0.914923 -0.0130547
5.42717 23.4901 -18.3658 0.421868 0.906331 0.0243059
4.39968 23.917 -17.9948 0.377921 0.925182 -0.0255473
3.36264 24.323 -17.8517 0.355297 0.930507 -0.0848688
2.25449 24.7858 -17.943 0.410741 0.90962 -0.0619871
1.08686 25.2777 -17.9396 0.369198 0.92863 0.0337183
-0.0677433 25.5289 -17.9808 0.0706163 0.991091 0.105468
-1.26727 25.5204 -17.9462 -0.0390233 0.990894 0.128864
-2.48586 25.4142 -18.0373 -0.115587 0.989479 0.0866571
-3.6327 25.222 -17.9428 -0.177338 0.976424 0.121548
-4.64818 24.9631 -18.4124 -0.424419 0.898309 0.112791
-5.0941 24.7979 -19.6523 -0.435873 0.899087 0.0372818
-5.66224 24.5324 -20.4283 -0.437229 0.899332 0.00576725
-6.95179 23.8643 -20.5074 -0.472143 0.881457 0.0100361
-7.89778 23.3161 -20.1803 -0.512759 0.858524 -0.00393419
-7.89328 23.2969 -19.0848 -0.517487 0.853203 0.065208
-8.18989 22.9782 -18.1063 -0.470434 0.842698 0.261825
-8.95606 22.2098 -17.9371 -0.719585 0.6668 0.193844
-9.70133 21.3557 -17.9685 -0.761596 0.623755 0.175786
-10.4654 20.3534 -17.9548 -0.804666 0.571694 0.160243
-11.0136 19.6379 -18.4625 -0.853706 0.515163 0.0761122
-11.1199 19.5371 -19.5819 -0.849458 0.52735 0.0179644
-11.498 18.9558 -20.4767 -0.8423 0.538962 0.00633284
-12.145 17.972 -20.5192 -0.830105 0.557586 0.00475624
-12.9199 16.8415 -20.5451 -0.822116 0.569318 0.00127929
-13.6803 15.7959 -20.4935 -0.795209 0.60603 0.00414451
-14.5383 14.7012 -20.5235 -0.777668 0.62797 -0.0212113
-15.6589 13.4215 -20.3383 -0.744277 0.667723 0.00533224
-16.3931 12.6351 -20.2023 -0.728441 0.684991 0.0126635
-17.1686 11.8551 -20.072 -0.700092 0.713958 0.0116228
-18.0804 11.0088 -19.9683 -0.664668 0.747089 0.00864268
-19.0104 10.2107 -19.8592 -0.642181 0.766551 -0.00174107
-19.8636 9.51299 -19.8121 -0.624433 0.781047 -0.00703961
-20.8755 8.72139 -19.6159 -0.606537 0.79505 -0.00285242
-21.8855 7.95966 -19.5243 -0.597189 0.802091 -0.0040803
-22.8102 7.28955 -19.4438 -0.575307 0.81793 3.7241e-05
-23.6941 6.66961 -19.2982 -0.5681 0.822955 0.00176224
-24.5331 6.09494 -18.8865 -0.553419 0.832898 -0.00293124
-25.3682 5.53608 -18.1105 -0.549266 0.835604 0.00419361
-24.8134 5.89759 -17.0322 -0.554705 0.832024 0.00611114
-23.6038 6.70813 -16.6304 -0.565635 0.824581 0.0111266
-22.3979 7.54235 -16.1701 -0.58176 0.813231 0.0145273
-21.3211 8.3203 -15.7299 -0.595356 0.803346 0.0136125
-20.194 9.16579 -15.2861 -0.607514 0.794187 0.0139082
-19.4231 9.77514 -14.6292 -0.642481 0.766051 0.019572
-18.8028 10.2865 -13.9165 -0.650187 0.759561 0.017986
-18.1502 10.8287 -12.9596 -0.666619 0.744989 0.0246934
-17.7246 11.1732 -11.821 -0.668857 0.742515 0.034326
-17.608 11.2028 -10.5791 -0.670922 0.740196 0.0444022
-17.6394 11.118 -9.49967 -0.652117 0.757087 0.0395326
-17.9824 10.7509 -8.51202 -0.648272 0.759502 0.0529721
-18.4793 10.2855 -7.68616 -0.62798 0.777071 0.0419014
-19.144 9.70286 -6.70768 -0.621056 0.782647 0.0418756
-19.8448 9.10969 -5.62704 -0.609563 0.791702 0.0404458
-20.3119 8.7148 -4.72016 -0.593615 0.803923 0.0364473
-20.7779 8.31743 -3.66742 -0.588293 0.807545 0.0413799
-21.3069 7.89045 -2.69055 -0.57975 0.813737 0.041507
-22.0329 7.34948 -1.79534 -0.564552 0.825097 0.0212778
-22.9206 6.74625 -0.945289 -0.54632 0.837368 0.0186836
-23.4934 6.35008 -0.108766 -0.545652 0.837677 0.023705
-23.7607 6.14071 1.12699 -0.534436 0.844875 0.023767
-24.1495 5.8591 2.17267 -0.535333 0.84441 0.0197754
-24.6843 5.50554 3.09853 -0.527878 0.849232 0.012275
-25.5015 4.98942 3.74747 -0.519224 0.854339 0.0226124
-26.3701 4.46099 4.08791 -0.508878 0.860656 0.0177376
-27.3258 3.89713 4.15215 -0.50532 0.862845 0.0122431
-28.2602 3.35534 4.14024 -0.498394 0.866739 0.019131
-29.3711 2.73209 3.65649 -0.492825 0.869925 0.0188222
-30.3753 2.17403 3.26584 -0.488061 0.872633 0.0175397
-31.4548 1.58575 2.64786 -0.4844 0.874695 0.0162952
-32.3657 1.09447 2.12948 -0.48217 0.875926 0.0162338
-33.5205 0.4736 1.98911 -0.471787 0.881504 0.0191773
-33.9008 0.225154 3.18011 -0.499483 0.865502 0.037734
-33.821 0.230625 4.43269 -0.501689 0.864969 0.0116772
-33.5807 0.340501 5.59188 -0.489888 0.871582 0.01883
-33.5612 0.32589 6.81279 -0.490963 0.871009 0.0172946
-33.452 0.364397 7.89987 -0.48382 0.874964 0.0186086
-33.387 0.376127 9.44509 -0.488656 0.872423 0.00810513
-33.3252 0.395123 10.8321 -0.485077 0.874448 0.0064621
-33.2177 0.441443 11.9938 -0.481299 0.876472 0.0121841
-33.3063 0.375888 13.2214 -0.48164 0.87629 0.0117894
-33.3157 0.353792 14.4883 -0.481067 0.876581 0.0133567
-33.3884 0.295133 15.5662 -0.484624 0.874622 0.0132725
-33.3268 0.312397 16.7586 -0.484934 0.874482 0.0105638
-32.9801 0.495885 17.8145 -0.479156 0.877683 -0.00903347
-32.1477 0.946588 18.6893 -0.481225 0.876573 0.00652526
-31.147 1.4921 19.1863 -0.484233 0.874895 0.00879852
-29.9517 2.15805 19.3199 -0.491087 0.871081 0.00639662
-28.7751 2.82284 19.5008 -0.497979 0.867117 0.011181
-27.7492 3.41969 19.5899 -0.507291 0.861747 0.006952
-26.7585 4.00353 19.8769 -0.513377 0.858145 0.00555507
-25.6634 4.6582 20.0395 -0.51997 0.854148 0.00368859
-24.7121 5.24575 20.2006 -0.525608 0.850726 0.00127556
-23.556 5.96844 20.3602 -0.532592 0.84637 0.00165062
-22.5229 6.62505 20.3103 -0.541536 0.840648 0.00691616
-21.336 7.39483 20.4278 -0.546901 0.837169 0.00688297
-20.4159 8.01681 20.4674 -0.568497 0.822641 0.00851963
-19.4496 8.69775 20.5099 -0.586372 0.810024 0.00537555
-18.3487 9.50457 20.5614 -0.596671 0.802379 0.0130723
-17.2511 10.3476 20.5908 -0.621504 0.783178 0.0190947
-16.1988 11.2011 20.6268 -0.640456 0.767778 0.0182496
-15.067 12.171 20.6132 -0.663344 0.748293 0.00568112
-14.1488 13.005 20.5984 -0.689359 0.724415 -0.00276795
-13.2074 13.9205 20.5883 -0.710313 0.703799 -0.0110471
-12.363 14.8018 20.5032 -0.735333 0.677703 -0.00216194
-11.4882 15.788 20.5234 -0.758369 0.65182 -0.00268236
-10.6656 16.7652 20.4695 -0.768932 0.639323 0.00318224
-9.99523 17.5935 20.4335 -0.801584 0.597602 0.0182946
-9.34471 18.4922 20.3971 -0.813706 0.581275 0.00156392
-8.71595 19.3763 20.329 -0.815486 0.578776 -0.000229382
-8.55206 19.6028 19.2983 -0.81663 0.577149 -0.00393778
-8.47126 19.6926 18.132 -0.825353 0.564363 -0.0169439
-7.83858 20.508 17.3097 -0.800128 0.599016 -0.030735
-7.59535 20.7732 16.1656 -0.794699 0.606475 -0.0244579
-7.91213 20.3219 15.1679 -0.800423 0.599375 -0.00851586
-8.38141 19.6799 14.393 -0.792506 0.609863 -0.00149808
-8.50117 19.5347 13.318 -0.806656 0.591022 0.00014706
-8.51454 19.5638 12.2534 -0.823102 0.566536 0.039233
-8.57778 19.5482 11.1611 -0.83603 0.546815 0.0452386
-8.63295 19.534 9.95679 -0.864486 0.501813 0.00864628
-8.19617 20.0967 9.21206 -0.747361 0.634093 -0.195378
-7.50203 20.9941 9.74011 -0.720949 0.671244 -0.172191
-6.92634 21.7169 10.3099 -0.680135 0.702955 -0.208017
-6.25912 22.5263 10.8985 -0.640091 0.735592 -0.219762
-5.6775 23.211 11.7291 -0.455697 0.870494 -0.128524
-5.5483 23.3002 12.8878 -0.532655 0.845539 0.0281943
-5.43856 23.3258 14.2187 -0.560371 0.826827 0.047766
-5.34499 23.3004 15.3256 -0.561697 0.824832 0.064406
-5.23927 23.2985 16.39 -0.527314 0.84807 0.0521146
-4.82797 23.4965 17.074 -0.493241 0.866855 0.0726299
-3.91838 24.0059 17.1805 -0.514877 0.846976 0.132417
-2.90373 24.5535 17.6626 -0.541419 0.830828 0.125875
-1.96098 25.1589 17.8755 -0.55043 0.831667 0.0731959
-0.981432 25.717 17.8787 -0.267284 0.952848 -0.143663
0.304812 25.963 17.8413 -0.144643 0.988445 -0.0257355
1.41542 26.0921 17.8238 -0.0884936 0.996012 0.0113753
2.48897 26.1521 17.873 -0.0428974 0.999036 0.00919917
3.73114 26.144 17.8561 0.0730063 0.996545 -0.0396009
4.67469 26.0499 18.3812 0.325474 0.944876 -0.0357078
4.7851 26.0209 19.5446 0.314804 0.949142 -0.00531405
5.27218 25.8282 20.4197 0.374551 0.925838 0.0483478
6.73857 25.1475 20.5149 0.482658 0.874479 -0.00448479
7.83435 24.4925 20.3996 0.618549 0.785088 -0.0318685
8.94551 23.582 20.3601 0.65689 0.753374 -0.0303668
9.18325 23.3476 19.4602 0.649194 0.760622 0.00028146
9.252 23.2701 18.3855 0.635061 0.769908 -0.0588153
9.79758 22.5885 17.8113 0.763645 0.631985 -0.131354
10.5558 21.6265 17.7853 0.790476 0.601959 -0.113104
-0.208604 25.9388 3.37335 -0.349883 0.934233 -0.0488228
-0.190269 25.806 1.98078 -0.375195 0.92213 -0.0943669
-0.0356813 25.8011 0.857058 -0.348836 0.933949 -0.0744086
0.141446 25.7604 -0.168259 -0.324587 0.942057 -0.0806327
0.52635 25.8024 -1.37982 -0.280349 0.958196 -0.0571475
1.41653 25.8846 -2.41395 -0.150431 0.982609 -0.106471
2.33756 25.8616 -3.3239 0.02823 0.993127 -0.111945
3.42334 25.6913 -3.94992 0.176855 0.976354 -0.124322
4.43465 25.4319 -4.30049 0.265241 0.959308 -0.0968304
5.44414 25.0605 -4.50402 0.392459 0.915013 -0.0934158
6.42963 24.5828 -4.68536 0.451003 0.888871 -0.0806551
7.41493 24.0041 -4.43191 0.536827 0.832665 -0.135962
8.22852 23.4576 -4.07022 0.645406 0.75208 -0.133513
9.0739 22.8434 -3.36351 0.660502 0.73953 -0.129463
9.67688 22.3557 -2.63501 0.704191 0.703391 -0.0967253
10.3047 21.6636 -1.54587 0.777266 0.628886 -0.0189603
10.7676 21.101 -0.540107 0.800882 0.598649 -0.00571087
11.0441 20.749 0.470571 0.810407 0.585544 0.003193
11.3759 20.2519 1.4894 0.809588 0.586664 0.0198234
11.5809 19.8793 2.40621 0.819533 0.570023 0.0585341
11.6893 19.5888 3.52223 0.824859 0.561983 0.0615075
11.6523 19.4966 4.60671 0.821174 0.565026 0.0801202
11.9105 19.0374 5.68767 0.793531 0.60633 0.0516927
12.0684 18.7379 6.88173 0.780565 0.623482 0.044595
12.0012 18.7693 7.92458 0.78839 0.614711 0.0238865
12.0066 18.7626 9.03353 0.775584 0.63114 -0.0114837
11.9918 18.8111 10.0629 0.774393 0.631971 -0.030472
11.8779 19.0071 11.1608 0.768238 0.639511 -0.0262297
11.4607 19.6178 12.1233 0.792288 0.606441 -0.067017
10.9229 20.3947 12.6559 0.800129 0.59601 -0.0675747
10.4108 21.1431 13.1583 0.800634 0.59465 -0.0731645
9.81698 21.9887 13.7706 0.783583 0.617963 -0.0641783
9.22169 22.7575 14.0687 0.768051 0.637749 -0.0580923
8.56071 23.5048 13.8415 0.726183 0.686161 -0.0429195
8.02159 23.9745 13.0136 0.645381 0.760385 -0.0481565
7.81406 24.1822 11.64 0.648589 0.760149 0.03881
7.04372 24.8243 11.9695 0.583213 0.806696 0.0291534
6.15912 25.3286 12.4061 0.471233 0.876841 0.078295
5.18089 25.7677 12.7605 0.375987 0.922793 0.0279026
4.06842 26.1058 13.021 0.209099 0.973541 0.0289842
3.03707 26.2286 13.1218 0.119334 0.992225 0.0353351
1.74287 26.2233 12.9341 -0.0971241 0.995256 0.00571174
0.622179 26.1133 12.1982 -0.150467 0.988008 0.0346436
-0.109332 25.9346 11.3724 -0.227801 0.971009 0.0259676
-0.536848 25.8329 10.4527 -0.34365 0.938662 0.02861
-0.671953 25.7785 9.43457 -0.352185 0.935758 -0.0179827
-0.247184 25.9928 8.02911 -0.398571 0.916543 0.0330148
0.12325 26.1551 6.83414 -0.354758 0.934934 -0.00670787
0.2547 26.1952 5.8381 -0.308665 0.950007 -0.0454379
-0.0318068 26.0042 4.45219 -0.356821 0.933137 -0.0173043
-0.190155 25.947 3.54408 -0.321624 0.946807 -0.0107443
0.768832 26.2427 3.53328 -0.274388 0.960879 -0.0318036
1.07241 26.3975 4.82754 -0.308221 0.949781 -0.0538296
1.27495 26.538 6.07459 -0.308668 0.950006 -0.0454365
1.07046 26.4812 7.05455 -0.254676 0.966945 0.0122515
0.696511 26.3429 8.31361 -0.298179 0.952779 0.0574588
0.368228 26.2042 9.26058 -0.287024 0.957583 0.0255211
0.61628 26.1755 10.7332 -0.239455 0.966498 0.0924306
1.36167 26.2476 11.5503 -0.13546 0.983281 0.121696
2.50842 26.3318 12.1463 -0.135301 0.983296 0.121749
3.72399 26.1778 12.0137 0.135344 0.988115 0.0630574
4.75602 25.9384 11.7804 0.287602 0.956875 0.0409379
5.92634 25.5324 11.4113 0.425305 0.899257 0.063181
6.84467 25.0227 10.9026 0.578267 0.811167 0.0433473
7.60266 24.4322 10.4721 0.644012 0.762783 0.0544578
8.22007 23.9049 9.75914 0.721667 0.690496 0.0475619
8.62212 23.4462 10.2196 0.750512 0.659233 0.0462854
8.57971 23.4195 11.4197 0.731998 0.680556 0.029198
8.61106 23.382 12.6199 0.742005 0.669471 -0.00823406
9.1245 22.7967 13.1568 0.77257 0.633536 -0.0420324
9.7205 22.0106 12.7697 0.785143 0.616849 -0.0551955
10.3033 21.1626 12.0579 0.803122 0.591943 -0.0677941
10.7868 20.4466 11.5494 0.802084 0.592258 -0.0767594
11.2839 19.6947 10.7757 0.767752 0.63886 -0.0422523
11.3738 19.5644 9.69535 0.782673 0.622218 -0.0163789
11.3865 19.5465 8.45636 0.791937 0.610455 0.0134484
11.4382 19.5093 7.37521 0.783766 0.620638 0.0220985
11.3985 19.6067 6.34387 0.771789 0.631895 0.071064
10.9388 20.3328 5.8337 0.84285 0.52296 0.126953
10.7425 20.6343 5.88071 0.838229 0.537376 0.0927224
11.0341 20.3549 4.90858 0.832111 0.546618 0.0934664
11.166 20.3355 3.71249 0.828544 0.554844 0.0747398
10.9884 20.7188 2.57779 0.828832 0.556657 0.0563096
10.7277 21.1497 1.63832 0.813513 0.581122 0.0222368
10.3913 21.6386 0.641707 0.799778 0.599862 -0.0218634
9.95092 22.1597 -0.517216 0.781509 0.621918 -0.0496221
9.52918 22.5883 -1.39719 0.736616 0.675967 -0.0215913
8.95829 23.0951 -2.22927 0.681503 0.727617 -0.0781835
8.26471 23.6106 -2.99967 0.615755 0.774369 -0.132783
7.24104 24.2532 -3.47011 0.533219 0.839031 -0.107787
6.22989 24.7957 -3.72825 0.441065 0.886016 -0.142956
5.2391 25.2872 -3.41369 0.401674 0.907796 -0.120537
4.22309 25.6546 -3.12902 0.286029 0.944674 -0.160555
3.18796 25.8929 -2.71733 0.149663 0.981494 -0.119462
2.39127 26.0151 -2.07295 0.0599839 0.99278 -0.103874
1.72156 26.064 -1.24679 -0.114622 0.988643 -0.0971987
1.13149 26.036 -0.0360346 -0.247549 0.963403 -0.0885025
0.866547 26.1211 1.08718 -0.189309 0.977897 -0.0879989
0.710761 26.1371 2.26282 -0.322613 0.942887 -0.0722386
0.771475 26.2269 3.21526 -0.265171 0.962916 -0.0497675
-17.6489 11.3894 -17.3407 -0.678045 0.734908 0.0128558
-18.0394 11.0137 -16.6076 -0.666655 0.74519 0.0162212
-17.5553 11.4473 -15.9379 -0.685582 0.727925 0.010094
-17.0459 11.951 -16.9078 -0.700284 0.713716 0.0145446
-16.8369 12.1644 -17.3161 -0.70013 0.713873 0.0142437
-15.9422 13.0763 -17.5258 -0.726271 0.687319 0.0110677
-16.395 12.5875 -16.596 -0.717264 0.696362 0.0247539
-17.0404 11.9238 -15.3322 -0.691874 0.721917 0.0121152
-17.0745 11.8908 -15.2684 -0.686389 0.727112 0.0133288
-16.6464 12.272 -14.4947 -0.697201 0.716152 0.0322012
-16.157 12.7882 -15.4613 -0.717382 0.696058 0.0294326
-15.7142 13.2803 -16.3743 -0.724375 0.688764 0.0297519
-15.2462 13.8174 -17.3781 -0.740399 0.671946 0.0172388
-15.0948 14.0038 -17.7279 -0.749149 0.661788 0.0284901
-14.3258 14.9193 -17.8549 -0.774141 0.632273 0.0306077
-14.7492 14.3682 -16.8432 -0.763212 0.644955 0.0392474
-15.2215 13.786 -15.79 -0.736929 0.675006 0.0360772
-15.674 13.2582 -14.8307 -0.716573 0.69685 0.0303748
-16.2236 12.6543 -13.7215 -0.700261 0.713331 0.0281746
-16.2423 12.6344 -13.6845 -0.703815 0.709041 0.0436417
-15.798 13.0261 -12.9408 -0.70051 0.711929 0.0494243
-15.2938 13.6099 -13.9913 -0.723053 0.69012 0.0304774
-14.8532 14.1358 -14.9334 -0.740358 0.671031 0.0398406
-14.3765 14.7539 -16.0259 -0.762051 0.645796 0.0471703
-13.9712 15.3138 -17.015 -0.783428 0.620134 0.0409164
-13.6399 15.7807 -17.8549 -0.796221 0.603494 0.0427479
-13.1209 16.4393 -17.4562 -0.797728 0.601606 0.0412237
-13.5732 15.746 -16.2605 -0.776426 0.627817 0.0548487
-14.0789 15.0251 -15.0189 -0.762703 0.644322 0.0559732
-14.5115 14.4553 -14.0273 -0.740493 0.670559 0.0449541
-15.0114 13.8516 -12.9557 -0.723871 0.688394 0.0460936
-15.4606 13.3264 -12.0115 -0.713791 0.699298 0.0385356
-15.5517 13.2219 -11.8217 -0.707715 0.704815 0.048735
-15.6146 13.0206 -10.0412 -0.68918 0.722483 0.055216
-15.0935 13.6338 -11.1262 -0.708664 0.703476 0.0539995
-14.6317 14.1857 -12.1091 -0.719928 0.691942 0.0540402
-14.2045 14.7278 -13.0508 -0.744012 0.664608 0.0688672
-13.7793 15.2944 -14.0216 -0.764572 0.64184 0.0589214
-13.3562 15.9114 -15.0634 -0.779069 0.623769 0.0629576
-12.9954 16.4591 -15.9856 -0.789475 0.610454 0.0638381
-12.5755 17.1392 -17.1262 -0.80836 0.585986 0.0563443
-12.3823 17.4667 -17.6823 -0.810687 0.582025 0.0635109
-11.9457 18.0164 -17.0745 -0.810792 0.579025 0.0857151
-12.3655 17.281 -15.8799 -0.800041 0.596146 0.0674104
-12.7294 16.6794 -14.9029 -0.786796 0.61208 0.0794383
-13.1485 16.0346 -13.8335 -0.764765 0.640626 0.0687938
-13.5893 15.3944 -12.7677 -0.754592 0.652911 0.0655593
-14.0065 14.8265 -11.8049 -0.733539 0.675984 0.0704698
-14.4934 14.2162 -10.7384 -0.721957 0.688827 0.0655426
-14.9641 13.6388 -9.73011 -0.705946 0.705201 0.0658195
-15.4125 13.1137 -8.80029 -0.692995 0.718843 0.0549829
-15.8959 12.5693 -7.81135 -0.693503 0.718174 0.0572637
-16.357 12.0743 -6.89226 -0.674189 0.735609 0.0659478
-16.8401 11.5668 -5.95936 -0.6642 0.745884 0.0499558
-17.3559 11.048 -5.00795 -0.645273 0.760939 0.0677889
-17.8725 10.5708 -4.07903 -0.629257 0.775341 0.0536819
-18.6184 9.88368 -2.75236 -0.61117 0.789847 0.0511177
-19.2162 9.36997 -1.72738 -0.59852 0.800444 0.0326076
-19.7791 8.91282 -0.779735 -0.593016 0.804638 0.029843
-20.4734 8.36144 0.372031 -0.57937 0.814603 0.0274212
-21.1636 7.84256 1.49315 -0.560786 0.827509 0.027343
-21.793 7.38272 2.48562 -0.561052 0.827307 0.0280045
-22.2666 7.04498 3.22133 -0.550304 0.834725 0.0200001
-31.2034 1.66097 5.77023 -0.486382 0.873544 0.0187846
-31.2639 1.62552 5.8511 -0.486382 0.873544 0.0187846
-30.3729 2.11748 6.08426 -0.487744 0.872787 0.0186854
-31.1356 1.67111 7.10647 -0.487574 0.872905 0.0175832
-31.0594 1.68789 8.44446 -0.486314 0.873632 0.0163224
-30.1491 2.22191 7.21087 -0.488611 0.872345 0.0165577
-29.6663 2.50349 6.5625 -0.493144 0.869821 0.0148289
-28.8168 2.97973 6.84275 -0.49317 0.869761 0.0173082
-29.5919 2.52157 7.89554 -0.492009 0.870396 0.0183881
-30.4856 1.99543 9.10895 -0.48698 0.873266 0.0160413
-31.128 1.62272 9.97441 -0.4855 0.874115 0.0145792
-30.927 1.71632 11.1453 -0.485904 0.873913 0.0132113
-30.0642 2.21619 9.98238 -0.489237 0.87204 0.0138935
-29.227 2.71034 8.83946 -0.49277 0.870002 0.016571
-28.4022 3.19922 7.71277 -0.493367 0.869711 0.0138771
-27.758 3.58453 6.8267 -0.502277 0.864533 0.0173146
-26.5686 4.29003 6.60309 -0.513983 0.857642 0.0164605
-27.4541 3.74292 7.85174 -0.50377 0.863737 0.0132309
-28.2489 3.26674 8.94845 -0.498161 0.866975 0.0137699
-29.2205 2.68857 10.282 -0.49675 0.867761 0.0151775
-29.9617 2.25426 11.2841 -0.488762 0.872346 0.0111589
-30.9086 1.70567 12.5638 -0.485707 0.874031 0.0126371
-30.9874 1.66078 12.6693 -0.48323 0.875404 0.0125017
-30.9394 1.66681 14.0424 -0.483218 0.875415 0.0121963
-30.2014 2.09286 13.055 -0.488249 0.872565 0.0156013
-29.2306 2.66237 11.7346 -0.491693 0.870683 0.012158
-28.2864 3.22195 10.4504 -0.498971 0.866522 0.0129291
-27.2806 3.82631 9.06181 -0.502567 0.864456 0.011976
-26.5208 4.29192 8.00204 -0.512607 0.858519 0.0133809
-25.6596 4.83106 6.7666 -0.512962 0.858261 0.0160574
-25.3198 5.04384 6.2784 -0.515135 0.856853 0.0209543
-23.8005 5.99982 5.53809 -0.533013 0.845837 0.0213875
-24.5361 5.51388 6.62379 -0.526146 0.850156 0.0201345
-25.293 5.03424 7.71694 -0.514222 0.85753 0.0147814
-26.0334 4.57053 8.77983 -0.514816 0.857133 0.0169252
-26.9723 3.99207 10.0904 -0.507502 0.861594 0.00985333
-27.7168 3.54313 11.1179 -0.502775 0.864295 0.0145161
-28.6521 2.98565 12.3969 -0.498031 0.867086 0.0112959
-29.398 2.54199 13.4125 -0.496497 0.86795 0.0123694
-30.1525 2.101 14.4234 -0.493276 0.869824 0.00921675
-30.9786 1.62597 15.5222 -0.485787 0.874036 0.00849946
-30.3931 1.94742 16.1746 -0.489492 0.87197 0.00807755
