-6.15119 23.5125 9.90123 -0.576209 0.810727 -0.103465
-6.80485 22.879 9.11787 -0.634393 0.755872 -0.161777
-7.5111 22.1315 8.46892 -0.68245 0.718914 -0.130808
-8.12019 21.3911 7.89723 -0.740624 0.659362 -0.1293
-8.7378 20.6044 7.42834 -0.753179 0.648006 -0.112604
-9.49596 19.6504 7.36077 -0.783174 0.615073 -0.0912326
-10.0403 18.9537 7.98548 -0.806305 0.590383 -0.0363169
-10.2422 18.6866 9.09126 -0.817106 0.576475 0.00349732
-10.2153 18.6718 10.1519 -0.814568 0.578077 0.0480242
-10.1188 18.7368 11.4224 -0.814783 0.579261 0.0220366
-10.1012 18.7288 12.5354 -0.799257 0.600537 -0.0178363
-9.94295 18.9415 13.7656 -0.798937 0.601408 0.00293898
-9.47246 19.5813 14.6825 -0.802838 0.596063 -0.012537
-8.88395 20.3855 15.3213 -0.803674 0.594955 -0.0116864
-8.47311 20.9656 16.2396 -0.803825 0.594567 -0.0187156
-8.92454 20.3856 16.9502 -0.800128 0.59876 -0.0357874
-9.56462 19.5416 17.3483 -0.807976 0.588811 -0.0207785
-10.0153 18.9502 18.1748 -0.804706 0.593241 -0.0226758
-10.2867 18.6057 19.2208 -0.797661 0.603078 0.00582828
-10.9664 17.7189 19.337 -0.783067 0.621872 0.00898127
-11.6642 16.8413 19.3987 -0.77459 0.632357 0.00556835
-12.575 15.7477 19.4546 -0.754575 0.655868 0.0032953
-13.5242 14.699 19.4876 -0.730843 0.682322 0.00243919
-14.4071 13.8057 19.5077 -0.704058 0.71006 0.00823166
-15.3734 12.8804 19.5584 -0.677539 0.735465 0.0056698
-16.4417 11.9269 19.5212 -0.65886 0.752142 0.0136008
-17.399 11.1366 19.5443 -0.628965 0.77728 0.0154767
-18.3873 10.3601 19.576 -0.608341 0.793399 0.0209411
-19.3185 9.65879 19.4573 -0.598135 0.801391 0.00282274
-20.3393 8.91059 19.4335 -0.583568 0.811997 0.010492
-21.3766 8.1842 19.4672 -0.564301 0.825444 0.0143426
-22.2725 7.5884 19.4401 -0.551455 0.834115 0.0122026
-23.3926 6.85197 19.3564 -0.545696 0.837947 0.0077216
-24.4692 6.15838 19.2787 -0.540765 0.841171 -0.00212783
-25.3775 5.59463 19.0781 -0.525056 0.851064 -0.000400381
-26.5887 4.86786 18.9815 -0.512454 0.858673 0.00809374
-27.6611 4.23519 18.8934 -0.508301 0.861137 0.00852993
-28.5838 3.69704 18.8512 -0.50076 0.865513 0.0112859
-29.5624 3.13819 18.8179 -0.491395 0.870867 0.0109791
-30.4927 2.61875 18.7612 -0.48188 0.876237 0.000502123
-31.5906 2.01973 18.5206 -0.476572 0.879117 0.00569234
-32.7499 1.39479 17.9942 -0.475421 0.879743 0.0051133
-33.4844 1.00991 17.3403 -0.469267 0.883005 0.00952574
-33.8808 0.809514 16.2515 -0.469444 0.882932 0.00722617
-33.8847 0.819285 15.1345 -0.471111 0.881996 0.0117254
-33.8108 0.873282 13.9377 -0.471848 0.881619 0.0103234
-33.7855 0.898678 12.8025 -0.471599 0.881776 0.00805142
-33.882 0.862311 11.4351 -0.471531 0.881779 0.011168
-33.9364 0.849162 10.2468 -0.472074 0.881468 0.0126298
-34.01 0.829602 9.07818 -0.472768 0.881022 0.017038
-33.9251 0.899674 7.86057 -0.473549 0.880585 0.0179309
-34.0728 0.842379 6.74955 -0.474707 0.880002 0.0156586
-34.364 0.706132 5.44944 -0.477398 0.878581 0.0134929
-34.3852 0.714008 4.2173 -0.48078 0.876675 0.0170959
-34.363 0.755777 3.06798 -0.481549 0.876003 0.0270072
-34.2215 0.857652 1.96062 -0.472416 0.881199 0.0176439
-33.1995 1.40578 2.0275 -0.47431 0.880232 0.0148963
-32.048 2.02055 2.58494 -0.478282 0.878066 0.0157346
-31.2268 2.46126 3.12057 -0.486646 0.873442 0.0164627
-30.0877 3.08739 3.62685 -0.492063 0.870365 0.018334
-29.1562 3.60797 3.93509 -0.49538 0.868423 0.0209941
-28.2512 4.12103 4.18803 -0.49952 0.866126 0.0175072
-27.341 4.65049 4.24179 -0.507352 0.861465 0.0212477
-26.1639 5.35808 4.12638 -0.517459 0.85534 0.025099
-25.0234 6.07069 3.36555 -0.527263 0.849612 0.0123715
-24.406 6.46859 2.58811 -0.531525 0.846899 0.0155486
-23.7877 6.89257 1.54398 -0.542758 0.839383 0.0291186
-23.4532 7.15277 0.403482 -0.551612 0.833502 0.0316105
-22.7302 7.66146 -0.417208 -0.558995 0.828906 0.0209664
-22.0139 8.16908 -1.14866 -0.564954 0.82469 0.0267328
-21.4041 8.62962 -1.92941 -0.592459 0.805004 0.0309921
-20.8729 9.05506 -2.75263 -0.595023 0.802954 0.0348249
-20.3398 9.49546 -3.6401 -0.598177 0.800215 0.0429085
-19.8671 9.90813 -4.54443 -0.61623 0.786463 0.0416756
-19.2928 10.4106 -5.44492 -0.620776 0.782853 0.0419736
-18.6451 11.0023 -6.37641 -0.647238 0.760999 0.0443128
-18.1518 11.4696 -7.2095 -0.647822 0.760739 0.0397982
-17.6143 12.0066 -8.06061 -0.67303 0.738141 0.0466259
-17.2244 12.4345 -9.14486 -0.678281 0.733117 0.0493793
-17.1094 12.6249 -10.5152 -0.683952 0.728361 0.041183
-17.1738 12.6272 -11.8337 -0.700536 0.713128 0.0264127
-17.4469 12.4079 -12.8509 -0.695766 0.717109 0.0408016
-17.973 11.9693 -13.9959 -0.679831 0.732744 0.0302742
-18.5688 11.4503 -14.7983 -0.668588 0.742937 0.028429
-19.4001 10.7322 -15.6699 -0.6523 0.757523 0.0236763
-20.0822 10.1753 -16.2595 -0.64356 0.765012 0.0242033
-20.9815 9.46589 -16.7791 -0.616927 0.786711 0.0194131
-21.8377 8.81379 -16.9804 -0.605519 0.795621 0.0164707
-22.696 8.1787 -17.1003 -0.591555 0.806202 0.0100834
-23.6142 7.51808 -17.2574 -0.57576 0.817574 0.00857855
-24.7199 6.75564 -17.7571 -0.560061 0.828436 0.00276477
-24.0577 7.21283 -18.3839 -0.572529 0.819878 0.00235657
-23.0854 7.90379 -18.6046 -0.589757 0.80757 0.00418623
-22.1374 8.60556 -18.7538 -0.603244 0.797549 -0.00346778
-21.1865 9.33873 -18.6593 -0.616668 0.787189 0.00738734
-20.0963 10.2168 -18.8539 -0.635251 0.772282 0.00601466
-19.0642 11.0905 -19.0485 -0.664145 0.747481 -0.0135402
-18.1266 11.9364 -19.1474 -0.690029 0.72372 -0.00898005
-17.2175 12.8221 -19.2299 -0.713064 0.701076 0.00561692
-16.4661 13.6267 -19.2882 -0.742191 0.670164 0.00575843
-15.5858 14.6327 -19.3836 -0.765497 0.643433 -0.0028592
-14.7679 15.6403 -19.4976 -0.788329 0.615254 0.000550058
-13.9915 16.6766 -19.4981 -0.809185 0.587218 0.0198576
-13.3225 17.6232 -19.4358 -0.826749 0.562328 0.0165328
-12.7084 18.5305 -19.3558 -0.837734 0.545997 0.00932267
-12.4673 18.8416 -18.3611 -0.841194 0.539451 0.0372039
-12.0917 19.2728 -17.4751 -0.817987 0.563714 0.113452
-11.43 20.1071 -16.9599 -0.800731 0.586658 0.121086
-10.6035 21.1975 -17.0398 -0.77011 0.621459 0.143941
-9.93251 22.0114 -17.0211 -0.743616 0.642852 0.183785
-9.07884 22.9179 -17.1714 -0.635649 0.737182 0.229157
-8.44128 23.6612 -18.0687 -0.56674 0.806813 0.16475
-8.22571 23.9558 -19.1572 -0.601689 0.796739 0.0543201
-7.45072 24.4727 -19.4983 -0.49339 0.869232 0.031222
-6.26356 25.1138 -19.5074 -0.448173 0.893929 0.0056904
-5.78992 25.2992 -18.6685 -0.368363 0.919572 0.130836
-5.35401 25.3939 -17.6701 -0.366871 0.925013 0.0987782
-4.53589 25.565 -16.983 -0.292447 0.94567 0.133747
-3.45836 25.8252 -16.8525 -0.230333 0.960359 0.154141
-2.23627 26.0244 -16.8986 -0.12899 0.985486 0.106793
-1.03053 26.1553 -16.9286 -0.0645842 0.991634 0.107818
0.121731 26.2056 -16.9526 0.0495675 0.993202 0.0673747
1.4124 25.9339 -16.8967 0.252548 0.965529 0.0516462
2.43423 25.5622 -16.9443 0.367636 0.928435 -0.0149964
3.45023 25.1577 -16.9287 0.406216 0.902919 -0.140449
4.43194 24.6637 -17.079 0.405512 0.902906 -0.142553
5.30361 24.2025 -17.6057 0.407321 0.912788 -0.0301296
5.84419 23.9264 -18.5396 0.392915 0.919001 -0.0320464
6.41712 23.6751 -18.8665 0.394014 0.918859 -0.0199894
6.77036 23.5362 -17.8821 0.439738 0.897327 -0.00358353
7.42964 23.1116 -17.1617 0.594584 0.802217 0.0512139
8.29054 22.3909 -16.9092 0.695463 0.716709 0.00144042
9.18028 21.4392 -16.9569 0.742763 0.667193 -0.0469749
9.93513 20.5619 -16.9428 0.758001 0.646433 -0.0863761
10.6408 19.6548 -17.3637 0.759669 0.639103 -0.119899
11.0359 19.0153 -18.3645 0.764597 0.636583 -0.100766
11.2297 18.6954 -19.364 0.766939 0.640768 -0.0349356
11.968 17.8426 -19.5377 0.732379 0.679428 -0.0432649
13.0051 16.758 -19.3575 0.71204 0.697416 -0.0812943
13.8727 15.8966 -19.238 0.704675 0.705518 -0.0753538
14.6956 15.0955 -19.2064 0.686936 0.723267 -0.0707436
15.6745 14.1731 -19.141 0.685045 0.725354 -0.0676356
16.5568 13.3647 -19.1445 0.660697 0.74842 -0.0578536
17.364 12.6556 -19.1296 0.658176 0.750653 -0.0576514
18.1833 11.951 -19.1155 0.645091 0.762361 -0.0516152
19.0008 11.284 -19.006 0.629379 0.775315 -0.0526229
19.8453 10.6263 -18.8668 0.614121 0.78753 -0.0514124
20.7758 9.91618 -18.7967 0.6066 0.793546 -0.0481763
21.761 9.1809 -18.7264 0.593695 0.803362 -0.0462159
22.6232 8.55335 -18.6958 0.584037 0.810485 -0.0448825
23.6247 7.84839 -18.5907 0.569921 0.820827 -0.0375182
24.629 7.15573 -18.5767 0.564841 0.824667 -0.0288971
25.5412 6.54445 -18.6216 0.554556 0.831885 -0.0208294
26.5247 5.90002 -18.5393 0.546017 0.837539 -0.0198309
27.4324 5.31666 -18.6006 0.532902 0.845918 -0.0209457
28.5012 4.64337 -18.6207 0.532313 0.846292 -0.0207951
29.6524 3.93062 -18.6532 0.520874 0.853345 -0.0221827
30.697 3.29954 -18.6131 0.511986 0.85882 -0.0171456
31.8972 2.59474 -18.5361 0.497037 0.867555 -0.0171987
32.826 2.07326 -18.3155 0.490218 0.871417 -0.0178434
33.7651 1.55831 -17.933 0.482804 0.875521 -0.0190777
34.8473 0.977812 -17.39 0.478046 0.878094 -0.0205629
34.8449 1.00555 -16.2541 0.477932 0.878158 -0.0205013
34.367 1.29358 -15.3073 0.478547 0.877678 -0.0259419
33.7587 1.65828 -14.1234 0.482633 0.875344 -0.0281551
33.2964 1.94618 -13.1588 0.482445 0.875233 -0.0346333
32.8389 2.23378 -12.199 0.493486 0.869123 -0.0310524
32.3149 2.57773 -11.1712 0.498812 0.865909 -0.0367613
32.0287 2.78806 -10.1495 0.503489 0.863171 -0.0378799
31.7995 2.9793 -8.77003 0.50384 0.86309 -0.0349388
31.7498 3.05614 -7.63216 0.506906 0.86124 -0.0361951
31.9162 2.99922 -6.56555 0.512577 0.857814 -0.0376795
32.0664 2.96863 -5.17389 0.503127 0.863602 -0.0324825
32.4644 2.77603 -4.17167 0.500818 0.864932 -0.0327697
33.1125 2.4359 -3.32466 0.4971 0.866958 -0.0357059
32.391 2.83814 -3.65555 0.502682 0.863806 -0.033816
31.5988 3.277 -4.32484 0.50881 0.860243 -0.0330766
30.85 3.69854 -4.9519 0.517997 0.854719 -0.0336656
29.9719 4.19975 -5.74489 0.521234 0.852677 -0.0354481
29.2854 4.58943 -6.5381 0.527654 0.84888 -0.0313115
28.5197 5.03727 -7.32968 0.52987 0.847311 -0.0358506
27.8536 5.43201 -8.092 0.544822 0.837946 -0.0317013
27.2197 5.80795 -8.94446 0.548822 0.835215 -0.0343114
26.5373 6.22095 -9.88776 0.556403 0.829867 -0.0416496
25.8111 6.65997 -10.962 0.562622 0.825889 -0.0369306
25.0921 7.1303 -11.7389 0.575255 0.817141 -0.0368877
24.3039 7.64991 -12.4296 0.573416 0.818257 -0.0406145
23.5089 8.19625 -12.8574 0.585727 0.80943 -0.0412398
22.5948 8.85728 -13.1863 0.600103 0.799169 -0.034706
21.567 9.64427 -13.2522 0.608715 0.792141 -0.0444832
20.6537 10.3994 -13.0299 0.632531 0.772557 -0.0553165
19.7238 11.2092 -12.7171 0.645353 0.760547 -0.0710216
18.9084 11.9905 -11.9519 0.655948 0.751777 -0.0667307
18.3588 12.5884 -10.9148 0.681119 0.728649 -0.0717413
17.8328 13.217 -9.57792 0.70127 0.708931 -0.0748287
17.7285 13.4102 -8.53373 0.705009 0.706959 -0.0560173
17.6064 13.6405 -7.19318 0.720851 0.69101 -0.0536049
17.6431 13.6671 -6.05431 0.727383 0.68543 -0.0331643
17.7713 13.583 -4.72292 0.721694 0.691877 -0.0215496
17.9129 13.4585 -3.41699 0.716342 0.697714 -0.00455258
18.1418 13.2317 -2.22813 0.703637 0.710411 0.00989016
18.474 12.911 -1.0411 0.68952 0.724125 0.0143192
18.827 12.5675 0.12094 0.666667 0.745321 0.00721538
19.2367 12.1902 1.06307 0.663976 0.747614 0.0144623
19.5695 11.8834 2.02762 0.65966 0.751543 0.00572547
20.0111 11.5019 3.0165 0.638359 0.769738 -0.00104095
20.8358 10.8273 3.7588 0.626355 0.77953 -0.00365226
21.7006 10.1419 4.22208 0.623671 0.781622 -0.0100592
22.5483 9.48768 4.71602 0.607817 0.793965 -0.013368
23.4609 8.81092 5.06189 0.586983 0.809597 -0.00178745
24.4557 8.0969 5.37715 0.582361 0.812889 -0.00815913
25.558 7.34015 5.74758 0.558938 0.829102 -0.0133685
26.4295 6.76369 6.23662 0.553103 0.833079 -0.00756675
27.5346 6.04752 6.4326 0.539836 0.841706 -0.0102152
28.5767 5.38812 6.60212 0.527688 0.849388 -0.0092325
29.8221 4.62285 6.9031 0.522751 0.852456 -0.00701617
30.7193 4.08431 7.23806 0.512864 0.858445 -0.00654726
31.6868 3.51569 7.65586 0.504494 0.863396 -0.00575969
32.5809 3.00423 8.20525 0.49535 0.86866 -0.00757115
33.3905 2.54726 8.74819 0.491771 0.870711 -0.0025014
34.1269 2.1429 9.52505 0.481462 0.876464 -0.00236846
34.6558 1.85493 10.4443 0.481719 0.876324 -0.00136352
35.0633 1.63146 11.4445 0.482394 0.875954 -0.000146954
35.4938 1.40067 12.4206 0.476676 0.879075 -0.00277864
35.8967 1.18684 13.4008 0.469976 0.882676 -0.00217009
36.3928 0.922289 14.6845 0.467003 0.884245 0.00401847
36.5575 0.832311 15.7925 0.462419 0.886644 0.00483489
36.5959 0.80362 16.8486 0.46008 0.887867 0.00412848
36.0869 1.0643 17.8927 0.46017 0.887827 0.00259701
35.0382 1.61618 18.689 0.468662 0.883374 0.00244635
33.9573 2.1916 19.0769 0.478654 0.877944 0.0102827
32.9361 2.75147 19.1946 0.487431 0.873108 0.00874944
31.5892 3.51807 19.2826 0.500493 0.8657 0.00840426
30.3463 4.24753 19.3864 0.513464 0.857942 0.0170667
29.4219 4.80236 19.5259 0.522563 0.85244 0.0163154
28.4107 5.43126 19.5236 0.537846 0.842919 0.0130275
27.455 6.04864 19.5946 0.54713 0.836968 0.011505
26.1566 6.90186 19.7073 0.559343 0.82884 0.010812
25.223 7.54039 19.6782 0.568092 0.822878 0.0104329
24.2678 8.21465 19.6763 0.582971 0.812414 0.00875822
23.2282 8.97578 19.5883 0.599678 0.800197 0.0081454
22.2034 9.74674 19.6058 0.60586 0.795524 0.00496216
21.1472 10.5895 19.6644 0.634455 0.772857 0.0125743
20.3062 11.2973 19.6481 0.650042 0.759846 0.00891198
19.5969 11.9159 19.6207 0.663887 0.747783 0.00809884
19.4051 12.0793 20.646 0.662252 0.749263 0.00208198
18.6093 12.8231 20.6753 0.686647 0.726988 -0.00229343
17.6679 13.7631 20.6188 0.714515 0.699591 0.00371339
16.9085 14.5753 20.5722 0.731076 0.682241 0.00869147
15.9526 15.6502 20.5545 0.765134 0.643425 -0.00356522
15.0354 16.815 20.5178 0.795473 0.605875 0.0117753
14.2846 17.8196 20.5296 0.808003 0.589135 0.00709488
13.596 18.7763 20.5327 0.820705 0.571275 -0.00934726
13.103 19.4815 19.9005 0.826735 0.562577 -0.00296651
13.0413 19.5424 18.7248 0.836626 0.547119 -0.0267874
12.5867 20.1576 17.8848 0.827225 0.555913 -0.0815679
11.9744 21.0282 17.7752 0.816495 0.568702 -0.0989794
11.2985 21.9849 17.851 0.799527 0.590416 -0.110301
10.5935 22.9217 17.915 0.756223 0.638871 -0.141314
10.2284 23.398 18.8465 0.686756 0.726475 -0.0201338
10.2587 23.3811 19.9378 0.707819 0.706216 -0.0116883
9.70944 23.9368 20.4975 0.690305 0.723307 -0.0115793
8.75851 24.7737 20.5161 0.619192 0.784902 -0.023025
7.84219 25.4065 20.5112 0.523278 0.85174 -0.0268189
6.79899 25.975 20.4451 0.451156 0.892444 0.000976662
5.76614 26.4546 20.4254 0.359839 0.932905 -0.000406401
5.09919 26.7098 19.704 0.34104 0.939996 0.00684178
5.11405 26.6941 18.6091 0.36615 0.930423 -0.0156942
4.40704 26.7793 17.8865 0.138466 0.980799 -0.137333
3.36835 26.8528 17.8214 0.0278482 0.999163 -0.0299625
2.25339 26.8471 17.8335 -0.041364 0.999016 0.0101282
0.964964 26.7658 17.7943 -0.10212 0.994213 0.0277867
-0.154677 26.6321 17.9611 -0.122864 0.992391 0.00621752
-1.27886 26.4234 17.864 -0.283728 0.94066 -0.186164
-2.21646 25.8551 17.8372 -0.571878 0.82014 0.0180351
-3.2599 25.1219 17.8398 -0.59373 0.788756 0.155883
-4.13231 24.5653 17.5903 -0.558771 0.79466 0.237256
-5.17675 23.9818 17.8891 -0.457346 0.885867 0.0779423
-5.9102 23.5581 18.5335 -0.484333 0.874867 -0.00551579
-5.66083 23.6982 19.562 -0.486533 0.873457 0.018926
-6.1202 23.4329 20.3124 -0.481305 0.876476 0.0110495
-6.37567 23.2986 19.3719 -0.493091 0.869975 0.002166
-6.27835 23.3611 18.3128 -0.496218 0.867875 0.0236752
-6.37189 23.333 17.1169 -0.570755 0.820858 -0.0167032
-6.44334 23.305 16.0587 -0.599915 0.799633 0.0259554
-6.43957 23.3586 14.9432 -0.631426 0.773497 0.0548103
-6.54616 23.3479 13.7776 -0.627518 0.777363 0.0433154
-6.59771 23.3609 12.6721 -0.610026 0.791853 0.0289327
-6.65863 23.329 11.5038 -0.546807 0.836692 -0.029989
-6.90154 23.0519 10.39 -0.591233 0.79339 -0.144834
-7.59212 22.2952 9.69595 -0.698205 0.698782 -0.153824
-8.18557 21.5637 9.17235 -0.7337 0.667364 -0.127018
-8.80869 20.7172 8.51619 -0.763357 0.633782 -0.123883
-9.43152 19.8915 8.26316 -0.807131 0.578826 -0.109083
-9.69462 19.5028 9.22071 -0.843037 0.537262 0.02524
-9.64927 19.4859 10.3449 -0.826765 0.560703 0.0455285
-9.51624 19.5856 11.5076 -0.818318 0.573465 0.0374278
-9.4929 19.5636 12.6564 -0.811529 0.5839 0.021931
-9.23669 19.8758 13.6312 -0.797384 0.603385 -0.00771978
-8.71407 20.5974 14.3059 -0.805819 0.592097 -0.00875552
-8.14637 21.3687 14.9016 -0.795391 0.606066 -0.00605033
-7.65662 22.0127 15.5546 -0.78513 0.619223 -0.0115785
-7.85036 21.7964 16.4217 -0.785166 0.618571 -0.0297319
-8.29957 21.252 17.5727 -0.797688 0.602499 -0.0262437
-8.92824 20.4352 17.8547 -0.802172 0.595894 -0.0378128
-9.49511 19.681 18.4124 -0.819164 0.573307 -0.0170443
-9.58621 19.56 19.5561 -0.810076 0.586316 -0.00274437
-9.87869 19.156 20.363 -0.813736 0.581232 -0.00170093
-10.5826 18.1964 20.4491 -0.791664 0.610848 0.0115376
-11.3091 17.2755 20.4947 -0.780191 0.625478 0.00886497
-12.0891 16.3208 20.5303 -0.768507 0.639804 0.00697586
-12.9512 15.3251 20.5201 -0.744276 0.667868 0.00242714
-13.6952 14.5242 20.6027 -0.72013 0.693822 0.00250778
-14.5508 13.6563 20.5183 -0.699341 0.71476 0.00631689
-15.3702 12.8737 20.5895 -0.679818 0.733363 0.0050804
-16.2718 12.062 20.5532 -0.661192 0.750201 0.00496537
-17.1613 11.3123 20.5084 -0.637292 0.770534 0.0110441
-18.229 10.4559 20.6075 -0.620064 0.784385 0.0156655
-19.1921 9.72971 20.5654 -0.598914 0.800631 0.0167017
-20.1177 9.04947 20.4754 -0.580219 0.814246 0.0186884
-21.1533 8.32359 20.51 -0.561505 0.827457 0.00523123
-22.0925 7.69421 20.5081 -0.552217 0.833675 0.00650733
-22.9979 7.10037 20.3534 -0.546633 0.837316 0.00970802
-23.9793 6.46884 20.3638 -0.536383 0.843959 0.00507099
-24.8928 5.89308 20.2243 -0.525944 0.850503 0.00521036
-25.9063 5.26559 20.084 -0.520514 0.853799 0.00508508
-26.83 4.71532 20.0956 -0.510562 0.859811 0.00718217
-27.8765 4.09951 19.9707 -0.503457 0.864004 0.00542456
-28.8174 3.55256 19.8562 -0.499306 0.866407 0.00371528
-29.781 3.00607 19.8197 -0.486895 0.873435 0.00568719
-30.9814 2.34375 19.6951 -0.481698 0.876319 0.00554168
-31.969 1.80601 19.4491 -0.474719 0.880095 0.00845046
-32.9028 1.30624 19.1273 -0.474207 0.880387 0.00683576
-33.9351 0.759433 18.3855 -0.471105 0.882041 0.00800353
-34.6829 0.374829 17.4247 -0.466647 0.884405 0.0082115
-34.7714 0.336603 16.3525 -0.466746 0.884373 0.00566369
-34.7434 0.363187 15.0553 -0.469474 0.882893 0.00967646
-34.6772 0.417723 13.5472 -0.466264 0.884572 0.0114169
-34.7035 0.416467 12.3193 -0.465675 0.884918 0.00815722
-34.8479 0.351952 11.0475 -0.471995 0.881555 0.00799875
-34.8196 0.378714 9.91492 -0.478025 0.878234 0.0140444
-34.9293 0.340953 8.81206 -0.472411 0.881183 0.0185677
-34.9241 0.37173 7.5305 -0.470123 0.882426 0.0175464
-35.1499 0.268326 6.4006 -0.471354 0.881836 0.013806
-35.2299 0.238188 4.9665 -0.476803 0.878985 0.00136698
-35.1896 0.275419 3.88239 -0.486103 0.87357 0.0236397
-35.2825 0.292065 2.36983 -0.462387 0.884691 0.0593341
-35.1241 0.405719 1.11354 -0.448698 0.893545 0.0157249
-34.1695 0.911565 0.646209 -0.46564 0.884837 0.0155962
-33.2121 1.41834 0.876172 -0.471458 0.881799 0.0125533
-32.2263 1.94384 1.42026 -0.477754 0.878354 0.0156493
-31.2466 2.47273 1.8919 -0.481713 0.876181 0.0161
-30.2793 3.00053 2.5086 -0.488547 0.872388 0.0161441
-29.3438 3.523 2.80838 -0.49395 0.869354 0.0151317
-28.1548 4.19502 3.28047 -0.496443 0.867946 0.0146352
-26.8612 4.96112 3.28182 -0.509551 0.860294 0.0158807
-25.7995 5.60463 2.85932 -0.518221 0.855106 0.0150827
-25.1191 6.03824 2.03888 -0.522341 0.852496 0.020233
-24.5291 6.4308 1.07692 -0.541537 0.840227 0.0273144
-24.3859 6.56043 -0.146547 -0.541336 0.840231 0.0310567
-23.6939 7.03299 -0.847838 -0.552217 0.833344 0.0243787
-22.9007 7.57785 -1.54861 -0.553207 0.832715 0.0233841
-22.1341 8.12912 -2.48573 -0.576237 0.81655 0.0345813
-21.5339 8.59977 -3.38308 -0.585574 0.809549 0.041633
-20.8627 9.14993 -4.55247 -0.598833 0.800046 0.0362073
-20.3549 9.5697 -5.39594 -0.616851 0.786094 0.0393393
-19.7995 10.0488 -6.26513 -0.624623 0.779609 0.0453366
-19.254 10.5303 -7.04313 -0.62242 0.781905 0.0349084
-18.6725 11.0608 -7.96414 -0.652773 0.756385 0.0412993
-18.2282 11.508 -8.9274 -0.664827 0.745237 0.0508444
-17.8759 11.8941 -10.0771 -0.667748 0.743648 0.033159
-17.7901 12.0195 -11.1628 -0.671271 0.740427 0.034115
-18.0657 11.8096 -12.4646 -0.681538 0.731168 0.0290477
-18.5416 11.4265 -13.4664 -0.659012 0.751549 0.0296115
-19.2457 10.8397 -14.2376 -0.66123 0.749893 0.0189655
-20.0306 10.1821 -15.0218 -0.625814 0.779902 0.0105152
-21.1212 9.33398 -15.6743 -0.616375 0.787337 0.0135417
-22.1215 8.58742 -15.9875 -0.59697 0.802181 0.00970812
-23.1217 7.85524 -16.2127 -0.591796 0.806029 0.00975478
-24.2347 7.07035 -16.3845 -0.569292 0.821981 0.0126139
-25.4539 6.25699 -17.0802 -0.558943 0.829141 0.00971556
-26.0594 5.86065 -18.1582 -0.547871 0.836562 0.00120893
-25.3911 6.29922 -18.9013 -0.555976 0.831132 0.000823636
-24.54 6.88201 -19.3058 -0.564049 0.825738 0.00194653
-23.6481 7.49813 -19.4999 -0.569204 0.822177 -0.00563525
-22.8011 8.10926 -19.6761 -0.586923 0.80963 -0.00378931
-21.7265 8.92225 -19.7403 -0.609415 0.792838 4.51258e-05
-20.8515 9.60649 -19.8425 -0.617816 0.78632 -0.00228386
-19.8546 10.4122 -19.9254 -0.635232 0.772175 -0.0116551
-18.9801 11.1558 -20.0467 -0.650199 0.759764 0.000469616
-18.1624 11.893 -20.1367 -0.691915 0.721978 0.000629132
-17.4129 12.6304 -20.2422 -0.708648 0.705483 0.00801553
-16.6407 13.4436 -20.3044 -0.733802 0.679227 0.0136618
-15.727 14.476 -20.3713 -0.758439 0.65169 0.00840599
-14.8238 15.5716 -20.5118 -0.796767 0.603581 -0.0291948
-14.1256 16.4957 -20.499 -0.813098 0.582125 0.00177124
-13.4332 17.4738 -20.5051 -0.827779 0.561054 0.00025862
-12.5841 18.7375 -20.5489 -0.835206 0.549877 -0.00810354
-12.0968 19.4815 -19.9819 -0.841561 0.540156 0.00246052
-12.0512 19.5348 -18.8987 -0.853017 0.52102 0.0300011
-11.6678 20.0226 -18.0489 -0.807045 0.576071 0.129697
-11.0389 20.8888 -17.985 -0.798931 0.582402 0.149982
-10.347 21.7993 -18.0006 -0.762602 0.617003 0.194284
-9.60574 22.6857 -18.0242 -0.71578 0.647939 0.26045
-9.10828 23.2618 -18.6773 -0.549089 0.828008 0.106597
-9.09081 23.324 -19.7749 -0.603349 0.797254 0.0116525
-8.46525 23.8027 -20.4923 -0.58815 0.808636 -0.0136675
-7.57659 24.4088 -20.5074 -0.531242 0.847211 -0.00388606
-6.62227 24.9533 -20.5438 -0.473676 0.879797 0.0334702
-5.65415 25.4045 -20.5224 -0.3966 0.9178 0.00773609
-5.04964 25.6456 -19.8212 -0.366799 0.930139 0.00988553
-4.94499 25.6581 -18.703 -0.40501 0.913256 0.021238
-4.22358 25.8199 -17.9514 -0.224081 0.955505 0.191826
-3.17569 26.0261 -17.9567 -0.139783 0.980972 0.13474
-2.10197 26.1663 -17.8663 -0.125155 0.983367 0.130793
-0.860518 26.2742 -17.9666 -0.0416497 0.989069 0.141449
0.381065 26.279 -17.9198 0.0040434 0.991893 0.127015
1.58393 25.9216 -17.947 0.347941 0.937098 0.0280001
2.65224 25.3802 -17.9629 0.440619 0.892197 -0.0948988
3.63329 24.8887 -17.8904 0.511184 0.8271 -0.233186
4.56713 24.4705 -18.1811 0.348272 0.93419 -0.0774378
4.99618 24.2634 -19.1926 0.385726 0.922268 -0.0234001
5.45579 24.0507 -20.4988 0.395436 0.918474 -0.00599774
6.71026 23.4991 -20.506 0.410809 0.911597 -0.0150577
7.28948 23.2417 -19.7594 0.420128 0.907122 -0.0249495
7.36799 23.2426 -18.6934 0.489114 0.871636 -0.0319199
7.99196 22.6738 -17.8928 0.655649 0.753653 0.0327643
8.73553 21.8833 -17.9833 0.76871 0.638198 -0.0163214
9.43784 21.0178 -17.9543 0.782176 0.620126 -0.0603654
10.1625 20.0774 -18.0725 0.778614 0.608057 -0.150032
10.4889 19.5941 -19.1699 0.762457 0.645002 -0.0494414
10.5 19.5437 -20.2358 0.778467 0.627562 -0.0088639
11.1701 18.71 -20.5255 0.770185 0.637542 -0.0188566
11.8736 17.8902 -20.5448 0.743472 0.668517 -0.0174011
12.7376 16.9382 -20.4473 0.724294 0.688333 -0.0362137
13.7197 15.9527 -20.2902 0.71118 0.701064 -0.0513942
14.5695 15.1164 -20.2298 0.686492 0.723894 -0.0686032
15.3507 14.3712 -20.2403 0.689919 0.720536 -0.069564
16.2568 13.5422 -20.1467 0.662054 0.746512 -0.0658488
17.2595 12.6693 -20.1781 0.654622 0.753732 -0.0579502
18.2927 11.7925 -20.1296 0.639421 0.767442 -0.0466185
19.2135 11.0523 -20.0252 0.619261 0.783969 -0.0435004
20.2008 10.2967 -19.8604 0.606912 0.793724 -0.0407457
21.2516 9.5058 -19.7247 0.597043 0.801441 -0.0349975
22.3125 8.72705 -19.7081 0.585659 0.809617 -0.0390402
23.258 8.05977 -19.6603 0.571876 0.820006 -0.023395
24.3228 7.33155 -19.6214 0.562128 0.826698 -0.0241197
25.4283 6.59209 -19.6185 0.55198 0.83356 -0.0220729
26.4918 5.89639 -19.5614 0.544804 0.838228 -0.0237142
27.623 5.17314 -19.6113 0.53435 0.845043 -0.0193054
28.762 4.45524 -19.6905 0.529258 0.848267 -0.0178572
29.7175 3.86411 -19.6849 0.516329 0.856158 -0.0189214
30.6486 3.30997 -19.6507 0.512483 0.858557 -0.0154823
31.6854 2.69931 -19.5866 0.495899 0.868242 -0.0154683
32.6917 2.12679 -19.4374 0.492135 0.870398 -0.014018
33.6536 1.59815 -18.945 0.483576 0.875117 -0.0175543
34.6282 1.06895 -18.7223 0.479193 0.877493 -0.0194789
35.6482 0.525562 -18.1002 0.477665 0.878345 -0.0185907
36.0195 0.345753 -17.1309 0.477731 0.878242 -0.0215479
35.7457 0.52803 -15.9044 0.473593 0.88035 -0.0261212
35.3044 0.796499 -14.9693 0.473735 0.880218 -0.0280639
34.7773 1.1099 -14.0598 0.474907 0.879581 -0.0282819
34.2103 1.45368 -12.9913 0.478535 0.87753 -0.0306683
33.7585 1.73054 -12.002 0.481082 0.876271 -0.0263006
33.2376 2.05626 -11.0643 0.490585 0.870504 -0.0389305
32.8036 2.35086 -9.99404 0.493404 0.868955 -0.0383449
32.6394 2.50684 -8.46281 0.498552 0.866115 -0.0359127
32.6313 2.5568 -7.29954 0.497865 0.866706 -0.0308333
32.8108 2.49505 -6.16241 0.497168 0.866918 -0.0357475
33.1626 2.33735 -5.12022 0.492353 0.869806 -0.0320367
33.6779 2.07932 -4.21775 0.491919 0.870029 -0.0326316
34.292 1.77348 -3.22015 0.488506 0.871959 -0.0322533
35.1476 1.33365 -2.15096 0.486304 0.873348 -0.0275927
35.7774 1.01694 -1.19467 0.477102 0.87854 -0.0232619
35.7254 1.05868 -0.704606 0.477605 0.878209 -0.0253387
34.6056 1.66392 -1.13121 0.483018 0.875256 -0.0249163
33.7793 2.11091 -1.67408 0.492199 0.870177 -0.023075
32.8523 2.62535 -2.09844 0.501816 0.864482 -0.0291769
31.9186 3.14234 -2.87482 0.504435 0.863004 -0.0277258
31.1235 3.59387 -3.43238 0.512197 0.858173 -0.0345476
30.1044 4.17934 -4.23388 0.520366 0.853399 -0.0304877
29.2253 4.68316 -5.17872 0.524003 0.851011 -0.0345292
28.3875 5.1681 -6.09056 0.535918 0.84331 -0.0402522
27.7517 5.54389 -6.89537 0.544807 0.837636 -0.0394007
27.0605 5.96388 -7.75325 0.560886 0.827135 -0.0354112
26.3309 6.40981 -8.68927 0.556158 0.830224 -0.0373554
25.6366 6.84282 -9.70046 0.562806 0.825664 -0.038707
24.9492 7.27945 -10.6684 0.57762 0.815466 -0.0368116
24.1716 7.79585 -11.3894 0.578965 0.814213 -0.0430892
23.3009 8.40082 -11.8688 0.588471 0.807323 -0.0438116
22.1061 9.29041 -12.2212 0.610766 0.79013 -0.0515777
21.2061 10.0052 -12.236 0.627658 0.777063 -0.0470982
20.3091 10.7794 -11.8624 0.645114 0.762254 -0.0528874
19.5724 11.4476 -11.4088 0.655881 0.752582 -0.058443
18.9599 12.0874 -10.3182 0.669668 0.740683 -0.053921
18.5616 12.5434 -9.27838 0.689575 0.722061 -0.0558057
18.4214 12.7635 -8.09131 0.688774 0.723079 -0.052411
18.3666 12.8817 -6.98691 0.708625 0.7048 -0.0332711
18.451 12.8581 -5.70296 0.71159 0.701882 -0.031637
18.5087 12.8374 -4.46444 0.698068 0.715577 -0.0199828
18.6547 12.7284 -3.33879 0.687335 0.726285 -0.00894728
19.003 12.4118 -2.00357 0.688284 0.725422 -0.00524935
19.3121 12.1376 -1.00964 0.672439 0.740061 -0.00646471
19.7659 11.7272 0.214181 0.658518 0.752454 0.00768415
20.1822 11.361 1.2652 0.6485 0.761208 0.00313701
20.6029 11.0048 2.35544 0.641204 0.767329 -0.00795047
21.3973 10.3649 2.91945 0.628275 0.777892 -0.0120754
22.1593 9.76186 3.43537 0.615405 0.787968 -0.0147826
22.9991 9.13026 3.89123 0.597277 0.801849 -0.0120428
24.0445 8.37591 4.22177 0.584728 0.811138 -0.0114775
24.9031 7.7694 4.4842 0.570854 0.820939 -0.0109582
25.845 7.13184 4.76896 0.555438 0.831461 -0.0126689
26.7794 6.51777 5.26314 0.551252 0.834199 -0.0152885
27.8516 5.82988 5.4013 0.536566 0.843758 -0.012647
28.948 5.14706 5.62866 0.526789 0.84993 -0.0106508
30.2198 4.37142 5.92963 0.518243 0.855201 -0.00745804
31.1103 3.84344 6.37407 0.513258 0.8582 -0.00766231
32.0733 3.28249 6.71294 0.502243 0.864691 -0.00711088
33.2043 2.64342 7.38384 0.4901 0.871635 -0.00733855
34.0563 2.17568 8.01183 0.481189 0.876593 -0.00627021
34.7481 1.80029 8.77106 0.47607 0.879402 -0.00301484
35.3275 1.48857 9.68567 0.475588 0.879668 -0.000738729
35.7187 1.2771 10.6844 0.473958 0.880543 -0.00125624
36.1914 1.02652 11.6584 0.471028 0.882117 -0.000408264
36.4939 0.867104 12.6913 0.470067 0.882629 -0.00170844
37.1006 0.549403 13.8206 0.466872 0.884299 -0.00683001
37.4031 0.398115 14.8062 0.45854 0.888646 -0.00180127
37.5359 0.324306 15.8491 0.456287 0.889753 0.0118844
37.4639 0.352028 17.3106 0.462526 0.8866 0.00245229
36.9684 0.607467 18.2246 0.457994 0.888954 0.00132323
36.3415 0.929013 19.0713 0.459839 0.887997 0.0021205
35.4867 1.3756 19.6592 0.466263 0.884638 0.00371227
34.5252 1.88187 20.017 0.46737 0.884054 0.00375874
33.5651 2.39782 20.1206 0.474 0.880517 0.0035939
32.5796 2.94366 20.3365 0.488688 0.872454 0.00276434
31.4902 3.56391 20.3687 0.499319 0.86636 0.0100441
30.5614 4.10385 20.4124 0.508527 0.860987 0.0100906
29.586 4.68518 20.5104 0.520508 0.853719 0.0153384
28.6671 5.25536 20.5421 0.533598 0.845631 0.0134694
27.5579 5.96882 20.5426 0.54672 0.837241 0.0111914
26.3843 6.74045 20.6727 0.554643 0.831962 0.0145424
25.3237 7.46163 20.6706 0.572217 0.820041 0.00968178
24.2397 8.2262 20.6871 0.582255 0.812979 0.00666487
23.2964 8.91589 20.5935 0.59812 0.801374 0.00716039
22.3336 9.64527 20.705 0.610482 0.79203 0.000792454
21.4433 10.3456 20.6348 0.629888 0.776662 -0.0060201
20.4067 11.2021 20.6582 0.645071 0.764083 0.00363162
19.7835 11.7473 20.6801 0.659619 0.751599 -0.00117364
11.8474 20.8547 1.01315 0.821092 0.570635 0.0135336
12.0744 20.4429 2.04488 0.827222 0.558634 0.0596024
12.2514 20.0288 3.19618 0.822308 0.56297 0.0828073
12.5634 19.4301 4.23776 0.80743 0.582638 0.092684
12.9094 18.8551 5.31056 0.786608 0.615474 0.0480405
12.9371 18.7645 6.48612 0.78626 0.617207 0.0291637
12.9579 18.7375 7.83797 0.775797 0.630912 -0.00675485
12.9046 18.8218 9.10594 0.777378 0.628353 -0.0292503
12.7813 19.0409 10.2566 0.778704 0.62584 -0.0440994
12.3851 19.6244 11.1292 0.787344 0.613616 -0.0597076
11.7858 20.4886 11.7761 0.80235 0.593043 -0.0673406
11.2621 21.2598 12.3315 0.802297 0.593494 -0.0638513
10.6753 22.1039 12.865 0.797718 0.599805 -0.0622249
10.0343 22.9416 12.996 0.781217 0.622815 -0.0424388
9.34506 23.7275 12.4875 0.740033 0.671481 -0.037248
8.91437 24.1691 11.5803 0.744275 0.667184 0.018679
7.83955 25.1476 12.2578 0.631152 0.77472 0.0381604
6.90689 25.7782 12.7579 0.488505 0.87135 0.0459521
5.97519 26.2417 13.1575 0.434288 0.900088 0.0351407
4.98913 26.6033 13.5585 0.28399 0.957231 0.0553099
3.87543 26.8426 13.7685 0.158241 0.985691 0.0580806
2.67677 26.9316 13.87 0.00481861 0.998519 0.0541875
1.40714 26.8859 13.5602 -0.117097 0.99262 0.0315161
0.514377 26.7983 12.9346 -0.141785 0.988872 0.0450514
-0.567645 26.5753 12.0936 -0.268432 0.963092 0.00558293
-1.15104 26.3945 10.9621 -0.289866 0.956178 0.023848
-1.29786 26.3448 9.48908 -0.417219 0.908799 -0.0029039
-1.05369 26.4463 8.36553 -0.408883 0.912555 -0.00064268
-0.618456 26.6353 7.04354 -0.359578 0.9308 -0.0386469
-0.25014 26.7111 5.82163 -0.327675 0.944752 0.00847698
-0.338861 26.641 4.7151 -0.28947 0.955059 -0.0637841
-0.471614 26.5589 3.65547 -0.27781 0.960474 -0.0176252
-0.500993 26.477 2.48028 -0.343617 0.933958 -0.0982319
-0.336926 26.4421 1.14242 -0.366614 0.927917 -0.065589
-0.128052 26.4222 0.0563687 -0.26369 0.960987 -0.0834907
0.235247 26.4314 -1.3097 -0.27799 0.959686 -0.0415348
0.996882 26.5577 -2.22819 -0.228176 0.967979 -0.104655
1.90847 26.6066 -2.97431 -0.103918 0.989615 -0.0993117
2.73873 26.5016 -3.72392 0.0621778 0.992226 -0.107806
3.80334 26.3061 -4.32945 0.213546 0.975771 -0.0476393
4.82847 26.0003 -4.7326 0.305182 0.945192 -0.116083
5.97317 25.5693 -4.99188 0.340757 0.925977 -0.162639
7.18473 24.9743 -5.0665 0.49606 0.855471 -0.135665
8.32883 24.216 -4.87119 0.613912 0.775106 -0.148113
9.24811 23.5416 -4.19774 0.672846 0.734972 -0.0842327
10.0617 22.8452 -3.35066 0.705722 0.705482 -0.0628208
10.7559 22.1709 -2.22535 0.747348 0.660992 -0.0615607
11.2363 21.664 -0.937675 0.784518 0.619397 -0.0289421
11.6174 21.2109 0.078467 0.810914 0.584751 0.00598847
11.7598 20.9893 0.650858 0.821092 0.570636 0.013535
11.1996 21.7453 1.1534 0.79736 0.603373 0.0125407
11.4684 21.3243 2.11063 0.821312 0.567844 0.0547761
11.6593 20.9346 3.09633 0.833177 0.54849 0.0704244
11.6682 20.7582 4.20232 0.838005 0.539081 0.0843542
11.5999 20.7825 4.73725 0.856053 0.508905 0.0904907
12.1181 19.9299 4.88732 0.849792 0.503432 0.142537
12.3454 19.5455 5.95921 0.792435 0.609806 0.0135637
12.349 19.5155 7.13471 0.791783 0.610709 0.0099261
12.2884 19.5824 8.34092 0.785336 0.619019 0.00785356
12.2479 19.638 9.5504 0.765098 0.64385 -0.00901968
11.9022 20.1798 10.4026 0.796415 0.600712 -0.0697733
11.3568 20.9807 10.9757 0.807869 0.58562 -0.0658954
10.8276 21.7619 11.4887 0.80414 0.591939 -0.0544731
10.258 22.5838 12.0669 0.798997 0.599755 -0.042625
9.67266 23.3232 11.7388 0.763576 0.645523 -0.0158799
9.54688 23.4881 10.6762 0.769728 0.637618 0.0310047
9.65526 23.3983 9.49686 0.763272 0.645725 0.0213428
9.05049 24.0942 9.77701 0.743884 0.66805 0.0185962
8.3538 24.7805 10.7309 0.701634 0.710453 0.0544649
7.26933 25.6561 11.405 0.632575 0.773453 0.0402456
6.20653 26.2397 11.9384 0.45969 0.883632 0.0739423
5.10191 26.6431 12.3761 0.2935 0.954167 0.0585162
3.91624 26.9016 12.6657 0.157546 0.985735 0.0592026
2.73252 26.995 12.798 0.0138557 0.99725 0.0728012
1.6623 26.9674 12.463 -0.108843 0.993022 0.0454025
0.670336 26.8536 11.8646 -0.150213 0.988492 0.0178717
-0.134424 26.7219 10.815 -0.298705 0.952692 0.0561435
-0.372882 26.7061 9.54982 -0.360692 0.931181 0.0529387
-0.0205867 26.868 8.37026 -0.309431 0.950916 -0.00322597
0.396085 26.9679 7.39129 -0.260688 0.963784 -0.0536134
0.701282 26.9774 6.24923 -0.2286 0.971186 -0.0673728
0.74721 26.9528 5.0022 -0.205506 0.978452 -0.019786
0.474977 26.8307 3.68885 -0.240937 0.969088 -0.0530884
0.40744 26.7614 2.50289 -0.217224 0.975317 -0.0396351
0.711523 26.7293 1.19522 -0.248237 0.966358 -0.0673136
1.04015 26.7266 0.096862 -0.211808 0.973056 -0.0910994
1.41335 26.7496 -0.933094 -0.224718 0.974124 -0.0241542
2.05926 26.7477 -1.78373 -0.0610982 0.99379 -0.0929925
3.07588 26.5934 -2.66571 0.102375 0.990316 -0.0937651
4.21647 26.3078 -3.36284 0.21379 0.970266 -0.113485
5.32481 25.9537 -3.88001 0.295603 0.945252 -0.138265
6.33306 25.5608 -4.03553 0.456412 0.880693 -0.126556
7.42875 24.9505 -4.01359 0.539087 0.837456 -0.0897372
8.57448 24.17 -3.71812 0.609461 0.788514 -0.07767
9.41627 23.5446 -2.79137 0.697161 0.710272 -0.0963329
10.1616 22.9244 -1.79562 0.761828 0.644019 -0.0685632
10.6649 22.42 -0.497093 0.784785 0.617953 -0.0473961
10.9616 22.0678 0.467102 0.792979 0.609241 0.0031558
11.0699 21.9255 0.725605 0.795169 0.606308 0.00784823
-32.8353 1.56176 4.13129 -0.478752 0.877783 0.0171194
-33.0494 1.43945 4.41414 -0.478536 0.8779 0.0171587
-32.0991 1.95416 4.57406 -0.479689 0.877258 0.0178066
-32.8833 1.50679 5.61218 -0.477449 0.878501 0.0166975
-32.5969 1.64104 6.65581 -0.47825 0.878053 0.0173383
-31.7961 2.10022 5.59004 -0.481741 0.876109 0.0189587
-31.2194 2.43242 4.82172 -0.481853 0.876081 0.0172937
-30.459 2.84641 5.21871 -0.484872 0.874392 0.0183581
-31.2293 2.39872 6.2567 -0.483078 0.875414 0.016925
-32.1001 1.89725 7.42448 -0.478803 0.877726 0.0185918
-32.5072 1.66357 7.97396 -0.478739 0.877762 0.0184925
-32.5509 1.60895 9.4678 -0.478613 0.877856 0.0172729
-31.8348 2.01983 8.50977 -0.48251 0.875701 0.0182043
-31.1363 2.4251 7.56349 -0.483444 0.875212 0.0169009
-30.3196 2.89835 6.45859 -0.4868 0.873377 0.0154052
-29.6401 3.29754 5.53412 -0.491436 0.870715 0.0186086
-28.7579 3.79192 5.75863 -0.494258 0.869067 0.0207514
-29.4284 3.39327 6.68099 -0.489895 0.871634 0.0160194
-30.1243 2.98562 7.63182 -0.486153 0.873697 0.0175573
-30.8167 2.58131 8.57138 -0.486973 0.873238 0.0176585
-31.5856 2.13475 9.60814 -0.481604 0.87619 0.0186999
-32.2786 1.73814 10.5346 -0.477264 0.878688 0.0112415
-32.4416 1.64682 10.7508 -0.477263 0.878689 0.0112409
-32.3243 1.69462 12.0235 -0.476795 0.87895 0.0106566
-31.5293 2.14127 10.9687 -0.483664 0.875151 0.0133766
-30.8304 2.54482 10.0285 -0.487772 0.872798 0.0173849
-30.1169 2.96188 9.06246 -0.486557 0.873504 0.0158706
-29.2838 3.44993 7.93034 -0.490454 0.871274 0.0183441
-28.5713 3.87315 6.94899 -0.496437 0.867886 0.0179966
-27.8604 4.30472 5.95562 -0.503797 0.863527 0.0225817
-27.726 4.38812 5.76462 -0.503798 0.863526 0.0225822
-26.7073 4.99247 5.77593 -0.514027 0.857506 0.0214282
-27.3585 4.58338 6.70988 -0.508848 0.860632 0.0196503
-28.0333 4.16921 7.65461 -0.498922 0.866482 0.0169012
-28.7 3.76773 8.57967 -0.492274 0.870289 0.0162191
-29.4535 3.32466 9.60062 -0.491224 0.87097 0.0105163
-30.3355 2.80727 10.7992 -0.488205 0.872629 0.0132238
-31.056 2.39352 11.7675 -0.487168 0.873212 0.0129644
-31.898 1.91571 12.889 -0.478101 0.878234 0.0111689
-32.292 1.69663 13.4094 -0.475702 0.879543 0.0105932
-32.2123 1.72238 14.7375 -0.474603 0.880133 0.0108405
-31.4727 2.13701 13.7594 -0.480747 0.876785 0.0113801
-30.56 2.65813 12.5412 -0.488635 0.87238 0.0137553
-29.7741 3.11442 11.48 -0.489587 0.871913 0.00842844
-29.1141 3.50273 10.578 -0.494735 0.868928 0.0142252
-28.3529 3.94763 9.54624 -0.49311 0.869871 0.0128906
-27.5948 4.40614 8.50016 -0.505038 0.862954 0.0157241
-26.8065 4.8917 7.39476 -0.51298 0.858104 0.0225622
-25.9141 5.46117 6.10495 -0.515622 0.856574 0.0203615
-25.6064 5.6571 5.65706 -0.515656 0.856552 0.0204087
-18.4041 11.6468 -17.3329 -0.67821 0.73486 0.00330598
-18.607 11.4579 -16.9573 -0.679226 0.733894 0.00720224
-18.013 12.0033 -16.4949 -0.690646 0.723135 0.00916711
-17.5268 12.4955 -17.4443 -0.701932 0.712138 0.0123212
-17.4762 12.5476 -17.5444 -0.703903 0.710126 0.0155379
-16.636 13.4133 -17.6574 -0.730196 0.683198 0.00731507
-17.2521 12.745 -16.3889 -0.709701 0.704295 0.0171249
-17.5471 12.446 -15.8149 -0.693864 0.719854 0.0190369
-17.0716 12.8852 -15.1399 -0.705963 0.707321 0.0362381
-16.618 13.3875 -16.0747 -0.717344 0.696273 0.024932
-16.1953 13.8778 -16.9777 -0.734588 0.677796 0.031212
-15.8181 14.315 -17.8097 -0.754439 0.65587 0.0256107
-15.1582 15.0975 -17.6872 -0.771079 0.636311 0.0233644
-15.5475 14.592 -16.7628 -0.765472 0.64261 0.0332369
-15.9988 14.037 -15.76 -0.736427 0.675762 0.0319557
-16.6178 13.3131 -14.442 -0.715984 0.697068 0.038243
-16.6238 13.3062 -14.4295 -0.716441 0.696642 0.0374431
-16.401 13.474 -13.2532 -0.721491 0.691696 0.0317398
-15.9155 14.0471 -14.2882 -0.73492 0.677058 0.038532
-15.4217 14.6632 -15.3885 -0.760044 0.648512 0.0420085
-15.0139 15.206 -16.3453 -0.765472 0.64261 0.0332369
-14.6335 15.7368 -17.2823 -0.786399 0.616798 0.0337282
-14.3793 16.0934 -17.9329 -0.794065 0.606751 0.0362536
-13.7639 16.9137 -17.8253 -0.800909 0.597271 0.0425601
-14.1779 16.2725 -16.704 -0.784828 0.617299 0.0546547
-14.575 15.6962 -15.7081 -0.772585 0.633395 0.0438535
-15.0614 15.028 -14.5453 -0.754776 0.65405 0.0503152
-15.5197 14.428 -13.4882 -0.743221 0.667749 0.041651
-16.0186 13.8348 -12.4222 -0.725333 0.68711 0.0420969
-15.9478 13.8061 -10.9166 -0.717979 0.693828 0.0557638
-15.4508 14.4075 -11.987 -0.725333 0.68711 0.0420985
-14.9667 15.0225 -13.0678 -0.746893 0.663127 0.0491285
-14.5779 15.5496 -13.9811 -0.759042 0.648515 0.0572961
-14.2049 16.0715 -14.8829 -0.783258 0.618839 0.0595412
-13.8261 16.6568 -15.8649 -0.787179 0.612897 0.0685996
-13.4732 17.2132 -16.8061 -0.797754 0.599597 0.063806
-13.204 17.6711 -17.5715 -0.817611 0.572506 0.0612397
-12.8233 18.1198 -16.814 -0.821291 0.566609 0.066599
-13.1511 17.5468 -15.8838 -0.804274 0.588926 0.0794323
-13.5317 16.9256 -14.871 -0.795094 0.60167 0.0762835
-13.8708 16.3936 -13.9676 -0.77535 0.627826 0.0683164
-14.3253 15.7418 -12.8651 -0.75613 0.651609 0.0606168
-14.7132 15.2124 -11.9598 -0.737645 0.672378 0.0615441
-15.2042 14.5809 -10.8591 -0.729676 0.681596 0.0547654
-15.6781 13.9888 -9.82015 -0.709591 0.701138 0.0699022
-16.1073 13.4757 -8.91305 -0.698293 0.713435 0.0582809
-32.1379 1.74624 16.0626 -0.476711 0.879016 0.0088523
-31.5281 2.0859 15.2656 -0.47684 0.8789 0.0126099
-30.8252 2.48731 14.3352 -0.488069 0.872715 0.0125056
-30.0824 2.91587 13.342 -0.492025 0.870508 0.0112576
-29.3523 3.34184 12.3532 -0.495082 0.868769 0.0116089
-28.4238 3.88967 11.0842 -0.495864 0.868315 0.0121902
-27.8218 4.24868 10.2646 -0.498448 0.86686 0.0101839
-27.1732 4.6395 9.36852 -0.50623 0.86232 0.011668
-26.5546 5.02535 8.49603 -0.519068 0.854585 0.0159156
-25.984 5.3854 7.68742 -0.519967 0.854058 0.0148288
-25.3788 5.76916 6.80912 -0.522952 0.852209 0.0161481
-24.5938 6.2823 5.65114 -0.526769 0.849802 0.0187232
-24.0149 6.66676 4.79316 -0.540985 0.840693 0.0238855
-23.3274 7.13695 3.75068 -0.546759 0.837026 0.021021
-22.7248 7.55334 2.82997 -0.551127 0.834375 0.00881054
-22.1925 7.94604 1.99157 -0.568945 0.821899 0.0280016
-21.6477 8.35046 1.11334 -0.566792 0.823462 0.0256434
-21.0585 8.79412 0.152057 -0.574205 0.818067 0.0324796
-20.4407 9.28859 -0.874159 -0.600257 0.799173 0.0318456
-20.3748 9.34248 -0.983814 -0.600258 0.799172 0.0318459
-31.6156 2.02356 16.799 -0.478768 0.877895 0.00900537
-30.6642 2.5569 15.55 -0.483806 0.875041 0.0153605
-29.8028 3.05982 14.4034 -0.491046 0.871044 0.0124949
-28.9219 3.57739 13.2203 -0.498021 0.867087 0.0116201
-28.1613 4.02596 12.1812 -0.496678 0.867884 0.00939993
-27.2845 4.55004 10.975 -0.503321 0.863931 0.0170356
-26.5089 5.02608 9.89858 -0.517016 0.855892 0.0119815
-25.7656 5.49873 8.84341 -0.522315 0.852615 0.0153315
-24.7422 6.15159 7.36044 -0.525925 0.850353 0.0174218
-23.9529 6.67437 6.19301 -0.537622 0.842874 0.022938
-23.1405 7.22885 4.97626 -0.546869 0.836971 0.0203309
-22.3995 7.74951 3.83837 -0.553072 0.832921 0.0188213
-21.5457 8.38111 2.48527 -0.575019 0.817806 0.0233793
-20.838 8.9184 1.33264 -0.582606 0.812576 0.0170641
-20.1293 9.4783 0.15129 -0.600918 0.798442 0.0372599
-19.4664 10.0305 -0.971988 -0.606674 0.794201 0.0345144
-18.7856 10.6226 -2.15921 -0.622025 0.781777 0.0436926
-18.0809 11.2891 -3.4422 -0.637061 0.768953 0.0535133
-17.4712 11.8911 -4.5809 -0.656853 0.751485 0.0617577
-16.8529 12.5317 -5.77358 -0.673515 0.737564 0.0487394
-16.1931 13.2542 -7.08878 -0.685714 0.72452 0.069759
-15.5199 14.0301 -8.47723 -0.705229 0.707086 0.0517884
-14.9327 14.7642 -9.7641 -0.72526 0.685187 0.0672082
-14.3677 15.511 -11.0562 -0.742221 0.666388 0.0709577
-13.762 16.3605 -12.4939 -0.766546 0.637498 0.0774861
-13.2381 17.1717 -13.8337 -0.783482 0.615358 0.0865469
-12.6875 18.0976 -15.3455 -0.796032 0.597845 0.0944221
-12.5025 18.4388 -15.8892 -0.807532 0.584562 0.0786059
-11.9258 19.171 -15.6542 -0.797132 0.594269 0.106886
-12.3782 18.3534 -14.3607 -0.786158 0.60905 0.104945
-12.8692 17.5245 -13.0165 -0.777589 0.621433 0.0957917
-13.1527 17.0757 -12.2806 -0.770714 0.631627 0.0839451
-11.962 18.7729 -13.6678 -0.781225 0.613359 0.116096
-11.5584 19.4955 -14.7928 -0.791918 0.599437 0.116367
-11.395 19.8071 -15.2761 -0.773535 0.621365 0.124696
-10.8579 20.3864 -14.849 -0.768374 0.625377 0.136035
-10.7392 20.604 -15.1791 -0.770971 0.623383 0.130369
-10.056 21.3746 -15.075 -0.743315 0.650509 0.155951
-9.87802 21.6916 -15.5298 -0.744164 0.648157 0.161593
-30.7589 2.49009 17.1 -0.485465 0.874179 0.0115906
-30.0609 2.88952 16.1746 -0.492212 0.870405 0.011033
-29.3195 3.32225 15.1919 -0.495502 0.868532 0.0113775
-28.6169 3.73754 14.2573 -0.4973 0.867494 0.0121333
-27.9013 4.16439 13.2862 -0.502159 0.864689 0.0122217
-27.1638 4.60513 12.2659 -0.503252 0.864108 0.00731475
-26.4394 5.04516 11.2583 -0.513835 0.85776 0.0148703
-25.6457 5.5443 10.1467 -0.520836 0.853467 0.0179978
-24.9777 5.97509 9.19326 -0.522314 0.852615 0.0153315
-24.2178 6.4701 8.08016 -0.53195 0.84667 0.013428
-23.5304 6.92608 7.058 -0.541481 0.840543 0.0169291
-22.785 7.44126 5.94005 -0.550857 0.834454 0.0155776
-22.0945 7.92897 4.88294 -0.559891 0.828266 0.0222884
-21.3126 8.50181 3.64953 -0.573048 0.818753 0.0355008
-20.7161 8.96484 2.67683 -0.579001 0.814703 0.0318761
-20.0201 9.51326 1.51587 -0.595051 0.803349 0.0233353
-19.3806 10.0291 0.437543 -0.602302 0.797379 0.0376544
-18.6644 10.6398 -0.792844 -0.618858 0.784214 0.0449792
-18.0432 11.2085 -1.90625 -0.642717 0.764282 0.0527989
-17.5014 11.7355 -2.91316 -0.654923 0.753277 0.0604106
-16.9459 12.3024 -3.9659 -0.663614 0.745508 0.0619151
-16.3417 12.9491 -5.14682 -0.668782 0.740722 0.0637263
-15.8429 13.5064 -6.15203 -0.692504 0.718518 0.0645685
-15.2833 14.1717 -7.32648 -0.704848 0.70634 0.0653719
-14.8285 14.7354 -8.31745 -0.72365 0.686994 0.0661089
-14.3322 15.3822 -9.43017 -0.737105 0.671862 0.0726476
-14.3001 15.4252 -9.50412 -0.736981 0.672244 0.0703417
-14.5071 14.9752 -7.35252 -0.718774 0.690623 0.0800262
-14.987 14.3679 -6.30093 -0.709116 0.701488 0.0711999
-15.4559 13.8018 -5.30533 -0.69211 0.718739 0.0663116
-15.968 13.2092 -4.2433 -0.691919 0.71879 0.0677491
-16.5007 12.628 -3.19944 -0.657756 0.750353 0.0657842
-17.0395 12.0773 -2.17308 -0.64995 0.758038 0.0542526
-17.5946 11.5313 -1.13063 -0.641016 0.765501 0.0557391
-18.3016 10.8745 0.144221 -0.621008 0.782675 0.0420518
-18.886 10.3752 1.14986 -0.607071 0.794013 0.0317546
-19.5238 9.85623 2.23588 -0.594895 0.803191 0.0313674
-20.1271 9.36019 3.27157 -0.587652 0.808385 0.0343513
-20.8149 8.82092 4.39559 -0.578661 0.814704 0.0375315
-21.6502 8.20711 5.70716 -0.559645 0.828422 0.0226692
-22.3185 7.73621 6.73217 -0.557025 0.830214 0.0216251
-23.124 7.17319 7.94919 -0.54397 0.83897 0.015019
-24.0788 6.53374 9.37172 -0.532327 0.846415 0.0145081
-24.9073 5.98716 10.5706 -0.536215 0.843917 0.0166619
-25.8086 5.4174 11.8446 -0.516834 0.856046 0.00820824
-26.687 4.87424 13.0747 -0.510238 0.859924 0.0136842
-27.5187 4.37219 14.216 -0.500128 0.865816 0.0153438
-28.3739 3.86096 15.37 -0.499677 0.866127 0.0121106
-29.1478 3.40566 16.3984 -0.494234 0.869257 0.0111724
-29.5891 3.14725 16.9831 -0.493075 0.869926 0.0102477
-28.5376 3.74726 17.0204 -0.497274 0.867552 0.0084519
-27.8258 4.17036 16.0682 -0.502526 0.864488 0.0112782
-26.9459 4.69455 14.8867 -0.506633 0.862093 0.0108658
-26.2431 5.12595 13.9301 -0.52119 0.853314 0.0146945
-25.487 5.6015 12.8668 -0.524346 0.851431 0.011269
-24.7717 6.05248 11.848 -0.534263 0.845299 0.00568808
-24.1213 6.4803 10.9097 -0.537537 0.843085 0.0162036
-23.4402 6.93135 9.92325 -0.537493 0.843216 0.00942152
-22.7708 7.38423 8.92925 -0.550574 0.834669 0.014012
-22.1024 7.8504 7.91341 -0.560602 0.827881 0.0184181
-21.3364 8.39519 6.73273 -0.559543 0.828579 0.0192062
-20.5926 8.92505 5.58697 -0.568463 0.822519 0.0176814
-19.9656 9.41607 4.57062 -0.587558 0.808259 0.0386328
-19.3471 9.92761 3.52091 -0.595656 0.802347 0.0378495
-18.696 10.4738 2.38668 -0.610967 0.790838 0.0359815
-18.0001 11.0693 1.17788 -0.630031 0.775716 0.0364055
-17.411 11.6015 0.134262 -0.639542 0.767653 0.0411619
-16.8909 12.1047 -0.830636 -0.650061 0.757642 0.0583081
-16.3474 12.6541 -1.86945 -0.663081 0.746102 0.0604582
-15.7897 13.2457 -2.95643 -0.674564 0.735261 0.0659833
-15.3211 13.8019 -3.93343 -0.69346 0.716252 0.0780789
-14.803 14.417 -5.02786 -0.705725 0.704394 0.0760271
-14.3246 15.0156 -6.06789 -0.718726 0.690133 0.084554
-14.2381 15.1307 -6.26215 -0.720735 0.688213 0.0830921
-13.7835 15.5193 -5.57974 -0.718726 0.690133 0.0845545
-14.3987 14.7378 -4.22917 -0.707724 0.702831 0.0717971
-14.9318 14.0863 -3.08 -0.700861 0.709563 0.0729056
-15.5661 13.3638 -1.78252 -0.687873 0.723845 0.0536561
-16.1152 12.7743 -0.694602 -0.678064 0.732539 0.0601251
-16.695 12.1827 0.422158 -0.64991 0.758331 0.0505067
-17.2342 11.6758 1.40325 -0.629734 0.775094 0.0516179
-17.8466 11.1229 2.48513 -0.611755 0.789816 0.0441138
-18.4591 10.5964 3.55651 -0.605919 0.794647 0.037382
-19.0528 10.0958 4.60124 -0.605168 0.79529 0.0358444
-19.7513 9.52555 5.76755 -0.590929 0.806119 0.0312197
-20.5326 8.94072 7.00231 -0.581828 0.813093 0.0188759
-21.2521 8.42262 8.12521 -0.562531 0.826568 0.0185457
-21.9304 7.94438 9.16643 -0.557087 0.830348 0.0132997
-22.6086 7.47535 10.1838 -0.555318 0.831563 0.0111501
-23.3773 6.95107 11.314 -0.54049 0.841251 0.0129233
-24.038 6.51583 12.2683 -0.538939 0.842297 0.00897745
-24.8205 6.00826 13.3919 -0.527884 0.849231 0.0120261
-25.5264 5.55443 14.3884 -0.52417 0.851456 0.0164027
