31.8557 3.50902 -3.9557 0.505922 0.861872 -0.0347148
31.1128 3.92706 -4.53608 0.516992 0.855312 -0.0340561
30.377 4.34715 -5.18832 0.518077 0.854616 -0.034971
29.5602 4.80721 -6.10745 0.526158 0.849617 -0.0360328
28.8661 5.21396 -6.77705 0.528849 0.848086 -0.0327068
28.2528 5.56814 -7.5688 0.541958 0.839865 -0.0297156
27.5165 6.01335 -8.46758 0.544522 0.838035 -0.034532
26.8524 6.41708 -9.38089 0.553601 0.83208 -0.0341779
26.2058 6.81524 -10.2451 0.561101 0.826691 -0.0418035
25.6283 7.17004 -11.0887 0.56424 0.824849 -0.0354513
24.9473 7.6124 -11.7636 0.575362 0.817039 -0.0361607
24.1825 8.13038 -12.431 0.577402 0.815429 -0.0401141
23.2314 8.80255 -12.8925 0.594455 0.803061 -0.0410992
22.3211 9.49002 -12.9817 0.606378 0.794005 -0.0431406
21.4308 10.1923 -13.0366 0.627772 0.776267 -0.0575378
20.7007 10.7933 -12.8782 0.63734 0.768316 -0.0572647
19.838 11.5643 -12.4064 0.648124 0.758254 -0.0699961
19.0122 12.3588 -11.6088 0.663451 0.745273 -0.0658101
18.5847 12.8345 -10.8206 0.682154 0.727148 -0.0768968
18.1662 13.3213 -9.97309 0.691112 0.71851 -0.0773879
17.9406 13.6684 -8.71424 0.708462 0.702692 -0.0656169
17.8707 13.8281 -7.48109 0.715276 0.696703 -0.0526708
17.8937 13.8729 -6.34682 0.725058 0.687822 -0.0345121
17.9541 13.8602 -5.16674 0.709769 0.703914 -0.0270767
18.0715 13.7708 -4.10354 0.713144 0.700949 -0.0096347
18.2407 13.6097 -3.12459 0.713565 0.700571 -0.00496094
18.3937 13.455 -2.09778 0.705552 0.708565 0.0105691
18.6712 13.1834 -1.12124 0.689366 0.724341 0.00780165
18.9502 12.8994 -0.216871 0.678449 0.734396 0.00758956
19.2648 12.6001 0.668632 0.664978 0.746731 0.0134893
19.728 12.1735 1.59237 0.662135 0.749232 0.0151185
20.0901 11.8471 2.41922 0.661572 0.749874 -0.00338143
20.6519 11.3852 3.29256 0.633949 0.773357 0.00230925
21.4329 10.7735 3.98821 0.622538 0.782507 -0.0111774
22.2439 10.1369 4.46502 0.619318 0.785083 -0.00944061
23.2248 9.39095 4.89897 0.594492 0.803936 -0.0109707
23.9671 8.85744 5.16822 0.58649 0.809909 -0.00874211
24.8315 8.24323 5.39226 0.58002 0.814546 -0.00952497
25.9217 7.49152 5.75483 0.561606 0.827333 -0.00743725
26.7012 6.97533 6.04552 0.554135 0.832385 -0.00837499
27.6418 6.36632 6.31805 0.543677 0.83923 -0.0104042
28.6749 5.71288 6.49237 0.532155 0.846554 -0.0125495
29.5817 5.15168 6.71349 0.524767 0.851224 -0.00607392
30.489 4.59931 6.98484 0.512981 0.858376 -0.00636728
31.2918 4.12172 7.24868 0.50819 0.861205 -0.00659528
32.1456 3.62697 7.60379 0.499205 0.866431 -0.00881096
32.9925 3.14644 7.99364 0.493725 0.869583 -0.006429
33.8336 2.67832 8.57422 0.486138 0.873841 -0.00763711
34.5634 2.28131 9.25624 0.483982 0.875072 -0.00314068
35.2355 1.92127 10.2793 0.477024 0.878874 -0.00542142
35.7519 1.64726 11.2346 0.469609 0.88287 -0.00284266
36.1785 1.42162 12.1243 0.466919 0.8843 -7.52906e-06
36.5945 1.2016 12.9867 0.464733 0.885445 0.00163192
36.9892 0.993803 13.8322 0.462223 0.886761 0.00208743
37.329 0.816006 14.81 0.457985 0.888951 0.00317574
37.3709 0.788874 15.8656 0.455249 0.890357 0.00348906
37.2302 0.857786 16.8609 0.456067 0.889943 0.000649879
36.6407 1.16039 17.903 0.454793 0.890597 -0.000382054
35.848 1.56903 18.561 0.459171 0.88834 -0.00383748
35.0735 1.97247 19.0223 0.462435 0.886639 0.00493397
34.2278 2.41809 19.2023 0.47545 0.879688 0.00978716
33.1122 3.02455 19.2852 0.484348 0.874806 0.00972936
32.2885 3.486 19.3077 0.495237 0.868674 0.010463
31.0857 4.18051 19.3455 0.504181 0.863499 0.0119475
30.2706 4.66836 19.4382 0.51487 0.857029 0.0202601
29.339 5.23427 19.4748 0.52632 0.850034 0.0207149
28.4118 5.81185 19.5381 0.540148 0.841433 0.0136235
27.5471 6.37374 19.6117 0.543786 0.839149 0.00976515
26.4927 7.06785 19.6656 0.553564 0.83273 0.0105027
25.2799 7.8973 19.6921 0.566429 0.824024 0.0117779
24.4529 8.4865 19.6924 0.587226 0.809333 0.00943028
23.6388 9.08696 19.6243 0.597076 0.802093 0.010433
22.6094 9.8672 19.6076 0.603608 0.797248 0.00390743
21.8457 10.469 19.6699 0.622668 0.782367 0.0136436
21.0837 11.0999 19.6796 0.643859 0.765139 0.00167674
20.1773 11.8857 19.6195 0.662231 0.74919 0.00873116
19.3547 12.6284 19.5816 0.680612 0.732495 0.00462794
18.5322 13.4174 19.6625 0.707983 0.705907 0.00668262
17.6845 14.304 19.4961 0.721896 0.691989 0.00381365
16.6318 15.4668 19.454 0.749245 0.662167 0.0023016
15.7603 16.487 19.5062 0.770751 0.636896 -0.00401243
15.0613 17.3647 19.4946 0.782935 0.622066 -0.00687079
14.494 18.1259 19.5102 0.817959 0.575085 -0.009874
14.1088 18.6696 18.9886 0.824645 0.564811 -0.030822
13.936 18.8724 18.0428 0.826789 0.56174 -0.0294582
13.5589 19.3712 17.2535 0.820606 0.56862 -0.0572455
13.0587 20.0571 16.8736 0.821868 0.565219 -0.0711036
12.5039 20.8638 16.8563 0.814256 0.576307 -0.0680875
11.7994 21.826 16.841 0.806445 0.585188 -0.0847743
11.1508 22.6791 16.8547 0.769232 0.631083 -0.100077
10.6088 23.3639 17.2185 0.736892 0.670142 -0.0887501
10.2045 23.8618 17.9447 0.68989 0.721054 -0.0602703
10.0234 24.0788 19.0126 0.667248 0.743476 -0.0449947
9.45695 24.6186 19.4736 0.669743 0.741008 -0.048492
8.56386 25.3111 19.4084 0.599309 0.799352 -0.0147472
7.73838 25.8816 19.3979 0.569077 0.822068 -0.0188831
6.70735 26.456 19.2659 0.483973 0.87484 -0.0143797
6.13556 26.7201 18.6009 0.396953 0.915006 -0.0514391
5.80187 26.8065 17.738 0.349906 0.931396 -0.100336
4.72846 27.0608 16.9214 0.259141 0.963435 -0.0681161
3.56987 27.1934 16.8168 0.0472558 0.998773 -0.0148289
2.18325 27.2227 16.7284 0.0264201 0.999434 0.0012538
1.24284 27.1726 16.8541 -0.0599936 0.998122 -0.00532626
0.303738 27.0734 17.2198 -0.130391 0.990864 -0.00844014
-0.618817 26.8986 17.18 -0.205502 0.975721 -0.0710284
-1.52264 26.5787 16.8412 -0.397017 0.912898 -0.0948375
-2.36669 26.1855 16.7146 -0.563993 0.824712 0.00691586
-3.31218 25.6488 16.7696 -0.493954 0.864737 0.0899254
-4.2185 25.0998 16.7776 -0.533899 0.835312 0.131167
-5.06425 24.572 16.7724 -0.530932 0.840976 0.103892
-6.10855 23.9117 16.8774 -0.524175 0.849579 0.0587883
-6.39897 23.7618 15.9985 -0.569265 0.820563 0.047237
-6.24003 23.9389 15.0285 -0.626025 0.778189 0.0486423
-6.19951 24.0393 14.1019 -0.633719 0.772111 0.0473726
-6.30974 24.0029 13.0839 -0.61875 0.784929 0.0138453
-6.41216 23.9205 12.1265 -0.599005 0.800622 -0.0140407
-6.37711 23.9046 10.991 -0.568837 0.821192 -0.045471
-6.54593 23.686 9.73889 -0.576462 0.81023 -0.103383
-6.96122 23.246 8.91298 -0.618293 0.767892 -0.166422
-7.61247 22.5809 8.31997 -0.661373 0.732516 -0.161263
-8.18301 21.9338 7.82802 -0.727995 0.660736 -0.182898
-8.70634 21.2905 7.35191 -0.734475 0.667956 -0.119923
-9.30658 20.5309 6.86467 -0.754673 0.647799 -0.104045
-9.88097 19.8086 6.73862 -0.782607 0.615753 -0.0902008
-10.3966 19.1761 7.16088 -0.802548 0.593703 -0.0585946
-10.7206 18.759 7.99862 -0.812755 0.582602 -0.00213696
-10.7802 18.671 9.1382 -0.81803 0.575151 0.00531816
-10.718 18.6941 10.3057 -0.805448 0.59185 0.0310154
-10.6345 18.7407 11.4697 -0.790047 0.612055 0.034858
-10.5709 18.7907 12.4842 -0.796481 0.604502 -0.0139986
-10.3121 19.1232 13.6231 -0.795014 0.606558 0.00625681
-9.73751 19.881 14.3734 -0.799712 0.600384 -1.53645e-05
-9.25299 20.5472 14.9308 -0.806181 0.591644 -0.00540602
-8.79402 21.1837 15.5824 -0.804188 0.594221 -0.0128629
-8.62189 21.4436 16.472 -0.803378 0.594927 -0.0246753
-9.17207 20.7141 16.8316 -0.805559 0.591535 -0.0340578
-9.79795 19.8822 17.0894 -0.810954 0.584211 -0.0324131
-10.2739 19.2556 17.6741 -0.809513 0.586589 -0.0245388
-10.532 18.9297 18.5147 -0.806216 0.591119 -0.0210233
-11.0089 18.3154 19.3115 -0.803448 0.595185 -0.015059
-11.6151 17.5469 19.3838 -0.777773 0.62832 -0.0168488
-12.4057 16.5701 19.4795 -0.7703 0.637661 0.00419113
-13.251 15.5886 19.4701 -0.741716 0.670705 0.0033879
-14.0435 14.7218 19.5214 -0.716943 0.696993 0.00906961
-14.7496 14.008 19.4945 -0.707588 0.706474 0.0136335
-15.6734 13.1097 19.5375 -0.684641 0.728802 0.0106558
-16.5404 12.3178 19.5061 -0.667661 0.744355 0.0128026
-17.5428 11.4762 19.4496 -0.635642 0.771789 0.0173332
-18.6115 10.6239 19.5709 -0.613882 0.789069 0.0227719
-19.4356 9.99681 19.5166 -0.601659 0.798607 0.0152499
-20.4104 9.27468 19.4513 -0.587683 0.809032 0.00976324
-21.1741 8.73227 19.4877 -0.567496 0.82328 0.0126079
-21.9604 8.19856 19.497 -0.556655 0.830625 0.0140715
-22.7683 7.65999 19.4602 -0.553734 0.832591 0.0130606
-23.7227 7.03082 19.429 -0.546851 0.837166 0.0103635
-24.6998 6.40485 19.3505 -0.530071 0.847865 0.0122495
-25.4831 5.91856 19.2123 -0.52109 0.853397 0.0120009
-26.2886 5.43074 19.147 -0.520785 0.853687 0.00131391
-27.1976 4.88455 19.0138 -0.505298 0.862943 0.00152004
-28.1656 4.31745 18.8473 -0.504218 0.863555 0.00513221
-29.1289 3.76105 18.9442 -0.494704 0.86899 0.0100804
-30.0745 3.22988 18.8338 -0.490545 0.871363 0.00954297
-31.1945 2.61428 18.6716 -0.478389 0.878087 0.00675514
-32.1092 2.12161 18.6377 -0.473973 0.880527 0.00468037
-33.0691 1.60867 18.2761 -0.467531 0.883946 0.00583829
-33.8673 1.19535 17.717 -0.463822 0.885892 0.00804608
-34.526 0.858623 16.8877 -0.463622 0.88601 0.00590666
-34.6028 0.82197 15.8208 -0.464822 0.885399 0.00295791
-34.5876 0.836747 14.8324 -0.466365 0.884553 0.00796961
-34.5827 0.849651 13.8112 -0.463123 0.886223 0.0112372
-34.5979 0.856351 12.5418 -0.462682 0.886478 0.00907791
-34.6332 0.851591 11.5331 -0.461314 0.887125 0.0140962
-34.7126 0.830474 10.211 -0.464234 0.885616 0.013071
-34.6917 0.860939 8.99481 -0.46457 0.885407 0.0151459
-34.7968 0.82576 7.81437 -0.465439 0.884937 0.0157736
-34.8016 0.849166 6.43762 -0.466992 0.88412 0.0158382
-34.9537 0.788444 5.29101 -0.471387 0.881783 0.0159003
-35.0946 0.731658 4.33237 -0.469767 0.882601 0.0182676
-35.2481 0.675146 3.25203 -0.4651 0.884918 0.024521
-35.1093 0.775363 1.98015 -0.461647 0.886858 0.0187158
-34.607 1.05433 1.15936 -0.464017 0.885697 0.0151312
-33.6875 1.53515 1.39613 -0.470335 0.882364 0.0147808
-32.9128 1.94367 1.75746 -0.474393 0.880198 0.0140807
-31.9475 2.45992 2.18374 -0.478679 0.877859 0.0149777
-31.0939 2.92086 2.68609 -0.486655 0.873484 0.0138653
-30.2342 3.39233 3.17098 -0.491803 0.870561 0.0159339
-29.4316 3.84098 3.5101 -0.495482 0.868443 0.0170892
-28.5926 4.3142 3.7159 -0.497003 0.86754 0.0188002
-27.2687 5.08631 3.89492 -0.510434 0.859601 0.0232696
-26.2362 5.71053 3.75156 -0.51752 0.855308 0.0249337
-25.4789 6.18298 3.10613 -0.522172 0.852675 0.0167936
-24.7704 6.6418 2.14194 -0.531864 0.84663 0.018405
-24.2131 7.02421 1.23282 -0.544711 0.838077 0.0302607
-23.8417 7.30452 0.252469 -0.550081 0.834597 0.0286758
-23.0439 7.85542 -0.510001 -0.557703 0.829673 0.0241289
-22.4137 8.30272 -1.09634 -0.567071 0.823195 0.0279435
-21.8178 8.74128 -1.82427 -0.58683 0.80896 0.03326
-21.1264 9.29396 -2.78392 -0.5963 0.801996 0.0350582
-20.6104 9.72177 -3.60563 -0.601451 0.797661 0.0446464
-20.1811 10.0932 -4.4101 -0.613345 0.788421 0.0462043
-19.6813 10.5378 -5.22657 -0.62196 0.78157 0.0480968
-19.1202 11.0361 -5.9498 -0.6499 0.758682 0.0450708
-18.5864 11.5384 -6.70457 -0.649964 0.75862 0.0451902
-18.1402 11.9868 -7.57524 -0.671543 0.739302 0.0496129
-17.6811 12.4654 -8.53717 -0.670062 0.740832 0.0467423
-17.2974 12.8946 -9.64318 -0.697381 0.715201 0.0463454
-17.1286 13.1257 -10.6251 -0.699015 0.713271 0.0512087
-17.18 13.1373 -11.6478 -0.706384 0.706993 0.0340674
-17.4606 12.9037 -12.6837 -0.701552 0.711771 0.0347373
-17.9314 12.4875 -13.7789 -0.700805 0.71282 0.0275651
-18.5056 11.9761 -14.6204 -0.676939 0.735641 0.0235414
-19.0929 11.4585 -15.349 -0.667798 0.744135 0.0176036
-19.7471 10.8923 -15.9264 -0.654289 0.755748 0.0250455
-20.434 10.3265 -16.4018 -0.645057 0.763732 0.0248037
-21.1221 9.78086 -16.769 -0.625651 0.779987 0.0134241
-21.9064 9.18084 -17.0275 -0.603784 0.796953 0.0176086
-23.003 8.36668 -17.1138 -0.589782 0.807489 0.0108886
-24.0505 7.61625 -17.2309 -0.575232 0.817944 0.00873748
-24.9883 6.97256 -17.512 -0.560847 0.8279 0.00393035
-25.0392 6.93914 -18.2652 -0.564593 0.825354 0.00510669
-24.1178 7.57965 -18.6063 -0.574795 0.818282 0.0049642
-23.3267 8.14415 -18.7481 -0.588856 0.808233 0.000585593
-22.4427 8.79492 -18.834 -0.601422 0.798906 0.00642067
-21.4859 9.52031 -18.9031 -0.615864 0.787738 0.00567576
-20.6926 10.1562 -18.9515 -0.626778 0.779158 0.0075038
-19.9636 10.7608 -19.0463 -0.641357 0.767157 0.00950254
-19.2542 11.3755 -19.0939 -0.661591 0.749521 0.0227242
-18.5074 12.0584 -19.069 -0.685693 0.727828 0.0096003
-17.7014 12.8469 -19.103 -0.711177 0.703012 -0.000730338
-17.0242 13.5426 -19.2621 -0.720334 0.693628 0.000531324
-16.153 14.5061 -19.3643 -0.750704 0.660634 0.00263942
-15.2691 15.5681 -19.4012 -0.782898 0.621785 -0.000941836
-14.6055 16.4401 -19.4998 -0.799308 0.600863 0.00188162
-13.8951 17.4408 -19.5088 -0.8229 0.567721 0.0187284
-13.1622 18.5224 -19.1451 -0.835905 0.548581 0.0138807
-12.8178 18.9939 -18.157 -0.851746 0.522243 0.0406091
-12.4696 19.4176 -17.3743 -0.826325 0.552897 0.105221
-11.8522 20.2397 -17.0853 -0.803646 0.583571 0.116614
-11.2899 21.0211 -17.1662 -0.799564 0.584472 0.138169
-10.5661 21.8638 -16.9446 -0.760473 0.62642 0.171049
-9.84017 22.6745 -16.9772 -0.728108 0.663372 0.171518
-9.17581 23.4594 -17.6678 -0.638895 0.744291 0.194535
-8.91991 23.8386 -18.5188 -0.626913 0.775485 0.0748453
-8.57883 24.1902 -19.4465 -0.62141 0.78204 0.0475788
-7.69775 24.8285 -19.4871 -0.523059 0.850752 0.0393594
-6.86547 25.2979 -19.4789 -0.489818 0.871199 0.0330236
-6.1435 25.6456 -19.1716 -0.517058 0.824988 0.0284473
-5.84151 25.6524 -18.232 -0.386936 0.917892 0.0880656
-5.18327 25.8094 -17.3589 -0.320664 0.932284 0.160475
-4.10987 26.0476 -16.9484 -0.239031 0.961018 0.138953
-2.76412 26.2944 -16.7652 -0.147923 0.984863 0.0903513
-1.76693 26.4442 -16.8224 -0.109953 0.989582 0.091142
-0.740646 26.5505 -17.0281 -0.0470112 0.995948 0.0655495
0.285003 26.5411 -17.0228 0.00879262 0.999847 0.0151184
0.483059 26.5129 -17.0063 0.202089 0.972051 0.118205
0.789166 26.6243 -17.8996 0.132319 0.95669 0.207039
1.69562 26.2724 -17.927 0.465221 0.878528 0.086995
2.51493 25.818 -17.9365 0.516284 0.855187 -0.0458876
3.45769 25.3423 -17.9691 0.432944 0.892494 -0.126545
4.30403 24.9126 -18.1546 0.353968 0.924739 -0.139872
4.64666 24.7298 -18.9777 0.34825 0.936439 -0.0423615
4.89603 24.6139 -20.1095 0.410579 0.906528 0.055087
5.97498 24.1619 -20.5583 0.387099 0.922033 -0.00305802
7.11409 23.6341 -20.4945 0.428897 0.903353 0.000736652
7.92842 23.2221 -20.0041 0.463125 0.886267 0.00682505
7.89223 23.2702 -18.9166 0.505457 0.862807 -0.00877975
8.20071 23.0157 -18.0824 0.595668 0.785437 0.168129
8.88305 22.3116 -17.9011 0.716692 0.697316 0.00972907
9.60931 21.4441 -17.9726 0.778338 0.624892 -0.0588924
10.247 20.6302 -17.9739 0.781035 0.618407 -0.0852044
10.804 19.8761 -18.209 0.749576 0.645942 -0.144551
10.9823 19.6012 -19.0447 0.756055 0.653339 -0.0346511
11.0063 19.5459 -20.0906 0.773156 0.634132 -0.0103086
11.4916 18.9492 -20.5151 0.76576 0.643112 -0.00439435
12.1407 18.1902 -20.5302 0.753607 0.657027 -0.0198009
13.0119 17.2075 -20.4187 0.73237 0.679853 -0.0334246
13.6612 16.5368 -20.3259 0.716441 0.696705 -0.0362407
14.3348 15.8503 -20.2659 0.714819 0.69814 -0.0404323
15.0367 15.1719 -20.2406 0.704245 0.706883 -0.0659971
15.8739 14.3568 -20.1751 0.679641 0.729694 -0.0724066
16.6295 13.6741 -20.2708 0.65508 0.752896 -0.0630908
17.5673 12.871 -20.171 0.653227 0.754928 -0.0581142
18.5194 12.0637 -20.1498 0.63924 0.767415 -0.0494658
19.2949 11.4275 -20.0233 0.633197 0.772551 -0.0468025
20.0406 10.8242 -20.0388 0.617994 0.785004 -0.0420174
20.9815 10.1094 -19.8401 0.607209 0.793531 -0.0400776
21.9862 9.35959 -19.8834 0.5914 0.805481 -0.0379618
22.7564 8.79899 -19.8349 0.588014 0.80818 -0.0325316
23.5845 8.2202 -19.7898 0.569289 0.821789 -0.0234524
24.4933 7.59831 -19.8194 0.560242 0.827961 -0.0244705
25.492 6.93191 -19.719 0.552655 0.833061 -0.0239728
26.2734 6.41644 -19.6926 0.550768 0.834364 -0.0221651
27.0683 5.89897 -19.6604 0.540285 0.841171 -0.0222255
27.9195 5.35826 -19.7096 0.53516 0.844479 -0.021428
28.8874 4.74441 -19.8076 0.531148 0.847078 -0.0179431
29.7056 4.23927 -19.7897 0.515554 0.856609 -0.0192808
30.7894 3.59681 -19.7271 0.511567 0.859107 -0.0153361
31.9155 2.94221 -19.6725 0.500117 0.865898 -0.0101405
32.758 2.46075 -19.6051 0.491375 0.870681 -0.0215738
33.6318 1.97671 -19.4189 0.483387 0.875181 -0.0198804
34.6329 1.43587 -19.1252 0.477696 0.878257 -0.0217163
35.5896 0.929865 -18.6909 0.471889 0.881443 -0.0194857
36.3902 0.514404 -18.1294 0.470839 0.881988 -0.020206
36.6359 0.414551 -17.0231 0.467702 0.883451 -0.0277155
36.181 0.683965 -15.9098 0.469374 0.882722 -0.0221274
35.7425 0.940561 -15.0694 0.47149 0.881572 -0.0229619
35.2318 1.2356 -14.3426 0.473583 0.880382 -0.0254173
34.6286 1.59878 -13.1813 0.472646 0.880682 -0.0316321
34.1146 1.90341 -12.36 0.47663 0.878777 -0.0237609
33.6124 2.20282 -11.3999 0.477637 0.877808 -0.0362711
33.1529 2.50631 -10.2798 0.491211 0.870502 -0.0306241
32.88 2.70147 -9.2091 0.497434 0.866945 -0.0310915
32.7528 2.81284 -8.20648 0.495969 0.867571 -0.0362181
32.8509 2.80535 -7.08707 0.49973 0.865406 -0.036653
32.9342 2.79834 -6.14596 0.493523 0.869133 -0.0322832
33.3136 2.61927 -5.21741 0.496338 0.867449 -0.034353
33.7613 2.39816 -4.33204 0.488312 0.872037 -0.033209
34.2789 2.13754 -3.54454 0.487341 0.872624 -0.0320378
35.0094 1.76934 -2.58462 0.476819 0.878528 -0.0288461
35.6818 1.43298 -1.71195 0.475238 0.879468 -0.0261613
36.3054 1.11786 -1.00265 0.473381 0.880401 -0.0283401
36.4254 1.08945 0.104148 0.472706 0.880764 -0.028359
35.4973 1.57787 -0.281949 0.477446 0.87822 -0.02784
34.6203 2.04314 -0.79032 0.482719 0.875409 -0.0253263
33.8556 2.45167 -1.25582 0.487091 0.872928 -0.0267452
33.1766 2.81776 -1.91985 0.497243 0.867197 -0.0267628
32.3743 3.26286 -2.42002 0.501169 0.864821 -0.0300567
31.5987 3.69847 -2.98493 0.509686 0.859797 -0.0310668
30.8295 4.13627 -3.50656 0.513463 0.857473 -0.0329098
30.0812 4.56617 -4.18777 0.519477 0.853872 -0.0323046
29.2367 5.0503 -5.10306 0.523748 0.851166 -0.0345868
28.4703 5.50476 -5.77947 0.53597 0.84329 -0.0399819
27.7486 5.93235 -6.72028 0.546955 0.83634 -0.0369471
27.2314 6.24592 -7.44977 0.561043 0.82703 -0.0353943
26.6094 6.63275 -8.15479 0.558872 0.828259 -0.0406084
26.1083 6.93689 -8.99747 0.567075 0.822832 -0.037062
25.5672 7.28193 -9.67858 0.576333 0.81675 -0.0275398
25.0616 7.59947 -10.4085 0.581059 0.812568 -0.0457694
24.4449 8.00897 -11.0347 0.583027 0.811364 -0.041997
23.614 8.59246 -11.7265 0.595484 0.802021 -0.046122
22.8826 9.12836 -11.9428 0.60538 0.794115 -0.0538124
22.0622 9.75873 -12.0259 0.617491 0.785271 -0.0453131
21.2734 10.3913 -12.0102 0.630947 0.774394 -0.0471124
20.5203 11.0418 -11.6676 0.647565 0.759901 -0.0566606
19.9026 11.6061 -11.2383 0.654607 0.753471 -0.0614134
19.3256 12.1722 -10.6205 0.672743 0.73722 -0.0626274
18.9959 12.543 -9.81146 0.691424 0.719903 -0.0606012
18.686 12.9284 -8.75378 0.69094 0.720489 -0.0591368
18.6108 13.069 -7.74235 0.708276 0.704487 -0.0452096
18.6129 13.1256 -6.70969 0.709296 0.704054 -0.0347313
18.6494 13.1364 -5.68284 0.71134 0.702212 -0.0298942
18.7662 13.0659 -4.31856 0.688161 0.725418 -0.0142371
18.9445 12.9144 -3.37344 0.688755 0.724887 -0.0124773
19.0453 12.8299 -2.44282 0.686722 0.726873 -0.00824217
19.341 12.5483 -1.56009 0.682366 0.730944 -0.00260271
19.7872 12.1511 -0.180749 0.666669 0.745265 0.00863803
20.2848 11.7028 0.815178 0.647519 0.761937 0.0130452
20.7197 11.328 1.94174 0.63937 0.768775 0.0106005
21.4156 10.7706 2.81464 0.622916 0.782248 -0.00629943
22.2311 10.1301 3.35957 0.621792 0.783093 -0.0117553
22.9688 9.57052 3.68745 0.601491 0.79876 -0.0138182
23.9078 8.88385 4.01536 0.582547 0.812722 -0.0110403
24.6766 8.33947 4.32856 0.578107 0.815836 -0.0142798
25.5573 7.73036 4.56511 0.568184 0.822856 -0.00866292
26.6047 7.03017 5.00834 0.554739 0.831998 -0.00655731
27.6129 6.37216 5.32775 0.54425 0.838767 -0.0145372
28.4066 5.86453 5.40441 0.534333 0.845104 -0.0156078
29.1957 5.37591 5.56586 0.528509 0.848846 -0.0116657
30.3062 4.69867 5.87756 0.519301 0.854558 -0.00759159
31.2793 4.11954 6.1749 0.508766 0.860849 -0.00808871
32.1961 3.58797 6.56948 0.501458 0.865139 -0.0079095
33.2955 2.96525 6.97189 0.489096 0.872167 -0.0104225
34.0726 2.53653 7.50647 0.481544 0.876378 -0.00880762
34.8875 2.09581 8.19105 0.478518 0.878051 -0.00681736
35.5021 1.76792 8.90159 0.476812 0.878963 -0.00865242
36.0113 1.50313 9.81146 0.467364 0.884026 -0.00832802
36.6523 1.17038 10.9156 0.465825 0.884872 -0.00227914
37.0722 0.953442 11.7717 0.464142 0.885757 -0.00107299
37.4484 0.756168 12.6198 0.462996 0.886361 6.93796e-05
37.7999 0.576488 13.488 0.452691 0.891666 -0.00181042
38.2255 0.365068 14.4336 0.445689 0.895185 0.00201743
38.3101 0.315933 15.5373 0.448741 0.893548 0.0129315
38.2231 0.345284 16.818 0.460978 0.887387 0.00661294
37.9092 0.5105 17.7983 0.456334 0.889792 -0.00418854
37.1072 0.924775 18.8385 0.450647 0.892698 -0.00287868
36.42 1.2739 19.3988 0.455966 0.889988 0.000422213
35.5379 1.72817 19.8858 0.459147 0.888357 0.00255957
34.5303 2.25138 20.1489 0.46778 0.88379 0.00984398
33.576 2.76121 20.2746 0.476118 0.879361 0.00593179
32.6017 3.29916 20.4024 0.487756 0.872961 0.0057482
31.5622 3.89072 20.4128 0.49964 0.866145 0.0123945
30.6948 4.39557 20.4379 0.509559 0.860341 0.012757
29.676 5.00657 20.4596 0.522255 0.852614 0.0172995
28.7299 5.59536 20.5413 0.53551 0.844404 0.0145391
27.6474 6.2941 20.5888 0.5488 0.835877 0.0113403
26.5249 7.03595 20.6857 0.55649 0.830771 0.0113647
25.3917 7.81035 20.6832 0.574632 0.818388 0.00622289
24.4774 8.46031 20.6642 0.58553 0.810626 0.00635004
23.5332 9.15589 20.6437 0.601725 0.79866 0.00835468
22.6144 9.85859 20.6771 0.614214 0.789138 0.0013557
21.7943 10.5089 20.6643 0.634603 0.772817 -0.00577798
21.0263 11.1472 20.6715 0.646229 0.763101 0.0080364
20.1291 11.9269 20.6708 0.664352 0.74742 -0.00052253
19.2474 12.727 20.6619 0.690653 0.723179 0.00307948
18.557 13.3858 20.6939 0.702994 0.710972 0.00314042
17.7916 14.1753 20.5682 0.730539 0.682642 0.00880929
17.0554 14.9877 20.528 0.741124 0.671336 0.00654917
16.1969 15.9746 20.5395 0.756218 0.654221 0.00674651
15.4275 16.9141 20.4985 0.778623 0.627417 0.00970802
14.8072 17.7243 20.4721 0.808812 0.588059 -0.00317576
14.1204 18.6895 20.5294 0.822817 0.568286 -0.00484989
13.5644 19.4985 20.252 0.827633 0.561248 -0.00490443
13.5252 19.5435 19.0545 0.837888 0.545832 -0.00336461
13.3491 19.759 18.0891 0.86706 0.494835 -0.0217655
12.8014 20.5514 17.8406 0.822771 0.563558 -0.0738222
12.1731 21.4528 17.8361 0.818403 0.568336 -0.0843377
11.4942 22.3916 17.8301 0.799008 0.592855 -0.100487
10.9412 23.1401 18.1073 0.72466 0.672615 -0.141561
10.7462 23.4044 18.9837 0.707627 0.706582 -0.00258982
10.7778 23.3953 20.168 0.7186 0.695235 -0.016193
10.0385 24.1435 20.529 0.698696 0.714494 -0.0355279
9.15921 24.9302 20.5617 0.633748 0.772489 -0.0403037
8.39643 25.4928 20.4409 0.548436 0.833581 -0.0660388
7.56656 26.0317 20.3977 0.494458 0.865604 -0.0585801
6.46436 26.6086 20.4037 0.426188 0.903003 -0.022046
5.46798 26.9878 20.0687 0.348899 0.937085 -0.00842948
5.29125 27.0437 19.1783 0.34741 0.937689 0.0066807
5.06388 27.1114 18.1952 0.290839 0.948685 -0.116245
4.18282 27.1923 17.798 0.0737674 0.991382 -0.085082
3.21962 27.2203 17.7888 -0.00998381 0.999875 -0.0107382
2.28189 27.212 17.8003 -0.0311883 0.999433 0.0126721
1.22548 27.1551 17.918 -0.0780371 0.996817 0.0163145
0.515826 27.0807 18.6211 -0.0957344 0.995361 0.00527994
-0.44898 26.9777 18.1617 -0.128109 0.991199 -0.0333454
-1.55864 26.7195 17.8796 -0.358853 0.900829 -0.2444
-2.34 26.2068 17.7954 -0.597556 0.801826 -0.00108035
-3.12418 25.6193 17.8203 -0.605424 0.780139 0.139138
-3.95191 25.0469 17.81 -0.535658 0.804321 0.257174
-4.81681 24.536 17.7844 -0.415376 0.887798 0.179661
-5.48296 24.134 18.3513 -0.468593 0.879886 0.078818
-5.56411 24.0823 19.2881 -0.489866 0.871674 0.00730232
-5.46952 24.1008 20.2644 -0.478569 0.877427 0.033062
-6.44385 23.5645 20.4507 -0.480833 0.87672 0.0127247
-6.9607 23.2821 19.7542 -0.490862 0.871187 -0.000908345
-6.90404 23.325 18.6338 -0.50729 0.86175 0.00386421
-7.02206 23.2921 17.6551 -0.530184 0.847297 0.0315002
-7.07362 23.2597 16.4438 -0.607629 0.793906 -0.00314673
-7.54892 22.8086 15.7574 -0.741186 0.665631 -0.0516739
-7.83529 22.4817 16.687 -0.784628 0.619562 -0.022274
-8.28771 21.9324 17.384 -0.79747 0.602735 -0.0274364
-8.76518 21.3186 17.7927 -0.798407 0.60113 -0.0344747
-9.35954 20.5259 17.8316 -0.803881 0.593225 -0.0431169
-9.94132 19.754 18.2838 -0.818788 0.573322 -0.028671
-10.0953 19.5592 19.2565 -0.81077 0.585185 -0.0144884
-10.1602 19.4738 20.2621 -0.814232 0.58053 -0.00321271
-10.7349 18.6826 20.4605 -0.800911 0.598745 0.00157089
-11.3047 17.9389 20.452 -0.784814 0.619726 0.00234434
-11.8855 17.2033 20.4716 -0.784695 0.619876 0.00271988
-12.7629 16.1294 20.551 -0.772878 0.634514 0.00720724
-13.4404 15.3627 20.5495 -0.745746 0.66618 0.00646139
-14.0789 14.6804 20.5887 -0.724098 0.689632 0.00947868
-14.8433 13.8991 20.5037 -0.703695 0.710434 0.00980963
-15.6381 13.1292 20.5591 -0.685391 0.728133 0.00785809
-16.3333 12.4894 20.5844 -0.667106 0.744951 0.00425739
-17.0915 11.8333 20.43 -0.645112 0.763971 0.0133817
-18.014 11.0738 20.5238 -0.627799 0.77816 0.0183398
-18.78 10.4715 20.568 -0.602599 0.797654 0.0249614
-19.9209 9.61805 20.5356 -0.595011 0.803657 0.00984331
-20.9597 8.87039 20.5095 -0.572463 0.81984 0.0112624
-21.974 8.17414 20.511 -0.555317 0.831569 0.0107584
-23.2259 7.34474 20.4331 -0.548753 0.835902 0.0117549
-24.2713 6.66693 20.4028 -0.538839 0.842384 0.00644315
-25.0596 6.16771 20.2997 -0.526019 0.85044 0.00690955
-26.1748 5.48595 20.1486 -0.51547 0.856815 0.0124088
-27.2888 4.82472 20.0643 -0.503589 0.863853 0.0125151
-28.27 4.24987 19.9626 -0.504218 0.863555 0.00513266
-29.2956 3.66037 19.9433 -0.496475 0.868051 0.00108136
-30.1088 3.20533 19.9337 -0.483352 0.875418 0.00380772
-31.0665 2.6785 19.725 -0.480486 0.876987 0.00503858
-31.9551 2.19262 19.7951 -0.474708 0.880101 0.00642722
-33.1486 1.56091 19.3421 -0.47033 0.882459 0.00744755
-33.9915 1.11952 18.9266 -0.463287 0.886174 0.0077903
-34.7878 0.712366 18.3567 -0.458128 0.888815 0.0112729
-35.3759 0.415447 17.5767 -0.457899 0.888983 0.00620413
-35.5283 0.340932 16.6424 -0.464337 0.885616 -0.00439203
-35.4607 0.370368 15.6985 -0.471864 0.881591 0.0118839
-35.496 0.358229 14.768 -0.467516 0.883967 0.0055799
-35.4972 0.374388 13.5395 -0.463574 0.885974 0.0121541
-35.5146 0.380535 12.5529 -0.459406 0.88816 0.0109023
-35.509 0.395311 11.6106 -0.450717 0.892626 -0.00850895
-35.5802 0.371023 10.536 -0.463102 0.886234 0.0112259
-35.6273 0.360391 9.57644 -0.46418 0.885645 0.0130523
-35.6524 0.364305 8.62132 -0.464543 0.885412 0.0156448
-35.7867 0.314908 7.48803 -0.461395 0.887106 0.0117485
-35.7792 0.330808 6.50981 -0.467746 0.883729 0.0153917
-35.8807 0.292533 5.51193 -0.46797 0.883679 0.0107611
-35.919 0.288197 4.47669 -0.472956 0.880874 0.0193044
-36.0834 0.237938 3.22705 -0.46741 0.883198 0.03732
-36.0317 0.29741 2.16347 -0.449719 0.892906 0.0217125
-35.9584 0.35682 1.06834 -0.452487 0.891615 0.0166697
-35.5466 0.583424 0.1327 -0.460267 0.887691 0.0125848
-34.7354 1.00582 -0.0537535 -0.461589 0.887031 0.00978172
-33.7487 1.519 0.242494 -0.466981 0.884157 0.0133543
-32.9623 1.93454 0.595132 -0.472464 0.881253 0.0130748
-32.1105 2.3895 1.06423 -0.479298 0.877565 0.012299
-31.1965 2.88185 1.57002 -0.48285 0.87558 0.0142047
-30.2322 3.41231 2.06987 -0.489761 0.871726 0.0149596
-29.4319 3.85722 2.46674 -0.493544 0.869597 0.0144043
-28.5478 4.35769 2.76903 -0.496264 0.868057 0.0141075
-27.2277 5.13272 2.91611 -0.50927 0.860478 0.0148851
-26.3874 5.6374 2.71124 -0.513957 0.85769 0.0144558
-25.8194 5.99828 1.97602 -0.522181 0.852612 0.0195011
-25.0984 6.4644 1.03917 -0.525756 0.850425 0.0189242
-24.8655 6.64241 -0.00211755 -0.541662 0.840424 0.0170135
-24.0957 7.16941 -0.891825 -0.546195 0.837219 0.0271041
-23.2536 7.74926 -1.60421 -0.553783 0.83229 0.0248423
-22.6486 8.17227 -2.22617 -0.552837 0.832855 0.0267966
-21.9897 8.67703 -3.13315 -0.583067 0.811386 0.0404598
-21.4801 9.08348 -3.79968 -0.58919 0.80681 0.0436942
-21.0126 9.47667 -4.71655 -0.592097 0.804975 0.0370228
-20.5332 9.87572 -5.53166 -0.615903 0.787052 0.0339515
-20.0507 10.2922 -6.21584 -0.619337 0.783836 0.044904
-19.5626 10.7285 -6.88145 -0.631099 0.774351 0.0457698
-19.0016 11.241 -7.72289 -0.652844 0.755974 0.0476405
-18.6268 11.6181 -8.54431 -0.659239 0.750776 0.0417053
-18.1536 12.0881 -9.5944 -0.677308 0.734573 0.0402859
-17.8475 12.4283 -10.5416 -0.682173 0.730092 0.0400724
-17.9021 12.4288 -11.6471 -0.679751 0.732704 0.0329245
-18.2584 12.1362 -12.7568 -0.686681 0.726323 0.0304036
-18.7256 11.7344 -13.6109 -0.683884 0.729056 0.0273843
-19.3012 11.2464 -14.2361 -0.65867 0.751997 0.0255948
-19.9136 10.7203 -14.859 -0.656762 0.753997 0.012334
-20.5369 10.2123 -15.3641 -0.621622 0.783226 0.0105414
-21.3547 9.5762 -15.7192 -0.616936 0.786923 0.0119161
-22.3959 8.79812 -16.0125 -0.595649 0.803174 0.00914603
-23.3251 8.11825 -16.1346 -0.590517 0.806964 0.00985507
-24.4637 7.31531 -16.3395 -0.569154 0.82209 0.0118372
-25.2683 6.77386 -16.5748 -0.560463 0.828093 0.0119683
-26.0344 6.27012 -16.9592 -0.547607 0.83672 0.00386945
-26.5595 5.92658 -17.6729 -0.54286 0.839799 0.00147081
-26.148 6.19966 -18.6512 -0.548985 0.835827 0.00285374
-25.4835 6.63796 -19.1208 -0.557586 0.830053 0.00258141
-24.5953 7.24787 -19.3741 -0.565188 0.824962 4.13449e-05
-23.7399 7.84385 -19.6391 -0.572228 0.820094 -0.000544759
-22.8785 8.46927 -19.8208 -0.589813 0.807538 -0.0016419
-22.1316 9.03076 -19.9169 -0.603982 0.796993 -0.00274086
-21.2111 9.74686 -20.0171 -0.625119 0.780528 -0.00101389
-20.4819 10.3272 -19.9773 -0.619625 0.784898 -0.000916224
-19.7226 10.9651 -20.0546 -0.65227 0.757941 0.00830628
-19.0033 11.587 -20.0758 -0.654159 0.756332 0.00621182
-18.2768 12.2746 -20.0707 -0.700876 0.71327 0.00417565
-17.6138 12.9429 -20.1142 -0.718982 0.695027 -0.00122023
-16.6257 13.9903 -20.2894 -0.738806 0.673868 -0.0082225
-15.933 14.7618 -20.3723 -0.772687 0.634505 -0.0189103
-15.2225 15.6251 -20.437 -0.772807 0.634364 -0.0187795
-14.4553 16.6554 -20.4913 -0.81088 0.585013 0.00534186
-13.8302 17.5514 -20.529 -0.826296 0.563117 0.00432307
-13.2751 18.3844 -20.4608 -0.830729 0.556626 -0.00291441
-12.7459 19.1949 -20.5083 -0.839249 0.543737 -0.00333597
-12.5278 19.5294 -19.6071 -0.846125 0.53296 0.00377972
-12.4555 19.628 -18.6314 -0.855459 0.517328 0.0170244
-12.0459 20.161 -18.0317 -0.823526 0.554149 0.121225
-11.4731 20.9751 -18.0346 -0.800373 0.583936 0.135726
-10.7514 21.9271 -17.9808 -0.784811 0.596322 0.168735
-10.132 22.6797 -17.991 -0.760536 0.613534 0.211524
-9.68596 23.2362 -18.5363 -0.55429 0.826153 0.101164
-9.65434 23.315 -19.584 -0.6402 0.767785 0.0254943
-9.21086 23.7013 -20.4664 -0.64074 0.767713 0.00829802
-8.42809 24.3331 -20.5264 -0.600596 0.799538 -0.00487551
-7.64079 24.8812 -20.4802 -0.535167 0.84474 0.0032377
-6.71159 25.4034 -20.5198 -0.451231 0.89174 0.0267248
-5.63872 25.8433 -20.4924 -0.345507 0.938416 0.000565096
-5.20307 26.0028 -19.6489 -0.356705 0.934214 0.00251289
-5.15747 25.9968 -18.7054 -0.407885 0.910787 0.0412515
-4.52425 26.1338 -18.0304 -0.235318 0.950334 0.203695
-3.48061 26.3426 -17.9072 -0.171911 0.97481 0.139117
-2.45915 26.4926 -17.9238 -0.138697 0.980741 0.137518
-1.47411 26.5979 -17.9164 -0.0629082 0.986145 0.152952
-0.16214 26.6454 -17.9772 0.00522659 0.991089 0.131782
0.498102 26.6294 -17.9501 0.00483199 0.989123 0.146412
12.1411 21.0359 0.929105 0.821559 0.569645 0.0208384
12.3262 20.7025 1.92347 0.831625 0.552956 0.0513767
12.4862 20.3535 2.8796 0.829048 0.552782 0.0843279
12.9177 19.6198 3.62396 0.805915 0.587443 0.0733646
13.3348 18.9941 4.35128 0.786394 0.615606 0.051122
13.4582 18.7467 5.45583 0.776987 0.628369 0.0352322
13.409 18.7687 6.48428 0.783377 0.621314 0.0159118
13.4097 18.7787 7.6771 0.773496 0.633797 -0.00232347
13.3613 18.8517 8.83346 0.771444 0.635753 -0.0263002
13.1306 19.2029 10.0279 0.77792 0.626312 -0.0503014
12.6731 19.8476 10.7379 0.792303 0.606795 -0.0631059
12.1117 20.6756 11.4083 0.806372 0.58764 -0.0666576
11.5099 21.5753 12.0416 0.803937 0.591597 -0.0608125
10.7881 22.5918 12.5186 0.797861 0.600495 -0.0531309
10.1432 23.4073 12.3171 0.776335 0.628261 -0.0496041
9.62039 24.0123 11.536 0.767605 0.640899 -0.00556013
8.81507 24.8381 11.9516 0.695102 0.718702 0.0173544
7.65479 25.7861 12.5232 0.621901 0.782279 0.0357696
6.85381 26.2737 12.9504 0.493948 0.866649 -0.0286127
5.58679 26.8126 13.6373 0.314581 0.948182 -0.0298864
4.20485 27.1386 14.0608 0.124797 0.992182 -0.000770993
2.94074 27.2545 14.0992 0.0260403 0.998771 0.0391265
1.67566 27.2439 13.8358 -0.100067 0.994303 0.0363361
0.725765 27.1553 13.3126 -0.172681 0.982682 0.0634538
-0.364362 26.9606 12.7529 -0.250438 0.967084 0.0450597
-1.29581 26.7032 11.7238 -0.33516 0.941911 0.0217093
-1.55677 26.6308 10.2432 -0.321327 0.946947 0.00626997
-1.53407 26.6317 9.01866 -0.403406 0.915018 -0.002357
-1.27904 26.7494 7.96158 -0.388787 0.921212 0.0146107
-0.920168 26.905 6.98845 -0.368364 0.92955 -0.0156422
-0.529465 27.0293 6.04441 -0.27747 0.959929 -0.0393377
-0.51886 26.9817 4.68108 -0.316394 0.948019 -0.0315264
-0.551941 26.928 3.55895 -0.298814 0.95374 -0.0330208
-0.531155 26.8384 2.3386 -0.276161 0.956336 -0.095524
-0.337296 26.7874 1.21773 -0.292323 0.953726 -0.0703813
0.0157434 26.8066 -0.27295 -0.316107 0.947613 -0.0458925
0.402853 26.8938 -1.245 -0.298426 0.952967 -0.0469734
1.01618 26.9756 -2.22942 -0.185792 0.977348 -0.0957693
1.97209 26.9897 -3.06755 -0.0664045 0.991693 -0.110159
2.74036 26.9056 -3.84794 0.0671343 0.991613 -0.110435
3.71443 26.7407 -4.4677 0.166805 0.980874 -0.100315
4.80189 26.4164 -4.80449 0.301533 0.946811 -0.112187
5.84216 26.0265 -5.0748 0.385558 0.911899 -0.140664
6.96927 25.4783 -5.17675 0.475544 0.871419 -0.115609
7.96133 24.8684 -5.24651 0.579165 0.803695 -0.127792
8.83857 24.2019 -5.07969 0.630839 0.764782 -0.128911
9.61211 23.6303 -4.45519 0.659511 0.742089 -0.119792
10.2485 23.1227 -3.70614 0.709456 0.700874 -0.0738121
10.8694 22.5463 -2.8044 0.738846 0.672603 -0.0413754
11.2518 22.1682 -1.80423 0.782279 0.622437 -0.0210402
11.5643 21.8198 -0.850558 0.787949 0.615141 -0.0264177
12.0003 21.2719 0.216612 0.814065 0.580318 0.00856735
12.1223 21.0689 0.804776 0.817618 0.575031 0.0289695
11.5876 21.8218 1.24442 0.806057 0.591683 0.0135362
11.8079 21.4545 2.23325 0.83537 0.547515 0.0488297
11.9504 21.1258 3.21964 0.841751 0.535617 0.0676066
11.9208 21.025 4.2563 0.848365 0.523198 0.0808728
12.2927 20.3915 4.42717 0.841808 0.529882 0.100823
12.7773 19.6385 4.7401 0.771692 0.634948 0.0310727
12.8256 19.5287 5.80542 0.783485 0.621107 0.0194275
12.8052 19.5296 6.98371 0.78924 0.614059 0.00561116
12.8061 19.5217 8.02075 0.78098 0.624503 0.00780654
12.718 19.6345 9.10072 0.764495 0.64434 -0.0192965
12.363 20.1665 9.86917 0.795267 0.603609 -0.0566299
11.8104 20.9885 10.4486 0.813491 0.57885 -0.0562515
11.2211 21.8793 11.0912 0.811561 0.581263 -0.0591764
10.7014 22.6261 11.562 0.802666 0.594989 -0.0414116
10.1452 23.3569 11.1739 0.801655 0.597432 -0.00209617
10.0943 23.4395 9.9851 0.783893 0.620742 0.0138565
9.98979 23.593 8.7801 0.772863 0.634546 0.00590255
9.56713 24.0853 9.6425 0.768585 0.639648 -0.0112926
9.06879 24.6525 10.3481 0.719775 0.693625 0.00643773
8.5194 25.1511 11.0504 0.673946 0.737942 0.030937
7.66589 25.8179 11.4494 0.617925 0.785964 0.0207202
6.66069 26.3979 11.9758 0.44761 0.891417 0.0373994
5.71949 26.7888 12.3318 0.357187 0.926832 0.0933731
4.7942 27.0853 12.8867 0.325342 0.945489 0.0142439
3.75958 27.258 13.0288 0.157983 0.986349 0.0464531
2.2536 27.3356 12.9181 0.0237182 0.997489 0.0667328
1.24788 27.2725 12.4506 -0.110801 0.992421 0.0518912
-0.00566328 27.0845 11.7584 -0.241338 0.970131 0.0244403
-0.475016 26.993 10.8474 -0.280494 0.958746 0.01749
-0.624783 26.9685 9.82168 -0.352513 0.934661 0.0463071
-0.519264 27.0556 8.62121 -0.335234 0.940549 0.00925643
0.0349645 27.2107 7.25601 -0.2771 0.960703 -0.0162618
0.481132 27.3112 6.21311 -0.239118 0.970892 -0.0138531
0.535319 27.3038 5.15162 -0.203862 0.9782 -0.0395585
0.339948 27.2027 3.98387 -0.212303 0.975449 -0.0585412
0.323301 27.0911 2.57252 -0.201023 0.976356 -0.0794917
0.629645 27.0837 1.24483 -0.242125 0.96934 -0.041888
0.901336 27.1056 0.214882 -0.27973 0.95912 -0.0381351
1.44059 27.157 -0.751589 -0.163966 0.972741 -0.163981
1.96138 27.159 -1.64268 -0.0533707 0.995065 -0.0762131
2.82818 27.0505 -2.48832 0.0977904 0.99142 -0.0867405
3.75138 26.8475 -3.2639 0.169383 0.981535 -0.088878
4.77276 26.5559 -3.76551 0.274312 0.953259 -0.122756
5.82237 26.1679 -4.13952 0.339449 0.931982 -0.118336
7.0917 25.5372 -4.17757 0.474916 0.872779 -0.107392
8.01817 24.9639 -4.21623 0.531756 0.842247 -0.0886257
8.82649 24.3668 -4.08306 0.605819 0.788664 -0.104842
9.60926 23.8635 -3.15729 0.690816 0.712832 -0.110778
10.2348 23.3135 -2.37833 0.721396 0.685413 -0.0989813
10.6008 23.0043 -1.27252 0.764274 0.642226 -0.0585749
11.0103 22.5669 -0.275801 0.787908 0.614087 -0.0458078
11.4424 22.0306 0.761487 0.797593 0.603183 -0.00400009
11.4459 22.0257 0.771197 0.806057 0.591683 0.0135362
-9.8877 19.9389 7.63249 -0.775872 0.621323 -0.109379
-10.2037 19.5099 8.62155 -0.830486 0.556797 0.0164391
-10.1656 19.4958 9.91491 -0.820774 0.569382 0.0461496
-10.0816 19.522 11.0782 -0.811564 0.583291 0.0335939
-10.0293 19.5325 12.2199 -0.802037 0.595962 0.0373585
-9.64693 20.0057 13.2753 -0.8022 0.597055 0.000186654
-9.02592 20.8521 13.9143 -0.807168 0.590301 0.00283442
-8.50565 21.5582 14.5611 -0.803765 0.594942 -0.00240021
-7.84489 22.4355 15.2385 -0.786061 0.618092 -0.000613297
-7.24178 23.12 15.4011 -0.640576 0.767837 0.00938652
-6.97294 23.3924 14.2565 -0.640224 0.766619 0.0490385
-7.09953 23.3634 13.0411 -0.633633 0.772321 0.0442833
-7.22454 23.3089 11.8048 -0.610905 0.79167 0.00731618
-7.21764 23.3096 10.6372 -0.553498 0.832822 0.00690984
-7.58604 22.9352 9.66873 -0.627491 0.739695 -0.231992
-8.25638 22.1272 9.04263 -0.701944 0.694626 -0.157322
-8.9224 21.2489 8.42801 -0.758511 0.637928 -0.13307
-9.598 20.315 7.69586 -0.777836 0.619169 -0.107691
-9.81269 20.0345 7.63844 -0.778522 0.618117 -0.108786
0.473193 27.076 18.7691 -0.0942128 0.995539 0.00411552
0.367316 27.0639 19.8966 -0.0970106 0.995283 0.000710699
0.280458 27.0567 19.0072 -0.0967581 0.995305 0.00247398
0.315696 27.0602 18.9529 -0.0967581 0.995305 0.00247397
33.3488 2.21294 -15.9304 0.479407 0.877276 -0.0235765
32.423 2.69356 -17.155 0.487467 0.872919 -0.0197087
30.412 3.87862 -17.0512 0.521356 0.853101 -0.0201481
31.8219 3.10171 -15.138 0.504516 0.862893 -0.0296407
32.5405 2.71939 -14.1744 0.491984 0.870162 -0.0277646
31.5277 3.35657 -12.7109 0.509747 0.859697 -0.0328357
30.2223 4.06682 -14.4728 0.522714 0.852037 -0.0283519
28.8978 4.83027 -16.3111 0.526542 0.849849 -0.0225863
28.3045 5.18292 -17.1481 0.53172 0.846707 -0.0190126
26.5296 6.3288 -16.8158 0.553989 0.831783 -0.0351081
27.7697 5.58094 -15.0438 0.539031 0.841748 -0.0301033
29.237 4.73333 -13.0012 0.531358 0.846313 -0.0375819
30.5614 3.98654 -11.1877 0.516788 0.855421 -0.0344294
30.8853 3.80853 -10.7493 0.516788 0.855421 -0.0344293
30.6254 4.06647 -8.28677 0.520367 0.853176 -0.0361733
29.1346 4.89636 -10.3077 0.533507 0.845094 -0.0344472
27.6864 5.74269 -12.3153 0.542021 0.839893 -0.0281533
26.3769 6.53197 -14.1684 0.560902 0.827045 -0.0372156
24.9906 7.39125 -16.1902 0.560913 0.827088 -0.0360839
24.4947 7.70472 -16.9281 0.57749 0.815826 -0.0305558
22.5287 9.10443 -17.0108 0.588625 0.807677 -0.0343097
23.7289 8.32131 -15.1807 0.582846 0.811733 -0.0371342
24.612 7.75529 -13.862 0.577277 0.815812 -0.034667
22.1651 9.50226 -14.6619 0.608339 0.791728 -0.0555821
20.78 10.448 -16.8597 0.611496 0.789686 -0.0496801
20.4918 10.6471 -17.3273 0.622571 0.780774 -0.0528956
18.8816 11.9697 -17.0539 0.647008 0.760634 -0.053074
20.2251 11.0286 -14.8256 0.633595 0.771452 -0.0584778
20.4869 10.8436 -14.3999 0.635604 0.7696 -0.0610115
19.1581 12.0338 -13.6577 0.653215 0.752954 -0.0798091
18.0007 12.8461 -15.6258 0.661873 0.745059 -0.082533
17.015 13.5611 -17.3329 0.663988 0.745154 -0.0621758
15.4638 15.0441 -17.2249 0.695274 0.71515 -0.0717911
16.5495 14.2312 -15.2681 0.695232 0.712709 -0.0932648
17.6414 13.4527 -13.3575 0.692153 0.716657 -0.0855973
18.1077 13.0964 -12.5145 0.695808 0.713557 -0.0817785
17.2575 14.0973 -11.1214 0.71522 0.693695 -0.0851357
15.9453 15.1014 -13.5318 0.706433 0.699908 -0.105265
14.6378 16.0685 -15.8891 0.707117 0.697579 -0.11562
13.642 16.8267 -17.7227 0.729512 0.675711 -0.105955
12.5722 18.1028 -16.902 0.733936 0.668844 -0.118261
13.7661 17.1997 -14.7319 0.728886 0.671504 -0.133443
14.8388 16.4016 -12.7876 0.732336 0.670405 -0.119332
15.9588 15.5195 -10.6539 0.733909 0.672081 -0.09841
16.6713 14.9311 -9.27684 0.723857 0.685271 -0.0802179
16.7026 15.1591 -6.1458 0.745487 0.665806 -0.0308457
15.6765 16.139 -8.30527 0.748481 0.659309 -0.0713264
14.6086 17.0811 -10.4417 0.753746 0.6471 -0.114578
13.526 17.9224 -12.5155 0.743001 0.657014 -0.127604
12.3415 18.8107 -14.655 0.744214 0.653473 -0.13827
11.8194 19.2115 -15.601 0.744357 0.655379 -0.12811
10.424 20.8166 -15.4875 0.73866 0.663716 -0.117738
11.4907 20.0098 -13.5859 0.741077 0.655633 -0.144745
12.5351 19.2388 -11.6864 0.745828 0.650727 -0.142459
13.5653 18.4365 -9.72754 0.756871 0.64358 -0.113806
14.6795 17.4161 -7.44469 0.767731 0.636886 -0.0704657
15.5521 16.528 -5.53501 0.768768 0.638497 -0.0363037
16.4325 15.5642 -3.52308 0.752942 0.658059 -0.00608993
17.3674 14.5025 -1.39521 0.733319 0.679728 0.0145957
17.4373 14.4237 -1.23829 0.733318 0.679729 0.0145953
35.9684 1.51593 15.8411 0.463987 0.88579 0.00960247
34.3071 2.42443 13.6678 0.481226 0.876589 0.00346667
32.807 3.26905 11.6663 0.49714 0.867669 0.00167033
31.3795 4.0912 9.71242 0.50485 0.863188 -0.00568604
30.6234 4.52501 8.67361 0.517598 0.855611 -0.0046338
28.1949 6.0292 8.1104 0.535518 0.844515 -0.00394985
29.8768 4.99009 10.5154 0.521716 0.853102 -0.00541791
31.3236 4.12202 12.5287 0.506228 0.862369 0.00727585
32.852 3.22618 14.5999 0.490738 0.871264 0.00869443
34.4589 2.30933 16.7266 0.48223 0.876026 0.00576143
34.8765 2.07964 17.2697 0.470618 0.88233 0.00364892
32.9781 3.11665 17.6388 0.487939 0.872824 0.00967285
31.4484 4.01419 15.5997 0.500581 0.865542 0.0159705
29.9408 4.93061 13.5294 0.513147 0.858207 0.0127161
28.4941 5.84516 11.4797 0.533962 0.845471 0.00799683
27.1053 6.73959 9.44013 0.544712 0.838619 -0.00260671
25.7607 7.61584 7.41731 0.56527 0.824882 -0.00636302
23.4302 9.26509 6.73448 0.596945 0.80228 0.00180586
24.821 8.27826 8.95288 0.571858 0.820347 -0.00307135
26.2362 7.31569 11.1166 0.559562 0.828787 0.00169932
27.8241 6.24914 13.4639 0.540995 0.840914 0.0137572
29.3103 5.28917 15.5736 0.526238 0.850268 0.0108566
30.7279 4.41674 17.5119 0.508029 0.861313 0.00684636
28.9156 5.50798 17.9359 0.530706 0.847551 0.00297817
27.3542 6.5322 15.7339 0.548901 0.835883 0.00277449
25.9771 7.47116 13.7218 0.559615 0.828722 0.00707322
24.6541 8.40882 11.6992 0.575783 0.817602 -0.00121689
23.3573 9.34098 9.64906 0.596398 0.802658 -0.00702748
22.063 10.3172 7.50806 0.615181 0.788386 -0.000718651
20.7597 11.3377 5.22497 0.636475 0.770971 -0.0224492
9.07014 22.2729 -15.1526 0.668953 0.738945 -0.080387
10.3316 21.3845 -12.9909 0.706379 0.693879 -0.139859
11.5188 20.5848 -10.9235 0.740472 0.653846 -0.155522
12.7106 19.6259 -8.66387 0.762157 0.6394 -0.10141
13.761 18.6565 -6.50146 0.77353 0.629222 -0.0756987
14.7579 17.5772 -4.20982 0.780682 0.62439 -0.0259285
15.6825 16.4473 -1.95945 0.77503 0.631689 0.017254
16.5942 15.3149 0.204168 0.741981 0.670097 0.0208361
17.5589 14.2325 2.3195 0.72033 0.693631 -0.0010301
18.6026 13.2081 4.40903 0.69164 0.72222 -0.00565051
19.6706 12.2761 6.38231 0.649063 0.760711 -0.00608087
20.7917 11.3531 8.38286 0.641894 0.766787 -0.0032331
22.1471 10.2717 10.7048 0.618769 0.785558 -0.00475625
23.3764 9.32936 12.7163 0.598955 0.800775 -0.00363851
24.813 8.26905 14.9557 0.577849 0.816136 0.00366311
26.1215 7.3458 16.9126 0.564896 0.825159 0.00207371
26.912 6.80558 18.0548 0.561181 0.827674 0.00557905
24.7864 8.26733 17.9404 0.582739 0.812542 0.0138264
23.4222 9.28209 15.843 0.599044 0.800709 0.00333335
22.151 10.2653 13.7954 0.626206 0.77954 0.0135596
20.9812 11.2147 11.8068 0.627371 0.778706 -0.00476489
19.7446 12.242 9.62958 0.647174 0.762342 0.000890308
18.5871 13.2374 7.5169 0.662782 0.748806 -0.00319257
17.4807 14.3029 5.3389 0.699086 0.715006 0.0066819
16.5254 15.3064 3.35876 0.733313 0.679844 0.00801954
15.559 16.4714 1.13975 0.75472 0.655108 0.0351013
14.7271 17.6151 -0.971956 0.787388 0.615245 0.0386467
13.9063 18.7156 -3.07036 0.791856 0.610442 -0.0180304
12.9408 19.8111 -5.36939 0.783172 0.617322 -0.0745333
11.7974 20.8502 -7.69105 0.753785 0.648579 -0.105608
10.6861 21.6963 -9.72294 0.69451 0.707462 -0.13097
9.49579 22.4607 -11.7087 0.6532 0.747898 -0.118227
8.11866 23.2746 -13.8783 0.617586 0.778927 -0.108903
6.79562 23.9605 -15.7932 0.510297 0.854743 -0.0949251
6.2298 24.2468 -16.5593 0.422303 0.903789 -0.0694599
4.91427 25.0246 -15.3961 0.425391 0.897358 -0.117437
6.48871 24.4769 -13.4151 0.51066 0.852233 -0.113689
7.902 23.8295 -11.4442 0.600377 0.790877 -0.118578
9.1915 23.1354 -9.49616 0.633693 0.757653 -0.156191
10.5655 22.263 -7.23095 0.70461 0.697034 -0.132924
11.7957 21.2726 -4.91794 0.775372 0.624261 -0.0953794
12.7554 20.2369 -2.71329 0.795721 0.605663 0.000359334
13.5513 19.1433 -0.66439 0.798516 0.601433 0.0255058
14.381 17.8753 1.64316 0.790376 0.610681 0.048723
15.3128 16.6162 3.96092 0.754163 0.655869 0.0327734
16.2425 15.5431 6.01544 0.732199 0.681086 0.00239535
17.295 14.4777 8.147 0.710695 0.7035 -0.000595658
18.4403 13.4204 10.3461 0.676518 0.736393 -0.00700732
19.5837 12.415 12.4551 0.664645 0.747144 -0.00483988
20.7253 11.4318 14.4791 0.649614 0.760263 -0.0017494
21.8954 10.4535 16.4634 0.629415 0.777052 0.00519906
22.8289 9.70526 17.9665 0.60666 0.794863 0.012479
21.0257 11.1568 18.1007 0.653282 0.757054 -0.00959936
19.7684 12.2596 15.9288 0.664363 0.747332 -0.0108336
18.6689 13.2607 13.9083 0.692423 0.721454 -0.00731609
17.6237 14.2354 11.9088 0.708371 0.705544 -0.0204653
16.4362 15.3671 9.55786 0.732314 0.680698 -0.0191463
15.3654 16.503 7.3048 0.73778 0.674986 -0.00860898
14.4491 17.5678 5.25709 0.759988 0.649639 0.0197174
14.3654 17.6543 8.25081 0.758351 0.651811 -0.0067674
15.3641 16.5657 10.4079 0.756516 0.653735 -0.0177241
16.3636 15.5545 12.5173 0.728965 0.683708 -0.0339687
17.3492 14.5679 14.5115 0.727263 0.686026 -0.0213719
18.3794 13.5551 16.5376 0.714958 0.699118 -0.00833161
19.1907 12.796 18.0484 0.67903 0.73411 0.00122214
17.3467 14.6545 17.6879 0.728713 0.684471 -0.0218109
16.238 15.8067 15.3747 0.752348 0.658695 -0.00962364
15.1842 16.9104 13.129 0.758822 0.649995 -0.0411911
14.1914 17.9733 10.9146 0.769669 0.637605 -0.0327069
14.0285 18.147 10.5601 0.767525 0.639356 -0.0461353
13.4722 18.9627 12.342 0.788636 0.612311 -0.0559333
14.5234 17.8553 14.6716 0.790084 0.609899 -0.0615667
15.4983 16.7501 16.9386 0.772 0.634802 -0.0322873
15.9229 16.2721 17.9136 0.764883 0.643728 -0.0238434
2.58513 25.919 -15.4016 0.317839 0.947661 -0.0302939
4.5929 25.4542 -13.0326 0.362918 0.927854 -0.0858865
6.5581 24.8742 -10.5944 0.464512 0.881017 -0.0896512
8.32749 24.0795 -8.0988 0.577108 0.8033 -0.147157
9.50255 23.4404 -6.30334 0.665023 0.738356 -0.112136
7.10906 25.0884 -7.07175 0.514835 0.841302 -0.164791
4.98526 25.6885 -9.74732 0.365123 0.925983 -0.0961268
4.14346 25.8618 -10.7585 0.304306 0.947997 -0.0932724
4.26301 26.1612 -7.76397 0.216745 0.970287 -0.107543
5.3022 26.02 -6.56108 0.294134 0.946515 -0.132646
12.4844 20.3561 13.0066 0.805084 0.588722 -0.0724328
13.3318 19.4426 14.9213 0.802967 0.592361 -0.0659679
13.6368 19.1098 15.6084 0.7998 0.59757 -0.0568317
12.2463 20.986 15.2385 0.806337 0.585394 -0.0844724
11.6887 21.568 14.0301 0.797962 0.597827 -0.076551
10.8266 22.8024 15.007 0.77975 0.621431 -0.0762413
10.3755 23.2544 14.0261 0.761925 0.64478 -0.0610662
9.89834 23.9735 15.9523 0.70059 0.709749 -0.0736844
8.9354 24.7775 14.1755 0.670316 0.740469 -0.048806
8.71773 24.9493 13.7923 0.669455 0.741945 -0.0367113
7.21333 26.0881 14.3895 0.565813 0.821999 -0.0646007
8.38211 25.2801 16.2423 0.607043 0.794144 -0.0288759
9.04573 24.8477 17.3376 0.636595 0.768364 -0.0660528
7.50424 25.9708 17.7658 0.526199 0.848877 -0.0502243
6.23861 26.5493 16.0063 0.376649 0.926237 0.0148215
