-1.05413 27.0284 -18.5084 0.0333587 0.998294 0.0306579
-0.52223 27.0639 -19.4716 -0.0055541 0.999939 0.00536848
0.404689 27.0642 -19.1421 -0.018011 0.99898 0.0379844
0.954423 27.0114 -18.1855 0.0684324 0.951956 0.262205
1.99202 26.5129 -17.8608 0.481146 0.874008 0.0678873
3.1311 25.8656 -17.9225 0.461855 0.881528 -0.097974
4.10714 25.2908 -18.3103 0.294892 0.943735 -0.13921
4.612 25.0454 -19.7076 0.335492 0.941904 -0.0162103
5.35011 24.7494 -20.4482 0.374176 0.927349 -0.00401978
6.38479 24.315 -20.4614 0.415629 0.909438 -0.00642396
7.47854 23.7941 -20.4881 0.459228 0.888206 -0.00885275
8.37743 23.3148 -20.1909 0.496393 0.868045 -0.00955917
8.43304 23.2895 -19.1221 0.51773 0.855475 -0.00803413
8.74503 23.0613 -18.11 0.597548 0.795936 0.0970653
9.4271 22.2894 -17.9012 0.753173 0.657409 -0.0233232
10.1422 21.4198 -17.9825 0.791452 0.609154 -0.0501814
10.8538 20.5033 -17.9716 0.783713 0.612446 -0.103424
11.4081 19.735 -18.387 0.727447 0.676298 -0.115939
11.5184 19.5417 -19.5229 0.775757 0.63071 -0.020157
11.7183 19.2704 -20.4865 0.77829 0.627847 -0.00856008
12.4034 18.428 -20.5064 0.772539 0.634931 -0.00672595
13.3224 17.3542 -20.3881 0.74845 0.662796 -0.0157933
14.2847 16.3807 -20.3058 0.696807 0.716558 -0.0316903
15.0454 15.6445 -20.2452 0.692934 0.719268 -0.0499595
15.9865 14.742 -20.2287 0.690588 0.721456 -0.0508758
16.7902 14 -20.2122 0.662829 0.746732 -0.0548261
17.6591 13.2457 -20.1853 0.649565 0.758482 -0.0526353
18.6289 12.4217 -20.196 0.637734 0.768664 -0.0495049
19.4667 11.735 -20.0565 0.631475 0.774061 -0.04435
20.4169 10.9739 -20.0611 0.623207 0.780974 -0.0411013
21.4761 10.1703 -19.8326 0.603645 0.796584 -0.0326628
22.489 9.40886 -19.8725 0.597291 0.801138 -0.0374978
23.4275 8.72339 -19.895 0.586723 0.809275 -0.0288169
24.658 7.87402 -19.8207 0.562197 0.826562 -0.0267047
25.5655 7.26282 -19.8295 0.554063 0.832093 -0.0249561
26.6051 6.57706 -19.7664 0.54838 0.835865 -0.024408
27.6159 5.92745 -19.7688 0.533696 0.845427 -0.0205311
28.524 5.35312 -19.8661 0.529668 0.847995 -0.0187014
29.8613 4.52562 -19.9251 0.517658 0.855421 -0.0159201
30.9282 3.89078 -19.7726 0.511167 0.859379 -0.0132932
32.0083 3.26097 -19.7115 0.499393 0.866265 -0.0138457
33.1017 2.63905 -19.6731 0.490415 0.871146 -0.0244485
34.2424 2.0172 -19.4032 0.477236 0.878447 -0.023862
35.1883 1.51424 -19.1712 0.46851 0.883273 -0.0179099
36.1676 1.00558 -18.8108 0.46569 0.88474 -0.0191595
37.0213 0.575381 -17.9633 0.465144 0.884943 -0.0224995
36.9828 0.625947 -16.926 0.46261 0.886168 -0.0264331
36.6082 0.849001 -15.9152 0.461617 0.88678 -0.0229598
36.0932 1.14507 -14.9593 0.465148 0.884894 -0.0244765
35.4182 1.52242 -14.1811 0.470439 0.882083 -0.0248163
34.8299 1.87071 -13.1261 0.469217 0.882551 -0.0306298
34.2771 2.19282 -12.2682 0.476749 0.878731 -0.0232731
33.7544 2.50146 -11.3124 0.477185 0.878118 -0.0346776
33.2859 2.80552 -10.2334 0.490341 0.871017 -0.0299139
33.0189 2.99615 -9.18261 0.48886 0.871548 -0.0376772
32.9184 3.09565 -8.09797 0.492623 0.869582 -0.0339211
33.0363 3.07402 -7.00938 0.495424 0.867795 -0.0381353
33.255 2.99909 -5.86611 0.492743 0.869544 -0.0331238
33.6809 2.79868 -4.82488 0.495901 0.867693 -0.034514
34.2551 2.51384 -3.87525 0.486702 0.872989 -0.0318092
34.9802 2.14684 -2.9815 0.471996 0.881118 -0.0291446
35.6801 1.79898 -2.18998 0.469217 0.882609 -0.0289112
36.5118 1.38393 -1.24471 0.466927 0.883953 -0.0239215
37.4351 0.938543 -0.239068 0.455304 0.889905 -0.0274206
38.2058 0.57232 0.60994 0.452972 0.891166 -0.0252977
38.7444 0.330143 1.54078 0.442039 0.896636 -0.025405
38.1752 0.609649 1.51129 0.447303 0.894156 -0.0196794
37.288 1.05211 1.1327 0.460185 0.887586 -0.0205267
36.106 1.65042 0.411307 0.468258 0.883208 -0.0260493
35.13 2.1604 -0.0623836 0.479297 0.877296 -0.0248846
34.1349 2.6883 -0.714295 0.482597 0.875456 -0.026016
33.9838 2.76803 -0.834859 0.486324 0.873314 -0.0280825
3.58972 27.2308 -3.22618 0.117819 0.985259 -0.114041
2.61075 27.3822 -2.25271 -0.0217295 0.996397 -0.0662031
1.71117 27.4465 -1.15613 -0.10181 0.984892 -0.12132
1.07891 27.43 -0.0954494 -0.253724 0.966406 -0.0410382
0.544857 27.3428 1.03273 -0.261537 0.96333 -0.0536852
0.242191 27.3457 2.35028 -0.201879 0.976311 -0.0778524
0.280443 27.4425 3.51304 -0.200152 0.977265 -0.0699469
0.363989 27.5166 4.82797 -0.244585 0.968546 -0.0457951
0.23602 27.5248 5.93796 -0.251575 0.967481 -0.0262962
-0.0488309 27.4696 7.00538 -0.292599 0.956218 -0.00578361
-0.592949 27.3525 8.12833 -0.268856 0.961705 -0.0533001
-1.01193 27.1829 9.15086 -0.308835 0.949785 0.0502889
-0.916777 27.1937 10.3542 -0.309644 0.950777 0.0021385
-0.321707 27.339 11.7965 -0.268285 0.962753 -0.00555211
1.15228 27.6163 12.8844 -0.206019 0.977627 0.0424494
2.22673 27.7128 13.3101 -0.0897694 0.995962 0.00102441
3.4657 27.6716 13.4724 0.0426422 0.998551 0.0326645
4.70823 27.4786 13.1641 0.163952 0.986103 0.026845
5.71662 27.1553 12.6865 0.321611 0.946864 -0.00369702
6.84817 26.718 12.1114 0.435249 0.8985 0.0262594
7.76279 26.234 11.6078 0.530308 0.844907 0.023836
8.6235 25.6175 11.218 0.638609 0.767303 0.0262885
9.40067 24.9215 10.5008 0.72518 0.688551 -0.00326215
10.0586 24.1321 9.62849 0.764072 0.644829 -0.0197339
10.6318 23.394 9.14669 0.797898 0.602715 0.00963723
10.6056 23.4166 10.3368 0.808631 0.588301 -0.00422296
11.0011 22.8787 11.1142 0.811623 0.582407 -0.0455085
11.6066 22.0043 10.7438 0.813676 0.579015 -0.0515994
12.156 21.181 10.2095 0.81565 0.576405 -0.0497254
12.7237 20.3333 9.61304 0.805701 0.590107 -0.0511877
13.1414 19.6971 8.78331 0.758399 0.650766 -0.0365282
13.2794 19.5122 7.68711 0.77495 0.632021 0.00116539
13.2845 19.5238 6.48922 0.784811 0.619588 0.0135182
13.3061 19.5228 5.23496 0.77948 0.62599 0.0215902
13.1209 19.8167 4.01378 0.78826 0.607817 0.0905345
12.5343 20.7122 4.14492 0.853372 0.51606 0.0737505
12.2211 21.3115 3.47405 0.846484 0.528042 0.0680953
12.119 21.5956 2.3582 0.836494 0.545359 0.0534807
11.902 21.9825 1.29122 0.819476 0.572876 0.0165184
11.543 22.4742 0.15991 0.775021 0.63188 0.00837128
11.1696 22.8961 -0.868579 0.744258 0.666616 -0.0412828
10.7649 23.2837 -1.86997 0.751732 0.656083 -0.066737
10.2044 23.7739 -2.86837 0.724225 0.682212 -0.100426
9.50027 24.3273 -3.75553 0.663241 0.735655 -0.137557
8.45759 25.0682 -4.30641 0.607949 0.787438 -0.101678
7.39416 25.7448 -4.41936 0.485966 0.867078 -0.106358
6.29191 26.3095 -4.44694 0.390816 0.915955 -0.0910435
5.17811 26.7586 -4.04424 0.251526 0.957771 -0.139302
4.10367 27.0938 -3.54175 0.222253 0.967228 -0.122776
3.94911 27.1401 -3.45639 0.18676 0.972244 -0.135689
-33.7718 1.84663 2.78715 -0.467417 0.883886 0.0163323
-34.4046 1.49829 3.6103 -0.463653 0.885878 0.0156755
-34.3757 1.48895 4.98439 -0.46618 0.884508 0.017933
-33.5652 1.93727 3.92212 -0.470035 0.882517 0.015196
-33.1586 2.16216 3.39236 -0.47224 0.881341 0.0150838
-32.3664 2.58304 3.75336 -0.474679 0.880012 0.0160935
-33.1326 2.15191 4.76644 -0.469491 0.882764 0.0174819
-34.1476 1.58592 6.1003 -0.46547 0.884866 0.0186953
-34.1785 1.56883 6.14074 -0.465593 0.884785 0.0194433
-34.2305 1.50907 7.62967 -0.461177 0.88711 0.0187727
-33.2546 2.05231 6.34359 -0.469553 0.882653 0.0210625
-32.4931 2.48279 5.33577 -0.473007 0.880907 0.0163609
-31.6099 2.987 4.16284 -0.481704 0.876172 0.016826
-31.4912 3.05538 4.00289 -0.481703 0.876173 0.0168259
-30.7027 3.48311 4.35983 -0.486491 0.873448 0.0203952
-31.5693 2.98084 5.52534 -0.479834 0.877177 0.0178833
-32.422 2.49179 6.66268 -0.476768 0.878822 0.0190956
-33.4609 1.90527 8.03994 -0.465998 0.884595 0.0183699
-34.0481 1.58109 8.81158 -0.462823 0.886326 0.0148798
-34.0088 1.58025 10.1763 -0.461234 0.887193 0.0123164
-33.0764 2.08889 8.96116 -0.470192 0.88241 0.0165254
-32.1483 2.61717 7.72753 -0.475593 0.879454 0.0192707
-31.3832 3.05907 6.69792 -0.481433 0.876289 0.0184033
-30.6213 3.50038 5.67175 -0.4845 0.874602 0.0181776
-29.8095 3.97963 4.56714 -0.492865 0.869855 0.0208785
-29.0236 4.41684 4.92028 -0.496632 0.867671 0.0224321
-29.8026 3.95102 5.98606 -0.490178 0.871397 0.0198202
-30.6003 3.48499 7.07254 -0.485867 0.873847 0.0180244
-31.5093 2.95602 8.30247 -0.481339 0.876283 0.0209956
-32.2709 2.51641 9.32013 -0.478982 0.877597 0.0199939
-33.1144 2.04498 10.4286 -0.46513 0.885147 0.0129684
-33.8011 1.67194 11.323 -0.463463 0.885965 0.0163626
-33.9134 1.5902 12.8848 -0.465534 0.884969 0.0103443
-32.9101 2.13562 11.582 -0.465549 0.884926 0.0130122
-32.1151 2.57412 10.5422 -0.473851 0.880414 0.0183247
-31.2216 3.09078 9.34659 -0.486296 0.873607 0.0181042
-30.4614 3.5348 8.32532 -0.484445 0.87462 0.0188035
-29.7129 3.97596 7.30154 -0.490073 0.871487 0.0184303
-28.89 4.46361 6.17165 -0.496215 0.867989 0.0191449
-28.1121 4.94009 5.08924 -0.503219 0.863879 0.022006
-28.0056 5.00589 4.9395 -0.503066 0.863972 0.0218309
-26.8039 5.72315 4.68169 -0.513893 0.857524 0.023788
-27.5658 5.24223 5.77228 -0.511595 0.858972 0.0209309
-28.4844 4.67698 7.05679 -0.503327 0.863989 0.0135836
-29.2566 4.21355 8.12289 -0.490568 0.871153 0.0208603
-30.0815 3.72687 9.24308 -0.487623 0.872906 0.0160896
-31.1002 3.13244 10.6145 -0.486875 0.873343 0.0149739
-31.8596 2.69466 11.6277 -0.485217 0.874222 0.017309
-32.6903 2.23869 12.7118 -0.46964 0.882842 0.00536142
-33.7274 1.67743 14.0575 -0.467676 0.883874 0.0067505
-33.7606 1.65959 14.1003 -0.465921 0.884806 0.00604983
-33.8311 1.61114 15.5998 -0.467076 0.884188 0.00720679
-32.8183 2.15658 14.2938 -0.467508 0.883962 0.00691558
-32.0009 2.60471 13.2269 -0.484045 0.875009 0.00778004
-31.2343 3.0362 12.2147 -0.486734 0.873506 0.00882052
-30.4584 3.48059 11.1838 -0.486903 0.873376 0.0118292
-29.7059 3.92352 10.1659 -0.488949 0.872252 0.0102523
-28.8425 4.42624 9.00434 -0.495351 0.868533 0.016635
-28.0267 4.92835 7.86913 -0.502598 0.864311 0.0190358
-27.2663 5.39562 6.80633 -0.510826 0.859491 0.0182248
-26.3533 5.97794 5.49457 -0.518314 0.854986 0.0187123
-25.4572 6.55615 4.18629 -0.522555 0.852311 0.0224385
-24.5374 7.16222 2.81328 -0.532314 0.846203 0.0241263
-24.4959 7.19017 2.75036 -0.532895 0.845902 0.0217521
-21.9356 8.99352 0.262591 -0.579219 0.81438 0.0359226
-22.6711 8.43545 1.45528 -0.567461 0.822681 0.0344061
-23.444 7.8679 2.6593 -0.546779 0.837081 0.0181171
-24.1496 7.38002 3.73122 -0.53166 0.846645 0.0230111
-24.9888 6.8254 4.97359 -0.526143 0.85022 0.0173145
-25.8798 6.2461 6.27974 -0.517386 0.855497 0.0209017
-26.7096 5.71591 7.47131 -0.515852 0.85646 0.0193278
-27.4676 5.24232 8.54164 -0.507815 0.861307 0.0165595
-28.2132 4.77953 9.57933 -0.504807 0.863175 0.00998387
-29.1245 4.24301 10.8145 -0.495901 0.868289 0.012524
-30.0311 3.71247 12.0395 -0.491657 0.870741 0.0091165
-31.045 3.13155 13.3861 -0.485122 0.874425 0.00606426
-32.0157 2.58366 14.6639 -0.473854 0.880554 0.00928183
-32.8413 2.13356 15.7347 -0.467935 0.88374 0.00631423
-33.476 1.7903 16.5541 -0.463535 0.886066 0.00466707
-32.6975 2.20096 16.9628 -0.47029 0.882469 0.00868348
-31.7943 2.69364 15.7924 -0.474998 0.87998 0.00335214
-30.9501 3.16768 14.6871 -0.486724 0.873473 0.0120027
-30.1542 3.6276 13.6316 -0.488242 0.872649 0.0101481
-29.2671 4.14198 12.4481 -0.496202 0.868169 0.00806855
-28.2665 4.72977 11.091 -0.500815 0.865466 0.0123641
-27.5249 5.17801 10.0737 -0.506486 0.86219 0.0100653
-26.6288 5.73949 8.81594 -0.521243 0.853266 0.0155886
-25.8071 6.26247 7.64091 -0.521417 0.853171 0.0149513
-25.0911 6.72304 6.60599 -0.528983 0.848377 0.0208019
-24.2943 7.24952 5.42525 -0.540537 0.841303 0.00535243
-23.5584 7.74653 4.33297 -0.552826 0.832906 0.0255169
-22.8525 8.24837 3.25415 -0.556816 0.830002 0.0324457
-22.0147 8.8786 1.93109 -0.575074 0.817458 0.0324235
-21.2939 9.43611 0.746805 -0.593663 0.804286 0.0262504
-20.6598 9.95657 -0.32541 -0.60758 0.793657 0.0308882
-20.0023 10.5102 -1.44824 -0.614036 0.788394 0.0373398
-19.2637 11.1737 -2.74519 -0.634595 0.770799 0.0561923
-18.5299 11.8769 -4.09131 -0.658632 0.750766 0.0505393
-17.8217 12.6041 -5.44095 -0.667072 0.74263 0.0592991
-17.1601 13.3204 -6.74811 -0.690623 0.720156 0.0664495
-16.5086 14.0859 -8.11727 -0.710754 0.700516 0.0640831
-15.9154 14.8026 -9.38551 -0.72462 0.686408 0.0613956
-15.4255 15.4391 -10.4807 -0.73911 0.671016 0.0587738
-14.932 16.0965 -11.6163 -0.74875 0.660152 0.059766
-14.455 16.7912 -12.7807 -0.769954 0.633968 0.0725017
-14.0198 17.4612 -13.8673 -0.777967 0.623304 0.0791171
-13.5818 18.1769 -15.028 -0.798675 0.596746 0.0775397
-13.2424 18.7659 -15.9956 -0.811131 0.580158 0.0740499
-12.7596 19.3553 -15.5272 -0.801449 0.589572 0.100422
-13.1657 18.6345 -14.3667 -0.794445 0.599968 0.0943131
-13.691 17.7567 -12.9611 -0.783414 0.616425 0.0792596
-14.1433 17.0632 -11.8231 -0.77308 0.629928 0.0744113
-14.5952 16.395 -10.7102 -0.755909 0.651251 0.0668844
-15.062 15.7576 -9.63028 -0.748254 0.659672 0.0703412
-15.559 15.1109 -8.51746 -0.732807 0.677773 0.0601403
-16.0845 14.4396 -7.35217 -0.705599 0.704784 0.0735434
-16.787 13.5938 -5.85648 -0.702088 0.708809 0.0682842
-17.4136 12.9109 -4.62308 -0.67023 0.740003 0.05646
-18.0109 12.2855 -3.47774 -0.652587 0.755537 0.0573959
-18.5944 11.7059 -2.38473 -0.641224 0.764891 0.0614239
-19.2317 11.1074 -1.23228 -0.627223 0.777653 0.0429812
-19.9041 10.5264 -0.0630696 -0.612353 0.789758 0.0361332
-20.6158 9.92799 1.15625 -0.605519 0.79553 0.0218939
-21.3554 9.34158 2.38286 -0.589981 0.806812 0.0312482
-22.014 8.82246 3.45314 -0.582244 0.812193 0.0365345
-22.6918 8.32417 4.50562 -0.565495 0.824549 0.0182922
-23.4302 7.80862 5.6192 -0.554033 0.832415 0.0114982
-24.1942 7.28982 6.76323 -0.543499 0.839179 0.0196861
-24.8997 6.8225 7.79787 -0.532431 0.84639 0.0118752
-25.6805 6.32065 8.92692 -0.525313 0.850781 0.014781
-26.6329 5.71068 10.2831 -0.514485 0.857286 0.0191187
-27.4718 5.18889 11.4472 -0.505343 0.862786 0.0150939
-28.4509 4.60625 12.7851 -0.497729 0.867307 0.00662897
-29.3505 4.07877 13.9941 -0.495319 0.868666 0.00881058
-30.2118 3.57739 15.1333 -0.49022 0.871544 0.00976706
-31.0582 3.09557 16.2449 -0.485972 0.873962 0.00458733
-31.7034 2.7319 17.0906 -0.472642 0.881169 0.0123021
-30.7216 3.26989 17.2274 -0.483619 0.875218 0.0102705
-29.766 3.821 15.9711 -0.492731 0.870141 0.00846505
-28.9017 4.32408 14.8306 -0.49618 0.868148 0.0111406
-28.0694 4.81604 13.7109 -0.498417 0.866886 0.00947973
-27.1406 5.37156 12.4428 -0.506966 0.861939 0.00677302
-26.3229 5.87689 11.3113 -0.518545 0.855002 0.00910358
-25.3821 6.48714 9.97046 -0.525486 0.850682 0.0143141
-24.5956 6.99959 8.83114 -0.535944 0.844195 0.00994864
-23.8676 7.48167 7.76318 -0.543728 0.839098 0.0165292
-22.9888 8.08669 6.4481 -0.550675 0.8345 0.0191663
-22.1782 8.66034 5.21268 -0.56274 0.826369 0.0209049
-21.483 9.17356 4.12644 -0.586668 0.809133 0.0335317
-20.6775 9.81658 2.81123 -0.596079 0.802106 0.0362664
-20.0154 10.3667 1.6876 -0.601938 0.798005 0.0292859
-19.1462 11.1028 0.183797 -0.612352 0.789759 0.0361341
-18.5098 11.6731 -0.947048 -0.637358 0.769005 0.0490441
-17.835 12.3427 -2.20509 -0.656803 0.751756 0.058935
-17.2505 12.9309 -3.31635 -0.661696 0.747042 0.0639298
-16.5676 13.7103 -4.68558 -0.693433 0.717463 0.066305
-16.0194 14.3484 -5.81711 -0.70115 0.709551 0.0701834
-15.4945 15.0057 -6.95912 -0.723818 0.686383 0.0704684
-14.979 15.6876 -8.12957 -0.734242 0.674912 0.0733625
-14.7878 15.9432 -8.56729 -0.738278 0.669863 0.0789289
-14.6279 15.9705 -7.23141 -0.733526 0.675591 0.0742652
-15.1359 15.2909 -6.07046 -0.721827 0.687765 0.0771026
-15.657 14.6312 -4.93975 -0.715242 0.694707 0.0762294
-16.1874 13.9895 -3.81787 -0.697733 0.71334 0.0656825
-16.7548 13.3484 -2.6706 -0.689576 0.724198 0.00482222
-17.3473 12.7179 -1.52658 -0.658532 0.750412 0.0567249
-18.0626 12.008 -0.187264 -0.645768 0.762447 0.0407329
-18.6923 11.4314 0.950706 -0.635256 0.771216 0.0409277
-19.306 10.902 2.02479 -0.617487 0.785937 0.0318341
-20.0986 10.2282 3.38797 -0.603988 0.79598 0.0401619
-20.7593 9.68349 4.48397 -0.586669 0.809132 0.0335324
-21.5894 9.04958 5.80641 -0.566775 0.823574 0.0221866
-22.4919 8.39982 7.19687 -0.559428 0.828721 0.0161495
-23.4394 7.74535 8.61592 -0.551449 0.83417 0.00808125
-24.1561 7.26691 9.66961 -0.536008 0.844114 0.012962
-24.8977 6.78024 10.7449 -0.533854 0.845454 0.0144099
-25.7576 6.22003 11.9646 -0.529709 0.848179 0.00106073
-26.5344 5.72943 13.0579 -0.524123 0.851573 0.010834
-27.397 5.20164 14.2385 -0.504817 0.863188 0.00814319
-28.1645 4.74397 15.2691 -0.500649 0.865609 0.00844654
-29.0309 4.23481 16.4257 -0.496564 0.867978 0.00619209
-29.5748 3.91599 17.1465 -0.491198 0.870962 0.0122445
-28.5712 4.48676 17.2452 -0.496638 0.867847 0.0138288
-27.5613 5.09103 15.8931 -0.505939 0.862541 0.00694213
-26.7112 5.6034 14.744 -0.513636 0.857965 0.00860171
-25.8814 6.1219 13.5986 -0.522227 0.852648 0.0164238
-25.0849 6.63839 12.4753 -0.535143 0.844734 0.00678998
-24.3445 7.11884 11.4195 -0.54225 0.840163 0.0095287
-23.4464 7.71799 10.1153 -0.546081 0.837643 0.0122064
-22.6463 8.26926 8.91875 -0.559395 0.828801 0.0129045
-21.7795 8.87316 7.61261 -0.558695 0.82929 0.0117781
-21.0087 9.44812 6.40539 -0.581672 0.813307 0.0137362
-20.3299 9.96848 5.31486 -0.595357 0.803028 0.0263977
-19.5874 10.5813 4.08299 -0.605975 0.794632 0.0367995
-18.8454 11.2245 2.79032 -0.61353 0.788692 0.0393206
-18.1846 11.8217 1.60717 -0.643508 0.764254 0.0425758
-17.445 12.5181 0.24459 -0.654764 0.75483 0.0389359
-16.8223 13.136 -0.924285 -0.669268 0.741251 0.0512577
-16.2228 13.8005 -2.11185 -0.685728 0.725004 0.0643933
-15.5503 14.5812 -3.49812 -0.701546 0.708582 0.0757977
-14.988 15.2978 -4.73651 -0.715242 0.694707 0.0762294
-14.484 15.9652 -5.86888 -0.728788 0.680009 0.0803533
-14.1059 16.2674 -5.03752 -0.729752 0.678361 0.0853774
-14.601 15.6056 -3.92036 -0.72444 0.684188 0.0841034
-15.2011 14.836 -2.59575 -0.712489 0.697332 0.0780263
-15.7143 14.2336 -1.52189 -0.695207 0.715715 0.0666256
-16.3139 13.5585 -0.311875 -0.674586 0.736507 0.049898
-16.9817 12.8805 0.968881 -0.667516 0.74375 0.0354689
-17.7848 12.0986 2.48108 -0.638888 0.767931 0.0458762
-18.5357 11.4116 3.82581 -0.618229 0.784874 0.0420138
-19.1554 10.8751 4.90327 -0.608371 0.792812 0.0365133
-20.0602 10.139 6.40331 -0.597375 0.801758 0.0180891
-20.8002 9.56886 7.59263 -0.586171 0.809878 0.0223877
-21.5976 8.97928 8.83847 -0.568975 0.822264 0.0122123
-22.5713 8.30282 10.3019 -0.559781 0.828546 0.0125446
-23.2784 7.8111 11.3555 -0.556204 0.830978 0.0106356
-24.0493 7.29975 12.4693 -0.541119 0.840915 0.0072412
-24.8872 6.74866 13.6557 -0.534877 0.844822 0.0135449
-25.7293 6.20235 14.834 -0.526049 0.85038 0.0112611
-26.6247 5.64378 16.0696 -0.51955 0.854419 0.00594444
-27.6572 5.01233 17.4601 -0.503472 0.863883 0.0149174
-26.3817 5.77846 17.191 -0.518331 0.855124 0.00974366
-25.6033 6.26521 16.1218 -0.52756 0.849471 0.00887167
-24.8685 6.736 15.1019 -0.534907 0.844777 0.0150681
-23.9504 7.34306 13.808 -0.541763 0.840366 0.0166744
-23.1456 7.88584 12.647 -0.557888 0.829878 0.00798298
-22.4053 8.39294 11.5548 -0.556852 0.830563 0.00898239
-21.6908 8.89613 10.4808 -0.563684 0.825842 0.0156651
-20.9124 9.4597 9.28284 -0.580757 0.813928 0.015578
-20.2075 9.99061 8.16502 -0.593522 0.804622 0.0177414
-19.5506 10.506 7.0982 -0.602362 0.79795 0.0208688
-18.8734 11.0546 5.97298 -0.605287 0.795515 0.0279903
-18.1849 11.6417 4.79012 -0.624122 0.780367 0.038722
-17.5149 12.2483 3.59125 -0.641085 0.766288 0.0425675
-16.903 12.8651 2.4318 -0.66041 0.749608 0.04412
-16.3349 13.4408 1.33646 -0.670981 0.739945 0.0476099
-15.7852 14.0143 0.261793 -0.688956 0.723824 0.0376513
-15.2176 14.6616 -0.900334 -0.710548 0.701192 0.0587543
-14.6753 15.3139 -2.05701 -0.711516 0.69902 0.0715274
-14.1876 15.9498 -3.15689 -0.724435 0.684907 0.0780839
-13.9029 16.3298 -3.79788 -0.726339 0.682143 0.0843338
-13.4089 16.7875 -3.22345 -0.728777 0.679626 0.0836233
-13.9291 16.1072 -2.04512 -0.72954 0.68052 0.0682928
-14.5242 15.3534 -0.73065 -0.726142 0.684588 0.0636905
-15.1193 14.6344 0.538143 -0.704301 0.707558 0.057634
-15.7544 13.9453 1.81259 -0.677446 0.734188 0.0451082
-16.4769 13.1936 3.23097 -0.669902 0.740349 0.055815
-17.1058 12.5558 4.42835 -0.649573 0.758562 0.0513654
-17.7351 11.9622 5.58202 -0.63273 0.773456 0.0376748
-18.4229 11.3787 6.76288 -0.622716 0.782243 0.0179058
-19.1527 10.7878 7.97981 -0.603147 0.797435 0.017641
-19.8664 10.2298 9.13412 -0.600445 0.799595 0.0106071
-20.5299 9.71918 10.1979 -0.590885 0.806685 0.0107011
-21.2425 9.18877 11.3085 -0.566574 0.823961 0.00905315
-22.015 8.64971 12.4667 -0.562898 0.826497 0.00701445
-22.9007 8.03217 13.775 -0.555551 0.831274 0.0186069
-23.747 7.45855 14.9969 -0.547299 0.836881 0.00973726
-24.5131 6.94858 16.0774 -0.543588 0.83931 0.00840826
-25.2603 6.46912 17.1126 -0.528255 0.849051 0.00764844
-25.5821 6.26648 17.5533 -0.526802 0.849966 0.00607337
-24.643 6.85237 17.7245 -0.543177 0.839553 0.0104698
-23.7167 7.46209 16.4288 -0.549272 0.835603 0.00828246
-22.9604 7.97265 15.3474 -0.553628 0.832744 0.00576582
-21.9447 8.68155 13.8595 -0.563961 0.825717 0.0118206
-21.2133 9.19426 12.7655 -0.580461 0.814182 0.0131316
-20.4195 9.77053 11.5426 -0.596295 0.802674 0.0121199
-19.6352 10.3867 10.2838 -0.604553 0.796414 0.0154955
-18.8894 10.9684 9.07353 -0.604493 0.796548 0.0100286
-18.1452 11.5623 7.84959 -0.614995 0.788255 0.0208585
-17.44 12.1834 6.6172 -0.64263 0.765818 0.0234452
-16.7549 12.8026 5.38452 -0.66886 0.742977 0.024742
-16.1504 13.418 4.22272 -0.668317 0.742155 0.050575
-15.5592 14.0504 3.04154 -0.682582 0.729337 0.0463635
-14.9721 14.6922 1.85648 -0.699779 0.712993 0.0441544
-14.4544 15.2887 0.773595 -0.714568 0.696469 0.0657557
-13.89 15.998 -0.482957 -0.724005 0.686482 0.0675225
-13.3934 16.6301 -1.58134 -0.725548 0.684812 0.0679228
-12.9973 17.1392 -2.47062 -0.729532 0.68044 0.0691632
-12.5839 17.5124 -1.74145 -0.733332 0.676291 0.069672
-13.1523 16.7846 -0.476438 -0.732928 0.678081 0.0549772
-13.6691 16.13 0.684973 -0.732322 0.678793 0.0542597
-14.1755 15.5085 1.80141 -0.717398 0.694973 0.0485074
-14.7198 14.8503 2.97219 -0.694355 0.716533 0.0667239
-15.2567 14.2685 4.06343 -0.682581 0.729338 0.0463641
-15.8937 13.5928 5.33984 -0.681553 0.731168 0.0296495
-16.6384 12.868 6.74362 -0.662769 0.748374 0.0259564
-17.3042 12.246 7.9539 -0.649815 0.759624 0.0266852
-17.9314 11.7154 9.02012 -0.625236 0.78039 0.00844384
-18.7331 11.0686 10.3477 -0.610993 0.79156 0.0109603
-19.5361 10.4348 11.6522 -0.60534 0.795825 0.0150387
-20.3842 9.78762 12.9933 -0.586315 0.810048 0.00753103
-21.2397 9.16511 14.3022 -0.573752 0.819025 0.00253568
-22.0777 8.5652 15.5532 -0.578012 0.81597 0.00974109
-22.8607 8.02899 16.6842 -0.553507 0.832822 0.00622002
-23.5754 7.54147 17.701 -0.547839 0.83654 0.00854165
-22.4196 8.3181 17.5365 -0.560188 0.828322 0.00851829
-21.4965 8.96693 16.1906 -0.578001 0.815937 0.0127258
-20.7275 9.5268 15.0327 -0.590124 0.807313 -0.000720012
-19.833 10.1907 13.6497 -0.604279 0.796761 0.00440673
-19.0592 10.7884 12.4212 -0.614114 0.789144 0.0107263
-18.3748 11.3418 11.2942 -0.618349 0.785871 0.00712482
-17.5438 12.0165 9.90915 -0.627763 0.778357 0.00858513
-16.8461 12.6246 8.6902 -0.662274 0.748897 0.0233736
-16.1006 13.3242 7.33207 -0.664955 0.746311 0.0292362
-15.536 13.8857 6.2547 -0.680444 0.731951 0.0352718
-14.9865 14.4667 5.15175 -0.698843 0.714015 0.0424276
-14.3393 15.1673 3.82909 -0.695793 0.717399 0.0347969
-13.6875 15.9759 2.37481 -0.732022 0.678967 0.0560963
-13.0695 16.7546 0.979132 -0.733892 0.677084 0.054408
-12.4246 17.5706 -0.463308 -0.733455 0.677501 0.055109
-12.2055 17.8475 -0.951003 -0.734544 0.67586 0.0604891
-11.8359 18.1885 -0.154728 -0.731959 0.679593 0.0488883
-12.472 17.3787 1.27128 -0.735809 0.674919 0.0554022
-13.0774 16.6295 2.63527 -0.740899 0.670593 0.037069
-13.5906 15.9849 3.80757 -0.740456 0.670632 0.0444812
-14.1683 15.2923 5.08103 -0.727173 0.685975 0.0256343
-14.8175 14.5754 6.43582 -0.711644 0.701599 0.0363622
-15.4218 13.9184 7.65834 -0.679897 0.732231 0.0397148
-16.0063 13.3672 8.73843 -0.662309 0.748956 0.0203052
-16.8032 12.6333 10.1776 -0.643789 0.765028 0.0163581
-17.5189 12.0306 11.4084 -0.636837 0.770998 -0.000231276
-18.3541 11.3412 12.8065 -0.620603 0.784058 0.0102112
-19.0747 10.7641 13.9798 -0.610885 0.791707 0.0044669
-19.7383 10.2549 15.024 -0.605449 0.795832 0.00911821
-20.5871 9.61155 16.3355 -0.587287 0.8092 0.0170058
-21.3022 9.08314 17.4112 -0.571858 0.820274 0.0113221
-21.6393 8.84745 17.899 -0.566212 0.82423 0.00692364
-20.5168 9.63898 17.743 -0.590615 0.806862 0.0121506
-19.6269 10.317 16.3784 -0.605751 0.795543 0.0133056
-18.7953 10.9777 15.0573 -0.622096 0.782913 0.00660841
-18.0274 11.5907 13.8125 -0.632785 0.774299 0.00658636
-17.2457 12.2519 12.4892 -0.637692 0.770265 0.00645563
-16.601 12.8106 11.3655 -0.665185 0.746678 -0.000744944
-15.9363 13.41 10.1754 -0.673675 0.739028 0.000890875
-15.3454 13.9573 9.09508 -0.679223 0.73385 0.0109764
-14.732 14.5783 7.90393 -0.699217 0.713884 0.0382812
-14.0794 15.3226 6.53095 -0.736944 0.674923 0.0373313
-13.4182 16.1068 5.06741 -0.747166 0.664046 0.0280364
-12.9146 16.7374 3.90597 -0.749393 0.660878 0.0406149
-12.3445 17.4398 2.59072 -0.743358 0.668207 0.0302821
-11.7005 18.2508 1.14156 -0.745469 0.665254 0.0413806
-11.3633 18.6606 0.410725 -0.735436 0.67622 0.043126
-10.8392 19.2021 0.85784 -0.729759 0.682484 0.0408454
-11.3659 18.5778 1.98417 -0.745028 0.666658 0.022371
-11.8741 17.9567 3.10772 -0.753101 0.657373 0.0264386
-12.4666 17.2216 4.49814 -0.760346 0.649255 0.0184871
-12.9385 16.6233 5.61362 -0.750422 0.660361 0.0281129
-13.4695 15.985 6.81862 -0.741413 0.670241 0.0329143
-13.9533 15.3815 7.91175 -0.729074 0.682546 0.0508214
-14.5789 14.6846 9.21663 -0.697061 0.716803 0.0172943
-15.2668 14.0272 10.5071 -0.687964 0.725688 -0.00905069
-15.8604 13.4769 11.5862 -0.67284 0.739788 0.000629481
-16.4947 12.8987 12.7325 -0.661837 0.749637 0.00390718
-17.1413 12.3282 13.8581 -0.65134 0.758747 0.00775779
-17.8898 11.7027 15.1137 -0.632681 0.774367 0.0083389
-18.5262 11.169 16.1619 -0.617173 0.786645 0.0169628
-19.2561 10.5852 17.3224 -0.606455 0.795076 0.0081437
-19.574 10.3376 17.8185 -0.608439 0.793523 0.0111133
-18.4548 11.2053 17.5928 -0.618896 0.785462 0.0042625
-17.7459 11.7915 16.4317 -0.636406 0.771147 0.0178532
-16.8982 12.526 14.9875 -0.651354 0.758742 0.00697268
-16.2061 13.1434 13.7742 -0.662475 0.749018 0.00994745
-15.6155 13.6954 12.6987 -0.6773 0.735705 0.00178448
-15.0086 14.273 11.5774 -0.692948 0.720986 0.00160348
-14.3821 14.8755 10.4057 -0.728966 0.684471 -0.0104152
-13.7328 15.5735 9.09005 -0.735761 0.677174 0.00950165
-13.1642 16.2798 7.78852 -0.752183 0.65702 0.0504488
-12.6762 16.8822 6.68792 -0.750183 0.66088 0.021523
-12.1718 17.5217 5.45406 -0.77446 0.632244 0.021901
-11.6967 18.1305 4.32284 -0.762494 0.646712 0.0191383
-11.1837 18.7528 3.13187 -0.757154 0.653237 0.000352164
-10.6059 19.4188 1.91856 -0.733245 0.679688 0.0194025
-10.3561 19.7016 1.40784 -0.729039 0.68438 0.0111733
-9.8926 20.1889 1.99468 -0.726346 0.687279 -0.0082535
-10.4525 19.5844 3.11197 -0.744242 0.66791 -0.000206686
-10.97 19.0102 4.22194 -0.769594 0.638328 -0.0162135
-11.558 18.2851 5.60837 -0.790932 0.611894 0.00363363
-12.0144 17.6963 6.74804 -0.802391 0.596756 -0.00711679
-12.5115 17.0684 7.92398 -0.778137 0.627369 0.0301668
-13.032 16.3982 9.13369 -0.769037 0.639202 0.00166209
-13.5857 15.744 10.3397 -0.764617 0.644482 0.00192431
-14.3803 14.888 11.9454 -0.713786 0.700356 -0.00342718
-15.197 14.0788 13.4914 -0.690295 0.723508 0.00535453
-15.9078 13.4023 14.8026 -0.672066 0.740481 -0.0040218
-16.7434 12.6494 16.2892 -0.663714 0.747739 0.0192482
-17.4316 12.0423 17.4674 -0.64791 0.761715 0.00165995
-17.4921 11.9917 17.5667 -0.643552 0.765401 -0.00164924
-16.7691 12.6111 17.9003 -0.654996 0.755628 0.00257955
-16.1429 13.1719 16.804 -0.670755 0.741676 -0.00207529
-15.51 13.7791 15.6415 -0.681536 0.731752 -0.00695336
-14.8494 14.3995 14.414 -0.691853 0.721969 0.00999467
-14.1136 15.1631 12.9707 -0.724549 0.689025 0.0165189
-13.529 15.7939 11.7785 -0.739175 0.673285 0.0175566
-13.0165 16.4185 10.6556 -0.764617 0.644483 0.001924
-12.4016 17.1777 9.27787 -0.787215 0.616643 -0.00665972
-12.2065 17.4329 8.81376 -0.794353 0.607444 0.00394157
-12.3151 17.2754 10.6438 -0.777416 0.628839 0.0136376
-12.9219 16.483 12.0264 -0.75494 0.655248 0.0267511
-13.4678 15.8341 13.2382 -0.723357 0.690314 0.0148862
-14.0333 15.2201 14.3993 -0.729875 0.68358 0.000194996
-14.6532 14.5924 15.6178 -0.710985 0.702759 -0.0251049
-15.2477 14.0111 16.735 -0.699801 0.714333 0.00256183
-15.8036 13.4759 17.7598 -0.682351 0.731021 -0.00221074
-15.0449 14.2112 17.9238 -0.700229 0.713915 -0.00212688
-14.3864 14.8728 16.6659 -0.718934 0.695071 0.00313751
-13.7981 15.4872 15.4891 -0.749739 0.66137 -0.0219587
-13.2265 16.1106 14.3017 -0.751831 0.659337 -0.00495211
-12.7186 16.7042 13.1821 -0.772865 0.634376 0.0156957
-12.1003 17.4989 11.7483 -0.778237 0.627626 0.0207913
-12.0764 17.5307 11.6938 -0.776866 0.629173 0.0249077
-12.0976 17.477 13.3279 -0.786102 0.618075 0.00518607
-12.6414 16.8066 14.5885 -0.769879 0.638185 -0.00246179
-13.1859 16.1903 15.7684 -0.759785 0.650162 -0.00402258
-13.7351 15.5709 16.9329 -0.742712 0.669607 0.00222364
-14.0907 15.1761 17.6757 -0.72746 0.686133 -0.0049314
-13.333 16.0236 17.6873 -0.757556 0.652762 -0.00322729
-12.7479 16.706 16.3908 -0.759785 0.650162 -0.00402468
-12.1539 17.4063 15.0556 -0.779126 0.626844 -0.00543907
-11.6969 17.9864 13.9587 -0.789461 0.613785 0.00430688
-11.3081 18.4895 14.6168 -0.800628 0.599074 -0.010208
-11.8578 17.7885 15.9446 -0.789201 0.614001 -0.0128111
-12.3552 17.1874 17.0961 -0.774853 0.63212 -0.00513781
-12.602 16.8903 17.6647 -0.773333 0.633993 0.0028917
-11.1569 18.7095 15.8085 -0.798909 0.601427 -0.00554828
-11.0552 18.8436 15.5522 -0.801601 0.597788 -0.00922287
-18.2799 12.7841 -17.5176 -0.707307 0.706455 0.0252501
-18.6683 12.3784 -16.7485 -0.684243 0.728989 0.0196411
-18.0543 12.9702 -16.3576 -0.701196 0.7127 0.0195769
-17.6138 13.4597 -17.273 -0.722905 0.690375 0.0281313
-17.6076 13.4666 -17.286 -0.722876 0.690569 0.0237725
-16.8233 14.3027 -17.3229 -0.734641 0.678273 0.0157792
-17.2998 13.75 -16.2936 -0.729205 0.683809 0.025787
-17.6267 13.3726 -15.6046 -0.720503 0.692991 0.0252729
-17.1891 13.8017 -14.8885 -0.728945 0.683967 0.0287856
-16.6719 14.4098 -15.9885 -0.74576 0.665668 0.0269744
-16.2574 14.9165 -16.9179 -0.753279 0.657059 0.0290393
-15.8873 15.3908 -17.7965 -0.772072 0.635099 0.023543
-15.1634 16.2781 -17.8498 -0.798518 0.601441 0.0252506
-15.5443 15.7576 -16.9042 -0.768753 0.638681 0.033231
-15.9241 15.2632 -16.0077 -0.758226 0.651429 0.027078
-16.4014 14.6705 -14.9452 -0.74576 0.665668 0.0269746
-16.7015 14.3082 -14.2978 -0.740279 0.671371 0.0353151
-16.3709 14.6228 -13.3785 -0.739951 0.671618 0.037434
-15.8828 15.2431 -14.4626 -0.757828 0.650813 0.0462464
-15.4291 15.8381 -15.5029 -0.772514 0.633946 0.0365326
-15.0331 16.383 -16.4627 -0.787996 0.614593 0.0365721
-14.6838 16.89 -17.3628 -0.804964 0.592584 0.0296257
-14.557 17.0791 -17.7009 -0.804865 0.59273 0.0293653
-14.049 17.7598 -17.3106 -0.82597 0.562185 0.0414854
-14.5054 17.0391 -16.0766 -0.795168 0.604936 0.0419583
-14.8936 16.4651 -15.102 -0.78764 0.61385 0.053023
-15.3541 15.8225 -14.0089 -0.762644 0.644544 0.0542014
-15.8475 15.1664 -12.8819 -0.745815 0.664538 0.0463487
-16.1518 14.79 -12.2143 -0.737495 0.672842 0.0581814
-16.0547 14.7693 -10.748 -0.730388 0.680578 0.0578601
-15.608 15.3477 -11.7547 -0.739398 0.670874 0.0567377
-15.2209 15.8664 -12.6488 -0.746728 0.662118 0.0632262
-14.8237 16.4281 -13.5928 -0.772063 0.632935 0.0575507
-14.4486 16.9849 -14.5067 -0.787413 0.613455 0.0604402
-14.0994 17.5156 -15.3942 -0.799335 0.597189 0.0665505
-13.6985 18.1863 -16.5104 -0.822164 0.566099 0.059812
-12.2263 20.0215 -15.1864 -0.79145 0.600376 0.1147
-12.9424 18.7314 -13.1567 -0.777344 0.621249 0.0989256
-11.6551 20.7075 -14.9121 -0.768875 0.624359 0.137867
-11.4946 21.0015 -15.3547 -0.768898 0.624947 0.135044
-7.57172 25.004 -17.8138 -0.489038 0.863635 0.122379
-8.40495 24.2536 -16.5933 -0.569225 0.8035 0.174272
-8.74485 23.886 -16.0179 -0.58646 0.796418 0.147589
-7.56189 24.7633 -16.3202 -0.552428 0.819773 0.150982
-7.01136 25.2133 -17.0921 -0.495734 0.85766 0.13663
-10.4966 19.6008 4.71594 -0.775349 0.631022 -0.025396
-9.98704 20.1269 3.65752 -0.737226 0.675099 -0.0271902
-9.41425 20.7009 2.55239 -0.731463 0.681632 -0.0184242
-9.1766 20.9367 2.10052 -0.706956 0.707214 -0.00788317
-8.53914 21.5805 2.39068 -0.694265 0.718953 -0.0332073
-9.0936 21.0699 3.42719 -0.71416 0.699243 -0.0321681
-9.65387 20.5431 4.48647 -0.736904 0.674506 -0.0448719
-9.0677 21.2051 4.81067 -0.724661 0.687003 -0.0537898
-8.49927 21.6922 3.80069 -0.692781 0.719409 -0.0500488
-7.83522 22.262 2.59893 -0.678612 0.733398 -0.040165
-7.11204 22.9228 2.82152 -0.654361 0.755607 -0.0294945
-7.75326 22.4204 3.91994 -0.667337 0.74254 -0.0574161
-8.35044 21.9365 4.96169 -0.708023 0.700512 -0.0893702
-8.48781 21.8279 5.19853 -0.708024 0.700511 -0.0893691
-7.82313 22.5058 5.45946 -0.663461 0.743632 -0.0826505
-7.14467 23.0038 4.32743 -0.657626 0.750293 -0.0677444
-6.47656 23.4919 3.22311 -0.652133 0.756947 -0.0418745
-6.13937 23.7488 2.65959 -0.640452 0.767022 -0.0387136
-5.18181 24.5086 2.58004 -0.615907 0.786816 -0.0397432
-5.95206 23.9626 3.82786 -0.628036 0.776447 -0.0519735
-6.65182 23.4782 4.96119 -0.647622 0.758289 -0.074726
-7.28237 23.0593 5.97538 -0.639002 0.763357 -0.0946729
-7.28939 23.0548 5.98652 -0.654279 0.750103 -0.0962589
-6.68065 23.6227 6.43304 -0.642212 0.759578 -0.102985
-5.90827 24.1144 5.20765 -0.62192 0.778938 -0.0804471
-5.13796 24.6151 3.98701 -0.605192 0.794629 -0.0480347
-4.4741 25.0577 2.94713 -0.585747 0.809593 -0.0382098
-4.16228 25.2609 2.47362 -0.584573 0.810273 -0.0416242
-2.86581 26.0654 2.03814 -0.479389 0.875709 -0.0576211
-3.70169 25.626 3.24757 -0.56069 0.827051 -0.0401637
-4.37851 25.1945 4.28924 -0.580731 0.812832 -0.0453256
-5.03476 24.7824 5.31141 -0.587922 0.805697 -0.0721135
-5.76299 24.345 6.43803 -0.605842 0.790806 -0.0870716
-6.34014 24.0073 7.32677 -0.60229 0.793029 -0.0913892
-5.96219 24.3942 8.18447 -0.582894 0.808211 -0.083842
-5.09599 24.872 6.87519 -0.568635 0.819486 -0.0713837
-4.4016 25.2754 5.81591 -0.579224 0.813131 -0.0576064
-3.55915 25.7897 4.52285 -0.560258 0.827029 -0.0462022
-2.81089 26.1927 3.42399 -0.491457 0.868877 -0.0593563
-2.24723 26.4342 2.6572 -0.463965 0.883176 -0.068825
-2.17556 26.5488 4.04442 -0.447521 0.892351 -0.0586017
-2.95015 26.2145 5.11814 -0.503369 0.86307 -0.0415861
-3.7601 25.7386 6.33169 -0.541376 0.840308 -0.028197
-4.42589 25.3684 7.34251 -0.548887 0.833768 -0.0596131
-5.2385 24.9274 8.55451 -0.564014 0.821537 -0.0834544
-5.70721 24.6754 9.24629 -0.564902 0.821396 -0.0787051
-5.58803 24.8498 10.5258 -0.547824 0.835839 -0.0355211
-4.78454 25.2906 9.34977 -0.541004 0.838094 -0.0700955
-3.9901 25.7166 8.18361 -0.530451 0.846012 -0.0537158
-3.21273 26.1145 7.02646 -0.536606 0.842418 -0.0488583
-2.51922 26.4753 6.01056 -0.478226 0.878034 -0.0188735
-2.19569 26.6211 5.56969 -0.418816 0.907818 -0.0214348
-3.19835 26.1951 8.53692 -0.445289 0.894555 -0.0385831
-3.89141 25.8445 9.54582 -0.511738 0.858006 -0.0441588
-4.60054 25.4712 10.5754 -0.505242 0.862838 -0.0155238
-5.34095 25.0455 11.6396 -0.535754 0.844365 0.00391894
-5.41344 24.9971 11.7457 -0.552205 0.833703 0.00307866
-5.43162 24.9646 13.2706 -0.5553 0.830992 0.0330732
-4.6395 25.4688 12.1316 -0.519899 0.854218 -0.00413524
-3.93212 25.8604 11.1409 -0.472458 0.881326 -0.00691457
-3.44677 26.1205 10.4442 -0.458319 0.888703 -0.0122715
-3.17225 26.2738 11.6025 -0.462332 0.886682 -0.00665649
-4.11439 25.7964 12.8866 -0.503238 0.863834 -0.0232969
-4.82749 25.3223 13.9186 -0.540429 0.839636 0.0542895
-5.22397 25.0234 14.5286 -0.534649 0.84339 0.0533208
-4.40229 25.4994 14.8732 -0.494162 0.866548 0.0699839
-3.691 25.9802 13.8217 -0.476643 0.877219 0.0574239
-2.79768 26.4768 12.6124 -0.462323 0.886685 -0.0068202
-2.28416 26.6752 13.4543 -0.404654 0.913577 0.040394
-3.04566 26.2566 14.4765 -0.441663 0.894617 0.0677884
-3.46582 26.0204 15.0578 -0.476035 0.879346 0.0119203
-2.37368 26.5908 15.0643 -0.385167 0.922816 0.00758774
-1.69013 26.8575 14.2107 -0.357518 0.933494 0.0277654
-0.911805 27.1607 14.7265 -0.308717 0.950884 -0.0226653
-1.32526 27.0131 15.2331 -0.345049 0.938427 -0.0172333
-0.380373 27.3272 15.5754 -0.240404 0.970508 -0.0179062
-0.217425 27.3679 15.3975 -0.246355 0.969172 -0.00396153
3.5991 25.9374 -15.2637 0.355705 0.927882 -0.111845
3.19391 26.099 -14.7302 0.291476 0.953928 -0.0711505
3.56071 26.0741 -13.7079 0.280795 0.95554 -0.0899848
4.36213 25.6919 -14.755 0.385051 0.914913 -0.121122
5.03585 25.288 -15.7199 0.387182 0.916492 -0.100659
5.39504 25.0839 -16.2172 0.432822 0.89619 -0.0975119
6.85215 24.2824 -16.7626 0.487141 0.872088 -0.0464325
6.01384 24.8323 -15.5619 0.468016 0.881183 -0.0669169
5.35784 25.3048 -14.5945 0.412284 0.901912 -0.128752
4.57747 25.7578 -13.5337 0.360686 0.927017 -0.102694
3.77547 26.1334 -12.5039 0.283405 0.953578 -0.101835
3.76457 26.1381 -12.4898 0.283404 0.953578 -0.101836
4.15441 26.1639 -11.4614 0.26118 0.957259 -0.124259
4.90071 25.7608 -12.4437 0.395451 0.905745 -0.152462
5.66022 25.3002 -13.4747 0.450103 0.887483 -0.0989004
6.42311 24.7642 -14.5678 0.493757 0.861086 -0.121392
7.14834 24.1802 -15.692 0.521224 0.850091 -0.075308
7.46648 23.9521 -16.16 0.525833 0.848933 -0.0530276
8.12578 23.5225 -15.701 0.603469 0.794834 -0.063748
7.46557 24.09 -14.6514 0.590729 0.802403 -0.0847886
6.72075 24.7234 -13.4897 0.508274 0.854912 -0.10384
6.04635 25.223 -12.4994 0.427059 0.894165 -0.134499
5.34636 25.7119 -11.5204 0.417856 0.900474 -0.120596
4.40647 26.211 -10.2532 0.352429 0.93119 -0.0931584
4.46066 26.3551 -8.81815 0.25595 0.963933 -0.0729583
5.21113 25.9535 -9.79391 0.382911 0.920082 -0.0826379
6.06557 25.4299 -10.9882 0.43746 0.891679 -0.116349
6.871 24.8361 -12.1508 0.499243 0.855343 -0.138364
7.57018 24.2124 -13.2648 0.566834 0.813553 -0.129735
8.12576 23.6683 -14.2048 0.603048 0.791851 -0.096459
8.75522 23.0339 -15.3099 0.673835 0.737586 -0.0437361
9.50669 22.3558 -15.222 0.701173 0.706368 -0.0969633
8.91794 23.0318 -14.0862 0.653688 0.750209 -0.0993863
8.31221 23.6862 -12.9806 0.614558 0.781997 -0.103915
7.73161 24.292 -11.9542 0.589707 0.799454 -0.114535
7.10314 24.8938 -10.9432 0.542554 0.833515 -0.104344
6.37791 25.4267 -9.87055 0.442454 0.887339 -0.129859
5.59682 25.9356 -8.76355 0.383672 0.913385 -0.136103
4.84448 26.3614 -7.78753 0.303119 0.946955 -0.106749
4.22945 26.6067 -7.02504 0.226389 0.966917 -0.117553
5.47069 26.2495 -7.06081 0.297448 0.946088 -0.128226
6.22338 25.7836 -8.05415 0.439221 0.885734 -0.150201
6.86766 25.26 -9.02251 0.491635 0.863278 -0.114219
7.64527 24.629 -10.2312 0.50838 0.855425 -0.0989876
8.23327 24.0109 -11.2447 0.609831 0.781123 -0.133991
8.98318 23.1919 -12.6135 0.638647 0.761935 -0.107636
9.52019 22.5664 -13.645 0.672928 0.731058 -0.112795
9.98135 21.9693 -14.6014 0.708018 0.698463 -0.104208
10.3179 21.5253 -15.3243 0.722621 0.682529 -0.109418
11.0717 20.6696 -15.4284 0.747587 0.652611 -0.123341
10.6491 21.3263 -14.3781 0.722621 0.682529 -0.109418
10.1069 22.0738 -13.2013 0.698884 0.704303 -0.124574
9.49854 22.8327 -11.9828 0.649678 0.748286 -0.134113
8.87699 23.5693 -10.7979 0.63932 0.756212 -0.139334
8.24804 24.2763 -9.6514 0.590188 0.797577 -0.124699
7.63568 24.8624 -8.61643 0.562841 0.810176 -0.163786
6.92497 25.5281 -7.4792 0.518513 0.838365 -0.168191
6.63122 25.7674 -7.0624 0.43483 0.880827 -0.187258
7.80379 25.0306 -7.25003 0.518511 0.838366 -0.168191
8.34127 24.4606 -8.1796 0.562841 0.810176 -0.163785
9.02659 23.7079 -9.41604 0.612239 0.772596 -0.168105
9.5656 23.0638 -10.4464 0.646136 0.748458 -0.149393
10.0446 22.4388 -11.4471 0.667301 0.733678 -0.128164
10.5502 21.7762 -12.4836 0.691732 0.707297 -0.145732
11.0623 21.0273 -13.6266 0.723671 0.677522 -0.131393
11.4759 20.3646 -14.6603 0.740148 0.660412 -0.126636
11.9114 19.6373 -15.7944 0.747872 0.651694 -0.126423
13.3701 17.5988 -17.775 0.734267 0.66869 -0.117069
12.9767 18.22 -16.7729 0.73949 0.65983 -0.133338
12.4862 19.0431 -15.4825 0.747008 0.651726 -0.131269
11.9428 19.9566 -14.0634 0.743605 0.653032 -0.143531
11.552 20.6077 -13.0659 0.732378 0.666221 -0.140611
11.0564 21.385 -11.9096 0.685036 0.705304 -0.182405
10.5816 22.0704 -10.8605 0.681302 0.718404 -0.140441
10.1168 22.6887 -9.8704 0.655474 0.739749 -0.152067
9.47764 23.5325 -8.56192 0.664203 0.734839 -0.137281
8.80281 24.2997 -7.32053 0.618174 0.769475 -0.160529
8.54996 24.5707 -6.87694 0.587476 0.792623 -0.163159
9.32709 23.9959 -6.62498 0.653541 0.746936 -0.122353
9.82869 23.3733 -7.58957 0.672639 0.727954 -0.132813
10.4101 22.6412 -8.75526 0.69941 0.705606 -0.113779
10.8603 22.0067 -9.73258 0.698743 0.702082 -0.137252
11.3583 21.33 -10.8004 0.726585 0.677774 -0.112676
11.8981 20.4381 -12.1275 0.724587 0.669542 -0.163365
12.2873 19.7678 -13.1493 0.744221 0.651805 -0.145898
12.6683 19.1155 -14.1441 0.741883 0.65546 -0.141359
13.1808 18.2581 -15.4489 0.743294 0.655251 -0.134759
13.5832 17.5966 -16.4816 0.733434 0.668651 -0.122392
14.0501 16.906 -17.6013 0.711658 0.692982 -0.115407
14.7189 16.2498 -17.3583 0.720249 0.686874 -0.0971848
14.2169 16.9715 -16.1999 0.719947 0.68418 -0.116506
13.6951 17.7865 -14.931 0.730273 0.668993 -0.138382
13.3012 18.4429 -13.941 0.742133 0.655085 -0.141779
12.9097 19.1039 -12.9308 0.745132 0.651157 -0.144127
12.4857 19.8372 -11.8108 0.746183 0.64988 -0.144457
12.0466 20.6055 -10.6541 0.751563 0.64739 -0.12665
11.5928 21.2871 -9.62396 0.728703 0.675886 -0.110315
11.12 21.9581 -8.58215 0.703335 0.700862 -0.118793
10.67 22.5669 -7.62464 0.688746 0.71039 -0.144827
10.18 23.2348 -6.60071 0.682494 0.721064 -0.11945
10.0507 23.3947 -6.33956 0.683099 0.723161 -0.102049
10.7061 22.8207 -5.98468 0.702009 0.706103 -0.0927495
11.2898 22.0054 -7.25791 0.723034 0.679229 -0.125972
11.7353 21.3639 -8.2589 0.728532 0.675137 -0.115893
12.2337 20.609 -9.41564 0.747278 0.65517 -0.111033
12.6765 19.8968 -10.4985 0.750883 0.646372 -0.135566
13.132 19.1234 -11.6674 0.751023 0.646308 -0.135099
13.5802 18.3645 -12.8137 0.743333 0.655351 -0.134056
14.0077 17.6622 -13.8882 0.738731 0.659351 -0.139763
14.4539 16.9484 -14.9784 0.730272 0.668994 -0.138383
14.989 16.162 -16.2113 0.711883 0.690837 -0.126361
15.4281 15.546 -17.1976 0.698975 0.708234 -0.099191
15.594 15.3465 -17.5342 0.693264 0.715928 -0.0826586
16.3744 14.6087 -17.4535 0.684575 0.725049 -0.0752406
15.8664 15.2279 -16.4205 0.709846 0.696691 -0.103642
15.4211 15.8545 -15.4365 0.714201 0.688972 -0.123427
14.9842 16.4889 -14.4486 0.716852 0.686175 -0.123639
14.4933 17.2433 -13.2871 0.730635 0.670571 -0.128481
14.0985 17.8821 -12.3114 0.74159 0.658377 -0.128779
13.6925 18.546 -11.3114 0.750413 0.64748 -0.13285
13.2239 19.3316 -10.1253 0.756844 0.641788 -0.123673
12.6708 20.2145 -8.76222 0.751635 0.650824 -0.10711
12.1365 21.047 -7.48557 0.74921 0.653446 -0.108135
11.5578 21.9222 -6.12523 0.75058 0.653326 -0.0989717
11.1475 22.4951 -5.21406 0.699329 0.704922 -0.11842
11.593 22.1322 -4.48256 0.736934 0.671428 -0.0781804
12.0461 21.4464 -5.56291 0.750027 0.652885 -0.105836
12.5356 20.7156 -6.72159 0.748007 0.655923 -0.101245
13.0579 19.8916 -7.98574 0.758861 0.643762 -0.0984964
13.47 19.2444 -8.9906 0.763024 0.638461 -0.100803
13.9106 18.5376 -10.0831 0.753718 0.645213 -0.124937
14.3456 17.8211 -11.1704 0.750682 0.649646 -0.120147
14.8496 17.0187 -12.3861 0.738794 0.66351 -0.118059
15.2775 16.3641 -13.3974 0.727832 0.67509 -0.120476
15.731 15.7082 -14.414 0.721497 0.681912 -0.12016
16.1899 15.0647 -15.4132 0.711071 0.690974 -0.130127
16.6674 14.4619 -16.3889 0.677606 0.729827 -0.0905695
17.2109 13.8466 -17.4438 0.666823 0.741164 -0.0776039
18.1273 13.025 -17.5479 0.65014 0.757486 -0.059432
17.5942 13.5946 -16.5582 0.667617 0.74013 -0.0805941
17.0789 14.189 -15.5673 0.684723 0.720414 -0.110265
16.4661 14.9722 -14.3125 0.709023 0.695965 -0.113663
15.9547 15.6777 -13.2109 0.725762 0.678856 -0.111465
15.5017 16.3343 -12.1922 0.736207 0.667421 -0.112016
15.0333 17.0461 -11.0913 0.744902 0.657662 -0.112259
14.6109 17.7144 -10.0634 0.757245 0.643696 -0.110614
14.1809 18.4102 -8.97963 0.764337 0.638875 -0.0873365
13.6998 19.1423 -7.83121 0.765802 0.636023 -0.0949841
13.2681 19.8337 -6.78066 0.769165 0.630105 -0.106549
12.8717 20.4743 -5.78174 0.761548 0.64363 -0.07606
12.3565 21.2116 -4.5762 0.783732 0.616033 -0.0791725
12.0057 21.7248 -3.71702 0.771093 0.635542 -0.0387659
12.4837 21.1741 -3.1673 0.787942 0.61575 8.23071e-05
12.971 20.4711 -4.35845 0.777515 0.62791 -0.0346332
13.4937 19.7162 -5.61636 0.785251 0.615801 -0.0645809
14.0034 18.9084 -6.89106 0.776889 0.623201 -0.089793
14.5361 18.1005 -8.11913 0.76827 0.6358 -0.0742936
15.001 17.3887 -9.2548 0.760792 0.642986 -0.0881141
15.4056 16.7622 -10.2394 0.752224 0.650143 -0.107109
15.8466 16.1036 -11.2623 0.737526 0.667366 -0.103334
16.2858 15.4779 -12.25 0.726765 0.679276 -0.101964
16.9216 14.623 -13.6089 0.708929 0.696957 -0.108029
17.6073 13.7751 -14.9842 0.690755 0.717067 -0.0931224
18.2334 13.0611 -16.162 0.662857 0.744624 -0.0784504
18.8051 12.4764 -17.1861 0.646499 0.76085 -0.0560989
18.9312 12.353 -17.4072 0.646498 0.76085 -0.0560995
19.6213 11.8137 -17.0448 0.631738 0.773254 -0.0546272
18.978 12.4352 -15.9379 0.647869 0.758519 -0.0701114
18.394 13.0653 -14.8714 0.67264 0.736232 -0.0742837
17.8529 13.6808 -13.8513 0.685117 0.723156 -0.0875156
17.297 14.3694 -12.7318 0.698561 0.708787 -0.0981477
16.8196 14.997 -11.7213 0.711236 0.696021 -0.0984799
16.2459 15.7799 -10.473 0.736261 0.670902 -0.088381
15.7255 16.534 -9.27496 0.745613 0.660927 -0.0850671
15.2582 17.226 -8.16278 0.760429 0.644857 -0.0768582
14.6647 18.0998 -6.7962 0.76827 0.6358 -0.074292
14.1623 18.8451 -5.62527 0.790881 0.608549 -0.0646106
13.7255 19.5014 -4.52085 0.79638 0.603649 -0.0372327
13.2686 20.1546 -3.40957 0.795316 0.606056 -0.0130107
12.8032 20.7652 -2.3494 0.787942 0.61575 8.15004e-05
12.6683 20.934 -2.05992 0.785924 0.618055 -0.0181843
12.9586 20.5557 -1.19287 0.814097 0.580702 0.00552157
13.4336 19.9319 -2.25609 0.801618 0.597755 0.00988658
13.9888 19.2032 -3.54414 0.797663 0.603083 -0.00502593
14.4116 18.5938 -4.60192 0.790388 0.611435 -0.0378682
14.9417 17.8295 -5.85102 0.780456 0.623369 -0.0479638
15.4753 17.0803 -7.03694 0.769981 0.635476 -0.0574467
15.9216 16.4464 -8.06733 0.766159 0.638814 -0.0701187
16.3598 15.8389 -9.0617 0.754148 0.653015 -0.0695181
16.8991 15.1111 -10.237 0.718565 0.689412 -0.0915171
17.3528 14.5126 -11.2001 0.711928 0.696721 -0.087966
17.8875 13.8405 -12.293 0.705704 0.703256 -0.0861028
18.4648 13.1523 -13.4243 0.684845 0.723521 -0.0866284
18.9779 12.584 -14.3767 0.670277 0.738169 -0.0763881
19.5451 12.0086 -15.3745 0.647142 0.760058 -0.0593206
20.1421 11.4321 -16.3998 0.633542 0.771873 -0.0532587
20.6518 10.9651 -17.2488 0.624186 0.780105 -0.0427609
21.468 10.3292 -17.0712 0.614415 0.787742 -0.0442295
20.806 10.9135 -15.9938 0.631674 0.773675 -0.049139
20.175 11.5099 -14.9259 0.640271 0.765898 -0.0587694
19.628 12.0582 -13.9713 0.651452 0.755314 -0.0714866
19.3548 12.3372 -13.4899 0.657387 0.750307 -0.0698714
20.7352 11.0821 -14.3504 0.642677 0.76381 -0.0596682
21.407 10.4612 -15.4721 0.622983 0.780978 -0.0443342
22.1577 9.81619 -16.6741 0.611554 0.790085 -0.0420415
22.4635 9.552 -17.1631 0.604144 0.795984 -0.0376813
23.4626 8.81479 -17.2211 0.589748 0.806886 -0.0336463
22.7453 9.39514 -16.1118 0.59423 0.803057 -0.0446009
22.0817 9.95925 -15.0579 0.611023 0.790324 -0.0451499
21.9931 10.0366 -14.9152 0.613571 0.78791 -0.0522424
22.6932 9.52448 -14.5336 0.599581 0.798741 -0.0501545
23.3021 9.01542 -15.4892 0.587821 0.807889 -0.0422181
23.9473 8.50074 -16.4792 0.580117 0.813636 -0.0382125
24.3182 8.21383 -17.037 0.577282 0.815748 -0.0360703
25.3818 7.47271 -17.1436 0.561641 0.826801 -0.0309947
24.6489 8.01676 -16.0669 0.564423 0.824737 -0.0351488
23.9983 8.52821 -15.0798 0.584349 0.810628 -0.0376759
23.6049 8.84437 -14.4762 0.598993 0.799165 -0.0504331
24.4953 8.2082 -14.3603 0.578621 0.814707 -0.0380986
25.1662 7.69383 -15.3635 0.563104 0.825746 -0.0325134
25.9414 7.1191 -16.5007 0.561172 0.827019 -0.0335623
26.244 6.89594 -16.9407 0.558585 0.828741 -0.0342101
27.4093 6.12138 -17.1619 0.533875 0.8453 -0.0210947
26.7145 6.61337 -16.1674 0.558267 0.829125 -0.0298273
26.0004 7.13267 -15.1305 0.561691 0.826771 -0.0308673
25.3417 7.62265 -14.1617 0.566348 0.823315 -0.0374526
