8.50999 1.08362 15.9772 0.323631 0.94616 0.00576945
8.80934 0.985874 14.5239 0.324568 0.945858 0.00161599
8.82817 0.980958 13.2719 0.31285 0.949713 0.00947473
8.90347 0.973669 11.9977 0.328236 0.944588 0.00282822
8.888 0.977251 10.7865 0.321445 0.946894 -0.00679138
8.0606 1.24555 10.1948 0.308987 0.951055 -0.00459086
6.88126 1.57956 10.1528 0.244456 0.969485 0.0184381
5.71257 1.84531 10.0871 0.210243 0.977547 0.0141457
4.57227 2.03684 9.74928 0.151305 0.988464 -0.00674992
3.30446 2.18353 9.1396 0.108055 0.99379 0.00995601
2.06073 2.24774 8.54246 0.041083 0.998956 -0.0195734
1.04554 2.23599 7.96291 -0.0433435 0.998636 -0.0291146
-0.00726892 2.12897 7.26594 -0.113235 0.993245 -0.0172021
-1.01584 1.96172 6.16926 -0.151896 0.988227 -0.0122659
-2.13593 1.76229 5.48639 -0.195334 0.980321 -0.0125281
-2.94255 1.56978 6.31545 -0.233069 0.972373 0.011828
-3.80263 1.35686 7.06381 -0.259156 0.965468 0.0067389
-4.69892 1.09479 8.00456 -0.289119 0.957189 -0.012282
-5.19128 0.957979 9.30558 -0.298182 0.954422 -0.0126367
-5.18597 0.974474 10.6618 -0.302905 0.952995 -0.00707228
-5.25949 0.965252 12.1356 -0.307609 0.951439 -0.0115559
-5.3104 0.95902 13.3314 -0.299099 0.954191 -0.00744394
-5.327 0.967172 14.6252 -0.30793 0.951226 -0.0186639
-5.34422 0.985163 15.8618 -0.298894 0.954116 -0.0180538
-5.24948 1.03002 17.0955 -0.323093 0.946367 0.00120362
-4.09513 1.4068 17.6821 -0.302104 0.953051 -0.0206663
-2.99525 1.71678 17.9913 -0.256541 0.96625 -0.0219169
-1.72324 2.00214 18.0731 -0.195273 0.980405 -0.0180737
-0.342276 2.19261 18.1264 -0.0995697 0.994723 -0.0247244
0.874574 2.28885 18.1533 -0.0390113 0.999205 0.00822297
2.38798 2.27903 18.1051 0.0616509 0.997851 -0.0221798
3.60805 2.19127 18.1306 0.0956706 0.995198 0.0206673
4.76922 2.03752 18.0698 0.194604 0.980535 0.0260825
6.06818 1.76386 18.0997 0.22917 0.973386 -0.00101565
7.29196 1.45697 18.1032 0.263751 0.964583 -0.00389837
8.58037 1.05037 17.5339 0.316051 0.948699 0.00111464
8.53443 1.07134 16.3971 0.326276 0.94525 0.00593613
9.59861 0.700323 16.3483 0.342807 0.939346 0.0106243
9.7625 0.656266 15.1081 0.334265 0.942398 0.00675488
9.85276 0.627681 13.9954 0.332257 0.943189 0.000352473
9.88867 0.62189 12.6317 0.34002 0.940401 0.00568551
9.95427 0.600478 11.3675 0.342761 0.939419 -0.00226572
9.91334 0.611479 9.97107 0.338097 0.941095 -0.00542365
9.19233 0.858321 9.09686 0.335089 0.942032 -0.0170481
7.97943 1.26235 8.97621 0.297392 0.95447 -0.014248
6.80198 1.59652 8.99183 0.225977 0.974032 -0.0140049
5.61755 1.85167 8.91794 0.178931 0.983763 -0.0138972
4.18523 2.08745 8.40829 0.159076 0.987217 -0.00447115
2.89508 2.19798 7.69449 0.0509739 0.998208 -0.0293153
1.79184 2.21351 7.13875 0.0163805 0.999021 -0.0410919
0.766007 2.18469 6.50945 -0.0670401 0.99775 -0.000977206
-0.101158 2.07847 5.54129 -0.130765 0.991274 -0.016634
-0.745189 1.9868 4.39733 -0.140006 0.990074 0.00539331
-1.26725 1.90138 3.19818 -0.150771 0.988514 -0.0103272
-1.87617 1.80241 3.20996 -0.155221 0.987706 0.018519
-2.72774 1.62227 4.44745 -0.229139 0.97337 0.00678685
-3.52446 1.43739 5.38653 -0.242506 0.970124 0.00705875
-4.4262 1.18134 6.07013 -0.281557 0.959472 0.0118329
-5.37585 0.890815 7.09426 -0.287276 0.957838 0.00440192
-6.13889 0.637252 7.97448 -0.335546 0.942006 0.00578232
-6.21913 0.61402 9.16697 -0.334996 0.942157 -0.0104025
-6.19878 0.637871 10.7544 -0.328975 0.944292 -0.00939644
-6.29615 0.614783 12.02 -0.326253 0.945185 -0.0127142
-6.32627 0.621948 13.2669 -0.317451 0.948252 -0.00618821
-6.34823 0.616946 14.4555 -0.335469 0.941945 -0.0141784
-6.37215 0.622186 15.846 -0.341141 0.939983 -0.00738601
-6.40231 0.622443 17.0942 -0.34403 0.938906 -0.00998256
-6.01068 0.776421 18.1444 -0.33353 0.942637 -0.00908704
-5.01351 1.12127 18.6455 -0.310774 0.950457 -0.00708732
-3.62512 1.55945 19.0573 -0.278915 0.960315 -0.00133184
-2.02949 1.96251 19.2245 -0.205821 0.977961 -0.0236033
-0.88935 2.16496 19.2169 -0.112582 0.991791 -0.0523188
0.415769 2.30315 19.3269 -0.0654535 0.996667 -0.0486846
1.88148 2.32253 19.2423 -0.00286706 0.99975 -0.0210613
3.32893 2.24735 19.3302 0.0805794 0.996117 -0.029397
4.9922 2.00563 19.2547 0.190654 0.98144 -0.0204463
6.31413 1.7236 19.3451 0.241684 0.970102 -0.0221559
7.49065 1.39821 19.3147 0.275688 0.961189 -0.00191653
8.70513 1.01322 19.0776 0.318162 0.948028 0.00390702
9.85148 0.610229 17.9503 0.328607 0.944451 -0.00217877
9.63824 0.682626 16.6341 0.339573 0.940543 0.00447444
10.7476 0.277466 16.4981 0.356705 0.934187 0.00751758
10.9268 0.213185 17.9664 0.353847 0.935216 -0.0115784
10.4653 0.381774 19.2701 0.341649 0.939819 0.0041486
9.69779 0.659404 20.1187 0.343746 0.939026 -0.00834458
8.57639 1.06037 20.4499 0.324663 0.945803 -0.00712509
7.48069 1.41774 20.5476 0.278004 0.960472 -0.014426
6.23951 1.75879 20.5283 0.253812 0.967147 -0.0143354
4.91794 2.05868 20.5129 0.184075 0.982304 -0.0345748
3.68857 2.25895 20.511 0.102721 0.993189 -0.0415562
2.2229 2.34203 20.4375 0.0466874 0.998688 -0.0210285
0.943131 2.3707 20.518 -0.0247334 0.99917 -0.0323698
-0.206772 2.28388 20.4119 -0.109858 0.993914 -0.0081874
-1.3697 2.1051 20.3256 -0.152942 0.987889 -0.0261514
-2.63119 1.85102 20.4303 -0.256976 0.965815 -0.0341406
-3.81008 1.52067 20.23 -0.275969 0.960936 -0.0210356
-5.24214 1.0571 19.8712 -0.318569 0.947601 -0.0233478
-6.44562 0.625555 19.3896 -0.345163 0.938527 -0.00537057
-7.29579 0.299929 18.6792 -0.358592 0.933482 -0.00481582
-7.38935 0.254507 17.499 -0.354611 0.934966 -0.00846014
-7.42042 0.235687 16.3103 -0.352207 0.935911 -0.00435079
-7.3477 0.253629 14.8785 -0.356316 0.934337 -0.00726936
-7.37149 0.241841 13.6765 -0.351818 0.936067 0.00178916
-7.32161 0.248665 12.129 -0.346618 0.937954 -0.00994026
-7.26447 0.246349 10.5322 -0.345651 0.938258 -0.0140336
-7.24154 0.237001 9.37825 -0.372114 0.928093 -0.0132062
-7.27344 0.225492 8.09007 -0.357107 0.934027 0.00635186
-6.90955 0.368485 6.91855 -0.338057 0.941082 0.00855121
-5.94044 0.714505 6.04389 -0.315303 0.948945 0.00937615
-5.20612 0.958929 5.18011 -0.298397 0.954432 0.0042838
-4.24219 1.25631 4.59457 -0.278649 0.960393 -0.000941619
-3.348 1.48444 3.39988 -0.231342 0.972836 0.00838472
-2.65206 1.6646 2.36478 -0.220724 0.974763 0.0334412
-2.00504 1.82512 1.16011 -0.206077 0.978468 0.00184197
-1.26263 1.94115 0.0266903 -0.151379 0.988398 -0.0124213
-0.695463 2.03654 -1.22862 -0.14071 0.989786 0.0200317
-0.330881 2.0818 -2.41297 -0.0856211 0.996268 0.0109302
-0.16105 2.13298 -3.57849 -0.0815511 0.996471 0.019896
-0.128118 2.16824 -4.89158 -0.0542317 0.998002 0.0192197
-0.366276 2.15031 -6.14193 -0.0823859 0.996599 0.00142956
-0.905402 2.12139 -7.20928 -0.100772 0.9937 -0.00256213
-1.43115 2.07002 -8.24646 -0.125755 0.991846 0.0149418
-2.13927 1.98058 -9.51733 -0.153784 0.987924 0.0188691
-3.01831 1.8298 -10.2448 -0.200553 0.978915 0.0387738
-4.12911 1.60442 -10.7359 -0.266954 0.963435 0.0229884
-5.20702 1.31735 -11.2159 -0.26681 0.96347 0.0231949
-6.3912 0.969 -11.7164 -0.30049 0.953679 0.0142212
-7.45501 0.625398 -12.1752 -0.332878 0.942621 0.0256399
-8.40122 0.309167 -12.8029 -0.336377 0.941232 0.0305501
-8.68435 0.234875 -14.0105 -0.34137 0.939688 0.0213014
-8.73111 0.250128 -15.2534 -0.34783 0.936989 0.0326614
-8.73267 0.272095 -16.8073 -0.35711 0.933956 0.0135797
-8.73158 0.296336 -18.1001 -0.359775 0.932903 0.0156921
-7.87198 0.640991 -19.0292 -0.341058 0.939847 0.0191476
-6.77412 1.04564 -19.4756 -0.335389 0.941828 0.0217909
-5.58943 1.43213 -19.9031 -0.297133 0.954662 0.0182485
-4.1256 1.82489 -20.0486 -0.251285 0.967641 0.0229628
-2.95603 2.0719 -20.3151 -0.171348 0.984478 0.0203502
-1.7381 2.2446 -20.339 -0.139879 0.990037 0.0161146
-0.561894 2.34804 -20.4818 -0.00789328 0.999966 0.00239793
0.621013 2.34365 -20.5737 0.0155165 0.999834 0.00591587
2.07834 2.2663 -20.4146 0.0711249 0.997467 -0.00041634
3.25359 2.13877 -20.382 0.151832 0.987603 -0.00284407
4.76668 1.82228 -20.2685 0.232175 0.972633 -0.00898428
5.90877 1.52382 -20.0493 0.276481 0.960965 0.0101815
7.07922 1.17806 -19.948 0.303616 0.952482 -0.00937751
8.33096 0.746012 -19.7877 0.336441 0.941625 -0.00804656
9.22091 0.424097 -18.956 0.342685 0.939371 -0.0115535
9.74757 0.243318 -17.9412 0.353752 0.935313 0.00611564
9.80848 0.226074 -16.4291 0.352078 0.935931 -0.00858678
9.81661 0.250918 -14.954 0.352867 0.935377 -0.0235645
9.91495 0.253988 -13.4474 0.349933 0.936472 -0.0238202
9.91646 0.288128 -12.1196 0.346583 0.937561 -0.0293214
9.94537 0.310838 -10.8899 0.342622 0.939249 -0.0199712
10.2546 0.21413 -9.45648 0.368647 0.929504 -0.00772493
10.3287 0.21807 -8.21006 0.358041 0.933134 -0.0324539
10.273 0.285948 -6.88679 0.35386 0.934811 -0.0301841
10.548 0.236752 -5.18248 0.344159 0.938533 -0.0266414
10.6662 0.208614 -3.96982 0.364247 0.931233 -0.0113234
10.6747 0.227107 -2.48704 0.364225 0.93118 -0.0145781
10.4811 0.323983 -1.11842 0.362331 0.931954 -0.0133773
9.01197 0.841971 -1.82348 0.322086 0.946655 -0.00794428
7.60069 1.29884 -2.39723 0.322378 0.946079 -0.0317272
6.30535 1.62306 -2.68501 0.23151 0.972488 -0.0258888
5.116 1.87175 -2.93625 0.169442 0.98526 -0.0235013
3.77708 2.07314 -2.65699 0.117823 0.992991 0.00932946
2.62474 2.18 -2.35864 0.0602198 0.99768 -0.031739
1.50958 2.19764 -1.71552 -0.0310752 0.999416 0.00373764
0.445578 2.14753 -0.734835 -0.0777354 0.996953 -0.00648152
-0.0567856 2.09897 0.327245 -0.0899499 0.995822 0.0157115
-0.469386 2.0449 1.42295 -0.0907283 0.995807 0.0110356
-0.172373 2.06254 2.54011 -0.140541 0.989483 0.0176847
0.211652 2.09081 3.67595 -0.0857834 0.996297 0.00580144
0.779315 2.15699 4.77145 -0.0631269 0.997781 -0.0211851
1.72448 2.20821 5.74535 -0.00535468 0.999783 -0.00960138
2.79423 2.17343 6.37825 0.046765 0.998879 -0.00730776
3.87082 2.12063 6.89739 0.0777188 0.996549 -0.0101474
4.93489 1.97014 7.4313 0.154615 0.987947 -0.000718356
6.01498 1.76066 7.85022 0.202201 0.978961 -0.0181402
7.33706 1.42902 7.82669 0.275443 0.961108 -0.0200384
8.47917 1.07962 7.64578 0.318729 0.947846 0.000717979
9.60889 0.695028 7.90209 0.339203 0.940709 -0.00297015
10.6645 0.312005 8.60557 0.353693 0.934627 -0.0329488
10.951 0.224294 9.73419 0.346947 0.937632 -0.0206775
10.9722 0.236289 10.9473 0.331653 0.943401 -0.000338292
10.8912 0.262353 12.2546 0.352529 0.935223 0.0207545
11.0236 0.214266 13.7933 0.343063 0.939308 -0.00269305
11.0195 0.207764 15.1275 0.331008 0.943488 0.0162554
10.742 0.280477 16.3873 0.355361 0.934689 0.00846113
-5.84747 1.22693 -13.9886 -0.30483 0.951078 0.0477493
-6.65482 0.985278 -14.8759 -0.329816 0.943744 0.0233217
-6.71631 0.989375 -16.1559 -0.320682 0.947098 0.0128116
-6.06986 1.21946 -17.1791 -0.313441 0.949598 0.00421068
-4.93381 1.57573 -17.6041 -0.246285 0.968987 -0.00242518
-3.7769 1.86602 -17.8557 -0.224419 0.974385 0.0145137
-2.4578 2.11147 -18.0675 -0.155594 0.987653 -0.0182401
-1.07322 2.3056 -18.2071 -0.133685 0.989818 0.048875
0.111596 2.33557 -18.3324 0.0015922 0.999984 0.00534721
1.42826 2.31124 -18.2827 0.0579964 0.99787 0.0125787
2.9406 2.17659 -18.1021 0.109982 0.993831 0.0119973
4.15843 1.97823 -18.0025 0.19299 0.980966 0.00544191
5.41472 1.68454 -17.8066 0.246025 0.969112 0.0171555
6.58701 1.35091 -17.5394 0.30494 0.951965 -0.0133467
7.66644 1.00306 -16.5477 0.326848 0.944704 -0.0265495
7.75954 0.993014 -15.2689 0.324382 0.945907 -0.00602018
7.9081 0.964262 -13.809 0.318278 0.947785 -0.0199313
7.79076 1.03578 -12.4474 0.317456 0.948055 -0.0200751
7.79717 1.06376 -10.8083 0.295639 0.95473 -0.0327249
8.00507 1.03704 -9.51786 0.30007 0.953581 -0.0253105
8.29147 0.972045 -8.09404 0.314046 0.949261 -0.0165601
8.25128 1.00347 -6.8877 0.322628 0.946341 -0.018626
8.32831 1.01022 -5.60974 0.321633 0.946317 -0.032203
7.93394 1.14827 -4.74396 0.293124 0.955963 -0.0109024
6.39459 1.58248 -5.01207 0.254228 0.967041 0.0141506
5.16977 1.83745 -5.21369 0.178474 0.983819 -0.00929407
3.92471 2.03144 -5.13443 0.132716 0.991109 -0.00950283
2.54314 2.16079 -4.77214 0.0631904 0.997416 0.0341693
1.99328 2.20111 -5.7274 0.0309632 0.999519 0.00144969
1.64434 2.19836 -7.14408 0.0307994 0.999463 -0.00905576
1.01434 2.18759 -8.39913 0.0100273 0.999637 0.00370175
0.354958 2.19965 -9.73226 -0.0407219 0.998988 0.016563
-0.29602 2.19065 -10.7311 -0.0608884 0.997598 0.033034
-1.23299 2.13993 -11.515 -0.123671 0.991817 0.0290722
-2.31039 2.01689 -12.3854 -0.15526 0.987242 0.0320075
-3.36926 1.83003 -12.878 -0.220226 0.974891 0.0329981
-4.69351 1.54226 -13.4282 -0.240538 0.969921 0.0373553
-5.74574 1.2572 -13.9293 -0.302285 0.952672 0.0322532
-6.16777 1.08313 -12.8459 -0.322768 0.946001 0.0288463
-7.31087 0.714658 -13.5533 -0.332869 0.942589 0.0269015
-7.68898 0.617354 -14.8011 -0.333488 0.942341 0.0279207
-7.79821 0.6127 -16.2889 -0.336969 0.941422 0.013297
-7.54826 0.719969 -17.4596 -0.329974 0.943744 0.0215492
-6.32791 1.1772 -18.3608 -0.31978 0.946748 0.0336674
-5.25205 1.51443 -18.7295 -0.267948 0.963043 0.0181413
-3.91399 1.84978 -18.9538 -0.213387 0.976861 0.00494634
-2.70337 2.09091 -19.2163 -0.145424 0.989226 0.0133116
-1.09977 2.31717 -19.2781 -0.122884 0.992205 0.0061167
0.258297 2.34486 -19.46 0.0127945 0.99984 0.00107316
1.7748 2.29495 -19.3394 0.073951 0.996985 -0.0113305
3.06542 2.1553 -19.2469 0.123917 0.992172 -0.0154475
4.35962 1.92917 -19.1439 0.216347 0.976276 -0.00775778
5.55537 1.63654 -18.9266 0.257231 0.966336 -0.00524968
6.92146 1.23878 -18.7481 0.307886 0.95128 -0.00164891
8.0442 0.851225 -18.4247 0.327117 0.944984 -0.000324537
8.66034 0.6446 -17.2028 0.325772 0.945429 -0.00592811
8.75043 0.628213 -15.9632 0.341173 0.939947 -0.00997452
8.86665 0.607673 -14.7403 0.339889 0.940217 -0.021634
8.90532 0.628493 -13.3209 0.339126 0.940438 -0.0238825
8.85252 0.686454 -11.9265 0.336065 0.941594 -0.0171844
8.8836 0.707848 -10.475 0.338347 0.940536 -0.0292876
9.25657 0.603405 -9.06471 0.350171 0.936438 -0.0214734
9.268 0.636699 -7.7006 0.349259 0.936586 -0.028698
9.31542 0.650072 -6.26303 0.336979 0.941219 -0.0227715
9.44357 0.637876 -5.07346 0.330659 0.943414 -0.0251866
9.65367 0.597001 -3.82278 0.360109 0.932747 -0.0174363
9.02611 0.832715 -3.13338 0.330612 0.943611 -0.00763525
7.50744 1.29743 -3.68809 0.265344 0.963645 -0.0211317
6.2935 1.60635 -3.89139 0.234991 0.971696 0.00360021
5.09327 1.85708 -4.11463 0.187622 0.982197 -0.00935632
3.85291 2.06413 -3.96789 0.114834 0.992919 -0.0177825
2.52777 2.16152 -3.5457 0.0475383 0.998833 -0.0084894
1.2442 2.19837 -2.94283 0.0162517 0.999707 0.0179607
0.979762 2.19804 -3.92998 -0.0359418 0.999281 -0.0120807
0.934709 2.19867 -5.37441 -0.0224241 0.999706 -0.00176637
0.591156 2.1995 -6.73538 -0.0350831 0.999233 -0.00929125
-0.00333894 2.16709 -7.883 -0.0308931 0.999446 -0.0124191
-0.708708 2.14438 -9.33018 -0.0673524 0.99747 0.0117593
-1.48918 2.07852 -10.3575 -0.105047 0.994466 0.00146632
-2.49637 1.95104 -11.163 -0.155347 0.987428 0.0292053
-3.75551 1.71519 -11.8327 -0.212434 0.976934 0.0217366
-4.96027 1.42732 -12.3454 -0.275675 0.960554 0.035889
-6.06591 1.11685 -12.7995 -0.313511 0.948971 0.031054
-4.3099 1.74295 -17.1267 -0.234538 0.972097 0.0043578
-5.14418 1.4924 -16.2343 -0.271295 0.962472 0.0068391
-5.91594 1.25076 -15.4024 -0.283677 0.958832 0.0129692
-5.94099 1.24304 -15.3753 -0.305404 0.952099 0.015365
-5.47954 1.36853 -14.5574 -0.277351 0.960406 0.0264117
-4.7132 1.59047 -15.3786 -0.238859 0.970802 0.0221256
-3.65666 1.87462 -16.4983 -0.196421 0.979649 0.0413155
-2.8481 2.06338 -17.3423 -0.173177 0.984864 -0.00724674
-1.34181 2.26981 -17.5753 -0.112661 0.993608 -0.00713803
-2.26896 2.15038 -16.6272 -0.134509 0.9909 0.00490018
-3.14044 1.9569 -15.721 -0.197489 0.980184 0.0153739
-4.09802 1.72141 -14.7144 -0.222616 0.974514 0.0276329
-4.68779 1.56472 -14.0886 -0.237339 0.971077 0.026068
-3.81862 1.75668 -13.6943 -0.220074 0.974878 0.0343464
-2.94676 1.97188 -14.6109 -0.194573 0.980477 0.0283864
-2.05112 2.15014 -15.539 -0.150072 0.987879 0.0396613
-1.14724 2.26262 -16.4618 -0.054549 0.998505 0.00339063
-0.135859 2.32325 -17.4887 -0.014755 0.999843 0.00979103
1.22705 2.31884 -17.5598 0.0465699 0.998913 -0.00179227
0.411225 2.32611 -16.7318 -0.0186662 0.999793 0.00813991
-0.535801 2.28335 -15.7725 -0.0429087 0.998835 0.0220673
-1.38916 2.21118 -14.9055 -0.0652498 0.99735 0.0321658
-2.27353 2.0732 -13.9984 -0.154106 0.987691 0.0267754
-2.93602 1.93396 -13.3091 -0.168361 0.985391 0.0256601
-2.07598 2.07011 -12.8909 -0.168592 0.985355 0.0255478
-1.2262 2.19664 -13.7621 -0.0938696 0.995243 0.0260852
-0.375454 2.27579 -14.6268 -0.0685619 0.997636 -0.00467392
0.457199 2.31067 -15.4706 -0.0184891 0.99971 0.0154465
1.2594 2.31945 -16.2822 0.0447379 0.998999 0.000600137
2.13263 2.24609 -17.1726 0.090878 0.995806 0.0106096
2.49305 2.2144 -17.5421 0.102972 0.994569 0.0151387
3.7053 2.05489 -17.4832 0.172606 0.984977 0.00521101
2.91522 2.16826 -16.6662 0.0966764 0.995311 -0.00296351
2.12461 2.24995 -15.8557 0.100351 0.994926 0.00721399
1.24091 2.31465 -14.9561 0.0248562 0.999595 0.0138656
0.402555 2.29355 -14.1069 -0.0145584 0.999888 -0.00333152
-0.482794 2.2526 -13.2113 -0.0389935 0.998906 0.025806
-1.25199 2.16411 -12.4275 -0.104535 0.994163 0.0266723
-0.303828 2.23241 -12.0849 -0.0555254 0.997946 0.0319625
0.544504 2.28795 -12.9456 -0.0440566 0.998651 0.0274808
1.42767 2.29375 -13.8374 0.0502318 0.998658 0.0126355
2.51367 2.21118 -14.943 0.113983 0.993482 0.00114205
3.36084 2.09811 -15.8158 0.137083 0.990558 0.00179591
4.45321 1.91087 -16.9532 0.194546 0.980823 0.0117488
4.7732 1.84361 -17.2893 0.209948 0.977701 -0.0048247
5.84456 1.56656 -17.1194 0.268784 0.963176 -0.00694537
5.02061 1.79644 -16.236 0.206847 0.978346 -0.00734435
4.02345 1.99001 -15.1916 0.185824 0.982566 -0.00573274
2.85737 2.18067 -13.9844 0.112834 0.992706 -0.0424651
1.98904 2.2608 -13.101 0.0389437 0.99917 0.0119548
1.19252 2.28024 -12.2953 0.0476514 0.998687 0.0187925
0.372075 2.24527 -11.4634 -0.03964 0.998977 0.0217689
0.0718818 2.22673 -11.1589 -0.0511501 0.998356 0.0258538
0.676544 2.23678 -10.4653 -0.050425 0.998261 0.0305411
1.64983 2.25716 -11.4509 0.0276478 0.99951 0.0146911
2.54986 2.21097 -12.3628 0.0891949 0.995794 0.0209194
3.8171 2.04212 -13.6652 0.179498 0.983758 0.00014324
4.89472 1.8335 -14.7884 0.181074 0.983415 -0.0103246
5.74718 1.62143 -15.6953 0.245746 0.969262 -0.0118435
6.52553 1.37469 -16.5405 0.287195 0.957402 -0.0300148
6.55428 1.36552 -16.5718 0.283163 0.959059 -0.00490476
7.028 1.23523 -15.77 0.316172 0.948576 -0.0154613
6.01978 1.55385 -14.6733 0.28254 0.95925 0.0032745
5.21626 1.75623 -13.8179 0.21495 0.976573 -0.0101173
4.40021 1.94001 -12.9604 0.190523 0.981671 -0.00486826
3.53444 2.09929 -12.0606 0.16774 0.985823 -0.0040535
2.60432 2.20105 -11.1118 0.101728 0.994801 -0.00470786
1.56929 2.23575 -10.0641 0.00842558 0.999063 0.0424561
1.16591 2.21228 -9.65618 -0.0151803 0.999756 0.0160602
1.82285 2.20167 -9.01404 0.00357629 0.999613 0.0275853
2.69391 2.17075 -9.89822 0.0601213 0.998191 0.000813517
3.59559 2.08053 -10.8174 0.127799 0.991691 0.0147321
4.40214 1.94238 -11.6516 0.18281 0.983134 -0.00536889
5.19866 1.77597 -12.4855 0.233739 0.972287 -0.00492804
6.01568 1.55825 -13.3565 0.267204 0.963527 -0.0147473
6.90151 1.28533 -14.3169 0.300874 0.953663 0.00112816
7.21053 1.18823 -14.6533 0.31303 0.949727 -0.00549967
7.25906 1.18488 -13.3908 0.290624 0.956558 -0.0231179
6.49357 1.42444 -12.5584 0.277488 0.960714 0.0053915
5.4673 1.71316 -11.4589 0.255635 0.966511 -0.0225321
4.69569 1.8848 -10.6489 0.205799 0.978581 -0.0050655
3.85521 2.0397 -9.7768 0.131184 0.991148 -0.0204153
2.98837 2.14865 -8.88875 0.0575546 0.998253 0.0133932
2.19265 2.1746 -8.08087 0.0100304 0.999943 0.00370287
2.46405 2.17561 -7.05164 0.029485 0.999445 -0.0154903
3.44308 2.11224 -8.04221 0.0912316 0.994399 -0.0533559
4.25971 1.98335 -8.88369 0.182886 0.983055 -0.0124723
5.33235 1.76358 -10.0024 0.218684 0.975724 -0.011811
6.22264 1.51908 -10.9521 0.263627 0.96427 -0.0261382
6.9801 1.29393 -11.7686 0.270689 0.962497 -0.0180743
7.10415 1.25652 -11.9032 0.270689 0.962497 -0.0180742
7.02119 1.31258 -10.493 0.292222 0.955709 -0.0350151
6.0425 1.60453 -9.43914 0.246983 0.968809 -0.0202363
5.10948 1.81977 -8.45741 0.19559 0.980635 -0.00997041
4.32998 1.97951 -7.64866 0.185397 0.982654 -0.00430238
3.46868 2.09788 -6.76666 0.112179 0.993463 0.0211267
2.64389 2.17187 -5.92951 0.0820976 0.996089 -0.0326459
3.82731 2.03846 -5.82781 0.134698 0.990851 -0.00844201
4.63931 1.92799 -6.65961 0.163075 0.986355 0.0226042
5.49298 1.77475 -7.54165 0.173275 0.984443 -0.0291129
6.30992 1.5512 -8.40837 0.264715 0.963526 -0.0392851
7.19398 1.2852 -9.36159 0.274674 0.961522 -0.00546527
7.41176 1.22165 -9.59664 0.287411 0.957684 -0.0153901
7.63949 1.17236 -8.52429 0.285646 0.958124 -0.0201225
6.86294 1.42934 -7.6815 0.292049 0.956104 -0.023904
6.05661 1.66664 -6.81731 0.219917 0.975513 -0.00317973
5.08919 1.84106 -5.81481 0.162882 0.986645 -0.000493307
6.18069 1.62308 -5.63986 0.214157 0.976676 0.0155013
7.18937 1.34427 -6.71517 0.276238 0.960909 -0.0186277
7.64808 1.19328 -7.21386 0.304101 0.952593 -0.00941044
7.68648 1.21741 -5.93179 0.31063 0.950307 -0.0206452
7.42346 1.29762 -5.64794 0.278532 0.960363 -0.0110966
-4.54491 1.15774 9.28882 -0.28661 0.957895 -0.0171122
-3.77883 1.37195 8.46304 -0.270636 0.962512 -0.01808
-2.99867 1.55271 7.63808 -0.235309 0.971916 -0.00280318
-1.99631 1.79544 6.58208 -0.203764 0.97902 -0.000272419
-1.80295 1.82891 6.38252 -0.172876 0.984941 -0.0023411
-1.22063 1.93279 7.09175 -0.172865 0.984943 -0.00232087
-2.19563 1.74505 8.10472 -0.224355 0.974403 -0.0142833
-3.28384 1.51767 9.24972 -0.254687 0.96684 -0.0188387
-4.30943 1.24675 10.3524 -0.286327 0.957996 -0.0161539
-4.60326 1.15887 10.674 -0.291998 0.956405 -0.00521551
-4.45987 1.20838 11.8406 -0.284518 0.958613 -0.0104819
-3.59392 1.45572 10.8965 -0.265507 0.964087 -0.00658629
-2.67096 1.68106 9.91216 -0.228902 0.973372 -0.0122571
-1.90266 1.83192 9.1075 -0.194923 0.98063 -0.0192412
-1.13263 1.95895 8.30888 -0.18194 0.983161 -0.017085
-0.571899 2.04007 7.73235 -0.158979 0.98728 -0.00190915
0.263623 2.17529 8.18107 -0.122438 0.991789 -0.036914
-0.629432 2.06084 9.0973 -0.150405 0.988579 -0.00949033
-1.5964 1.89679 10.1009 -0.175603 0.984458 -0.00261911
-2.42819 1.74217 10.9696 -0.212023 0.977258 -0.0037314
-3.2856 1.53357 11.8855 -0.232651 0.972464 -0.0136556
-4.34198 1.25993 13.0281 -0.277436 0.960698 -0.00945595
-4.69073 1.15434 13.4114 -0.299543 0.954039 -0.00911118
-4.49745 1.22097 14.5172 -0.287629 0.95771 -0.00777213
-3.72268 1.44343 13.6728 -0.270487 0.962615 -0.0144358
-2.82277 1.66374 12.7056 -0.236369 0.971038 -0.0348718
-1.80392 1.86736 11.6297 -0.192271 0.981336 -0.00349349
-1.02917 1.98293 10.8259 -0.15075 0.988545 0.00729453
-0.184439 2.12242 9.95059 -0.132015 0.991149 0.013981
0.690877 2.22832 9.05263 -0.0505897 0.998716 0.00249377
1.05975 2.24707 8.67957 -0.0621476 0.99806 -0.00382382
1.91757 2.26258 9.1178 0.0155107 0.999603 -0.0235259
1.09339 2.25239 9.9516 -0.0509934 0.998692 -0.00374515
0.316243 2.17909 10.7481 -0.119203 0.992868 -0.00169737
-0.514191 2.06952 11.604 -0.153455 0.987875 -0.0235585
-1.51014 1.95179 12.6328 -0.182213 0.982765 -0.0311567
-2.28605 1.82095 13.4452 -0.240168 0.970331 -0.0278928
-3.05246 1.64336 14.2625 -0.272973 0.961948 -0.0118652
-3.84496 1.4207 15.1218 -0.286731 0.958011 0.00080598
-4.59588 1.221 15.9361 -0.294415 0.955399 -0.0230831
-4.76273 1.17219 16.1191 -0.297824 0.954497 -0.0153554
-4.06131 1.39818 16.6649 -0.287233 0.957629 -0.0210804
-3.21555 1.60911 15.7535 -0.247714 0.968632 -0.0197315
-2.33745 1.82696 14.8133 -0.240662 0.970586 -0.00669579
-1.42673 2.01206 13.8535 -0.20466 0.978507 -0.0252791
-0.500274 2.10687 12.9 -0.136493 0.990255 -0.027637
0.425595 2.20321 11.9473 -0.131434 0.990978 -0.0262248
1.26852 2.24235 11.087 -0.0242931 0.999704 -0.00140239
2.39428 2.25847 9.9421 0.0146208 0.999678 0.0207403
2.76001 2.23069 9.57114 0.06267 0.997714 -0.0252997
3.5845 2.17863 10.0421 0.100691 0.994396 -0.0322205
2.45125 2.25231 11.1969 0.0456783 0.998909 0.00968888
1.60607 2.27208 12.056 -0.0314872 0.999226 -0.0235761
0.457258 2.22344 13.2285 -0.0649832 0.997827 -0.0108935
-0.408198 2.15326 14.1153 -0.0966557 0.994697 -0.0351376
-1.37112 2.01579 15.1137 -0.178366 0.98391 -0.0103806
-2.41823 1.8195 16.2129 -0.243354 0.969694 -0.0217183
-3.17326 1.64336 17.0202 -0.251297 0.967649 -0.0224956
-3.30173 1.61397 17.1575 -0.250521 0.967728 -0.0272467
-2.30531 1.8623 17.4038 -0.211118 0.977252 -0.0201693
-1.36159 2.04043 16.4137 -0.171704 0.984988 -0.0178098
-0.404543 2.19202 15.4188 -0.175532 0.984427 -0.00958877
0.492796 2.2531 14.5017 -0.0913572 0.99528 -0.0327456
1.3968 2.28772 13.5827 -0.0249911 0.999618 -0.0117664
2.32898 2.26213 12.6336 0.0119595 0.999924 -0.00308128
3.23743 2.21539 11.7089 0.0426658 0.999089 0.00105952
4.07504 2.12261 10.8497 0.136431 0.990649 -0.00105045
4.54827 2.04488 10.3561 0.151528 0.988398 -0.0103702
5.5138 1.88535 10.6636 0.195324 0.980716 0.00670766
4.58624 2.05188 11.6345 0.162065 0.986646 -0.0162698
3.69959 2.17966 12.5474 0.140247 0.990079 -0.00860842
2.83573 2.27085 13.4281 0.0546323 0.998499 0.00376577
2.05233 2.30768 14.2245 0.0140609 0.9998 -0.0142513
1.26767 2.3014 15.0229 -0.0474727 0.998833 -0.00883801
0.389444 2.25091 15.9175 -0.0627868 0.998012 0.00538087
-0.488736 2.16591 16.8209 -0.0858462 0.996247 0.0110416
-1.11905 2.09039 17.4723 -0.118445 0.99296 -0.00130974
0.10392 2.22453 17.5274 -0.102352 0.994485 -0.0228603
1.11544 2.30117 16.4904 -0.0618632 0.998013 -0.0119528
1.95845 2.32501 15.6326 -0.000512641 0.999987 -0.00498002
2.99861 2.26593 14.5748 0.0579789 0.99829 -0.00747989
3.86228 2.16728 13.6891 0.142183 0.989809 -0.00787339
4.70841 2.03919 12.8192 0.146219 0.989242 -0.0044766
5.52292 1.89211 11.9703 0.202787 0.979125 -0.0138587
6.38789 1.69389 11.0542 0.222551 0.974911 0.0044781
6.66708 1.63152 10.7591 0.222551 0.974911 0.00447816
7.69695 1.3575 10.9672 0.280679 0.959764 0.00851963
6.77777 1.59887 11.9539 0.225232 0.974299 0.0035344
5.96878 1.79313 12.814 0.225016 0.974293 -0.0109651
5.05545 1.99358 13.775 0.159493 0.986736 -0.0302353
4.23485 2.12119 14.6226 0.133362 0.991029 -0.00875088
3.29406 2.23365 15.5862 0.104556 0.994518 0.00112039
2.42208 2.29014 16.4715 0.0347138 0.999066 0.0257426
1.81865 2.30861 17.0879 0.0155832 0.99975 0.0160335
2.76915 2.26672 17.4328 0.0397447 0.999168 0.00915835
3.70134 2.19096 16.4814 0.090551 0.995844 -0.00973125
4.51602 2.09519 15.6479 0.0989645 0.994988 0.0143389
5.41331 1.94652 14.7184 0.20566 0.978471 -0.0172638
6.25964 1.73837 13.8228 0.263496 0.964608 -0.0100487
7.27931 1.46432 12.7318 0.257139 0.966309 0.0112562
8.04557 1.24607 11.9013 0.290908 0.956748 0.00229105
8.37762 1.15014 11.5413 0.288441 0.957436 0.0109051
8.31174 1.15615 12.9262 0.304349 0.952435 0.0154906
7.34409 1.44403 13.9751 0.263792 0.96457 -0.00424606
6.40067 1.70528 14.9854 0.260289 0.96553 -0.00111634
5.62178 1.90366 15.8114 0.224948 0.974014 0.0263577
4.6731 2.07638 16.7986 0.181058 0.983391 0.0126635
4.25515 2.14774 17.2312 0.138009 0.990264 0.0181732
5.42384 1.91157 17.3258 0.2209 0.975296 -0.00100671
6.19939 1.74075 16.5101 0.246084 0.968987 0.0225079
7.13919 1.50893 15.512 0.26859 0.963243 0.00467244
7.94965 1.26466 14.6336 0.30871 0.951149 0.00379296
8.31791 1.14673 14.2318 0.308726 0.951144 0.003763
7.98852 1.25724 15.909 0.292583 0.956235 0.00328624
7.23503 1.47748 16.7246 0.263348 0.964681 0.00617987
6.79071 1.59573 17.2001 0.245016 0.969505 0.00530288
