-6.02316 1.07777 8.59478 0.340464 -0.940059 0.00930674
-6.17744 1.03022 9.86413 0.352625 -0.935737 0.00720957
-6.09651 1.06962 11.0381 0.349388 -0.936962 0.00543315
-6.11165 1.08154 12.4976 0.35388 -0.935191 0.0135671
-6.07769 1.09842 13.7741 0.342226 -0.939597 0.0063266
-6.0379 1.12198 15.0005 0.349598 -0.936852 0.00885289
-6.09617 1.12109 16.3485 0.358693 -0.933383 0.011641
-5.63481 1.30166 17.421 0.343806 -0.93904 0.000997018
-4.33135 1.76617 17.7268 0.322258 -0.946379 0.0227261
-3.20486 2.11055 17.9864 0.274335 -0.961306 0.0237582
-1.72771 2.4448 18.1433 0.172234 -0.984609 0.0242373
0.267875 2.69913 18.1727 0.0712421 -0.996261 0.0225106
1.48748 2.72296 18.1577 0.000529505 -0.999737 0.0229256
3.04146 2.658 18.0582 -0.0690782 -0.997352 -0.00948236
4.63731 2.48928 18.1786 -0.145759 -0.9883 -0.0212065
5.854 2.25193 18.2836 -0.219016 -0.974843 0.0272259
7.04559 1.95382 18.2859 -0.273496 -0.961861 0.00484357
8.30023 1.56619 18.1516 -0.330795 -0.9437 0.00234951
9.35659 1.18838 17.2286 -0.338932 -0.940804 -0.0035517
9.54227 1.12828 15.9336 -0.357004 -0.93401 -0.0131706
9.75504 1.05613 14.4364 -0.34092 -0.940083 -0.000566433
9.6919 1.0813 13.2463 -0.349108 -0.936998 -0.0125888
9.65219 1.11094 11.7291 -0.361324 -0.932422 -0.00531503
9.76539 1.06943 10.5372 -0.355754 -0.93457 -0.00284276
9.2177 1.27626 9.7174 -0.349975 -0.936712 0.00660564
8.03091 1.67747 9.90674 -0.314492 -0.949259 -0.00127002
6.72378 2.0593 10.02 -0.234442 -0.971886 0.00337957
5.57082 2.30002 9.92559 -0.187691 -0.982185 0.00923612
3.95166 2.54098 9.52279 -0.131893 -0.991262 0.00210458
2.69264 2.61136 8.90086 -0.038516 -0.999126 0.0157826
1.34018 2.64452 8.10375 0.0225567 -0.998642 0.0178436
0.326561 2.57766 7.41689 0.117071 -0.99308 0.00698369
-0.804536 2.42569 6.24993 0.138776 -0.990133 0.0131945
-1.86749 2.25205 5.14228 0.148156 -0.988963 0.00160418
-2.73912 2.07984 6.00653 0.210338 -0.97752 0.0119154
-3.69038 1.82686 6.77786 0.273769 -0.961795 -0.000314725
-4.64466 1.53211 7.50907 0.311514 -0.950213 0.00368114
-5.61384 1.21121 8.09501 0.319549 -0.947518 0.0052888
-5.93292 1.10676 8.42334 0.32383 -0.946039 0.0119183
-7.14733 0.646838 8.40308 0.356385 -0.934328 -0.00455866
-6.7356 0.80944 7.34211 0.348925 -0.937104 0.00054097
-5.69806 1.18792 6.77376 0.324544 -0.945727 -0.00736676
-4.64453 1.53779 6.07188 0.307445 -0.951507 -0.01058
-3.66639 1.84432 5.33354 0.262341 -0.964839 -0.0162328
-2.77185 2.07246 4.32415 0.21208 -0.977249 -0.00237808
-1.94511 2.24112 3.24323 0.181937 -0.983012 -0.024234
-1.17764 2.37641 2.86315 0.144104 -0.989507 -0.0104919
-0.731681 2.41562 4.13904 0.110869 -0.993816 0.00610346
-0.0745278 2.48958 5.34264 0.0957994 -0.994754 0.0358761
0.97594 2.58209 6.50879 0.0164289 -0.999707 0.0177669
2.00226 2.6028 7.1231 -0.0238743 -0.999256 0.0303022
3.18602 2.57539 7.82521 -0.0602233 -0.997802 0.0211735
4.4183 2.47423 8.49837 -0.114663 -0.993166 0.00769891
5.93075 2.22985 8.83179 -0.195358 -0.980641 -0.0133607
7.2077 1.91835 8.84505 -0.272569 -0.961874 0.0135947
8.58447 1.48205 8.58479 -0.323887 -0.946028 0.0113511
9.98724 0.97227 8.45392 -0.357194 -0.933925 0.0104599
10.8555 0.635766 9.22616 -0.372736 -0.927854 0.0124088
10.8282 0.66291 10.6174 -0.367611 -0.929978 0.0017885
10.6442 0.724082 12.0709 -0.358958 -0.933332 -0.00489263
10.7919 0.668155 13.5363 -0.362545 -0.931884 0.00206439
10.7474 0.674087 14.9152 -0.363379 -0.931617 -0.00670143
10.557 0.735048 16.1748 -0.378094 -0.925659 -0.0141521
10.401 0.786341 17.6545 -0.370721 -0.928736 -0.00290602
9.84402 1.00197 18.7679 -0.35957 -0.933064 -0.00689973
8.85392 1.36984 19.3149 -0.323017 -0.946365 -0.00734421
7.23054 1.89834 19.4263 -0.286859 -0.957964 -0.00408008
6.09109 2.21875 19.5062 -0.259962 -0.964218 0.0519906
4.87473 2.44809 19.3948 -0.149889 -0.988057 0.024318
3.44952 2.64442 19.2089 -0.0882837 -0.995497 0.0295906
2.10264 2.74299 19.2942 -0.0365749 -0.998562 0.0220345
0.785116 2.75388 19.3202 0.0163974 -0.998531 0.0412957
-0.54838 2.66356 19.319 0.124891 -0.991579 0.0342464
-1.94931 2.4194 19.3136 0.186062 -0.982309 0.021219
-3.3813 2.08456 19.1274 0.264621 -0.964031 0.0175226
-4.75901 1.63459 18.8786 0.331605 -0.943353 0.0110994
-5.85977 1.23481 18.6187 0.343972 -0.938889 0.0130137
-7.10997 0.74693 18.0042 0.370217 -0.928851 0.0109039
-7.14842 0.712408 16.6865 0.375725 -0.926668 0.00991383
-7.12593 0.710437 15.176 0.361973 -0.932153 0.00810798
-7.16125 0.689431 13.8169 0.360235 -0.93285 -0.00308256
-7.15157 0.684821 12.5521 0.361179 -0.932453 0.00860799
-7.07795 0.701233 11.25 0.366747 -0.930197 0.0150896
-7.18128 0.645382 9.93866 0.370771 -0.92869 0.00775409
-7.18909 0.631956 8.75426 0.365396 -0.93084 0.00475874
-8.16016 0.251966 8.72685 0.36878 -0.929509 -0.00371632
-8.1939 0.233462 9.96371 0.387579 -0.921735 0.0129751
-8.09099 0.300099 11.1943 0.373046 -0.927394 0.0276818
-8.18359 0.286904 12.5074 0.359388 -0.933164 0.00664716
-8.23222 0.267385 13.8397 0.371275 -0.928507 -0.00550733
-8.2843 0.248912 15.223 0.374343 -0.927276 0.00467853
-8.18625 0.292091 16.6955 0.391196 -0.920285 0.00643955
-8.34188 0.237801 17.8521 0.391622 -0.919994 0.0155793
-7.96688 0.410992 19.1016 0.375698 -0.926666 0.0118951
-7.0255 0.800925 19.7044 0.369736 -0.929029 0.0119136
-5.89655 1.23612 19.9671 0.351297 -0.936226 0.00847613
-4.68484 1.686 20.1479 0.336115 -0.941385 0.028658
-3.57571 2.04436 20.3042 0.275672 -0.960618 0.0348931
-2.40493 2.3626 20.4759 0.223704 -0.974469 0.0191524
-1.26021 2.57661 20.3988 0.16812 -0.985431 0.0257228
-0.0787211 2.7385 20.4522 0.0999858 -0.994716 0.0146109
1.13415 2.81292 20.4992 0.0184401 -0.998317 0.0455788
2.91007 2.72814 20.4875 -0.054425 -0.997241 0.0464722
4.42407 2.56241 20.6235 -0.166551 -0.98455 0.05405
5.73998 2.33563 20.6661 -0.252003 -0.966414 -0.0503786
7.00348 1.97417 20.6683 -0.288323 -0.957492 0.00887327
8.14763 1.61045 20.6064 -0.325796 -0.945439 0.00119834
9.52168 1.1206 20.3468 -0.352388 -0.935845 0.00400252
10.6279 0.689402 19.6416 -0.37003 -0.92902 -0.000416708
11.229 0.449493 18.6606 -0.375536 -0.926792 -0.0054081
11.6435 0.269924 17.0865 -0.407297 -0.913294 -0.00178905
11.6797 0.289367 15.7527 -0.398876 -0.916096 -0.0316234
11.8228 0.250452 14.4565 -0.368337 -0.929681 -0.00453251
11.8 0.25518 13.2317 -0.375365 -0.926664 0.0162873
11.7553 0.280249 12.023 -0.377471 -0.925788 -0.0208121
11.9322 0.225674 10.8559 -0.36425 -0.931277 -0.00666063
11.8777 0.240071 9.65757 -0.366668 -0.929869 0.0241886
11.8273 0.226761 8.42504 -0.389896 -0.920447 0.0247044
11.1108 0.507293 7.26115 -0.388564 -0.921268 0.016818
10.012 0.950716 7.17423 -0.364404 -0.9312 0.00879703
8.75774 1.41392 7.31704 -0.328164 -0.944615 -0.0033653
7.53219 1.80658 7.60708 -0.27625 -0.961078 -0.00373768
6.30737 2.13135 7.69977 -0.22863 -0.973017 0.0310911
4.96447 2.39096 7.4906 -0.144591 -0.989335 0.017596
3.80497 2.50658 6.82301 -0.0678319 -0.997666 -0.00787314
2.57525 2.5852 6.04291 -0.0336455 -0.999194 -0.00810917
1.38309 2.57589 5.29187 0.0330444 -0.999429 0.00701179
0.561849 2.53717 4.3091 0.0563997 -0.998362 0.00960742
0.0665407 2.51575 2.91366 0.0708744 -0.997433 -0.0102369
-0.172768 2.50165 1.68359 0.119955 -0.992652 0.0159222
0.180084 2.53593 0.522521 0.101867 -0.994774 0.00274895
0.659037 2.57689 -0.564071 0.0190824 -0.999812 0.00346655
1.59962 2.59062 -1.59961 0.018709 -0.999817 0.00408086
2.64853 2.58458 -2.19181 -0.062416 -0.99805 0.000439319
3.75901 2.48814 -2.57475 -0.116127 -0.993183 0.0100575
5.00129 2.33654 -2.73897 -0.148419 -0.98827 0.0200977
6.16704 2.11981 -2.59649 -0.260495 -0.965101 0.0268709
7.45322 1.77606 -2.28171 -0.273942 -0.961457 0.023588
8.57072 1.40916 -1.87281 -0.332133 -0.942767 0.0235072
9.54777 1.06698 -1.31311 -0.341255 -0.939827 0.0164744
10.6162 0.661542 -0.667325 -0.3763 -0.926414 0.0123611
11.4736 0.312079 -0.737804 -0.380924 -0.924483 0.0144802
11.5105 0.262988 -2.04455 -0.41541 -0.909078 0.031802
11.3049 0.32463 -3.43656 -0.3894 -0.920953 0.0145866
11.4616 0.249797 -4.75021 -0.374806 -0.927039 0.0108838
11.3765 0.246544 -6.18929 -0.365679 -0.930217 0.0305697
11.0231 0.347708 -7.35537 -0.372186 -0.927596 0.0322717
11.0902 0.278319 -8.52775 -0.373467 -0.926925 0.036283
10.9282 0.316993 -9.71559 -0.375186 -0.926949 0.0011561
10.8382 0.323467 -11.0154 -0.373427 -0.927406 0.0216969
10.6631 0.357989 -12.5802 -0.380858 -0.924309 0.0244811
10.8028 0.263488 -13.8805 -0.400389 -0.915814 0.0309699
10.7088 0.256863 -15.3107 -0.406462 -0.913405 0.017332
10.708 0.243052 -16.5139 -0.386006 -0.922438 0.00750143
10.5953 0.273233 -17.7668 -0.382969 -0.923682 0.0118589
10.0489 0.477228 -18.8037 -0.376376 -0.926254 0.0198654
9.07442 0.856928 -19.7551 -0.37163 -0.928334 0.00934359
7.77223 1.34445 -20.0984 -0.342536 -0.939426 0.0121539
6.6801 1.72106 -20.2073 -0.310342 -0.950614 -0.00453381
5.51484 2.07834 -20.1733 -0.25047 -0.967874 0.0119122
4.40274 2.35817 -20.3048 -0.20151 -0.979476 -0.00458471
2.80247 2.61774 -20.466 -0.140175 -0.989805 -0.00380639
1.37475 2.75769 -20.5116 -0.0386283 -0.998978 -0.0232499
0.193649 2.77981 -20.4715 -0.00175119 -0.999062 -0.0383733
-1.21872 2.7407 -20.3311 0.050191 -0.997653 -0.0465685
-2.38434 2.6287 -20.497 0.12969 -0.991005 -0.0330221
-3.61523 2.40583 -20.2093 0.204862 -0.978028 -0.0288386
-4.7987 2.11161 -20.1195 0.277459 -0.960265 -0.0301441
-6.16214 1.68941 -19.8984 0.319188 -0.947419 -0.022731
-7.3337 1.25744 -19.4064 0.356663 -0.933989 -0.0213714
-8.40344 0.833422 -18.9373 0.379641 -0.924937 -0.0190841
-9.41307 0.403607 -18.182 0.378395 -0.92546 -0.0184738
-9.66947 0.275864 -16.9774 0.381608 -0.924191 -0.0156757
-9.70524 0.229528 -15.4639 0.387226 -0.92178 -0.019293
-9.57775 0.242726 -14.0829 0.377331 -0.925648 -0.0282309
-9.36675 0.288436 -12.7559 0.376198 -0.926175 -0.0259964
-8.2846 0.684874 -11.9168 0.356117 -0.934199 -0.0208664
-6.63989 1.2801 -11.664 0.320486 -0.947136 -0.0149186
-5.5531 1.62291 -11.119 0.301375 -0.9529 -0.0339778
-4.38932 1.95815 -10.7172 0.283139 -0.958727 -0.025975
-3.2477 2.20919 -10.2302 0.211253 -0.976514 -0.0423346
-2.1995 2.39792 -9.60255 0.156899 -0.987431 -0.0190438
-1.66075 2.46781 -8.46326 0.136193 -0.990621 -0.0110013
-1.09227 2.49671 -7.32801 0.0551294 -0.998368 -0.0146019
-0.469768 2.51624 -6.08018 0.0567475 -0.998332 -0.0102712
-0.298607 2.51743 -4.86811 0.05252 -0.998573 0.00351964
-0.291588 2.50706 -3.31298 0.103612 -0.994527 -0.00432674
-0.501687 2.47237 -2.15109 0.113562 -0.993509 -0.00661852
-0.906905 2.41223 -0.982745 0.14632 -0.988992 -0.0220282
-1.32202 2.34686 0.144502 0.143171 -0.989673 0.00703381
-2.28894 2.17709 1.50116 0.187451 -0.982239 0.00832542
-3.00651 2.02826 2.71253 0.234481 -0.972106 0.00535012
-3.80015 1.81575 3.79152 0.279679 -0.96009 -0.0027191
-4.6355 1.56001 4.69337 0.313638 -0.949444 -0.0135871
-5.7551 1.17778 5.48653 0.324149 -0.945995 -0.00449336
-6.82107 0.791685 5.89967 0.348467 -0.937206 -0.00950601
-7.83567 0.393928 6.67043 0.365886 -0.930567 -0.0104469
-8.10705 0.278498 7.80476 0.365986 -0.930584 -0.00811566
-8.14288 0.260916 8.20337 0.36878 -0.929509 -0.00371632
-4.06861 2.2584 -17.7768 0.230077 -0.972792 -0.0140078
-2.84166 2.5065 -17.9598 0.132827 -0.990721 -0.0195789
-1.27567 2.70061 -18.0348 0.111513 -0.993407 -0.0243514
0.154911 2.75203 -18.1376 0.0104564 -0.999618 -0.0178658
1.50278 2.72304 -18.0403 -0.0838037 -0.996429 -0.00516688
2.84279 2.59621 -18.0429 -0.126287 -0.991802 -0.00766697
4.06998 2.41912 -17.9486 -0.157287 -0.987517 0.00446158
5.25116 2.166 -17.8819 -0.238189 -0.971209 0.00448685
6.55158 1.79048 -17.7319 -0.287174 -0.957876 0.00013528
7.79543 1.35988 -17.5684 -0.332335 -0.943091 0.0115468
8.66916 1.06584 -16.3283 -0.346043 -0.938138 0.0122924
8.73928 1.06181 -15.0516 -0.344496 -0.938546 0.0213219
8.68758 1.11096 -13.8057 -0.348238 -0.937149 0.0219525
8.58686 1.18234 -12.4628 -0.337572 -0.940969 0.0213713
8.60119 1.18533 -11.2276 -0.343572 -0.938803 0.0182747
8.63131 1.2157 -9.9406 -0.351594 -0.935982 0.0155923
8.89794 1.152 -8.50179 -0.353356 -0.934964 0.0277539
8.93498 1.15901 -7.22851 -0.335285 -0.941905 0.0199835
9.26194 1.07882 -5.71664 -0.340773 -0.939754 0.027122
9.25395 1.11939 -4.50756 -0.334965 -0.941455 0.0382122
8.03894 1.53348 -4.54009 -0.299466 -0.953865 0.0214859
6.91246 1.86676 -4.84192 -0.276137 -0.960992 0.0155578
5.62315 2.16414 -5.07271 -0.191101 -0.981525 0.00749244
4.28977 2.38458 -5.04495 -0.160644 -0.986963 -0.00989205
3.11748 2.5267 -4.83987 -0.0665137 -0.997783 -0.00211355
2.07825 2.57157 -4.99183 -0.0227129 -0.999727 0.00552769
1.84552 2.57908 -6.21116 -0.0247735 -0.999654 -0.0087917
1.45078 2.58336 -7.47017 -0.0192395 -0.999697 0.015341
0.80809 2.59662 -9.02545 0.0196013 -0.999498 -0.0248948
0.133817 2.61006 -10.3088 0.0580756 -0.997804 -0.0318606
-0.904521 2.57777 -11.4735 0.0718361 -0.997157 -0.0227505
-1.91041 2.48167 -12.144 0.131751 -0.99116 -0.0156284
-3.10787 2.3085 -12.6483 0.208333 -0.976817 -0.0492517
-4.38616 2.03498 -13.1232 0.241503 -0.969398 -0.0432811
-5.50088 1.74831 -13.6439 0.309967 -0.94955 -0.0463435
-6.90787 1.2791 -14.2239 0.349296 -0.936407 -0.0336686
-7.62692 1.04353 -15.086 0.348261 -0.936709 -0.0359235
-7.5736 1.09734 -16.3596 0.348802 -0.93706 -0.015662
-6.68873 1.43457 -17.1404 0.331742 -0.943265 -0.0129249
-5.42291 1.8782 -17.4767 0.315746 -0.948262 -0.0315557
-4.26095 2.20809 -17.7457 0.248816 -0.968172 -0.027096
-4.5525 2.15531 -18.9 0.269885 -0.962717 -0.0183791
-3.14606 2.46157 -19.0708 0.18079 -0.983522 0.000330023
-1.78799 2.66852 -19.2368 0.109758 -0.993334 -0.0310334
-0.502678 2.75536 -19.2833 0.0316244 -0.999468 -0.00795116
0.78181 2.75743 -19.2776 -0.0271563 -0.999538 -0.00735377
2.15009 2.68412 -19.2512 -0.104459 -0.994334 -0.0111154
3.61298 2.48742 -19.1959 -0.163587 -0.986519 0.00447385
4.83842 2.2594 -19.0886 -0.230857 -0.972925 0.0110542
6.07025 1.92961 -19.0328 -0.283503 -0.958711 0.0117869
7.46614 1.46619 -18.9055 -0.340467 -0.940237 0.00610249
8.65733 1.02923 -18.5833 -0.359026 -0.933091 0.0194811
9.42683 0.756252 -17.6827 -0.376275 -0.926188 0.0243642
9.7275 0.657584 -16.1013 -0.385673 -0.922527 0.0140561
9.78162 0.658053 -14.8402 -0.365563 -0.930542 0.020128
9.68596 0.73264 -13.4385 -0.370515 -0.928527 0.0235931
9.63913 0.783401 -11.986 -0.368415 -0.929494 0.0176506
9.70037 0.790621 -10.4772 -0.367088 -0.929921 0.0221036
9.81372 0.777601 -9.07936 -0.365304 -0.930641 0.0214606
9.91709 0.764683 -8.09755 -0.364949 -0.930552 0.0297684
10.2195 0.702432 -6.39059 -0.357549 -0.933506 0.0248954
10.4109 0.66617 -4.94082 -0.368379 -0.929486 0.0187587
10.3145 0.728507 -3.69599 -0.375784 -0.926481 0.0204545
10.4015 0.719569 -2.37355 -0.383989 -0.923122 0.0199695
9.15254 1.19756 -2.87213 -0.353218 -0.935436 0.00933744
7.98599 1.58702 -3.31596 -0.310009 -0.950367 0.0229378
6.69664 1.95084 -3.69367 -0.267611 -0.96332 0.0169006
5.49017 2.21278 -3.88962 -0.18253 -0.981965 0.0492622
4.19089 2.422 -3.88068 -0.125754 -0.992051 0.00463761
2.83799 2.56114 -3.48754 -0.0876166 -0.99586 0.0242151
1.39366 2.62199 -2.76528 0.0153437 -0.999423 0.0117853
0.924102 2.58801 -3.91678 0.0432633 -0.998994 0.0118372
0.838889 2.56869 -5.17587 0.0308305 -0.999287 -0.00483625
0.535204 2.57665 -6.5598 0.0236422 -0.999649 0.0119638
0.00244391 2.55643 -7.76304 0.0272348 -0.999628 0.00120435
-0.639167 2.54267 -9.04714 0.0651585 -0.997867 0.00404348
-1.43583 2.49939 -10.4252 0.104277 -0.994548 0.000337205
-2.47192 2.37907 -11.1493 0.159272 -0.986733 -0.0314683
-3.96515 2.09434 -11.7786 0.224691 -0.974096 -0.0255223
-5.27935 1.7482 -12.2422 0.292886 -0.955289 -0.0397885
-6.32588 1.43346 -12.7584 0.332271 -0.942447 -0.0344262
-7.43214 1.04457 -13.1227 0.345381 -0.937684 -0.0377429
-8.44283 0.685958 -13.7619 0.355927 -0.934004 -0.0306521
-8.61742 0.662482 -15.0997 0.367754 -0.929368 -0.0305307
-8.68991 0.663681 -16.4334 0.372846 -0.9277 -0.0189171
-8.11268 0.915011 -17.7021 0.364839 -0.930992 -0.0120599
-7.12053 1.30735 -18.2486 0.352547 -0.935452 -0.0253109
-5.94147 1.73772 -18.5877 0.3108 -0.950376 -0.0137304
-4.95745 2.03981 -18.7964 0.269885 -0.962717 -0.0183791
-2.45627 2.27783 17.4517 0.224326 -0.974278 0.0214449
-4.04923 1.80701 15.7408 0.297925 -0.954222 0.0264874
-5.55288 1.28399 14.0805 0.332004 -0.943242 0.00825746
-5.52855 1.27633 11.4944 0.337417 -0.941269 0.0127044
-3.9793 1.80474 13.2034 0.296537 -0.95498 0.00885783
-2.35422 2.26974 14.9506 0.184833 -0.982725 0.00944293
-0.683161 2.56036 16.6818 0.102704 -0.994709 -0.00249956
0.0485905 2.64473 17.4325 0.110975 -0.993563 0.0227195
2.45532 2.69519 17.2766 -0.0485292 -0.99876 -0.0111227
0.625922 2.69777 15.4125 0.0811095 -0.996507 -0.0198845
-1.12912 2.48322 13.6177 0.174176 -0.984706 0.00415835
-2.79771 2.12957 11.8677 0.229953 -0.973189 0.00491453
-4.44885 1.63519 10.0783 0.316276 -0.948519 0.0167473
-5.12607 1.39418 9.32736 0.325053 -0.945603 0.0132292
-4.102 1.71546 7.84962 0.315132 -0.949007 0.00880822
-2.40985 2.19128 9.67031 0.212822 -0.976937 0.0173543
-0.667315 2.52942 11.4891 0.0907402 -0.995546 0.0255864
0.945434 2.67786 13.1389 0.0311321 -0.999263 0.0224425
2.55756 2.72182 14.7752 -0.0568813 -0.99831 0.0119138
4.16715 2.5594 16.425 -0.0961753 -0.99531 0.010384
5.1598 2.40229 17.4592 -0.192512 -0.981088 -0.0201239
7.44061 1.84217 17.2919 -0.271133 -0.962514 -0.00736521
5.86762 2.27598 15.5912 -0.208587 -0.977747 -0.0224078
4.20959 2.54276 13.8666 -0.13821 -0.99037 0.00807462
2.54225 2.67089 12.1589 -0.0268378 -0.99959 -0.0100108
0.872396 2.63186 10.4582 0.062436 -0.997753 0.0242988
-1.29607 2.36374 8.22583 0.14633 -0.988946 0.0239311
-2.38839 2.16467 7.08695 0.216518 -0.976258 0.00636575
8.93472 1.34707 16.3324 -0.33924 -0.940635 -0.0110114
6.74353 2.04331 13.9194 -0.271002 -0.962325 0.0220935
4.2974 2.50773 11.3504 -0.143236 -0.989608 0.0126243
2.43208 2.63672 9.44576 -0.033335 -0.998759 0.0370096
6.17912 2.18038 10.7022 -0.210411 -0.977509 0.0142394
8.37327 1.55025 13.0826 -0.326871 -0.94503 -0.0086249
9.10327 1.29524 13.8974 -0.341045 -0.940036 -0.00461131
9.15372 1.29603 11.3251 -0.344089 -0.938927 -0.00432134
8.4862 1.53178 10.5797 -0.319244 -0.947542 0.0157323
-6.98271 1.30758 -15.9177 0.338046 -0.940888 -0.0212979
-5.57616 1.75743 -14.3514 0.294253 -0.955179 -0.0323705
-5.32512 1.88542 -16.6846 0.289956 -0.956652 -0.0272419
-3.44738 2.31289 -14.678 0.190705 -0.981561 -0.0130026
-1.6597 2.53491 -12.8314 0.120812 -0.991437 -0.0495733
-1.46238 2.54889 -12.63 0.126302 -0.991456 -0.032606
2.75826 2.55219 -5.72524 -0.0287435 -0.99958 -0.0036902
2.77497 2.55137 -5.70816 -0.0816888 -0.996612 0.0095483
5.22571 2.23694 -5.76483 -0.163288 -0.98657 -0.00414466
3.51338 2.49759 -7.55088 -0.0708575 -0.997173 0.0250064
1.65116 2.62402 -9.46176 0.00687155 -0.999435 -0.0329067
0.891849 2.64879 -10.2314 0.0361567 -0.998135 -0.0491853
8.10209 1.49893 -5.26225 -0.302627 -0.95302 0.0130045
6.28106 2.02134 -7.25256 -0.285707 -0.958006 0.024418
4.43167 2.35792 -9.19868 -0.162487 -0.986492 0.0207872
2.47517 2.62429 -11.2175 -0.0861751 -0.996041 0.0218027
0.58821 2.69853 -13.1411 0.0429662 -0.998821 -0.0226016
-1.36066 2.63319 -15.1198 0.0908304 -0.995518 -0.0263501
-3.17946 2.42518 -16.9941 0.174028 -0.98452 -0.0208346
-1.03217 2.70712 -17.3784 0.0619316 -0.99783 -0.022343
1.02252 2.72904 -15.2962 0.0149568 -0.999463 -0.0291514
2.98043 2.58017 -13.3035 -0.119344 -0.992821 0.00794638
4.96889 2.23526 -11.2359 -0.203393 -0.978933 0.0179111
6.91898 1.78891 -9.15703 -0.284255 -0.958254 0.0307969
8.316 1.37405 -7.62202 -0.331264 -0.943423 0.0147343
7.88088 1.45323 -10.7029 -0.311605 -0.949838 0.0266562
5.97793 2.0016 -12.771 -0.270836 -0.962616 -0.00424886
4.08038 2.40149 -14.768 -0.169783 -0.985374 0.0145609
1.90803 2.68691 -16.9954 -0.0876741 -0.996118 0.00783194
1.55329 2.71252 -17.355 -0.0760811 -0.997055 -0.00968912
4.39529 2.36587 -17.0555 -0.177637 -0.984017 -0.0124496
6.38574 1.86217 -14.9345 -0.28071 -0.959792 -0.000605618
8.05378 1.3536 -13.1127 -0.324095 -0.945818 0.0197554
8.09808 1.28585 -15.6598 -0.347136 -0.937653 0.0174312
6.76479 1.72825 -17.1291 -0.332505 -0.942912 0.0189254
