-3.80991 2.3848 18.3271 0.306138 -0.951741 0.0216413
-2.50075 2.72811 18.3584 0.238292 -0.970917 0.0230164
-0.934576 3.02503 18.4005 0.131786 -0.990364 0.0414054
0.201235 3.16536 18.4337 0.0651555 -0.99685 0.0333784
1.38697 3.21132 18.5059 0.0213685 -0.999392 -0.00455509
2.59401 3.17475 18.4195 -0.0694274 -0.997514 0.0120303
3.72808 3.06522 18.5066 -0.125472 -0.991675 0.0289294
4.90406 2.91463 18.5382 -0.180711 -0.982791 0.0136673
6.13231 2.65211 18.5376 -0.234261 -0.971702 0.0138094
7.40889 2.30688 18.4742 -0.272916 -0.961849 0.00463012
8.43465 1.97658 18.4295 -0.354145 -0.935159 -0.00334151
9.64814 1.50375 18.0392 -0.370223 -0.928933 0.00428307
10.2984 1.23771 17.2334 -0.374017 -0.927389 0.00780672
10.6099 1.11129 16.2264 -0.374808 -0.927087 -0.00539298
10.7288 1.07104 14.9065 -0.390897 -0.920425 -0.00416249
10.7269 1.08665 13.7974 -0.378716 -0.925366 -0.00762324
10.7285 1.08603 12.4408 -0.372135 -0.928154 -0.00349894
10.7485 1.08077 11.1268 -0.374769 -0.927117 -0.00178894
10.6754 1.10976 9.73271 -0.379413 -0.92516 0.0111806
10.1093 1.33708 9.03137 -0.381306 -0.924448 0.00152977
9.1214 1.72696 9.33454 -0.343757 -0.938919 0.00508324
7.98742 2.12213 9.59129 -0.313162 -0.949517 0.00810262
6.86644 2.45341 9.70687 -0.264707 -0.964266 0.0110206
5.79803 2.69085 9.75304 -0.206568 -0.978359 0.0119587
4.65421 2.89091 9.58188 -0.163275 -0.986572 0.00415946
3.50632 3.02799 9.08286 -0.107956 -0.993859 0.0243072
2.54734 3.05898 8.49679 -0.0393536 -0.99917 0.0104832
1.45981 3.07753 7.74762 -0.0166472 -0.999318 0.0329577
0.574602 3.04086 7.05322 0.0402537 -0.998528 0.0363646
-0.289045 2.9266 6.31053 0.138685 -0.990279 0.0106832
-1.0127 2.80971 5.33472 0.161349 -0.986852 0.00644739
-1.77078 2.69382 4.29701 0.162708 -0.986623 -0.0101063
-2.51553 2.54682 5.22811 0.213687 -0.976841 -0.0109186
-3.40666 2.3293 6.11029 0.278658 -0.960387 0.0026772
-4.44923 2.01433 6.80824 0.317244 -0.948325 -0.00401187
-5.53037 1.65152 7.43585 0.32519 -0.945648 0.000369777
-6.46019 1.31679 7.84776 0.357155 -0.934019 0.00247356
-7.23154 1.01817 8.71758 0.369699 -0.929116 0.00817088
-7.39303 0.961926 9.77555 0.377594 -0.925964 0.00380219
-7.31489 0.999755 10.8249 0.378082 -0.925757 0.00526146
-7.29775 1.01826 12.1822 0.370791 -0.928693 0.00649517
-7.26966 1.04304 13.3018 0.374357 -0.927185 0.0135511
-7.29038 1.0419 14.3617 0.367039 -0.93012 0.00911319
-7.30461 1.04867 15.4396 0.372159 -0.928112 0.0102511
-7.29001 1.05831 16.5597 0.38854 -0.921415 0.00479293
-6.80433 1.27347 17.7 0.378484 -0.92554 0.0111639
-5.46887 1.8006 17.949 0.35847 -0.933468 0.011662
-4.38275 2.19613 18.133 0.305132 -0.952102 0.0198008
-4.10188 2.28789 18.1953 0.306138 -0.951741 0.0216413
-4.24804 2.25428 19.2665 0.321501 -0.946776 0.0159164
-3.17959 2.58328 19.4177 0.271666 -0.962303 0.0123788
-1.78902 2.92276 19.4006 0.200785 -0.978962 0.00669104
-0.569487 3.11072 19.4691 0.121784 -0.992173 0.0199496
0.596432 3.22059 19.4504 0.0159666 -0.99926 0.0236148
2.1756 3.21508 19.4766 -0.00352325 -0.999971 0.00673707
3.25798 3.12995 19.5295 -0.0808313 -0.996366 0.0214704
4.428 2.99404 19.58 -0.145886 -0.989263 0.00874305
5.50117 2.80237 19.5649 -0.215535 -0.976319 0.0185913
6.68477 2.51324 19.5692 -0.283358 -0.958954 0.00196735
7.7348 2.19482 19.5275 -0.30489 -0.952383 0.00309813
8.82461 1.82148 19.4573 -0.348912 -0.937142 -0.00498944
10.0432 1.33923 19.0848 -0.378699 -0.925516 -0.00154915
10.8888 0.983007 18.3196 -0.394617 -0.918839 -0.00211392
11.3685 0.775179 17.1543 -0.400091 -0.916475 -0.000126635
11.6787 0.65688 15.6978 -0.407188 -0.913265 -0.0118565
11.6603 0.673518 14.5189 -0.399337 -0.916766 -0.0081183
11.6772 0.673696 13.3214 -0.401065 -0.916016 -0.00759895
11.7547 0.649311 12.2092 -0.393575 -0.919269 -0.00660332
11.6632 0.697683 10.7958 -0.399466 -0.916736 -0.00468101
11.6526 0.697002 9.74052 -0.393051 -0.919503 0.00506945
11.7466 0.647338 8.66183 -0.396806 -0.917814 0.0127249
11.0491 0.939891 7.69173 -0.392792 -0.919616 0.00137234
9.96155 1.39576 7.91382 -0.37389 -0.927405 -0.00370154
8.95367 1.77606 8.26535 -0.31458 -0.9489 -0.00560706
7.87974 2.14109 8.50839 -0.317996 -0.94791 0.018562
6.61623 2.51152 8.70908 -0.242221 -0.970063 0.00225546
5.56423 2.74518 8.70087 -0.213698 -0.976766 -0.0161568
4.46805 2.9165 8.38138 -0.116189 -0.993029 0.00400161
3.18278 3.02095 7.63279 -0.0586556 -0.997902 0.0218837
2.08063 3.04018 6.89593 -0.022434 -0.999218 0.0325547
1.07193 3.01843 6.11522 0.0196143 -0.999609 0.0199072
0.0493416 2.92776 5.1391 0.101149 -0.99444 0.0155185
-0.443025 2.87826 3.92559 0.12166 -0.992277 -0.013667
-0.69528 2.88225 2.8802 0.139512 -0.989769 -0.0225032
-0.838205 2.85137 1.81174 0.142352 -0.989738 0.0108943
-1.07869 2.8171 1.73728 0.139361 -0.990225 0.00572816
-1.8222 2.70198 2.51839 0.185284 -0.982537 0.0117365
-2.50915 2.55475 3.54605 0.200563 -0.979417 0.00218014
-3.23534 2.38647 4.54456 0.222205 -0.974996 -0.00279649
-4.34436 2.06439 5.4911 0.304151 -0.952351 -0.0126204
-5.30388 1.73074 6.17332 0.321494 -0.946874 -0.00777737
-6.36726 1.35047 6.65698 0.350567 -0.936514 -0.00671388
-7.37546 0.960169 7.02626 0.367756 -0.929904 -0.00323694
-7.94617 0.733209 7.85601 0.376763 -0.926305 -0.000830621
-8.31752 0.582539 8.89007 0.377055 -0.926187 -0.00279243
-8.29671 0.589703 10.0579 0.3879 -0.921687 0.00308106
-8.22541 0.62943 11.1088 0.380518 -0.924679 0.013154
-8.23565 0.640833 12.3956 0.380158 -0.924866 0.0101733
-8.1807 0.671127 13.6118 0.3889 -0.921278 -5.27891e-05
-8.16757 0.678623 14.7674 0.391002 -0.920389 0.000531812
-8.21282 0.666085 16.1418 0.396868 -0.917865 0.00303559
-8.26148 0.653515 17.2918 0.402736 -0.915281 0.00802467
-7.95943 0.794748 18.29 0.392075 -0.919888 0.00903653
-6.87363 1.25751 18.8393 0.378755 -0.925447 0.00961603
-5.61438 1.75864 19.0447 0.359111 -0.933213 0.0123601
-4.66112 2.11634 19.2151 0.331272 -0.943327 0.010824
-4.7803 2.09342 20.2281 0.335263 -0.941656 0.0239581
-3.6818 2.45246 20.385 0.271818 -0.962121 0.0209348
-2.61685 2.74009 20.4469 0.240835 -0.970045 0.0317893
-1.19852 3.03282 20.4174 0.17699 -0.983775 0.0293387
-0.135901 3.18486 20.4752 0.119206 -0.991865 0.0339495
0.973024 3.26905 20.5185 0.0424065 -0.998711 0.0279019
2.16419 3.24094 20.5616 -0.0610747 -0.997886 0.0222185
3.69024 3.11233 20.5764 -0.116608 -0.993098 0.0126326
5.10196 2.8994 20.5912 -0.190475 -0.98168 0.00488268
6.40299 2.60236 20.6437 -0.269058 -0.963118 0.00336659
7.55558 2.25677 20.6363 -0.303385 -0.952856 0.00490366
8.68762 1.86803 20.6308 -0.345803 -0.938307 -0.000234272
9.76236 1.45385 20.3662 -0.37717 -0.926144 5.36947e-05
10.6811 1.07007 19.9675 -0.393211 -0.919439 0.00410726
11.6352 0.651737 19.1528 -0.402337 -0.915478 0.00499213
12.1067 0.444981 18.1953 -0.410716 -0.911763 0.000204084
12.613 0.207927 16.7373 -0.421981 -0.906551 0.00983306
12.5747 0.259225 15.6781 -0.402904 -0.914123 -0.0370996
12.5738 0.272675 14.5883 -0.402514 -0.915372 -0.00838602
12.6503 0.246898 13.3211 -0.40421 -0.914655 -0.00452802
12.6709 0.245766 12.1962 -0.40859 -0.91269 -0.00372977
12.6094 0.280553 10.9419 -0.409357 -0.912277 -0.0107249
12.7148 0.249315 9.86169 -0.394703 -0.918695 -0.006051
12.7261 0.228723 8.78238 -0.393233 -0.919319 0.0148673
12.552 0.274092 7.69512 -0.422804 -0.906038 0.0182503
12.5116 0.277818 6.52113 -0.424737 -0.905282 -0.00792523
12.6377 0.228743 5.25639 -0.411434 -0.911426 -0.0050465
12.6739 0.218191 4.11873 -0.400242 -0.916402 0.000523915
12.635 0.225094 2.74429 -0.398225 -0.917198 0.01282
12.0683 0.482029 3.70362 -0.406269 -0.913735 0.00585404
11.904 0.559477 4.82827 -0.403684 -0.914895 0.00165001
11.2399 0.859071 5.99256 -0.412427 -0.910988 -0.000542491
10.4196 1.20651 6.59878 -0.383409 -0.923563 -0.00531666
9.44808 1.6017 6.93743 -0.354852 -0.934842 0.00645377
8.30678 2.01977 7.25085 -0.326915 -0.944673 -0.0154912
7.35047 2.31272 7.59924 -0.26903 -0.962826 -0.00636444
6.3173 2.58348 7.55724 -0.242221 -0.970063 0.00225561
5.17131 2.81544 7.48601 -0.139686 -0.990146 0.00998781
3.89361 2.95125 6.80915 -0.0667804 -0.997766 -0.00191697
2.8445 3.01838 6.11925 -0.057497 -0.998338 0.0039072
1.66951 3.02728 5.23088 0.0380269 -0.999231 -0.00071347
0.717447 2.98221 4.15634 0.0613539 -0.998052 0.0113045
0.408894 2.98006 2.81853 0.0779726 -0.996822 -0.0157796
0.18077 2.9855 1.6488 0.103925 -0.994088 -0.00155314
0.550278 3.01595 0.146092 0.110549 -0.993834 0.00220783
1.34465 3.03056 -0.837902 0.0185121 -0.999819 0.00398703
2.24032 3.01884 -1.51553 -0.020195 -0.99978 0.0057528
3.23309 2.97944 -2.0657 -0.10959 -0.993851 -0.0158451
4.23476 2.85446 -2.40661 -0.137461 -0.990479 0.0072738
5.54074 2.65077 -2.43692 -0.182541 -0.983197 -0.00166188
6.89457 2.34211 -2.19753 -0.242276 -0.969975 0.0212463
8.06779 1.99535 -1.78205 -0.295431 -0.954967 0.0275286
9.09763 1.64831 -1.29916 -0.347208 -0.937265 0.0243209
9.97926 1.3177 -0.730779 -0.365582 -0.930587 0.0189134
10.8945 0.948363 -0.0412535 -0.389917 -0.92057 0.0215054
11.6585 0.630913 0.852205 -0.400532 -0.916203 0.0116241
12.4591 0.275374 0.898505 -0.407444 -0.91308 0.0164002
12.5137 0.221318 -0.590105 -0.401029 -0.915592 0.0277706
12.3189 0.276825 -1.64072 -0.416733 -0.908043 0.0423198
12.2416 0.287059 -2.69436 -0.428455 -0.903076 -0.0296624
12.4106 0.220332 -3.82643 -0.397 -0.917787 0.00542784
12.1544 0.309156 -4.95347 -0.411188 -0.910819 0.0365096
12.0531 0.328488 -6.08375 -0.419935 -0.907338 0.019802
11.7134 0.451912 -7.27902 -0.385247 -0.922297 0.02815
11.5204 0.506423 -8.36006 -0.386168 -0.92216 0.0220245
11.2454 0.58697 -9.44534 -0.397863 -0.916675 0.0375634
11.3626 0.498677 -10.5031 -0.395633 -0.917912 0.030191
11.2578 0.50807 -11.6084 -0.395515 -0.918078 0.026378
11.2812 0.45717 -12.8963 -0.399906 -0.916064 0.0300359
11.5027 0.312622 -14.1339 -0.422981 -0.905543 0.032554
11.5569 0.256719 -15.601 -0.40958 -0.912198 0.00982595
11.5297 0.248839 -17.1086 -0.401056 -0.915956 0.0133377
11.2912 0.32795 -18.4648 -0.410707 -0.911649 0.0146593
10.6557 0.593378 -19.309 -0.398831 -0.916876 0.0165016
9.7917 0.958206 -19.751 -0.39665 -0.917966 0.00279689
8.86323 1.34305 -20.0719 -0.373923 -0.927432 0.00283693
7.64688 1.80374 -20.2972 -0.347305 -0.937674 0.0120812
6.52472 2.19683 -20.3285 -0.290585 -0.95646 0.00153507
5.50378 2.47914 -20.2888 -0.266692 -0.963735 -0.00951131
4.43687 2.72585 -20.3545 -0.219397 -0.975522 -0.0137599
3.24813 2.95906 -20.4889 -0.187436 -0.981912 -0.0100836
2.13069 3.12771 -20.4912 -0.130067 -0.991504 0.0015699
0.983215 3.20911 -20.5131 -0.0397321 -0.999038 -0.018545
-0.105692 3.22005 -20.4575 -0.0148464 -0.998117 -0.0595106
-1.37571 3.16792 -20.3956 0.0603435 -0.996785 -0.052717
-2.62428 3.01787 -20.478 0.15249 -0.987606 -0.0371686
-3.95519 2.74533 -20.2692 0.212272 -0.976307 -0.0407645
-5.20131 2.40487 -20.2083 0.259233 -0.965479 -0.0227449
-6.39159 2.01892 -19.9466 0.33156 -0.943111 0.00154184
-7.53006 1.58842 -19.6849 0.351552 -0.936094 -0.0118107
-8.46927 1.20767 -19.2138 0.381721 -0.924121 -0.0170335
-9.45863 0.782378 -18.7979 0.3885 -0.921204 -0.0212176
-10.1897 0.43956 -17.7011 0.394836 -0.918491 -0.0213836
-10.4833 0.283655 -16.4499 0.409571 -0.912047 -0.0205538
-10.5398 0.222421 -14.8867 0.400426 -0.916053 -0.0215205
-10.498 0.20349 -13.6647 0.393137 -0.919044 -0.0282019
-10.234 0.285011 -12.4896 0.389806 -0.920632 -0.0221012
-9.22048 0.687261 -11.4512 0.389622 -0.920659 -0.024099
-8.11083 1.13719 -11.4171 0.36713 -0.930022 -0.016574
-7.08017 1.54213 -11.511 0.348804 -0.936951 -0.0194021
-5.98145 1.91815 -11.1144 0.316701 -0.94818 -0.0255803
-4.76783 2.30145 -10.6489 0.270733 -0.961624 -0.02833
-3.78977 2.51824 -10.2581 0.231186 -0.972667 -0.0217149
-2.61701 2.76336 -9.71295 0.172423 -0.984833 -0.013694
-1.89964 2.86313 -8.91459 0.139456 -0.989795 -0.0182145
-1.37967 2.89286 -7.99828 0.112197 -0.991464 -0.0664202
-0.981859 2.90478 -6.92475 0.117331 -0.992902 -0.0194795
-0.562919 2.93545 -5.9617 0.123145 -0.992278 -0.0114036
-0.430459 2.93514 -4.70602 0.0653823 -0.997766 0.00341405
-0.459304 2.92245 -3.65116 0.0985237 -0.995056 -0.00348488
-0.516687 2.91454 -2.52844 0.113281 -0.993541 -0.00656462
-0.840916 2.87086 -1.51375 0.107967 -0.994078 -0.0104035
-1.23128 2.79188 -0.498376 0.14663 -0.989191 0.000423562
-1.81276 2.69024 0.570369 0.210654 -0.977433 -0.0157991
-2.40856 2.57505 1.50383 0.198291 -0.980102 0.00890815
-2.96104 2.46105 2.44204 0.243028 -0.970009 0.00443081
-3.73746 2.25868 3.43685 0.287811 -0.95767 -0.00539883
-4.41254 2.05291 4.22003 0.287911 -0.957653 -0.0026476
-5.24176 1.76961 4.84049 0.323018 -0.946266 -0.0154447
-6.1079 1.45685 5.46307 0.349913 -0.936715 -0.0112639
-7.38836 0.966558 5.68679 0.37102 -0.928574 -0.00977887
-8.57989 0.477908 6.50363 0.381091 -0.924511 -0.00530673
-8.94521 0.327004 7.47699 0.379241 -0.925298 -0.000383739
-9.21525 0.205515 8.78776 0.396786 -0.917881 -0.00742059
-9.16857 0.219031 9.83954 0.408903 -0.91255 -0.00715084
-9.11402 0.254475 10.962 0.415341 -0.909519 0.0163272
-9.17105 0.251854 12.0336 0.382191 -0.924034 0.00955064
-9.12158 0.277586 13.4395 0.383494 -0.923542 -0.00163688
-9.07427 0.291717 14.4972 0.397502 -0.917583 0.00327593
-9.10186 0.27527 15.6414 0.400588 -0.91624 -0.0057798
-9.1853 0.240144 16.7922 0.4133 -0.91059 0.000132171
-9.20453 0.24705 18.1806 0.404743 -0.914329 0.0129561
-8.47839 0.577679 19.3125 0.401129 -0.916005 0.00547593
-7.56297 0.977405 19.7946 0.392359 -0.919748 0.0109004
-6.54397 1.40199 20.0179 0.372642 -0.927938 0.00680044
-5.22381 1.9265 20.22 0.355018 -0.934585 0.0220524
-5.14283 1.95699 20.2222 0.35171 -0.935752 0.0258411
-3.55129 2.65889 -12.4379 0.228808 -0.972781 -0.0283603
-4.67711 2.38106 -12.9309 0.243202 -0.969594 -0.0265615
-5.66066 2.10226 -13.3305 0.304147 -0.951793 -0.0392202
-6.63573 1.76993 -13.6818 0.34947 -0.935761 -0.0457128
-7.82153 1.31459 -13.7627 0.359108 -0.932842 -0.0291036
-8.54892 1.04782 -14.5078 0.377225 -0.925425 -0.0350398
-8.65533 1.04979 -15.6975 0.389496 -0.920735 -0.0232293
-8.30541 1.22266 -16.7109 0.379045 -0.925048 -0.0220776
-7.37997 1.60093 -17.4728 0.363812 -0.931251 -0.0203242
-6.04349 2.13014 -17.9202 0.332793 -0.942196 -0.0359017
-4.98487 2.45133 -18.087 0.241947 -0.970152 -0.0035864
-3.47775 2.80959 -18.1898 0.218298 -0.975752 -0.00611744
-2.3781 3.01598 -18.3711 0.122082 -0.99213 -0.0243147
-1.24597 3.1509 -18.3202 0.0820285 -0.995804 -0.0135878
-0.0405991 3.19567 -18.3827 0.0325652 -0.999038 -0.0293635
1.42613 3.17048 -18.257 -0.0317544 -0.999392 -0.00653828
2.79987 3.02782 -18.3189 -0.121942 -0.992293 -0.0146631
4.01586 2.82957 -18.4242 -0.183099 -0.982899 -0.00166562
5.44984 2.50799 -18.226 -0.235981 -0.970913 0.0374689
6.5653 2.1988 -18.1642 -0.307472 -0.951383 0.0128494
7.74808 1.78471 -18.0594 -0.350008 -0.936662 0.0115341
8.90432 1.35751 -17.7247 -0.357394 -0.933794 0.0172512
9.64161 1.07121 -16.8615 -0.372593 -0.927957 0.00842764
9.7389 1.04794 -15.6279 -0.379044 -0.925262 0.0146794
9.5884 1.139 -14.4615 -0.387891 -0.921297 0.0273704
9.40237 1.25596 -13.1662 -0.389681 -0.920526 0.0279384
9.33592 1.31115 -11.9765 -0.380218 -0.924585 0.024034
9.34845 1.33336 -10.865 -0.364876 -0.930583 0.0293321
9.40556 1.34518 -9.57986 -0.371482 -0.928135 0.0237761
9.55929 1.30911 -8.47254 -0.368823 -0.929202 0.0233207
9.8065 1.24683 -7.07336 -0.369684 -0.92892 0.0190018
10.1162 1.15553 -5.69586 -0.361985 -0.931705 0.029878
10.3661 1.08434 -4.57124 -0.396647 -0.917668 0.0236012
10.309 1.13623 -3.44471 -0.390487 -0.920457 0.00797519
9.26892 1.55113 -3.47793 -0.346331 -0.937971 0.0162861
8.06461 1.93803 -3.93777 -0.300286 -0.953547 0.0236681
7.0792 2.23664 -4.30768 -0.272653 -0.962011 0.00354412
5.98507 2.52196 -4.54301 -0.205621 -0.978461 0.0182692
4.60042 2.8032 -4.52355 -0.163029 -0.986089 0.0155611
3.37537 2.95186 -4.30045 -0.0692088 -0.997598 -0.00290161
2.30418 3.02791 -4.03457 -0.0272844 -0.999105 0.0323337
1.73032 3.03404 -4.52375 -0.0328025 -0.999377 0.0130287
1.48229 3.04069 -6.06256 -0.00837282 -0.999615 -0.0176566
1.13147 3.04783 -7.12826 0.013437 -0.999905 -0.00304886
0.742016 3.03466 -8.15226 0.0373154 -0.999015 -0.0071988
0.336118 3.05235 -9.19959 0.0472766 -0.998443 -0.0256333
-0.431735 3.0429 -10.4164 0.0550939 -0.998128 -0.026488
-1.37834 2.98942 -11.2926 0.132963 -0.99042 -0.0327311
-2.587 2.83634 -11.9282 0.169542 -0.984348 -0.041593
-3.17289 2.73266 -12.2581 0.200645 -0.978924 -0.0363498
-3.62777 2.59416 -11.2866 0.21204 -0.976742 -0.0318529
-2.54731 2.79662 -10.7651 0.189579 -0.980868 -0.0442366
-1.5726 2.91883 -10.105 0.117079 -0.99302 -0.0142997
-0.754667 2.98209 -8.98521 0.0779219 -0.996253 -0.0296172
-0.280939 2.98173 -7.93466 0.0796349 -0.996471 -0.0230096
0.151942 3.00348 -6.78662 0.0722613 -0.997226 -0.0163315
0.555196 3.00884 -5.5478 0.0674311 -0.997641 -0.0128747
0.631367 3.00687 -4.40426 0.0487958 -0.998698 0.0148741
0.617594 3.01938 -3.27619 0.0647632 -0.997901 4.68704e-06
0.739349 3.02632 -2.04543 0.0649339 -0.997889 -0.00140791
1.49428 3.04959 -2.21602 -0.00153424 -0.999002 -0.0446307
2.42666 3.04552 -2.87261 -0.0718211 -0.997374 -0.00930459
3.64928 2.93257 -3.32281 -0.114882 -0.993065 0.0112382
4.93131 2.75837 -3.49143 -0.172864 -0.984439 0.00510253
6.2035 2.48499 -3.49027 -0.246549 -0.968668 0.0287431
7.48818 2.13772 -3.0711 -0.296435 -0.954781 0.0227952
8.58407 1.79423 -2.67885 -0.325255 -0.94539 0.0207217
9.53608 1.45679 -2.24899 -0.356991 -0.934105 -0.00224288
10.4933 1.08335 -1.66523 -0.388008 -0.921403 0.0215826
11.3226 0.733396 -1.43152 -0.400867 -0.915919 0.0199249
11.3031 0.711497 -2.9393 -0.400667 -0.916099 0.0146412
11.3597 0.667454 -4.27947 -0.392209 -0.919753 0.0150457
11.1762 0.724575 -5.38163 -0.391584 -0.919941 0.0190117
10.8975 0.812468 -6.57008 -0.387806 -0.921431 0.0238999
10.6505 0.883188 -7.75053 -0.384526 -0.92282 0.0233133
10.4156 0.951171 -8.91921 -0.383442 -0.923297 0.0222336
10.3522 0.934879 -10.404 -0.392059 -0.91945 0.0300248
10.2774 0.927923 -11.6424 -0.386871 -0.921822 0.0239733
10.3488 0.861291 -12.973 -0.389624 -0.920546 0.0280804
10.53 0.741636 -14.2964 -0.399757 -0.916215 0.0272894
10.6877 0.640778 -15.5567 -0.401079 -0.915887 0.0167825
10.671 0.62775 -16.8971 -0.400671 -0.916125 0.0133112
10.3352 0.754278 -17.9828 -0.396651 -0.917772 0.0185183
9.34929 1.16178 -18.7464 -0.378204 -0.925301 0.0218638
8.24509 1.59108 -19.0977 -0.361574 -0.932282 0.00384906
7.04072 2.03546 -19.1881 -0.316309 -0.948237 0.00655472
5.61254 2.44333 -19.2866 -0.2473 -0.968861 -0.0123126
4.53431 2.70666 -19.4237 -0.220959 -0.975231 0.0100294
3.22512 2.97673 -19.5098 -0.166313 -0.985558 0.004263
1.89848 3.15015 -19.3734 -0.0752962 -0.996491 -0.0114553
0.744231 3.19945 -19.3737 -0.0317544 -0.999392 -0.00653829
-0.347992 3.20036 -19.4353 0.00242581 -0.999979 0.005934
-1.57018 3.12891 -19.4029 0.111506 -0.993083 -0.0367656
-2.85678 2.94763 -19.3678 0.184985 -0.981322 -0.0386808
-4.08071 2.68299 -19.216 0.236128 -0.970675 -0.0322934
-5.76337 2.24095 -19.0114 0.282113 -0.958743 0.000658187
-7.02531 1.77269 -18.7396 0.360745 -0.932451 -0.00293508
-8.04383 1.35879 -18.3033 0.372053 -0.927823 -0.0258139
-8.95307 0.971563 -17.7344 0.384557 -0.922923 -0.016318
-9.46069 0.728884 -16.5364 0.390381 -0.920415 -0.0209598
-9.64587 0.61619 -15.2185 0.394736 -0.918482 -0.0239589
-9.47241 0.656222 -14.0871 0.393135 -0.918977 -0.0304443
-9.25559 0.712401 -12.9634 0.379952 -0.924466 -0.0316138
-8.2069 1.12645 -12.5918 0.372186 -0.927762 -0.0271171
-7.07557 1.57307 -12.6347 0.349563 -0.936439 -0.0264102
-6.04809 1.92662 -12.261 0.311585 -0.949534 -0.0345019
-4.99726 2.26087 -11.866 0.291321 -0.956061 -0.0328665
-3.81814 2.5552 -11.3592 0.211181 -0.976739 -0.0368556
10.1901 1.28508 15.8454 -0.37832 -0.925625 -0.00966762
9.33805 1.61656 16.8093 -0.357082 -0.934047 0.00689919
8.58431 1.91156 17.6609 -0.343391 -0.939053 0.0162109
7.28972 2.34206 17.7775 -0.265253 -0.964162 -0.00564268
8.10126 2.07832 16.8866 -0.324257 -0.945645 0.0247356
8.99066 1.7542 15.8929 -0.350928 -0.93636 -0.00894526
9.83069 1.43979 14.9502 -0.359252 -0.933236 0.00301411
10.2605 1.27194 14.4621 -0.384535 -0.923081 -0.00741552
10.1049 1.33317 13.3263 -0.370797 -0.928653 -0.0106651
9.12418 1.71101 14.4406 -0.351137 -0.936323 -0.00091395
8.16243 2.05502 15.5082 -0.311157 -0.9503 0.0105367
7.24697 2.34618 16.5109 -0.293596 -0.955865 0.011103
6.38194 2.58007 17.4338 -0.237202 -0.971448 0.00498178
5.92689 2.68996 17.9134 -0.206235 -0.978492 -0.00447761
4.65684 2.95607 17.9372 -0.1547 -0.987929 -0.00796528
5.55363 2.78012 17.0044 -0.219783 -0.975538 -0.00454046
6.50113 2.56489 16.0091 -0.238194 -0.971176 -0.00896515
7.35602 2.31436 15.0846 -0.311157 -0.9503 0.0105364
8.23916 2.01894 14.1157 -0.32383 -0.946079 -0.00829237
9.25262 1.66886 12.9888 -0.346107 -0.938084 -0.0144669
10.1276 1.33265 11.9918 -0.3775 -0.926006 -0.00269947
10.1927 1.30605 11.9171 -0.378742 -0.925502 -0.000227536
9.94428 1.40522 10.8938 -0.37217 -0.928161 -0.00279441
8.91547 1.80681 12.0624 -0.357391 -0.933951 -0.00269145
8.03136 2.09781 13.0408 -0.320925 -0.946964 -0.0163304
6.94824 2.42639 14.2201 -0.281509 -0.959473 0.0127896
5.80983 2.73972 15.4373 -0.238194 -0.971176 -0.00896524
4.83251 2.92504 16.4545 -0.186764 -0.982374 -0.00783677
3.67401 3.07867 17.6414 -0.10478 -0.994427 -0.0116502
3.67073 3.07898 17.6448 -0.110275 -0.993714 -0.0193023
2.2875 3.18805 17.7537 -0.0629645 -0.998013 -0.00237933
3.26678 3.13194 16.7574 -0.105653 -0.994357 -0.00953812
4.13773 3.0265 15.8682 -0.142867 -0.989688 0.010308
5.31865 2.82276 14.6452 -0.165294 -0.98622 0.00690527
6.33601 2.58606 13.5714 -0.239876 -0.970795 0.00407432
7.24394 2.35042 12.5979 -0.281285 -0.959613 -0.00466936
8.19656 2.05352 11.5548 -0.316212 -0.948641 -0.00944554
9.06885 1.74255 10.5808 -0.347344 -0.937648 0.0130176
9.63388 1.53178 9.94409 -0.36592 -0.930646 -0.000356222
8.24829 2.03211 10.1913 -0.329839 -0.94399 0.00942963
7.42284 2.30014 11.0999 -0.278966 -0.960298 -0.00251945
6.56065 2.5452 12.0313 -0.272555 -0.962138 0.00184957
5.67505 2.73697 12.9673 -0.218081 -0.975822 -0.0145912
4.75492 2.90944 13.9263 -0.151635 -0.98826 0.0186834
3.6958 3.08361 15.0185 -0.146014 -0.98923 0.0101884
2.68411 3.19316 16.0509 -0.0779521 -0.996935 -0.00664304
1.82364 3.21383 16.9242 -0.0387187 -0.999247 -0.00243678
1.03124 3.20724 17.7302 0.0213763 -0.999761 -0.00455631
-0.218855 3.09722 17.7135 0.133596 -0.990914 0.0155466
0.650673 3.17801 16.8194 0.0948478 -0.995376 0.0151761
1.66286 3.22243 15.7866 0.013046 -0.999519 0.0281337
2.57743 3.19167 14.8592 -0.0618865 -0.997805 0.0235799
3.59542 3.07766 13.8201 -0.0931851 -0.995054 0.0344093
4.6717 2.90468 12.7083 -0.131977 -0.99124 0.00510749
5.63283 2.74712 11.7075 -0.198569 -0.979893 0.019481
6.59812 2.52057 10.6838 -0.223691 -0.974532 0.0158276
6.99367 2.42483 10.2619 -0.245672 -0.969333 0.00619735
5.77328 2.70221 10.2549 -0.188276 -0.982099 0.00574709
4.80394 2.87481 11.2621 -0.152345 -0.98831 0.00591067
3.79971 3.01928 12.3027 -0.114124 -0.99343 -0.00848239
2.77676 3.13441 13.3539 -0.0615785 -0.99752 0.0340876
1.71664 3.205 14.4303 0.00929632 -0.999192 0.0391103
0.673175 3.17165 15.4931 0.102459 -0.994737 0.00116761
-0.275654 3.06419 16.473 0.127718 -0.991538 0.0232624
-1.13067 2.96887 17.3563 0.133295 -0.990963 0.0149831
-1.54072 2.91397 17.7823 0.196762 -0.980337 0.0149464
-2.60717 2.68846 17.6088 0.245355 -0.969324 0.0145695
-1.63282 2.87663 16.5782 0.203064 -0.978842 0.025154
-0.517767 3.02279 15.4163 0.124318 -0.992206 0.00846536
0.406528 3.11886 14.4653 0.102521 -0.993749 0.044178
1.27349 3.14585 13.5834 0.0399393 -0.998746 0.030201
2.31162 3.12514 12.5239 -0.0438607 -0.998594 0.0297713
3.28502 3.08504 11.5266 -0.114124 -0.99343 -0.00848254
4.3352 2.93816 10.4462 -0.14292 -0.989674 0.0108774
4.5178 2.90973 10.2579 -0.141487 -0.989929 0.00477564
3.55673 3.04372 9.94998 -0.0713049 -0.997257 0.0198508
2.15663 3.12793 11.3752 -0.0163374 -0.999856 0.00451851
1.26442 3.12058 12.2878 0.055026 -0.998361 0.0157503
0.333921 3.08421 13.2391 0.0723307 -0.997052 0.0256193
-0.519093 3.00727 14.1144 0.127399 -0.991793 0.0107597
-1.38906 2.87902 15.0194 0.177027 -0.984037 0.0182344
-2.33834 2.70545 16.0228 0.220719 -0.975287 0.00988874
-3.42878 2.46613 17.19 0.253472 -0.966728 0.0344846
-3.76518 2.38241 17.5545 0.303822 -0.952548 0.0185743
-4.82522 2.0282 17.4255 0.338502 -0.940762 0.0195854
-3.92543 2.30858 16.4239 0.278596 -0.960033 0.0268462
-3.0804 2.53226 15.5044 0.224429 -0.974361 0.0158573
-2.21472 2.7188 14.5813 0.214048 -0.976734 0.0131934
-1.23648 2.89438 13.5545 0.191049 -0.98156 0.00635201
0.00456022 3.03853 12.2726 0.103725 -0.994278 0.025557
1.01962 3.09117 11.2316 0.0624838 -0.998007 0.00879988
2.11079 3.11259 10.1157 0.0048389 -0.999683 0.0246991
2.83205 3.06006 9.38287 -0.0433224 -0.99874 0.0253462
2.07286 3.08254 8.85176 -0.0379575 -0.999274 0.00324316
1.19565 3.07238 9.74634 0.0698893 -0.99742 0.016417
0.271316 3.02682 10.6934 0.0925139 -0.995415 0.0242815
-0.809713 2.93849 11.8051 0.107846 -0.993698 0.0305524
-1.85537 2.76968 12.8977 0.19105 -0.98156 0.00635225
-2.95846 2.53831 14.0681 0.233366 -0.972382 0.00377271
-3.84893 2.29485 15.038 0.299873 -0.953806 0.0182058
-4.81247 2.00325 16.1047 0.318041 -0.947783 0.0235941
-5.90478 1.62696 17.3397 0.359431 -0.933167 0.00284009
-6.45739 1.40278 16.6595 0.379507 -0.925123 0.0110283
-5.48701 1.75586 15.5519 0.33309 -0.942577 0.0244866
-4.53037 2.07765 14.4782 0.335999 -0.941862 0.0011621
-3.49444 2.37401 13.3437 0.262303 -0.964712 0.0229719
-2.63167 2.58104 12.4168 0.24597 -0.969277 -0.00123594
-1.71169 2.7819 11.4379 0.191671 -0.981453 0.00346439
-0.778623 2.90906 10.4677 0.102959 -0.994643 0.00916999
0.14425 2.99552 9.51861 0.102702 -0.994665 0.00965981
1.27044 3.08515 8.36539 0.0744754 -0.997214 -0.00422858
0.515164 3.03101 7.83082 0.0744752 -0.997214 -0.00422829
-0.644178 2.90004 9.0244 0.112629 -0.993327 0.0248126
-1.49923 2.78094 9.91728 0.170998 -0.984816 0.0299506
-2.60839 2.57924 11.0806 0.259355 -0.965566 0.0204177
-3.54864 2.32912 12.0984 0.279855 -0.959948 0.0134244
-4.39323 2.09833 13.0191 0.312611 -0.949546 0.0252352
-5.27668 1.80678 14.0059 0.34242 -0.939515 0.00776425
-6.12367 1.50769 14.9637 0.358755 -0.933378 0.00998645
-6.82109 1.24605 15.7639 0.373189 -0.927722 0.00788829
-6.73356 1.26199 14.3485 0.367896 -0.929697 0.0177702
-5.93987 1.55905 13.4427 0.351516 -0.936131 0.00980754
-4.94301 1.89991 12.3215 0.324758 -0.945644 0.0170435
-4.09758 2.15991 11.3881 0.296161 -0.955097 0.00881631
-3.17136 2.41636 10.3807 0.260545 -0.965402 0.0107004
-2.14097 2.65945 9.27871 0.204373 -0.978722 0.0183043
-1.2868 2.78477 8.38526 0.163496 -0.986275 0.0230385
-0.330346 2.92825 7.39801 0.14015 -0.99013 -0.000940222
-0.198819 2.94628 7.26346 0.136955 -0.990566 0.00473715
-0.943191 2.8395 6.72799 0.151161 -0.988439 0.0118059
-1.95498 2.67904 7.77487 0.188196 -0.98208 -0.0100127
-2.93356 2.45448 8.81553 0.233839 -0.972236 0.00870716
-3.9817 2.18014 9.94974 0.275497 -0.961258 0.00922785
-5.16257 1.80363 11.2584 0.314747 -0.949055 0.0151064
-6.10947 1.48264 12.3215 0.349762 -0.936725 0.0145943
-6.78811 1.23445 13.0946 0.366698 -0.930219 0.0149934
-6.81017 1.20713 11.8076 0.353783 -0.935288 0.00854828
-5.88593 1.54805 10.756 0.335174 -0.942154 0.00201882
-4.88329 1.88904 9.63431 0.310588 -0.950544 -0.000815151
-3.94723 2.17998 8.60242 0.293622 -0.955921 -0.000878421
-2.87093 2.46961 7.43659 0.228661 -0.973504 -0.00196657
-2.02219 2.66273 6.53998 0.18574 -0.982446 0.0173152
-1.48089 2.74048 5.97763 0.163614 -0.98644 0.012927
-3.43976 2.32145 6.73927 0.278658 -0.960387 0.00267737
-4.55857 1.97674 7.9663 0.314044 -0.949407 -0.00156682
-5.64745 1.62208 9.17349 0.330681 -0.943699 0.00910112
-6.55089 1.29756 10.1957 0.359404 -0.933175 0.00349169
-6.63236 1.26668 10.2887 0.358621 -0.933472 0.00462855
-6.78911 1.19691 9.15181 0.361342 -0.932384 0.00960135
-6.04986 1.47275 8.31102 0.330667 -0.943703 0.00913995
9.61831 1.38727 -4.42377 -0.345028 -0.937597 0.0432153
9.62891 1.38281 -4.43585 -0.345028 -0.937597 0.0432153
9.54961 1.3743 -5.66016 -0.35469 -0.934675 0.0240398
8.76278 1.69939 -4.76621 -0.328545 -0.944124 0.0262474
8.41158 1.81838 -4.37875 -0.302298 -0.953031 0.0186701
7.68935 2.04627 -4.88846 -0.304004 -0.95263 0.00876572
8.74186 1.66331 -6.06025 -0.344649 -0.938185 0.0320166
9.10682 1.51971 -6.47075 -0.34346 -0.939064 0.013914
9.16696 1.48236 -7.84618 -0.356314 -0.934212 0.016952
8.09945 1.88582 -6.6483 -0.325738 -0.944891 0.0327982
7.06288 2.22942 -5.5102 -0.284185 -0.958724 0.00936183
6.69001 2.34401 -5.10449 -0.272678 -0.962099 0.00354432
5.44678 2.62492 -5.08748 -0.209518 -0.977776 0.00751269
6.29136 2.43759 -5.98213 -0.229542 -0.973176 0.0154374
7.16208 2.18672 -6.92331 -0.297592 -0.954124 0.0329647
7.98095 1.90832 -7.8252 -0.327521 -0.944811 0.00791212
8.92219 1.55115 -8.88237 -0.345335 -0.938051 0.0283548
8.97345 1.53052 -8.9406 -0.345335 -0.938051 0.0283549
8.73826 1.5987 -9.98547 -0.358236 -0.933486 0.0164311
7.50322 2.03875 -8.60994 -0.287399 -0.95758 0.0210536
6.1665 2.43782 -7.1598 -0.226305 -0.973564 0.0309573
5.33362 2.646 -6.27069 -0.180905 -0.983464 -0.00854084
4.37531 2.82873 -5.26433 -0.163095 -0.986488 0.0155676
4.17777 2.85739 -5.05968 -0.136219 -0.990652 0.00725676
2.66038 3.00371 -4.79733 -0.0472075 -0.998885 -0.000576929
3.48865 2.92783 -5.64854 -0.106994 -0.993992 0.023069
4.31357 2.83794 -6.50224 -0.146912 -0.989123 -0.00730789
5.23279 2.66245 -7.46883 -0.218438 -0.97576 0.0133404
6.21285 2.40561 -8.51542 -0.248647 -0.968439 0.0173506
7.02653 2.17238 -9.39449 -0.290232 -0.956863 -0.0133428
8.0298 1.83802 -10.5013 -0.32431 -0.945536 0.0280219
8.82265 1.52253 -11.3976 -0.351302 -0.936228 0.00806659
8.89085 1.47217 -12.788 -0.367284 -0.929666 0.0287081
8.13013 1.77187 -11.9249 -0.3304 -0.943804 0.00836676
7.35809 2.04728 -11.0653 -0.294023 -0.955507 0.0236041
6.46458 2.31104 -10.0936 -0.239376 -0.970824 0.014132
5.43053 2.58622 -8.98526 -0.230183 -0.972918 0.0211187
4.26173 2.84317 -7.75022 -0.160318 -0.986516 0.0329381
3.22513 2.96923 -6.67764 -0.0696793 -0.997569 -0.000169521
2.19299 3.01187 -5.61854 -0.0262979 -0.999622 -0.00803438
2.1591 3.01285 -5.58397 -0.024682 -0.999687 0.00411941
2.16319 3.02766 -6.88689 -0.0432173 -0.999063 -0.00225869
3.22739 2.9572 -7.98206 -0.0926068 -0.995673 -0.00767329
4.05014 2.86552 -8.83268 -0.163341 -0.98657 0.000599993
4.90559 2.68591 -9.73445 -0.21918 -0.975631 0.0101661
5.79065 2.46552 -10.6783 -0.235169 -0.971778 0.0185482
6.74058 2.21865 -11.6995 -0.281171 -0.959652 0.00335995
7.56662 1.95609 -12.6071 -0.304096 -0.952554 0.0128716
8.41283 1.63372 -13.5594 -0.336092 -0.941525 0.0239267
8.83597 1.4562 -14.0446 -0.363627 -0.931084 0.0292926
9.01743 1.3444 -15.571 -0.378506 -0.925462 0.0158915
8.2257 1.67511 -14.662 -0.349234 -0.936692 0.0253763
7.26879 2.02844 -13.5901 -0.318564 -0.947785 0.0148342
6.4754 2.29373 -12.716 -0.282505 -0.959265 0.00157415
5.50502 2.53316 -11.6767 -0.230158 -0.972961 -0.019369
4.62327 2.73887 -10.7392 -0.200399 -0.979587 0.0158302
3.57256 2.94386 -9.63997 -0.163114 -0.986605 0.00197726
2.67311 3.02669 -8.71343 -0.0579342 -0.998058 -0.0228848
1.9576 3.0299 -7.97718 -0.0318558 -0.999451 0.00909544
1.3978 3.06596 -8.70341 -0.00168079 -0.999528 -0.0306681
2.30109 3.06937 -9.63304 -0.0597554 -0.998079 -0.0163281
3.17797 2.99701 -10.5244 -0.133318 -0.989853 0.0491691
4.26506 2.80073 -11.6651 -0.195755 -0.980651 -0.00190743
5.37928 2.57405 -12.8423 -0.225836 -0.974149 0.00557008
6.49766 2.2644 -14.048 -0.286288 -0.957873 0.0227775
7.35612 1.98212 -14.9954 -0.340126 -0.940287 0.0132121
8.2827 1.62316 -16.0436 -0.361135 -0.932431 0.0123692
8.93231 1.35668 -16.787 -0.375286 -0.926821 0.012766
8.168 1.6429 -17.227 -0.346641 -0.93788 0.0149061
7.37871 1.95197 -16.3319 -0.336633 -0.941307 0.0248725
6.50477 2.25715 -15.3615 -0.300809 -0.953568 0.0149206
5.70643 2.48399 -14.4939 -0.249226 -0.968423 -0.00655203
4.7407 2.71578 -13.4677 -0.219003 -0.975704 0.00631336
3.8417 2.89308 -12.52 -0.162042 -0.986728 -0.0105218
2.82127 3.01647 -11.4614 -0.118168 -0.992739 0.0224873
1.88453 3.10262 -10.4982 -0.0342011 -0.999384 -0.00786984
1.12702 3.08401 -9.73038 0.0167718 -0.998977 -0.0419929
0.341187 3.07926 -10.2247 0.0529172 -0.998211 -0.0278477
1.18603 3.12804 -11.0859 -0.0330088 -0.99945 -0.00316541
2.329 3.05757 -12.2577 -0.0668958 -0.997657 -0.0143374
3.40524 2.95635 -13.3689 -0.133988 -0.99097 -0.00497594
4.25265 2.81608 -14.2514 -0.166194 -0.985657 0.0293219
5.14018 2.63528 -15.1868 -0.226819 -0.973921 -0.0055449
5.94717 2.42002 -16.0575 -0.290254 -0.95671 0.0214306
6.77727 2.14389 -16.9713 -0.31446 -0.948969 0.0239235
7.16635 2.00202 -17.4072 -0.322512 -0.946565 0.000608535
6.182 2.32487 -17.6228 -0.302601 -0.953104 0.00504868
5.35153 2.58705 -16.7164 -0.25292 -0.967364 0.0154242
4.47555 2.76633 -15.7904 -0.168527 -0.985697 0.000397283
3.64883 2.90158 -14.9213 -0.142703 -0.989766 -0.000385741
2.79034 3.01953 -14.0319 -0.108937 -0.993788 0.0227673
1.81471 3.10315 -13.0312 -0.0752829 -0.997097 -0.0113681
0.888193 3.12937 -12.0824 0.0363642 -0.999062 -0.0235135
0.0150885 3.08732 -11.1887 0.0442843 -0.998832 -0.019328
-0.0689166 3.08045 -11.1029 0.056262 -0.998107 -0.0248556
-0.796043 3.04877 -11.6581 0.0637546 -0.997319 -0.0359275
0.261439 3.12208 -12.7417 0.0363642 -0.999062 -0.0235135
1.17886 3.14477 -13.6755 0.00700173 -0.999187 0.0396922
2.15905 3.08478 -14.6801 -0.105958 -0.994115 -0.0225298
3.09115 2.98227 -15.6411 -0.142703 -0.989766 -0.00038574
4.02268 2.83834 -16.6182 -0.155035 -0.987899 -0.00440371
4.98726 2.64047 -17.6374 -0.222527 -0.973918 0.0443262
3.90613 2.84981 -17.7964 -0.164717 -0.98623 0.0147826
2.65541 3.03437 -16.4905 -0.129877 -0.991486 0.00931237
1.80186 3.13972 -15.6079 -0.0983474 -0.995015 -0.0164972
0.853108 3.14819 -14.6398 0.00920794 -0.999358 -0.0346245
-0.01701 3.13555 -13.7534 0.0235885 -0.999679 -0.00925584
-1.04624 3.06074 -12.7018 0.104399 -0.994252 -0.0237438
-1.37262 3.01613 -12.3659 0.110374 -0.993707 -0.0190724
-2.37954 2.89868 -12.6269 0.191266 -0.980646 -0.0418474
-1.34375 3.04781 -13.6947 0.102216 -0.994744 -0.00593357
-0.326823 3.13955 -14.7347 0.053639 -0.99856 6.05736e-05
0.57289 3.17273 -15.6511 0.0179954 -0.999544 -0.0242366
1.67445 3.14236 -16.7769 -0.0774904 -0.996808 0.0192276
2.50724 3.0549 -17.6362 -0.110308 -0.993896 0.00194691
1.27656 3.18071 -17.6651 -0.0524928 -0.998615 0.00367306
0.321399 3.18985 -16.692 0.0242855 -0.999638 -0.0115664
-0.701895 3.1258 -15.6505 0.0529054 -0.998121 -0.030905
-1.54093 3.0394 -14.7915 0.114729 -0.993013 -0.0275947
-2.57586 2.88146 -13.7205 0.156751 -0.987633 -0.00306491
-3.10854 2.76966 -13.1633 0.21709 -0.976124 -0.00733832
-3.8469 2.61054 -13.6833 0.231728 -0.972661 -0.0152446
-2.74015 2.88876 -14.8533 0.185553 -0.982169 -0.0302216
-1.78458 3.05796 -15.8439 0.0842378 -0.995967 -0.030884
-0.643298 3.16521 -17.009 0.0515946 -0.998591 -0.0123778
-0.199458 3.17876 -17.4613 0.0304288 -0.999537 -8.51835e-05
-1.32154 3.13079 -17.6175 0.104541 -0.994324 -0.0197575
-2.16747 3.00958 -16.7472 0.12029 -0.992739 -0.000342671
-3.03999 2.85527 -15.8418 0.185524 -0.982459 -0.0188683
-3.93628 2.63956 -14.8967 0.236082 -0.970792 -0.0427486
-4.90316 2.35461 -13.8572 0.239464 -0.970172 -0.0377312
-4.97062 2.3357 -13.7846 0.269718 -0.962396 -0.0323314
-5.94883 2.03854 -14.0197 0.340979 -0.938578 -0.0529546
-4.90938 2.39556 -15.1613 0.274625 -0.960515 -0.044622
-4.11156 2.63026 -16.0172 0.247283 -0.968436 -0.0313466
-2.92778 2.90437 -17.2633 0.185305 -0.982485 -0.0196481
-2.39931 2.99214 -17.8099 0.144754 -0.98868 -0.0394787
-4.07135 2.66071 -17.3648 0.234837 -0.972034 -0.00135675
-4.89364 2.44959 -16.4943 0.250078 -0.967477 -0.0380799
-5.76538 2.1522 -15.5382 0.304088 -0.952641 -0.00223273
-6.67705 1.78832 -14.5124 0.357961 -0.932944 -0.0384708
-6.87091 1.70433 -14.2916 0.364056 -0.930565 -0.0388881
-7.61161 1.43437 -14.7626 0.363562 -0.930725 -0.0396722
-6.72868 1.8168 -15.7737 0.359518 -0.93257 -0.0325653
-5.77132 2.18757 -16.8456 0.319629 -0.947133 -0.0278573
-5.11267 2.41317 -17.5701 0.279426 -0.960157 -0.00449887
-6.68113 1.86278 -17.1413 0.349415 -0.93672 -0.0215838
-7.49968 1.53095 -16.2144 0.36694 -0.930059 -0.0185551
-8.13354 1.26138 -15.4872 0.362933 -0.931086 -0.0368537
