-18.2428 19.208 -16.3027 0.814791 -0.576963 -0.0568253
-18.8167 18.4529 -16.9559 0.809407 -0.586023 -0.0298538
-19.1109 18.1087 -17.9746 0.790391 -0.611692 -0.0315862
-19.6929 17.3736 -18.3972 0.790633 -0.612282 -0.00300245
-20.6046 16.2404 -18.3409 0.775208 -0.631586 -0.0123366
-21.3136 15.4325 -18.4189 0.747777 -0.662938 -0.0365257
-22.0869 14.6033 -18.3876 0.730517 -0.682787 -0.0121019
-23.1206 13.5723 -18.4862 0.691772 -0.721853 -0.0171784
-23.9474 12.8069 -18.4827 0.648503 -0.761183 -0.00523594
-24.8807 12.0164 -18.3867 0.639193 -0.769018 0.0065978
-26.0813 11.0592 -18.3333 0.608996 -0.793109 -0.00605697
-27.0143 10.3651 -18.3112 0.590285 -0.80718 -0.004861
-27.9072 9.72846 -18.237 0.571858 -0.820344 -0.00360099
-28.8421 9.09165 -18.0584 0.549887 -0.835212 -0.00666862
-29.7553 8.50033 -17.9147 0.534189 -0.845356 -0.00395159
-30.6429 7.9449 -17.8106 0.525744 -0.850627 -0.00527535
-31.6913 7.31561 -17.6182 0.503824 -0.863734 -0.0111896
-32.8763 6.64471 -17.5047 0.481137 -0.876585 -0.000191372
-34.0206 6.02884 -17.4704 0.470862 -0.882176 -0.00546939
-35.1191 5.45785 -17.5748 0.450448 -0.892756 -0.00915827
-36.0648 4.98463 -17.6939 0.441682 -0.897122 -0.00916415
-37.1856 4.4443 -17.7544 0.422307 -0.906402 -0.00958604
-38.3253 3.91959 -17.7219 0.412206 -0.911017 -0.0107642
-39.2949 3.48983 -17.6742 0.396685 -0.917872 -0.00944478
-40.4318 3.01226 -17.7159 0.38174 -0.924232 -0.00752563
-41.4914 2.57831 -17.6448 0.375103 -0.926955 -0.00541266
-42.9592 2.01031 -17.5941 0.351153 -0.93628 -0.00492752
-44.1797 1.56444 -17.4872 0.334262 -0.942469 -0.00460518
-45.4728 1.12071 -17.3556 0.314526 -0.949224 -0.00558771
-46.494 0.786643 -17.0383 0.306149 -0.951959 -0.00613383
-46.6859 0.71621 -15.6437 0.303307 -0.952838 -0.0102493
-46.6566 0.709971 -14.1817 0.293597 -0.955852 -0.0121568
-46.5215 0.742073 -12.9922 0.303483 -0.95283 -0.00352135
-46.4645 0.746534 -11.8596 0.301405 -0.953401 -0.0130423
-46.4133 0.748665 -10.8047 0.297244 -0.954685 -0.0149304
-46.3825 0.738353 -9.40558 0.301574 -0.953395 -0.00936707
-46.3115 0.749806 -7.95997 0.306526 -0.9518 -0.0109075
-46.2754 0.749671 -6.83049 0.298762 -0.954232 -0.0135264
-46.1954 0.760636 -5.75797 0.298856 -0.954207 -0.0116296
-46.1085 0.777155 -4.4786 0.296718 -0.954944 -0.0064407
-46.1386 0.754392 -3.08642 0.294413 -0.955615 -0.0109704
-45.8972 0.810478 -1.52866 0.295476 -0.95527 -0.0124045
-45.9241 0.787156 -0.459021 0.295773 -0.955148 -0.0145214
-45.9321 0.772023 0.747666 0.3022 -0.953172 -0.0117477
-45.8577 0.784377 1.96962 0.312144 -0.949957 -0.0121621
-45.8168 0.781367 3.03447 0.300278 -0.953691 -0.0175205
-45.773 0.777805 4.27632 0.310599 -0.950511 -0.00704653
-45.6871 0.800113 5.66161 0.309427 -0.95091 -0.00379975
-45.5902 0.827318 6.70858 0.313134 -0.949687 -0.0064082
-45.6056 0.812232 8.00029 0.316915 -0.948423 -0.00757701
-45.637 0.796318 9.04992 0.312716 -0.949835 0.00137927
-45.6314 0.799664 10.2619 0.310419 -0.950598 0.00189974
-45.6396 0.793384 11.5014 0.30274 -0.953053 -0.00623659
-45.5458 0.816221 12.5941 0.303111 -0.952935 -0.00620281
-45.576 0.7971 13.6943 0.302275 -0.953151 -0.011416
-45.5324 0.799891 14.8488 0.305312 -0.952233 -0.00610837
-45.6457 0.749021 16.2166 0.301979 -0.953253 -0.0102911
-45.616 0.754713 17.3769 0.303824 -0.952723 -0.000454967
-44.7121 1.05402 17.935 0.315434 -0.948943 0.00253792
-43.6144 1.4307 18.1153 0.327771 -0.944744 0.00502944
-42.5127 1.82175 18.2887 0.335695 -0.94195 -0.00580394
-41.1314 2.35284 18.3696 0.373249 -0.927626 -0.013661
-39.764 2.91446 18.4131 0.385521 -0.922576 -0.0150593
-38.583 3.42289 18.3667 0.400903 -0.915986 -0.015711
-37.5626 3.87824 18.3681 0.414189 -0.910046 -0.0162515
-36.488 4.37216 18.4406 0.433507 -0.901075 -0.0116376
-35.2098 4.98644 18.4536 0.437037 -0.89939 -0.00838095
-34.2479 5.46491 18.4777 0.446034 -0.89501 -0.00324076
-33.2418 5.97821 18.485 0.464723 -0.885436 -0.00586798
-32.1385 6.56277 18.5441 0.474354 -0.880308 -0.00680899
-31.1891 7.08561 18.5467 0.489691 -0.871864 -0.00754725
-30.0238 7.75186 18.4885 0.505728 -0.862691 -0.00160881
-28.8607 8.44807 18.5928 0.525862 -0.850385 -0.0177189
-27.9347 9.02679 18.5567 0.533126 -0.845799 -0.0200344
-26.4696 9.97877 18.5527 0.553169 -0.832638 -0.0267964
-25.4627 10.6737 18.5767 0.573383 -0.818928 -0.0242622
-24.6034 11.292 18.4971 0.58909 -0.807853 -0.0186238
-23.5066 12.1212 18.4321 0.617889 -0.786265 0.000687171
-22.422 12.9905 18.383 0.634016 -0.773318 -0.00158349
-21.4779 13.7914 18.4032 0.675444 -0.737398 0.00102967
-20.3572 14.8414 18.4357 0.697966 -0.716103 -0.00623133
-19.4029 15.7852 18.4259 0.712624 -0.701424 -0.0130864
-18.6233 16.5934 18.4248 0.735159 -0.677845 -0.0043705
-17.7606 17.5485 18.4038 0.739185 -0.673046 0.0109845
-17.2045 18.2082 17.7971 0.774029 -0.63315 -0.000656738
-16.8204 18.6749 16.8707 0.784369 -0.620274 0.00502225
-16.1314 19.5454 16.0448 0.78602 -0.617941 0.0172804
-15.3875 20.4969 15.7762 0.793732 -0.607478 0.0306647
-14.7225 21.3461 15.7146 0.78621 -0.616953 0.0350898
-14.0446 22.1998 15.7297 0.76968 -0.636974 0.0404478
-13.1893 23.212 15.9324 0.742816 -0.667966 0.0395184
-12.5849 23.852 16.5529 0.707688 -0.705716 0.0337992
-12.1357 24.353 17.4792 0.666978 -0.743239 0.0523118
-11.7117 24.7904 18.3375 0.638953 -0.767059 0.0579689
-10.7297 25.519 18.3555 0.571241 -0.820173 0.0316217
-9.56153 26.2992 18.374 0.534294 -0.845193 -0.0133569
-8.66626 26.8708 18.3586 0.516219 -0.855156 -0.0471741
-7.84041 27.4142 17.7183 0.527466 -0.847655 -0.0571047
-7.24486 27.9071 16.6939 0.551224 -0.828659 -0.0973435
-6.44888 28.5288 16.1494 0.577654 -0.810869 -0.0928625
-5.54669 29.2046 15.9958 0.621085 -0.78057 -0.0704506
-4.63073 29.8833 15.8507 0.52542 -0.849995 0.0379877
-3.9312 30.2926 15.3347 0.525988 -0.850036 0.0241202
-4.37164 30.007 14.2747 0.520527 -0.853783 0.00636498
-4.73411 29.8015 13.2489 0.492781 -0.869654 0.00495962
-4.9783 29.6676 12.1914 0.497437 -0.867458 -0.0085491
-5.12452 29.5911 11.0557 0.497523 -0.867448 -0.00044136
-5.32972 29.4766 9.68159 0.493162 -0.869933 -0.00285619
-5.16811 29.5516 8.51998 0.449475 -0.893172 0.0147038
-4.82324 29.6994 7.2876 0.44831 -0.893599 0.0223599
-4.40254 29.8912 6.26771 0.425767 -0.904814 0.00575828
-3.91213 30.0821 5.15419 0.409548 -0.910958 0.0492549
-3.99238 30.0241 4.66813 0.415753 -0.908475 0.0426934
-4.89208 29.6321 5.36627 0.433455 -0.899729 0.0510339
-5.79487 29.1779 6.12317 0.491745 -0.870261 0.0181299
-6.95883 28.5079 6.65309 0.508155 -0.860966 0.0223091
-7.85572 27.9589 6.92301 0.541237 -0.840742 -0.000353345
-8.78856 27.3378 7.20155 0.568896 -0.822225 0.000892845
-9.64 26.7164 7.20628 0.612006 -0.790697 0.0155686
-10.7243 25.8705 7.09547 0.616831 -0.78709 0.00302485
-11.6854 25.091 6.77512 0.642969 -0.765766 0.0139296
-12.0764 24.7586 7.47831 0.683306 -0.730101 -0.00671292
-12.1957 24.6324 8.6142 0.73079 -0.682151 -0.0248318
-12.5063 24.209 9.71168 0.727548 -0.681858 -0.0757817
-13.128 23.392 10.5627 0.770182 -0.633545 -0.0737646
-13.8318 22.4915 10.8665 0.787312 -0.614631 -0.0461717
-14.5453 21.5687 10.6725 0.794819 -0.60609 -0.0286731
-15.2339 20.6801 10.0012 0.800702 -0.598346 -0.0290915
-15.8129 19.9299 9.37662 0.808924 -0.587845 -0.00898868
-16.3447 19.25 8.77327 0.790107 -0.612883 -0.0101983
-16.8454 18.6543 8.0328 0.764117 -0.643868 -0.0394812
-17.2373 18.2484 6.95295 0.762683 -0.646093 -0.0296475
-17.4561 18.0677 5.6297 0.748678 -0.661966 -0.033593
-17.6121 17.9548 4.36336 0.764563 -0.643461 -0.0365661
-17.6634 17.9482 3.18102 0.772014 -0.634835 -0.00458161
-17.5841 18.0745 2.08265 0.77921 -0.624639 -0.0515495
-17.3899 18.4072 1.07162 0.768613 -0.636201 -0.0669565
-16.8659 19.1416 0.151313 0.786508 -0.616082 -0.0429172
-16.303 19.9029 -0.416824 0.787899 -0.614338 -0.0424661
-16.3044 20.0049 -1.7135 0.783214 -0.62009 -0.0440768
-16.3591 20.0555 -3.00015 0.777173 -0.626042 -0.0634957
-16.3226 20.2141 -4.0452 0.773065 -0.630742 -0.0672936
-16.3357 20.3472 -5.37216 0.771748 -0.63165 -0.0736382
-16.3591 20.4424 -6.4203 0.771405 -0.631717 -0.0765789
-16.4007 20.5388 -7.60772 0.773215 -0.629167 -0.0792572
-16.3925 20.693 -8.70996 0.774153 -0.627637 -0.0822138
-16.2151 21.0656 -9.78336 0.77697 -0.623515 -0.086779
-15.943 21.5834 -11.0427 0.774826 -0.624544 -0.0976102
-15.8328 21.8042 -11.5366 0.775538 -0.622474 -0.105198
-15.2738 22.3747 -10.8468 0.752868 -0.648759 -0.11048
-14.9402 22.9293 -11.7614 0.752327 -0.647183 -0.123046
-14.4881 23.5754 -12.5769 0.734889 -0.669997 -0.105077
-13.9125 24.2761 -13.1864 0.722453 -0.682439 -0.110445
-13.2051 25.1096 -13.6471 0.715111 -0.686204 -0.133193
-12.4374 25.9095 -14.0099 0.660902 -0.740615 -0.121237
-11.5846 26.739 -14.5873 0.63238 -0.764051 -0.127759
-10.8546 27.3531 -15.1114 0.583662 -0.808327 -0.0771115
-10.0756 27.9689 -15.534 0.583241 -0.806299 -0.0985543
-9.16049 28.6036 -16.0169 0.498226 -0.863535 -0.0779642
-8.34771 29.1053 -16.4921 0.451511 -0.886142 -0.104354
-7.31277 29.6981 -17.3345 0.42313 -0.8995 -0.107572
-8.07276 29.4225 -18.279 0.474817 -0.877181 -0.0713861
-8.76031 29.0893 -19.4191 0.45486 -0.886928 -0.0795359
-10.026 28.3956 -19.517 0.547179 -0.82885 -0.100695
-11.2579 27.4988 -19.4093 0.587434 -0.807864 -0.047229
-12.4689 26.5963 -19.4031 0.610799 -0.790629 -0.0427858
-13.2847 25.9408 -19.4987 0.642984 -0.76564 -0.0191489
-14.1915 25.1007 -19.5149 0.726775 -0.686775 0.0117601
-14.8625 24.2604 -19.2666 0.768763 -0.639298 -0.0173821
-14.9638 23.9758 -18.0641 0.762169 -0.632519 -0.137903
-15.4066 23.2549 -17.1231 0.761442 -0.637877 -0.114638
-16.1984 22.1807 -16.8642 0.789835 -0.602891 -0.112292
-16.9302 21.1758 -16.9708 0.823379 -0.561964 -0.0790082
-17.5487 20.2767 -17.0245 0.82566 -0.560676 -0.0618378
-18.1454 19.4381 -17.3304 0.82655 -0.56052 -0.0513146
-18.6387 18.7965 -18.4683 0.821337 -0.569804 -0.0270042
-18.9392 18.3734 -19.391 0.822746 -0.566895 -0.0414569
-19.5887 17.5255 -19.4618 0.77972 -0.625994 -0.0129672
-20.3022 16.6353 -19.3873 0.782523 -0.622526 -0.00379481
-21.0193 15.7895 -19.4175 0.75646 -0.654024 -0.00464035
-21.7735 14.9501 -19.4641 0.72814 -0.685416 -0.00402578
-22.6713 14.0294 -19.4439 0.69567 -0.718344 0.00496527
-23.7651 12.9949 -19.4646 0.67448 -0.738279 0.00453743
-24.654 12.2066 -19.4417 0.647531 -0.762037 -0.00174294
-25.4753 11.534 -19.44 0.618002 -0.786176 0.000910565
-26.3056 10.8949 -19.3667 0.598819 -0.800859 -0.00290392
-27.2159 10.2253 -19.3251 0.588166 -0.808731 -0.00378214
-28.2962 9.46303 -19.2058 0.570973 -0.820951 -0.00541724
-29.3201 8.78549 -18.9827 0.549626 -0.835374 -0.00788583
-30.2026 8.22319 -18.9397 0.533353 -0.84588 -0.00466199
-31.1375 7.64783 -18.7171 0.508555 -0.861002 -0.00690551
-32.154 7.05483 -18.5757 0.49465 -0.869074 -0.00562432
-33.2671 6.43556 -18.5197 0.473743 -0.880657 0.00316647
-34.2403 5.91811 -18.554 0.46545 -0.885062 0.00469114
-35.2119 5.41705 -18.6558 0.452945 -0.891538 3.76994e-05
-36.3264 4.86335 -18.7722 0.435797 -0.900042 -0.00213252
-37.334 4.38485 -18.7982 0.419737 -0.907646 -0.000245436
-38.4943 3.85328 -18.6886 0.410483 -0.911862 0.00328346
-39.5632 3.38291 -18.7068 0.391967 -0.919976 0.00253264
-40.6933 2.90493 -18.7563 0.38713 -0.922025 0.000470729
-41.7268 2.48566 -18.6872 0.367929 -0.929853 -0.00116401
-42.9645 2.0131 -18.6397 0.351957 -0.936009 0.00280931
-44.0297 1.62118 -18.5187 0.336213 -0.941736 -0.00278618
-45.0921 1.25278 -18.4252 0.317073 -0.948336 -0.00248428
-46.1958 0.891933 -18.3125 0.30498 -0.952311 -0.00744073
-47.4348 0.50298 -17.8224 0.287351 -0.957733 -0.0132732
-47.6628 0.421754 -16.7481 0.287105 -0.957852 -0.00729455
-47.5745 0.440307 -15.6453 0.292312 -0.95626 -0.010942
-47.6576 0.40481 -14.5925 0.296996 -0.954853 -0.00704006
-47.5297 0.433942 -13.4668 0.292253 -0.956301 -0.00871469
-47.43 0.454844 -12.4083 0.296282 -0.955042 -0.0105868
-47.4187 0.444161 -11.3039 0.293779 -0.95577 -0.0135779
-47.3588 0.447357 -9.85008 0.285287 -0.958411 -0.00728943
-47.2712 0.459225 -8.50935 0.288697 -0.957332 -0.0130273
-47.2622 0.450812 -7.45378 0.290767 -0.956733 -0.0106804
-47.1897 0.457414 -6.15651 0.295431 -0.955317 -0.00936155
-47.0422 0.492717 -4.86722 0.290249 -0.956905 -0.0093566
-47.1071 0.464189 -3.66417 0.290197 -0.956947 -0.00614678
-47.0683 0.4626 -2.60903 0.292489 -0.956195 -0.0116865
-46.8491 0.513136 -1.30554 0.295293 -0.955323 -0.0126381
-46.94 0.468447 -0.233711 0.297224 -0.954683 -0.0154471
-46.8826 0.468255 0.946294 0.300947 -0.953598 -0.00910484
-46.802 0.475214 2.31362 0.303541 -0.952729 -0.0124535
-46.7757 0.473219 3.4623 0.295067 -0.95545 -0.00711872
-46.7215 0.478361 4.74235 0.290931 -0.956703 -0.00886761
-46.6423 0.489709 5.79709 0.310016 -0.9507 -0.00774645
-46.5402 0.511732 7.01157 0.307059 -0.951671 -0.00537208
-46.5591 0.500243 8.29535 0.305617 -0.952137 -0.0058007
-46.5922 0.493113 9.3995 0.299979 -0.953943 0.00243171
-46.6175 0.487882 10.6019 0.300125 -0.953899 0.00100337
-46.5536 0.504507 11.8765 0.297025 -0.954852 -0.00575922
-46.4763 0.521653 12.9797 0.295744 -0.955241 -0.00702504
-46.524 0.492662 14.0817 0.298638 -0.954279 -0.0129211
-46.4686 0.499227 15.13 0.299396 -0.9541 -0.00741599
-46.5625 0.461619 16.2099 0.29767 -0.954636 -0.00790683
-46.6067 0.442715 17.3837 0.294213 -0.955735 -0.00311706
-46.3639 0.518032 18.5441 0.299591 -0.954047 0.00280453
-45.3448 0.843909 18.9225 0.308178 -0.951309 -0.001716
-44.1546 1.24096 19.0814 0.320173 -0.947359 -0.000719186
-43.0245 1.63554 19.3064 0.335225 -0.942133 -0.00318417
-41.8995 2.04913 19.3586 0.355322 -0.934741 0.00225969
-40.8691 2.45009 19.4176 0.375871 -0.926666 -0.00336814
-39.5674 2.98548 19.4378 0.390739 -0.920468 -0.0078171
-38.2796 3.54347 19.3676 0.405943 -0.913881 -0.0056463
-37.2354 4.01175 19.3865 0.416199 -0.909242 -0.00760375
-36.2224 4.4866 19.5255 0.433265 -0.901244 -0.0064514
-35.235 4.96736 19.4912 0.440852 -0.897467 -0.0142696
-34.2754 5.44202 19.4985 0.446235 -0.894844 -0.0113307
-33.2627 5.95448 19.4922 0.46544 -0.884938 -0.0158311
-32.2052 6.51326 19.5516 0.471053 -0.881983 -0.0145867
-31.267 7.0195 19.571 0.48259 -0.875633 -0.0173686
-30.2586 7.59756 19.5058 0.499324 -0.866296 -0.0143531
-29.2066 8.21978 19.5778 0.517195 -0.855795 -0.0111633
-28.2176 8.82805 19.573 0.529252 -0.848315 -0.0159379
-27.1725 9.49254 19.5784 0.544334 -0.838733 -0.015096
-26.1461 10.1758 19.579 0.563039 -0.826257 -0.016907
-25.2173 10.8234 19.5885 0.584244 -0.811094 -0.0280109
-24.1729 11.5951 19.4638 0.602764 -0.797897 -0.00595556
-23.3118 12.2581 19.4714 0.618118 -0.785908 -0.0166597
-22.2065 13.1558 19.4435 0.634743 -0.772614 -0.0124476
-21.2264 14.017 19.4497 0.669947 -0.742358 0.0017935
-20.2107 14.9753 19.4649 0.688766 -0.724881 -0.011623
-19.2364 15.9355 19.4368 0.712601 -0.701242 -0.0132843
-18.2694 16.9692 19.4594 0.739779 -0.672658 -0.00616473
-17.4962 17.857 19.4088 0.759598 -0.650354 0.00709843
-16.8644 18.6381 19.161 0.783291 -0.621246 0.0140449
-16.623 18.9354 18.091 0.800207 -0.599669 0.00478019
-16.1899 19.4983 17.2224 0.798771 -0.601233 0.0220037
-15.4012 20.531 16.8316 0.79602 -0.604331 0.0337031
-14.7524 21.386 16.7602 0.786777 -0.613684 0.0661289
-13.9839 22.356 16.7963 0.758096 -0.646675 0.084273
-13.2772 23.2282 17.0387 0.716642 -0.689738 0.0932428
-12.7751 23.8119 17.8835 0.67847 -0.729071 0.0888538
-12.6357 24.0489 18.9029 0.675719 -0.733966 0.0673981
-12.0742 24.6003 19.4478 0.666202 -0.745592 0.0153839
-10.7852 25.5262 19.3646 0.549208 -0.834718 0.0233468
-9.59245 26.274 19.4106 0.534191 -0.845362 0.00165981
-8.42887 26.9737 19.3937 0.51244 -0.858574 -0.0159716
-7.45143 27.558 19.166 0.504764 -0.862906 -0.0246467
-7.08913 27.8259 18.1065 0.514264 -0.851535 -0.102081
-6.51175 28.3137 17.253 0.553188 -0.820988 -0.141286
-5.69224 29.0118 16.9629 0.648329 -0.753798 -0.107047
-4.8203 29.7459 16.8879 0.621337 -0.783032 -0.0282864
-3.84432 30.509 16.8752 0.562208 -0.807144 0.180114
-3.04004 31.0695 17.317 0.388038 -0.908801 0.153319
-2.60031 31.351 18.3064 0.272284 -0.956645 0.103397
-2.12135 31.4922 19.2676 0.188613 -0.980618 0.00138793
-1.05546 31.6389 19.3843 0.141655 -0.989779 0.00844794
0.526704 31.7309 19.5013 0.0372558 -0.999258 0.00976986
2.00655 31.6505 19.3293 -0.0737895 -0.997152 0.00940525
2.27144 31.654 18.1314 -0.0534829 -0.998238 -0.0208495
1.02068 31.7052 18.0155 -0.0423805 -0.999009 -0.0129971
-0.264744 31.6949 17.7796 0.0641513 -0.996221 -0.0251694
-1.37481 31.5733 17.2287 0.0330478 -0.995258 -0.038222
-2.14127 31.2981 16.5114 0.296533 -0.948716 0.100807
-2.79896 30.9144 15.6224 0.442966 -0.88891 0.116567
-3.23629 30.5996 14.3162 0.446482 -0.893553 0.0467473
-3.81131 30.2846 13.1143 0.441402 -0.897203 0.0138625
-4.0934 30.1367 12.0265 0.426947 -0.90424 0.00810711
-4.31806 30.0196 10.9003 0.43764 -0.899008 0.0159864
-4.44311 29.9393 9.6962 0.43811 -0.898829 0.0128379
-4.19741 30.0355 8.33289 0.447038 -0.894346 0.0173851
-3.81909 30.1914 7.20555 0.432161 -0.901248 0.0314352
-3.27839 30.3957 6.20775 0.376721 -0.925296 0.0436906
-2.72379 30.5524 4.96244 0.336458 -0.940345 0.0504742
-2.43962 30.5864 3.70245 0.282462 -0.956782 0.0691242
-2.10264 30.636 2.7033 0.295303 -0.955194 0.02004
-1.70911 30.7358 1.6095 0.276069 -0.960094 0.0216496
-1.77157 30.7102 1.2722 0.27607 -0.960094 0.0216494
-2.79317 30.3874 1.88475 0.334566 -0.941449 0.0293634
-3.75137 30.0597 2.87263 0.365841 -0.928218 0.0628702
-4.53156 29.7343 3.71843 0.450643 -0.89249 0.0193341
-5.33162 29.3712 4.53144 0.456796 -0.888205 0.0480944
-6.18748 28.9346 5.15247 0.50159 -0.864728 0.0207969
-7.02329 28.439 5.57466 0.520014 -0.853838 0.0202797
-7.95337 27.8848 5.82369 0.546182 -0.837124 0.0248356
-8.91407 27.232 6.18405 0.590685 -0.806731 0.01665
-10.0381 26.3986 6.20039 0.603483 -0.797368 0.00344327
-10.9358 25.7024 5.97376 0.622958 -0.78224 0.00493599
-11.7413 25.0374 5.65428 0.649458 -0.76039 0.00341238
-12.5956 24.2704 5.30608 0.695465 -0.718544 -0.00442906
-12.7541 24.1293 6.32821 0.692162 -0.720159 0.0477872
-12.7619 24.0857 7.63874 0.723782 -0.688516 -0.0415172
-12.8528 23.9078 8.71576 0.749041 -0.660004 -0.0577303
-13.2308 23.3867 9.54934 0.776278 -0.625307 -0.0799023
-13.9391 22.4391 9.85103 0.795417 -0.603125 -0.0595782
-14.5507 21.6328 9.54452 0.808512 -0.586333 -0.0499163
-15.1774 20.8116 8.88391 0.813202 -0.581059 -0.0320107
-15.7232 20.0828 8.34319 0.807553 -0.589171 -0.0271274
-16.2425 19.4226 7.69961 0.790549 -0.611662 -0.0299819
-16.6276 18.983 6.73681 0.767181 -0.640918 -0.025628
-16.7823 18.8643 5.66256 0.77335 -0.632478 -0.043474
-16.9523 18.7451 4.2705 0.776828 -0.628037 -0.0452044
-17.0529 18.6916 3.04429 0.787014 -0.615339 -0.0434044
-16.9714 18.8584 2.0067 0.796322 -0.603551 -0.0398337
-16.5975 19.425 1.00058 0.790263 -0.61112 -0.0449216
-15.9369 20.318 0.647426 0.799859 -0.599288 -0.032853
-15.4031 21.0216 0.445958 0.791842 -0.61044 -0.0164375
-15.5848 20.851 -0.96596 0.774169 -0.631676 -0.0401823
-15.613 20.8835 -2.07372 0.77502 -0.629879 -0.0495453
-15.6991 20.8931 -3.31137 0.77034 -0.635104 -0.0567312
-15.6608 21.0596 -4.43005 0.763663 -0.642086 -0.0673927
-15.6942 21.14 -5.48098 0.76672 -0.637645 -0.0743023
-15.708 21.2709 -6.74887 0.765215 -0.639264 -0.0760653
-15.6826 21.4407 -7.8357 0.767083 -0.635122 -0.0905679
-15.6302 21.6541 -8.90661 0.764914 -0.637867 -0.0896048
-15.476 21.9862 -9.90964 0.768857 -0.631576 -0.0998526
-15.3051 22.3175 -10.7134 0.754808 -0.648192 -0.100561
-14.6236 23.076 -10.4846 0.754986 -0.64793 -0.10091
-14.8128 22.6959 -9.45465 0.754595 -0.648482 -0.100289
-14.9444 22.3872 -8.38309 0.749826 -0.655432 -0.09039
-15.0197 22.1082 -7.01261 0.755131 -0.649615 -0.088193
-15.024 21.9495 -5.65882 0.751805 -0.655512 -0.0713758
-15.007 21.8295 -4.38254 0.755987 -0.65127 -0.0658068
-14.9751 21.7087 -2.79455 0.758281 -0.649394 -0.0574246
-14.8793 21.7506 -1.66865 0.764806 -0.643414 -0.0330021
-14.8357 21.7507 -0.464237 0.780224 -0.625403 -0.0110129
-14.6366 21.9713 0.711939 0.764367 -0.64478 0.0015049
-14.4446 22.2294 1.73133 0.770525 -0.636504 0.033974
-14.1026 22.6753 2.76715 0.764978 -0.642326 0.0456734
-13.6839 23.1945 3.3219 0.730996 -0.680607 0.0416325
-13.0441 23.8257 3.82738 0.680652 -0.732476 0.0138278
-12.2393 24.5825 4.28191 0.674834 -0.737923 0.00827316
-11.4573 25.2694 4.67438 0.638611 -0.769376 0.0105942
-10.4297 26.0924 5.08122 0.606432 -0.795089 0.00862997
-9.43492 26.8355 5.22375 0.587364 -0.809235 0.0119419
-8.29028 27.6303 5.04166 0.544939 -0.838302 0.0170577
-7.36687 28.2136 4.63291 0.52673 -0.849922 0.0137463
-6.27463 28.842 3.97411 0.481383 -0.875458 0.0398545
-5.39406 29.2825 3.29566 0.465698 -0.884405 0.0308753
-4.63908 29.6347 2.51269 0.416011 -0.908494 0.039675
-3.91902 29.9259 1.6173 0.395162 -0.91741 0.040862
-3.20231 30.1999 0.899241 0.384956 -0.922832 0.0137896
-2.08952 30.5893 0.22018 0.327762 -0.944724 0.0082421
-1.16915 30.8114 -0.564103 0.248126 -0.968645 0.0126566
-0.37584 30.9556 -1.51811 0.20605 -0.97834 0.0165953
0.36775 31.0712 -2.46073 0.159028 -0.986923 0.0263459
1.03812 31.1262 -3.2649 0.0936367 -0.994427 0.0484561
1.58881 31.1219 -4.20353 0.0330781 -0.994932 0.0743513
2.29517 31.0205 -5.19731 -0.0319766 -0.995929 0.0842771
2.79827 30.9527 -6.15475 -0.0843036 -0.995577 0.0414032
3.25154 30.8433 -7.11334 -0.130559 -0.988078 0.0815828
3.66574 30.679 -8.24612 -0.212918 -0.972807 0.0889701
3.75278 30.6038 -9.55859 -0.243321 -0.967842 0.0582386
3.50628 30.5606 -10.626 -0.236553 -0.96774 0.0856105
3.27101 30.5589 -11.8479 -0.251524 -0.967672 0.0185927
2.88178 30.5498 -12.9279 -0.19998 -0.972669 0.117996
2.32797 30.6863 -13.9043 -0.212879 -0.975529 0.0109892
1.70178 30.8691 -15.3371 -0.204936 -0.976979 -0.0592821
1.12358 31.0697 -16.2301 -0.154484 -0.981416 -0.100006
0.429733 31.1828 -17.0591 -0.00832322 -0.997156 -0.0729014
-0.579805 31.2292 -17.845 6.12538e-06 -0.997379 -0.0719502
-2.21443 31.0927 -17.8644 0.102633 -0.993166 -0.0555729
-3.24339 30.909 -17.6349 0.186683 -0.980536 -0.0607168
-4.26008 30.6668 -17.3105 0.261539 -0.959627 -0.100182
-5.26372 30.3806 -16.9391 0.260446 -0.962076 -0.0807683
-6.23175 30.019 -16.4735 0.310178 -0.946729 -0.0865612
-7.07872 29.6332 -15.932 0.373473 -0.923187 -0.0907925
-8.00505 29.1519 -15.4233 0.451338 -0.885681 -0.108914
-8.92685 28.5895 -14.9007 0.487338 -0.864327 -0.124255
-9.86885 27.9477 -14.4436 0.54724 -0.830726 -0.102091
-10.6419 27.3759 -14.0233 0.58419 -0.801379 -0.127925
-11.5374 26.5942 -13.4083 0.650533 -0.74737 -0.135073
-12.4187 25.7284 -12.8238 0.660571 -0.735878 -0.147164
-13.3446 24.7223 -12.3369 0.702638 -0.702209 -0.114898
-14.1614 23.7478 -11.5226 0.712948 -0.690658 -0.121228
-14.6008 23.1179 -10.5832 0.754986 -0.64793 -0.10091
-25.0845 11.3793 -2.74405 0.591966 -0.80569 -0.0192985
-24.2876 12.0152 -3.44713 0.609836 -0.791698 -0.0361951
-23.332 12.8177 -4.03075 0.642038 -0.766071 -0.0285984
-22.6819 13.4117 -4.58467 0.667269 -0.743728 -0.040266
-22.0946 13.9723 -5.21662 0.671056 -0.740487 -0.0369189
-21.3009 14.7544 -5.83879 0.695725 -0.715914 -0.0575474
-20.4107 15.6931 -6.20722 0.722438 -0.688023 -0.0686145
-19.6323 16.5673 -6.58116 0.74243 -0.666844 -0.0641616
-18.9591 17.3996 -7.22932 0.755184 -0.652006 -0.0676359
-18.46 18.0845 -8.23267 0.768177 -0.636262 -0.0711462
-18.0519 18.6881 -9.15796 0.776606 -0.625622 -0.0739725
-17.6728 19.2708 -10.0637 0.777628 -0.624075 -0.0763168
-17.6245 19.5262 -11.6433 0.786486 -0.613297 -0.0728072
-17.7767 19.4546 -12.6958 0.793276 -0.604002 -0.076772
-17.9735 19.3349 -13.8519 0.795033 -0.603089 -0.0640977
-18.3468 18.9366 -14.9467 0.809129 -0.584682 -0.0581843
-18.8754 18.2734 -15.6319 0.801808 -0.595552 -0.0485035
-19.6896 17.2684 -16.3231 0.781625 -0.622131 -0.0449002
-20.3596 16.478 -16.7984 0.766671 -0.640863 -0.038862
-20.9498 15.7926 -17.3006 0.760752 -0.64872 -0.0204712
-21.6647 15.0153 -17.4578 0.71787 -0.695776 -0.0236133
-22.3833 14.2913 -17.431 0.703004 -0.711098 -0.00953263
-23.4027 13.2984 -17.3493 0.685715 -0.727869 -0.00149187
-24.2081 12.5684 -17.1096 0.650145 -0.759791 -0.00532781
-25.0983 11.8167 -16.6665 0.618715 -0.785227 -0.0247154
-25.9619 11.1318 -16.0781 0.598034 -0.801316 -0.0152748
-26.8016 10.4964 -15.3276 0.593106 -0.804995 -0.0144216
-27.4546 9.99565 -14.4425 0.576352 -0.816822 -0.0193834
-28.4612 9.30166 -14.3089 0.556346 -0.830763 -0.00940327
-29.3283 8.74785 -15.0335 0.539631 -0.841847 -0.00921168
-30.0395 8.30643 -15.6452 0.530398 -0.847734 -0.00491734
-30.8792 7.78669 -16.075 0.516466 -0.856211 -1.04984e-05
-32.2889 6.97359 -16.3502 0.490703 -0.871315 -0.00256397
-33.53 6.28112 -15.8499 0.473991 -0.880489 -0.00844664
-34.3603 5.82876 -15.1476 0.463318 -0.886134 -0.0101747
-34.9457 5.51323 -14.3698 0.46252 -0.88653 -0.0118343
-35.4085 5.26553 -13.4457 0.454838 -0.890398 -0.0177338
-35.887 5.0075 -12.4572 0.451755 -0.892073 -0.0111131
-36.5199 4.68609 -11.1209 0.439936 -0.897976 -0.00952059
-36.8844 4.49085 -9.68761 0.4371 -0.899282 -0.0148822
-37.0097 4.40604 -8.43456 0.434239 -0.900638 -0.0169497
-36.8857 4.43712 -7.15751 0.440727 -0.897476 -0.0172136
-36.5519 4.58763 -6.19619 0.43704 -0.899387 -0.00995155
-36.0519 4.82345 -5.21966 0.44197 -0.897012 -0.00575973
-35.4246 5.12751 -4.46272 0.448039 -0.893956 -0.00731458
-34.6252 5.53383 -3.70982 0.462877 -0.886395 -0.00359354
-33.5739 6.08374 -2.8454 0.470781 -0.882216 -0.00640306
-32.5356 6.64043 -2.31541 0.479033 -0.877758 -0.00697783
-31.5016 7.21402 -1.935 0.487184 -0.873287 -0.00462761
-30.4481 7.82324 -1.73285 0.508633 -0.860934 -0.00539082
-29.2775 8.52939 -1.70433 0.524641 -0.851252 -0.011056
-28.3889 9.08779 -1.72739 0.540128 -0.841442 -0.0153949
-27.5097 9.66419 -1.77047 0.55331 -0.832672 -0.0224832
-26.6367 10.2577 -1.91382 0.565752 -0.824257 -0.0229024
-25.646 10.9628 -2.32914 0.584427 -0.811198 -0.0200137
-25.2774 11.2357 -2.58247 0.585456 -0.810429 -0.0211052
-25.8093 10.8756 -3.37407 0.580515 -0.813749 -0.0280764
-26.7088 10.2383 -2.99961 0.566544 -0.823744 -0.0217752
-27.6529 9.59834 -2.79777 0.550311 -0.834776 -0.0175111
-28.6188 8.96347 -2.73566 0.544622 -0.838469 -0.0189049
-29.4863 8.4144 -2.70428 0.524016 -0.851588 -0.0142004
-30.6298 7.72243 -2.77401 0.508632 -0.860935 -0.00539265
-31.6003 7.16531 -3.02523 0.493045 -0.869952 -0.00655547
-32.632 6.59671 -3.45761 0.480019 -0.877213 -0.00706316
-33.693 6.02978 -4.16252 0.474527 -0.880215 -0.00665466
-34.4607 5.62789 -4.88744 0.469364 -0.882939 -0.0106122
-35.1807 5.26238 -5.51811 0.454102 -0.8909 -0.00937404
-35.7334 4.99565 -6.54468 0.445145 -0.895312 -0.0162255
-36.0826 4.84269 -7.63991 0.444846 -0.895443 -0.017137
-36.0753 4.86826 -8.88398 0.441682 -0.897018 -0.0165917
-35.8161 5.01872 -10.2958 0.438713 -0.898546 -0.0120736
-35.4452 5.21494 -11.2559 0.451454 -0.892204 -0.0127218
-34.948 5.48646 -12.2608 0.45661 -0.889545 -0.0139021
-34.3587 5.80929 -13.516 0.467007 -0.884132 -0.014341
-33.6889 6.17895 -14.4632 0.471847 -0.881617 -0.0103548
-32.763 6.69425 -15.0765 0.490401 -0.871444 -0.00928482
-31.4955 7.42326 -15.2556 0.507774 -0.861471 -0.0056697
-30.4307 8.05535 -14.778 0.516385 -0.856355 -0.00192217
-29.642 8.53148 -14.0805 0.537689 -0.84287 -0.021469
-28.7766 9.07515 -13.3088 0.550691 -0.834428 -0.0216693
-27.7547 9.76267 -12.912 0.564608 -0.825235 -0.0141474
-27.0076 10.2933 -13.4884 0.586998 -0.809075 -0.0288188
-26.3015 10.8467 -14.5174 0.610006 -0.792257 -0.014929
-25.5095 11.4592 -15.2458 0.601744 -0.79863 -0.0094274
-24.5999 12.22 -15.8809 0.653694 -0.756741 -0.00519887
-23.6952 13.0267 -16.2146 0.68028 -0.732798 -0.00865171
-22.9579 13.7099 -16.419 0.683233 -0.729937 -0.017193
-21.8791 14.763 -16.4102 0.707876 -0.706011 -0.0174457
-21.0891 15.6051 -16.2227 0.737111 -0.675069 -0.0308078
-20.4877 16.2661 -15.7332 0.748744 -0.662295 -0.0270738
-19.6846 17.2087 -15.218 0.776996 -0.628866 -0.0283815
-19.1028 17.9183 -14.6956 0.790742 -0.610776 -0.0408555
-18.6317 18.4714 -13.9407 0.788253 -0.613465 -0.0480711
-18.3912 18.6805 -12.8979 0.789391 -0.6101 -0.0681178
-18.273 18.6947 -11.6376 0.783945 -0.617572 -0.0635244
-18.2999 18.5369 -10.4889 0.778919 -0.623081 -0.0710634
-18.6693 17.9832 -9.58596 0.768001 -0.636782 -0.0684367
-19.081 17.4032 -8.72036 0.756965 -0.650189 -0.0652585
-19.6185 16.6963 -7.75185 0.738029 -0.672025 -0.0605847
-20.3998 15.8031 -7.28968 0.728073 -0.682149 -0.0668354
-21.199 14.9491 -6.92647 0.705923 -0.705533 -0.0620021
-22.033 14.1113 -6.54305 0.67355 -0.737062 -0.0554127
-22.8777 13.299 -5.76708 0.664362 -0.745866 -0.0479957
-23.4818 12.7441 -5.09429 0.64453 -0.762947 -0.0499405
-24.1966 12.1416 -4.65134 0.615375 -0.787232 -0.0391741
-25.0245 11.4821 -4.09688 0.598258 -0.800705 -0.0295382
-25.464 11.1336 -3.65466 0.590584 -0.80626 -0.0325246
-25.9331 10.8204 -4.51281 0.583195 -0.812014 -0.0210244
-26.8096 10.1991 -4.0946 0.562044 -0.826884 -0.019221
-27.8452 9.49332 -3.83599 0.547585 -0.836519 -0.01931
-28.9387 8.77874 -3.6834 0.537746 -0.842717 -0.0240566
-29.8591 8.20442 -3.71723 0.520284 -0.853848 -0.015455
-30.8494 7.60304 -3.82409 0.509276 -0.860456 -0.00910429
-31.8406 7.04597 -4.2185 0.488696 -0.872355 -0.0126611
-32.8531 6.48695 -4.77385 0.4812 -0.876541 -0.00781376
-33.7112 6.03378 -5.46014 0.471987 -0.881562 -0.00882019
-34.4608 5.64296 -6.07253 0.467395 -0.883996 -0.00959506
-35.0008 5.37662 -7.06194 0.461161 -0.887235 -0.0113207
-35.1771 5.30684 -8.68675 0.442035 -0.896866 -0.0152975
-34.9901 5.4253 -9.96229 0.444303 -0.89576 -0.0136849
-34.5915 5.64358 -10.9239 0.461604 -0.886986 -0.0133202
-34.0593 5.9459 -11.9179 0.467554 -0.883844 -0.0141453
-33.6251 6.18614 -12.849 0.465485 -0.884981 -0.0115182
-33.0399 6.52213 -13.7361 0.483876 -0.875029 -0.0137498
-32.0914 7.06354 -14.1841 0.501122 -0.86528 -0.0129573
-31.1978 7.5864 -14.1409 0.510151 -0.859926 -0.0156839
-30.3499 8.08515 -13.5245 0.521628 -0.853046 -0.0130676
-29.5893 8.54062 -12.7572 0.533233 -0.845803 -0.0142208
-28.8031 9.03148 -12.2471 0.558364 -0.829432 -0.0165182
-27.891 9.63721 -11.6917 0.570209 -0.821214 -0.0208311
-26.8626 10.3699 -12.0869 0.577314 -0.816397 -0.0142858
-26.3035 10.8063 -12.9993 0.602594 -0.797871 -0.0163882
-25.6319 11.3483 -13.9291 0.614747 -0.7884 -0.0211779
-24.7397 12.0891 -14.7687 0.628208 -0.777751 -0.0214086
-23.885 12.8252 -15.0546 0.662493 -0.74876 -0.0128147
-23.155 13.4985 -15.3157 0.678537 -0.733998 -0.0264859
-22.3417 14.2745 -15.3545 0.68924 -0.723818 -0.0321893
-21.3048 15.3316 -15.2816 0.715837 -0.697534 -0.0319775
-20.5176 16.1839 -14.6838 0.748629 -0.662179 -0.03267
-19.7477 17.0693 -14.0821 0.774512 -0.631395 -0.0383696
-19.1334 17.8029 -13.6444 0.790276 -0.611109 -0.0447858
-18.9459 17.9286 -12.4961 0.784422 -0.616989 -0.0633068
-18.9019 17.8675 -11.2909 0.772744 -0.632223 -0.0562156
-19.1907 17.4211 -10.2924 0.76475 -0.641627 -0.057143
-19.6108 16.854 -9.40181 0.749269 -0.659451 -0.0594122
-20.115 16.2225 -8.54502 0.73803 -0.672024 -0.0605855
-21.0072 15.2297 -8.07838 0.722263 -0.689452 -0.0539635
-21.7176 14.4896 -7.79692 0.693791 -0.718389 -0.0463812
-22.4841 13.7565 -7.39109 0.672465 -0.738572 -0.0479781
-23.2302 13.0521 -6.77888 0.663206 -0.747054 -0.0453474
-23.8427 12.4997 -6.08464 0.627871 -0.777181 -0.0420455
-24.6256 11.8502 -5.53822 0.621439 -0.782698 -0.0346021
-25.4196 11.2117 -5.02826 0.60047 -0.798917 -0.0309792
-25.8354 10.8947 -4.61089 0.589213 -0.807579 -0.0253662
9.58452 30.3144 18.3412 -0.486521 -0.870061 0.0790194
10.5582 29.6756 18.4633 -0.5637 -0.825255 0.021387
11.4393 29.0735 18.5319 -0.584276 -0.808824 0.0665224
12.3185 28.3576 18.5433 -0.662779 -0.746766 0.0430541
13.149 27.5654 18.4664 -0.702996 -0.709272 0.0468805
14.0872 26.5854 18.3752 -0.715631 -0.697643 0.0202545
14.8337 25.7518 18.476 -0.753798 -0.65595 0.0389612
15.5496 24.9057 18.1016 -0.784783 -0.619485 0.0187953
15.8266 24.4887 17.2604 -0.799142 -0.597197 0.0683127
16.2924 23.7488 16.3336 -0.812452 -0.580384 0.0554638
16.9981 22.704 15.8494 -0.815693 -0.575271 0.0608878
17.6014 21.84 15.8662 -0.816957 -0.573927 0.05619
18.4507 20.6341 15.8402 -0.813473 -0.579595 0.0478594
19.1444 19.6866 16.0415 -0.808205 -0.587817 0.0355747
19.76 18.9038 16.619 -0.794902 -0.606207 0.0245994
20.1563 18.4035 17.4776 -0.795885 -0.605357 0.0102127
20.8796 17.5413 18.3232 -0.769758 -0.637629 0.0300122
21.5018 16.8032 18.4251 -0.751673 -0.659293 0.0179072
22.3747 15.8102 18.486 -0.742195 -0.669915 0.00810205
23.1977 14.9735 18.3931 -0.712554 -0.701558 -0.0090484
24.1854 14.0094 18.5511 -0.70073 -0.713313 0.00152657
24.9924 13.2551 18.5481 -0.682339 -0.730886 -0.0148333
25.8421 12.539 18.5161 -0.644296 -0.764659 -0.0115657
26.9698 11.6152 18.4902 -0.630118 -0.776458 -0.00799933
28.0011 10.8212 18.552 -0.598763 -0.800892 -0.00742029
29.0022 10.1029 18.5452 -0.574336 -0.818512 -0.0132869
29.9058 9.48425 18.5344 -0.55772 -0.829909 -0.0141376
31.0573 8.72251 18.5978 -0.54407 -0.838999 -0.00828096
32.1545 8.02907 18.6198 -0.519956 -0.854144 -0.00910459
33.062 7.48475 18.6176 -0.506717 -0.86205 -0.0103738
34.1157 6.87235 18.6669 -0.495241 -0.868709 -0.00574276
35.0595 6.36741 18.6299 -0.464917 -0.885252 -0.0132758
36.0657 5.84625 18.6224 -0.450872 -0.892539 -0.00943393
37.0357 5.36486 18.6486 -0.433875 -0.900924 -0.00937159
37.922 4.94351 18.5984 -0.426513 -0.904422 -0.0103987
38.9465 4.47418 18.506 -0.411222 -0.911535 6.13225e-05
39.898 4.05287 18.374 -0.397167 -0.917744 -0.00207644
40.8783 3.63102 18.3075 -0.38697 -0.922075 -0.00574447
41.8328 3.23169 18.2891 -0.379731 -0.925091 -0.00153676
42.8378 2.83646 18.2884 -0.350604 -0.936503 0.00621133
43.9267 2.43178 18.2521 -0.339505 -0.940594 0.00444412
44.8728 2.09809 18.2124 -0.326027 -0.94536 -0.00104345
45.9733 1.73237 18.2259 -0.309029 -0.951044 -0.00177296
46.9695 1.42161 18.2387 -0.293663 -0.955889 0.00595567
48.0254 1.10299 18.1442 -0.277801 -0.960577 0.00762642
49.1657 0.783374 18.1755 -0.262251 -0.964968 0.00334775
49.7164 0.63369 17.6009 -0.257722 -0.966143 0.0121396
49.6038 0.646416 16.141 -0.265375 -0.964078 0.0114174
49.5897 0.639747 15.113 -0.257678 -0.966182 0.00490332
49.5695 0.64239 13.983 -0.255819 -0.966725 -0.000615547
49.4961 0.657901 12.921 -0.256903 -0.96641 0.00725841
49.4666 0.653637 11.8221 -0.262222 -0.964876 0.0159489
49.4275 0.646004 10.6871 -0.258533 -0.965872 0.0158529
49.3305 0.655214 9.44252 -0.267418 -0.963552 0.00736182
49.2236 0.673624 8.41338 -0.267407 -0.963483 0.0139125
49.1253 0.684075 7.36979 -0.264641 -0.964215 0.0159802
49.0055 0.695065 6.02989 -0.265641 -0.96395 0.0153133
48.1649 0.927962 5.44557 -0.278278 -0.960464 0.0083963
47.1536 1.23446 5.12762 -0.302739 -0.952968 0.014185
46.1851 1.54025 4.75164 -0.314567 -0.949033 0.018583
45.3241 1.81758 4.32476 -0.322994 -0.946164 0.021051
44.4708 2.1122 3.93119 -0.342542 -0.939331 0.0176709
43.5187 2.45444 3.48934 -0.35092 -0.93622 0.018291
42.6628 2.78074 2.99419 -0.366454 -0.930186 0.0212401
41.8302 3.10177 2.47702 -0.377572 -0.92567 0.0239246
40.9147 3.47135 1.87186 -0.392701 -0.919474 0.0181603
40.1325 3.80265 1.28552 -0.409185 -0.912318 0.0151111
39.1584 4.23917 0.733582 -0.421103 -0.906916 0.0111088
38.2221 4.67873 0.0134809 -0.441878 -0.896664 0.0239756
37.3862 5.06279 -0.777079 -0.445986 -0.894382 0.0343116
36.6903 5.39658 -1.41383 -0.460484 -0.887021 0.0338738
35.8737 5.7878 -2.39765 -0.470698 -0.881599 0.0349902
35.1334 6.15012 -3.32366 -0.476587 -0.87849 0.0334742
34.6049 6.39583 -4.35749 -0.480424 -0.876248 0.0371669
34.3121 6.51898 -5.3151 -0.487433 -0.872556 0.0324776
34.1158 6.58988 -6.29504 -0.486318 -0.873045 0.0358721
33.9795 6.61992 -7.35659 -0.487013 -0.872511 0.0392344
33.8153 6.66626 -8.38291 -0.488272 -0.871891 0.0373487
33.7288 6.67084 -9.48369 -0.480133 -0.876399 0.0370465
33.7564 6.60727 -10.5349 -0.494 -0.868655 0.0374461
33.7888 6.54716 -11.5304 -0.492338 -0.869633 0.0366174
34.0911 6.34271 -12.5402 -0.483003 -0.875185 0.0275366
34.691 5.98723 -13.4982 -0.465002 -0.884973 0.0244192
35.631 5.47065 -14.1566 -0.462159 -0.886082 0.0347132
36.6382 4.94125 -14.5253 -0.453902 -0.890459 0.0324187
37.7697 4.37943 -15.0394 -0.431117 -0.901806 0.0294669
38.8156 3.872 -15.7243 -0.414775 -0.909545 0.0252375
39.7287 3.44075 -16.3144 -0.408774 -0.911825 0.0384513
40.6339 3.03079 -16.7854 -0.401439 -0.91562 0.0212624
41.4653 2.67312 -17.2125 -0.377547 -0.925756 0.0207914
42.3635 2.30126 -17.5865 -0.360867 -0.932337 0.0217513
43.4958 1.87 -18.0376 -0.339667 -0.940333 0.0199969
43.1032 2.01009 -18.1606 -0.350535 -0.936425 0.010833
41.9827 2.44296 -18.103 -0.371791 -0.928214 0.00907805
41.0333 2.83422 -18.1672 -0.386623 -0.92216 0.0119852
39.8935 3.31599 -18.2722 -0.402201 -0.915386 0.0160141
38.7823 3.81415 -18.3155 -0.420074 -0.907306 0.0170679
37.703 4.31983 -18.3638 -0.430101 -0.902405 0.0247247
36.5768 4.86963 -18.4193 -0.449687 -0.892954 0.0203231
35.6556 5.33411 -18.4433 -0.454444 -0.890576 0.0181201
34.4454 5.97791 -18.4481 -0.471644 -0.881496 0.0227516
33.452 6.52402 -18.4608 -0.488662 -0.872264 0.0174738
32.5076 7.05875 -18.5064 -0.495985 -0.867875 0.0277592
31.5971 7.59602 -18.4882 -0.509152 -0.860193 0.0286808
30.3431 8.35073 -18.4989 -0.517283 -0.855462 0.0245496
29.3705 8.9562 -18.5384 -0.538592 -0.841955 0.0305682
28.5369 9.51769 -18.4948 -0.565277 -0.824015 0.037379
27.65 10.1418 -18.4499 -0.57666 -0.816084 0.0383385
26.7753 10.7664 -18.4461 -0.5912 -0.805354 0.0434476
25.7014 11.5599 -18.3676 -0.599621 -0.79917 0.0413284
24.5986 12.3951 -18.5439 -0.618738 -0.784359 0.041969
23.7108 13.1188 -18.4664 -0.630399 -0.775132 0.0419428
22.9526 13.77 -18.4039 -0.651004 -0.75754 0.0482428
22.169 14.4428 -18.4043 -0.653915 -0.7555 0.0401874
21.2731 15.2436 -18.45 -0.682259 -0.729353 0.0504031
20.4977 15.9887 -18.4022 -0.696448 -0.715933 0.0489813
19.7053 16.7729 -18.4424 -0.705559 -0.704412 0.0774025
19.016 17.4704 -18.4395 -0.712672 -0.692995 0.10774
18.3462 18.1971 -18.1861 -0.724152 -0.681453 0.104395
18.0119 18.735 -17.2012 -0.746902 -0.656407 0.106141
17.5148 19.4367 -16.428 -0.758451 -0.643051 0.105762
16.918 20.2351 -16.0052 -0.771182 -0.628339 0.102047
16.0476 21.319 -15.9606 -0.779223 -0.620642 0.0862003
15.2962 22.2425 -15.9349 -0.766497 -0.639717 0.05696
14.6148 23.0057 -16.0569 -0.741703 -0.668588 0.0533989
13.9108 23.7286 -16.5219 -0.703315 -0.709628 0.0382341
13.3534 24.2404 -17.2627 -0.693119 -0.720697 0.0111146
12.8408 24.6513 -18.2579 -0.618227 -0.785508 0.0278038
12.019 25.261 -18.5358 -0.595819 -0.80224 0.0374838
11.1965 25.8172 -18.5399 -0.531003 -0.846145 0.0329336
10.1505 26.4433 -18.5397 -0.502606 -0.861931 0.0640384
9.02697 27.0398 -18.5091 -0.454413 -0.886738 0.0848772
8.05196 27.5446 -18.3927 -0.435786 -0.894863 0.0964904
7.46519 27.9491 -17.5282 -0.454142 -0.880061 0.138738
6.76542 28.4637 -16.623 -0.477382 -0.864279 0.158154
5.81994 29.0711 -16.1617 -0.467162 -0.873259 0.138486
5.00269 29.5673 -15.9769 -0.473336 -0.877373 0.0785462
3.78554 30.2087 -15.6645 -0.404701 -0.913934 -0.0150547
4.2248 30.0504 -14.6076 -0.378789 -0.924886 0.0332385
4.65785 29.9446 -13.6992 -0.397526 -0.912688 0.0947258
4.97501 29.9229 -12.7145 -0.394573 -0.910444 0.124109
5.31902 29.9002 -11.6745 -0.39075 -0.915454 0.0962164
5.54944 29.9317 -10.5412 -0.380555 -0.918707 0.105622
5.69265 30.0243 -9.37572 -0.326795 -0.937795 0.116403
5.68721 30.1693 -8.13988 -0.280063 -0.952555 0.119182
5.48179 30.356 -6.96006 -0.260374 -0.960731 0.0951973
6.50817 30.0246 -7.15196 -0.321399 -0.939874 0.115498
7.57735 29.5868 -7.27885 -0.415016 -0.901942 0.119428
8.60854 29.0758 -7.32195 -0.458962 -0.877845 0.136904
9.5757 28.5283 -7.24007 -0.523232 -0.840096 0.143061
10.4169 27.991 -7.05937 -0.558345 -0.819633 0.128263
11.306 27.4032 -6.77789 -0.603373 -0.78534 0.134642
12.0798 26.824 -6.44423 -0.628749 -0.766519 0.130822
12.8253 26.2341 -5.93702 -0.666759 -0.7382 0.102435
13.5991 25.6175 -5.17037 -0.703734 -0.703527 0.0990407
14.1972 25.1341 -4.16355 -0.721146 -0.688439 0.0774547
14.6867 24.7273 -2.87872 -0.749774 -0.659487 0.0539651
15.0541 24.3824 -1.76601 -0.775174 -0.631125 0.0272826
15.6116 23.7086 -1.43282 -0.788674 -0.614242 0.00768247
16.1291 23.0206 -1.90199 -0.807163 -0.590155 -0.00967026
16.6455 22.2533 -2.40875 -0.8284 -0.559326 0.0301358
17.1781 21.4595 -2.88861 -0.821372 -0.570057 0.0189331
17.7396 20.6527 -3.17433 -0.816901 -0.576738 0.00471273
18.4045 19.721 -3.12353 -0.812068 -0.58345 -0.0105363
18.951 18.9904 -2.6907 -0.782757 -0.621951 -0.0137948
19.4436 18.3656 -1.74905 -0.762263 -0.646912 -0.0210939
19.6174 18.1114 -0.638973 -0.767074 -0.640516 -0.0365654
19.6545 18.0148 0.354846 -0.767921 -0.640178 -0.0129595
19.6981 18.0195 1.54808 -0.745829 -0.665654 0.0253915
19.71 18.0641 2.80332 -0.74508 -0.665955 0.0368859
19.6252 18.2093 3.80478 -0.743426 -0.668333 0.025007
19.3175 18.5938 4.74836 -0.761809 -0.64569 0.0522638
18.908 19.1556 5.62814 -0.781769 -0.621411 0.0518224
18.3267 19.9296 6.18728 -0.77984 -0.624264 0.0463082
17.7713 20.666 6.71829 -0.780745 -0.623863 0.0300789
17.2371 21.4128 7.17725 -0.821604 -0.568415 0.043253
16.6899 22.249 7.53856 -0.825638 -0.561926 0.0506064
16.1333 23.0892 7.64779 -0.829783 -0.556621 0.0390545
15.5451 23.9342 7.31236 -0.828094 -0.559783 0.0300564
15.1059 24.5539 7.24709 -0.813136 -0.581417 0.0276646
14.8651 24.952 8.48797 -0.810899 -0.584264 0.0328468
14.654 25.2767 9.38222 -0.792761 -0.608576 0.0341341
14.3495 25.7286 10.338 -0.772114 -0.633834 0.0457736
14.026 26.1931 11.1848 -0.76505 -0.641517 0.0561714
13.5196 26.8574 12.0913 -0.742573 -0.668745 0.0369521
12.8833 27.5677 12.9445 -0.692067 -0.720884 0.0370127
12.2929 28.155 13.5999 -0.680861 -0.731908 0.0271837
11.6354 28.7299 14.172 -0.60405 -0.79681 0.0147467
10.9032 29.2626 14.7298 -0.564631 -0.821045 0.0841217
10.1209 29.8045 15.3356 -0.505723 -0.861313 0.0488297
9.23125 30.2793 15.8014 -0.416473 -0.908238 0.0376999
8.64148 30.5814 16.8036 -0.324141 -0.94321 0.0606664
9.18165 30.4589 17.7885 -0.403699 -0.905962 0.123577
9.34276 30.4276 18.1108 -0.459927 -0.880648 0.107273
8.47188 30.8115 18.4387 -0.315386 -0.9458 0.0704378
7.99024 30.8676 17.4912 -0.307722 -0.947076 0.0914001
7.19529 31.0386 16.9975 -0.198665 -0.979937 0.0160184
5.91015 31.2852 16.9622 -0.182905 -0.982565 0.0312437
6.8269 31.0974 16.135 -0.19958 -0.979566 0.000912968
8.05573 30.7538 15.3751 -0.305925 -0.951505 0.00855775
9.14932 30.2875 14.7341 -0.397266 -0.91692 0.0349003
10.0666 29.7709 14.1285 -0.492075 -0.869983 0.0297279
11.0237 29.1792 13.4753 -0.532017 -0.845965 0.0150699
11.857 28.4984 12.7395 -0.619625 -0.780254 0.0852559
12.4159 27.9765 12.1392 -0.693 -0.720172 0.0332112
13.0302 27.3326 11.3449 -0.716848 -0.694246 0.0609772
13.4833 26.7581 10.5399 -0.747341 -0.663055 0.0428928
13.8143 26.3156 9.62965 -0.765101 -0.642706 0.0348413
14.171 25.8692 8.68305 -0.763733 -0.644935 0.0263659
14.3631 25.5578 7.51045 -0.773415 -0.633236 0.028136
14.5696 25.2492 6.40774 -0.805006 -0.592601 0.0277281
14.7365 24.982 5.082 -0.799378 -0.600627 0.00479825
14.8636 24.8384 4.09779 -0.796477 -0.603893 -0.0306432
14.9503 24.7111 3.06879 -0.802538 -0.596527 -0.00394357
15.1182 24.4522 2.12562 -0.794395 -0.606382 0.0299439
15.051 24.4993 0.963019 -0.774236 -0.631926 0.0350399
14.8171 24.7422 -0.0396706 -0.786214 -0.616286 0.0406499
14.543 25.0447 -0.972016 -0.759285 -0.648589 0.0414291
14.1027 25.4227 -2.33202 -0.740548 -0.670415 0.0461706
13.6721 25.754 -3.49046 -0.716331 -0.69417 0.070699
13.0729 26.2013 -4.47934 -0.676858 -0.728481 0.105729
12.1383 26.9453 -5.2444 -0.660098 -0.744356 0.101018
11.3463 27.5395 -5.76478 -0.609953 -0.782202 0.126953
10.5397 28.1092 -6.02863 -0.565383 -0.808514 0.161212
9.591 28.6794 -6.28155 -0.499472 -0.855832 0.130395
8.63595 29.1971 -6.32933 -0.479829 -0.869562 0.11673
7.39279 29.7962 -6.27846 -0.383444 -0.917751 0.0971605
6.29342 30.234 -6.04612 -0.337214 -0.9358 0.100347
5.24958 30.5581 -5.72107 -0.256863 -0.959765 0.113455
4.02299 30.8866 -5.12913 -0.191624 -0.977895 0.0836808
3.94143 30.8914 -5.20186 -0.102492 -0.99104 0.0856401
3.96564 30.8125 -6.17414 -0.19872 -0.976567 0.0718319
4.36522 30.6321 -7.18469 -0.24122 -0.966929 0.0828285
4.69681 30.4439 -8.47434 -0.256531 -0.962054 0.077141
4.70655 30.3235 -9.6914 -0.329705 -0.939364 0.094283
4.53111 30.2674 -10.8457 -0.321329 -0.941585 0.100827
4.26648 30.2608 -11.9415 -0.332235 -0.941917 0.0491182
3.93328 30.2912 -12.9135 -0.313666 -0.940503 0.130644
3.543 30.3434 -13.8252 -0.327662 -0.943282 0.0209791
2.89692 30.5405 -15.0681 -0.29522 -0.954481 -0.0425533
2.4722 30.7523 -16.1942 -0.277977 -0.952844 -0.121723
1.89606 31.0085 -16.9418 -0.269445 -0.953956 -0.130994
1.1993 31.1594 -17.6938 -0.113533 -0.990929 -0.0719007
0.230996 31.27 -18.4093 3.38341e-06 -0.997379 -0.0719502
-0.887926 31.3169 -18.9451 0.056108 -0.993644 -0.0765097
-1.93605 31.1879 -18.9902 0.127562 -0.990406 -0.0531476
-1.83129 31.2302 -19.527 0.134474 -0.988319 -0.0694606
-0.874492 31.3504 -19.3318 0.064947 -0.990902 -0.0895289
0.0786991 31.348 -19.3781 -0.00349357 -0.996762 -0.0803369
1.12258 31.2934 -19.5533 -0.0948839 -0.992653 -0.0750756
2.00058 31.1653 -19.0534 -0.13221 -0.988366 -0.075193
2.25534 31.0265 -18.0588 -0.177127 -0.976956 -0.119092
3.03736 30.6793 -17.1282 -0.417003 -0.897944 -0.137336
3.87162 30.225 -16.8532 -0.478649 -0.873241 -0.0107101
4.85772 29.568 -16.9507 -0.595458 -0.799301 0.0453779
5.81954 28.8753 -17.1536 -0.514536 -0.831602 0.202481
6.52558 28.3631 -17.7261 -0.42851 -0.885886 0.176086
6.92036 28.0489 -18.6248 -0.393513 -0.914653 0.0925042
7.44241 27.7449 -19.3898 -0.407858 -0.910632 0.0663446
8.70282 27.1361 -19.5346 -0.428039 -0.901682 0.0612578
10.1534 26.3883 -19.5587 -0.482513 -0.874658 0.0359481
11.2498 25.7434 -19.52 -0.506057 -0.861852 0.0331092
12.1268 25.1681 -19.5407 -0.562961 -0.826108 0.0151784
13.0695 24.4184 -19.4266 -0.646381 -0.762283 0.0297108
13.5938 23.9829 -18.6523 -0.681986 -0.731217 0.0144567
13.9642 23.6418 -17.6654 -0.696646 -0.717389 0.00610154
14.543 23.0087 -17.1256 -0.748524 -0.662687 -0.0236208
15.3778 22.0331 -16.939 -0.782946 -0.617947 0.0716717
16.0493 21.1723 -16.936 -0.790248 -0.608065 0.075925
16.7777 20.2365 -17.0097 -0.774688 -0.61976 0.125524
17.4063 19.3438 -17.694 -0.748826 -0.653066 0.112688
17.6344 18.9376 -18.5971 -0.758503 -0.645703 0.0847222
17.9214 18.5466 -19.3553 -0.754159 -0.656106 0.0277425
18.5806 17.8068 -19.4464 -0.725101 -0.68749 0.0223514
19.6771 16.6986 -19.5014 -0.707978 -0.703145 0.0659422
20.4412 15.9692 -19.4263 -0.691247 -0.720451 0.0559183
21.4213 15.0412 -19.5003 -0.678542 -0.733526 0.0384096
22.2277 14.3277 -19.4036 -0.652326 -0.756221 0.0508285
23.0155 13.6498 -19.4511 -0.64646 -0.761708 0.0427512
24.1838 12.6772 -19.5817 -0.625696 -0.77919 0.0364611
25.1722 11.9066 -19.5012 -0.609514 -0.792048 0.033951
26.0086 11.2776 -19.4565 -0.590632 -0.806137 0.0354242
26.8466 10.6709 -19.4595 -0.58013 -0.81406 0.0274533
28.0038 9.85435 -19.454 -0.571613 -0.820165 0.0242281
29.0396 9.14822 -19.5416 -0.550103 -0.835015 0.0116561
29.8553 8.62254 -19.5618 -0.534849 -0.844909 0.00810053
30.9842 7.93342 -19.5443 -0.517809 -0.85519 0.0228418
31.8538 7.40605 -19.5177 -0.515924 -0.856392 0.0198542
32.8824 6.81231 -19.5156 -0.495985 -0.867875 0.0277587
33.8954 6.24651 -19.4814 -0.48606 -0.873479 0.027828
35.0128 5.6483 -19.4576 -0.471643 -0.881496 0.0227513
36.1161 5.07764 -19.4761 -0.45507 -0.890156 0.0225971
37.2562 4.50591 -19.4111 -0.439764 -0.897871 0.0175736
38.3916 3.97563 -19.3332 -0.417626 -0.908432 0.0173163
39.344 3.54291 -19.3063 -0.410779 -0.911654 0.0112252
40.3598 3.10063 -19.2206 -0.395321 -0.918429 0.0143285
41.3803 2.67344 -19.1298 -0.383261 -0.923457 0.0182642
42.2953 2.31306 -19.1899 -0.364833 -0.931013 0.0105446
43.3841 1.89369 -19.159 -0.350903 -0.936339 0.00950133
44.4059 1.526 -19.0787 -0.326321 -0.945218 0.00879411
45.522 1.15855 -18.8941 -0.309448 -0.950844 0.01175
46.5709 0.820424 -18.7435 -0.303869 -0.952605 0.0133298
47.5006 0.534109 -18.4314 -0.299152 -0.954069 0.0161331
47.2681 0.622025 -17.5144 -0.297231 -0.954706 0.0137032
46.2292 0.950045 -17.348 -0.304343 -0.952422 0.0153475
45.2933 1.25742 -17.2104 -0.319951 -0.947177 0.0195565
44.3689 1.5802 -17.1743 -0.331897 -0.943137 0.0178665
43.1897 2.00827 -16.8501 -0.341042 -0.939766 0.0230126
42.2268 2.39038 -16.4323 -0.364325 -0.93075 0.0311845
41.3085 2.77147 -15.969 -0.383252 -0.92284 0.0366609
40.2969 3.21943 -15.4822 -0.396318 -0.917691 0.0272114
39.4331 3.61653 -14.9088 -0.404732 -0.914033 0.0266404
38.431 4.0955 -14.231 -0.421346 -0.906482 0.0275215
37.5039 4.543 -13.7932 -0.432266 -0.900993 0.0352945
