39.3154 4.63716 6.73821 -0.42031 -0.907369 0.00450156
38.2777 5.13601 8.03337 -0.434319 -0.900757 0.00207382
37.539 5.49925 8.96692 -0.440163 -0.897914 0.00264441
36.7074 5.92327 10.0444 -0.461983 -0.886856 0.00759341
35.8086 6.39816 11.2263 -0.468811 -0.883298 0.000552422
34.9664 6.85491 12.3564 -0.486796 -0.873512 -0.00259435
34.2583 7.24308 13.3176 -0.482125 -0.876071 -0.00747538
33.5985 7.6111 14.2269 -0.496233 -0.868143 -0.00894365
32.8805 8.01338 15.2324 -0.509026 -0.8606 -0.0161373
32.0721 8.47966 16.3782 -0.514176 -0.857671 -0.00483473
31.3255 8.94694 17.467 -0.544753 -0.838572 -0.00650808
30.9361 9.19486 18.0407 -0.554423 -0.832215 -0.00578942
30.06 9.78453 17.9482 -0.563342 -0.826056 -0.016638
30.6582 9.39054 17.0199 -0.559955 -0.828475 -0.00890377
31.2519 9.00666 16.1296 -0.545771 -0.837904 -0.00711466
31.9371 8.5791 15.1467 -0.533992 -0.845385 -0.0133213
32.5751 8.2148 14.238 -0.512385 -0.858646 -0.013765
33.2243 7.83433 13.3192 -0.505621 -0.86271 -0.00890433
33.8941 7.4591 12.3975 -0.496121 -0.868236 -0.00552953
34.7394 6.98412 11.2424 -0.489232 -0.872146 0.00357932
35.3934 6.61632 10.358 -0.467205 -0.884142 0.00342413
36.0758 6.25379 9.45256 -0.466234 -0.88466 0.0015765
36.8869 5.82387 8.39181 -0.45845 -0.888474 0.0209283
37.5714 5.4802 7.51984 -0.441823 -0.897081 0.00615886
38.5007 5.01566 6.34257 -0.436426 -0.899662 0.0118686
39.236 4.65233 5.42756 -0.428483 -0.903373 0.0178486
39.9203 4.32465 4.58534 -0.410182 -0.91179 0.0197481
40.6363 3.99271 3.71862 -0.393124 -0.919331 0.0168697
41.346 3.67735 2.87693 -0.386514 -0.922003 0.0227276
41.5975 3.56567 2.58157 -0.383568 -0.923237 0.022571
40.8345 3.87473 2.08167 -0.399066 -0.916836 0.0126052
40.0743 4.22181 2.99184 -0.409296 -0.912344 0.0102258
39.2816 4.60044 3.95797 -0.425419 -0.904903 0.0130419
38.6026 4.94107 4.80351 -0.434431 -0.900533 0.0175796
37.6947 5.39895 5.94514 -0.435875 -0.899863 0.0161296
36.8204 5.85183 7.06501 -0.456025 -0.889962 0.00279933
36.0361 6.2651 8.0811 -0.474777 -0.880062 0.0088335
35.3721 6.63245 8.96674 -0.476374 -0.87924 -0.00212285
34.6892 7.00424 9.88157 -0.486713 -0.873555 0.00352873
33.864 7.48009 11.0123 -0.498649 -0.866787 0.00543484
33.1325 7.90076 12.0255 -0.509807 -0.860282 -0.00358498
32.4669 8.2897 12.9606 -0.513427 -0.858122 -0.00440198
31.5154 8.86059 14.3225 -0.53261 -0.846231 -0.0148158
30.6921 9.3823 15.5336 -0.556328 -0.830961 -0.00138694
29.9426 9.8815 16.6796 -0.566384 -0.824114 -0.00672533
29.3671 10.2723 17.5768 -0.569755 -0.821793 -0.00596583
29.125 10.4351 17.9521 -0.575005 -0.818024 -0.014382
28.1333 11.1507 18.0833 -0.595533 -0.803186 -0.0152164
28.9402 10.5741 16.7765 -0.58003 -0.81458 -0.00500056
29.5679 10.1489 15.8003 -0.568807 -0.822435 -0.0076677
30.2776 9.66397 14.7089 -0.557812 -0.829961 -0.00330082
30.9998 9.19697 13.6454 -0.533154 -0.845949 -0.0108189
31.7211 8.75235 12.5948 -0.529597 -0.848238 -0.00430708
32.3317 8.37335 11.7149 -0.517827 -0.855486 -0.000325135
33.1732 7.87962 10.537 -0.508823 -0.86086 -0.00439814
34.0482 7.37201 9.32825 -0.502818 -0.864393 -0.000222893
34.7177 6.98455 8.41026 -0.486047 -0.873932 0.000913559
35.3885 6.6142 7.51393 -0.480258 -0.877079 0.00916476
36.2403 6.14926 6.39766 -0.466559 -0.884473 0.00542582
37.1339 5.67361 5.24387 -0.453112 -0.891212 0.0207623
37.8013 5.32419 4.39522 -0.442731 -0.896564 0.0127087
38.613 4.90945 3.37289 -0.441846 -0.896948 0.0160142
39.3877 4.52337 2.41367 -0.430694 -0.902366 0.0154116
40.1212 4.17758 1.52499 -0.404651 -0.914358 0.0144068
40.1309 4.17317 1.51335 -0.39975 -0.916422 0.0192727
39.1857 4.60082 1.23993 -0.41591 -0.909286 0.0147479
38.3697 5.00643 2.24826 -0.430692 -0.902367 0.0154119
37.612 5.39998 3.20628 -0.449601 -0.893061 0.0173467
36.9326 5.75378 4.07156 -0.458058 -0.888839 0.0121851
36.276 6.11306 4.92444 -0.463343 -0.886033 0.0160699
35.4589 6.56305 5.99777 -0.474992 -0.879972 0.00568409
34.7961 6.93188 6.87252 -0.494364 -0.869196 0.0100926
34.0453 7.36872 7.89092 -0.494526 -0.869158 0.00288252
33.2446 7.83855 8.99743 -0.507655 -0.861546 0.0049184
32.5124 8.27284 10.0275 -0.508821 -0.860861 -0.00439619
31.6949 8.77067 11.1864 -0.528732 -0.848769 -0.00579359
30.8932 9.27581 12.3545 -0.538929 -0.842351 -0.000284465
30.2408 9.68761 13.3151 -0.547232 -0.836961 -0.00576827
29.6278 10.1041 14.2402 -0.571551 -0.820464 0.0129248
29.0355 10.5203 15.1649 -0.575996 -0.817435 0.00535972
28.3969 10.9833 16.1913 -0.595142 -0.80356 -0.00987531
27.6072 11.5635 17.4883 -0.618554 -0.785736 -0.0030094
27.306 11.8039 18.0096 -0.624337 -0.781095 -0.00969005
26.5107 12.4436 17.8915 -0.640413 -0.768026 0.00284654
27.2931 11.8216 16.5429 -0.622949 -0.782065 -0.0175832
27.9664 11.2978 15.412 -0.597765 -0.801643 0.00674384
28.6265 10.8101 14.3441 -0.584105 -0.811666 0.00441332
29.2653 10.3541 13.3344 -0.57902 -0.815283 -0.00702696
30.0075 9.85333 12.2118 -0.554758 -0.831893 -0.0140745
30.7826 9.35308 11.0617 -0.540882 -0.841074 -0.00641713
31.4823 8.90893 10.047 -0.532628 -0.846349 0.000376853
32.1696 8.4822 9.06802 -0.527811 -0.849362 -0.000673359
32.8019 8.0926 8.16601 -0.506564 -0.862153 0.0092198
33.612 7.61182 7.04295 -0.500385 -0.865755 0.00917666
34.3658 7.16687 6.01906 -0.494473 -0.869137 0.009832
35.0341 6.78535 5.12403 -0.476297 -0.879237 0.00916065
35.7113 6.40356 4.22179 -0.47635 -0.879165 0.0125848
36.3764 6.03293 3.35441 -0.474831 -0.87994 0.0155305
37.1855 5.59724 2.30791 -0.449601 -0.893061 0.0173445
37.9384 5.19569 1.34031 -0.439475 -0.898018 0.020633
38.3254 5.00071 0.858174 -0.431837 -0.90172 0.0204485
37.7994 5.24192 0.0643016 -0.442317 -0.896759 0.0133979
36.8124 5.76817 1.33265 -0.459895 -0.887757 0.019583
35.9574 6.23865 2.45128 -0.468974 -0.883074 0.0156148
35.1496 6.69765 3.51126 -0.475143 -0.879699 0.0191936
34.4133 7.12741 4.50653 -0.493045 -0.869936 0.0109153
33.644 7.57922 5.55622 -0.506931 -0.861957 0.0071453
32.9739 7.9819 6.48092 -0.514509 -0.857471 0.00487435
32.2625 8.41924 7.47698 -0.524891 -0.85112 0.00918069
31.568 8.85308 8.47411 -0.526301 -0.850289 0.00393267
30.9645 9.23705 9.35163 -0.535444 -0.844565 0.00315944
30.2319 9.71217 10.4181 -0.546349 -0.837557 -0.000856659
29.5968 10.141 11.3727 -0.556503 -0.830772 -0.0110831
28.9069 10.6165 12.4288 -0.585975 -0.810321 -0.00357957
28.2538 11.0844 13.4646 -0.587806 -0.80899 -0.00449969
27.5351 11.626 14.6381 -0.609122 -0.793075 -0.0013907
26.9738 12.0797 15.5903 -0.624934 -0.780463 0.0183241
26.3977 12.546 16.5893 -0.636031 -0.771617 -0.00851661
25.7727 13.0675 17.7102 -0.651376 -0.758738 0.00509201
25.6412 13.182 17.9513 -0.651375 -0.758738 0.0050931
24.8109 13.9131 17.9702 -0.670217 -0.742042 0.0135188
25.3346 13.4477 16.9874 -0.653382 -0.75697 -0.00936543
25.8979 12.9755 15.9672 -0.642623 -0.766079 0.0125601
26.4649 12.4854 14.9529 -0.641644 -0.76698 0.00580726
26.9917 12.0583 14.0503 -0.623109 -0.782085 -0.00886404
27.677 11.5283 12.92 -0.61156 -0.791192 -0.00329064
28.2324 11.1132 12.0287 -0.59354 -0.804803 0.00151618
28.8466 10.6692 11.0645 -0.579882 -0.814592 0.0132651
29.4215 10.2568 10.1739 -0.56765 -0.823263 0.00333331
30.022 9.84747 9.27345 -0.559484 -0.828836 -0.00309412
30.6263 9.45453 8.38484 -0.537465 -0.843285 -0.0012099
31.2915 9.02545 7.41074 -0.539529 -0.841944 0.0062082
31.9542 8.60114 6.45865 -0.530632 -0.847581 0.00594875
32.7931 8.07792 5.27004 -0.523359 -0.852 0.0138384
33.5611 7.60915 4.20637 -0.499608 -0.866037 0.019294
34.4025 7.10394 3.06087 -0.488445 -0.872294 0.022898
35.0522 6.72438 2.1947 -0.480221 -0.877099 0.00918099
35.7646 6.31859 1.24661 -0.468645 -0.883224 0.0169554
36.5426 5.87757 0.217779 -0.46179 -0.886529 0.0285797
36.9471 5.65716 -0.306228 -0.452443 -0.891231 0.0316504
36.397 5.90932 -1.05916 -0.46122 -0.886671 0.0330348
35.7521 6.28663 -0.204158 -0.470673 -0.881634 0.0344725
34.8946 6.7868 0.945029 -0.482977 -0.875387 0.0207577
34.064 7.2744 2.06482 -0.493787 -0.869441 0.0157213
33.2586 7.76116 3.15878 -0.49964 -0.865973 0.0212266
32.5115 8.22262 4.19564 -0.518807 -0.854684 0.0188236
31.6478 8.78363 5.43144 -0.529175 -0.848218 0.0223514
30.9274 9.25061 6.47658 -0.540767 -0.841143 0.00703968
30.1192 9.7855 7.66726 -0.556739 -0.830687 0.000518843
29.4875 10.2115 8.61146 -0.567395 -0.823444 -0.00174349
28.8835 10.6339 9.53062 -0.583036 -0.812445 -0.00100917
28.2925 11.0618 10.451 -0.587514 -0.809197 0.00518102
27.6385 11.549 11.4935 -0.591893 -0.806005 0.00423808
27.0082 12.0393 12.5194 -0.610868 -0.791717 0.0049584
26.3859 12.5446 13.578 -0.639415 -0.768775 0.011567
25.7129 13.119 14.7647 -0.654332 -0.756207 -0.000241977
25.1727 13.5991 15.7575 -0.660694 -0.75065 0.0027062
24.5823 14.13 16.8564 -0.672412 -0.739961 -0.017879
24.0458 14.6479 17.9307 -0.711044 -0.702768 0.023107
23.4135 15.2755 17.662 -0.705328 -0.708879 0.00172638
24.0264 14.6718 16.4077 -0.701117 -0.713046 -0.000663929
24.586 14.1239 15.3207 -0.697255 -0.71674 0.0109566
25.3169 13.462 13.9696 -0.654332 -0.756207 -0.000243382
25.9455 12.8998 12.8392 -0.639413 -0.768776 0.0115674
26.4823 12.457 11.9084 -0.629977 -0.776586 0.0066171
27.0813 11.9652 10.9012 -0.609393 -0.792868 -0.00110802
27.7616 11.4472 9.80699 -0.592775 -0.805358 0.00394926
28.413 10.9728 8.78763 -0.587142 -0.809484 0.000100953
29.0888 10.4903 7.7482 -0.58 -0.814608 0.00362453
29.671 10.0865 6.86971 -0.563694 -0.825976 0.00356867
30.3666 9.61239 5.83177 -0.55713 -0.830339 0.0119428
31.0944 9.12 4.75456 -0.536149 -0.84391 0.0189609
31.9022 8.58234 3.58988 -0.522846 -0.852284 0.0156359
32.6082 8.1291 2.5922 -0.509711 -0.86003 0.0233174
33.254 7.72612 1.70408 -0.502815 -0.864141 0.0209125
33.919 7.32369 0.794552 -0.491873 -0.870303 0.0251834
34.8775 6.75312 -0.506616 -0.481955 -0.875687 0.0298678
35.6321 6.30321 -1.5128 -0.478062 -0.877884 0.0278491
35.9129 6.14045 -1.88338 -0.473079 -0.880613 0.026781
35.3406 6.4248 -2.59836 -0.479734 -0.876748 0.034174
34.5193 6.91567 -1.49871 -0.487927 -0.872308 0.0317074
33.8833 7.30483 -0.628422 -0.496227 -0.867865 0.0238634
33.2 7.72051 0.308886 -0.49569 -0.868205 0.0226131
33.0655 7.80198 0.493378 -0.498589 -0.866511 0.0238328
32.8348 7.90737 -0.657625 -0.500186 -0.865568 0.0246185
33.4721 7.51116 -1.54031 -0.494549 -0.8687 0.0279622
34.2617 7.02421 -2.62391 -0.496552 -0.867488 0.0300127
34.8643 6.65251 -3.44391 -0.47976 -0.876736 0.0341112
34.5125 6.81039 -4.45643 -0.491349 -0.870311 0.0336953
33.8415 7.2302 -3.53264 -0.495599 -0.867943 0.0324935
33.206 7.63167 -2.65487 -0.500593 -0.865216 0.0284413
32.5311 8.06076 -1.71084 -0.511429 -0.858994 0.0238724
32.308 8.15552 -2.89453 -0.513507 -0.857645 0.0274837
33.047 7.6754 -3.93769 -0.502592 -0.86381 0.035112
33.7037 7.25258 -4.85449 -0.498404 -0.866143 0.0372726
33.9829 7.08058 -5.23502 -0.488328 -0.872014 0.0335815
33.851 7.09901 -6.56929 -0.489898 -0.870926 0.0385626
33.0077 7.63228 -5.39792 -0.503232 -0.86295 0.045551
32.3936 8.03736 -4.53224 -0.521103 -0.852491 0.0413581
31.6703 8.51589 -3.50236 -0.52439 -0.850893 0.0315807
31.1581 8.80877 -4.27861 -0.531514 -0.846468 0.0313781
31.8534 8.33047 -5.27838 -0.520256 -0.852926 0.0430255
32.4616 7.91983 -6.14491 -0.516684 -0.855307 0.03856
33.0899 7.5059 -7.03556 -0.504737 -0.862568 0.0348854
33.7144 7.11425 -7.90174 -0.488279 -0.871853 0.0381718
33.3757 7.26454 -8.92929 -0.49668 -0.867487 0.0278222
32.6131 7.75289 -7.86605 -0.505191 -0.862427 0.0316495
31.9735 8.17382 -6.96467 -0.520681 -0.85276 0.041124
31.2305 8.6858 -5.89683 -0.527337 -0.84849 0.0445061
30.5307 9.17398 -4.88477 -0.538261 -0.841874 0.0390287
29.9178 9.53868 -5.4981 -0.539109 -0.841415 0.0371789
30.6565 9.00656 -6.58314 -0.53507 -0.843616 0.0448587
31.2642 8.58668 -7.45843 -0.532572 -0.845768 0.0322937
32.0162 8.08584 -8.52343 -0.511822 -0.858511 0.0315845
32.7139 7.62711 -9.50509 -0.510945 -0.858539 0.0429591
33.4486 7.15394 -10.5342 -0.495546 -0.867556 0.042193
30.5617 9.44188 4.05144 -0.549597 -0.834711 0.0346395
29.6926 10.0515 5.3552 -0.554694 -0.831858 0.0180687
28.9605 10.5774 6.47426 -0.570681 -0.821117 0.00946866
28.2822 11.0593 7.51074 -0.578415 -0.815677 0.0103367
27.5067 11.6361 8.72493 -0.592282 -0.805726 0.00266844
26.7629 12.2119 9.93133 -0.621996 -0.783013 -0.00347433
26.0701 12.7871 11.1064 -0.642284 -0.766452 0.00471091
25.4621 13.3113 12.1739 -0.650304 -0.759673 -0.00104813
24.8691 13.8296 13.2366 -0.653283 -0.756799 0.0218136
24.1796 14.4971 14.5496 -0.69105 -0.72269 0.0129713
23.5626 15.1256 15.7793 -0.709351 -0.704515 0.0218954
22.9419 15.7539 17.0578 -0.707801 -0.706391 -0.00544157
22.5261 16.1829 17.939 -0.731234 -0.682116 0.00383774
21.8781 16.9183 17.8071 -0.755168 -0.654986 0.0267071
22.5777 16.1288 16.2412 -0.723244 -0.690592 -0.00118823
23.1689 15.5044 15.0103 -0.718511 -0.695051 0.0254233
23.6937 14.9588 13.9462 -0.695651 -0.718292 0.011253
24.2825 14.3728 12.7905 -0.703523 -0.710638 -0.00700975
24.9028 13.7926 11.6422 -0.65884 -0.752171 0.0129685
25.5295 13.2406 10.5364 -0.648654 -0.761081 0.0019115
26.1931 12.6739 9.39335 -0.628666 -0.777571 0.0127207
26.8878 12.1078 8.23658 -0.609724 -0.792591 0.00611255
27.6822 11.4937 6.96692 -0.598558 -0.801035 0.0084244
28.3998 10.9514 5.84344 -0.571119 -0.820688 0.0171597
29.2926 10.3062 4.47255 -0.56809 -0.822599 0.0245778
29.4252 10.2066 4.26804 -0.565731 -0.824111 0.0280902
28.4338 10.8939 4.29467 -0.568089 -0.8226 0.0245779
27.7412 11.4103 5.37244 -0.598974 -0.800656 0.0134121
26.8219 12.1415 6.85164 -0.611029 -0.791446 0.0160486
26.0557 12.7659 8.12048 -0.626076 -0.779653 0.0130603
25.3256 13.3967 9.37655 -0.650957 -0.758883 0.0187539
24.7129 13.9497 10.466 -0.663843 -0.747839 0.00699192
24.0368 14.5905 11.716 -0.688988 -0.72455 0.0179664
23.4092 15.2184 12.9353 -0.696263 -0.717628 0.015062
22.8828 15.7642 14.0037 -0.724955 -0.687582 0.0408759
22.3563 16.3517 15.1248 -0.72615 -0.687235 0.0203515
21.8395 16.9308 16.2559 -0.742611 -0.669706 -0.00483741
21.2558 17.6197 17.6155 -0.761953 -0.646104 0.0444645
20.8034 18.1437 17.0348 -0.792037 -0.609594 0.0327471
21.318 17.5152 15.797 -0.765973 -0.642841 0.0064663
21.9735 16.737 14.338 -0.730205 -0.682911 0.0208137
22.5339 16.1062 13.1372 -0.725403 -0.688035 0.0199424
23.0955 15.5163 12.0008 -0.70525 -0.708947 0.00409656
23.7031 14.8862 10.8049 -0.689083 -0.724557 0.0135007
24.447 14.172 9.42566 -0.670675 -0.741319 0.0253196
25.0879 13.5708 8.27232 -0.651349 -0.75845 0.0223282
25.772 12.9737 7.09024 -0.627808 -0.778222 0.0150892
26.6068 12.2797 5.69604 -0.614957 -0.788369 0.0173786
27.3268 11.6994 4.53312 -0.590239 -0.807118 0.0133671
27.6591 11.449 4.01238 -0.58797 -0.808635 0.020008
26.775 12.104 3.91703 -0.598439 -0.801043 0.0141664
26.0951 12.6605 5.02539 -0.622127 -0.782566 0.0233992
25.4084 13.2495 6.1885 -0.628691 -0.77745 0.0178573
24.6828 13.8931 7.45586 -0.650627 -0.759 0.0245513
24.0719 14.4777 8.56917 -0.668607 -0.743022 0.0297179
23.346 15.2052 9.93942 -0.682789 -0.73041 0.0173288
22.729 15.8559 11.1628 -0.704601 -0.709055 0.0279074
22.0263 16.6266 12.6143 -0.728299 -0.684988 0.0192669
21.5217 17.2121 13.6993 -0.734613 -0.678238 0.0183585
21.0067 17.861 14.8851 -0.76534 -0.643399 0.0170892
20.5238 18.4834 16.044 -0.796003 -0.605216 0.00967731
20.4617 18.5676 16.2016 -0.796003 -0.605215 0.00967591
20.0556 19.0804 15.5696 -0.807102 -0.589961 0.0230489
20.6215 18.2963 14.1637 -0.780211 -0.624012 0.0433511
21.0919 17.6664 13.04 -0.746391 -0.665093 0.0235056
21.6889 16.9657 11.7432 -0.736595 -0.675944 0.0229647
22.2981 16.2635 10.4555 -0.725075 -0.687953 0.0314133
22.8724 15.6473 9.3102 -0.705622 -0.707851 0.0323392
23.4196 15.0652 8.23813 -0.682963 -0.729551 0.036288
24.0832 14.4105 7.00117 -0.662971 -0.747662 0.0383425
24.7845 13.7541 5.73802 -0.6394 -0.768539 0.0227183
25.5189 13.1106 4.4749 -0.630612 -0.775504 0.0303688
25.9761 12.7182 3.70774 -0.620908 -0.783618 0.0204278
25.3697 13.189 3.19724 -0.624978 -0.780436 0.0179183
24.7154 13.7708 4.32634 -0.637569 -0.76999 0.0249285
24.0818 14.3544 5.45294 -0.664338 -0.747235 0.0172084
23.5082 14.9041 6.50473 -0.680764 -0.732005 0.0270083
22.8753 15.5506 7.70991 -0.694142 -0.718879 0.0371528
22.2144 16.2919 9.06238 -0.705623 -0.70785 0.0323377
21.5987 16.995 10.3312 -0.725073 -0.687955 0.0314138
21.0885 17.6091 11.4396 -0.751304 -0.658902 0.0372819
20.6124 18.2064 12.5201 -0.768525 -0.639481 0.0208247
20.1404 18.8795 13.7123 -0.789853 -0.612359 0.0338938
19.7169 19.5031 14.782 -0.801868 -0.596342 0.0371907
19.5104 19.8095 15.332 -0.801555 -0.597077 0.0317744
18.9167 20.6253 15.2513 -0.812161 -0.581842 0.043076
19.376 19.9075 14.018 -0.802156 -0.595592 0.042605
19.907 19.1147 12.6462 -0.783806 -0.619017 0.0496592
20.3762 18.4384 11.4504 -0.766797 -0.640832 0.0368272
21.0042 17.6338 10.023 -0.746243 -0.664725 0.0355322
21.4959 17.0347 8.96215 -0.723015 -0.688339 0.0586307
22.0305 16.3887 7.81608 -0.700875 -0.711584 0.049219
22.6466 15.7173 6.57821 -0.687123 -0.725933 0.0297128
23.2322 15.1246 5.46652 -0.672094 -0.73983 0.0306675
23.8865 14.4854 4.26079 -0.665833 -0.745504 0.0298235
24.4679 13.939 3.21826 -0.645711 -0.763242 0.0227733
24.5881 13.831 3.00893 -0.645711 -0.763242 0.0227734
24.0757 14.2453 2.36416 -0.646144 -0.762769 0.026113
23.398 14.8879 3.59064 -0.664607 -0.746114 0.0401474
22.77 15.5156 4.76333 -0.682526 -0.730258 0.0296979
22.0821 16.2522 6.11731 -0.71184 -0.701148 0.0409307
21.4874 16.9272 7.3398 -0.720791 -0.692164 0.0370054
20.9029 17.656 8.63041 -0.746041 -0.663617 0.0550938
20.257 18.5036 10.1089 -0.763711 -0.644123 0.043027
19.7806 19.1619 11.2676 -0.78399 -0.618613 0.0517441
19.297 19.8929 12.5467 -0.79506 -0.604545 0.0490414
18.7938 20.6799 13.8763 -0.806379 -0.589397 0.0486215
18.3879 21.3459 15.0136 -0.815234 -0.577226 0.0469333
17.8268 22.1294 14.8778 -0.815089 -0.576657 0.0556542
18.2463 21.4251 13.6863 -0.811271 -0.582178 0.0539243
18.7257 20.6373 12.3617 -0.798619 -0.598753 0.060854
19.1383 19.99 11.2482 -0.792253 -0.608118 0.0502812
19.6285 19.2501 9.9761 -0.784307 -0.618469 0.0485677
20.1581 18.5155 8.70151 -0.757652 -0.650414 0.0540795
20.6555 17.841 7.51562 -0.744555 -0.665875 0.0474065
21.2821 17.0888 6.17534 -0.729037 -0.683625 0.0340798
21.8049 16.4644 5.072 -0.708486 -0.704211 0.0462008
22.5232 15.7015 3.6624 -0.682526 -0.730258 0.0296948
23.0991 15.1236 2.58146 -0.672862 -0.73968 0.0113949
23.6146 14.6316 1.64275 -0.674194 -0.738045 0.027436
22.9359 15.2496 1.33717 -0.686653 -0.72681 0.0159876
22.3039 15.8759 2.52429 -0.702449 -0.711639 0.0116379
21.7644 16.4587 3.57552 -0.708175 -0.705816 0.0176839
21.0984 17.2054 4.94615 -0.737873 -0.67331 0.0468791
20.5089 17.937 6.23598 -0.745323 -0.666002 0.0305821
20.0038 18.6007 7.3856 -0.772066 -0.634253 0.0404781
19.4642 19.3596 8.7155 -0.783954 -0.619063 0.0466684
19.038 19.9864 9.8166 -0.786108 -0.615764 0.0535559
18.5166 20.8005 11.1961 -0.792683 -0.606308 0.0635838
18.0544 21.5664 12.4742 -0.810503 -0.582286 0.0634719
17.6118 22.3133 13.7277 -0.812204 -0.580199 0.0607785
17.2273 22.9717 14.8388 -0.814999 -0.576094 0.062391
17.0558 23.2671 15.3297 -0.815138 -0.575996 0.0614736
15.4763 25.586 17.7834 -0.777471 -0.627292 0.0452173
15.9961 24.8214 16.4757 -0.791582 -0.607763 0.0634159
16.4666 24.079 15.2301 -0.799156 -0.598944 0.0511403
16.8986 23.3456 14.0006 -0.815063 -0.57597 0.0627034
17.3331 22.6022 12.7694 -0.810396 -0.582477 0.0630772
17.8163 21.7847 11.4222 -0.810942 -0.58178 0.0624918
18.2747 21.0159 10.1405 -0.810338 -0.583559 0.053019
18.6788 20.3854 9.02551 -0.789175 -0.612222 0.0488516
19.1574 19.6814 7.80597 -0.782917 -0.620424 0.045986
19.614 19.016 6.66865 -0.764128 -0.642769 0.054372
20.1586 18.2748 5.39601 -0.743826 -0.666828 0.0454165
20.7913 17.483 3.99715 -0.740865 -0.670338 0.0420145
21.531 16.6519 2.48394 -0.710536 -0.703163 0.0264571
22.1255 16.0267 1.3191 -0.697997 -0.71591 0.0164871
22.4318 15.7146 0.735491 -0.688518 -0.724514 0.0319873
22.009 16.1025 -0.0188719 -0.709674 -0.704113 0.0242347
21.3564 16.7862 1.26173 -0.703266 -0.710786 0.0141382
20.8177 17.3788 2.35923 -0.740436 -0.671572 0.0273015
20.5563 17.6884 2.91225 -0.740427 -0.671637 0.0259339
20.5842 17.5995 1.28274 -0.727536 -0.685538 0.0269785
21.1952 16.9409 0.0140731 -0.722886 -0.690957 -0.00379733
21.6142 16.4753 -0.827795 -0.709121 -0.705047 -0.0074693
21.0689 17.0663 -1.29146 -0.73469 -0.678349 -0.00853521
20.5086 17.6538 -0.185917 -0.734384 -0.678482 -0.0185179
20.4878 17.6751 -0.142481 -0.734382 -0.678484 -0.0185171
20.6031 17.6022 -1.86358 -0.746884 -0.664903 -0.0083054
20.8601 17.3102 -2.38297 -0.74382 -0.668379 0.00120649
20.2304 18.0137 -2.63604 -0.758868 -0.651244 0.00115973
20.65 17.5384 -3.49133 -0.737176 -0.675385 0.0206491
19.8351 18.4985 -3.31376 -0.77585 -0.630767 0.0137678
20.316 17.9029 -4.38483 -0.768445 -0.639895 0.00517471
20.647 17.5211 -5.07381 -0.749857 -0.661526 0.00984841
19.359 19.09 -3.82881 -0.788207 -0.61541 -0.000611869
19.8489 18.4724 -4.92544 -0.775444 -0.631397 -0.00488974
20.3967 17.7949 -6.07281 -0.765843 -0.642946 0.0102519
20.9136 17.1633 -7.11743 -0.753645 -0.656823 0.0245522
21.4779 16.4811 -8.26022 -0.738819 -0.673498 0.0233915
41.1835 3.15204 -17.5957 -0.380502 -0.924727 0.0099059
40.689 3.36742 -17.0115 -0.391592 -0.919812 0.0245247
40.2115 3.54976 -17.823 -0.396672 -0.917818 0.0161792
39.3788 3.93063 -16.8258 -0.411626 -0.911013 0.0248772
38.6468 4.2945 -15.929 -0.417141 -0.908235 0.0332062
39.1552 4.01126 -17.9424 -0.401774 -0.915589 0.0165819
38.3171 4.4088 -16.9244 -0.422853 -0.905713 0.0296609
37.5192 4.81843 -15.934 -0.430913 -0.90179 0.0330059
36.895 5.14623 -15.1397 -0.431255 -0.901607 0.0335396
37.988 4.54987 -17.9165 -0.424531 -0.90535 0.0107259
36.992 5.05145 -16.6848 -0.448119 -0.893715 0.0215118
35.8659 5.66255 -15.249 -0.453321 -0.890744 0.0327868
35.0225 6.14647 -14.1396 -0.467722 -0.883378 0.0296746
34.2432 6.59177 -13.1041 -0.486371 -0.873178 0.0316797
33.4506 7.08088 -12.0273 -0.491292 -0.869926 0.0431412
32.5554 7.65388 -10.789 -0.504165 -0.862702 0.0395254
31.6772 8.24596 -9.55018 -0.527545 -0.848792 0.0353241
30.8402 8.82055 -8.34919 -0.531783 -0.846312 0.031029
30.1355 9.31583 -7.32752 -0.547227 -0.836311 0.0335761
29.5083 9.769 -6.40033 -0.554278 -0.831517 0.0368094
28.8392 10.2016 -6.912 -0.565929 -0.824078 0.0249086
29.5688 9.65683 -8.00377 -0.551392 -0.833395 0.0376669
30.3369 9.10885 -9.11843 -0.536653 -0.842934 0.0382779
31.1379 8.54548 -10.2717 -0.538807 -0.841453 0.0405412
31.9791 7.96561 -11.4644 -0.528748 -0.848054 0.0350825
32.7214 7.47899 -12.4994 -0.500696 -0.864707 0.0398072
33.5273 6.97595 -13.6056 -0.487804 -0.872513 0.0277142
34.2967 6.51412 -14.6389 -0.475794 -0.878656 0.039806
35.1123 6.03925 -15.7075 -0.467695 -0.883438 0.0282718
36.1354 5.47399 -17.0215 -0.461525 -0.886844 0.0224371
36.8933 5.07454 -17.9706 -0.440968 -0.897432 0.0127601
35.7715 5.63694 -17.9812 -0.454942 -0.890278 0.0208145
34.6525 6.26029 -16.5442 -0.466201 -0.884391 0.0225531
33.7725 6.76734 -15.3899 -0.490002 -0.871517 0.0188705
32.9168 7.29056 -14.2414 -0.495223 -0.867554 0.0458655
32.1203 7.81106 -13.1421 -0.517202 -0.854906 0.040486
31.3534 8.3282 -12.0671 -0.524544 -0.85045 0.0398533
30.6255 8.83795 -11.0278 -0.53425 -0.844276 0.0421292
29.7463 9.46013 -9.75822 -0.556994 -0.82985 0.0332583
29.0382 9.9759 -8.72371 -0.567525 -0.822929 0.0265191
28.3935 10.4792 -7.74997 -0.579187 -0.813977 0.044526
27.7339 10.9306 -8.25095 -0.598371 -0.80059 0.0317587
28.5346 10.3035 -9.46985 -0.573251 -0.818921 0.0274281
29.3525 9.6874 -10.6823 -0.556994 -0.82985 0.0332572
30.0916 9.15345 -11.7462 -0.550684 -0.833784 0.0393967
30.9659 8.52334 -13.0058 -0.52636 -0.849196 0.0425615
31.756 7.99138 -14.1124 -0.520821 -0.853047 0.0325056
32.7718 7.3371 -15.4936 -0.506742 -0.86197 0.0148167
33.5527 6.86331 -16.5399 -0.488483 -0.872238 0.0241965
34.5209 6.30349 -17.8071 -0.473791 -0.880374 0.021554
33.4863 6.86783 -17.8952 -0.490697 -0.871151 0.0176758
32.5621 7.43207 -16.6688 -0.508782 -0.860448 0.0277427
31.7287 7.96193 -15.5397 -0.520993 -0.853249 0.0230702
30.9361 8.48837 -14.4367 -0.534868 -0.844388 0.030424
30.1893 9.00654 -13.3765 -0.548091 -0.835585 0.037337
29.2362 9.71391 -11.9982 -0.559375 -0.828197 0.0344811
28.5316 10.2389 -10.9704 -0.566822 -0.822841 0.0405507
27.8228 10.7982 -9.89499 -0.598504 -0.800432 0.0331897
27.1436 11.3491 -8.84597 -0.606165 -0.794815 0.0288616
26.5379 11.7911 -9.41098 -0.60619 -0.794822 0.0281182
27.2174 11.2228 -10.4647 -0.606919 -0.793393 0.0466518
27.9988 10.5829 -11.671 -0.579443 -0.814963 0.0090417
28.8525 9.93158 -12.935 -0.560596 -0.827107 0.0403247
29.8866 9.16093 -14.4289 -0.553019 -0.832555 0.0319738
30.6475 8.63239 -15.5133 -0.534861 -0.844394 0.0303821
31.4749 8.0765 -16.6633 -0.516992 -0.855128 0.0384029
32.365 7.51041 -17.8559 -0.500399 -0.865534 0.021277
32.5014 7.42715 -18.0352 -0.500399 -0.865534 0.0212787
31.4429 8.04682 -18.073 -0.512223 -0.858654 0.0184582
30.6227 8.58759 -16.959 -0.529598 -0.847262 0.040907
29.7759 9.17784 -15.7646 -0.544661 -0.837983 0.0336018
28.8922 9.83497 -14.4891 -0.564317 -0.824944 0.031848
28.196 10.3682 -13.4645 -0.577697 -0.815509 0.0347913
27.4766 10.945 -12.3731 -0.599508 -0.798969 0.0473203
26.8022 11.5055 -11.3277 -0.614611 -0.788312 0.0285811
26.0793 12.1288 -10.1914 -0.624731 -0.780194 0.0317581
26.0006 12.1963 -10.0657 -0.623869 -0.78101 0.0284883
25.3347 12.7151 -10.5166 -0.64058 -0.766689 0.0429598
26.0623 12.0735 -11.6795 -0.621977 -0.781701 0.0457105
26.8923 11.3469 -12.9893 -0.599508 -0.798969 0.0473192
27.6984 10.6774 -14.2295 -0.578804 -0.813758 0.0527731
28.3899 10.1414 -15.2521 -0.566813 -0.822632 0.0447122
29.0898 9.60349 -16.277 -0.561803 -0.825956 0.0466132
29.9292 8.99948 -17.466 -0.534995 -0.843906 0.0400463
30.2828 8.75769 -17.9541 -0.529424 -0.848028 0.023621
29.2305 9.43443 -17.9573 -0.55252 -0.832461 0.0415918
28.4215 10.0411 -16.7839 -0.568295 -0.821875 0.0395232
27.711 10.5893 -15.7431 -0.581181 -0.813162 0.031577
26.8971 11.2474 -14.5148 -0.595875 -0.801633 0.0481378
26.0623 11.9782 -13.2034 -0.616632 -0.78567 0.0498715
25.1492 12.796 -11.7478 -0.621978 -0.7817 0.0457106
24.4925 13.4106 -10.6505 -0.656382 -0.753215 0.0427672
23.6156 14.2058 -10.6573 -0.689897 -0.721864 0.0543549
24.2323 13.5773 -11.7416 -0.667291 -0.743396 0.0456521
24.9042 12.9387 -12.8631 -0.636718 -0.769538 0.0490029
25.5831 12.3109 -13.9551 -0.623764 -0.780232 0.0464371
26.3488 11.6198 -15.1808 -0.605143 -0.794301 0.0537356
27.0746 11.0313 -16.2761 -0.592865 -0.80498 0.0227699
27.7602 10.4904 -17.2894 -0.58787 -0.808311 0.0322801
28.2423 10.1137 -17.9886 -0.582121 -0.812467 0.0321158
27.1649 10.898 -17.8891 -0.59005 -0.806396 0.0395799
26.34 11.5598 -16.666 -0.605841 -0.794653 0.0385042
25.6386 12.1629 -15.5683 -0.627505 -0.777012 0.049897
24.9283 12.8083 -14.4181 -0.632785 -0.773114 0.0433345
24.2744 13.4351 -13.3477 -0.651702 -0.756341 0.0568584
23.5425 14.1797 -12.0829 -0.676739 -0.73497 0.0429342
22.9547 14.8067 -11.0112 -0.692146 -0.719212 0.0605641
22.3388 15.4979 -9.86988 -0.707833 -0.705044 0.043415
22.2322 15.6188 -9.67449 -0.710466 -0.702174 0.0467949
19.2526 19.3789 5.88005 -0.764604 -0.641519 0.0619272
18.6811 20.2486 7.34868 -0.788599 -0.61298 0.0486564
18.1889 20.998 8.63366 -0.808713 -0.585529 0.0560276
17.6901 21.8233 10.054 -0.811554 -0.581644 0.0554031
17.1799 22.6781 11.4923 -0.810305 -0.582678 0.0623861
16.6385 23.5922 12.9895 -0.810284 -0.582641 0.0630067
16.168 24.3911 14.294 -0.807125 -0.586728 0.0655776
15.5934 25.2736 15.7844 -0.784844 -0.616486 0.0629756
14.9948 26.1079 17.1668 -0.746601 -0.662991 0.0550429
14.6186 26.6048 17.9669 -0.74127 -0.668957 0.0549045
13.7694 27.5291 18.0367 -0.723864 -0.688769 0.0402248
14.5309 26.5799 16.5073 -0.746288 -0.663744 0.0499784
15.1713 25.7343 15.116 -0.769631 -0.635945 0.0569393
15.7038 24.9489 13.8154 -0.783883 -0.618939 0.0494187
16.2894 23.9866 12.2278 -0.80691 -0.587491 0.0612449
16.8671 23.0334 10.6793 -0.812392 -0.580239 0.0578136
17.3174 22.2779 9.37692 -0.811273 -0.582202 0.0536478
17.7968 21.4856 8.02664 -0.812274 -0.580426 0.0575837
18.2131 20.8251 6.88977 -0.795546 -0.603851 0.0496956
17.3216 22.1077 7.62911 -0.816075 -0.574961 0.0586676
16.8038 22.9726 9.10561 -0.814413 -0.578238 0.048717
16.3406 23.7428 10.4214 -0.810507 -0.583129 0.0551241
15.7927 24.6345 11.8698 -0.805209 -0.590265 0.0567944
15.2569 25.4605 13.2406 -0.778995 -0.624898 0.051659
14.6987 26.2538 14.5546 -0.75008 -0.660114 0.0403593
13.9994 27.1144 15.987 -0.724188 -0.687064 0.0591095
13.2361 28.0473 17.4603 -0.708119 -0.701365 0.0815735
12.8515 28.444 18.1376 -0.678563 -0.733839 0.0321299
11.9428 29.2012 18.0792 -0.596328 -0.800886 0.0545337
12.8373 28.336 16.5904 -0.697286 -0.711935 0.0833149
13.5766 27.4755 15.2108 -0.702497 -0.710173 0.0463893
14.2647 26.7062 13.8882 -0.750082 -0.660113 0.0403568
14.8887 25.8448 12.4537 -0.772985 -0.631851 0.0570862
15.4977 24.9485 10.9564 -0.796989 -0.601146 0.058587
16.0296 24.0964 9.53744 -0.812323 -0.580961 0.0511467
16.5084 23.3138 8.21653 -0.814411 -0.578239 0.0487195
16.5726 23.2079 8.03608 -0.814746 -0.577702 0.0494854
16.1364 23.7967 7.53751 -0.816188 -0.576927 0.0315143
15.6334 24.5938 8.90292 -0.806855 -0.589103 0.0440798
14.9928 25.5798 10.5649 -0.797561 -0.600844 0.0536852
14.437 26.3478 11.8698 -0.753143 -0.655555 0.0549856
13.8616 27.0911 13.1292 -0.738046 -0.67197 0.0611827
13.1338 27.8852 14.5002 -0.702562 -0.71108 0.0278017
12.4309 28.644 15.7608 -0.642651 -0.761446 0.0848508
11.6439 29.3517 17.0024 -0.594887 -0.80208 0.0526939
10.8784 29.8825 18.0367 -0.526786 -0.848647 0.0479064
10.004 30.3817 17.7079 -0.480318 -0.874079 0.0726679
11.0424 29.7165 16.3725 -0.54919 -0.83554 0.0162084
11.9072 28.9988 15.0775 -0.635921 -0.765421 0.0986631
12.3646 28.6097 14.3552 -0.649023 -0.76036 0.0249274
10.1482 30.2185 16.098 -0.488148 -0.872028 0.0357549
9.80003 30.4177 16.5291 -0.413191 -0.909732 0.0407678
26.0006 11.771 -17.647 -0.60584 -0.794654 0.0385062
25.3286 12.3587 -16.5899 -0.617128 -0.786081 0.0350636
24.5186 13.0959 -15.2679 -0.632829 -0.772972 0.0451861
23.7694 13.8298 -14.0202 -0.668233 -0.74226 0.0501451
23.0537 14.5734 -12.7732 -0.680345 -0.730563 0.0583835
22.4658 15.2218 -11.6836 -0.701823 -0.709794 0.0603104
21.8479 15.9591 -10.4863 -0.725096 -0.68611 0.0590668
21.2451 16.6788 -9.32985 -0.73519 -0.676201 0.0474058
20.7187 17.3324 -8.26685 -0.754615 -0.655254 0.0346061
20.1173 18.0958 -7.00319 -0.766741 -0.641394 0.0268809
19.6294 18.7254 -5.98011 -0.776617 -0.629746 0.0169014
19.1379 19.3722 -4.90044 -0.784873 -0.619649 0.00298445
18.8411 19.7666 -4.19194 -0.802581 -0.596483 -0.00853138
18.182 20.6611 -4.1729 -0.809728 -0.58674 0.00875055
18.6283 20.0324 -5.28695 -0.802149 -0.596782 0.0201989
19.0905 19.3938 -6.3182 -0.785152 -0.618948 0.0209664
19.6376 18.6597 -7.50374 -0.775979 -0.630193 0.0266972
20.1176 18.0096 -8.5711 -0.765094 -0.642182 0.0472468
20.6558 17.3133 -9.69067 -0.745834 -0.664091 0.0521152
21.2744 16.5271 -10.9326 -0.735138 -0.674889 0.0640047
21.8823 15.7747 -12.1485 -0.710497 -0.700436 0.0677034
22.5883 14.9594 -13.4811 -0.688478 -0.722744 0.0603181
23.2319 14.2728 -14.6253 -0.668232 -0.742261 0.0501446
23.8522 13.6331 -15.6887 -0.655202 -0.752993 0.0609275
24.4645 13.0506 -16.7108 -0.63287 -0.771311 0.0674936
25.212 12.3654 -17.9314 -0.609858 -0.791056 0.0479962
24.2549 13.1296 -17.9187 -0.634365 -0.771668 0.0459403
23.511 13.8576 -16.6559 -0.649461 -0.758212 0.0575745
22.7047 14.7013 -15.2417 -0.674058 -0.735731 0.0659291
22.0666 15.4054 -14.0864 -0.679601 -0.730088 0.0715116
21.4319 16.1618 -12.8684 -0.71059 -0.698836 0.0817942
20.7342 17.0595 -11.427 -0.736049 -0.672852 0.0741728
20.0359 17.9941 -9.9693 -0.755313 -0.652719 0.058828
19.5258 18.7015 -8.85022 -0.774211 -0.630994 0.0494366
19.0578 19.363 -7.78044 -0.780893 -0.623141 0.0436141
18.5968 20.0104 -6.73453 -0.786425 -0.616239 0.042256
18.0962 20.7271 -5.54893 -0.801241 -0.597609 0.0296203
17.5123 21.5773 -4.14487 -0.807089 -0.590009 0.0222851
17.245 21.9716 -3.47909 -0.81123 -0.584081 0.0274723
16.3302 23.2671 -2.76724 -0.793628 -0.605709 0.0571906
16.7545 22.605 -3.8935 -0.795686 -0.604227 0.042343
17.2561 21.8734 -5.08595 -0.793518 -0.607478 0.036058
17.7894 21.0803 -6.39874 -0.800534 -0.597274 0.0490843
18.2638 20.3764 -7.55284 -0.7846 -0.617791 0.0523175
18.8351 19.5448 -8.87221 -0.774721 -0.629282 0.0617362
19.3329 18.8238 -10.0084 -0.765083 -0.640292 0.0683716
19.8529 18.0791 -11.155 -0.748566 -0.658459 0.0779763
20.4577 17.2383 -12.4727 -0.736309 -0.671096 0.0864778
20.9519 16.5796 -13.5158 -0.719407 -0.688881 0.0888617
21.5158 15.88 -14.6254 -0.701253 -0.706857 0.0927211
22.0601 15.26 -15.6398 -0.68129 -0.728489 0.0717525
22.6585 14.5898 -16.7456 -0.662676 -0.745583 0.0704747
23.2242 14.0223 -17.7236 -0.654571 -0.754623 0.0456248
22.4894 14.6414 -18.0215 -0.653778 -0.755495 0.0424546
21.8666 15.295 -16.8968 -0.672205 -0.736318 0.0773058
21.2998 15.9528 -15.8171 -0.693913 -0.716135 0.0750667
20.7646 16.6157 -14.7566 -0.720108 -0.688212 0.0883624
20.1934 17.3867 -13.5631 -0.734064 -0.673781 0.0846683
19.6928 18.0944 -12.4454 -0.751491 -0.65371 0.0890214
19.216 18.8011 -11.3525 -0.758757 -0.645658 0.0861023
18.7296 19.5237 -10.2307 -0.770784 -0.632651 0.0751274
18.2062 20.3093 -9.01505 -0.775025 -0.627452 0.075095
17.7079 21.0642 -7.83215 -0.781968 -0.620204 0.0622345
17.2006 21.8379 -6.56805 -0.787528 -0.613252 0.0610029
16.6288 22.6881 -5.17846 -0.794157 -0.606618 0.0364554
16.1871 23.3317 -4.12474 -0.792775 -0.608102 0.0414751
15.6589 24.136 -2.80352 -0.791095 -0.609471 0.0520918
15.5942 24.2336 -2.63445 -0.78592 -0.616757 0.0440481
15.2135 24.6184 -3.44762 -0.755351 -0.653042 0.0546062
15.6607 23.9598 -4.51607 -0.774671 -0.629303 0.0621553
16.1568 23.2382 -5.69041 -0.775733 -0.628871 0.0525423
16.6498 22.5193 -6.86507 -0.783256 -0.61874 0.0605916
17.121 21.7848 -8.05064 -0.784014 -0.617489 0.0634698
17.5796 21.0774 -9.14255 -0.783344 -0.616587 0.0786958
18.0824 20.2969 -10.3367 -0.767766 -0.634039 0.0923595
18.5946 19.5098 -11.5677 -0.765524 -0.63732 0.0882952
19.1258 18.6964 -12.8223 -0.757457 -0.645827 0.0957387
19.6602 17.913 -14.0472 -0.740277 -0.666203 0.090355
20.1913 17.18 -15.1788 -0.730248 -0.676523 0.0951554
20.8036 16.3837 -16.4454 -0.708168 -0.701212 0.0824643
21.336 15.7439 -17.5098 -0.689719 -0.720874 0.0680317
21.5722 15.484 -17.9498 -0.687022 -0.724595 0.0544354
20.6759 16.3768 -17.8279 -0.714526 -0.69583 0.0726116
20.0958 17.0946 -16.6329 -0.721317 -0.68921 0.0684899
19.562 17.8207 -15.479 -0.737597 -0.668302 0.096556
19.0316 18.5811 -14.2932 -0.748113 -0.656448 0.0969685
18.5958 19.2531 -13.2604 -0.757457 -0.645827 0.0957387
18.145 19.9595 -12.1633 -0.762315 -0.640044 0.0960185
17.7029 20.6445 -11.0931 -0.76512 -0.63644 0.0976496
17.2047 21.4256 -9.89715 -0.768664 -0.633115 0.0912208
16.7082 22.205 -8.72636 -0.768981 -0.633231 0.0876734
16.1856 23.0055 -7.45695 -0.762376 -0.639163 0.101256
15.6254 23.8423 -6.10912 -0.754712 -0.654074 0.0509686
15.1466 24.5254 -5.007 -0.743501 -0.663317 0.0849548
14.8651 24.9272 -4.35476 -0.73532 -0.672764 0.08181
14.5104 25.1963 -5.2962 -0.707127 -0.699957 0.100162
15.061 24.4335 -6.51218 -0.721732 -0.687936 0.0764643
15.5684 23.6985 -7.69098 -0.749704 -0.653466 0.104531
16.0467 22.9596 -8.84858 -0.750051 -0.652131 0.110221
16.6789 21.9933 -10.3075 -0.755902 -0.647228 0.0985273
17.1862 21.2021 -11.5143 -0.763281 -0.638006 0.101734
17.6925 20.4017 -12.7581 -0.760751 -0.640634 0.10414
18.1821 19.6326 -13.9476 -0.759254 -0.64274 0.102073
18.6134 18.9552 -14.9945 -0.754043 -0.648873 0.101896
19.0628 18.2917 -16.0325 -0.738439 -0.668014 0.0920105
19.6432 17.5059 -17.3196 -0.724138 -0.685518 0.0754236
19.9272 17.1347 -17.9369 -0.715097 -0.695264 0.0724182
18.3928 19.0328 -16.1677 -0.748568 -0.654856 0.103971
17.863 19.8628 -14.8618 -0.760923 -0.640119 0.106038
17.3544 20.663 -13.6263 -0.760267 -0.641827 0.100258
16.935 21.3246 -12.5937 -0.755081 -0.647888 0.10047
16.447 22.0892 -11.4249 -0.755411 -0.646165 0.108742
15.8465 22.9862 -10.0547 -0.744649 -0.659383 0.103497
15.3598 23.7273 -8.92813 -0.745594 -0.655555 0.119739
14.8996 24.4216 -7.85353 -0.716639 -0.689435 0.105397
14.362 25.1471 -6.69057 -0.717872 -0.690598 0.0879466
13.8478 25.8183 -5.62777 -0.707129 -0.699955 0.100161
13.3162 26.2279 -6.2629 -0.669524 -0.733619 0.116361
13.855 25.5428 -7.34524 -0.691267 -0.714949 0.104874
14.4426 24.7869 -8.55604 -0.716996 -0.68767 0.114136
14.9199 24.1013 -9.59835 -0.708839 -0.694402 0.123908
15.4601 23.3057 -10.7999 -0.744649 -0.659383 0.103497
15.9495 22.5845 -11.909 -0.748872 -0.654414 0.104561
16.4019 21.8771 -13.0084 -0.747997 -0.655744 0.102471
16.8723 21.1527 -14.1418 -0.759504 -0.642827 0.0996325
17.3382 20.4219 -15.274 -0.760972 -0.640736 0.101883
17.427 20.2811 -15.4956 -0.762195 -0.639078 0.103137
16.6821 21.2032 -15.3279 -0.76441 -0.637948 0.0932756
16.2419 21.8807 -14.2624 -0.755937 -0.648006 0.0929891
15.7425 22.6202 -13.0914 -0.741678 -0.661214 0.112737
15.174 23.4557 -11.8043 -0.727168 -0.676911 0.114096
14.5563 24.3303 -10.4694 -0.71355 -0.690831 0.116615
14.0361 25.0491 -9.38311 -0.701241 -0.700523 0.132395
13.513 25.7354 -8.31681 -0.692877 -0.713878 0.101485
12.9704 26.3681 -7.28919 -0.659638 -0.739536 0.134027
12.7577 26.6323 -6.87815 -0.659639 -0.739536 0.134026
12.0372 27.1762 -7.23183 -0.628498 -0.765055 0.14029
12.5873 26.5572 -8.23362 -0.636009 -0.764337 0.106219
13.1647 25.909 -9.30307 -0.648228 -0.751531 0.122484
13.6699 25.2292 -10.3165 -0.678527 -0.723207 0.128733
14.1849 24.5549 -11.3495 -0.690027 -0.7151 0.111778
14.6832 23.8765 -12.3938 -0.720592 -0.683385 0.117187
15.1814 23.1702 -13.4827 -0.733703 -0.672778 0.0951353
15.7014 22.4473 -14.6185 -0.743998 -0.662581 0.0863282
16.0285 21.9802 -15.3795 -0.774828 -0.628065 0.071946
15.3331 22.7818 -15.4093 -0.742872 -0.667216 0.0544349
14.8142 23.4622 -14.2998 -0.727983 -0.679728 0.0895065
14.1941 24.2899 -12.9924 -0.69771 -0.708405 0.1066
13.6332 25.0125 -11.8689 -0.681093 -0.72451 0.105817
13.1041 25.6634 -10.8526 -0.677093 -0.72412 0.131132
12.4287 26.4861 -9.58476 -0.644045 -0.752215 0.139203
11.6627 27.3132 -8.22488 -0.611775 -0.779218 0.1362
11.3183 27.6774 -7.62496 -0.583947 -0.800658 0.133992
10.4451 28.2662 -7.82659 -0.553338 -0.822738 0.130071
11.2858 27.4304 -9.22796 -0.596869 -0.793324 0.119931
12.057 26.6439 -10.5313 -0.627293 -0.768628 0.12536
12.7244 25.8441 -11.7642 -0.647198 -0.751111 0.130257
13.3249 25.1272 -12.9015 -0.667121 -0.734416 0.124831
13.8694 24.4583 -13.9706 -0.675046 -0.731407 0.0967303
14.4704 23.7218 -15.1804 -0.696382 -0.714505 0.0673387
14.672 23.4878 -15.5789 -0.715463 -0.695852 0.0624736
13.9844 24.1596 -15.7632 -0.712419 -0.70145 0.0206721
13.4237 24.786 -14.69 -0.674406 -0.733604 0.0836758
12.8185 25.4958 -13.5316 -0.652118 -0.750103 0.109943
12.2609 26.1194 -12.5227 -0.640115 -0.758352 0.12311
11.6721 26.79 -11.4795 -0.614004 -0.778739 0.128702
11.0743 27.3848 -10.4961 -0.562448 -0.814524 0.142133
10.283 28.1642 -9.16845 -0.567088 -0.812356 0.135971
9.64437 28.7483 -8.17764 -0.522328 -0.845209 0.113115
9.38515 28.9594 -7.79746 -0.522587 -0.843465 0.12438
8.43306 29.4553 -8.00387 -0.453392 -0.883262 0.119513
9.23652 28.8855 -9.12417 -0.486065 -0.865385 0.121858
9.95668 28.1929 -10.2699 -0.536044 -0.828244 0.163304
10.6222 27.5473 -11.3741 -0.551979 -0.821185 0.144828
11.2504 26.9291 -12.3864 -0.595167 -0.792528 0.132948
11.8328 26.3131 -13.3839 -0.613441 -0.78257 0.106179
12.4156 25.7146 -14.4035 -0.627762 -0.777335 0.040816
13.0339 25.0507 -15.5345 -0.669987 -0.740662 0.0503625
13.5498 24.5315 -16.4744 -0.665818 -0.745795 0.0218156
13.1716 24.8438 -17.3225 -0.632836 -0.774157 0.0141571
12.459 25.4827 -16.0765 -0.613706 -0.785463 0.0800863
11.8636 26.072 -15.0287 -0.600382 -0.792918 0.104035
11.2458 26.6569 -13.9983 -0.570128 -0.812232 0.123424
10.5761 27.3119 -12.8931 -0.56072 -0.815852 0.141344
9.80464 28.0322 -11.6687 -0.540079 -0.828672 0.14703
9.00175 28.7619 -10.3813 -0.469068 -0.865058 0.177902
8.29014 29.3229 -9.34749 -0.43447 -0.886623 0.15854
7.47342 29.8752 -8.23638 -0.391934 -0.911888 0.121853
7.37492 29.935 -8.10516 -0.391348 -0.911184 0.128804
6.43777 30.2592 -8.3992 -0.3163 -0.941566 0.11579
7.30655 29.7516 -9.54631 -0.39494 -0.905574 0.154784
8.00425 29.2525 -10.5235 -0.450573 -0.880653 0.146403
8.72424 28.7081 -11.5678 -0.488732 -0.859569 0.149273
9.4583 28.0559 -12.7376 -0.522819 -0.837836 0.15713
10.1824 27.3916 -13.8665 -0.520692 -0.842043 0.140866
10.9218 26.7179 -15.0551 -0.556763 -0.823997 0.10509
11.599 26.1062 -16.1805 -0.557176 -0.826358 0.0817723
12.2144 25.5746 -17.2415 -0.590109 -0.806782 0.0295784
12.6103 25.261 -17.9099 -0.599059 -0.799899 0.035904
11.6819 25.91 -17.9173 -0.551853 -0.832762 0.0443405
10.9085 26.5264 -16.6124 -0.530045 -0.84335 0.0883968
10.2189 27.1011 -15.5179 -0.540185 -0.831533 0.129432
9.49217 27.7284 -14.388 -0.506486 -0.849664 0.146776
8.85019 28.3061 -13.3987 -0.497706 -0.851148 0.166841
8.08283 28.9385 -12.2142 -0.458926 -0.875919 0.148839
7.25672 29.5259 -11.0437 -0.40756 -0.900562 0.151272
6.39491 30.0832 -9.86427 -0.341626 -0.931275 0.126563
6.1546 30.0081 -11.0818 -0.37826 -0.920289 0.0999323
6.86936 29.5527 -12.0626 -0.427582 -0.894948 0.127443
7.65557 28.9913 -13.1938 -0.441662 -0.884154 0.152337
8.34689 28.4252 -14.2415 -0.482593 -0.860507 0.163193
9.03659 27.8464 -15.2804 -0.488761 -0.860647 0.142827
9.79575 27.2209 -16.4469 -0.491711 -0.862609 0.118856
10.5892 26.6113 -17.6782 -0.502382 -0.861795 0.0701561
10.6501 26.5705 -17.7713 -0.5102 -0.858152 0.0571923
9.74793 27.0822 -17.9176 -0.502385 -0.861793 0.0701554
9.04679 27.5871 -16.8793 -0.490543 -0.862946 0.121211
8.30684 28.1611 -15.7952 -0.47939 -0.864761 0.149578
7.61361 28.737 -14.7403 -0.47421 -0.866142 0.157869
6.93521 29.2681 -13.7325 -0.449618 -0.883418 0.131967
6.22314 29.7666 -12.7098 -0.423293 -0.895916 0.13475
5.87071 30.0024 -12.2219 -0.391468 -0.91431 0.103879
5.48195 30.042 -13.2072 -0.40809 -0.904124 0.126579
6.26403 29.5208 -14.3384 -0.452742 -0.882817 0.125135
6.94235 29.0028 -15.3378 -0.477738 -0.865496 0.15061
7.59014 28.462 -16.3312 -0.474094 -0.866286 0.157427
8.29422 27.9275 -17.3201 -0.457283 -0.879062 0.134691
8.49195 27.7816 -17.6011 -0.452778 -0.884165 0.115081
6.10494 29.4111 -15.6933 -0.474104 -0.869506 0.138505
5.22921 30.0162 -14.3985 -0.420104 -0.903178 0.0882112
5.12304 30.0805 -14.246 -0.419383 -0.902363 0.0992898
4.82353 30.1473 -15.3338 -0.462237 -0.885122 0.0538086
4.89072 30.1057 -15.4311 -0.464834 -0.882642 0.0698033
-6.0727 29.3164 15.6749 0.612851 -0.788469 -0.0522517
-5.32277 29.8938 14.4232 0.550738 -0.834497 -0.0173865
-5.09379 30.0262 14.0853 0.497389 -0.867521 0.00330189
-5.47603 29.8039 13.0997 0.516082 -0.856535 0.00256025
-6.27013 29.2702 14.3433 0.54599 -0.837364 -0.0267656
-7.03473 28.6096 15.68 0.578739 -0.811096 -0.0847567
-7.1372 28.5219 15.8469 0.570542 -0.817415 -0.0794613
-9.29592 26.8826 17.689 0.563414 -0.825226 -0.0395792
-8.34819 27.6441 16.1781 0.570657 -0.8186 -0.0651573
-7.3545 28.4876 14.5238 0.575509 -0.814998 -0.0675848
-6.46224 29.1991 13.0249 0.561022 -0.826311 -0.0496345
-5.74029 29.6658 11.9345 0.504361 -0.863387 -0.0135002
-5.82151 29.622 10.5158 0.496372 -0.86811 -0.000308747
-6.6257 29.1198 11.7344 0.533547 -0.845769 0.00126019
-7.43119 28.5536 12.9867 0.555065 -0.829454 -0.0625192
-8.15114 27.9553 14.1976 0.576069 -0.815047 -0.0619978
-8.89232 27.3252 15.4466 0.583595 -0.809182 -0.0681301
-9.86933 26.5277 17.0422 0.56173 -0.825978 -0.0471136
-10.2926 26.1892 17.7427 0.593628 -0.804556 -0.0171849
-11.0166 25.6732 17.3995 0.591765 -0.805221 -0.0378519
-10.2118 26.3141 16.0532 0.594993 -0.8035 -0.0192742
-9.42968 27.0026 14.7151 0.617043 -0.785112 -0.0534513
-8.68204 27.6358 13.4336 0.587122 -0.807275 -0.0599535
-7.94092 28.2588 12.2147 0.592435 -0.805108 -0.0286775
-7.18638 28.7662 11.0582 0.540576 -0.84112 -0.0171358
-6.26011 29.363 9.61683 0.524995 -0.851098 -0.00365808
-5.86731 29.5919 9.02757 0.500974 -0.865428 0.00767317
-5.50693 29.762 7.01391 0.44911 -0.893212 0.0217572
-6.45054 29.248 8.37152 0.515919 -0.856632 0.00316617
-7.30683 28.7129 9.67133 0.539635 -0.841825 -0.0111872
-8.09923 28.1781 10.9192 0.550508 -0.834656 -0.0170131
-8.83467 27.6389 12.0719 0.605589 -0.793629 -0.0584401
-9.54279 27.0046 13.2984 0.628204 -0.776524 -0.0486945
-10.2347 26.3738 14.5075 0.619646 -0.783668 -0.0436369
-11.0548 25.6693 15.9239 0.62472 -0.780729 -0.0136884
-11.91 24.9656 17.4007 0.625686 -0.780028 -0.00858443
-11.9947 24.896 17.5499 0.620956 -0.783823 0.00586119
-12.5086 24.451 16.9314 0.666235 -0.744975 0.0338136
-11.6927 25.1519 15.4782 0.671775 -0.740751 -0.00230167
-10.9539 25.8057 14.1758 0.63565 -0.771457 -0.0283467
-10.2393 26.4659 12.9031 0.626859 -0.777715 -0.0469774
-9.55324 27.122 11.679 0.603248 -0.794686 -0.0675804
-8.65036 27.8288 10.2195 0.560556 -0.82805 -0.0105338
-7.81206 28.3981 8.89688 0.538814 -0.842373 -0.00935948
-7.04481 28.888 7.73016 0.515798 -0.856705 0.00282994
-6.89474 28.9776 7.51039 0.5158 -0.856705 0.00282986
-8.30492 28.087 8.09672 0.552146 -0.833714 -0.00746524
-9.08768 27.5294 9.34908 0.569241 -0.822043 -0.0145012
-9.8255 26.9817 10.5509 0.627864 -0.778041 -0.0209374
-10.5486 26.2877 11.8289 0.643478 -0.763335 -0.0570521
-11.3897 25.4807 13.3511 0.661947 -0.747922 -0.0493907
-12.0768 24.8117 14.6303 0.669481 -0.742773 -0.00912661
-12.7536 24.1748 15.8823 0.706332 -0.707439 0.0250157
-13.313 23.6037 15.4353 0.730132 -0.682422 0.0347529
-12.6534 24.2539 14.1837 0.713339 -0.700798 0.00548736
-12.023 24.9128 12.9565 0.678953 -0.733179 -0.0383488
-11.3001 25.6715 11.5657 0.650357 -0.758226 -0.0461406
-10.6109 26.3304 10.3273 0.629999 -0.775374 -0.0435457
-9.75197 27.0696 8.85603 0.607299 -0.793523 -0.0388617
-9.33065 27.39 8.1663 0.583538 -0.812011 -0.0110026
-10.3256 26.6443 8.24897 0.628866 -0.777482 -0.00699532
-11.1739 25.9147 9.70156 0.629999 -0.776447 -0.0151942
-11.8047 25.2646 10.8847 0.706149 -0.705523 -0.0599254
-12.4766 24.4948 12.259 0.721332 -0.692059 -0.0271048
-13.0888 23.8054 13.5044 0.718724 -0.695239 -0.00887418
-13.8033 23.0328 14.9575 0.756106 -0.653693 0.0314569
-14.002 22.8221 15.3546 0.755492 -0.654359 0.0323594
-14.625 22.0685 15.2048 0.773886 -0.632346 0.0352021
-13.9951 22.7849 13.8702 0.763075 -0.646021 0.0193141
-13.4206 23.459 12.6586 0.754238 -0.656128 -0.0249195
-12.784 24.2389 11.2667 0.717274 -0.693863 -0.0638126
-12.0875 25.075 9.80127 0.716911 -0.695744 -0.0444851
-11.4318 25.7238 8.58659 0.650956 -0.759094 -0.00577266
-11.0419 26.0655 7.91667 0.63737 -0.770546 -0.00435106
-11.9199 25.3108 7.89273 0.672547 -0.73961 -0.0256353
-12.3334 24.8913 8.66698 0.700522 -0.712701 -0.0364101
-14.0351 22.8345 10.7777 0.779971 -0.623468 -0.0541544
-14.6428 22.0024 12.2266 0.785845 -0.618396 -0.00577535
-15.2123 21.2844 13.4975 0.781968 -0.623267 0.00809417
-15.796 20.5823 14.8113 0.786888 -0.616822 0.0184035
-15.999 20.3376 15.2732 0.786793 -0.616705 0.0251429
-16.7448 19.4091 15.3782 0.783171 -0.621534 0.0184166
-16.1064 20.1664 13.9873 0.784196 -0.620211 0.0193527
-15.4117 21.0301 12.4219 0.784163 -0.620554 -0.000322158
-14.8735 21.7397 11.2022 0.786457 -0.617024 -0.0277031
-14.649 22.0502 10.6744 0.789338 -0.612647 -0.0401145
-15.1969 21.3498 10.4016 0.794732 -0.606092 -0.0324476
-15.7512 20.5969 11.6778 0.786692 -0.617345 0.000942329
-16.3271 19.8727 12.9498 0.780459 -0.625195 0.00380381
-16.8746 19.2168 14.1588 0.763511 -0.645623 0.0148991
-17.6107 18.3594 15.7136 0.770711 -0.637162 0.00544302
-18.1717 17.7018 16.9554 0.751632 -0.65958 -0.00207234
-18.482 17.3539 17.6345 0.747674 -0.66398 0.0106917
-19.3832 16.3676 17.8309 0.726137 -0.68754 -0.00379558
-18.6743 17.1255 16.4376 0.726846 -0.6868 -0.000667382
-18.0881 17.797 15.1824 0.757655 -0.652649 -0.00288728
-17.4351 18.5462 13.8213 0.763487 -0.645654 0.0147942
-16.8655 19.2013 12.6243 0.767035 -0.641573 0.00642218
-16.1937 20.0323 11.1779 0.784083 -0.620655 0.00136458
-15.699 20.7091 10.0071 0.79573 -0.605003 -0.0280209
-16.1815 20.093 9.5589 0.78505 -0.619309 -0.0123391
-16.9014 19.1524 11.1794 0.775534 -0.631302 -0.00219805
-17.467 18.4762 12.3924 0.764576 -0.644384 0.0139204
-18.2126 17.657 13.8889 0.747292 -0.664446 0.00816232
-18.8026 16.9988 15.1023 0.731939 -0.681264 -0.0120164
-19.5414 16.2067 16.5548 0.727567 -0.686034 -0.00167554
-20.1846 15.5318 17.76 0.712379 -0.701707 -0.0110739
