-17.1335 22.2051 -16.9056 0.807362 -0.581803 -0.0983416
-16.4156 23.2169 -17.2386 0.780306 -0.615483 -0.110012
-15.921 23.9799 -18.1863 0.765652 -0.636766 -0.0911345
-15.6949 24.3434 -19.1826 0.765904 -0.64227 -0.0293128
-14.9132 25.2411 -19.409 0.746521 -0.663689 -0.047141
-13.9404 26.205 -19.3493 0.678535 -0.731408 -0.0669521
-12.9536 27.1042 -19.3045 0.674961 -0.735644 -0.0570574
-11.6972 28.0776 -19.3536 0.594038 -0.802475 -0.0559824
-10.8126 28.7271 -19.3542 0.574828 -0.81497 -0.0692894
-9.86357 29.3222 -19.4098 0.507963 -0.85965 -0.0545411
-8.834 29.9022 -19.2667 0.468846 -0.882942 -0.0244395
-8.46625 30.0882 -18.2811 0.511253 -0.858942 -0.0201936
-8.01739 30.1987 -17.2363 0.45581 -0.882925 -0.112614
-9.00804 29.5857 -16.3744 0.465237 -0.879143 -0.101376
-9.90128 29.025 -15.8057 0.504998 -0.856756 -0.101858
-10.7764 28.3979 -15.3898 0.580254 -0.808684 -0.0952872
-11.5272 27.7968 -15.0283 0.590687 -0.802168 -0.0872632
-12.2771 27.1562 -14.5813 0.629545 -0.771106 -0.093105
-13.0454 26.4187 -14.0769 0.66015 -0.743975 -0.102777
-13.8032 25.619 -13.5947 0.680889 -0.722165 -0.121748
-14.4879 24.8235 -13.0282 0.728337 -0.678429 -0.0962259
-14.9868 24.1505 -12.3675 0.739693 -0.661109 -0.12493
-15.3037 23.6195 -11.4314 0.746626 -0.654555 -0.11877
-15.3726 23.505 -11.2337 0.743679 -0.659406 -0.109586
-14.7886 24.0694 -10.6723 0.723677 -0.683334 -0.0966773
-15.0439 23.6455 -9.71402 0.742204 -0.663059 -0.0973939
-15.1932 23.3052 -8.33941 0.741692 -0.666267 -0.0773407
-15.2403 23.1128 -7.1949 0.745881 -0.660317 -0.0871262
-15.3431 22.8589 -6.08765 0.75013 -0.657486 -0.0708261
-15.4444 22.602 -4.64754 0.755397 -0.652382 -0.0614185
-15.5026 22.4342 -3.4976 0.752417 -0.656458 -0.0541394
-15.4953 22.3835 -2.46333 0.763171 -0.645351 -0.031367
-15.451 22.3808 -1.20427 0.76074 -0.648757 -0.0119987
-15.3749 22.4536 -0.105831 0.759132 -0.650751 -0.015371
-15.3117 22.5133 0.954974 0.781079 -0.624403 -0.00604914
-15.0554 22.8439 1.98665 0.765195 -0.643318 0.0208082
-15.5849 22.1819 1.77804 0.79354 -0.608438 0.00988605
-16.1921 21.358 1.21547 0.812172 -0.583408 -0.00328366
-16.7482 20.5877 0.722117 0.820858 -0.570391 -0.0280706
-17.328 19.7898 0.634714 0.788684 -0.613032 -0.0459719
-17.473 19.5137 1.6948 0.786754 -0.614693 -0.0563074
-17.3777 19.5373 2.82408 0.792712 -0.607401 -0.0516937
-17.2847 19.5663 4.03476 0.784843 -0.617982 -0.0457528
-17.2007 19.5993 5.07194 0.775089 -0.630727 -0.0376946
-16.8811 19.9579 5.99163 0.791941 -0.610142 -0.000115041
-16.3552 20.6707 6.5859 0.818331 -0.574354 -0.0210422
-15.8173 21.3929 7.12368 0.818305 -0.573232 -0.0403406
-15.2913 22.1198 7.62135 0.824609 -0.562769 -0.05755
-14.6751 22.9785 7.88215 0.787995 -0.605174 -0.113263
-14.3613 23.4362 6.95945 0.741625 -0.668221 -0.0588791
-14.4244 23.4529 5.93553 0.750458 -0.659667 -0.0379425
-14.4794 23.4397 4.76878 0.722985 -0.690538 -0.0200674
-14.5672 23.399 3.68863 0.709468 -0.704265 -0.0257397
-14.4051 23.5775 3.23932 0.705878 -0.708254 0.0095413
-13.6935 24.2532 3.87653 0.686581 -0.727046 -0.00339346
-12.9256 24.9835 4.5318 0.673527 -0.739017 0.00994917
-12.0585 25.7456 5.14027 0.634776 -0.772696 -0.000754599
-11.2697 26.3751 5.64921 0.615822 -0.787882 -0.00221522
-10.4064 27.0398 5.78531 0.603411 -0.797427 -0.0020774
-9.48693 27.7262 5.89273 0.593048 -0.805167 -0.0004888
-8.63563 28.3187 5.61788 0.542386 -0.839233 0.0342433
-7.5009 28.9996 5.17163 0.521632 -0.852863 0.0211647
-6.4036 29.6089 4.37418 0.463624 -0.885905 0.0150258
-5.64386 29.977 3.79959 0.437148 -0.898939 0.0284556
-4.70071 30.4214 3.00599 0.445516 -0.895 0.0221308
-3.80877 30.7487 1.88417 0.363186 -0.931352 0.0260632
-2.74829 31.1093 0.765679 0.314955 -0.948593 0.0312213
-1.69676 31.3936 -0.0229654 0.246482 -0.968492 0.03565
-0.868439 31.5666 -0.808184 0.206213 -0.978182 0.0252217
-0.163757 31.6979 -1.65149 0.18378 -0.982474 0.013054
0.505987 31.7817 -2.47076 0.108449 -0.993889 0.0162787
1.19475 31.8126 -3.51365 0.074755 -0.995667 0.0553143
2.16322 31.784 -4.49196 -0.023449 -0.996997 0.0738056
2.77177 31.6868 -5.41786 -0.0502907 -0.996671 0.0466848
3.22391 31.6159 -6.41167 -0.0994414 -0.992527 0.0627509
3.56806 31.4958 -7.36462 -0.121899 -0.989744 0.0744854
3.89442 31.3355 -8.57646 -0.212686 -0.975725 0.0458745
3.95564 31.2599 -10.0077 -0.248303 -0.965669 0.0762967
3.76997 31.2187 -11.1757 -0.257476 -0.965047 0.0400324
3.46458 31.2791 -12.2664 -0.274986 -0.959996 0.0513111
3.04173 31.3353 -13.2336 -0.261858 -0.96408 0.0372998
2.68523 31.447 -14.2674 -0.181863 -0.982609 -0.0374837
2.30694 31.5267 -15.2531 -0.167037 -0.985858 -0.0135314
1.80168 31.741 -16.4064 -0.183348 -0.971882 -0.147743
0.943052 31.8863 -17.2894 -0.10616 -0.993738 -0.0342176
-0.0881359 31.9556 -17.9764 -0.0121787 -0.998757 -0.0483404
-1.2951 31.9313 -18.1732 0.101996 -0.992579 -0.0662096
-2.81849 31.7522 -18.1187 0.151667 -0.987735 -0.0366825
-3.68936 31.598 -17.8836 0.194249 -0.979138 -0.0583272
-3.83707 31.5885 -18.2952 0.192357 -0.980205 -0.0468735
-3.6761 31.6593 -19.3448 0.225859 -0.973697 -0.0300308
-3.13735 31.7866 -20.436 0.212145 -0.977234 -0.00271772
-1.78411 32.0102 -20.4641 0.124022 -0.991735 -0.0328777
-0.587611 32.1373 -20.5411 0.0197487 -0.989697 -0.141809
1.0403 32.1017 -20.4244 -0.0560563 -0.989472 -0.133425
2.27708 31.9729 -20.5197 -0.180713 -0.980209 -0.080826
3.18989 31.752 -20.1257 -0.227863 -0.969705 -0.0880324
3.34952 31.687 -19.1057 -0.19947 -0.979098 -0.0397248
3.69565 31.4206 -18.0514 -0.318 -0.905813 -0.279962
4.69756 30.6285 -17.8921 -0.70415 -0.700348 -0.0638619
5.54607 29.8599 -17.916 -0.658953 -0.716148 0.210271
6.28062 29.1588 -18.285 -0.431815 -0.810576 0.395604
6.5031 28.9553 -19.2975 -0.410849 -0.911304 0.0269952
6.85509 28.7686 -20.3469 -0.439762 -0.898109 0.00314851
8.2723 28.0752 -20.4667 -0.437455 -0.898923 0.023906
9.1996 27.6188 -20.4477 -0.457179 -0.889071 0.0232404
10.2652 27.0701 -20.4782 -0.455264 -0.889911 0.0277287
11.3835 26.4543 -20.4991 -0.486705 -0.873386 0.0177591
12.4954 25.7837 -20.5086 -0.532768 -0.84626 -0.00130504
13.4035 25.0996 -20.5198 -0.625186 -0.780466 -0.00387198
14.3048 24.3162 -20.4451 -0.683408 -0.729867 -0.000381527
15.2697 23.3613 -20.0449 -0.718172 -0.695851 0.00445594
15.2449 23.3926 -18.9044 -0.723338 -0.690404 -0.00869175
15.6181 22.9818 -18.077 -0.746176 -0.665647 -0.0116143
16.2206 22.1635 -17.9424 -0.809695 -0.586435 0.0220974
16.8669 21.2594 -17.9513 -0.807823 -0.587046 0.0529024
17.5308 20.3278 -17.9934 -0.803644 -0.584443 0.108664
17.993 19.6862 -18.6055 -0.732063 -0.678734 0.0555151
18.0693 19.5633 -19.6497 -0.74998 -0.661192 0.0177618
18.5092 19.0327 -20.4032 -0.75173 -0.658843 0.0287702
19.3075 18.1363 -20.5378 -0.740904 -0.670859 0.031789
20.1094 17.2687 -20.5192 -0.728416 -0.683964 0.0400535
20.8648 16.4845 -20.5292 -0.69803 -0.715632 0.0250005
21.6636 15.6967 -20.4717 -0.707534 -0.706379 0.0206128
22.5066 14.9246 -20.5165 -0.658376 -0.751764 0.0367185
23.7237 13.8756 -20.5017 -0.64483 -0.763284 0.0396898
24.624 13.1378 -20.421 -0.627385 -0.778222 0.0275521
25.4988 12.4438 -20.4623 -0.610264 -0.79194 0.0202092
26.5826 11.6276 -20.5039 -0.59264 -0.805286 0.0161716
27.5088 10.9657 -20.3786 -0.582422 -0.812656 0.0193622
28.6597 10.158 -20.4528 -0.572265 -0.819832 0.0197147
29.6614 9.48556 -20.509 -0.545578 -0.837843 0.0148335
30.7702 8.77775 -20.5892 -0.529213 -0.848129 0.0216572
32.0815 7.98668 -20.5695 -0.516455 -0.856072 0.0203553
33.4134 7.221 -20.565 -0.496555 -0.867946 0.0101328
34.4332 6.64958 -20.5095 -0.482825 -0.875654 0.00787009
35.6319 6.01456 -20.4899 -0.460387 -0.887597 0.012001
36.7586 5.43881 -20.4838 -0.455309 -0.890073 0.0215399
37.8779 4.8994 -20.5241 -0.432352 -0.901382 0.0241212
38.8745 4.44545 -20.4801 -0.414493 -0.909784 0.0220832
40.169 3.87823 -20.4778 -0.385655 -0.922498 0.0153404
41.2009 3.45614 -20.4356 -0.369162 -0.929191 0.0173094
42.1519 3.08263 -20.4982 -0.35421 -0.935018 0.0166179
43.1519 2.70267 -20.4098 -0.354451 -0.935023 0.00956168
44.5435 2.20468 -20.2816 -0.334784 -0.942266 0.0073165
45.6295 1.84687 -20.235 -0.307985 -0.951272 0.0151017
46.8215 1.47179 -20.2058 -0.295783 -0.955084 0.0181117
47.8675 1.16641 -20.1738 -0.272089 -0.962128 0.0166825
48.9065 0.879618 -20.0157 -0.264736 -0.964291 0.00765752
50.0134 0.592546 -19.962 -0.245758 -0.969113 0.0205847
51.1072 0.332921 -19.5427 -0.232896 -0.972408 0.0134802
51.8781 0.162022 -18.8221 -0.221209 -0.974981 0.0218849
52.1485 0.11964 -17.8037 -0.203992 -0.97887 0.0118685
52.1745 0.127412 -16.7666 -0.216277 -0.976247 0.0128912
52.2173 0.131016 -15.7236 -0.216714 -0.976159 0.0121613
52.3464 0.127872 -14.343 -0.220188 -0.975225 0.0212923
51.679 0.295521 -13.7023 -0.226144 -0.973844 0.0220812
50.6656 0.529115 -14.0976 -0.241005 -0.970209 0.0247009
49.4447 0.825397 -14.6598 -0.251691 -0.967219 0.0337475
48.4502 1.09076 -14.8499 -0.270835 -0.962324 0.0239161
47.3527 1.40015 -15.0722 -0.284893 -0.958359 0.0194887
46.1956 1.74831 -15.1657 -0.294961 -0.955348 0.0175763
45.0241 2.12141 -15.2615 -0.310947 -0.950197 0.0209261
43.9289 2.51084 -15.1929 -0.344561 -0.938612 0.0166487
42.9627 2.87508 -14.9079 -0.348785 -0.937018 0.0185863
41.9542 3.27357 -14.5447 -0.368036 -0.929436 0.024973
40.981 3.68729 -13.9337 -0.375895 -0.926137 0.0311617
39.952 4.13181 -13.3035 -0.390811 -0.920084 0.0263856
38.9971 4.56068 -12.9851 -0.425269 -0.904525 0.0313237
37.7979 5.13761 -12.7692 -0.432663 -0.90084 0.0359149
36.6005 5.74563 -12.3002 -0.451329 -0.89178 0.0321053
35.9939 6.09181 -11.2842 -0.453615 -0.890469 0.0360299
35.9333 6.16719 -10.1893 -0.453606 -0.890458 0.036429
35.9854 6.18794 -9.10431 -0.45529 -0.889431 0.0402878
36.315 6.06966 -7.78627 -0.456885 -0.889026 0.0298281
36.5896 5.97492 -6.47527 -0.466736 -0.883715 0.0347258
36.9344 5.83772 -5.37742 -0.458286 -0.887989 0.0380642
37.4201 5.63018 -4.45174 -0.442421 -0.896321 0.029545
38.024 5.35435 -3.59689 -0.438406 -0.898448 0.0223306
38.7159 5.05019 -2.8593 -0.42618 -0.904065 0.0321092
39.5364 4.70078 -2.21443 -0.416602 -0.908297 0.0378528
40.2408 4.41326 -1.50661 -0.40186 -0.915123 0.0324831
41.1769 4.02743 -0.886425 -0.380708 -0.924348 0.0247629
42.2835 3.58798 -0.258562 -0.369818 -0.928826 0.0227559
43.2583 3.22525 0.197339 -0.352198 -0.935464 0.029376
44.1441 2.90074 0.703127 -0.344663 -0.938579 0.0145208
45.0609 2.58165 1.2102 -0.330517 -0.943638 0.017506
46.1728 2.21361 1.65312 -0.308756 -0.950872 0.0226489
47.2565 1.87885 1.97937 -0.289579 -0.956851 0.0240643
48.5494 1.50302 2.06169 -0.265254 -0.964022 0.0173628
49.6368 1.21237 2.17697 -0.254969 -0.966743 0.0199739
50.5528 0.967389 1.76027 -0.235061 -0.97165 0.0253366
51.421 0.74759 1.12981 -0.224609 -0.974226 0.0201672
52.3907 0.511331 0.427237 -0.221806 -0.974831 0.0225176
53.0618 0.351086 -0.349858 -0.203752 -0.97877 0.0222489
53.7781 0.188751 -0.941443 -0.198885 -0.979619 0.0281194
54.2536 0.117544 -0.0321886 -0.19477 -0.980584 0.0227426
54.4188 0.110323 1.09596 -0.191811 -0.981179 0.0222677
54.4122 0.135493 2.13349 -0.190501 -0.981422 0.0228011
54.7418 0.104122 3.56525 -0.189987 -0.981563 0.02084
54.8702 0.0990576 4.59764 -0.189926 -0.981636 0.0178547
54.883 0.116569 5.62123 -0.191355 -0.981379 0.016677
55.1142 0.101975 6.78267 -0.175206 -0.984007 0.0321394
55.2113 0.105607 7.78943 -0.174582 -0.984575 0.00563116
55.2597 0.113382 8.99284 -0.180395 -0.983502 0.0133507
55.3388 0.120119 10.3719 -0.175039 -0.984365 0.0184675
55.4362 0.121773 11.6473 -0.18321 -0.982704 0.0250496
55.5121 0.125662 12.7024 -0.177511 -0.984073 0.00951481
55.7249 0.100898 13.7244 -0.165914 -0.986064 0.00905729
55.6579 0.12218 14.907 -0.17564 -0.984435 0.00620087
55.6031 0.142645 16.1301 -0.179128 -0.983774 0.0100826
55.7997 0.12169 17.6143 -0.174891 -0.984565 0.00667353
55.7922 0.119876 18.7807 -0.176204 -0.984329 -0.00696629
55.3483 0.196966 19.8892 -0.180803 -0.983517 -0.0014713
54.1835 0.41462 20.296 -0.186833 -0.982385 0.00118827
52.8142 0.686939 20.4568 -0.205717 -0.978605 0.00155503
51.5908 0.951666 20.4779 -0.217096 -0.97615 0.000475899
50.5039 1.19956 20.5969 -0.23385 -0.972257 -0.00330142
49.3859 1.47798 20.6369 -0.256251 -0.966569 -0.00422575
48.1761 1.81119 20.5459 -0.267924 -0.963433 -0.00363794
47.1444 2.10549 20.5735 -0.28491 -0.958508 -0.00808106
45.8357 2.51015 20.4372 -0.305702 -0.952067 -2.35665e-06
44.4476 2.98451 20.4207 -0.335285 -0.942109 -0.00387565
43.2249 3.42942 20.4285 -0.347386 -0.937719 -0.00248217
42.0389 3.87587 20.4404 -0.357031 -0.934091 0.00167272
41.0508 4.26486 20.5295 -0.382439 -0.923978 0.00207032
39.8674 4.77308 20.6411 -0.397816 -0.917455 -0.00436672
38.6235 5.33475 20.6004 -0.41967 -0.907677 0.00069282
37.4438 5.89373 20.6524 -0.431333 -0.902121 -0.00903858
36.4837 6.35259 20.5725 -0.535191 -0.835105 -0.0371179
35.44 6.89717 20.5798 -0.462671 -0.886307 -0.0199114
34.4214 7.4477 20.5719 -0.484756 -0.874403 -0.0207896
32.9589 8.28338 20.6644 -0.511391 -0.85933 -0.00551584
31.6902 9.0565 20.619 -0.529926 -0.84792 -0.014475
30.4765 9.83792 20.6191 -0.55724 -0.83028 -0.0108958
29.3929 10.5862 20.6574 -0.584625 -0.811232 -0.010833
28.5588 11.192 20.574 -0.596034 -0.802864 -0.00754721
27.6625 11.8906 20.6353 -0.628799 -0.777455 -0.0132497
26.8429 12.5576 20.6058 -0.633872 -0.773206 -0.0189336
25.8442 13.4107 20.5576 -0.662615 -0.748918 -0.00793505
24.9192 14.2736 20.4926 -0.688061 -0.725497 -0.0150678
23.9903 15.1657 20.5157 -0.702441 -0.711708 0.00691354
23.2247 15.9284 20.4378 -0.724042 -0.689604 -0.0051307
22.53 16.679 20.4173 -0.735293 -0.677747 0.00144448
21.7912 17.5036 20.4326 -0.765808 -0.642658 0.00732023
21.1114 18.3707 20.4761 -0.800918 -0.598773 0.00117573
20.4435 19.3085 20.4022 -0.819354 -0.573286 0.00134103
20.2712 19.5556 19.459 -0.815801 -0.578329 0.00105961
20.1814 19.6809 18.3967 -0.816983 -0.57666 0.00150775
19.669 20.4101 17.8943 -0.830127 -0.557227 0.0196442
19.0837 21.2717 17.8671 -0.825276 -0.563458 0.0378897
18.4281 22.2374 17.8104 -0.824131 -0.564462 0.0468035
17.8661 23.0771 17.991 -0.816023 -0.573931 0.0686309
17.6309 23.4431 18.9663 -0.805315 -0.592591 0.0174109
17.5699 23.5495 20.2429 -0.812413 -0.583031 0.0077218
16.8566 24.5298 20.4877 -0.806081 -0.591538 0.0177797
16.0755 25.5524 20.4808 -0.783419 -0.621387 0.011524
15.4341 26.3617 20.5097 -0.779696 -0.625911 0.0159794
14.5373 27.393 20.4945 -0.753852 -0.656265 0.0319997
13.5298 28.3739 20.4744 -0.693117 -0.719332 0.0458735
12.4408 29.2944 20.4412 -0.618586 -0.784634 0.00811147
11.4517 29.9465 20.5259 -0.533566 -0.84562 -0.0152874
10.2454 30.6341 20.4508 -0.471076 -0.881748 0.0246552
8.97483 31.2543 20.4728 -0.394173 -0.918541 -0.0106003
8.06592 31.6407 19.9628 -0.362357 -0.9319 -0.0161027
8.02271 31.6536 18.9427 -0.315116 -0.949049 0.00278834
7.63562 31.7334 18.0418 -0.242213 -0.959831 0.141625
6.65039 31.9022 17.8433 -0.148156 -0.988963 -0.00113104
5.62566 32.033 17.818 -0.112357 -0.993538 -0.0154995
4.58713 32.1358 17.8519 -0.116204 -0.991988 -0.0495712
3.61506 32.2209 18.4486 -0.134193 -0.99034 -0.0242526
3.63891 32.2239 19.5014 -0.137861 -0.990419 0.0079789
3.22479 32.2862 20.4021 -0.146206 -0.989225 0.00339988
2.19186 32.3769 20.4005 -0.0835104 -0.996177 0.0256289
1.16175 32.4382 20.4192 -0.0473548 -0.997562 0.0512615
-0.138539 32.4414 20.4419 0.0526689 -0.998584 0.00751772
-1.50089 32.3207 20.5152 0.117935 -0.991973 0.045624
-2.72246 32.11 20.4866 0.23 -0.970614 0.0707757
-3.78019 31.818 20.1203 0.254752 -0.966403 0.0341626
-3.68901 31.8423 18.9616 0.256148 -0.965847 0.0390831
-4.08105 31.6079 18.016 0.413405 -0.835648 0.361647
-4.86828 30.8444 17.8336 0.699067 -0.708525 0.0964304
-5.56732 30.0961 17.8047 0.718603 -0.692639 -0.0621368
-6.26712 29.3429 17.936 0.684756 -0.709098 -0.168195
-6.82043 28.7709 18.6933 0.496486 -0.866317 -0.0547489
-6.83486 28.7374 19.7044 0.526923 -0.849583 -0.0236854
-7.59137 28.2407 20.3767 0.535201 -0.843928 -0.0366737
-8.69078 27.5516 20.4069 0.524708 -0.850471 -0.0371472
-9.70535 26.9189 20.4047 0.528291 -0.849058 -0.00285136
-10.6323 26.3273 20.4169 0.551279 -0.834319 -0.0016775
-11.7183 25.5868 20.3642 0.585254 -0.810808 -0.0082561
-12.6635 24.8814 20.4383 0.609949 -0.792308 0.0145405
-13.6054 24.0791 20.4684 0.657612 -0.753327 0.00672068
-14.2839 23.4458 20.1835 0.690706 -0.723111 -0.00597233
-14.3372 23.3956 18.9365 0.687341 -0.726249 0.0095497
-14.669 22.9739 17.9873 0.733992 -0.668051 0.122328
-15.3012 22.1228 17.8209 0.793856 -0.600146 0.0980696
-15.928 21.2738 17.8387 0.807758 -0.586402 0.0596147
-16.5423 20.4189 17.856 0.81393 -0.580402 0.0244321
-17.0956 19.676 18.3708 0.79891 -0.601343 0.0113716
-17.2911 19.4269 19.6527 0.790123 -0.612948 -2.82193e-05
-17.883 18.6791 20.3634 0.778005 -0.627992 -0.0183132
-18.6854 17.7075 20.4645 0.763509 -0.645756 -0.00736863
-19.4894 16.7835 20.3979 0.74387 -0.668144 -0.0155153
-20.2316 15.9858 20.4128 0.718582 -0.694972 -0.0255701
-21.1168 15.0924 20.3907 0.70234 -0.711532 -0.0210237
-21.9762 14.275 20.478 0.672629 -0.739826 -0.0150864
-22.8666 13.4946 20.5311 0.646722 -0.762525 -0.0163875
-23.7404 12.7802 20.4734 0.614388 -0.788759 -0.0196665
-24.656 12.0709 20.5285 0.608995 -0.793085 -0.0119194
-25.76 11.2519 20.5559 0.586471 -0.809917 -0.00932411
-26.7764 10.5421 20.4985 0.56821 -0.822677 -0.0184238
-27.7954 9.85652 20.4636 0.545011 -0.838374 -0.00963088
-28.9396 9.13593 20.5124 0.522253 -0.852642 -0.0159446
-30.0223 8.48177 20.5836 0.51224 -0.85881 -0.00746525
-31.1058 7.85297 20.6129 0.48784 -0.87291 -0.00631114
-32.3138 7.1866 20.5286 0.476604 -0.879117 -0.00147321
-33.6359 6.48589 20.6068 0.459025 -0.888422 0.00165458
-34.822 5.88029 20.5219 0.449602 -0.893228 -0.0014107
-35.9678 5.31398 20.5248 0.436863 -0.899511 -0.00550598
-36.9855 4.83668 20.4685 0.417468 -0.908666 -0.00688209
-37.9171 4.41656 20.4244 0.405664 -0.913984 -0.00834897
-38.9612 3.95994 20.4777 0.395343 -0.918533 -0.000935981
-40.0952 3.48402 20.5477 0.378167 -0.925729 -0.00398877
-41.2135 3.0387 20.5563 0.359177 -0.933256 -0.00502651
-42.2514 2.64809 20.5776 0.340055 -0.940391 -0.0051945
-43.2832 2.27664 20.5848 0.326569 -0.945171 -7.66818e-05
-44.5263 1.85619 20.4702 0.309852 -0.950776 -0.00409683
-45.7025 1.48056 20.3942 0.295198 -0.955424 -0.00477415
-46.7222 1.17529 20.3802 0.280162 -0.959945 -0.00382674
-47.925 0.83662 20.4505 0.266153 -0.963929 -0.0019081
-49.0166 0.549428 20.3613 0.248256 -0.968689 0.00102916
-50.0118 0.293781 20.0524 0.243428 -0.969905 0.00428568
-50.7005 0.126845 19.0326 0.221735 -0.975101 0.00338475
-50.6705 0.13136 17.8586 0.236849 -0.971545 0.00146615
-50.6674 0.134376 16.7071 0.234867 -0.972017 -0.00464645
-50.5888 0.158249 15.4939 0.240221 -0.970715 -0.00248366
-50.6604 0.142665 14.3426 0.239179 -0.970975 -0.000818733
-50.6361 0.151702 13.1352 0.237558 -0.971357 -0.00556409
-50.6426 0.155955 12.0221 0.240167 -0.970721 -0.00448916
-50.6654 0.154356 10.7596 0.244382 -0.969658 -0.00506857
-50.6426 0.167793 9.54716 0.238949 -0.970991 -0.00834097
-50.7595 0.150778 8.49551 0.236484 -0.971607 -0.00736251
-50.5959 0.198129 7.44213 0.239336 -0.970882 -0.0103011
-50.8675 0.140877 6.15796 0.235317 -0.971891 -0.00731728
-50.7694 0.17448 4.92272 0.235054 -0.971965 -0.00483684
-50.8699 0.15591 3.85331 0.236213 -0.971605 -0.0120612
-50.8684 0.173825 2.63795 0.230976 -0.972916 -0.00797688
-50.9663 0.160958 1.53777 0.228363 -0.973434 -0.0165992
-51.0915 0.146185 0.474659 0.227578 -0.973668 -0.0132506
-51.1319 0.157361 -0.810162 0.226643 -0.973891 -0.0124139
-51.131 0.167001 -1.94493 0.231215 -0.972863 -0.00874628
-51.1828 0.162947 -2.97981 0.237035 -0.971339 -0.0154355
-51.3698 0.13915 -4.17108 0.22664 -0.97393 -0.00871009
-51.3889 0.140835 -5.48708 0.2293 -0.973321 -0.00720849
-51.4293 0.141487 -6.58091 0.231628 -0.972762 -0.0091055
-51.5151 0.133434 -7.7786 0.222285 -0.974943 -0.00869471
-51.4728 0.151049 -8.79745 0.225377 -0.974241 -0.00665198
-51.5515 0.142294 -9.84345 0.227863 -0.973632 -0.0107939
-51.5208 0.161618 -10.9506 0.227916 -0.973652 -0.00434225
-51.6102 0.146692 -12.038 0.227924 -0.97364 -0.00832461
-51.6668 0.143884 -13.5304 0.222706 -0.974862 -0.00651947
-51.7257 0.143561 -14.9154 0.224752 -0.97431 -0.0143843
-51.7901 0.145768 -16.1417 0.226368 -0.973954 -0.0130728
-51.8788 0.141243 -17.3121 0.22571 -0.974145 -0.00871005
-51.7224 0.181065 -18.5684 0.228647 -0.973509 -0.000710228
-50.9723 0.363648 -19.6479 0.230011 -0.973179 -0.00405395
-49.9923 0.597829 -19.8668 0.240336 -0.970664 -0.000480688
-48.5511 0.967532 -20.0822 0.25332 -0.967382 -0.000901915
-47.5374 1.24868 -20.1243 0.272647 -0.962114 0.000723498
-46.32 1.60262 -19.947 0.285384 -0.958408 -0.00330941
-45.3187 1.91519 -19.8989 0.309439 -0.950884 0.00166539
-44.3198 2.25391 -19.9881 0.325629 -0.945495 0.00205321
-43.2531 2.62794 -20.055 0.333754 -0.942659 -0.00123253
-42.168 3.03439 -20.0939 0.356245 -0.934381 0.000513245
-40.8949 3.53825 -20.0951 0.37504 -0.92699 0.00110417
-39.7421 4.02048 -20.0577 0.389585 -0.920988 -0.00055073
-38.7722 4.43914 -20.0383 0.399683 -0.91664 -0.00496186
-37.6569 4.94813 -20.1026 0.420362 -0.907353 -0.00259656
-36.5004 5.49463 -20.1764 0.431947 -0.901874 -0.00678113
-35.3058 6.08618 -20.0371 0.452177 -0.891921 -0.00372653
-34.2466 6.63876 -20.1169 0.469418 -0.882967 0.00404703
-33.2107 7.20064 -19.9842 0.484723 -0.874654 0.00494682
-32.2126 7.76341 -20.0986 0.497436 -0.867437 0.00638626
-31.1066 8.41265 -20.0834 0.521377 -0.853163 0.0167029
-30.2413 8.94989 -20.2333 0.53427 -0.845309 0.00290011
-29.3346 9.5469 -20.2972 0.559664 -0.828711 0.00373642
-28.3534 10.2222 -20.339 0.583448 -0.811842 0.0224
-27.439 10.8839 -20.3354 0.601848 -0.798454 0.0158051
-26.6102 11.5068 -20.4308 0.60194 -0.798383 0.0159062
-25.6079 12.3106 -20.4919 0.639619 -0.768489 0.0176623
-24.6961 13.0917 -20.4471 0.659461 -0.751663 0.0107116
-23.8363 13.8647 -20.4664 0.679028 -0.734041 0.010235
-23.047 14.6234 -20.4022 0.705555 -0.70861 0.00805931
-22.0919 15.6314 -20.4966 0.738704 -0.673935 0.0112998
-21.4231 16.4095 -20.5352 0.765631 -0.643235 0.00745672
-20.7252 17.2934 -20.4624 0.79532 -0.606075 0.00362437
-19.9757 18.2985 -20.444 0.800631 -0.599023 0.0127114
-19.1979 19.3901 -20.3554 0.815831 -0.578288 -0.00198975
-19.136 19.4628 -19.2458 0.826302 -0.5627 -0.0243734
-18.9498 19.7098 -18.2264 0.840377 -0.540366 -0.0349899
-18.3013 20.6556 -17.9193 0.834472 -0.54762 -0.0605868
-17.7153 21.5367 -17.923 0.827597 -0.554663 -0.0861596
-17.0549 22.5124 -17.9618 0.81349 -0.569469 -0.118061
-16.5005 23.3352 -18.4915 0.720945 -0.686049 -0.0685521
-16.4343 23.4747 -19.5078 0.767696 -0.640274 -0.0263235
-16.1128 23.8893 -20.4084 0.773484 -0.633796 -0.00496651
-15.4321 24.703 -20.3819 0.761039 -0.648165 -0.0264868
-14.6319 25.5956 -20.408 0.724146 -0.687041 -0.059898
-13.7275 26.4916 -20.3785 0.671668 -0.736271 -0.0822624
-12.958 27.1632 -20.3158 0.622607 -0.778762 -0.0767534
-12.1574 27.8102 -20.3864 0.612276 -0.787399 -0.0699555
-11.0093 28.6661 -20.3841 0.591939 -0.802783 -0.07175
-9.8444 29.391 -20.4496 0.512261 -0.857872 -0.0395016
-8.88642 29.9149 -20.5699 0.459066 -0.887921 -0.0292212
-7.91374 30.3989 -20.169 0.447827 -0.893886 -0.0121513
-7.76821 30.4666 -19.0841 0.460535 -0.887473 0.0112628
-7.20405 30.6775 -18.0435 0.330881 -0.93261 -0.137722
-6.19361 30.9767 -17.9769 0.276997 -0.958535 -0.0669636
-5.08208 31.2701 -17.9358 0.251256 -0.966483 -0.0527317
-5.34789 31.1642 -17.3652 0.251104 -0.965392 -0.0696897
-6.33627 30.8407 -16.8399 0.32494 -0.941278 -0.0898849
-7.21458 30.4405 -16.2645 0.351412 -0.930802 -0.0993839
-8.24394 29.892 -15.6349 0.440129 -0.892048 -0.101713
-9.37742 29.2264 -14.9457 0.460285 -0.883058 -0.0913579
-10.1898 28.6972 -14.5109 0.545495 -0.832683 -0.0903645
-11.0012 28.0875 -14.1663 0.566802 -0.81765 -0.100919
-11.8388 27.3969 -13.674 0.642961 -0.759489 -0.0988844
-12.5313 26.7245 -13.1807 0.653366 -0.745992 -0.128876
-13.2444 25.9819 -12.5939 0.678807 -0.725087 -0.116058
-14.117 25.035 -12.0055 0.698439 -0.703303 -0.132471
-14.5021 24.4637 -11.1716 0.728742 -0.674511 -0.118194
-14.6824 24.2088 -10.8266 0.729654 -0.673852 -0.11631
52.736 0.523851 4.28826 -0.207486 -0.978032 0.0200504
52.3705 0.574916 3.07829 -0.216794 -0.975996 0.0181577
51.342 0.823547 3.71153 -0.22807 -0.973496 0.0168162
50.194 1.10809 4.13825 -0.236677 -0.971431 0.0174945
48.8958 1.44744 4.24318 -0.262126 -0.964849 0.0176332
47.7436 1.7724 4.14309 -0.281789 -0.959352 0.0142971
46.615 2.11193 3.89439 -0.30523 -0.952094 0.0170739
45.1673 2.58965 3.44028 -0.327812 -0.944551 0.0190691
44.1513 2.94475 3.08103 -0.345977 -0.938132 0.0144598
43.2398 3.28007 2.61501 -0.359742 -0.932805 0.0207451
42.3374 3.61367 2.1185 -0.371078 -0.928358 0.0205161
41.4263 3.97392 1.66727 -0.373519 -0.927478 0.0163198
40.4359 4.38386 0.987152 -0.405805 -0.913801 0.0170068
39.5341 4.78128 0.438363 -0.41526 -0.909579 0.0150043
38.7236 5.14195 -0.164354 -0.434703 -0.900416 0.0154465
37.6919 5.60932 -1.09906 -0.443353 -0.895763 0.0312879
36.9453 5.95524 -1.90239 -0.458642 -0.888074 0.0292884
36.1721 6.3417 -2.65801 -0.466269 -0.883974 0.0343643
35.686 6.56307 -3.64186 -0.474773 -0.879408 0.0351168
35.1144 6.81904 -4.94782 -0.474231 -0.879841 0.0313127
34.6681 7.01224 -6.30942 -0.485974 -0.873235 0.0359239
34.3653 7.12134 -7.61618 -0.486024 -0.872986 0.040918
34.1971 7.16652 -8.71756 -0.493997 -0.868621 0.038224
34.0938 7.17267 -10.0601 -0.483649 -0.874096 0.0451591
34.2252 7.04482 -11.1728 -0.482534 -0.875246 0.0331435
34.5149 6.8309 -12.4866 -0.474023 -0.879614 0.0387535
34.9928 6.54221 -13.4098 -0.467141 -0.883493 0.0349021
35.964 5.99824 -14.1951 -0.458018 -0.888112 0.0379742
36.8471 5.52988 -14.6687 -0.451811 -0.891596 0.0301891
37.857 5.03481 -14.8923 -0.431864 -0.901648 0.0224311
38.8436 4.57131 -15.1533 -0.413293 -0.910385 0.0180555
40.0062 4.0411 -15.7552 -0.39372 -0.918659 0.0302734
40.8786 3.66216 -16.3164 -0.38474 -0.922697 0.0245999
42.1379 3.14078 -16.9039 -0.369892 -0.928924 0.0159231
43.2982 2.69529 -17.2254 -0.356103 -0.934349 0.0134095
44.3259 2.32149 -17.3607 -0.325523 -0.945239 0.023498
45.7265 1.85063 -17.4802 -0.304239 -0.952506 0.0130878
46.8131 1.51825 -17.4013 -0.286965 -0.957887 0.0102003
48.0236 1.16499 -17.121 -0.277535 -0.960652 0.01075
49.1882 0.846112 -16.7066 -0.25326 -0.967312 0.0129105
50.3278 0.555639 -16.9314 -0.237772 -0.97122 0.0138514
49.6812 0.700589 -17.8758 -0.247617 -0.968667 0.0145359
48.6176 0.986513 -17.8885 -0.258406 -0.965956 0.0116519
47.6453 1.26016 -18.2173 -0.27894 -0.960072 0.0213224
46.417 1.62503 -18.2731 -0.287126 -0.957749 0.0166153
45.3457 1.96238 -18.2915 -0.3042 -0.952557 0.00989665
44.1514 2.36098 -18.3077 -0.33755 -0.941122 0.0152356
43.0171 2.78629 -18.2933 -0.357147 -0.933937 0.0144395
41.8915 3.22366 -18.2443 -0.366568 -0.930232 0.0172231
40.8563 3.63534 -18.2754 -0.373504 -0.927488 0.0161558
39.8298 4.06292 -18.3271 -0.395887 -0.918214 0.012547
38.7458 4.54406 -18.3954 -0.416951 -0.908812 0.0145649
37.6121 5.07261 -18.4288 -0.431986 -0.901733 0.0162854
36.5229 5.60364 -18.3947 -0.446342 -0.894722 0.0158495
35.1619 6.29727 -18.3936 -0.45642 -0.889604 0.0166769
34.1319 6.84691 -18.4871 -0.49125 -0.870942 0.0115162
33.1908 7.38159 -18.4957 -0.494826 -0.868729 0.0207933
32.1925 7.96084 -18.4864 -0.507567 -0.861392 0.0194858
31.1292 8.60447 -18.4141 -0.522551 -0.852255 0.0245215
29.931 9.3539 -18.413 -0.546075 -0.837373 0.0205297
28.9601 10.0128 -18.3544 -0.565291 -0.824459 0.0267011
27.924 10.7348 -18.3423 -0.583326 -0.81135 0.0378962
26.6859 11.6326 -18.3307 -0.593143 -0.803982 0.0423576
25.7242 12.3614 -18.2852 -0.610383 -0.790915 0.0434309
24.7758 13.1092 -18.326 -0.629425 -0.775901 0.0424484
23.9401 13.8016 -18.3379 -0.647019 -0.761285 0.0425504
23.0581 14.568 -18.3478 -0.662666 -0.747259 0.0497891
22.0977 15.4118 -18.4132 -0.65899 -0.750067 0.0559571
21.2278 16.2479 -18.4001 -0.70593 -0.705689 0.0579968
20.2256 17.2944 -18.3418 -0.722629 -0.689066 0.0547261
19.3701 18.2252 -17.9994 -0.727482 -0.683792 0.056553
18.8012 18.9116 -17.0506 -0.722512 -0.690004 0.0223947
18.2932 19.6518 -16.3512 -0.774867 -0.624006 0.100984
17.6209 20.528 -16.0808 -0.776241 -0.622772 0.0979235
16.9593 21.3719 -15.9997 -0.778686 -0.621379 0.0868163
16.0922 22.461 -16.0326 -0.775442 -0.628184 0.0635256
15.3934 23.2487 -16.2592 -0.741654 -0.669749 0.0372194
14.4981 24.1659 -16.7977 -0.716529 -0.696695 0.03468
14.0032 24.6057 -17.6785 -0.673283 -0.739272 0.0128956
13.4468 25.1033 -18.4042 -0.606621 -0.793155 -0.0301302
12.4854 25.8025 -18.4141 -0.562666 -0.826271 0.0110562
11.4107 26.4998 -18.3627 -0.51527 -0.855239 0.0539159
10.1708 27.2217 -18.3441 -0.488362 -0.870972 0.0539578
8.98231 27.8505 -18.3298 -0.461661 -0.882006 0.0942623
8.04187 28.3936 -17.7702 -0.457961 -0.88182 0.111103
7.51197 28.8176 -16.9338 -0.484376 -0.860381 0.158507
6.67159 29.4561 -16.2131 -0.514887 -0.840727 0.167541
5.77275 30.0296 -15.9528 -0.532612 -0.840818 0.0966894
4.76207 30.6339 -15.7833 -0.503369 -0.861721 0.0586818
4.61385 30.7683 -14.76 -0.430126 -0.901774 0.0423682
5.05752 30.64 -13.6976 -0.421955 -0.903268 0.0778506
5.45196 30.5655 -12.5764 -0.404794 -0.90963 0.0933588
5.78062 30.5538 -11.2091 -0.384343 -0.918481 0.0930498
5.96232 30.6198 -9.91274 -0.349099 -0.929284 0.120409
5.97372 30.7517 -8.79245 -0.34349 -0.931802 0.117189
5.85551 30.9514 -7.42401 -0.265052 -0.959647 0.092443
6.78541 30.6508 -7.32482 -0.32414 -0.936663 0.132647
7.84478 30.2652 -7.41093 -0.407764 -0.89976 0.143987
8.92167 29.6851 -7.52857 -0.465902 -0.877345 0.114823
9.89712 29.1846 -7.37661 -0.523035 -0.843493 0.100298
10.7692 28.6071 -7.13117 -0.5719 -0.80961 0.132025
11.6873 27.9984 -6.82176 -0.579946 -0.802347 0.141072
12.5594 27.4012 -6.33007 -0.619667 -0.774345 0.127956
13.4416 26.7424 -5.61267 -0.677607 -0.724571 0.125749
14.226 26.137 -4.79397 -0.70076 -0.703456 0.11704
14.7915 25.6896 -3.55337 -0.740884 -0.667633 0.0701496
15.2184 25.3184 -2.3257 -0.763801 -0.642022 0.0639607
15.7004 24.789 -1.48971 -0.777102 -0.628363 0.035674
16.2439 24.0627 -2.12709 -0.784942 -0.61768 0.0483394
16.8262 23.2521 -2.84486 -0.7894 -0.611694 0.0517039
17.4045 22.4505 -3.34133 -0.774009 -0.633161 0.00414188
17.9748 21.6449 -3.76143 -0.837583 -0.545649 0.0268751
18.6992 20.5849 -4.11712 -0.819425 -0.573125 0.00837748
19.3631 19.6755 -4.1399 -0.800406 -0.599396 -0.00356282
20.0223 18.8123 -3.62069 -0.78499 -0.61948 -0.00593533
20.6025 18.1165 -2.49488 -0.755379 -0.655192 -0.00793182
20.7597 17.9208 -1.44016 -0.760737 -0.648753 -0.0199649
20.7557 17.9093 -0.319675 -0.742795 -0.669497 0.00535443
20.7491 17.9463 0.758006 -0.741417 -0.670339 0.0307801
20.7115 18.0471 2.22275 -0.739197 -0.673014 0.025284
20.5524 18.2687 3.35117 -0.743175 -0.668384 0.0308741
20.1661 18.7594 4.25854 -0.747175 -0.6629 0.0478888
19.4948 19.6324 5.13645 -0.776193 -0.628273 0.0528902
18.903 20.4409 5.61437 -0.793129 -0.606104 0.059468
18.358 21.2222 6.19824 -0.804067 -0.591532 0.0583787
17.801 22.0401 6.65426 -0.813147 -0.579718 0.0516414
17.1097 23.0451 6.83084 -0.823201 -0.566334 0.0400552
16.4396 23.988 6.39266 -0.822137 -0.568221 0.034709
15.8184 24.8361 5.86349 -0.813019 -0.580728 0.0418972
15.5774 25.2234 6.7921 -0.799629 -0.59994 0.0257858
15.3932 25.5287 7.96748 -0.801748 -0.59675 0.0330198
15.199 25.8416 9.02858 -0.788219 -0.6148 0.027046
14.9447 26.2455 10.1616 -0.775152 -0.630133 0.0372784
14.4969 26.8455 11.383 -0.753447 -0.656178 0.0388639
14.0013 27.4665 12.2304 -0.726916 -0.685311 0.04406
13.363 28.1593 13.0643 -0.678371 -0.73393 0.0340593
12.7066 28.785 13.7233 -0.669768 -0.741898 0.0312262
11.8493 29.4903 14.4286 -0.597518 -0.801762 0.00582895
11.1001 30.0428 15.0197 -0.550397 -0.829818 0.092008
10.1195 30.6372 15.7559 -0.482571 -0.875204 0.0303914
9.12083 31.1119 16.4887 -0.415023 -0.90941 0.0266674
9.56505 30.968 17.6584 -0.410211 -0.908738 0.0769514
10.2469 30.6692 18.3728 -0.464785 -0.884451 0.0159959
11.2401 30.0517 18.4687 -0.524067 -0.851094 0.0303186
12.2707 29.3653 18.4303 -0.576578 -0.816425 0.0129257
13.2768 28.5037 18.4105 -0.665289 -0.746352 -0.00623132
14.3618 27.4735 18.4574 -0.688965 -0.723115 0.0493105
15.1483 26.5943 18.3727 -0.74823 -0.661605 0.0456304
15.8665 25.7358 18.2196 -0.787802 -0.614843 0.0348341
16.4519 24.9604 17.8294 -0.796874 -0.603446 0.0290052
16.8754 24.3483 16.7915 -0.796553 -0.6038 0.0304774
17.3958 23.5633 16.1189 -0.812694 -0.579242 0.0632984
18.0597 22.5724 15.7106 -0.817016 -0.57333 0.0614136
18.6969 21.6654 15.6813 -0.81662 -0.574732 0.0530477
19.4287 20.6427 15.8042 -0.812988 -0.581215 0.0351971
20.0951 19.7267 15.9891 -0.801685 -0.597301 0.0230836
20.7326 18.8854 16.5832 -0.805478 -0.592354 0.0179206
21.1952 18.2825 17.5049 -0.788925 -0.614405 -0.00960459
21.742 17.5792 18.3416 -0.777964 -0.628162 -0.0135827
22.8011 16.3902 18.2728 -0.730637 -0.682711 -0.000622579
23.6617 15.5068 18.3549 -0.714235 -0.699879 0.00541456
24.5867 14.5931 18.3532 -0.691482 -0.722173 0.00791457
25.7811 13.513 18.3664 -0.663879 -0.747776 0.00665616
26.7978 12.6301 18.4534 -0.64838 -0.761121 -0.0141667
27.6829 11.8966 18.4839 -0.636019 -0.771479 -0.017291
28.6335 11.1658 18.4909 -0.592176 -0.805602 -0.0162212
29.8781 10.2794 18.4771 -0.569687 -0.821778 -0.0117472
30.7683 9.67363 18.4633 -0.555435 -0.831464 -0.0126457
31.6717 9.09086 18.5119 -0.529363 -0.848387 -0.00372563
32.6326 8.49637 18.5592 -0.521688 -0.853103 -0.00747301
33.6505 7.89429 18.5481 -0.497995 -0.86718 0.000118332
35.0605 7.1094 18.5548 -0.475997 -0.879429 -0.0010111
36.0161 6.60954 18.4755 -0.456082 -0.889895 -0.00871062
37.1396 6.04492 18.4813 -0.434212 -0.9007 -0.0114838
38.1889 5.55195 18.4399 -0.418573 -0.90816 -0.00648156
39.3598 5.01153 18.4785 -0.409536 -0.912271 0.00463447
40.4957 4.5059 18.458 -0.40262 -0.915339 0.00531208
41.6041 4.04296 18.4275 -0.382244 -0.92403 0.00510365
42.6276 3.64656 18.3631 -0.356818 -0.934141 0.00790417
43.7973 3.21239 18.3175 -0.337846 -0.941163 0.00414982
44.8055 2.85607 18.3182 -0.32557 -0.945467 -0.00299583
46.0506 2.442 18.3762 -0.307057 -0.95168 0.00372661
47.0966 2.11914 18.4289 -0.281248 -0.95962 0.00538771
48.3236 1.76312 18.4447 -0.276625 -0.960885 0.0133418
49.4775 1.45288 18.5069 -0.249828 -0.968238 0.00298333
50.5253 1.19228 18.4652 -0.236608 -0.971586 -0.00293715
51.8327 0.890502 18.3551 -0.20714 -0.978307 -0.00107911
52.8936 0.670187 18.2622 -0.197703 -0.980261 0.00139393
53.6764 0.512585 17.7075 -0.196772 -0.980449 0.000725128
53.6599 0.512366 16.6087 -0.18832 -0.982099 0.00409666
53.699 0.488826 15.0805 -0.19343 -0.981028 0.0129665
53.7089 0.478181 13.9942 -0.193036 -0.981164 0.00742932
53.5398 0.499644 12.9075 -0.190014 -0.981692 0.0132427
53.4108 0.505332 11.6918 -0.189087 -0.981814 0.016929
53.3811 0.490239 10.5881 -0.188125 -0.981936 0.0202834
53.3472 0.483522 9.47735 -0.189429 -0.981872 0.00663492
53.2395 0.4872 8.25266 -0.194106 -0.980859 0.015456
53.1232 0.491881 7.14941 -0.203298 -0.978978 0.016467
52.8999 0.515473 5.77518 -0.206934 -0.978252 0.0141661
52.7546 0.524134 4.50986 -0.207609 -0.978032 0.0187483
53.7918 0.308202 4.36927 -0.196542 -0.980338 0.0175749
53.6687 0.309823 3.21948 -0.196353 -0.980339 0.0195199
53.3746 0.339506 1.8749 -0.199412 -0.979676 0.0216824
52.8561 0.436479 1.36792 -0.203973 -0.978632 0.0259621
51.984 0.639715 2.01055 -0.219619 -0.975371 0.020478
51.0683 0.864894 2.66167 -0.236019 -0.971483 0.0227036
50.0267 1.12836 3.14838 -0.245339 -0.969177 0.0195736
48.8592 1.43864 3.21789 -0.262126 -0.964849 0.0176332
47.6721 1.77219 3.12899 -0.281517 -0.959309 0.0188877
46.5037 2.12936 2.75779 -0.310638 -0.950396 0.0158666
45.3465 2.50751 2.42979 -0.325387 -0.945278 0.0233468
44.0304 2.96549 1.87741 -0.349886 -0.93658 0.0197132
42.9345 3.36831 1.26589 -0.356025 -0.93436 0.0147395
41.8801 3.77315 0.677103 -0.372637 -0.927815 0.0173301
40.9019 4.16663 0.109774 -0.39899 -0.916718 0.0208647
40.0166 4.54049 -0.429201 -0.399831 -0.91637 0.02003
39.1303 4.92471 -1.20677 -0.414685 -0.909545 0.0276622
38.3238 5.27567 -1.89062 -0.425673 -0.90389 0.0422458
37.5479 5.62133 -2.69088 -0.447119 -0.893844 0.0333085
36.6203 6.05651 -3.8898 -0.463754 -0.885376 0.0320464
36.0384 6.31491 -5.1785 -0.467916 -0.883202 0.0317808
35.6291 6.48796 -6.32951 -0.46676 -0.883703 0.0347093
35.3318 6.58927 -7.66077 -0.472819 -0.880342 0.0371592
35.0685 6.68246 -8.86899 -0.474545 -0.879592 0.0335551
34.9538 6.70332 -9.94046 -0.471026 -0.880912 0.0461252
35.125 6.55028 -11.0945 -0.466306 -0.883669 0.0402474
35.4131 6.36204 -12.2612 -0.469897 -0.882097 0.0332022
36.3218 5.85341 -13.2242 -0.456798 -0.889036 0.0301621
37.2226 5.38212 -13.6883 -0.445263 -0.894662 0.0361005
38.2787 4.86308 -13.9323 -0.426435 -0.903879 0.0339957
39.3456 4.36907 -14.2072 -0.406439 -0.913455 0.0201603
40.441 3.88556 -14.7952 -0.387302 -0.921596 0.0256685
41.4754 3.43791 -15.4849 -0.368037 -0.929435 0.024972
42.6841 2.9576 -15.951 -0.356873 -0.933792 0.0254616
43.8527 2.51828 -16.2191 -0.340639 -0.939876 0.0239028
45.1818 2.04553 -16.3931 -0.313683 -0.949285 0.0181843
46.5446 1.61736 -16.2809 -0.298883 -0.954003 0.0233708
47.6531 1.2868 -16.1893 -0.281045 -0.959441 0.0210963
48.6424 1.01297 -15.8421 -0.261933 -0.96485 0.0211081
49.8558 0.694801 -15.551 -0.247895 -0.968559 0.0210095
50.9687 0.426488 -15.2086 -0.234603 -0.971851 0.0204178
51.3023 0.333858 -16.1434 -0.224127 -0.974464 0.0135476
51.2617 0.328787 -17.2773 -0.230457 -0.972994 0.0130477
50.8104 0.420274 -18.4009 -0.23431 -0.972094 0.0115191
49.5887 0.712166 -18.9366 -0.246219 -0.969199 0.00541469
48.4283 1.02166 -19.0677 -0.268474 -0.963189 0.0137023
47.3587 1.32615 -19.2077 -0.286866 -0.957792 0.0185123
46.2319 1.67018 -19.2367 -0.300679 -0.953588 0.0161804
45.1999 1.99913 -19.2837 -0.306105 -0.951936 0.0104486
44.0504 2.38407 -19.3113 -0.332182 -0.943201 0.00515415
42.8554 2.82702 -19.3582 -0.354119 -0.935034 0.0174863
41.5339 3.34414 -19.3481 -0.365882 -0.930513 0.0165877
40.4684 3.7718 -19.3701 -0.381837 -0.924033 0.0163229
39.1151 4.36001 -19.4225 -0.414705 -0.909867 0.0127447
38.026 4.86029 -19.4803 -0.423713 -0.9054 0.0267806
36.8759 5.41138 -19.4535 -0.440603 -0.897288 0.0272806
35.5892 6.05668 -19.4523 -0.454692 -0.890478 0.0174342
34.5543 6.59802 -19.4807 -0.478129 -0.878174 0.0142161
33.4497 7.21369 -19.5385 -0.496695 -0.867776 0.0160995
32.4122 7.8089 -19.5514 -0.506637 -0.861963 0.0157777
31.2337 8.51897 -19.4967 -0.516843 -0.855917 0.0166889
29.9008 9.34909 -19.4807 -0.534558 -0.845007 0.014366
28.9327 9.99707 -19.4112 -0.56099 -0.827428 0.0249347
27.9453 10.6833 -19.3901 -0.572505 -0.819628 0.0211827
26.9562 11.3844 -19.4075 -0.584271 -0.811211 0.0232276
25.7531 12.2834 -19.3571 -0.608566 -0.792511 0.0396752
24.7572 13.0698 -19.3997 -0.631368 -0.774682 0.0352524
23.7756 13.8893 -19.4112 -0.649016 -0.759923 0.0359862
22.8489 14.6874 -19.4005 -0.653117 -0.755647 0.0493506
22.0067 15.4221 -19.4782 -0.667912 -0.742966 0.0435324
21.2329 16.1738 -19.4482 -0.708828 -0.704277 0.039459
20.3082 17.1208 -19.4372 -0.716709 -0.695772 0.0466624
19.122 18.4092 -19.2199 -0.730116 -0.681795 0.0456319
18.6463 18.9731 -18.4433 -0.740979 -0.66956 0.0513856
18.2154 19.5603 -17.5159 -0.765139 -0.636066 0.0998641
17.5717 20.435 -17.0617 -0.780866 -0.616868 0.0985373
16.9205 21.2959 -16.9904 -0.795483 -0.600766 0.0788679
16.2032 22.242 -16.9454 -0.784192 -0.620134 0.0218271
15.5032 23.1039 -17.1642 -0.742811 -0.669452 0.00808863
14.8457 23.7956 -17.6423 -0.707718 -0.706457 0.00724687
14.5853 24.0656 -18.6346 -0.710954 -0.7027 -0.0275284
14.1246 24.507 -19.4054 -0.674977 -0.736188 0.0493248
13.3012 25.2073 -19.4555 -0.596462 -0.802329 0.0223826
12.3025 25.9177 -19.4474 -0.52504 -0.851061 -0.00534694
11.1381 26.6205 -19.4136 -0.494524 -0.868843 0.0230277
9.71354 27.3903 -19.3884 -0.458802 -0.887332 0.044234
8.28832 28.1124 -19.4006 -0.437718 -0.897254 0.0577828
7.44453 28.5476 -18.9775 -0.393198 -0.912526 0.102108
7.09767 28.8518 -17.9209 -0.4583 -0.872288 0.170039
6.3811 29.439 -17.2066 -0.5183 -0.833836 0.188234
5.42017 30.1306 -16.926 -0.534146 -0.83706 0.118397
4.49607 30.747 -16.8501 -0.520791 -0.853588 0.0128323
3.44552 31.3449 -17.0193 -0.400632 -0.90698 -0.129928
2.66964 31.6662 -17.7416 -0.195506 -0.977499 -0.043258
2.42046 31.8151 -18.892 -0.116509 -0.990699 -0.0702881
1.24736 31.9632 -19.3716 -0.0879279 -0.994647 -0.0542683
-0.0393019 32.0517 -19.5842 -0.0114147 -0.998286 -0.0568475
0.2403 32.011 -19.0131 -0.0156781 -0.997859 -0.0634925
1.36403 31.8835 -18.3052 -0.0977608 -0.992584 -0.0722527
2.24602 31.7534 -17.5533 -0.13866 -0.989815 -0.032256
2.90427 31.5153 -16.5656 -0.317958 -0.936015 -0.123583
3.28555 31.285 -15.6053 -0.305531 -0.952173 0.00422448
3.66719 31.1779 -14.5305 -0.376822 -0.925905 -0.0265669
4.06335 31.0528 -13.4607 -0.329516 -0.942693 0.0524252
4.46787 30.9633 -12.4523 -0.334347 -0.941279 0.046963
4.76001 30.9241 -11.3605 -0.333468 -0.93967 0.0762826
4.95571 30.9582 -10.1179 -0.331043 -0.940195 0.0802765
4.99413 31.0485 -9.04383 -0.302241 -0.948588 0.0921338
4.80864 31.1936 -7.93446 -0.247055 -0.965091 0.0704659
4.43262 31.3713 -6.78231 -0.232787 -0.969709 0.0739857
4.51833 31.4589 -5.5314 -0.206818 -0.973357 0.0990056
5.55062 31.1793 -5.93874 -0.237981 -0.966183 0.0992755
6.64898 30.8267 -6.22824 -0.320639 -0.941692 0.102012
7.7145 30.4083 -6.39232 -0.379655 -0.918869 0.107433
8.7953 29.8834 -6.4745 -0.466687 -0.877741 0.108509
9.81022 29.3366 -6.38934 -0.503789 -0.859669 0.0846516
11.0711 28.5745 -5.98364 -0.566089 -0.814637 0.126133
12.2927 27.7764 -5.38259 -0.637845 -0.749432 0.177498
13.152 27.1736 -4.71329 -0.670131 -0.730377 0.130415
13.8625 26.6535 -3.84018 -0.692988 -0.710867 0.120147
14.403 26.2378 -2.55512 -0.718406 -0.688198 0.101373
14.7493 25.9414 -1.4948 -0.758281 -0.650765 0.0389274
15.1269 25.556 -0.25181 -0.758287 -0.650766 0.0387896
15.28 25.4303 1.11695 -0.769871 -0.63799 0.0163832
15.3237 25.3838 2.37951 -0.785387 -0.618936 0.00928386
15.2418 25.5135 3.58457 -0.797388 -0.602427 0.0347086
15.1184 25.7363 4.94165 -0.788649 -0.614567 0.0115774
15.0238 25.8895 6.00919 -0.784042 -0.619349 0.0410628
14.8248 26.2065 7.29762 -0.757351 -0.651734 0.0407682
14.6657 26.4916 8.32814 -0.764987 -0.642394 0.03063
14.3988 26.8577 9.32867 -0.76463 -0.642596 0.0431601
14.1259 27.2064 10.3568 -0.736606 -0.675759 0.0185206
13.6835 27.7447 11.2634 -0.716441 -0.696294 0.0245619
12.9419 28.5007 12.1684 -0.682843 -0.729428 0.0396997
12.2719 29.1217 12.8322 -0.62877 -0.776268 0.0453494
11.5635 29.6847 13.4762 -0.591529 -0.806108 0.0164004
10.6043 30.2906 14.1459 -0.487842 -0.872127 0.0370239
9.57847 30.8713 14.8473 -0.437169 -0.897959 0.0310951
8.62057 31.2949 15.4298 -0.355974 -0.933201 0.0140506
7.6218 31.6205 16.0272 -0.269805 -0.962421 0.00219755
6.49787 31.9161 16.6611 -0.174853 -0.984367 0.020335
7.45939 31.6975 16.8809 -0.265056 -0.963149 0.0451528
8.39249 31.445 17.5226 -0.373809 -0.925973 0.0478532
8.9017 31.3144 18.5212 -0.389029 -0.920398 0.0390466
9.43304 31.1037 19.3439 -0.459561 -0.886686 -0.0443692
10.5101 30.506 19.4424 -0.473084 -0.880379 -0.0276492
11.6707 29.8169 19.485 -0.534046 -0.844389 0.03094
12.8306 28.9727 19.4117 -0.62091 -0.781493 0.0414296
13.7957 28.0789 19.4813 -0.68727 -0.725738 0.0306271
14.6326 27.2587 19.4826 -0.734632 -0.678087 0.0226617
15.4071 26.3601 19.4398 -0.776113 -0.630231 0.0213655
16.1398 25.4281 19.3021 -0.791765 -0.610208 0.0274691
16.8276 24.5237 19.2102 -0.796299 -0.604701 0.015635
17.0556 24.1851 18.292 -0.795746 -0.604933 0.0290588
17.3733 23.7179 17.3833 -0.809106 -0.586243 0.0373277
17.8911 22.9316 16.8622 -0.821477 -0.567662 0.0541841
18.5546 21.9584 16.7479 -0.822734 -0.565849 0.0540674
19.1963 21.0451 16.8484 -0.821147 -0.569517 0.0369683
19.9322 19.9957 16.9393 -0.816315 -0.577252 0.0194471
20.5036 19.2205 17.6156 -0.807433 -0.589885 0.00423305
20.8544 18.7394 18.6526 -0.80912 -0.587608 -0.00114189
21.3265 18.1013 19.4177 -0.795649 -0.605602 -0.0137149
22.044 17.209 19.3733 -0.756728 -0.65362 -0.0119867
23.0506 16.1196 19.3203 -0.721651 -0.692148 -0.00703607
23.9041 15.2454 19.4512 -0.706582 -0.707398 -0.0136167
24.7693 14.4146 19.3939 -0.673579 -0.739038 -0.0106552
25.7558 13.524 19.4239 -0.663686 -0.747954 -0.00923525
26.7214 12.6792 19.498 -0.640909 -0.767561 -0.00908736
27.8701 11.7324 19.554 -0.620194 -0.784308 -0.0101456
28.811 11.0228 19.5318 -0.588865 -0.808189 -0.00825819
29.7487 10.3566 19.567 -0.571898 -0.820282 -0.00829587
30.9753 9.53385 19.5214 -0.540348 -0.841151 -0.022124
32.2102 8.75145 19.5575 -0.527989 -0.849103 -0.0158497
33.383 8.04474 19.5968 -0.502096 -0.8647 -0.0139133
34.4718 7.42798 19.5572 -0.48071 -0.876856 -0.00621842
35.9807 6.62015 19.5176 -0.459375 -0.888226 -0.00213293
37.2583 5.98517 19.5779 -0.431859 -0.901941 0.000219519
38.4421 5.42502 19.5075 -0.421197 -0.906886 -0.0122486
39.5796 4.9088 19.5516 -0.404346 -0.914569 -0.00819686
40.6814 4.42348 19.4737 -0.400137 -0.916448 -0.00368736
41.6762 4.01275 19.4664 -0.368764 -0.929376 0.00122212
42.7306 3.61288 19.3901 -0.350476 -0.936561 -0.0006437
43.8214 3.20825 19.3684 -0.343533 -0.939114 0.0041753
44.8599 2.83497 19.3763 -0.327661 -0.944722 0.00169566
46.104 2.42648 19.4249 -0.301241 -0.953546 -0.00172458
47.1601 2.10398 19.5347 -0.283761 -0.958893 0.001746
48.7097 1.66224 19.5064 -0.267984 -0.963412 0.00471811
49.8046 1.37366 19.5801 -0.249582 -0.968337 0.00563975
50.9552 1.09253 19.4888 -0.22994 -0.973165 0.00879052
52.0218 0.852202 19.4069 -0.208217 -0.978078 0.002982
53.2303 0.602164 19.3261 -0.198432 -0.980096 -0.00375438
54.4824 0.358496 18.9956 -0.181935 -0.98331 -0.00060848
54.7348 0.313625 17.9182 -0.181483 -0.983391 -0.00256273
54.6432 0.323723 16.5877 -0.186954 -0.982346 0.006212
54.6722 0.306307 15.3905 -0.182455 -0.983171 0.00925687
54.7349 0.283219 14.1736 -0.18323 -0.983022 0.00971642
54.5657 0.305021 13.0041 -0.184803 -0.982703 0.0116266
54.4278 0.314394 11.8909 -0.184239 -0.982741 0.0165718
54.3583 0.305478 10.645 -0.181499 -0.983263 0.0158859
54.3104 0.295351 9.29767 -0.187681 -0.982133 0.0137877
54.2067 0.297926 8.21298 -0.18855 -0.981894 0.0182653
54.1476 0.285199 6.96385 -0.184553 -0.982633 0.019322
53.8867 0.314566 5.84915 -0.191102 -0.981431 0.016504
53.7934 0.314922 4.76096 -0.196542 -0.980338 0.0175753
28.7113 10.7119 -6.15072 -0.581768 -0.812488 0.0361935
29.4502 10.2472 -5.23199 -0.559876 -0.827065 0.050029
30.0571 9.88421 -4.39675 -0.542549 -0.838969 0.0420843
30.675 9.52428 -3.42447 -0.540605 -0.840652 0.031548
31.312 9.164 -2.22415 -0.536114 -0.843681 0.0280104
31.5835 9.02594 -1.15046 -0.531143 -0.847018 0.0211514
31.5682 9.06242 -0.0885691 -0.52826 -0.848767 0.0231316
31.2816 9.27567 0.952472 -0.53462 -0.844448 0.0325268
30.7396 9.66291 1.88019 -0.556098 -0.830615 0.0287933
29.9058 10.2405 2.52834 -0.55804 -0.82956 0.0205332
29.0689 10.8193 2.86359 -0.573253 -0.819063 0.0215887
27.9362 11.6402 2.96826 -0.597456 -0.801643 0.0203692
26.9373 12.3875 2.66761 -0.609857 -0.792208 0.0211413
25.948 13.1357 2.16474 -0.61973 -0.784269 0.0281072
25.0591 13.8414 1.65566 -0.638125 -0.769611 0.0222431
24.2815 14.4806 1.07509 -0.65893 -0.751459 0.0334708
23.4624 15.1868 0.307199 -0.677197 -0.734519 0.0434432
22.7366 15.83 -0.640688 -0.710956 -0.702809 0.0244961
22.2075 16.3572 -1.48061 -0.726488 -0.687123 0.00874123
21.7847 16.803 -2.59898 -0.737757 -0.675067 -0.000587594
21.4867 17.117 -3.93443 -0.742319 -0.669957 0.0109545
21.4465 17.1349 -5.22856 -0.744334 -0.667583 0.0172994
21.6677 16.8592 -6.29772 -0.745687 -0.665978 0.02044
22.0123 16.4436 -7.27602 -0.726813 -0.686787 0.00819701
22.5049 15.8949 -8.39084 -0.715156 -0.698575 0.0233393
23.0681 15.2917 -9.14881 -0.709599 -0.703225 0.0437255
24.0392 14.3467 -9.43585 -0.682403 -0.729768 0.0406648
24.8874 13.5768 -9.30271 -0.663435 -0.747235 0.034977
25.7574 12.8495 -8.90159 -0.641584 -0.766096 0.0382185
26.5764 12.201 -8.41112 -0.613005 -0.789477 0.0308252
27.3008 11.6717 -7.82679 -0.606196 -0.794516 0.0356511
28.0923 11.1327 -6.89357 -0.588006 -0.807979 0.0376357
28.611 10.7802 -6.27399 -0.58909 -0.807448 0.0316399
28.0159 11.2461 -5.55487 -0.593041 -0.80445 0.0341066
28.6415 10.8331 -4.77494 -0.574339 -0.817404 0.0445692
29.2989 10.4188 -3.89472 -0.569359 -0.821053 0.041263
29.8429 10.0866 -3.00188 -0.552361 -0.832805 0.0365224
30.3787 9.76595 -2.03805 -0.547387 -0.836357 0.0275671
30.7779 9.5524 -0.787002 -0.539973 -0.841301 0.0253175
30.6303 9.68586 0.333376 -0.554755 -0.831628 0.0253475
30.0636 10.0928 1.19971 -0.556753 -0.83011 0.0307019
