36.3889 6.77852 17.7189 -0.457842 -0.888999 -0.00786514
37.165 6.39862 16.6793 -0.439817 -0.898085 -0.00185777
37.8878 6.04354 15.7296 -0.432208 -0.901773 -0.00136737
38.6942 5.66027 14.6928 -0.433162 -0.901315 -0.00142524
39.4616 5.30832 13.7159 -0.419509 -0.907749 -0.00194696
40.2755 4.95062 12.6901 -0.404754 -0.914421 -0.00291081
41.0302 4.63271 11.7632 -0.385878 -0.92255 -1.13257e-05
41.8202 4.29697 10.7986 -0.378435 -0.925598 0.00744157
42.6795 3.94679 9.76135 -0.36754 -0.929969 0.00851318
43.4611 3.63438 8.83961 -0.356749 -0.934098 0.0138135
44.3877 3.28493 7.76134 -0.332721 -0.943017 0.00407558
45.2288 2.98606 6.78656 -0.322781 -0.946424 0.00971746
46.0373 2.70839 5.86636 -0.310481 -0.950463 0.0148683
46.9126 2.40929 4.87433 -0.308308 -0.951052 0.0211341
47.5984 2.18124 4.10992 -0.293456 -0.955831 0.0164795
46.4284 2.5494 4.05507 -0.309676 -0.950659 0.0186355
45.6548 2.82021 4.93268 -0.316989 -0.948361 0.0113739
44.8819 3.09541 5.81267 -0.329621 -0.943943 0.0179294
43.8622 3.47498 6.99764 -0.347696 -0.937588 0.00595375
43.0888 3.76683 7.90401 -0.354005 -0.935239 0.0029576
42.2571 4.10531 8.88595 -0.373745 -0.927469 0.0107191
41.4484 4.44217 9.86333 -0.380902 -0.924574 0.00875593
40.4564 4.87152 11.0811 -0.400621 -0.916244 -0.000417578
39.5794 5.25974 12.1736 -0.404737 -0.914432 0.00147534
38.5714 5.7203 13.4597 -0.419511 -0.907748 -0.00194902
37.8302 6.07596 14.4147 -0.43316 -0.901316 -0.00142306
37.0871 6.4389 15.3863 -0.442832 -0.896604 -0.00119493
36.2159 6.87551 16.5525 -0.449107 -0.893472 -0.00327889
35.4001 7.28829 17.6612 -0.457845 -0.888997 -0.00786534
35.1994 7.39271 17.933 -0.474607 -0.880159 -0.00827575
34.2224 7.92681 17.87 -0.500755 -0.865582 -0.00351209
34.9241 7.54586 16.9022 -0.47111 -0.88206 -0.00502634
35.6186 7.18998 15.9502 -0.467086 -0.884156 -0.00987993
36.3319 6.81896 14.9853 -0.463302 -0.886199 0.00167598
37.0724 6.44875 14.0046 -0.442679 -0.896671 -0.00394692
37.8272 6.08231 13.023 -0.439114 -0.89843 -0.00183976
38.5479 5.74023 12.0938 -0.427237 -0.90414 7.15092e-05
39.44 5.3215 10.9543 -0.424182 -0.905564 0.00482568
40.2035 4.97775 10.0033 -0.400167 -0.916424 0.00575978
41.1021 4.57596 8.89659 -0.395961 -0.918231 0.0081658
42.0406 4.18106 7.76845 -0.378161 -0.925717 0.00654691
42.7928 3.87859 6.87667 -0.362899 -0.931805 0.00662323
43.7639 3.49796 5.73141 -0.352589 -0.935653 0.0153002
44.7337 3.12966 4.61325 -0.344001 -0.938956 0.00494932
45.4678 2.86623 3.7767 -0.324716 -0.945667 0.016503
44.3639 3.24978 3.66324 -0.336927 -0.941315 0.020155
43.5405 3.56855 4.61537 -0.349523 -0.936791 0.016029
42.713 3.89527 5.58088 -0.358199 -0.933524 0.0150708
41.8979 4.22652 6.55402 -0.382101 -0.924036 0.012453
41.1261 4.5558 7.48215 -0.383512 -0.923536 0.00070412
40.3653 4.88929 8.41163 -0.401284 -0.915928 0.00685698
39.4752 5.29841 9.51609 -0.41162 -0.911258 0.0133423
38.7018 5.66034 10.4905 -0.423039 -0.906041 0.0113368
37.7884 6.10532 11.6682 -0.436863 -0.899514 -0.00501434
37.0638 6.45884 12.6106 -0.456911 -0.889484 0.00710561
36.2173 6.88991 13.733 -0.472669 -0.881103 -0.0155696
35.5036 7.25708 14.6936 -0.48043 -0.877008 -0.0065976
34.7576 7.65881 15.7186 -0.489334 -0.871849 -0.020759
33.9602 8.08782 16.829 -0.494394 -0.869142 -0.0129335
33.2699 8.48471 17.8075 -0.519484 -0.854444 -0.00787557
32.2558 9.1111 17.8606 -0.53408 -0.845401 -0.00750761
32.9716 8.67348 16.8112 -0.522691 -0.852489 -0.00754978
33.771 8.22089 15.6772 -0.512966 -0.858245 -0.0167625
34.4433 7.84986 14.7293 -0.49365 -0.869522 -0.015526
35.1715 7.45642 13.7347 -0.487244 -0.872979 -0.0224058
36.0624 6.98248 12.526 -0.469504 -0.882929 -0.0015149
36.7873 6.60481 11.565 -0.460102 -0.887818 -0.00922487
37.5024 6.24148 10.6242 -0.444477 -0.895767 0.00640117
38.3529 5.81917 9.52821 -0.438772 -0.898557 0.00859733
39.1166 5.45119 8.56573 -0.420957 -0.907076 0.00281036
39.991 5.05107 7.48332 -0.405351 -0.914114 0.00925707
40.8373 4.66451 6.43731 -0.392363 -0.919732 0.0120078
41.6033 4.33501 5.51203 -0.381289 -0.924384 0.0115426
42.4048 4.0006 4.55981 -0.365599 -0.930738 0.00805876
43.2601 3.65587 3.557 -0.357162 -0.933967 0.0118499
43.4076 3.59729 3.38532 -0.357992 -0.933605 0.0149584
42.8859 3.7803 2.60652 -0.352391 -0.935468 0.0268389
42.1123 4.10191 3.51486 -0.371113 -0.928528 0.0105465
41.2566 4.46513 4.53567 -0.38659 -0.922195 0.0102352
40.3223 4.88001 5.66792 -0.398727 -0.916893 0.017997
39.5677 5.22474 6.59768 -0.414142 -0.910116 0.0132436
38.7404 5.62252 7.63828 -0.419903 -0.907562 0.0035747
38.002 5.97979 8.56784 -0.4397 -0.898076 0.0110962
37.0404 6.47552 9.81598 -0.458891 -0.888488 0.00271821
36.3473 6.83774 10.7357 -0.461371 -0.887197 0.00419416
35.6551 7.20434 11.6614 -0.486911 -0.873418 -0.00763252
34.8455 7.64862 12.7652 -0.485418 -0.874264 -0.00567136
33.9706 8.13369 13.9726 -0.499239 -0.866436 -0.00700764
33.2604 8.53605 14.9762 -0.513815 -0.857825 -0.0114072
32.4626 8.99364 16.1154 -0.520975 -0.853459 -0.0138921
31.7052 9.46718 17.2404 -0.549389 -0.83555 -0.00532212
31.4452 9.63538 17.6335 -0.544814 -0.838408 -0.0157908
30.3574 10.3616 17.8765 -0.567453 -0.823207 -0.0181159
31.1001 9.87701 16.7174 -0.557911 -0.829692 -0.0186073
31.8022 9.43065 15.662 -0.552014 -0.833698 -0.0151302
32.6146 8.93808 14.4754 -0.520023 -0.854136 -0.00524978
33.3073 8.52657 13.4823 -0.516552 -0.856201 -0.00970833
34.2153 8.00959 12.2137 -0.496068 -0.868258 -0.00672435
35.1224 7.50286 10.9698 -0.484264 -0.874911 0.00434456
35.9518 7.04724 9.84561 -0.478305 -0.878191 0.00236905
36.6537 6.6722 8.90904 -0.460022 -0.887904 0.0023594
37.4263 6.2631 7.89944 -0.454187 -0.890838 0.0110382
38.2696 5.83939 6.82424 -0.433917 -0.900866 0.0124583
38.9875 5.48721 5.91681 -0.42471 -0.905232 0.0132796
39.8456 5.07371 4.84891 -0.411379 -0.911397 0.0110462
40.8836 4.60746 3.58918 -0.387589 -0.921701 0.0155399
41.628 4.2778 2.69589 -0.380393 -0.924514 0.0239705
41.9045 4.1555 2.36733 -0.376958 -0.926001 0.0206213
41.0404 4.5051 2.00177 -0.392185 -0.919658 0.0205005
40.2281 4.87284 2.98051 -0.395908 -0.9181 0.0187027
39.4531 5.23893 3.93292 -0.414127 -0.910011 0.0194521
38.6492 5.63019 4.93341 -0.423405 -0.905776 0.0172369
37.8529 6.02613 5.93863 -0.431403 -0.901984 0.0177741
36.9425 6.50252 7.11243 -0.461408 -0.887161 0.00697266
36.0807 6.96722 8.24588 -0.472503 -0.8813 0.00718691
35.1851 7.46056 9.45568 -0.4772 -0.878769 0.00677159
34.5062 7.84856 10.3906 -0.494894 -0.86895 0.00224804
33.8359 8.23016 11.3156 -0.499501 -0.866312 -0.00129364
33.0328 8.69913 12.4446 -0.51327 -0.858198 -0.00703038
32.3315 9.12088 13.4553 -0.534292 -0.845245 -0.00967379
31.45 9.67452 14.7552 -0.548472 -0.836167 0.00159965
30.7475 10.1286 15.8162 -0.556227 -0.831008 -0.00601735
29.9079 10.688 17.1263 -0.567924 -0.822948 -0.014765
29.3596 11.0697 18.0059 -0.583683 -0.811755 -0.0191512
28.6121 11.6235 17.7524 -0.595705 -0.803201 -0.00172819
29.2472 11.1658 16.716 -0.584388 -0.811443 -0.0071549
30.0903 10.5858 15.3863 -0.571006 -0.820893 -0.00930837
30.732 10.1437 14.3884 -0.545318 -0.838222 0.00352373
31.3893 9.7167 13.4054 -0.536037 -0.844138 -0.00974667
32.1776 9.22853 12.2423 -0.529611 -0.848241 5.22035e-05
32.8904 8.78598 11.2117 -0.518287 -0.855207 -0.000422991
33.5676 8.39065 10.2629 -0.506635 -0.862157 -0.00234881
34.3457 7.93771 9.17924 -0.498198 -0.867029 0.00772667
35.0496 7.52573 8.20798 -0.485677 -0.87412 0.00555945
35.8776 7.06824 7.09817 -0.476828 -0.878943 0.00965462
36.5926 6.67832 6.15688 -0.465578 -0.884966 0.00850419
37.3141 6.28735 5.21938 -0.458137 -0.888677 0.019049
38.1349 5.86291 4.17307 -0.43507 -0.900324 0.0114405
38.8764 5.49203 3.24232 -0.430071 -0.90274 0.0099094
39.6929 5.09721 2.23085 -0.408233 -0.912718 0.0170709
40.4806 4.7293 1.27352 -0.396798 -0.917479 0.0280017
39.6671 5.08433 0.859203 -0.410792 -0.91156 0.0175473
38.8325 5.48523 1.88163 -0.426112 -0.904534 0.0156954
37.8845 5.97377 3.08044 -0.445918 -0.894939 0.0155435
37.1231 6.36776 4.04971 -0.463972 -0.885752 0.0131406
36.4291 6.74551 4.95295 -0.469619 -0.882753 0.0142929
35.6646 7.17058 5.96062 -0.472807 -0.881115 0.00947385
34.9531 7.57047 6.91083 -0.492191 -0.870454 0.00762307
34.1098 8.06005 8.06193 -0.497776 -0.86729 0.0052188
33.2284 8.58839 9.30049 -0.504361 -0.863456 0.00792225
32.5193 9.02172 10.3055 -0.530585 -0.847624 -0.00361911
31.8025 9.46787 11.3418 -0.543839 -0.839161 -0.00700507
31.036 9.95462 12.4806 -0.543785 -0.83917 -0.0095645
30.3752 10.38 13.4695 -0.561655 -0.827356 -0.00506765
29.6032 10.9198 14.6748 -0.57741 -0.816454 -0.000243332
28.9924 11.3648 15.6615 -0.591805 -0.806076 0.00295979
28.3262 11.8604 16.7586 -0.619744 -0.784804 -0.000341957
27.8705 12.2085 17.5293 -0.633421 -0.773794 -0.00460444
26.8556 13.0443 17.8413 -0.647503 -0.76206 -0.00223558
27.4941 12.5251 16.6955 -0.64352 -0.765366 -0.00985516
28.1021 12.042 15.6458 -0.623244 -0.78201 -0.00518233
28.8841 11.4448 14.3631 -0.589555 -0.807715 -0.00456436
29.513 10.9948 13.3513 -0.585262 -0.810794 -0.00908028
30.1746 10.5346 12.3242 -0.570256 -0.821368 -0.0127697
30.8396 10.0998 11.3225 -0.562076 -0.827028 -0.00980143
31.7324 9.51962 9.99737 -0.539357 -0.842073 0.00269227
32.5682 8.98879 8.79443 -0.52666 -0.850057 0.00566008
33.247 8.5611 7.81918 -0.51455 -0.857412 0.00913028
33.9734 8.12986 6.81255 -0.499357 -0.86635 0.00900507
34.7547 7.67017 5.74997 -0.489892 -0.871741 0.00858137
35.4886 7.251 4.76716 -0.48153 -0.876352 0.0117057
36.2841 6.80884 3.71911 -0.47077 -0.88221 0.00897954
37.0542 6.38421 2.71664 -0.462026 -0.886774 0.0128206
37.8974 5.93396 1.6365 -0.44439 -0.895515 0.0238698
38.8942 5.42848 0.387803 -0.426611 -0.904251 0.0182767
38.9812 5.38524 0.279396 -0.419679 -0.907524 0.0164454
38.3157 5.6916 -0.315147 -0.433599 -0.900554 0.0315474
37.5116 6.11003 0.700501 -0.454087 -0.890788 0.017338
36.7348 6.53265 1.70147 -0.461462 -0.886906 0.0212347
36.0232 6.92636 2.62836 -0.471807 -0.881509 0.0184204
35.1497 7.42777 3.78797 -0.484077 -0.87484 0.0180332
34.4132 7.85468 4.77884 -0.502565 -0.864504 0.00776957
33.6421 8.31148 5.82961 -0.50663 -0.862133 0.00720135
32.9442 8.73726 6.79772 -0.52007 -0.854103 0.00593916
32.0465 9.30874 8.09165 -0.539571 -0.841926 0.00493401
31.2009 9.8551 9.32366 -0.543333 -0.839457 0.010031
30.3959 10.3975 10.5308 -0.556012 -0.831153 0.00600184
29.5806 10.9654 11.7933 -0.58081 -0.813983 -0.00958971
28.9477 11.4208 12.7931 -0.598597 -0.800995 -0.00942131
28.3239 11.8689 13.8032 -0.608352 -0.793667 -0.000884916
27.7427 12.3251 14.7624 -0.624528 -0.780961 0.00802689
27.1111 12.8559 15.8768 -0.645165 -0.764011 -0.00694221
26.4764 13.3717 17.022 -0.649752 -0.760023 -0.0136871
26.0109 13.778 17.8801 -0.660323 -0.750981 0.000860876
25.2073 14.5038 17.877 -0.687073 -0.726586 -0.00193811
25.7233 14.0367 16.8845 -0.667475 -0.744471 -0.0154938
26.2965 13.5552 15.8369 -0.662608 -0.748948 -0.00517029
27.0422 12.8917 14.4558 -0.653976 -0.756498 0.00512483
27.7689 12.3123 13.2345 -0.622523 -0.782418 -0.0169417
28.3675 11.8515 12.2547 -0.597297 -0.802011 0.00371566
29.0181 11.3653 11.2083 -0.587604 -0.809143 0.00288147
29.6571 10.9082 10.2031 -0.571862 -0.820346 0.00232878
30.3046 10.451 9.20216 -0.56511 -0.825 0.00500435
30.9325 10.0293 8.26918 -0.554728 -0.832027 -0.00272743
31.726 9.50665 7.09967 -0.539132 -0.842192 0.00701019
32.4927 9.00836 5.98853 -0.531592 -0.846952 0.00911072
33.223 8.55187 4.9685 -0.507718 -0.861446 0.0115092
34.0593 8.04358 3.81885 -0.498114 -0.866944 0.0170503
34.9412 7.51865 2.62836 -0.490158 -0.871528 0.0135612
35.9436 6.94487 1.29879 -0.481617 -0.876184 0.0186019
36.7679 6.4779 0.22057 -0.470547 -0.881888 0.0292969
37.4832 6.08524 -0.699181 -0.448303 -0.893376 0.0300527
36.8747 6.36711 -1.35983 -0.447756 -0.893548 0.0329535
35.9945 6.87524 -0.210852 -0.469627 -0.882338 0.030484
35.0815 7.41101 1.00031 -0.479637 -0.877217 0.0209407
34.3711 7.83158 1.95663 -0.491332 -0.870756 0.0194263
33.6793 8.24484 2.89223 -0.509282 -0.860434 0.0168991
32.9216 8.71286 3.93677 -0.515506 -0.856743 0.015683
32.2296 9.15789 4.91126 -0.53172 -0.846777 0.0155903
31.5019 9.6393 5.96508 -0.544515 -0.838691 0.0100055
30.5949 10.2491 7.30978 -0.551971 -0.833852 0.0044458
29.8595 10.7589 8.42001 -0.578133 -0.815938 0.00264162
29.1789 11.2476 9.47541 -0.587328 -0.809347 -0.00191752
28.4393 11.7964 10.657 -0.595568 -0.803302 0.00210517
27.6988 12.3563 11.8599 -0.609523 -0.792742 0.0064539
26.9506 12.9576 13.1069 -0.63657 -0.771019 0.0175867
26.2526 13.5737 14.3684 -0.653975 -0.756499 0.00512454
25.7106 14.0644 15.3869 -0.661434 -0.749894 0.0127883
25.056 14.6564 16.6314 -0.686826 -0.726774 -0.00835534
24.6215 15.0589 17.4799 -0.698907 -0.715198 0.00461224
23.7639 15.943 17.7095 -0.722413 -0.691453 0.00341661
24.2307 15.455 16.7139 -0.719255 -0.694729 0.00497762
24.7773 14.9168 15.6189 -0.684704 -0.7286 0.0179886
25.3599 14.373 14.5035 -0.671244 -0.741119 0.0131683
25.9155 13.848 13.4455 -0.66558 -0.74617 0.015255
26.5726 13.2564 12.2551 -0.650877 -0.759174 0.00364074
27.3146 12.6502 10.9947 -0.626035 -0.779793 0.00186647
28.122 12.0277 9.67622 -0.600511 -0.799617 0.000205035
28.9163 11.4377 8.41105 -0.592212 -0.80578 -0.00163388
29.5244 10.9901 7.45724 -0.579735 -0.814795 0.0041276
30.308 10.4357 6.27071 -0.572331 -0.820004 0.00543568
30.9644 9.98448 5.29419 -0.548511 -0.836038 0.0133066
31.805 9.41126 4.06171 -0.538838 -0.842144 0.0211481
32.6029 8.88904 2.9311 -0.520777 -0.853513 0.0174983
33.2613 8.47236 2.01515 -0.506602 -0.861995 0.0178707
34.2548 7.86466 0.657948 -0.494644 -0.868816 0.0220454
35.1156 7.34838 -0.497298 -0.483726 -0.874734 0.0291437
35.8247 6.92816 -1.43401 -0.480807 -0.876488 0.0243711
36.2913 6.65697 -2.04316 -0.469998 -0.882345 0.0238525
35.8357 6.87079 -2.90994 -0.470828 -0.881679 0.0310366
34.9392 7.40592 -1.72272 -0.478969 -0.877303 0.0304563
34.063 7.94169 -0.542561 -0.496266 -0.867764 0.0265746
33.3766 8.36087 0.392456 -0.500184 -0.865605 0.0233195
32.598 8.85094 1.47213 -0.519711 -0.853936 0.0263274
31.9338 9.29161 2.41319 -0.532495 -0.846209 0.0194863
31.2429 9.75975 3.41051 -0.554808 -0.831721 0.0206717
30.5004 10.2764 4.50987 -0.549858 -0.835086 0.016954
29.7381 10.8178 5.65573 -0.570948 -0.820724 0.0207686
29.0421 11.3374 6.7348 -0.587229 -0.809415 0.00300243
28.2385 11.9413 8.00878 -0.601952 -0.798515 0.00524689
27.5102 12.4989 9.18566 -0.618057 -0.786091 -0.0081521
26.7383 13.1116 10.4638 -0.63626 -0.771474 0.000880423
26.1728 13.6008 11.4487 -0.650058 -0.759884 -0.000323189
25.6314 14.0834 12.4286 -0.665678 -0.746193 0.00828252
25.098 14.577 13.4339 -0.667656 -0.744231 0.0188622
24.3936 15.2799 14.8153 -0.696562 -0.71743 0.00983602
23.8483 15.8472 15.931 -0.726682 -0.686601 0.0226358
23.27 16.4678 17.1782 -0.732563 -0.680699 -6.80855e-05
23.024 16.7304 17.72 -0.732426 -0.680841 -0.00262025
22.3322 17.5077 17.6643 -0.758613 -0.651504 -0.00698203
22.821 16.9537 16.5559 -0.739383 -0.673265 -0.00521242
23.3215 16.3965 15.4606 -0.73391 -0.679106 0.0137948
23.931 15.7166 14.1624 -0.717162 -0.696818 0.0110828
24.4512 15.1898 13.1307 -0.691484 -0.722361 0.00664322
25.0466 14.6066 11.9798 -0.688681 -0.724987 0.0105763
25.5827 14.1126 10.992 -0.66151 -0.749894 0.00798259
26.3198 13.4675 9.69884 -0.647591 -0.761988 -0.000298394
27.0579 12.8493 8.44126 -0.624121 -0.781318 0.0038742
27.8589 12.2196 7.13291 -0.603341 -0.797457 0.00644485
28.6108 11.6339 5.92315 -0.595025 -0.803527 0.0170157
29.2414 11.1518 4.9331 -0.576451 -0.816939 0.0177356
30.0113 10.5938 3.76502 -0.567014 -0.823474 0.0196561
30.6546 10.1347 2.80312 -0.555381 -0.831223 0.0249119
31.3718 9.63186 1.7502 -0.542497 -0.839575 0.0284689
32.1781 9.07928 0.590418 -0.519711 -0.853936 0.0263284
32.9359 8.59407 -0.465372 -0.506437 -0.861898 0.0255559
33.6662 8.13665 -1.46674 -0.497942 -0.86663 0.0317176
34.3979 7.68578 -2.45996 -0.493977 -0.86897 0.029611
35.1514 7.22211 -3.47371 -0.491683 -0.869908 0.0388406
35.3064 7.12413 -3.68374 -0.482603 -0.874946 0.0395456
35.0141 7.23798 -4.76233 -0.492756 -0.869172 0.0416145
34.3367 7.66599 -3.84482 -0.491681 -0.869909 0.0388423
33.6393 8.10651 -2.89327 -0.498922 -0.866077 0.0314333
32.9135 8.56791 -1.89156 -0.511416 -0.85892 0.0266614
32.228 9.00663 -0.940901 -0.51973 -0.853814 0.029726
31.4928 9.49376 0.10021 -0.544904 -0.838294 0.0185086
30.7721 10.0034 1.14575 -0.55604 -0.830683 0.0280384
29.9515 10.5975 2.36697 -0.56257 -0.826461 0.0218286
29.3059 11.0668 3.34369 -0.574111 -0.818475 0.0222616
28.5914 11.6192 4.46788 -0.587474 -0.808697 0.0297403
27.8742 12.1805 5.61173 -0.606105 -0.795092 0.0215756
27.119 12.7884 6.84675 -0.62714 -0.778851 0.00925685
26.5265 13.2716 7.83095 -0.633502 -0.773722 0.00538331
25.7919 13.9031 9.10674 -0.652449 -0.757747 0.0113774
25.2056 14.4379 10.1509 -0.662556 -0.748966 0.00832425
24.496 15.1224 11.4831 -0.685774 -0.727711 0.0122996
23.8687 15.7589 12.7172 -0.701303 -0.712569 0.0204771
23.3906 16.2661 13.6956 -0.729656 -0.683599 0.0171901
22.9151 16.8215 14.738 -0.748677 -0.662261 0.0298874
22.429 17.3895 15.8197 -0.760847 -0.648842 0.0108073
21.9383 17.9741 16.9471 -0.778783 -0.627287 0.00280455
21.9242 17.9928 16.9819 -0.790078 -0.612987 0.00490244
21.7059 18.2579 15.8853 -0.778783 -0.627287 0.00280677
22.2329 17.5919 14.6458 -0.760471 -0.648768 0.0279964
22.8425 16.8508 13.2721 -0.748768 -0.662649 0.0155782
23.3206 16.3143 12.2583 -0.730126 -0.683259 0.00852234
23.8106 15.7798 11.2502 -0.709794 -0.704229 0.0159264
24.3737 15.2149 10.1616 -0.698189 -0.715676 0.0184263
24.9718 14.6185 9.0367 -0.67404 -0.737695 0.038431
25.5343 14.1051 8.03705 -0.64447 -0.764553 0.0108363
26.2013 13.5273 6.87563 -0.640823 -0.767297 0.024511
26.8319 12.9828 5.80635 -0.613758 -0.788901 0.0305927
27.4789 12.4557 4.74531 -0.603264 -0.797331 0.0183365
28.1144 11.9456 3.7184 -0.603952 -0.796711 0.02221
28.8348 11.3802 2.57561 -0.581428 -0.813143 0.0271785
29.561 10.8318 1.46144 -0.570747 -0.820165 0.0397121
29.602 10.8002 1.39829 -0.56416 -0.824876 0.0360906
28.0725 11.9367 2.27922 -0.596696 -0.80171 0.0348534
27.4715 12.4191 3.24525 -0.604919 -0.795923 0.024061
26.8835 12.8937 4.20228 -0.615706 -0.787716 0.0202473
26.2839 13.4045 5.20503 -0.634154 -0.772936 0.020443
25.5696 14.0409 6.44779 -0.645121 -0.7638 0.0206863
24.9457 14.6054 7.55337 -0.663072 -0.74849 0.00991075
24.383 15.1427 8.5827 -0.696414 -0.716805 0.0346221
23.7474 15.8171 9.82405 -0.697922 -0.715581 0.0291315
23.2511 16.3461 10.8216 -0.718058 -0.695716 0.0192987
22.6914 16.9918 12.019 -0.734108 -0.678858 0.0154024
22.1 17.6953 13.3278 -0.751487 -0.659612 0.0133948
21.6274 18.317 14.4465 -0.769335 -0.63852 0.0203688
21.146 18.9678 15.6346 -0.787453 -0.616123 0.0176516
20.7482 19.4467 14.9751 -0.793749 -0.607342 0.0331424
21.2311 18.7665 13.7595 -0.784938 -0.61793 0.0451109
21.6947 18.1459 12.6512 -0.767859 -0.639541 0.0371381
22.1385 17.5912 11.6387 -0.746874 -0.664052 0.0348354
22.6059 17.0253 10.6001 -0.735193 -0.677334 0.0266392
23.1193 16.4504 9.5324 -0.715907 -0.697717 0.0258456
23.6257 15.8759 8.49706 -0.709317 -0.703283 0.0475605
24.1257 15.3378 7.50998 -0.680428 -0.732541 0.0200163
24.6889 14.8033 6.47775 -0.665392 -0.746223 0.0201385
25.3044 14.2319 5.37507 -0.645854 -0.76303 0.0256484
25.9424 13.6539 4.25955 -0.638961 -0.768651 0.0300853
26.5492 13.1357 3.24003 -0.621748 -0.782994 0.0186854
26.9871 12.7766 2.52373 -0.615817 -0.787301 0.0304439
26.3505 13.2575 2.05005 -0.618725 -0.785095 0.0283813
25.6366 13.8784 3.25859 -0.634603 -0.772651 0.017008
24.9625 14.4844 4.43409 -0.654983 -0.75479 0.0359009
24.2832 15.1487 5.68086 -0.666892 -0.744672 0.0268138
23.6791 15.7432 6.8112 -0.687997 -0.725267 0.0254613
23.1742 16.2862 7.81692 -0.709057 -0.703636 0.0462016
22.6794 16.8661 8.85663 -0.732484 -0.678981 0.049524
22.0232 17.6427 10.264 -0.741093 -0.670452 0.0357235
21.5672 18.2201 11.3104 -0.758514 -0.650401 0.0404329
21.0548 18.9099 12.5355 -0.76897 -0.638039 0.0398909
20.6233 19.5333 13.6247 -0.790651 -0.61111 0.0376197
20.1535 20.2424 14.8775 -0.802601 -0.595205 0.0395255
20.0966 20.3308 15.0353 -0.811346 -0.582907 0.0439978
19.5108 21.1382 14.9371 -0.812273 -0.58121 0.0490618
19.8845 20.5396 13.876 -0.80305 -0.594536 0.040481
20.281 19.9284 12.8273 -0.799752 -0.598304 0.0492813
20.6863 19.33 11.7992 -0.788471 -0.613087 0.0493803
21.2551 18.5305 10.3988 -0.761721 -0.646842 0.0370853
21.6857 17.9813 9.42187 -0.753784 -0.656001 0.0383687
22.182 17.3605 8.32033 -0.729089 -0.681867 0.0590391
22.786 16.6185 6.99993 -0.725054 -0.687109 0.0466668
23.3152 16.0533 5.94694 -0.694322 -0.718695 0.0373365
23.8498 15.5094 4.93021 -0.674512 -0.737514 0.0332626
24.4441 14.9183 3.82504 -0.669577 -0.74192 0.0349626
25.0272 14.3713 2.77911 -0.652806 -0.757218 0.0215553
25.4765 13.965 2.00005 -0.635246 -0.771332 0.038863
25.0274 14.3114 1.23796 -0.643084 -0.765124 0.0320689
24.4598 14.8561 2.2605 -0.660605 -0.750381 0.0230082
23.8167 15.4745 3.42945 -0.68513 -0.727488 0.0368472
23.3092 15.9936 4.39017 -0.690111 -0.72332 0.0235658
22.7819 16.5477 5.41835 -0.69999 -0.713642 0.0270184
22.3059 17.0881 6.39932 -0.719925 -0.692805 0.0415941
21.8197 17.6843 7.47483 -0.742263 -0.668245 0.0499339
21.3167 18.3377 8.63725 -0.743184 -0.666796 0.055324
20.8605 18.9598 9.70532 -0.767777 -0.638235 0.0563327
20.3423 19.7015 10.9938 -0.784538 -0.617109 0.0606309
19.9342 20.3274 12.0553 -0.799887 -0.598052 0.0501523
19.5592 20.9124 13.0478 -0.806294 -0.589349 0.0505746
19.1474 21.5862 14.2073 -0.80973 -0.584535 0.0515362
18.81 22.1477 15.1874 -0.816248 -0.575331 0.0522866
18.1098 23.1542 15.4272 -0.812614 -0.580155 0.0554845
18.5058 22.4866 14.2752 -0.81209 -0.580613 0.0582878
18.8818 21.8566 13.1968 -0.810351 -0.58305 0.0581636
19.3778 21.0502 11.8421 -0.801155 -0.595964 0.0545562
19.761 20.4376 10.8197 -0.800585 -0.595523 0.0664509
20.2758 19.6513 9.47294 -0.784122 -0.618243 0.054121
20.6672 19.0614 8.48514 -0.782515 -0.602939 0.155351
21.1007 18.4848 7.45329 -0.75757 -0.651356 0.0426979
21.5499 17.9116 6.42027 -0.751484 -0.658044 0.0474324
21.9902 17.3518 5.43525 -0.726254 -0.686303 0.0392822
22.5294 16.7563 4.34865 -0.704873 -0.708853 0.0261035
23.0779 16.1666 3.27458 -0.703413 -0.709594 0.0410669
23.6162 15.6133 2.25436 -0.682191 -0.730661 0.0273762
24.216 15.0227 1.1475 -0.66394 -0.746819 0.0380303
24.3934 14.8484 0.821153 -0.663941 -0.746818 0.0380304
23.5321 15.6295 0.843485 -0.673586 -0.738471 0.0306984
22.9974 16.1722 1.85519 -0.679889 -0.73267 0.0307697
22.3878 16.8358 3.05605 -0.701248 -0.71156 0.0439657
21.7772 17.5144 4.28677 -0.728468 -0.684633 0.0247502
21.2466 18.1766 5.45269 -0.746764 -0.663033 0.0522619
20.7035 18.9034 6.71693 -0.763997 -0.64356 0.0462472
20.1874 19.6245 7.98074 -0.7901 -0.610017 0.0601759
19.7944 20.2196 9.00178 -0.786377 -0.615477 0.0529095
19.4162 20.8095 10.0215 -0.798544 -0.598664 0.0626869
18.8962 21.6672 11.4443 -0.805478 -0.590121 0.0544354
18.5004 22.3165 12.5165 -0.810719 -0.582363 0.0599002
18.0618 23.0587 13.7732 -0.813114 -0.579278 0.0572876
17.5833 23.8642 15.1501 -0.81235 -0.580261 0.058172
17.1565 24.5761 16.3498 -0.799003 -0.599163 0.0509668
16.8235 25.078 17.2148 -0.799393 -0.599394 0.0412005
15.8874 26.313 17.8171 -0.772118 -0.632775 0.058565
16.3715 25.622 16.6337 -0.787672 -0.614473 0.0446778
16.7806 24.9998 15.5949 -0.799185 -0.597791 0.062844
17.2302 24.2764 14.371 -0.809115 -0.584524 0.0605363
17.6107 23.6403 13.2879 -0.810368 -0.583011 0.0583234
18.0209 22.9439 12.1265 -0.810717 -0.58236 0.0599586
18.4606 22.2156 10.9434 -0.805445 -0.589869 0.0575568
18.8541 21.5602 9.85143 -0.809044 -0.584451 0.0621673
19.2226 20.9609 8.8233 -0.801192 -0.595735 0.0564918
19.671 20.259 7.62626 -0.791826 -0.608154 0.0562201
20.1457 19.546 6.38685 -0.769301 -0.637017 0.048841
20.632 18.8712 5.21769 -0.758422 -0.649883 0.0494821
21.1197 18.2359 4.10923 -0.748073 -0.66252 0.0381425
21.718 17.5139 2.83459 -0.7273 -0.685001 0.0425168
22.2964 16.8439 1.64515 -0.705958 -0.707259 0.0375223
22.886 16.2202 0.495413 -0.696441 -0.71726 0.0225267
23.1564 15.9417 -0.0219685 -0.69914 -0.714556 0.024763
22.6573 16.4086 -0.640836 -0.69914 -0.714556 0.0247631
22.0749 17.0182 0.502431 -0.716345 -0.697684 0.00933649
21.5932 17.558 1.48518 -0.741033 -0.670494 0.0361706
21.5601 17.5382 -0.0349898 -0.742164 -0.670176 0.00749721
22.1715 16.8789 -1.2707 -0.71272 -0.701121 0.0214455
22.1861 16.8633 -1.29973 -0.708719 -0.705318 0.0156281
21.7415 17.3035 -2.00247 -0.718123 -0.695729 -0.0161333
21.547 17.5028 -1.61118 -0.720009 -0.693954 0.00388133
21.3968 17.6774 -2.8801 -0.731771 -0.680847 -0.0309518
21.4987 17.5776 -3.07344 -0.725859 -0.687787 -0.00876491
21.2178 17.917 -4.02144 -0.752685 -0.658183 -0.0161032
21.4893 17.6175 -4.55719 -0.748467 -0.663172 0.00057765
20.7978 18.4373 -4.64356 -0.776242 -0.630425 -0.00361982
21.2708 17.8631 -5.64966 -0.74844 -0.663202 0.00053729
21.8033 17.2196 -6.75237 -0.753755 -0.656791 0.0218914
22.3709 16.5679 -7.83987 -0.72792 -0.68507 0.0284844
23.0247 15.8408 -9.04754 -0.716929 -0.696288 0.0345827
23.7168 15.0867 -10.284 -0.691912 -0.720651 0.0438166
24.25 14.5029 -11.2564 -0.673535 -0.737349 0.0516422
24.8425 13.8989 -12.2908 -0.666647 -0.744151 0.0426775
25.566 13.1994 -13.4944 -0.641165 -0.765259 0.0573225
26.2482 12.5764 -14.5915 -0.624318 -0.779175 0.055795
26.8389 12.0555 -15.5057 -0.608495 -0.79252 0.0405605
27.4871 11.5304 -16.4719 -0.593399 -0.80427 0.0320573
28.297 10.8909 -17.63 -0.579635 -0.814135 0.0347496
28.3791 10.8288 -17.74 -0.573556 -0.818452 0.0341925
27.3256 11.5879 -17.7603 -0.587589 -0.808349 0.0362122
26.6885 12.1033 -16.8023 -0.600326 -0.798558 0.0437448
26.0366 12.6692 -15.7906 -0.626771 -0.778003 0.0432317
25.4142 13.2438 -14.7919 -0.636943 -0.769556 0.0456861
24.8299 13.8024 -13.8132 -0.652609 -0.755747 0.0542981
24.1413 14.5058 -12.6296 -0.673215 -0.736697 0.0637055
23.624 15.0595 -11.6949 -0.690736 -0.720533 0.0609547
22.9892 15.7893 -10.5008 -0.712487 -0.700111 0.0469652
22.4422 16.4109 -9.49803 -0.715777 -0.696962 0.0436725
21.8336 17.1258 -8.33764 -0.743268 -0.668652 0.0213826
21.2909 17.7877 -7.28446 -0.759236 -0.650381 0.0237719
20.8335 18.3663 -6.28877 -0.774838 -0.631313 0.0327226
20.3932 18.9406 -5.29078 -0.782977 -0.622011 0.00705226
20.2516 19.1233 -4.98427 -0.783533 -0.621296 0.0082518
19.7628 19.7527 -5.41625 -0.797503 -0.6033 0.00432813
20.2149 19.1396 -6.48084 -0.78789 -0.615379 0.0232065
20.6949 18.4868 -7.57101 -0.771906 -0.634935 0.0319231
21.1723 17.8754 -8.53403 -0.759929 -0.649435 0.0272468
21.6891 17.2163 -9.56825 -0.745865 -0.664699 0.0431414
22.3077 16.463 -10.7824 -0.723909 -0.687934 0.0519941
22.8854 15.7662 -11.8915 -0.716084 -0.6949 0.065861
23.4122 15.1605 -12.8901 -0.69115 -0.720046 0.0620153
24.0059 14.5277 -13.9541 -0.675979 -0.735239 0.0497565
24.7299 13.7972 -15.185 -0.649931 -0.758725 0.0438956
25.3606 13.2003 -16.2336 -0.641509 -0.765045 0.0563212
25.9644 12.6383 -17.2162 -0.612683 -0.788754 0.0498759
26.2357 12.4056 -17.6413 -0.611928 -0.789892 0.0401732
25.3108 13.1411 -17.7088 -0.633519 -0.772441 0.0446006
24.5686 13.848 -16.4719 -0.642672 -0.764116 0.0556607
23.7616 14.668 -15.0837 -0.670735 -0.739228 0.0604677
23.171 15.3 -14.0247 -0.683237 -0.728332 0.0521584
22.5015 16.0783 -12.7454 -0.712353 -0.697926 0.0738368
21.9851 16.7191 -11.7409 -0.724301 -0.686131 0.0679166
21.5221 17.3016 -10.7888 -0.736684 -0.67155 0.0794746
21.0034 17.9899 -9.70677 -0.760026 -0.647158 0.0595543
20.5029 18.6629 -8.65932 -0.774533 -0.630495 0.0507428
20.0325 19.3148 -7.63613 -0.786653 -0.616299 0.0367718
19.5592 19.9864 -6.54837 -0.792721 -0.609188 0.02199
19.154 20.5591 -5.55188 -0.805786 -0.591732 0.0237035
19.0141 20.7626 -5.21121 -0.803584 -0.594655 0.0252474
18.1712 21.9583 -4.7004 -0.800559 -0.597939 0.0396767
18.5746 21.3335 -5.75261 -0.811106 -0.584042 0.0316529
19.0562 20.6134 -6.92873 -0.788199 -0.614397 0.0354931
19.6182 19.7993 -8.23101 -0.782161 -0.620672 0.0546926
20.1558 19.0292 -9.432 -0.777045 -0.626582 0.0599672
20.6482 18.3328 -10.5133 -0.760028 -0.647157 0.0595529
21.1513 17.6412 -11.6216 -0.744203 -0.66352 0.0768324
21.7679 16.822 -12.8957 -0.719416 -0.690639 0.0738802
22.2343 16.2289 -13.8359 -0.706361 -0.703111 0.0817819
22.7521 15.6214 -14.8417 -0.682763 -0.726859 0.0742356
23.2652 15.0605 -15.7746 -0.669952 -0.739239 0.0684829
23.8183 14.4802 -16.7516 -0.662628 -0.74656 0.0597755
24.346 13.9548 -17.6632 -0.645846 -0.76203 0.0468332
23.5379 14.6458 -17.8456 -0.659928 -0.749821 0.0475824
22.8574 15.3569 -16.6258 -0.674131 -0.734252 0.0801365
22.3314 15.9503 -15.6454 -0.693736 -0.71731 0.0647835
21.744 16.655 -14.4829 -0.721234 -0.687918 0.081181
21.2383 17.3219 -13.4295 -0.735887 -0.670839 0.0919
20.6517 18.1459 -12.1562 -0.747801 -0.657432 0.0926082
20.1024 18.9412 -10.8968 -0.765112 -0.639156 0.0779932
19.6405 19.6199 -9.83851 -0.775423 -0.627435 0.071024
19.202 20.2746 -8.81192 -0.784286 -0.618008 0.0544252
18.7896 20.8813 -7.84865 -0.783747 -0.618793 0.0532536
18.3684 21.5224 -6.84112 -0.796087 -0.603203 0.0489017
17.9343 22.2008 -5.7545 -0.793659 -0.605507 0.0588818
17.5243 22.8188 -4.71154 -0.793864 -0.60634 0.0461722
17.1189 23.4078 -3.67328 -0.784926 -0.617866 0.0461846
15.872 25.072 -2.37028 -0.773657 -0.631295 0.0540542
16.3075 24.4539 -3.40481 -0.773927 -0.630912 0.0546541
16.7799 23.7823 -4.54075 -0.768008 -0.638359 0.0515789
17.2214 23.1262 -5.65266 -0.784259 -0.616946 0.0656993
17.6255 22.5061 -6.64724 -0.785727 -0.615532 0.0612696
18.0805 21.8135 -7.72196 -0.790458 -0.609266 0.0630101
18.525 21.1278 -8.7999 -0.780379 -0.620728 0.0755334
18.9557 20.4705 -9.85371 -0.783859 -0.615503 0.0819767
19.3834 19.8113 -10.8734 -0.771492 -0.630414 0.0858953
19.7869 19.2001 -11.8377 -0.762478 -0.640979 0.0881689
20.2172 18.5516 -12.8306 -0.754685 -0.650113 0.0883359
20.7065 17.8374 -13.9326 -0.74329 -0.6627 0.0913666
21.2893 17.0491 -15.1933 -0.717837 -0.691413 0.0815966
21.7703 16.431 -16.1904 -0.692842 -0.715763 0.087486
22.3476 15.7556 -17.2972 -0.680416 -0.728736 0.0773172
22.5598 15.5178 -17.7009 -0.674072 -0.736764 0.052974
21.7744 16.2446 -17.8359 -0.685938 -0.724996 0.0622091
21.1935 16.9391 -16.6789 -0.706936 -0.700662 0.096511
20.7452 17.5518 -15.713 -0.723501 -0.682527 0.103455
20.2746 18.2191 -14.6577 -0.737526 -0.668119 0.0983533
19.8515 18.8501 -13.6691 -0.757144 -0.645891 0.09776
19.4423 19.4816 -12.7027 -0.762911 -0.639478 0.0950547
19.0288 20.1295 -11.717 -0.768265 -0.633405 0.0925619
18.5966 20.8002 -10.667 -0.770422 -0.63139 0.0882945
18.1712 21.4651 -9.63382 -0.770364 -0.631799 0.0858419
17.7732 22.0964 -8.62602 -0.782822 -0.617328 0.0780743
17.2897 22.8453 -7.45734 -0.766447 -0.638179 0.0727001
16.8243 23.5388 -6.37119 -0.768379 -0.634274 0.0853805
16.3792 24.205 -5.27663 -0.76777 -0.638653 0.0514813
15.9365 24.831 -4.24184 -0.772067 -0.632318 0.0639288
15.6261 25.2697 -3.51115 -0.757043 -0.650608 0.0599607
15.1714 25.7382 -4.18072 -0.720157 -0.691401 0.0577805
15.6118 25.1073 -5.21237 -0.77189 -0.625935 0.111317
16.0468 24.4746 -6.22269 -0.73901 -0.668068 0.0868832
16.5759 23.7028 -7.44934 -0.738166 -0.66791 0.0949088
17.1062 22.9108 -8.6832 -0.767571 -0.635081 0.086644
17.5028 22.2754 -9.68314 -0.767078 -0.63367 0.10027
18.0427 21.428 -11.0083 -0.76664 -0.634327 0.0994584
18.4669 20.7567 -12.0334 -0.764751 -0.636492 0.100168
19.0845 19.7788 -13.5279 -0.76213 -0.639382 0.101724
19.5786 19.0072 -14.7209 -0.757196 -0.645216 0.101736
20.0732 18.2565 -15.9051 -0.73422 -0.671143 0.102408
20.5594 17.5588 -17.0025 -0.726874 -0.677928 0.109856
20.9514 17.0338 -17.8605 -0.678313 -0.728996 0.0919606
20.1185 17.9056 -17.7715 -0.724647 -0.680001 0.111737
19.6955 18.5407 -16.7561 -0.735252 -0.669483 0.105816
19.1876 19.3298 -15.5169 -0.753104 -0.648955 0.108127
18.7639 20.0152 -14.437 -0.761722 -0.639534 0.103808
18.2731 20.7963 -13.2342 -0.763995 -0.636766 0.104119
17.8342 21.4911 -12.1718 -0.761178 -0.640601 0.101189
17.2774 22.3824 -10.8204 -0.766639 -0.634329 0.099458
16.8082 23.097 -9.69158 -0.752096 -0.652325 0.093934
16.3972 23.713 -8.72136 -0.738682 -0.666338 0.101701
15.8877 24.4531 -7.56877 -0.745896 -0.658083 0.102788
15.3999 25.1367 -6.48967 -0.718015 -0.688201 0.10408
14.9903 25.7508 -5.53697 -0.719865 -0.683102 0.123148
14.7701 26.0461 -5.05531 -0.711094 -0.695914 0.100247
14.2048 26.5106 -5.62292 -0.690148 -0.713688 0.119773
14.7104 25.826 -6.6971 -0.693186 -0.708862 0.130417
15.2242 25.1177 -7.80749 -0.714788 -0.69052 0.110725
15.7616 24.384 -8.96399 -0.72824 -0.677962 0.100164
16.2288 23.7041 -10.0307 -0.741041 -0.664123 0.0989941
16.6433 23.0889 -10.9949 -0.752147 -0.650389 0.106154
17.1957 22.2239 -12.3007 -0.754735 -0.647346 0.10639
17.7214 21.4034 -13.5592 -0.764492 -0.636721 0.100692
18.1869 20.6617 -14.7293 -0.766425 -0.63461 0.0993134
18.4753 20.1949 -15.4672 -0.768654 -0.631491 0.101929
17.7662 21.0768 -15.3748 -0.772454 -0.628705 0.0896971
17.3184 21.7783 -14.2551 -0.760881 -0.641296 0.0989962
16.8072 22.5569 -13.037 -0.755032 -0.648379 0.0976328
16.3381 23.2682 -11.9672 -0.738688 -0.664063 0.115589
15.9227 23.8949 -11.0285 -0.74128 -0.663073 0.104109
15.4369 24.5736 -9.94434 -0.714163 -0.691859 0.106312
14.9887 25.1792 -8.98245 -0.714108 -0.692648 0.101429
14.4514 25.8644 -7.88981 -0.682969 -0.722134 0.109894
13.955 26.5337 -6.84667 -0.673354 -0.727283 0.132868
13.6648 26.9122 -6.25677 -0.680074 -0.722081 0.126878
13.1157 27.3004 -6.89231 -0.631662 -0.764384 0.129308
13.6338 26.6387 -7.92645 -0.671897 -0.729324 0.128999
14.1589 25.9817 -8.97309 -0.678244 -0.72711 0.106283
14.6742 25.3237 -10.0226 -0.692768 -0.710738 0.122162
15.2249 24.6012 -11.1613 -0.690624 -0.714907 0.109304
15.8375 23.7353 -12.4829 -0.729712 -0.673725 0.116688
16.3122 23.0497 -13.5307 -0.744942 -0.66048 0.093959
16.9356 22.1339 -14.9891 -0.768604 -0.634993 0.0776618
16.9827 22.063 -15.1028 -0.768605 -0.634992 0.077662
16.3098 22.8495 -15.1698 -0.749103 -0.658609 0.0712698
15.7061 23.6683 -13.8336 -0.729637 -0.679579 0.0761773
15.1791 24.3889 -12.7193 -0.72006 -0.685585 0.107177
14.5875 25.1644 -11.5146 -0.692016 -0.713855 0.10735
14.1071 25.773 -10.5531 -0.676976 -0.723145 0.136984
13.5109 26.5012 -9.37602 -0.658821 -0.74368 0.113552
12.9291 27.2157 -8.23556 -0.644556 -0.750827 0.144247
12.3494 27.8846 -7.18949 -0.633281 -0.763405 0.127154
11.5986 28.3725 -7.57121 -0.580703 -0.8035 0.131041
12.1543 27.7929 -8.51378 -0.624045 -0.766144 0.153598
12.8344 27.0302 -9.75869 -0.642667 -0.755912 0.124804
13.3507 26.4225 -10.7345 -0.655305 -0.744662 0.126706
13.9257 25.7252 -11.8508 -0.664251 -0.738379 0.116481
14.4133 25.1351 -12.7933 -0.679679 -0.724125 0.116962
15.0327 24.3459 -14.038 -0.699242 -0.710638 0.0778097
15.5011 23.7563 -15.0214 -0.724218 -0.68761 0.0519657
15.7814 23.4182 -15.5883 -0.739918 -0.670221 0.0576608
15.0764 24.1548 -15.6918 -0.725886 -0.68603 0.0495296
14.4973 24.8178 -14.5619 -0.691774 -0.719571 0.0605514
13.8715 25.5401 -13.3679 -0.675738 -0.731764 0.0888798
13.3563 26.1416 -12.3896 -0.640625 -0.758535 0.119266
12.85 26.7391 -11.4354 -0.651914 -0.745323 0.139649
12.3181 27.3515 -10.4619 -0.600515 -0.78784 0.136714
11.6412 28.0481 -9.29694 -0.585168 -0.799461 0.135798
11.0298 28.6537 -8.2664 -0.572602 -0.807041 0.144267
10.7587 28.9266 -7.81715 -0.54124 -0.828083 0.146075
9.97833 29.333 -8.2368 -0.527784 -0.840025 0.125701
10.6664 28.7219 -9.32631 -0.550314 -0.822327 0.144679
11.3272 28.0829 -10.4349 -0.559703 -0.81594 0.144828
12.0401 27.3779 -11.6109 -0.610347 -0.781461 0.129598
12.6039 26.743 -12.6066 -0.642077 -0.758012 0.114691
13.1078 26.1787 -13.5433 -0.643516 -0.757471 0.110114
13.646 25.6037 -14.5267 -0.647071 -0.758593 0.0763866
14.1592 25.0657 -15.4724 -0.666247 -0.744061 0.0498883
14.6551 24.5298 -16.4052 -0.676337 -0.735839 0.0332891
14.2081 24.9283 -17.0819 -0.672298 -0.740236 0.00808752
13.6336 25.487 -16.0518 -0.652283 -0.75685 0.0412896
12.9806 26.1307 -14.888 -0.625069 -0.775787 0.0862718
12.3224 26.7896 -13.7355 -0.595871 -0.792817 0.12798
11.6863 27.4404 -12.6466 -0.593826 -0.79409 0.129582
11.0898 28.0304 -11.6829 -0.550881 -0.822165 0.143441
10.4447 28.6425 -10.6346 -0.538203 -0.828926 0.152381
9.80304 29.2318 -9.59932 -0.520815 -0.841981 0.140785
9.04448 29.8592 -8.42647 -0.476858 -0.869996 0.125351
8.9815 29.9075 -8.33075 -0.492993 -0.862974 0.110604
7.6688 30.5591 -8.04058 -0.391667 -0.907986 0.148855
8.45765 30.0389 -9.23169 -0.458627 -0.879159 0.129385
9.15502 29.5176 -10.2134 -0.51285 -0.846205 0.144643
9.95029 28.8067 -11.4873 -0.537228 -0.830263 0.148491
10.5974 28.2136 -12.5061 -0.536868 -0.832519 0.136692
11.1769 27.6753 -13.4249 -0.571048 -0.808457 0.142482
11.8507 27.0161 -14.545 -0.592285 -0.798405 0.108385
12.5174 26.4024 -15.6658 -0.61035 -0.789115 0.0690619
13.0701 25.8911 -16.623 -0.618165 -0.785914 0.0145295
13.7042 25.3841 -17.6746 -0.643646 -0.765307 0.00501085
12.8669 26.019 -17.8092 -0.576827 -0.81634 0.029317
12.1331 26.5884 -16.5986 -0.556383 -0.827691 0.0732512
11.5435 27.1057 -15.6128 -0.567885 -0.81697 0.100334
10.8561 27.7235 -14.5087 -0.554574 -0.821656 0.131642
10.2044 28.3073 -13.4895 -0.527486 -0.83724 0.14418
9.60278 28.8497 -12.5435 -0.528414 -0.836641 0.144258
8.94329 29.4172 -11.5146 -0.506511 -0.853549 0.12207
8.23083 29.9769 -10.4528 -0.439494 -0.889864 0.122417
7.55752 30.4136 -9.53297 -0.399266 -0.908848 0.120751
6.77121 30.8721 -8.3956 -0.351867 -0.929688 0.108949
6.62589 30.7789 -9.79324 -0.373684 -0.923648 0.0850601
7.42756 30.3066 -10.887 -0.423366 -0.898859 0.113196
8.09487 29.8408 -11.8395 -0.447936 -0.882739 0.141863
8.77903 29.3029 -12.8629 -0.505412 -0.850182 0.147479
9.41245 28.7402 -13.8605 -0.520991 -0.839098 0.156472
10.0576 28.1718 -14.8498 -0.503339 -0.852723 0.13969
10.7605 27.5648 -15.948 -0.535103 -0.838247 0.104915
11.6175 26.8857 -17.331 -0.551873 -0.832388 0.0506694
11.9266 26.6489 -17.8341 -0.511367 -0.858147 0.0456855
10.9372 27.2485 -17.8174 -0.516469 -0.853435 0.0700624
10.309 27.7231 -16.8332 -0.49767 -0.859466 0.116804
9.54469 28.3417 -15.6545 -0.488644 -0.860587 0.143588
8.78875 28.9857 -14.5175 -0.495187 -0.853479 0.162366
8.1234 29.5666 -13.4819 -0.469967 -0.868118 0.159694
7.4667 30.0638 -12.5126 -0.443782 -0.888048 0.120115
6.70652 30.5792 -11.4186 -0.423691 -0.898622 0.113858
6.42307 30.7399 -11.0313 -0.40777 -0.910396 0.070026
6.3534 30.6112 -12.471 -0.422275 -0.899062 0.115636
7.0097 30.1636 -13.4261 -0.449932 -0.882342 0.137962
7.79924 29.5301 -14.6245 -0.483131 -0.8612 0.157855
8.54528 28.8864 -15.7738 -0.491144 -0.855674 0.163094
9.20241 28.3475 -16.7435 -0.466376 -0.874322 0.134365
9.68936 27.9831 -17.4665 -0.472275 -0.877259 0.0858676
7.78883 29.2218 -16.2729 -0.50243 -0.847615 0.170623
7.14645 29.7825 -15.2687 -0.491085 -0.857902 0.151127
6.47666 30.3243 -14.2256 -0.462897 -0.87829 0.119719
5.89504 30.7131 -13.3774 -0.439094 -0.892224 0.105507
5.71071 30.6488 -14.6783 -0.488713 -0.869926 0.0662457
6.08392 30.397 -15.2267 -0.517003 -0.851006 0.092177
51.5143 0.686555 -15.6533 -0.209265 -0.97775 0.0145733
51.8787 0.602841 -16.0364 -0.20839 -0.977961 0.0128526
51.6938 0.628673 -17.2002 -0.208847 -0.977838 0.0147145
50.6783 0.866538 -16.1323 -0.219689 -0.975493 0.0122521
49.8967 1.04379 -16.6611 -0.230308 -0.972992 0.0156473
50.7933 0.821804 -17.6026 -0.218674 -0.975694 0.0142316
49.6626 1.08233 -17.7608 -0.241478 -0.970293 0.0148351
48.804 1.3163 -16.8555 -0.262669 -0.964833 0.0100664
48.0671 1.51854 -17.4257 -0.276422 -0.960982 0.0102159
47.8597 1.58052 -17.2068 -0.276422 -0.960982 0.0102159
46.8653 1.86774 -17.5062 -0.282858 -0.959065 0.0136359
46.7604 1.90024 -17.3945 -0.282858 -0.959065 0.0136359
45.8102 2.18916 -17.7275 -0.305026 -0.952216 0.0156056
45.8045 2.19111 -17.7214 -0.304341 -0.952409 0.0171122
44.7017 2.55337 -17.8782 -0.325243 -0.945396 0.0210471
44.409 2.65997 -17.5592 -0.323896 -0.945904 0.0188632
43.3283 3.04027 -17.7278 -0.339244 -0.940496 0.019522
42.9881 3.17391 -17.3525 -0.346233 -0.93787 0.0228447
42.1519 3.48329 -17.7881 -0.367537 -0.929942 0.011139
41.2185 3.86693 -16.7509 -0.375697 -0.926489 0.021667
41.0437 3.92365 -17.9114 -0.375337 -0.926742 0.0164796
40.0396 4.3567 -16.7741 -0.382766 -0.92359 0.0217066
39.0517 4.82322 -15.6256 -0.412124 -0.910608 0.0307893
37.5975 5.50238 -15.2826 -0.426164 -0.904274 0.0259488
38.4424 5.07896 -16.2856 -0.427117 -0.903991 0.0192757
39.2864 4.67495 -17.2784 -0.406693 -0.91351 0.00997831
39.6805 4.49783 -17.7326 -0.404367 -0.914504 0.0130513
38.4933 5.03135 -17.7321 -0.423303 -0.905836 0.0165798
37.6556 5.4409 -16.7451 -0.427096 -0.904001 0.0192605
36.855 5.85097 -15.781 -0.449023 -0.89343 0.0127416
36.0738 6.27134 -14.8215 -0.469842 -0.882128 0.0331424
35.8563 6.39735 -14.5498 -0.469842 -0.882128 0.033142
37.3307 5.57607 -17.7512 -0.43438 -0.900575 0.0166966
36.4841 6.02083 -16.7297 -0.445373 -0.895048 0.0230549
35.5748 6.51588 -15.6107 -0.472041 -0.881284 0.0227166
34.7834 6.96614 -14.614 -0.47257 -0.880983 0.0233902
33.9272 7.47895 -13.5253 -0.489576 -0.871278 0.0344978
33.1906 7.93873 -12.5692 -0.501159 -0.864533 0.037715
32.3997 8.45096 -11.5217 -0.512921 -0.857363 0.042916
31.701 8.92835 -10.5649 -0.526658 -0.848662 0.0490292
31.0022 9.41593 -9.59351 -0.545287 -0.837284 0.0402229
30.254 9.9456 -8.53398 -0.548317 -0.835229 0.0417203
29.5665 10.4583 -7.54403 -0.557392 -0.829572 0.0335224
28.8445 11.005 -6.47927 -0.592251 -0.805076 0.0330316
28.2692 11.3995 -7.11065 -0.59075 -0.806016 0.0367713
28.9174 10.8904 -8.08356 -0.576694 -0.816148 0.0364157
29.7454 10.2555 -9.28325 -0.560414 -0.827482 0.0347848
30.4862 9.71628 -10.3345 -0.545165 -0.837347 0.0405662
31.1651 9.22145 -11.3031 -0.539046 -0.84102 0.0459887
31.9273 8.69745 -12.3385 -0.519734 -0.853431 0.0391254
32.8437 8.10434 -13.5503 -0.509226 -0.860084 0.0307194
33.6953 7.56419 -14.6593 -0.487795 -0.872471 0.0291619
34.453 7.11689 -15.6079 -0.479295 -0.877338 0.023542
35.2951 6.63122 -16.6679 -0.469271 -0.882462 0.0323349
36.0977 6.19064 -17.6682 -0.454503 -0.890601 0.0160226
35.0587 6.72589 -17.7809 -0.473209 -0.880748 0.0188672
34.1471 7.26337 -16.6319 -0.491036 -0.87086 0.022047
33.2036 7.82613 -15.4505 -0.498481 -0.866734 0.0169923
32.3551 8.35929 -14.3429 -0.523505 -0.851325 0.0344839
31.3368 9.04221 -12.9927 -0.531433 -0.846618 0.0285967
30.638 9.52884 -12.0242 -0.489606 -0.865425 -0.106422
29.9542 10.0391 -11.0565 -0.558373 -0.828863 0.0347379
29.2617 10.5636 -10.0747 -0.569275 -0.821487 0.0329397
28.3692 11.2469 -8.77156 -0.590604 -0.80631 0.0324145
27.8911 11.6355 -8.04486 -0.606492 -0.794672 0.0257549
27.1441 12.1937 -8.41173 -0.607685 -0.793723 0.0268687
27.7784 11.6675 -9.38954 -0.60295 -0.797114 0.0325741
28.4377 11.1328 -10.3748 -0.595913 -0.801959 0.041826
29.2193 10.5249 -11.4959 -0.575313 -0.817083 0.0372878
29.9024 10.0118 -12.4572 -0.565012 -0.824153 0.039168
30.5801 9.51237 -13.4114 -0.545407 -0.837248 0.0393307
31.4023 8.94882 -14.5303 -0.529455 -0.847759 0.0313245
32.2168 8.40603 -15.5969 -0.511161 -0.85936 0.014674
33.195 7.79924 -16.8432 -0.497015 -0.867471 0.0216691
33.8699 7.38921 -17.6931 -0.497762 -0.866962 0.0246904
32.9484 7.90382 -17.9452 -0.494076 -0.86896 0.02824
31.9977 8.50371 -16.7365 -0.518982 -0.854363 0.0268438
31.0001 9.17231 -15.4389 -0.535151 -0.844305 0.0275975
30.1131 9.7817 -14.2305 -0.560482 -0.827531 0.032446
29.1965 10.4733 -12.9478 -0.578299 -0.81506 0.0353047
28.4061 11.0824 -11.8276 -0.575312 -0.817083 0.0372881
27.7418 11.6255 -10.844 -0.595913 -0.801959 0.0418252
27.0431 12.2207 -9.75741 -0.615125 -0.787661 0.0348135
26.4639 12.7281 -8.83426 -0.631991 -0.774349 0.0311631
25.6507 13.394 -9.03101 -0.642298 -0.765957 0.0276094
26.2854 12.8097 -10.0655 -0.628528 -0.776944 0.0362034
26.9975 12.1838 -11.1997 -0.617445 -0.785438 0.0429947
27.7476 11.5495 -12.3522 -0.598357 -0.800426 0.0358676
28.5344 10.9258 -13.4949 -0.584141 -0.81084 0.0363002
29.2809 10.3484 -14.5524 -0.569435 -0.821215 0.0367417
30.167 9.69657 -15.771 -0.545851 -0.837577 0.0226206
30.878 9.19869 -16.7161 -0.536654 -0.842969 0.0374951
31.7072 8.64572 -17.7782 -0.519253 -0.854111 0.0295066
30.5596 9.35684 -17.7403 -0.531522 -0.846647 0.0259565
29.7105 9.95858 -16.6144 -0.55506 -0.831115 0.0339977
28.9833 10.5 -15.623 -0.570189 -0.82046 0.0416012
28.2888 11.034 -14.6454 -0.572531 -0.818502 0.0475672
27.4065 11.7629 -13.3396 -0.600145 -0.798713 0.0433942
26.7279 12.3392 -12.2949 -0.620653 -0.782873 0.0435818
25.9383 13.0408 -11.0315 -0.627842 -0.777234 0.0414881
25.3218 13.6219 -10.0136 -0.646236 -0.761974 0.0421272
25.0278 13.9072 -9.51987 -0.676735 -0.734949 0.0433553
24.066 14.8055 -9.37727 -0.692732 -0.719957 0.0422456
24.6313 14.2184 -10.3686 -0.677978 -0.733525 0.0478236
25.2982 13.5537 -11.5111 -0.651005 -0.757801 0.0439299
25.9008 12.9868 -12.5036 -0.624458 -0.77949 0.0494725
26.5793 12.379 -13.5893 -0.6206 -0.782767 0.0461655
27.3638 11.6997 -14.789 -0.598212 -0.79969 0.051367
28.1127 11.0978 -15.894 -0.586397 -0.80942 0.0312733
28.8227 10.5552 -16.8742 -0.572502 -0.819094 0.036417
29.5578 10.008 -17.8566 -0.562795 -0.826182 0.0261558
34.6726 7.39144 -5.76953 -0.488774 -0.871705 0.035079
33.8678 7.89432 -4.6861 -0.502172 -0.863695 0.0430557
33.0977 8.39072 -3.62865 -0.514932 -0.856376 0.0382791
32.3226 8.89877 -2.54599 -0.513998 -0.857306 0.0288535
31.5564 9.41155 -1.45704 -0.536362 -0.843657 0.0236132
30.6913 10.0133 -0.210666 -0.553993 -0.831893 0.0323385
30.5519 10.113 -0.00732233 -0.554504 -0.831728 0.0274617
30.9417 9.78395 -2.06319 -0.539503 -0.841398 0.031388
31.8347 9.16997 -3.34376 -0.534859 -0.844293 0.0330913
32.6355 8.63508 -4.46916 -0.521093 -0.852611 0.0389419
33.5613 8.01785 -5.74845 -0.50378 -0.862457 0.048717
34.2889 7.56435 -6.72556 -0.486057 -0.872972 0.0408492
33.9696 7.69578 -7.76656 -0.489171 -0.871589 0.0323266
33.1155 8.23324 -6.61736 -0.512369 -0.857837 0.0399263
32.2017 8.85531 -5.34767 -0.523043 -0.851113 0.0450823
31.191 9.55515 -3.91917 -0.534859 -0.844293 0.0330913
30.7924 9.83181 -3.34522 -0.547882 -0.83602 0.0299135
30.5654 9.92967 -4.51542 -0.543646 -0.838237 0.0425156
31.4209 9.32382 -5.73436 -0.530554 -0.846385 0.0463083
32.2006 8.78021 -6.82846 -0.526255 -0.849361 0.0405182
33.0277 8.23032 -7.9616 -0.505694 -0.861984 0.0354504
33.8253 7.72902 -9.02903 -0.497139 -0.86696 0.0351126
33.8274 7.72767 -9.03189 -0.496733 -0.867195 0.0350452
33.8801 7.63228 -10.5653 -0.497073 -0.866881 0.0378976
33.1032 8.13502 -9.52329 -0.510437 -0.859576 0.0241373
32.2791 8.66588 -8.40688 -0.518146 -0.854779 0.0296312
31.3475 9.29689 -7.11768 -0.543181 -0.839129 0.0285816
30.5524 9.87046 -5.98475 -0.546027 -0.836705 0.0421893
29.9464 10.3051 -5.11433 -0.557354 -0.829115 0.0438698
29.377 10.6567 -5.77612 -0.567606 -0.822532 0.0355528
30.2318 10.0339 -7.0122 -0.555843 -0.830654 0.0324609
31.1 9.413 -8.25126 -0.543668 -0.838548 0.0355204
31.995 8.80514 -9.49186 -0.52755 -0.84878 0.0355479
33.0511 8.09139 -10.9368 -0.503968 -0.862671 0.0425975
33.8668 7.5726 -12.0074 -0.489089 -0.871434 0.0373527
34.3584 7.27439 -12.6441 -0.481278 -0.875613 0.0408963
19.8736 19.8024 5.38081 -0.775836 -0.629218 0.0465151
19.3492 20.6071 6.78115 -0.797485 -0.60113 0.051581
18.7915 21.4983 8.29522 -0.80597 -0.589836 0.0500492
18.2749 22.3537 9.75341 -0.810326 -0.583391 0.0550207
17.6656 23.3676 11.4315 -0.811069 -0.581901 0.0596551
17.1402 24.246 12.8495 -0.804354 -0.590742 0.0635537
16.5002 25.2708 14.59 -0.792087 -0.608591 0.0470682
15.9308 26.1331 16.0273 -0.762958 -0.644551 0.0494872
15.3454 26.9335 17.3719 -0.746531 -0.663482 0.0498308
15.0803 27.2614 17.9088 -0.730373 -0.680772 0.0557182
14.466 27.89 17.5182 -0.719953 -0.691903 0.0542111
15.2398 26.9462 15.9598 -0.746532 -0.663481 0.0498303
15.8705 26.0666 14.4537 -0.78807 -0.613287 0.0531512
16.4509 25.1923 12.9878 -0.798798 -0.598472 0.0612615
16.9684 24.3468 11.6227 -0.80861 -0.585067 0.0620199
17.5093 23.4602 10.1823 -0.811272 -0.581918 0.0566515
18.0597 22.55 8.64243 -0.810986 -0.58266 0.0530019
18.569 21.7052 7.20484 -0.809493 -0.584682 0.0535537
18.9131 21.1408 6.24766 -0.799702 -0.597443 0.0594906
18.0562 22.3928 6.91521 -0.81288 -0.57977 0.0556204
17.557 23.226 8.35927 -0.811743 -0.581645 0.0525502
17.0407 24.072 9.75975 -0.808614 -0.585968 0.0527727
16.3716 25.1417 11.4959 -0.802107 -0.594893 0.0522246
15.8345 25.9916 12.8784 -0.78252 -0.620198 0.0549209
15.266 26.787 14.2191 -0.767424 -0.63967 0.0433786
14.4551 27.778 15.9217 -0.727364 -0.684337 0.0512376
13.7366 28.6062 17.2762 -0.696979 -0.716313 0.0334126
