-1.10641 -52.0783 64.4041 -0.158216 -0.157752 0.972915
-0.673999 -51.2404 64.5525 -0.128625 -0.0973302 0.986831
-0.673999 -51.2404 64.5525 -0.128625 -0.0973302 0.986831
0.0510571 -50.8046 64.5919 0.0350876 -0.0284935 0.998978
0.968137 -50.4832 64.5586 0.0583944 -0.0122723 0.998218
1.33027 -50.5606 64.5276 0.129226 -0.0506366 0.990321
1.17853 -51.6196 64.4757 0.110534 -0.0904433 0.989749
1.04426 -52.4228 64.4125 0.118599 -0.121883 0.985433
0.719887 -53.1873 64.2749 0.0103212 -0.223095 0.974742
0.146096 -53.5016 64.1949 -0.103481 -0.212312 0.971626
-0.415178 -52.9969 64.2525 -0.0858468 -0.253205 0.963008
-0.848593 -52.5378 64.3563 -0.129434 -0.244037 0.95845
-2.19598 -53.6837 63.7908 -0.258931 -0.207331 0.943154
-2.6419 -53.0408 63.8253 -0.255024 -0.227392 0.939817
-3.182 -52.2453 63.8675 -0.252336 -0.216332 0.943142
-3.68204 -51.675 63.862 -0.254137 -0.213824 0.943236
-3.40437 -50.5639 64.1512 -0.24322 -0.153953 0.957676
-2.78112 -50.1564 64.375 -0.184239 -0.120978 0.972945
-2.09478 -49.7838 64.4952 -0.125252 -0.0880156 0.988213
-1.364 -49.4242 64.637 -0.0690294 -0.120526 0.987995
-0.58359 -49.1086 64.6737 -0.0169658 -0.0857753 0.99617
0.413302 -48.6088 64.7052 0.0774562 -0.0682995 0.994549
1.19391 -48.109 64.6656 0.0876586 -0.0581426 0.994452
1.94086 -47.4923 64.6492 0.119485 -0.0584521 0.990377
2.54155 -46.976 64.5765 0.148651 -0.0338351 0.988311
3.15608 -46.5196 64.4997 0.152443 -0.0359865 0.987647
3.89197 -45.9503 64.3962 0.179716 -0.0334913 0.983114
4.48884 -45.3533 64.3132 0.178326 -0.0415761 0.983093
5.11956 -44.4557 64.2367 0.18425 -0.0484819 0.98164
5.80573 -43.7675 64.1242 0.205562 -0.0328213 0.978094
6.38255 -43.5107 64.0096 0.222033 -0.0317105 0.974523
5.73171 -44.2399 64.1207 0.213708 -0.0437185 0.975872
5.85924 -45.2528 64.0573 0.213636 -0.0341286 0.976317
5.21625 -46.1779 64.1463 0.179722 -0.0334928 0.983113
4.95584 -47.0542 64.1717 0.181115 -0.0254104 0.983134
4.82841 -47.8795 64.1664 0.203444 -0.0415562 0.978203
4.8006 -48.7667 64.1263 0.178531 -0.0598065 0.982115
4.17023 -49.6718 64.1857 0.178557 -0.0607707 0.982051
3.43096 -50.591 64.2508 0.163932 -0.0726153 0.983795
2.92769 -51.6861 64.2538 0.168446 -0.0817125 0.982265
2.63928 -52.8604 64.1423 0.14952 -0.143373 0.978309
2.52818 -53.7908 64.0229 0.149522 -0.143374 0.978308
2.30713 -54.7093 63.8604 0.104725 -0.16244 0.980264
1.98843 -55.9708 63.7314 0.0780356 -0.142062 0.986527
2.08398 -57.5017 63.4762 0.0651936 -0.160096 0.984946
2.92748 -58.5476 63.3342 0.0362339 -0.0968451 0.99464
3.32169 -59.2299 63.2534 0.0688536 -0.0989287 0.992168
3.623 -59.9143 63.1495 0.104499 -0.109372 0.988493
3.74192 -60.6554 63.0551 0.10471 -0.10909 0.988501
3.87994 -61.3981 62.9585 0.10471 -0.10909 0.988501
4.10783 -62.7351 62.7511 0.12321 -0.132392 0.983448
4.25622 -63.9296 62.5822 0.145319 -0.161249 0.975236
4.23005 -65.1863 62.3273 0.161559 -0.1994 0.966508
3.9802 -66.284 62.0794 0.131542 -0.24784 0.959829
3.49197 -67.265 61.8445 0.139976 -0.341069 0.929056
3.17488 -67.9745 61.6058 0.121841 -0.364917 0.923033
2.58773 -69.0109 61.2736 0.0647821 -0.358274 0.92957
2.30832 -68.2217 61.5724 0.00772339 -0.351632 0.936106
1.90839 -67.4173 61.8778 0.00772257 -0.351633 0.936106
1.51158 -66.3166 62.214 -0.0134489 -0.278613 0.960309
1.29958 -65.3683 62.4755 -0.0158869 -0.195479 0.978778
1.23769 -64.5373 62.5938 -0.0438166 -0.143969 0.988612
1.24373 -63.4849 62.7473 -0.036522 -0.131438 0.990543
1.04463 -61.9767 62.9328 -0.024739 -0.131907 0.990953
0.89057 -60.4905 63.0843 -0.142028 -0.120307 0.982098
0.848643 -59.544 63.2214 -0.14864 -0.148143 0.977732
0.477085 -58.4971 63.3235 -0.14157 -0.157905 0.977179
0.206128 -57.7049 63.4222 -0.132288 -0.164132 0.977518
-0.410079 -56.0202 63.6168 -0.130078 -0.160597 0.978411
-1.20552 -54.8317 63.7711 -0.107918 -0.205129 0.972767
-1.5779 -54.4142 63.8179 -0.185378 -0.196198 0.95963
-3.12156 -55.4675 63.1808 -0.256117 -0.177362 0.950153
-4.34607 -53.9929 63.1325 -0.258929 -0.207328 0.943155
-4.91759 -53.2346 63.1784 -0.305151 -0.234951 0.919604
-5.58636 -52.3033 63.1253 -0.38146 -0.208244 0.900534
-5.97331 -51.4938 63.1319 -0.407106 -0.19767 0.891735
-6.25337 -50.7843 63.1712 -0.376051 -0.224958 0.898877
-5.71862 -49.9183 63.5963 -0.289383 -0.241668 0.926204
-5.08152 -49.3406 63.9461 -0.293284 -0.250193 0.922652
-4.28608 -48.7751 64.2843 -0.200288 -0.22021 0.954521
-3.5681 -48.4271 64.5097 -0.163272 -0.174101 0.969719
-2.85259 -48.0334 64.6571 -0.115792 -0.156822 0.980816
-2.01006 -47.5844 64.835 0.0224613 -0.207224 0.976184
-0.886084 -47.0822 64.9495 -0.0237241 -0.180876 0.98322
0.0138022 -46.5315 64.9232 0.115214 -0.0928473 0.988992
0.729616 -45.9087 64.9117 0.143422 -0.124935 0.980906
1.43631 -45.3325 64.8451 0.179966 -0.1076 0.97777
2.28857 -44.8356 64.7513 0.167348 -0.0704492 0.983165
2.78353 -44.2619 64.6953 0.195789 -0.0875504 0.97673
3.34287 -43.5501 64.6407 0.207097 -0.062119 0.976346
4.13332 -42.8196 64.5105 0.22133 -0.0605385 0.973318
4.69383 -42.1931 64.4116 0.22997 -0.0254315 0.972789
5.29514 -41.3629 64.2989 0.218073 -0.0255344 0.975598
5.96975 -40.516 64.1641 0.235998 -0.0181304 0.971584
6.47884 -39.8557 64.053 0.230888 -0.0132922 0.972887
6.97768 -39.2524 63.9408 0.231616 -0.0105693 0.97275
7.69342 -38.349 63.776 0.239879 -0.00537271 0.970788
8.24976 -37.8235 63.6434 0.228917 -0.00152122 0.973443
8.73965 -37.1938 63.5276 0.230195 -1.01345e-05 0.973144
9.09926 -36.4826 63.4424 0.230135 0.00448399 0.973142
9.53641 -35.8496 63.342 0.21597 0.00433355 0.97639
10.1679 -35.131 63.2016 0.213748 -0.00121837 0.976888
10.6138 -35.8238 63.1036 0.217454 0.000989758 0.976063
10.3059 -37.402 63.1691 0.216837 -0.00167896 0.976206
9.95129 -38.1795 63.2465 0.217893 -0.00201789 0.97597
9.6302 -38.8778 63.3169 0.224569 -0.00118311 0.97444
9.17366 -40.5111 63.4073 0.229089 -0.0115859 0.973336
8.72215 -41.9913 63.496 0.228588 -0.0120117 0.973449
8.37509 -43.3054 63.5511 0.2198 -0.0166232 0.975403
8.08044 -44.4409 63.5981 0.217825 -0.0243271 0.975652
7.58287 -45.6517 63.6685 0.21585 -0.0320294 0.975901
6.95852 -46.9752 63.7598 0.209105 -0.0377796 0.977147
6.75801 -47.8086 63.766 0.205901 -0.0401543 0.977749
6.86789 -48.5653 63.7115 0.211087 -0.0453033 0.976417
6.50419 -49.8986 63.7283 0.204823 -0.0603023 0.976804
5.78897 -50.7998 63.8042 0.198421 -0.0753 0.97722
5.08095 -51.5151 63.8872 0.190721 -0.075168 0.978762
4.82409 -52.2709 63.8652 0.168115 -0.114503 0.978794
4.61567 -53.3474 63.7477 0.148604 -0.119895 0.981311
4.37866 -54.7492 63.6355 0.1282 -0.112532 0.985266
3.98745 -55.4461 63.5968 0.122454 -0.123483 0.984762
3.82208 -56.3125 63.5087 0.122454 -0.123483 0.984762
3.98299 -57.0615 63.4032 0.109986 -0.0902412 0.989828
4.66602 -57.7871 63.2611 0.109986 -0.0902491 0.989827
5.59874 -58.894 63.0542 0.102881 -0.105334 0.98909
5.62261 -59.7068 62.9616 0.133932 -0.114882 0.983838
5.83845 -61.0127 62.7653 0.164953 -0.12435 0.978421
5.85211 -62.0576 62.6181 0.15814 -0.141718 0.977194
5.91254 -63.1571 62.4488 0.166072 -0.158112 0.973177
5.94296 -64.0616 62.2734 0.161039 -0.199447 0.966585
5.91841 -65.1963 62.0433 0.161039 -0.199445 0.966586
5.92304 -66.1587 61.8216 0.158306 -0.276903 0.946579
5.58562 -67.114 61.547 0.135001 -0.317461 0.938613
4.98694 -68.2532 61.2564 0.139979 -0.341068 0.929056
5.26015 -69.294 60.7937 0.0999505 -0.379012 0.919594
5.94643 -70.6146 60.1975 0.0735673 -0.378369 0.922727
6.559 -71.5257 59.7894 0.0665455 -0.367501 0.92764
7.36586 -72.7579 59.1455 0.0499899 -0.438999 0.897096
7.9439 -73.4081 58.7924 0.0526792 -0.440703 0.896106
8.3569 -74.2728 58.2888 0.0546276 -0.498824 0.86498
8.76159 -75.2374 57.666 0.0796905 -0.531308 0.843363
8.90124 -75.8795 57.2418 0.0717627 -0.528061 0.846077
9.27109 -76.9766 56.5455 0.0696444 -0.517733 0.852703
9.08123 -78.3487 55.7279 0.0498306 -0.536835 0.841693
8.11903 -79.205 55.1541 0.036274 -0.593039 0.804356
6.9277 -79.8498 54.7325 0.0362749 -0.593039 0.804357
6.10068 -80.2577 54.3679 -0.0355353 -0.628949 0.776634
5.22783 -80.5464 54.0833 -0.0727566 -0.665185 0.742468
4.53322 -80.7552 53.7957 -0.098677 -0.674133 0.731967
3.40854 -81.1152 53.315 -0.10681 -0.677376 0.727742
2.51341 -81.8551 52.4449 -0.128677 -0.69129 0.711027
1.6048 -82.3496 51.7996 -0.157714 -0.694739 0.701078
0.591134 -82.6299 51.2328 -0.186031 -0.707775 0.681503
-0.258996 -82.8661 50.7554 -0.186032 -0.707773 0.681505
-1.4174 -82.8154 50.4575 -0.215954 -0.716283 0.66348
-3.08652 -83.0759 49.6088 -0.225502 -0.714139 0.662687
-3.95232 -83.3763 48.9882 -0.258223 -0.7133 0.650697
-4.49953 -83.6195 48.4703 -0.289962 -0.711174 0.640433
-5.30101 -84.01 47.6739 -0.289963 -0.711175 0.64043
-6.17183 -84.2559 47.0204 -0.284969 -0.704984 0.649454
-7.54204 -84.8622 45.6726 -0.32387 -0.69667 0.640124
-7.85377 -85.2112 45.1627 -0.332801 -0.68817 0.644722
-8.64759 -85.3002 44.613 -0.365684 -0.698816 0.614762
-9.31252 -85.4486 44.0488 -0.388929 -0.687097 0.61315
-10.19 -85.4144 43.4955 -0.411933 -0.675503 0.611561
-11.1449 -85.3988 42.8406 -0.435043 -0.674981 0.595843
-12.043 -85.2827 42.3016 -0.467636 -0.673351 0.571635
-12.67 -85.3114 41.7037 -0.491308 -0.677235 0.547695
-13.5982 -85.0963 41.0777 -0.552076 -0.624674 0.551843
-14.6195 -84.6761 40.5541 -0.545126 -0.614957 0.569794
-15.3042 -84.3723 40.1481 -0.605848 -0.595515 0.527551
-16.2767 -83.9545 39.4533 -0.627467 -0.572322 0.527951
-16.9108 -83.6442 39.0118 -0.68019 -0.53859 0.494471
-17.5579 -83.1997 38.5125 -0.717364 -0.503985 0.481028
-18.581 -82.3678 37.7192 -0.771067 -0.476836 0.422
-19.1106 -81.8777 37.3053 -0.801876 -0.435357 0.405612
-19.8213 -81.2164 36.4644 -0.829396 -0.395448 0.394618
-20.446 -80.4494 35.7869 -0.868331 -0.324959 0.374704
-20.7928 -79.8135 35.5231 -0.891512 -0.267931 0.364168
-21.0375 -78.9891 35.4749 -0.903946 -0.247935 0.34844
-21.1663 -78.2246 35.6848 -0.905724 -0.261984 0.332528
-20.7173 -78.4085 36.8115 -0.905808 -0.277971 0.319732
-20.2491 -78.8808 37.7645 -0.915195 -0.309532 0.25681
-19.8388 -79.1954 38.6365 -0.868684 -0.402257 0.289097
-19.4305 -79.4523 39.5408 -0.821234 -0.487096 0.297175
-19.1508 -79.5004 40.2352 -0.825292 -0.489987 0.280163
-18.8821 -79.5221 41.0411 -0.829348 -0.492882 0.263154
-18.4925 -79.5565 41.9384 -0.763492 -0.578717 0.284461
-18.1165 -79.6186 42.8037 -0.644412 -0.665079 0.377333
-17.7654 -79.4323 43.7238 -0.605991 -0.664734 0.432328
-17.5605 -79.0134 44.5519 -0.573694 -0.673527 0.466086
-17.2691 -78.686 45.3837 -0.565835 -0.673004 0.476166
-16.5111 -78.8892 45.973 -0.557862 -0.673575 0.484857
-15.7252 -79.1371 46.5328 -0.51638 -0.663689 0.536967
-15.06 -79.3737 46.807 -0.482733 -0.645217 0.592169
-14.1777 -79.7632 47.1019 -0.482736 -0.645214 0.59217
-13.2067 -80.0169 47.5753 -0.452321 -0.655879 0.60434
-12.23 -79.9212 48.2762 -0.393423 -0.642077 0.657993
-10.9264 -79.9595 49.0516 -0.396274 -0.65641 0.641921
-9.72322 -79.7342 50.0137 -0.391193 -0.658081 0.643349
-8.92824 -79.0764 51.1759 -0.393045 -0.658867 0.641413
-7.81648 -78.4934 52.4296 -0.382669 -0.650758 0.655717
-6.69923 -78.0372 53.5103 -0.373232 -0.651231 0.660754
-5.48341 -78.0534 54.1963 -0.347401 -0.663861 0.661445
-4.80198 -78.0119 54.5585 -0.316714 -0.668767 0.672639
-3.88079 -77.9627 55.0411 -0.280345 -0.7032 0.65111
-2.45694 -78.167 55.2256 -0.155339 -0.730121 0.665427
-1.27403 -78.2367 55.4253 -0.151169 -0.710024 0.687112
-0.392919 -78.1842 55.5885 -0.0780547 -0.704818 0.705043
1.29628 -77.806 56.1565 -0.041849 -0.670772 0.737674
1.36604 -77.044 56.7778 -0.00879859 -0.631795 0.775084
1.2769 -75.8222 57.7733 0.0145786 -0.585634 0.808049
1.51612 -74.8162 58.3891 0.0240718 -0.52108 0.853168
1.74669 -74.002 58.8799 0.0240714 -0.521082 0.853167
1.68916 -73.2918 59.2609 0.0412333 -0.455482 0.88929
1.56492 -72.6204 59.6106 0.0412342 -0.455482 0.889289
1.41462 -71.7079 60.11 0.104149 -0.415836 0.899423
1.12726 -70.7115 60.5399 0.0148859 -0.41901 0.907859
0.793818 -69.6732 61.0246 0.00802625 -0.388718 0.920708
0.258105 -68.8148 61.3548 0.00115949 -0.358426 0.933557
-0.293057 -67.67 61.7044 -0.137791 -0.267466 0.951524
-0.483436 -66.5717 61.9097 -0.151503 -0.206928 0.966555
-0.667299 -65.4436 62.1398 -0.176738 -0.201808 0.963013
-0.761708 -64.637 62.27 -0.183147 -0.17254 0.967796
-0.925763 -63.1093 62.5033 -0.189332 -0.168088 0.967419
-0.86967 -61.9813 62.667 -0.187604 -0.123742 0.974419
-0.951046 -61.0927 62.7641 -0.187604 -0.123744 0.974419
-1.06016 -59.9925 62.8632 -0.142028 -0.120307 0.982098
-1.60735 -58.1808 63.0908 -0.134503 -0.167667 0.976625
-2.07329 -56.6411 63.2488 -0.248101 -0.169969 0.953702
-2.63121 -56.0333 63.2097 -0.249397 -0.167456 0.953813
3.78187 -70.4582 60.5038 0.0756155 -0.434232 0.897622
3.13857 -71.2739 60.1633 0.0756134 -0.434232 0.897622
3.69251 -72.8162 59.3681 0.0757443 -0.435584 0.896955
3.84884 -73.5565 58.9954 0.0699935 -0.433058 0.898621
3.83073 -74.4291 58.5425 0.0619971 -0.526728 0.847534
3.49419 -75.3382 57.9783 0.0483678 -0.539617 0.84052
3.31185 -76.1272 57.4822 0.0439287 -0.53942 0.840879
3.14954 -77.2955 56.6183 -0.033127 -0.616237 0.786863
2.85166 -78.0332 56.028 -0.033127 -0.616237 0.786863
2.72391 -78.6476 55.4994 -0.0362013 -0.649123 0.759821
1.5485 -79.4432 54.5879 -0.109022 -0.691471 0.71413
0.155449 -79.6332 54.2222 -0.116902 -0.7152 0.687523
-1.40225 -79.4481 54.0646 -0.154115 -0.730765 0.665005
-2.38845 -79.5318 53.7441 -0.154728 -0.730445 0.665214
-3.22904 -79.448 53.5534 -0.238695 -0.72489 0.645836
-4.34711 -79.4239 53.1853 -0.233422 -0.712144 0.662091
-5.09733 -79.5008 52.838 -0.274702 -0.710705 0.646124
-6.19916 -79.7158 52.0435 -0.315979 -0.709266 0.630158
-6.71469 -79.9384 51.5345 -0.312013 -0.702419 0.639612
-7.29594 -80.4695 50.6649 -0.34926 -0.696393 0.62694
-7.76225 -80.8418 49.9916 -0.349259 -0.696392 0.626942
-8.73442 -81.3142 48.9454 -0.361922 -0.685971 0.631
-9.77909 -81.4337 48.1839 -0.377844 -0.682677 0.625449
-10.7016 -81.2933 47.8456 -0.355712 -0.645898 0.675399
-11.3889 -81.3599 47.4066 -0.38295 -0.635164 0.670443
-12.1468 -81.4748 46.805 -0.439281 -0.647447 0.622772
-12.87 -81.4549 46.3119 -0.479739 -0.648529 0.58971
-13.5249 -81.2736 45.9358 -0.503858 -0.65714 0.560619
-14.2723 -80.9599 45.6318 -0.495648 -0.663288 0.560604
-15.2328 -80.5438 45.1522 -0.558398 -0.672081 0.48631
-15.9586 -80.5198 44.3719 -0.566704 -0.659316 0.493973
-16.2925 -80.7509 43.6626 -0.57481 -0.65884 0.485308
-16.7678 -81.0154 42.7189 -0.619876 -0.645231 0.443517
-17.1513 -81.1353 41.936 -0.66033 -0.623259 0.418943
-17.6641 -81.2151 40.9486 -0.672469 -0.625737 0.39527
-18.1127 -81.1812 40.0819 -0.767747 -0.53657 0.349344
-17.8716 -81.8193 39.7105 -0.739967 -0.517674 0.425077
-17.2701 -82.1812 40.2094 -0.704475 -0.558706 0.437679
-16.6705 -82.5332 40.7252 -0.656279 -0.596474 0.457573
-15.8328 -82.9183 41.2806 -0.60466 -0.633104 0.483238
-15.0024 -83.2942 41.8157 -0.572115 -0.648214 0.50124
-13.9475 -83.6753 42.4381 -0.542999 -0.664459 0.513465
-13.2633 -83.7758 43.0316 -0.540258 -0.662706 0.518561
-12.2287 -83.9065 43.7858 -0.453146 -0.696699 0.55612
-11.3087 -83.9908 44.4232 -0.412594 -0.709631 0.569894
-10.6577 -83.9748 44.8631 -0.381987 -0.704217 0.598345
-9.69945 -83.8319 45.6318 -0.391854 -0.705065 0.590683
-8.74967 -83.3894 46.6761 -0.317455 -0.701939 0.63757
-7.44365 -82.9789 47.784 -0.320163 -0.701096 0.63715
-6.33665 -82.7305 48.6521 -0.304457 -0.716233 0.627428
-5.23568 -82.4474 49.4615 -0.280187 -0.721288 0.633434
-4.68658 -82.2097 49.977 -0.281076 -0.722682 0.631448
-3.97065 -82.0391 50.4522 -0.215899 -0.726341 0.652546
-2.91523 -81.7077 51.1703 -0.215899 -0.726341 0.652546
-1.56905 -81.6156 51.7173 -0.184355 -0.721896 0.666122
-0.348751 -81.1745 52.4589 -0.169895 -0.708109 0.685054
0.934497 -80.7744 53.2098 -0.157714 -0.694739 0.701078
1.99286 -80.2054 53.9323 -0.118722 -0.677305 0.72606
3.23118 -79.6667 54.6373 -0.106807 -0.677379 0.72774
3.95541 -79.4082 54.9272 -0.0569218 -0.629661 0.774782
5.07487 -78.9654 55.3629 -0.0381969 -0.637566 0.769448
6.2213 -78.1621 55.9562 0.0188381 -0.555473 0.831246
6.92053 -77.5592 56.3343 0.0300199 -0.555935 0.830683
7.04857 -76.8577 56.7992 0.0498326 -0.536835 0.841693
6.80445 -75.9674 57.37 0.0573519 -0.52438 0.849218
6.55419 -75.224 57.8236 0.0582241 -0.512103 0.856767
5.81377 -73.8538 58.713 0.0699327 -0.472189 0.877415
4.91333 -72.6639 59.3463 0.064239 -0.430536 0.900285
3.87166 -71.4577 60.0127 0.0756819 -0.434909 0.897288
-13.5028 -82.4834 44.417 -0.533619 -0.671325 0.51416
-14.4028 -82.2481 43.7902 -0.533618 -0.671324 0.514162
-13.9446 -82.3099 44.1876 -0.529717 -0.681701 0.504662
-16.7059 -42.1451 58.8204 -0.466978 -0.284322 0.837306
-16.6864 -41.1105 59.1822 -0.464259 -0.30029 0.833044
-16.2328 -40.6142 59.5848 -0.438685 -0.281413 0.852984
-16.6213 -41.9701 58.9267 -0.463962 -0.285254 0.838671
-16.6005 -42.0669 58.9053 -0.463962 -0.285255 0.838671
10.6697 -20.3105 65.0788 0.228265 -0.219675 0.948492
10.5493 -19.9749 65.1855 0.228268 -0.219674 0.948492
10.5281 -18.604 65.5439 0.222828 -0.237407 0.945437
10.368 -17.8782 65.7803 0.230729 -0.260565 0.93747
10.7356 -18.4824 65.524 0.234798 -0.241148 0.941652
9.34233 -13.1482 67.5031 0.257702 -0.301829 0.917872
9.23955 -12.4429 67.7677 0.272314 -0.325672 0.905418
9.64634 -11.4491 68.0028 0.272314 -0.325672 0.905418
9.71753 -11.3768 68.007 0.278413 -0.318135 0.906243
9.48154 -12.4088 67.7072 0.265007 -0.313746 0.911647
9.47471 -12.5189 67.6729 0.2577 -0.301824 0.917874
9.10776 -10.9234 68.3539 0.283432 -0.332105 0.899647
9.38625 -10.1356 68.5576 0.285618 -0.333236 0.898541
9.01051 -9.43058 68.9385 0.285618 -0.333233 0.898542
9.34931 -8.64481 69.1302 0.284514 -0.342815 0.895282
9.17606 -7.4906 69.6338 0.295094 -0.345461 0.890826
9.10484 -6.65285 69.9832 0.293629 -0.348253 0.890224
8.90757 -5.99987 70.3052 0.29197 -0.349557 0.89026
8.85983 -5.26645 70.6088 0.29257 -0.357451 0.886881
8.94054 -4.26929 70.9849 0.300248 -0.355897 0.884979
9.00601 -3.3373 71.3387 0.304285 -0.354723 0.884067
9.03875 -2.00154 71.8662 0.302225 -0.356556 0.884041
9.19124 -0.771544 72.3227 0.306508 -0.360809 0.880835
9.35881 0.0290271 72.5955 0.311522 -0.370404 0.875072
9.42307 1.10129 73.0158 0.318341 -0.361412 0.876379
9.52413 2.05381 73.3713 0.319096 -0.35926 0.876987
9.61887 2.79983 73.641 0.32009 -0.359297 0.87661
9.73113 3.51017 73.8877 0.322375 -0.358008 0.876296
9.90385 4.43588 74.2055 0.326066 -0.356987 0.87534
10.0045 5.19454 74.4738 0.328768 -0.353313 0.875832
10.0437 5.95314 74.7655 0.329044 -0.353801 0.875531
10.0934 6.78304 75.081 0.331974 -0.350454 0.875771
10.2309 7.72632 75.4051 0.333642 -0.349997 0.875317
10.2465 8.78135 75.8151 0.33514 -0.343781 0.877209
10.3548 9.55717 76.0778 0.335197 -0.34244 0.877711
10.4944 10.439 76.367 0.334846 -0.341456 0.878228
10.6052 11.3471 76.6755 0.334074 -0.338707 0.879586
10.8311 12.0979 76.8788 0.334315 -0.339543 0.879172
11.0987 12.9948 77.1177 0.33864 -0.335109 0.879218
11.372 14.1074 77.4346 0.339281 -0.332456 0.879978
11.6142 14.8123 77.6072 0.340707 -0.330029 0.880338
11.8849 15.6527 77.8152 0.341256 -0.328066 0.880861
12.2683 16.6153 78.0221 0.344792 -0.325163 0.880561
12.718 17.3377 78.1128 0.344782 -0.325475 0.880449
13.1255 18.3004 78.3055 0.35113 -0.321906 0.879252
13.504 19.1517 78.466 0.352036 -0.319235 0.879858
14.0516 20.5163 78.7348 0.354539 -0.315071 0.880359
14.4269 21.656 78.9848 0.358004 -0.30764 0.881584
14.6461 22.5663 79.2107 0.355264 -0.304447 0.883798
14.8421 23.4281 79.4271 0.354661 -0.300213 0.885487
15.0546 24.1961 79.6024 0.35465 -0.300223 0.885488
15.39 24.9438 79.7191 0.349532 -0.295971 0.888941
15.4632 25.919 80.017 0.349049 -0.297602 0.888593
15.5146 27.0634 80.3686 0.347135 -0.289414 0.892041
15.6891 27.8201 80.5422 0.345664 -0.283758 0.894426
15.9038 28.7116 80.7403 0.345905 -0.278142 0.896095
16.1052 29.577 80.9321 0.345328 -0.278921 0.896076
16.2612 30.3053 81.0926 0.346772 -0.265978 0.899447
16.4836 31.4716 81.3517 0.341352 -0.268496 0.900751
16.6379 32.4329 81.5776 0.330091 -0.263228 0.906505
16.7444 33.1674 81.7521 0.330137 -0.262641 0.906658
17.0775 34.2611 81.9468 0.326145 -0.264388 0.907582
17.6145 35.415 82.0927 0.322247 -0.264098 0.909071
18.3065 36.2233 82.0822 0.317605 -0.265532 0.910272
19.099 36.6016 81.92 0.313358 -0.265211 0.911849
19.9129 36.8763 81.7202 0.302313 -0.268315 0.91459
20.7961 37.1797 81.5295 0.300755 -0.276965 0.91252
21.5284 37.2135 81.2898 0.310242 -0.28251 0.90771
22.4471 37.3277 81.0187 0.301674 -0.28369 0.910227
23.1881 37.2798 80.7577 0.304433 -0.296445 0.905223
24.0204 37.3676 80.5079 0.303111 -0.299524 0.90466
24.9202 37.542 80.2697 0.301355 -0.305244 0.903308
25.722 37.6398 80.0297 0.307113 -0.307413 0.900655
26.8943 37.9288 79.7307 0.311158 -0.312208 0.897612
27.8569 38.2974 79.529 0.317156 -0.319137 0.893064
28.5709 38.6885 79.4152 0.316981 -0.319374 0.893041
29.4823 39.5646 79.4011 0.322659 -0.320674 0.890538
30.0882 40.0077 79.3422 0.329609 -0.319244 0.888467
30.5993 40.8383 79.4442 0.3442 -0.302214 0.888785
31.0594 41.5772 79.5017 0.353275 -0.299116 0.886329
31.9749 42.0649 79.2976 0.343038 -0.270797 0.899441
32.6863 42.1977 79.0662 0.33483 -0.274574 0.901339
33.6464 42.2673 78.7405 0.326601 -0.27835 0.903246
34.4097 41.9975 78.3745 0.327054 -0.287216 0.900293
35.3325 41.7651 77.9696 0.319909 -0.2889 0.902315
36.4324 41.2226 77.4091 0.312226 -0.290397 0.904524
37.1259 40.2497 76.8555 0.310751 -0.297361 0.902779
37.4895 39.6654 76.5379 0.30913 -0.299562 0.902604
38.0553 38.5879 75.9848 0.308781 -0.305839 0.900608
38.3703 37.9286 75.6488 0.304116 -0.308447 0.901293
38.9749 36.3044 74.8976 0.298173 -0.306987 0.903798
39.4275 35.0279 74.3083 0.29882 -0.310982 0.902217
39.5928 34.109 73.9373 0.296299 -0.307489 0.904238
39.2852 32.8127 73.5889 0.288749 -0.313278 0.9047
38.9622 32.0965 73.444 0.296538 -0.314126 0.901843
38.3943 31.2136 73.3263 0.302335 -0.312812 0.900404
37.8229 30.5867 73.302 0.301262 -0.309515 0.90191
36.7233 29.9039 73.435 0.300999 -0.309762 0.901913
35.9175 29.9496 73.7217 0.310065 -0.313636 0.897492
35.0786 30.0028 74.0301 0.310451 -0.315812 0.896592
34.016 30.4561 74.5623 0.315439 -0.318098 0.894042
33.5931 31.0808 74.9338 0.314789 -0.315964 0.895024
32.7485 31.7575 75.4671 0.317434 -0.314996 0.894427
31.4815 32.5776 76.2124 0.320698 -0.315993 0.892917
30.731 33.2063 76.7044 0.320664 -0.314648 0.893403
29.4652 33.1892 77.1561 0.324098 -0.313105 0.892706
28.6575 32.8916 77.3455 0.324313 -0.311787 0.89309
27.8374 32.5573 77.5275 0.327747 -0.310354 0.892335
26.9852 31.8425 77.5919 0.327753 -0.310347 0.892336
26.2327 31.0789 77.6034 0.331698 -0.307645 0.891805
25.4022 30.4174 77.6885 0.335281 -0.30631 0.890932
24.182 29.5435 77.8472 0.335524 -0.305741 0.891036
22.8438 29.2906 78.2692 0.337371 -0.295126 0.893914
21.6524 28.8117 78.5607 0.345116 -0.293106 0.89158
20.9995 28.5458 78.7269 0.344958 -0.294438 0.891241
20.2846 27.4949 78.6567 0.344664 -0.293921 0.891525
19.8663 26.2198 78.3917 0.349765 -0.301828 0.886885
19.775 25.3422 78.129 0.348788 -0.302687 0.886976
19.148 24.2458 77.9981 0.35061 -0.30747 0.88461
18.4408 23.6385 78.0673 0.350612 -0.307468 0.88461
17.6929 22.5992 78.0043 0.351623 -0.306145 0.884668
17.1183 21.6005 77.8841 0.352793 -0.30934 0.883089
16.7362 20.6369 77.7002 0.353618 -0.308679 0.88299
16.7122 19.4145 77.278 0.352591 -0.312463 0.88207
16.7473 18.2799 76.8616 0.353227 -0.312546 0.881785
16.7344 17.4161 76.5572 0.349569 -0.322896 0.879511
16.4307 16.1225 76.2117 0.351593 -0.319087 0.88009
15.9814 15.4121 76.1281 0.346154 -0.322819 0.880889
15.3065 14.5305 76.0704 0.346841 -0.324037 0.880171
14.4299 13.4885 76.0257 0.339446 -0.329856 0.880892
14.2022 12.6634 75.8038 0.337612 -0.332074 0.880761
14.0755 11.9118 75.5631 0.336505 -0.34202 0.877375
13.9352 11.0715 75.29 0.33885 -0.340619 0.877018
13.8951 10.1486 74.9477 0.338574 -0.339542 0.877541
13.9723 9.33124 74.6017 0.337303 -0.340665 0.877594
13.9656 8.0115 74.0874 0.334266 -0.344117 0.877407
13.8954 6.7197 73.6098 0.332443 -0.34285 0.878598
14.0344 4.9215 72.8495 0.332036 -0.345888 0.877561
13.9675 3.85991 72.463 0.32618 -0.343897 0.880526
13.4929 2.75118 72.2004 0.324131 -0.347863 0.879732
12.8474 1.93629 72.1145 0.322655 -0.34839 0.880067
12.5201 1.0281 71.8665 0.317113 -0.356418 0.878866
12.3079 0.0969597 71.5685 0.315928 -0.354471 0.880078
11.7278 -0.725414 71.4458 0.31206 -0.354034 0.88163
11.5689 -1.46114 71.2044 0.310614 -0.356217 0.881265
11.7359 -2.83371 70.6076 0.309967 -0.34622 0.885467
11.8596 -3.82826 70.1754 0.304591 -0.350888 0.885467
11.5453 -5.0986 69.7852 0.289384 -0.343771 0.893352
11.0987 -6.2534 69.4855 0.28938 -0.343791 0.893346
10.4948 -7.09893 69.3552 0.28836 -0.344259 0.893496
9.99557 -7.99885 69.1696 0.288636 -0.342398 0.894119
9.94431 -8.99709 68.8062 0.286713 -0.341678 0.895012
9.77234 -9.83195 68.5475 0.283434 -0.332106 0.899646
9.68273 -10.3109 68.3995 0.28125 -0.330969 0.900754
11.6907 3.1777 73.0354 0.323811 -0.352211 0.878113
11.5683 3.18218 73.0819 0.321184 -0.354372 0.878214
11.7822 3.89633 73.2875 0.32622 -0.349434 0.878337
12.0082 3.9075 73.208 0.326223 -0.349431 0.878338
12.1223 4.77576 73.5117 0.327468 -0.348445 0.878263
11.6985 5.06591 73.7855 0.33052 -0.35096 0.876114
11.67 4.88801 73.7244 0.327629 -0.351668 0.876917
11.9636 6.71926 74.345 0.332686 -0.351629 0.87503
11.9687 6.75433 74.3572 0.332686 -0.351629 0.87503
13.7901 15.9689 77.1922 0.341943 -0.323254 0.882373
13.7972 16.0233 77.2094 0.341944 -0.323254 0.882373
17.8878 25.7591 79.0106 0.347244 -0.298499 0.888998
17.2136 26.1297 79.3999 0.348702 -0.298875 0.888302
17.2461 27.1034 79.7088 0.346228 -0.28965 0.892317
17.4775 27.8095 79.8479 0.34647 -0.289058 0.892415
17.7171 28.8377 80.0815 0.342997 -0.280127 0.896592
17.8797 29.4294 80.2053 0.341034 -0.281529 0.896904
18.1295 30.1875 80.3461 0.34202 -0.27748 0.89779
18.6306 31.4715 80.5521 0.338976 -0.274249 0.899921
18.7685 32.5325 80.823 0.327318 -0.27619 0.903649
18.9627 33.4213 81.0243 0.327084 -0.273095 0.904668
19.2747 34.2913 81.1738 0.322017 -0.272589 0.906643
19.9966 34.8787 81.0951 0.323737 -0.276032 0.904986
21.2665 35.1786 80.7471 0.310114 -0.281696 0.908007
22.3473 35.2369 80.3861 0.318058 -0.283724 0.904621
23.1612 35.2781 80.1184 0.306284 -0.293311 0.905626
23.9682 35.5289 79.9233 0.317676 -0.300809 0.899219
24.7057 35.6257 79.6952 0.31768 -0.300808 0.899219
25.8179 35.8276 79.3802 0.307092 -0.306126 0.9011
26.7956 36.042 79.1082 0.318293 -0.307374 0.896778
27.5185 36.3067 78.9478 0.314658 -0.313256 0.89602
28.5675 36.6356 78.6906 0.316407 -0.314279 0.895049
29.2555 37.044 78.5886 0.322875 -0.314774 0.892563
29.8869 37.508 78.5238 0.322217 -0.315456 0.89256
30.507 38.055 78.493 0.325956 -0.315556 0.891166
31.1584 38.6706 78.4727 0.329466 -0.311023 0.891451
31.7472 39.3434 78.4841 0.332969 -0.306485 0.891739
32.4447 39.9994 78.4525 0.32945 -0.302539 0.894367
33.6129 40.189 78.0809 0.332878 -0.29717 0.89492
34.7864 39.8865 77.5566 0.320793 -0.298685 0.898821
35.6471 38.93 76.924 0.32338 -0.303056 0.896428
36.1872 37.8286 76.3674 0.30878 -0.305836 0.90061
36.6672 36.8113 75.851 0.310061 -0.309899 0.898791
37.2093 35.7305 75.2917 0.310627 -0.309677 0.898672
37.5557 34.6376 74.799 0.30263 -0.307372 0.902185
37.6401 33.9055 74.5213 0.30263 -0.307369 0.902186
37.2135 32.5999 74.2124 0.303866 -0.315541 0.898943
36.4239 31.912 74.2369 0.307899 -0.315971 0.897406
35.5337 32.0767 74.6054 0.312394 -0.315831 0.895913
34.5511 32.9732 75.263 0.311973 -0.315313 0.896243
33.7892 33.5414 75.7281 0.312887 -0.311731 0.897169
33.1772 33.9049 76.0719 0.321467 -0.312478 0.893877
32.4255 34.2832 76.4741 0.320628 -0.313303 0.89389
31.2695 34.8174 77.076 0.322012 -0.314016 0.89314
30.0185 34.856 77.543 0.323452 -0.314701 0.89238
29.0064 34.7522 77.8731 0.320711 -0.313909 0.893644
27.8729 34.6158 78.2311 0.320488 -0.311356 0.89462
26.7064 33.9024 78.4007 0.320475 -0.311357 0.894624
25.8204 33.1594 78.4659 0.326356 -0.305315 0.894575
24.8734 32.3244 78.5306 0.329407 -0.304421 0.893767
23.8683 31.5623 78.6435 0.333059 -0.300458 0.893751
22.861 31.1708 78.8904 0.335443 -0.299957 0.893031
21.9395 30.2437 78.9251 0.336405 -0.297542 0.893473
21.2316 30.0238 79.1225 0.341698 -0.290756 0.8937
20.3536 30.3061 79.5428 0.336566 -0.279639 0.89918
19.357 29.9612 79.8086 0.339291 -0.278557 0.898487
19.0495 29.2142 79.693 0.343177 -0.284697 0.895075
18.5227 28.3121 79.6059 0.345077 -0.288752 0.893053
18.2643 27.2561 79.3632 0.345649 -0.289349 0.892638
18.1793 26.5984 79.1785 0.347247 -0.298508 0.888994
18.1656 26.1967 79.0493 0.345789 -0.298132 0.889689
31.6317 36.5423 77.5503 0.325059 -0.312478 0.892577
32.465 37.6214 77.6256 0.322881 -0.311685 0.893644
33.0851 38.1629 77.5871 0.324592 -0.305762 0.89507
33.8856 37.9901 77.2378 0.322652 -0.305853 0.895737
34.353 37.3542 76.8516 0.31989 -0.311246 0.894872
34.631 36.6766 76.5171 0.318528 -0.309206 0.896065
34.8903 35.9764 76.1833 0.318528 -0.309206 0.896065
35.4003 35.3201 75.7755 0.314549 -0.309265 0.897439
34.5092 35.2987 76.0836 0.316888 -0.311827 0.895737
33.6507 35.6803 76.5201 0.319597 -0.31174 0.894801
32.7603 36.1873 77.0181 0.32242 -0.312104 0.893665
31.9122 36.5072 77.4359 0.323742 -0.312288 0.893121
-9.64462 11.4734 82.739 0.0474776 -0.582654 0.811333
-10.0417 12.0215 83.1534 0.0376644 -0.565877 0.823451
-10.4035 12.5604 83.5755 0.0779151 -0.586475 0.806211
-10.6609 11.9358 83.1434 0.0705874 -0.59079 0.803731
-10.7729 11.3458 82.7012 0.0321488 -0.585978 0.809689
-10.8872 10.7091 82.245 0.0246994 -0.59882 0.80031
-10.6867 10.1426 81.8025 0.0160005 -0.607832 0.793889
-10.7375 9.49043 81.3091 0.014754 -0.604007 0.796842
-10.7646 8.68079 80.6681 -0.0446253 -0.630704 0.773825
-10.4549 7.957 80.1346 -0.0745155 -0.612178 0.787201
-9.99749 7.06173 79.5499 -0.0968401 -0.557378 0.824592
-9.8507 6.16197 78.9214 -0.139337 -0.566226 0.811046
-9.6232 5.31331 78.4182 -0.171336 -0.536036 0.826625
-9.51559 4.48973 77.8923 -0.195673 -0.523499 0.82849
-9.22389 3.37716 77.3088 -0.217026 -0.497457 0.839903
-9.27264 2.38138 76.6866 -0.222363 -0.511116 0.83025
-8.79489 1.4962 76.3172 -0.241917 -0.455678 0.856303
-9.64021 0.765668 75.6921 -0.253972 -0.456682 0.852607
-10.103 -0.374842 74.9856 -0.276573 -0.41261 0.867906
-10.2604 -1.63227 74.3696 -0.297554 -0.346148 0.889543
-10.2734 -2.36598 74.0963 -0.297391 -0.33093 0.895563
-10.4069 -3.32289 73.6953 -0.299649 -0.332856 0.894102
-10.464 -4.72239 73.1755 -0.303125 -0.313934 0.899756
-11.1436 -5.60014 72.6679 -0.291992 -0.29442 0.909977
-11.3933 -6.37039 72.3386 -0.291871 -0.2944 0.910022
-10.5632 -7.3206 72.2792 -0.268909 -0.292642 0.917632
-10.0241 -7.32716 72.4377 -0.293483 -0.3362 0.894895
-9.54359 -6.36275 72.9242 -0.285112 -0.305229 0.908596
-9.1442 -5.74939 73.2511 -0.275831 -0.306452 0.91103
-8.59116 -4.5023 73.8608 -0.27418 -0.324556 0.905256
-8.30788 -3.61232 74.2797 -0.28607 -0.337173 0.896923
-8.22493 -2.90354 74.5704 -0.286787 -0.334661 0.897639
-8.36 -2.0987 74.8238 -0.297558 -0.346143 0.889544
-7.75971 -1.4786 75.2602 -0.258371 -0.358553 0.897042
-7.56769 -0.755114 75.6047 -0.260717 -0.370421 0.891424
-7.44977 0.0295205 75.9783 -0.254689 -0.394481 0.882774
-7.61414 0.687603 76.2353 -0.242735 -0.41492 0.876593
-8.41922 1.02207 76.1824 -0.237805 -0.435251 0.868335
-7.60765 0.909524 76.3483 -0.237805 -0.43525 0.868335
-7.60658 1.6117 76.7286 -0.246029 -0.476105 0.844271
-8.245 2.06731 76.7995 -0.246029 -0.476109 0.844269
-7.42187 2.00106 77.002 -0.217285 -0.456305 0.861998
-7.33764 2.69541 77.3648 -0.188398 -0.450118 0.872739
-7.4462 3.54742 77.7973 -0.170826 -0.475004 0.86299
-7.56586 4.56262 78.3507 -0.154139 -0.487192 0.859584
-7.78747 5.32323 78.742 -0.144631 -0.502321 0.852281
-7.69723 6.00348 79.173 -0.128662 -0.514407 0.847805
-7.92163 6.71264 79.5698 -0.113944 -0.516637 0.848589
-8.41038 7.53112 80.0472 -0.0888168 -0.559194 0.824266
-8.47467 8.33276 80.5528 -0.0515243 -0.545795 0.835585
-8.82084 9.20338 81.1425 -0.0262268 -0.558249 0.829175
-9.1482 9.88121 81.6159 -0.00464086 -0.576319 0.817212
