-0.7063 -52.1038 64.9268 -0.129 -0.146778 0.979363
-0.272352 -52.4526 64.8617 -0.0249768 -0.231608 0.972489
-0.272352 -52.4526 64.8617 -0.0249768 -0.231608 0.972489
-0.700957 -52.1858 64.9115 -0.107406 -0.221577 0.967547
-1.73263 -53.2537 64.5212 -0.231291 -0.215347 0.948708
-0.478465 -54.2466 64.4932 -0.0999557 -0.181409 0.978315
0.291436 -54.1652 64.5816 -0.0920665 -0.170056 0.981124
0.809034 -53.2863 64.7337 0.00387665 -0.168156 0.985365
1.15983 -52.6219 64.864 0.0566663 -0.15527 0.984109
1.59824 -51.9051 64.8947 0.105249 -0.0916664 0.990212
2.02673 -51.2704 64.9079 0.10525 -0.0916711 0.990212
2.5974 -50.4628 64.8905 0.127983 -0.0688783 0.989382
3.15542 -49.6645 64.8697 0.167018 -0.0672228 0.983628
3.78867 -48.8271 64.8178 0.172499 -0.0709445 0.982452
4.33217 -47.8413 64.7936 0.188695 -0.0585444 0.980074
4.83466 -46.9141 64.7339 0.199569 -0.0439398 0.978873
4.12215 -47.5032 64.8516 0.18244 -0.0456128 0.982064
3.50408 -48.3733 64.8989 0.166452 -0.0671785 0.983759
2.91267 -49.2863 64.9366 0.141162 -0.0807536 0.986267
2.14897 -49.2557 65.0298 0.126059 -0.0654782 0.989859
1.27685 -49.6042 65.1178 0.0836626 -0.0673998 0.9933
0.538268 -49.8587 65.1307 0.0425835 -0.0678673 0.996783
-0.236786 -50.2335 65.1287 -0.0113724 -0.0467193 0.998843
-0.92333 -50.5907 65.0649 -0.101838 -0.109476 0.988759
-1.99089 -51.1252 64.8957 -0.106627 -0.107065 0.988503
-2.4739 -51.9698 64.624 -0.227514 -0.207479 0.951415
-2.22239 -52.6526 64.5352 -0.227514 -0.207479 0.951415
-3.66733 -53.037 64.0916 -0.235068 -0.223214 0.946001
-3.24835 -53.7919 64.0264 -0.246416 -0.166498 0.954755
-2.15469 -54.7863 64.1353 -0.246415 -0.166498 0.954756
-0.880457 -55.6946 64.1836 -0.111269 -0.154793 0.981231
0.229178 -56.472 64.2206 -0.122583 -0.128176 0.984147
1.32224 -57.3365 64.1046 0.0767629 -0.126483 0.988786
1.38198 -58.3841 63.9871 0.0596116 -0.117382 0.991174
1.25778 -59.1468 63.8949 0.0479209 -0.127587 0.990669
0.807615 -60.087 63.6532 0.0355899 -0.274259 0.960997
0.435928 -61.0278 63.4158 0.00117248 -0.186674 0.981654
0.384348 -61.9264 63.28 -0.0344554 -0.160158 0.985338
0.37567 -62.7268 63.1405 -0.0809091 -0.17027 0.98207
0.330227 -63.9365 62.927 -0.0343581 -0.06025 0.990378
0.278869 -65.0362 62.7735 0.0460373 -0.213081 0.973617
0.373254 -66.5934 62.4968 -0.0168671 -0.208378 0.977289
0.893213 -67.994 62.1617 -0.0248691 -0.241307 0.97013
1.70849 -69.37 61.6284 0.0547549 -0.34178 0.938184
2.45351 -70.3699 61.2206 0.0616835 -0.329764 0.941936
2.38549 -71.8484 60.5867 0.0638996 -0.401906 0.913449
2.38091 -72.5589 60.2744 0.0638971 -0.401907 0.913448
2.30837 -73.2492 59.9758 0.0666945 -0.390446 0.918119
2.56468 -74.316 59.5183 0.11299 -0.467893 0.869281
2.67933 -74.9648 59.0535 0.156485 -0.556799 0.815774
2.84488 -75.6514 58.5331 -0.00223855 -0.633856 0.773214
2.86697 -76.6335 57.7417 -0.0273763 -0.625164 0.780013
2.68627 -77.5386 57.0099 -0.0436909 -0.645865 0.76152
2.3081 -78.0533 56.5176 -0.0630185 -0.657138 0.751024
1.54889 -78.8341 55.7853 -0.0803527 -0.654666 0.751428
0.681453 -79.2203 55.3313 -0.0946793 -0.661621 0.743837
-0.107539 -79.367 55.1004 -0.0974858 -0.675873 0.730272
-1.63743 -79.319 54.8641 -0.133702 -0.721722 0.679148
-2.93212 -79.078 54.8653 -0.175435 -0.725425 0.664078
-3.71831 -79.0875 54.5915 -0.217166 -0.729128 0.649008
-5.25363 -79.3045 53.834 -0.241391 -0.704269 0.666502
-6.4066 -79.5074 53.0875 -0.324999 -0.658568 0.678722
-7.53722 -79.6766 52.382 -0.341772 -0.658967 0.669771
-8.38596 -79.734 51.8642 -0.358544 -0.659363 0.660822
-9.15979 -79.9601 51.2765 -0.346625 -0.600541 0.720556
-9.63755 -80.6371 50.4482 -0.364592 -0.645097 0.669597
-10.0127 -80.9896 49.8548 -0.363461 -0.681835 0.63482
-10.6493 -81.2531 49.0971 -0.414659 -0.69655 0.585534
-11.5948 -81.332 48.2845 -0.469253 -0.671724 0.573226
-12.4343 -81.1388 47.8236 -0.456032 -0.666729 0.589114
-13.4236 -80.8354 47.4186 -0.460359 -0.653963 0.600335
-14.3116 -80.6265 46.9651 -0.479449 -0.660655 0.576802
-15.0358 -80.4558 46.5277 -0.486876 -0.674435 0.555059
-15.7053 -80.2974 46.1329 -0.518804 -0.677203 0.519569
-16.2989 -80.2353 45.5449 -0.550732 -0.679969 0.484083
-16.6706 -80.3998 44.8909 -0.550671 -0.672852 0.493848
-16.9448 -80.7217 44.1115 -0.579568 -0.663641 0.472949
-17.2429 -80.9677 43.4051 -0.599943 -0.677233 0.421019
-17.6689 -81.1919 42.3713 -0.656981 -0.629884 0.414273
-18.1981 -81.2346 41.4116 -0.669721 -0.632039 0.389872
-18.6433 -81.1424 40.5876 -0.752942 -0.559839 0.345758
-19.0417 -81.1109 39.7979 -0.748497 -0.559962 0.35524
-19.434 -80.9828 39.003 -0.833391 -0.457136 0.310237
-19.9861 -80.776 37.8866 -0.833674 -0.424051 0.351136
-19.2957 -81.6022 38.5675 -0.803575 -0.441155 0.394328
-18.7693 -82.0234 39.0618 -0.775821 -0.491916 0.39512
-18.2874 -82.4335 39.4976 -0.736599 -0.530611 0.415251
-17.6765 -82.8239 39.9656 -0.697382 -0.569302 0.435378
-17.0739 -83.1946 40.4486 -0.656407 -0.60208 0.451119
-16.2434 -83.588 41.0048 -0.614532 -0.634778 0.468409
-15.45 -83.955 41.5392 -0.58423 -0.645659 0.490904
-14.8219 -84.2488 41.8563 -0.564898 -0.652051 0.505613
-13.7095 -84.7016 42.5239 -0.532202 -0.665447 0.521606
-12.9715 -84.8348 43.0144 -0.472268 -0.678928 0.562156
-12.2596 -84.9657 43.4544 -0.451643 -0.687291 0.568432
-11.5485 -85.1086 43.8145 -0.430714 -0.695531 0.575084
-10.9336 -85.1286 44.251 -0.430712 -0.695533 0.575084
-10.3172 -85.0303 44.8188 -0.386375 -0.71001 0.588472
-9.62279 -84.9349 45.3668 -0.36597 -0.729095 0.578348
-8.94233 -84.8397 45.9174 -0.349081 -0.723024 0.595616
-8.32516 -84.6861 46.4243 -0.309817 -0.727253 0.612467
-7.47409 -84.3108 47.2844 -0.289875 -0.720807 0.629547
-6.75212 -83.9262 48.0422 -0.286436 -0.716181 0.636428
-5.38399 -83.3783 49.2145 -0.261044 -0.714287 0.649346
-4.7416 -83.0525 49.8576 -0.254041 -0.728623 0.635998
-4.14887 -82.8772 50.2852 -0.226747 -0.727144 0.647558
-2.7211 -82.5653 51.0811 -0.204813 -0.72909 0.653054
-1.75801 -82.5079 51.4474 -0.203055 -0.726139 0.65686
-0.755857 -82.3442 51.8924 -0.17122 -0.714627 0.678172
0.434651 -82.029 52.5326 -0.178182 -0.7103 0.680974
1.75453 -81.4973 53.3398 -0.118016 -0.688324 0.715622
2.86997 -80.9229 54.056 -0.105487 -0.677909 0.727464
3.79715 -80.5507 54.5221 -0.0956315 -0.676398 0.730302
4.71032 -80.2623 54.8805 -0.0665447 -0.630956 0.7729
5.58282 -79.9451 55.1992 -0.0467014 -0.633359 0.772448
6.48421 -79.565 55.5654 -0.0113471 -0.616325 0.78631
7.20046 -78.8654 56.0679 0.0215381 -0.582621 0.812195
7.90709 -77.4395 57.0306 0.019067 -0.565952 0.824218
7.80663 -76.1765 57.8339 0.0572891 -0.530522 0.845733
7.45767 -75.4788 58.2865 0.0257699 -0.49195 0.870242
7.30964 -74.796 58.6768 0.0257689 -0.491948 0.870243
6.91475 -73.7276 59.3361 0.093971 -0.454183 0.883681
6.33839 -73.1401 59.6559 0.100301 -0.397979 0.911895
5.52352 -72.6109 59.9765 0.1003 -0.397978 0.911895
4.36734 -71.0121 60.7761 0.0899096 -0.390364 0.91626
3.19565 -70.5443 61.0904 0.0886601 -0.397751 0.913164
4.30218 -70.1529 61.1583 0.0874097 -0.405136 0.910068
4.37283 -69.4207 61.4775 0.0874098 -0.405135 0.910069
4.50593 -68.035 62.0332 0.0126578 -0.354485 0.934914
4.68472 -67.0277 62.3516 0.194298 -0.271465 0.942632
4.79165 -66.238 62.5302 0.153832 -0.110064 0.981948
5.06944 -64.398 62.7422 0.136912 -0.146922 0.979627
5.29375 -63.0401 62.8866 0.117049 -0.127852 0.984839
5.32482 -61.7672 63.0557 0.113369 -0.133523 0.98454
5.25067 -60.8866 63.2028 0.122218 -0.167301 0.978301
4.83963 -59.311 63.5236 0.117041 -0.164773 0.979345
3.78613 -58.5638 63.7426 0.108768 -0.120153 0.986779
3.1133 -58.0133 63.8837 0.108767 -0.120154 0.986779
2.17708 -57.0896 64.0698 0.0767629 -0.126483 0.988786
1.54435 -56.0323 64.279 0.0822229 -0.145795 0.985892
1.74086 -54.7261 64.4342 0.109437 -0.158372 0.980666
1.91519 -53.9117 64.5731 0.118971 -0.191588 0.974238
2.32785 -53.0888 64.6603 0.145251 -0.148952 0.978118
2.86281 -52.3942 64.6866 0.154388 -0.146334 0.977067
3.5593 -51.5042 64.6665 0.173604 -0.0905996 0.980639
4.10017 -50.7184 64.6372 0.167023 -0.0672288 0.983627
4.76879 -50.0532 64.5616 0.172783 -0.0619185 0.983012
5.37725 -49.2611 64.5076 0.188695 -0.0585446 0.980074
5.68146 -48.5367 64.478 0.20583 -0.0461889 0.977497
5.98804 -47.7395 64.4509 0.206827 -0.0471578 0.97724
6.26946 -46.908 64.4322 0.206884 -0.0480826 0.977183
6.59096 -45.3838 64.4154 0.216891 -0.0330119 0.975637
6.72334 -44.4927 64.4161 0.219342 -0.0349348 0.975017
5.87032 -44.0499 64.6271 0.221793 -0.0368577 0.974397
5.02098 -44.811 64.7916 0.207262 -0.0420828 0.977254
4.19095 -45.4554 64.9237 0.192726 -0.0472959 0.980112
3.45321 -46.1508 65.0386 0.18244 -0.0456128 0.982064
2.79737 -46.9999 65.1076 0.170472 -0.0518006 0.984
2.057 -47.6448 65.1935 0.141163 -0.0807535 0.986267
0.637715 -48.2581 65.2737 0.0812883 -0.0857481 0.992995
-0.335152 -48.7262 65.2587 -0.0115995 -0.11854 0.992882
-1.36919 -49.2589 65.1877 -0.0538391 -0.154906 0.984505
-2.14821 -49.5709 65.0426 -0.110237 -0.143481 0.982711
-2.90421 -49.9363 64.9187 -0.16555 -0.13764 0.974391
-3.57281 -50.2562 64.7089 -0.216452 -0.172897 0.960853
-4.19996 -50.743 64.4811 -0.257219 -0.19917 0.944123
-4.3477 -51.5616 64.2833 -0.204557 -0.204611 0.957231
-3.85668 -52.7214 64.119 -0.222446 -0.23504 0.946031
-5.17072 -53.0736 63.6932 -0.355515 -0.226435 0.906828
-4.89644 -53.8325 63.5985 -0.222447 -0.235043 0.94603
-4.17922 -54.7727 63.6167 -0.244002 -0.162417 0.956077
-3.13907 -55.6603 63.7314 -0.244001 -0.162416 0.956078
-2.26362 -56.3783 63.8328 -0.242721 -0.164473 0.956049
-1.50698 -57.0201 63.9121 -0.189249 -0.158605 0.967528
-0.301365 -58.0269 63.9259 -0.137057 -0.150685 0.979035
-0.186234 -58.7699 63.8637 -0.164157 -0.1045 0.980883
-0.465762 -59.4509 63.6626 -0.201307 -0.231295 0.951829
-1.33696 -60.4424 63.2899 -0.161729 -0.209425 0.964357
-1.31909 -61.8971 63.1064 -0.145387 -0.10969 0.983275
-1.09388 -63.333 62.9143 -0.0343613 -0.0602512 0.990378
-1.23097 -64.4469 62.9715 -0.132381 -0.00978163 0.978532
-1.13208 -65.2946 62.7949 -0.213375 -0.324696 0.921436
-1.04561 -66.1372 62.518 -0.173694 -0.251872 0.948051
-1.02506 -67.0657 62.3124 -0.0900828 -0.249069 0.964287
-0.776113 -67.8437 62.1347 -0.0900815 -0.249069 0.964287
-0.322884 -68.7955 61.9312 -0.0574751 -0.245188 0.967209
0.181556 -69.7843 61.5822 0.0686097 -0.317749 0.945689
0.79859 -70.5707 61.2732 0.0686096 -0.317748 0.94569
0.986159 -71.7098 60.7901 0.101645 -0.418072 0.902709
0.902329 -72.4397 60.4615 0.101641 -0.418078 0.902707
0.729104 -73.0933 60.0803 -0.0478449 -0.492273 0.868383
0.85119 -74.0013 59.6147 -0.0509498 -0.461093 0.885888
1.17052 -74.7695 59.2416 -0.0307192 -0.538324 0.835825
1.20811 -75.5915 58.5633 -0.00964663 -0.647396 0.762092
1.51512 -76.379 57.8981 -0.0185098 -0.636281 0.771052
1.13467 -77.43 56.982 -0.0600077 -0.666562 0.74303
0.550139 -78.0852 56.3436 -0.0689169 -0.672669 0.736672
-0.295999 -78.3754 55.9905 -0.0721268 -0.678744 0.730824
-1.03009 -78.4277 55.8557 -0.117662 -0.68614 0.717891
-2.08458 -78.2684 55.8351 -0.117661 -0.686137 0.717894
-3.33906 -78.0181 55.8348 -0.200581 -0.659504 0.722077
-4.18544 -78.0141 55.5306 -0.26099 -0.670621 0.694225
-5.41486 -78.0579 55.0096 -0.265613 -0.679412 0.683995
-6.92152 -78.1893 54.1372 -0.3336 -0.675323 0.657762
-8.09161 -78.3909 53.364 -0.341772 -0.658966 0.669772
-9.018 -78.5941 52.6587 -0.358545 -0.659363 0.660822
-10.086 -78.9427 51.668 -0.420718 -0.618247 0.663893
-10.4501 -79.4126 51.0123 -0.436292 -0.55928 0.70488
-10.7946 -79.9554 50.3684 -0.436289 -0.559279 0.704882
-11.3459 -80.3426 49.5635 -0.489703 -0.635551 0.59688
-12.3652 -80.2997 48.8082 -0.473272 -0.634256 0.611337
-13.6783 -79.8964 48.2711 -0.44529 -0.662694 0.601864
-14.577 -79.6392 47.8693 -0.454449 -0.669005 0.58814
-15.6771 -79.3785 47.2586 -0.485261 -0.665277 0.567387
-16.6964 -79.0296 46.8177 -0.507791 -0.69275 0.506675
-17.2452 -78.9481 46.2706 -0.550458 -0.705076 0.447061
-17.7268 -79.0598 45.562 -0.558503 -0.678438 0.477208
-18.025 -79.3187 44.8317 -0.563664 -0.678743 0.470735
-18.0657 -79.9043 43.9432 -0.599942 -0.677235 0.421017
-18.2596 -80.1283 43.1944 -0.636218 -0.678287 0.367631
-18.63 -80.1196 42.3892 -0.751919 -0.602046 0.262339
-19.0051 -80.0598 41.6314 -0.737112 -0.596337 0.317881
-19.3736 -80.0276 40.7077 -0.8112 -0.518833 0.269284
-19.8121 -79.841 39.7886 -0.811399 -0.511261 0.283273
-20.2161 -79.547 38.8254 -0.87121 -0.435193 0.227157
-20.5457 -79.3473 38.0243 -0.876033 -0.361199 0.319211
-20.8823 -78.916 37.4736 -0.910682 -0.271898 0.310229
-21.1971 -78.6457 36.7855 -0.894653 -0.278998 0.345568
-21.5866 -79.1492 35.623 -0.853121 -0.251045 0.457341
-21.3366 -79.8765 35.6489 -0.848974 -0.281998 0.446856
-20.9709 -80.6907 35.8391 -0.852289 -0.279535 0.442113
-20.3005 -81.5632 36.4373 -0.809347 -0.348306 0.472906
-19.7664 -82.0607 37.0472 -0.837368 -0.391601 0.381371
-19.0696 -82.6896 37.6883 -0.767521 -0.491924 0.411001
-18.4363 -83.2177 38.2679 -0.748012 -0.478695 0.457035
-17.4762 -83.9326 38.9456 -0.716122 -0.512479 0.473851
-16.7222 -84.3965 39.4298 -0.642726 -0.57939 0.501208
-15.9562 -84.7352 39.9934 -0.619171 -0.592298 0.515223
-15.1985 -85.0338 40.5331 -0.605983 -0.605763 0.515593
-14.4628 -85.3367 40.9319 -0.552815 -0.620237 0.556509
-13.7253 -85.6304 41.331 -0.52199 -0.637916 0.565897
-13.0855 -85.7484 41.7638 -0.509392 -0.636067 0.579601
-12.3539 -85.8602 42.2948 -0.483987 -0.68217 0.547764
-11.3426 -86.1471 42.7351 -0.448407 -0.668133 0.593742
-10.281 -86.2394 43.3691 -0.398407 -0.681397 0.613979
-9.35686 -86.0868 44.1748 -0.386378 -0.710007 0.588474
-8.52025 -86.0125 44.7547 -0.331129 -0.722699 0.606679
-7.6968 -85.781 45.4799 -0.323808 -0.716709 0.617471
-6.47044 -85.4004 46.4962 -0.296718 -0.71288 0.635421
-6.03649 -85.0705 47.0765 -0.28988 -0.720807 0.629544
-4.93534 -84.5561 48.0993 -0.256903 -0.716696 0.648323
-4.34299 -84.2181 48.706 -0.252775 -0.719098 0.647304
-3.85169 -83.8606 49.2951 -0.233181 -0.715768 0.657873
-3.1246 -83.6617 49.7432 -0.215576 -0.71638 0.663572
-1.93362 -83.427 50.3835 -0.215579 -0.716378 0.663572
-0.27608 -83.4649 50.8464 -0.185232 -0.715942 0.673053
0.709137 -83.2281 51.3523 -0.17804 -0.711536 0.679719
1.53991 -82.9336 51.8783 -0.178109 -0.710918 0.680347
2.35959 -82.6019 52.3542 -0.123776 -0.694867 0.708406
3.16149 -82.0738 53.0123 -0.123772 -0.69487 0.708404
3.93366 -81.679 53.4989 -0.102337 -0.671531 0.733875
4.63942 -81.356 53.8929 -0.102335 -0.67153 0.733877
6.32816 -80.9735 54.3889 -0.0507414 -0.659369 0.750105
7.3648 -80.6872 54.6985 -0.011344 -0.616326 0.786309
8.47313 -79.8766 55.2723 0.0120624 -0.592419 0.805405
9.09106 -78.6568 56.1673 0.0215366 -0.582623 0.812193
9.49884 -77.7907 56.7087 0.0720328 -0.527779 0.846191
9.65585 -77.1149 57.1124 0.0868008 -0.525732 0.84621
9.5459 -76.1026 57.7526 0.0870397 -0.523441 0.8476
9.16164 -75.5568 58.1227 0.0757402 -0.517999 0.852021
8.75205 -74.8991 58.5589 0.0638624 -0.498821 0.863972
8.54198 -74.1241 58.9957 0.0519895 -0.479642 0.875923
8.3688 -73.0975 59.4929 0.0705799 -0.414976 0.907091
7.3478 -72.0793 60.023 0.0644035 -0.408803 0.910347
6.2544 -71.2927 60.4714 0.0951052 -0.394171 0.914078
5.99301 -69.9477 61.0873 0.137574 -0.376432 0.914338
5.87452 -69.0487 61.4518 0.187732 -0.347732 0.918607
5.69804 -68.1506 61.8279 0.185768 -0.307542 0.932257
5.93075 -67.0994 62.0798 0.183812 -0.267347 0.945906
6.09226 -66.2258 62.2953 0.19654 -0.253023 0.947092
6.31388 -65.3812 62.4081 0.172267 -0.148981 0.973719
6.44342 -64.631 62.4999 0.172268 -0.148981 0.973719
6.57471 -63.8434 62.5972 0.167521 -0.156614 0.973308
6.70284 -62.9178 62.7223 0.147661 -0.136073 0.979633
6.70057 -62.0853 62.8383 0.147662 -0.136072 0.979633
6.67001 -61.2743 62.9555 0.142853 -0.146175 0.978826
6.6766 -60.3772 63.0981 0.138465 -0.156676 0.977896
6.45161 -59.6461 63.2471 0.138463 -0.156675 0.977896
5.80461 -58.2841 63.5274 0.138374 -0.117496 0.983386
5.35433 -57.6719 63.6609 0.119673 -0.110413 0.986655
4.30685 -57.176 63.8434 0.119673 -0.110413 0.986655
3.49113 -56.7083 63.9947 0.122095 -0.11909 0.985306
3.22446 -55.6105 64.171 0.124514 -0.127775 0.983956
3.00628 -54.3474 64.3542 0.109444 -0.158374 0.980665
4.03645 -53.2888 64.3583 0.163525 -0.143715 0.976015
4.90362 -52.3653 64.349 0.16856 -0.117159 0.978328
5.62325 -51.2577 64.3081 0.19209 -0.0778025 0.97828
6.59213 -50.0712 64.208 0.196145 -0.0777431 0.977488
7.07959 -48.8253 64.1667 0.209311 -0.0488818 0.976626
7.42746 -47.7897 64.144 0.208041 -0.0475575 0.976962
7.73299 -46.7229 64.1167 0.215264 -0.0333124 0.975987
7.87177 -45.8315 64.1166 0.215266 -0.0333114 0.975987
7.99336 -44.9244 64.1207 0.215262 -0.0333178 0.975988
8.20055 -43.456 64.1017 0.225693 -0.018617 0.974017
8.39099 -42.2545 64.0833 0.226969 -0.0210312 0.973675
8.8192 -41.341 63.9911 0.23147 -0.00935207 0.972797
9.10083 -40.5199 63.9336 0.229144 -0.00824825 0.973352
9.46498 -39.3333 63.8482 0.230266 0.00109078 0.973127
9.74838 -38.2357 63.7821 0.227337 0.00165108 0.973813
9.10499 -37.8792 63.9307 0.22677 0.0032562 0.973943
9.83079 -37.5466 63.7606 0.226778 0.00328214 0.973941
10.4032 -36.9521 63.6285 0.214899 -0.00274799 0.976632
10.4776 -36.1693 63.6118 0.214986 0.00823947 0.976582
10.5571 -35.3507 63.5874 0.214984 0.00823725 0.976583
10.2878 -35.3422 63.6463 0.212075 0.0113845 0.977184
9.73589 -35.9111 63.7721 0.218808 0.0110126 0.975687
9.22588 -36.5345 63.8981 0.225691 0.00876547 0.974143
9.12713 -36.8141 63.922 0.226792 0.00330559 0.973938
8.55916 -37.5929 64.0569 0.234818 0.00750286 0.971966
7.98679 -38.2809 64.2025 0.237243 0.0103704 0.971395
7.47557 -39.2279 64.33 0.242218 0.00419134 0.970188
6.9348 -40.077 64.453 0.232142 -0.010235 0.972628
6.32372 -41.1423 64.5892 0.238649 -0.00463796 0.971072
5.69498 -41.8109 64.7305 0.233305 -0.0176184 0.972244
5.10391 -42.5681 64.858 0.229977 -0.0283356 0.972724
4.68161 -43.1855 64.9321 0.227449 -0.0388094 0.973016
3.84975 -43.922 65.0799 0.20889 -0.0625339 0.975937
2.80833 -44.8005 65.2473 0.2089 -0.0616059 0.975995
2.12112 -45.5329 65.3208 0.184154 -0.0709881 0.980325
1.50428 -46.2245 65.3891 0.184598 -0.0677988 0.980473
0.344664 -46.8301 65.4631 0.10382 -0.132763 0.985695
-0.438146 -47.2666 65.4952 0.0637892 -0.169925 0.981286
-1.23389 -47.629 65.4272 0.00899202 -0.203478 0.979038
-1.92786 -48.0126 65.3538 0.0567883 -0.233568 0.968984
-2.76507 -48.2884 65.2219 -0.0952998 -0.192673 0.976624
-3.50407 -48.6264 65.0831 -0.13974 -0.208831 0.96671
-4.17971 -48.9693 64.8763 -0.167796 -0.266214 0.948963
-4.82571 -49.3587 64.6362 -0.229984 -0.283564 0.929552
-5.54654 -49.8315 64.281 -0.275311 -0.249361 0.928452
-6.07569 -50.5751 63.9244 -0.297536 -0.256154 0.919366
-5.91389 -51.5685 63.7444 -0.392827 -0.197522 0.898149
-5.57548 -52.2827 63.732 -0.360548 -0.209937 0.908642
-5.30129 -52.8254 63.704 -0.355514 -0.226435 0.906828
2.36472 -59.6604 63.7481 0.051104 -0.192775 0.977545
3.17283 -59.9424 63.6093 0.111864 -0.162246 0.980389
3.68312 -60.5165 63.456 0.111865 -0.162245 0.980389
4.09119 -61.7471 63.2005 0.117795 -0.150412 0.98142
3.6366 -63.3989 63.0452 0.0587934 -0.127558 0.988128
3.35408 -64.9822 62.832 -0.0110818 -0.156675 0.987263
3.5831 -65.6946 62.7139 -0.0546887 -0.155012 0.986398
3.46299 -66.5003 62.5806 -0.0546858 -0.155016 0.986397
2.78703 -67.2555 62.352 0.0126566 -0.354483 0.934915
2.15907 -67.208 62.3897 0.0149441 -0.291543 0.954157
1.93446 -66.2218 62.5771 -0.0139424 -0.17793 0.983928
1.75383 -65.449 62.7154 -0.0190225 -0.180414 0.983407
1.62597 -64.4158 62.9024 -0.0110856 -0.156676 0.987263
1.76014 -63.4301 63.0351 0.00442478 -0.141492 0.989863
1.95146 -61.9205 63.2619 0.0119994 -0.150046 0.988606
2.0614 -61.2421 63.3828 -0.00965243 -0.223302 0.974702
2.2041 -60.4092 63.575 -0.00965373 -0.223303 0.974701
3.92851 -72.9872 59.9777 0.0769023 -0.396133 0.914855
4.03576 -73.6855 59.6665 0.112987 -0.467895 0.869281
4.38966 -74.7755 58.9511 0.067733 -0.522914 0.84969
4.22053 -75.8968 58.2745 0.0544847 -0.569574 0.818086
4.14148 -76.9465 57.4561 0.0412407 -0.616237 0.786481
3.97584 -77.5947 56.957 0.0195758 -0.590116 0.806128
3.62546 -78.2599 56.4571 -0.0605641 -0.644715 0.761973
3.27417 -79.504 55.3658 -0.0683621 -0.646906 0.759499
2.41813 -79.798 55.0383 -0.0671922 -0.647308 0.75926
3.31764 -79.5846 55.3018 -0.0753424 -0.633557 0.770019
4.07702 -79.1033 55.7794 -0.0605631 -0.644717 0.761971
5.00189 -78.9465 55.975 -0.0527604 -0.642527 0.764444
5.88258 -77.815 56.8113 -0.00208849 -0.563997 0.825774
6.05937 -76.4557 57.7402 0.0195758 -0.590116 0.806128
6.0783 -75.8333 58.1655 0.0776843 -0.516651 0.852579
5.95038 -74.9572 58.7013 0.0876353 -0.51039 0.855466
5.57846 -74.3493 59.102 0.0876364 -0.51039 0.855466
4.55905 -73.6166 59.6437 0.0939688 -0.454184 0.88368
4.34783 -73.4695 59.7311 0.0951046 -0.39417 0.914078
-0.00148758 -80.2928 54.2176 -0.158723 -0.70159 0.694679
-0.200736 -81.0093 53.4484 -0.161488 -0.710271 0.685026
-1.49036 -81.3421 52.7805 -0.164251 -0.718954 0.675372
-2.0984 -81.4494 52.5023 -0.2013 -0.723187 0.660665
-3.04465 -81.5934 52.0563 -0.201299 -0.723185 0.660668
-4.31327 -81.95 51.2688 -0.226748 -0.727144 0.647558
-5.19494 -82.1004 50.7574 -0.248683 -0.725202 0.642059
-5.8538 -82.2179 50.3695 -0.25404 -0.728624 0.635998
-6.36154 -82.4645 49.8739 -0.266813 -0.728811 0.630539
-7.05292 -82.781 49.2096 -0.273918 -0.725506 0.631356
-8.31856 -83.2671 48.1 -0.273927 -0.726613 0.630078
-9.11013 -83.6215 47.2498 -0.332757 -0.714525 0.615408
-9.94564 -83.8369 46.5467 -0.349078 -0.723025 0.595617
-10.6754 -83.86 45.9997 -0.426247 -0.701845 0.570725
-11.3531 -83.9274 45.4108 -0.427325 -0.702207 0.56947
-12.026 -83.9926 44.8227 -0.4401 -0.696114 0.56706
-12.7864 -83.9625 44.2523 -0.429578 -0.681376 0.591581
-13.5484 -83.8397 43.7671 -0.535447 -0.656824 0.530922
-14.5104 -83.4551 43.2475 -0.553445 -0.654677 0.514632
-15.4725 -82.9764 42.7996 -0.58423 -0.645657 0.490907
-16.2114 -82.6112 42.3465 -0.607357 -0.632698 0.480428
-16.8698 -82.3274 41.888 -0.595588 -0.651557 0.469177
-16.4867 -82.1554 42.6281 -0.583822 -0.670415 0.457926
-16.125 -81.9077 43.4518 -0.581695 -0.667028 0.465438
-15.6471 -81.645 44.3638 -0.550607 -0.665736 0.503614
-15.0522 -81.5001 45.2058 -0.546079 -0.668971 0.504226
-14.4176 -81.499 45.8172 -0.498799 -0.665855 0.554826
-13.343 -81.7391 46.4958 -0.479447 -0.660659 0.576798
-12.3579 -82.0315 46.9031 -0.442804 -0.66174 0.605
-11.4284 -82.2565 47.3373 -0.456029 -0.666731 0.589114
-10.747 -82.3286 47.7385 -0.411362 -0.699405 0.584478
-9.78063 -82.1856 48.5935 -0.371396 -0.718735 0.585907
-9.21006 -81.9052 49.2618 -0.307212 -0.728908 0.611018
-8.78932 -81.5734 49.8302 -0.285803 -0.720365 0.631974
-8.26597 -81.1421 50.5438 -0.284853 -0.708872 0.645259
-7.70165 -80.8416 51.1228 -0.284664 -0.70886 0.645355
-6.99913 -80.708 51.5711 -0.267262 -0.713134 0.64804
-6.11328 -80.763 51.8656 -0.261983 -0.714541 0.648674
-5.33937 -80.6203 52.3395 -0.263021 -0.71705 0.645492
-4.63521 -80.4495 52.7998 -0.210219 -0.71502 0.666749
-3.68772 -80.1675 53.4009 -0.210222 -0.71502 0.666748
-2.49998 -80.0576 53.9093 -0.175435 -0.725425 0.664078
-1.12253 -80.3819 53.8714 -0.158721 -0.70159 0.694679
-12.9502 -82.6177 45.7584 -0.45214 -0.688847 0.566621
-13.6631 -82.454 45.3535 -0.499064 -0.664358 0.556384
-13.1817 -82.7341 45.4322 -0.452138 -0.688847 0.566623
-16.4384 -41.943 59.6229 -0.469028 -0.285052 0.835918
-16.3887 -41.8244 59.6912 -0.46645 -0.280955 0.838724
5.90336 -44.0091 64.6212 0.22102 -0.0449789 0.974232
6.32522 -43.3956 64.5464 0.228736 -0.0275421 0.973099
6.65127 -43.963 64.4537 0.224885 -0.0362599 0.973664
10.1289 -18.0082 66.2602 0.230695 -0.260285 0.937557
10.0662 -17.7555 66.3455 0.235729 -0.266389 0.934524
9.3523 -12.8464 68.0875 0.250778 -0.315422 0.915215
9.36301 -12.6426 68.1548 0.250777 -0.315426 0.915214
9.60308 -11.3779 68.5445 0.264887 -0.331678 0.905442
9.60297 -11.3704 68.5473 0.264887 -0.331677 0.905442
9.5277 -10.0471 69.0621 0.27269 -0.343217 0.8988
9.53983 -10.0357 69.0628 0.273186 -0.34333 0.898607
9.92844 -9.06656 69.3145 0.283804 -0.347175 0.893824
10.5084 -8.1691 69.4791 0.282178 -0.346397 0.894642
10.9232 -7.1198 69.7508 0.287252 -0.344942 0.893589
11.189 -6.4169 69.9365 0.287841 -0.343361 0.894008
11.6804 -5.44941 70.1499 0.287841 -0.343361 0.894008
12.0046 -4.75046 70.3139 0.293095 -0.341507 0.892993
12.1518 -3.74506 70.6509 0.308179 -0.347777 0.885477
11.9319 -2.51545 71.2127 0.310436 -0.34854 0.884392
11.9553 -1.74371 71.5115 0.310828 -0.357426 0.8807
12.2339 -1.03261 71.7005 0.313544 -0.353692 0.881245
12.6162 -0.397427 71.8199 0.315563 -0.356203 0.87951
12.7537 0.308359 72.0557 0.316271 -0.355464 0.879555
12.9632 1.1187 72.31 0.316367 -0.357992 0.878495
13.6718 2.03398 72.4181 0.32146 -0.350778 0.879556
14.0311 2.95097 72.65 0.325397 -0.349312 0.878691
14.3286 4.27781 73.0613 0.327338 -0.342672 0.880583
14.3215 5.87815 73.6968 0.332855 -0.34854 0.876201
14.2668 6.77411 74.0713 0.333472 -0.344134 0.877706
14.4659 8.1228 74.5245 0.333481 -0.344127 0.877706
14.5209 9.31377 74.9656 0.339389 -0.339976 0.877057
14.4385 10.0743 75.293 0.340833 -0.340382 0.876341
14.421 10.7958 75.5801 0.340837 -0.340389 0.876337
14.3244 11.4664 75.8772 0.340274 -0.339946 0.876727
14.7004 12.2676 76.0416 0.340998 -0.339228 0.876724
15.0201 13.0901 76.2314 0.339709 -0.330819 0.88043
15.4186 14.073 76.441 0.347425 -0.327698 0.878584
15.8899 14.6578 76.4728 0.347439 -0.327694 0.87858
16.4852 15.398 76.5124 0.348362 -0.326532 0.878647
16.9017 16.1129 76.6129 0.349606 -0.324844 0.878777
17.1995 17.0701 76.8459 0.349741 -0.32181 0.879838
17.2453 17.8625 77.1173 0.348406 -0.325306 0.879084
17.296 18.6134 77.365 0.352111 -0.314142 0.881665
17.2436 19.4344 77.6784 0.351951 -0.313894 0.881817
17.2955 20.2078 77.9328 0.351793 -0.313654 0.881965
17.5138 21.1181 78.1649 0.352713 -0.309175 0.883179
18.317 22.1069 78.1924 0.351458 -0.310222 0.883312
18.8936 22.9376 78.2525 0.350505 -0.30654 0.884974
19.5334 23.8192 78.3052 0.350171 -0.307015 0.884942
20.1658 24.8494 78.413 0.348517 -0.307188 0.885535
20.377 25.7623 78.6439 0.346537 -0.302475 0.887931
20.519 26.5883 78.8696 0.346441 -0.301548 0.888283
20.832 27.287 78.9841 0.346734 -0.300907 0.888386
21.3062 27.8915 79.0037 0.344608 -0.303121 0.888454
22.3463 28.4802 78.804 0.339564 -0.295977 0.892801
23.1774 29.1393 78.7064 0.337632 -0.299429 0.892374
23.8281 29.5424 78.5984 0.333492 -0.3031 0.892697
24.8867 29.9637 78.3489 0.331284 -0.303319 0.893448
26.2798 30.6542 78.0634 0.332895 -0.310013 0.890539
27.0296 31.1461 77.9588 0.328624 -0.313295 0.890984
27.9179 31.8257 77.8702 0.328624 -0.313296 0.890984
29.5249 32.5193 77.5279 0.324352 -0.314917 0.891977
30.3866 32.7799 77.3065 0.324355 -0.31492 0.891975
31.2416 32.2709 76.815 0.32075 -0.318953 0.891845
31.7864 31.7827 76.4446 0.319765 -0.319794 0.891898
32.7584 30.7598 75.7293 0.31608 -0.318862 0.893534
33.6507 30.1721 75.2058 0.313557 -0.321319 0.893552
34.4655 29.7603 74.7719 0.31402 -0.320327 0.893746
35.2087 29.5576 74.4443 0.308131 -0.31609 0.897297
35.9837 29.5975 74.1922 0.308119 -0.316091 0.897301
37.1856 29.5687 73.7814 0.299769 -0.312499 0.901378
38.2286 30.293 73.6849 0.300116 -0.312179 0.901374
38.8469 30.8195 73.6614 0.292969 -0.311523 0.903917
39.3959 31.5932 73.7533 0.287482 -0.313204 0.905122
39.7926 33.0027 74.1196 0.288758 -0.316106 0.903712
39.9282 33.7691 74.3443 0.292232 -0.311889 0.904044
39.8774 34.9525 74.769 0.298067 -0.313625 0.901551
39.5797 36.1421 75.2824 0.299252 -0.313993 0.901031
39.2014 36.8485 75.6528 0.298713 -0.311802 0.90197
38.8273 38.0985 76.2087 0.298722 -0.311786 0.901973
38.5052 38.925 76.5959 0.30486 -0.303073 0.902876
37.537 40.0994 77.3241 0.309156 -0.303899 0.901148
36.7107 41.2908 77.9985 0.3114 -0.294822 0.903378
35.8031 41.8336 78.4939 0.315035 -0.296113 0.901704
34.7806 42.0812 78.9373 0.326858 -0.291651 0.898937
33.9926 42.2457 79.2793 0.326626 -0.283202 0.901727
33.1741 42.2711 79.5838 0.335428 -0.280117 0.899405
32.1598 41.9667 79.879 0.344228 -0.277034 0.897084
31.4005 41.224 79.9349 0.349673 -0.29563 0.889006
30.645 39.9495 79.7827 0.338034 -0.321792 0.884411
30.1314 39.2727 79.7247 0.324597 -0.324701 0.888372
29.4303 38.7396 79.7866 0.323313 -0.32281 0.889529
28.659 38.3023 79.9048 0.318709 -0.32305 0.891102
27.9015 37.9108 80.0344 0.319086 -0.322273 0.891249
26.8066 37.5523 80.2873 0.312834 -0.321174 0.893858
26.0124 37.4454 80.5099 0.301153 -0.313609 0.900498
25.2004 37.3092 80.7407 0.307559 -0.309399 0.899822
24.0338 37.1945 81.0891 0.302735 -0.304473 0.903132
23.1436 37.1304 81.3589 0.297538 -0.290465 0.909415
22.075 37.0387 81.6866 0.303322 -0.284875 0.909308
20.7948 36.8628 82.0678 0.301509 -0.277029 0.912242
20.0793 36.6181 82.2243 0.312858 -0.271065 0.910299
18.9718 36.0241 82.4281 0.313569 -0.269294 0.910577
18.2562 35.3646 82.4827 0.319221 -0.26907 0.90868
17.85 34.5774 82.3923 0.319714 -0.268254 0.908747
17.3215 33.4871 82.2581 0.319601 -0.266514 0.9093
17.0284 32.6254 82.1098 0.328187 -0.261342 0.907738
16.9227 31.8395 81.9175 0.339233 -0.269198 0.901362
16.7875 31.0925 81.7453 0.338738 -0.272431 0.90057
16.4936 30.101 81.552 0.338232 -0.27567 0.899781
16.2837 29.3114 81.39 0.344958 -0.276992 0.896816
16.1819 28.4381 81.159 0.345481 -0.277882 0.89634
15.9521 27.1697 80.8436 0.348295 -0.29175 0.89082
15.7915 25.8598 80.4734 0.349279 -0.296149 0.888984
15.6784 24.8865 80.1905 0.349349 -0.298884 0.888045
15.4711 24.0302 79.9848 0.35377 -0.300831 0.885634
15.2266 23.3217 79.8419 0.354003 -0.300477 0.885661
15.0077 22.5279 79.6599 0.356424 -0.30498 0.883147
14.8731 21.8114 79.4672 0.357368 -0.305438 0.882599
14.654 21.0657 79.2941 0.354262 -0.313093 0.881176
14.2758 20.2128 79.1431 0.354262 -0.313093 0.881176
14.0171 19.4102 78.9592 0.354869 -0.316571 0.879688
13.4756 18.4546 78.8249 0.351009 -0.324398 0.878384
13.2741 17.5366 78.5659 0.347799 -0.327135 0.878644
12.8404 16.5704 78.3778 0.347473 -0.327968 0.878464
12.2803 15.8145 78.3128 0.341649 -0.32829 0.880625
11.9392 14.5326 77.9658 0.344052 -0.327332 0.880039
11.6164 13.7457 77.7952 0.340532 -0.333832 0.878973
11.2874 12.4515 77.4312 0.340342 -0.333609 0.879132
11.0864 11.364 77.0954 0.340532 -0.335498 0.878339
10.8736 10.3834 76.8034 0.342821 -0.339457 0.875909
10.8672 9.69067 76.5359 0.34258 -0.342798 0.874713
10.9618 8.94181 76.203 0.342994 -0.345076 0.873658
10.7171 7.9426 75.8965 0.336681 -0.350669 0.873882
10.6038 7.01285 75.5697 0.335334 -0.34934 0.874935
10.4443 6.16693 75.2894 0.334607 -0.35318 0.873671
10.4494 5.44274 74.9939 0.332194 -0.357151 0.872976
10.2647 4.15951 74.5412 0.329567 -0.355409 0.874683
10.1538 3.43065 74.2827 0.32626 -0.359685 0.874174
9.95186 2.57323 74.0063 0.325214 -0.359801 0.874515
9.8879 1.67683 73.6605 0.32426 -0.36053 0.87457
9.74289 0.640103 73.28 0.319699 -0.367802 0.87319
9.59878 -0.355363 72.9193 0.315198 -0.363296 0.876736
9.47736 -1.30944 72.5672 0.311611 -0.360122 0.879324
9.41315 -2.44086 72.1135 0.302977 -0.373681 0.87668
9.37862 -3.28268 71.7821 0.301305 -0.359283 0.88325
9.31052 -4.27808 71.3993 0.299187 -0.360681 0.883387
9.24436 -5.40674 70.9661 0.294273 -0.361375 0.884754
9.35378 -6.42318 70.532 0.29493 -0.348189 0.889821
9.18842 -7.65699 70.102 0.285417 -0.350205 0.892108
9.1674 -8.41588 69.8113 0.285412 -0.347972 0.893004
9.91015 -8.66604 69.4764 0.285416 -0.347969 0.893004
11.0463 -0.299463 72.4213 0.314534 -0.356921 0.879588
10.9809 0.666381 72.844 0.317253 -0.363019 0.876109
11.1072 1.47999 73.1305 0.320525 -0.358518 0.876772
11.3917 2.24942 73.3416 0.32162 -0.357451 0.876804
11.375 3.30121 73.7764 0.32371 -0.35788 0.875862
11.5958 4.11156 74.0206 0.327498 -0.352754 0.876533
11.6815 4.92882 74.3189 0.331955 -0.352972 0.874763
11.7604 5.8533 74.6594 0.333398 -0.350783 0.875098
12.167 6.4744 74.7547 0.33517 -0.350908 0.874367
11.881 7.37772 75.2245 0.336161 -0.348624 0.874904
12.4463 8.43085 75.4242 0.338447 -0.344933 0.875482
13.1397 8.93568 75.3538 0.338489 -0.342739 0.876331
13.0757 8.113 75.0545 0.338407 -0.347131 0.874632
12.4545 7.3646 74.9978 0.33841 -0.34713 0.874631
12.9216 6.70832 74.5566 0.335942 -0.34563 0.876169
12.9816 5.03728 73.8713 0.332863 -0.348531 0.876201
13.1185 3.87928 73.3582 0.32882 -0.351138 0.876684
12.6656 2.96637 73.1589 0.327639 -0.354136 0.875923
12.028 2.21429 73.0933 0.325108 -0.355026 0.876501
11.3626 1.58336 73.0794 0.320525 -0.358518 0.876771
11.189 0.761048 72.8071 0.320382 -0.358041 0.877019
11.1267 -0.108958 72.4699 0.315899 -0.359968 0.877848
11.1171 -0.149492 72.4569 0.314538 -0.356921 0.879587
12.4737 9.96242 76.0126 0.340741 -0.343907 0.874994
12.8116 10.4495 76.0713 0.340295 -0.338931 0.877112
12.4649 10.2873 76.1437 0.342673 -0.339284 0.876048
12.4922 10.19 76.0952 0.34258 -0.342798 0.874712
12.6035 12.7863 77.0486 0.339368 -0.333605 0.879509
13.2014 13.3431 77.0298 0.339399 -0.332398 0.879953
13.6508 13.1099 76.7681 0.340501 -0.33125 0.879961
12.6196 12.8206 77.0554 0.338298 -0.333553 0.879941
13.7836 13.8164 76.9825 0.340739 -0.329536 0.880513
13.6707 14.5095 77.2856 0.340739 -0.329535 0.880513
14.5145 15.215 77.2199 0.345204 -0.325663 0.880215
15.2282 16.0959 77.2652 0.3452 -0.325104 0.880423
15.5489 16.8956 77.4335 0.344957 -0.323509 0.881105
15.9762 17.574 77.5135 0.348519 -0.322879 0.87993
15.471 18.2238 77.9492 0.349945 -0.319347 0.880657
15.6451 19.1381 78.21 0.350892 -0.314234 0.882118
14.9544 18.4028 78.2194 0.348646 -0.320395 0.88079
14.6519 17.5535 78.0288 0.347205 -0.322484 0.880597
14.2457 16.6506 77.8571 0.347183 -0.323751 0.880142
13.9155 15.9277 77.7188 0.344239 -0.326059 0.880446
13.4555 15.2557 77.6486 0.34158 -0.329164 0.880326
13.1695 14.5071 77.4788 0.34151 -0.330038 0.880026
13.1532 14.2884 77.4031 0.341124 -0.329787 0.88027
16.238 22.2492 79.0697 0.354131 -0.304247 0.884322
16.4683 23.3195 79.348 0.351488 -0.303603 0.885591
17.0424 24.0637 79.3733 0.350391 -0.301253 0.886833
17.0474 24.8897 79.6525 0.350123 -0.30175 0.88677
17.1357 25.6334 79.8687 0.349204 -0.298656 0.888178
17.2794 26.529 80.1132 0.348329 -0.296788 0.889145
17.6079 27.5628 80.3223 0.34628 -0.289628 0.892298
17.7148 28.466 80.5753 0.343197 -0.291259 0.892963
17.8836 29.7686 80.9219 0.340879 -0.280629 0.897245
18.2802 30.9221 81.132 0.339383 -0.27808 0.8986
18.4422 31.9822 81.3975 0.329254 -0.277702 0.902482
18.662 33.0223 81.6373 0.328528 -0.273984 0.903873
19.0016 33.8443 81.764 0.321555 -0.274056 0.906364
19.6263 34.8002 81.835 0.320232 -0.278304 0.905538
20.7805 35.3916 81.6141 0.311903 -0.283473 0.90684
21.6939 35.6286 81.374 0.315512 -0.284738 0.905185
22.6025 35.7217 81.0884 0.308325 -0.29577 0.904133
23.3568 35.7148 80.8289 0.307279 -0.295833 0.904468
24.0983 35.8481 80.6215 0.306241 -0.29589 0.904801
25.0278 35.9835 80.3434 0.312952 -0.307488 0.898596
25.8488 36.1075 80.1054 0.30759 -0.3102 0.899535
26.8171 36.294 79.833 0.315357 -0.315236 0.895072
27.6624 36.4422 79.5912 0.311924 -0.318556 0.895112
28.4982 36.7289 79.3964 0.318386 -0.318861 0.892724
29.2168 37.1144 79.2788 0.317643 -0.319716 0.892684
29.8775 37.5359 79.1902 0.323051 -0.319356 0.89087
30.5292 38.0188 79.1271 0.322903 -0.319533 0.89086
31.1692 38.6197 79.1088 0.328781 -0.314853 0.890361
31.7719 39.3975 79.1554 0.331815 -0.310517 0.890774
32.3305 40.1658 79.2172 0.343854 -0.308713 0.886707
33.1193 40.6902 79.0946 0.330055 -0.293001 0.897337
34.0177 40.6854 78.7626 0.33111 -0.297106 0.895585
35.1367 40.4733 78.2891 0.319943 -0.302276 0.897923
35.8639 40.0734 77.8953 0.321291 -0.304681 0.896623
36.605 39.1508 77.3223 0.307683 -0.30551 0.901108
37.1328 38.4277 76.897 0.307685 -0.305509 0.901107
37.4651 37.6518 76.5154 0.309811 -0.313352 0.897679
37.8592 36.3452 75.9233 0.304262 -0.312574 0.899826
38.2503 35.3369 75.4433 0.300628 -0.312598 0.901056
38.4672 34.5264 75.0907 0.302004 -0.311214 0.901077
38.592 33.7603 74.7843 0.302797 -0.314476 0.89967
38.2118 32.3747 74.4226 0.30359 -0.317737 0.898263
37.7829 31.75 74.3458 0.3024 -0.319189 0.898149
37.1854 31.2653 74.3747 0.302403 -0.319189 0.898149
35.7084 30.949 74.7681 0.310831 -0.318911 0.895366
34.8084 31.2061 75.1714 0.311325 -0.321283 0.894343
34.0212 31.7342 75.6347 0.312393 -0.317929 0.895171
33.4811 32.1493 75.9706 0.312396 -0.31793 0.89517
32.2615 33.2813 76.8116 0.319684 -0.3185 0.892389
31.1673 33.9533 77.442 0.32125 -0.317964 0.892016
30.3111 33.9584 77.7542 0.323441 -0.318576 0.891008
29.2822 33.7117 78.0399 0.323998 -0.317995 0.891013
28.0875 33.374 78.3523 0.321085 -0.315797 0.892847
27.0846 32.7877 78.5107 0.324421 -0.30921 0.893946
26.4452 32.3444 78.5895 0.324421 -0.30921 0.893946
25.2663 31.6386 78.7786 0.329423 -0.308026 0.892525
23.851 31.1089 79.1217 0.333492 -0.3031 0.892697
23.0389 30.6735 79.2795 0.335699 -0.302881 0.891947
21.7375 29.8485 79.4892 0.337632 -0.299429 0.892374
21.1818 29.3091 79.5228 0.350799 -0.29453 0.888927
20.56 28.7838 79.5894 0.342607 -0.295677 0.891735
19.9977 28.1461 79.5937 0.343274 -0.296556 0.891189
19.4752 27.4401 79.5603 0.343374 -0.2961 0.891302
19.2314 26.4899 79.3391 0.345756 -0.298709 0.889509
19.1171 25.7575 79.1353 0.347942 -0.302218 0.887469
18.7862 24.9934 79.0045 0.347767 -0.301843 0.887665
18.1108 24.0687 78.9547 0.348969 -0.304429 0.886303
17.4568 23.3542 78.9662 0.351577 -0.306254 0.884648
16.5652 22.5996 79.0599 0.352311 -0.306451 0.884288
16.4204 22.4488 79.0653 0.353223 -0.305351 0.884303
19.5236 29.1728 80.1114 0.341873 -0.29152 0.893385
19.5888 29.239 80.1081 0.340347 -0.291922 0.893838
20.0264 30.2473 80.2631 0.336644 -0.283735 0.897867
19.578 30.6266 80.5511 0.335921 -0.285547 0.897561
19.9744 32.0296 80.8523 0.335191 -0.287353 0.89726
20.2216 33.2568 81.1472 0.325346 -0.276709 0.904202
20.9766 33.941 81.0931 0.315518 -0.284734 0.905184
21.6913 34.2083 80.9253 0.319126 -0.285995 0.903529
23.1316 34.3052 80.4473 0.320453 -0.290288 0.901676
24.3926 34.63 80.1091 0.318314 -0.304777 0.897657
25.6179 34.5793 79.6574 0.312952 -0.307488 0.898596
26.586 34.8998 79.4295 0.318791 -0.311916 0.895031
27.8089 35.2596 79.1193 0.315357 -0.315236 0.895072
27.1993 34.4751 79.061 0.320881 -0.31585 0.892902
26.3127 33.8258 79.15 0.322648 -0.312528 0.893426
25.1031 33.1756 79.3693 0.324468 -0.30383 0.895743
23.7179 32.4009 79.6034 0.32352 -0.298365 0.897939
23.0462 32.0671 79.7381 0.328711 -0.294644 0.897288
21.8188 31.3563 79.9578 0.327256 -0.291213 0.898938
21.1109 30.9205 80.0726 0.329907 -0.288793 0.898737
20.1713 30.4358 80.2684 0.335917 -0.285545 0.897563
28.7863 34.9578 78.6618 0.319516 -0.31868 0.892386
29.7897 35.2275 78.3966 0.323004 -0.317963 0.891386
30.935 35.4148 78.0487 0.322826 -0.318178 0.891373
31.8587 35.2171 77.6435 0.321245 -0.317966 0.892017
32.8585 34.6369 77.0791 0.321419 -0.315414 0.892863
33.7658 33.855 76.4763 0.318733 -0.315561 0.893769
34.8647 33.0134 75.7962 0.310806 -0.318883 0.895384
35.5877 32.6293 75.4085 0.310805 -0.318882 0.895385
36.6602 32.7431 75.0767 0.306615 -0.319047 0.896759
36.9912 33.9037 75.3703 0.305956 -0.312359 0.899335
36.8254 35.1955 75.8788 0.309908 -0.313502 0.897593
36.3482 36.5692 76.523 0.309874 -0.313279 0.897683
35.9978 37.6158 77.0093 0.308745 -0.309432 0.899394
35.3331 38.503 77.548 0.32264 -0.307089 0.895321
34.4649 39.1819 78.0937 0.321285 -0.304685 0.896623
33.3503 39.112 78.4752 0.325086 -0.311539 0.892896
32.5272 38.3607 78.5127 0.328452 -0.311024 0.891835
31.5996 37.3552 78.4977 0.325745 -0.319193 0.889947
30.8302 36.673 78.5357 0.323802 -0.317303 0.89133
30.159 36.2721 78.6357 0.322796 -0.31818 0.891383
29.5462 35.7896 78.6854 0.322895 -0.318075 0.891385
29.0066 35.431 78.7519 0.319518 -0.318683 0.892384
32.7004 36.7348 77.8779 0.321576 -0.315952 0.892616
33.2813 37.4135 77.9083 0.322474 -0.31515 0.892575
34.0778 37.6752 77.7125 0.32191 -0.309472 0.894761
34.8062 36.8391 77.1579 0.319305 -0.315137 0.893718
35.1408 35.9974 76.7448 0.317787 -0.31296 0.895024
35.4617 35.2696 76.3763 0.316915 -0.314334 0.89485
34.6825 34.9432 76.5364 0.316042 -0.315706 0.894677
33.8616 35.4583 77.0082 0.318726 -0.31556 0.893771
33.2569 35.8986 77.3814 0.321491 -0.315685 0.892741
33.083 36.3808 77.6148 0.321573 -0.315952 0.892617
-9.65273 11.2533 83.3367 0.0757513 -0.562848 0.823075
-10.0464 11.8453 83.775 0.0729661 -0.561665 0.824141
-10.4735 11.746 83.7406 0.0530815 -0.569121 0.820539
-10.633 10.9045 83.1673 0.0530486 -0.589506 0.805624
-10.9377 10.1486 82.6046 0.0530149 -0.609893 0.790709
-10.855 9.36622 81.9572 -0.00498364 -0.635182 0.772346
-10.6904 8.67277 81.4185 -0.0182147 -0.609897 0.792271
-10.6665 8.0519 80.9126 -0.052024 -0.6201 0.781987
-10.4602 7.38208 80.4212 -0.083383 -0.606003 0.79108
-9.92707 6.79466 80.1128 -0.131139 -0.544316 0.828566
-10.1388 5.99053 79.5389 -0.131056 -0.554028 0.822118
-10.1523 5.01427 78.8016 -0.211736 -0.556737 0.801015
-9.82409 4.36745 78.4975 -0.238907 -0.509816 0.826445
-9.08822 3.91731 78.3917 -0.197673 -0.492146 0.846904
-8.95878 2.96547 77.9041 -0.219736 -0.473418 0.85299
-9.16844 1.81124 77.2095 -0.233947 -0.45242 0.860169
-9.60705 1.03673 76.6853 -0.309559 -0.409932 0.85798
-9.9992 0.331785 76.207 -0.309559 -0.409932 0.857979
-10.5022 -0.807679 75.5008 -0.298958 -0.402655 0.865113
-10.6371 -1.62044 75.072 -0.301157 -0.384451 0.872249
-10.562 -3.00983 74.5543 -0.303637 -0.340685 0.889797
-10.8722 -3.87858 74.103 -0.315585 -0.346314 0.883443
-10.8655 -5.01506 73.6782 -0.318448 -0.326761 0.889842
-11.2118 -6.03914 73.1982 -0.31091 -0.310921 0.898144
-10.5651 -6.67542 73.197 -0.305599 -0.323974 0.895323
-11.101 -7.90983 72.5884 -0.294588 -0.304406 0.905825
-12.0162 -7.69525 72.3576 -0.299715 -0.306582 0.903426
-11.1988 -8.09873 72.4919 -0.299717 -0.306583 0.903425
-10.511 -7.53151 72.9024 -0.289463 -0.302232 0.908222
-10.063 -6.78875 73.3263 -0.304637 -0.330487 0.893294
-9.72664 -5.96766 73.7338 -0.298168 -0.305015 0.904316
-9.24301 -5.22142 74.1661 -0.29971 -0.331251 0.894677
-8.87225 -4.56047 74.5241 -0.289121 -0.325275 0.900336
-8.6213 -3.70318 74.942 -0.292646 -0.350534 0.889654
-8.88459 -2.75114 75.2257 -0.306852 -0.350838 0.884655
-8.5737 -2.15887 75.5784 -0.299989 -0.362599 0.882279
-8.19629 -1.3654 76.0286 -0.282895 -0.35476 0.891034
-8.13022 -0.591585 76.3768 -0.258423 -0.398604 0.879961
-7.88915 0.413371 76.8995 -0.24929 -0.40427 0.879906
-7.67435 1.12912 77.2984 -0.24554 -0.42334 0.872013
-7.78481 2.0086 77.7037 -0.248373 -0.430959 0.867517
-7.74274 3.13064 78.3091 -0.21847 -0.467615 0.856481
-7.78264 4.0653 78.8009 -0.217198 -0.461817 0.859971
-8.09196 4.97947 79.2701 -0.175939 -0.504817 0.844847
-8.15092 5.93537 79.8575 -0.166631 -0.53774 0.82648
-8.30166 6.66359 80.2807 -0.134413 -0.510667 0.849206
-8.44137 7.66249 80.8986 -0.10108 -0.540894 0.834995
-8.79184 8.72235 81.5567 -0.0647211 -0.562391 0.824285
-9.04701 9.46341 82.0477 -0.030335 -0.588549 0.80697
-9.22898 9.99487 82.4616 0.00663906 -0.603844 0.796591
