-29.9528 46.3519 54.6527 0.105065 0.539968 -0.835102
-30.2157 47.0731 55.0519 0.058744 0.365698 -0.928878
-30.2157 47.0731 55.0519 0.058744 0.365698 -0.928878
-30.1381 48.0076 55.3064 0.154079 0.162257 -0.974645
-29.3412 49.4984 55.065 -0.464466 0.0319598 -0.885014
-28.7686 48.5803 54.7313 -0.466786 -0.0127158 -0.883145
-28.9931 47.3275 54.6863 -0.641885 0.258925 -0.721763
-29.8419 46.2577 54.575 -0.480076 0.500784 -0.720238
-29.9345 46.267 54.6001 0.105067 0.53997 -0.835101
-29.0497 45.3469 53.532 -0.434931 0.464528 -0.771394
-29.5526 44.7746 53.4043 -0.378489 0.532665 -0.756977
-30.7027 44.3352 53.44 -0.143535 0.56097 -0.815296
-31.2884 44.6702 53.7729 -0.141892 0.561934 -0.814921
-31.5177 45.3889 54.3084 -0.143536 0.560972 -0.815294
-31.6535 46.0851 54.7278 -0.143798 0.353801 -0.923193
-31.5393 47.0953 55.0757 -0.105697 0.285604 -0.951126
-31.4447 47.8586 55.2584 -0.0484539 0.276972 -0.959656
-31.2204 49.0538 55.4537 -0.0163915 0.0235973 -0.999587
-31.0102 49.871 55.4695 -0.0163934 0.0235966 -0.999587
-30.0582 51.0133 55.2453 -0.270051 -0.0711376 -0.960214
-28.8328 51.4476 54.8685 -0.367258 -0.0195879 -0.922614
-28.1217 50.9089 54.5367 -0.388438 0.0520879 -0.920002
-27.7496 49.7078 54.3116 -0.388438 0.052088 -0.920001
-27.5646 48.5917 54.0493 -0.512634 0.185006 -0.835765
-27.6268 47.8517 53.8625 -0.518675 0.240524 -0.820328
-27.8836 47.0705 53.8079 -0.527481 0.230441 -0.817717
-28.4841 46.079 53.654 -0.435276 0.464357 -0.771302
-28.6355 45.8753 53.6167 -0.434932 0.464527 -0.771394
-27.4877 45.4905 52.737 -0.43562 0.464187 -0.77121
-26.7935 46.4735 52.9365 -0.481551 0.347314 -0.794463
-26.3359 47.5129 52.9594 -0.50987 0.250605 -0.822939
-26.276 48.6878 53.2801 -0.512637 0.185005 -0.835764
-26.4798 49.7455 53.5527 -0.517739 0.117294 -0.847453
-26.6407 50.8115 53.7967 -0.521383 0.102693 -0.847028
-26.8206 51.6609 53.9213 -0.461751 -0.0284793 -0.886552
-27.463 52.5803 54.2263 -0.436569 -0.0239355 -0.898903
-28.3965 52.9995 54.6161 -0.398269 -0.037451 -0.916504
-29.2163 52.9603 54.974 -0.283597 -0.00498451 -0.950875
-30.2335 52.6808 55.1406 -0.168927 0.0274848 -0.985245
-31.1799 52.3042 55.4266 -0.265428 -0.103368 -0.958573
-31.8876 51.7084 55.4773 -0.000236466 -0.0444333 -0.999012
-32.4303 51.1896 55.5006 -9.73195e-05 -0.0133353 -0.999427
-32.4107 49.8123 55.4761 4.61052e-05 0.0177636 -0.999842
-32.8053 48.3829 55.3739 0.0896588 0.0768588 -0.992995
-32.9411 47.2817 55.2721 -0.00726004 0.158679 -0.979369
-33.0832 45.5512 54.4551 0.0405681 0.474424 -0.879361
-33.057 44.0046 53.6219 -0.0506621 0.518179 -0.847142
-31.7444 43.0569 52.7833 -0.152831 0.517923 -0.841664
-30.6604 42.8242 52.4433 -0.152832 0.517921 -0.841665
-29.5156 43.0377 52.286 -0.298694 0.480499 -0.822201
-28.883 43.849 52.452 -0.342676 0.437274 -0.831484
-28.2238 44.5957 52.614 -0.40671 0.498596 -0.764186
-28.1008 44.7518 52.6386 -0.435276 0.464357 -0.771302
-26.7633 44.4256 51.7611 -0.406251 0.44024 -0.800718
-27.7211 43.388 51.6766 -0.40625 0.44024 -0.800718
-28.5269 42.4414 51.565 -0.374463 0.438756 -0.816101
-29.317 41.7971 51.4293 -0.248545 0.506707 -0.825514
-30.1702 41.3821 51.4315 -0.248543 0.506705 -0.825516
-31.5745 41.4413 51.7106 -0.116691 0.536981 -0.835485
-33.2565 42.3431 52.5387 -0.0514418 0.552703 -0.829521
-34.0006 43.0243 52.982 0.00982697 0.552903 -0.833188
-35.338 44.0024 53.4464 0.0698716 0.484777 -0.871843
-34.9843 45.0445 54.1021 0.0786765 0.52018 -0.850425
-34.3709 46.4022 54.8902 0.0862095 0.3525 -0.92008
-34.4955 47.529 55.1397 0.158113 0.230107 -0.960235
-34.6587 48.2513 55.1962 0.0893975 0.0807138 -0.99272
-34.2494 49.0532 55.2923 0.0899262 0.0729507 -0.993273
-33.9058 50.8558 55.4558 0.0899354 0.0729461 -0.993273
-33.5012 52.1769 55.5039 -0.0685831 0.0163043 -0.997512
-32.842 53.0048 55.4721 -0.0685819 0.0163048 -0.997512
-31.9534 53.6988 55.4223 -0.0733737 -0.00101308 -0.997142
-30.935 54.0657 55.2947 -0.167405 0.0154966 -0.985766
-30.012 54.3093 55.1418 -0.16741 0.0154902 -0.985766
-29.2521 54.6836 54.9242 -0.335275 -0.0505756 -0.938417
-28.4795 54.9264 54.5825 -0.395729 -0.0325229 -0.917791
-27.1083 54.3805 54.0039 -0.40076 -0.0347239 -0.915525
-26.0413 53.2617 53.4817 -0.459546 -0.0100966 -0.888096
-25.2216 52.2718 53.0688 -0.460649 -0.0192887 -0.887324
-25.1498 51.3067 52.9301 -0.52269 0.0902056 -0.847737
-25.1273 49.9682 52.7519 -0.520077 0.115176 -0.846318
-25.0173 48.2585 52.3522 -0.540243 0.214329 -0.81268
-25.2325 47.0602 52.1203 -0.521141 0.251473 -0.815582
-25.9034 45.6831 52.0152 -0.472292 0.38928 -0.786322
-26.5077 44.6812 51.7719 -0.406358 0.439621 -0.801004
-26.6301 44.5357 51.7541 -0.406304 0.43994 -0.800856
-19.1233 41.9149 46.8521 -0.393649 0.301987 -0.868242
-18.4678 42.4579 46.7437 -0.39364 0.301912 -0.868272
-17.7094 42.768 46.5111 -0.377198 0.260793 -0.888655
-17.0158 42.9074 46.2576 -0.377201 0.260791 -0.888655
-16.1142 43.2706 45.969 -0.395493 0.252206 -0.883163
-14.4001 43.9366 45.4317 -0.367273 0.239955 -0.898628
-13.2323 44.9146 45.169 -0.394333 0.220784 -0.892051
-12.8721 45.9273 45.2604 -0.394336 0.220789 -0.892049
-13.4845 46.6694 45.6877 -0.387368 0.196089 -0.90083
-14.3496 47.3839 46.2391 -0.408486 0.195869 -0.891395
-14.8597 48.5035 46.6995 -0.407029 0.182627 -0.894972
-15.2139 49.5963 47.0836 -0.410271 0.179376 -0.894137
-14.9593 50.4422 47.1084 -0.429813 0.155088 -0.889499
-14.3679 51.3675 46.984 -0.429817 0.155086 -0.889497
-13.6003 52.2663 46.7495 -0.403682 0.114265 -0.907736
-12.8805 52.7649 46.4922 -0.403683 0.114265 -0.907735
-11.6813 53.6055 46.046 -0.412559 0.103926 -0.904983
-10.645 53.2296 45.5612 -0.385296 0.103715 -0.916946
-9.94193 52.5382 45.1832 -0.390554 0.114651 -0.913412
-9.4638 51.9254 44.9025 -0.389786 0.114388 -0.913774
-8.9671 51.3673 44.624 -0.364658 0.121168 -0.923185
-8.66632 49.8369 44.2759 -0.353886 0.144041 -0.924118
-9.43251 48.2232 44.3241 -0.358209 0.142483 -0.922705
-10.464 46.813 44.458 -0.360251 0.178251 -0.915667
-11.4845 46.2864 44.7685 -0.368631 0.174901 -0.912974
-12.2238 46.0034 45.0128 -0.361537 0.191321 -0.912342
-12.5108 45.2673 44.9566 -0.354446 0.207721 -0.911713
-11.9562 44.9188 44.6616 -0.354444 0.207718 -0.911714
-11.5189 44.3086 44.3526 -0.354579 0.208047 -0.911587
-10.767 43.4345 43.8601 -0.354715 0.20837 -0.91146
-10.0388 42.5058 43.3868 -0.328587 0.20551 -0.921838
-10.0122 41.5968 43.167 -0.318514 0.230932 -0.919358
-9.81028 40.5481 42.8336 -0.318513 0.230931 -0.919358
-9.9143 39.6912 42.6544 -0.318482 0.230917 -0.919373
-10.6551 38.6808 42.6396 -0.299123 0.235469 -0.924705
-11.3205 37.8583 42.6454 -0.299123 0.23547 -0.924705
-11.5984 37.0407 42.5081 -0.290226 0.262185 -0.920326
-13.1677 36.6199 42.8739 -0.285682 0.264869 -0.920994
-14.4731 36.8582 43.3682 -0.311392 0.293678 -0.903683
-15.3643 36.8507 43.675 -0.288879 0.316601 -0.9035
-16.4335 36.2413 43.8033 -0.288874 0.316602 -0.903501
-17.7358 36.3855 44.304 -0.315673 0.323585 -0.891988
-19.2224 36.62 44.8827 -0.281437 0.350552 -0.893231
-20.1234 37.8291 45.7072 -0.323579 0.358491 -0.87516
-20.3524 38.9744 46.2261 -0.335654 0.332229 -0.881453
-19.5708 41.0101 46.7392 -0.346386 0.354117 -0.868687
-19.5579 41.0314 46.7418 -0.393648 0.301988 -0.868242
-18.353 40.3768 45.9765 -0.358844 0.292574 -0.886253
-18.7227 39.4532 45.786 -0.326571 0.331923 -0.88492
-18.8482 38.6397 45.5271 -0.326572 0.331924 -0.88492
-17.711 37.8969 44.8435 -0.316583 0.327604 -0.890185
-16.1402 38.0692 44.35 -0.302272 0.320093 -0.897745
-15.0716 38.238 44.0366 -0.322343 0.295773 -0.899229
-14.0843 38.2786 43.6928 -0.317869 0.268646 -0.909204
-13.1218 38.0894 43.3137 -0.306937 0.268047 -0.913203
-12.4904 38.4901 43.2191 -0.312737 0.263571 -0.912508
-11.7151 39.6527 43.2786 -0.318539 0.259094 -0.911813
-11.2943 41.0168 43.4746 -0.327582 0.227445 -0.917038
-11.3662 41.7911 43.6923 -0.33285 0.237716 -0.91244
-11.9596 42.5829 44.1296 -0.346416 0.228178 -0.909652
-12.6177 42.8301 44.4422 -0.346415 0.228179 -0.909652
-13.6499 42.8887 44.8426 -0.353646 0.247335 -0.901933
-14.6399 42.4535 45.1307 -0.369176 0.246681 -0.896023
-15.9769 41.9392 45.54 -0.35504 0.265775 -0.895961
-16.8718 41.6403 45.7939 -0.358843 0.292574 -0.886253
-17.8091 41.2145 46.0379 -0.366318 0.302235 -0.880037
-16.4452 40.5111 45.268 -0.351368 0.282913 -0.892469
-15.5537 40.7974 45.0159 -0.340906 0.284871 -0.895897
-15.272 39.674 44.5515 -0.340907 0.284871 -0.895897
-16.1011 39.8757 44.9311 -0.346138 0.283893 -0.894182
-17.235 39.2633 45.1834 -0.334431 0.307271 -0.890425
-17.3134 39.4108 45.2611 -0.351369 0.282913 -0.892469
-14.6946 39.5614 44.296 -0.334853 0.277058 -0.900551
-13.8888 39.6321 44.0243 -0.317868 0.268645 -0.909205
-13.0646 40.1663 43.896 -0.323059 0.243269 -0.914426
-13.7363 41.2939 44.4392 -0.353647 0.247333 -0.901933
-14.6434 40.9548 44.7196 -0.355042 0.265775 -0.89596
-12.4755 47.5956 45.4422 -0.389749 0.188166 -0.901451
-13.1762 48.3359 45.8939 -0.396153 0.17138 -0.902048
-13.5866 49.4565 46.3028 -0.415957 0.161285 -0.89484
-13.3644 50.2382 46.3268 -0.411892 0.150543 -0.898676
-12.569 51.2231 46.1379 -0.405381 0.15464 -0.900973
-11.5889 51.7887 45.794 -0.401903 0.152523 -0.902879
-10.5885 50.9991 45.2425 -0.37965 0.155599 -0.911951
-10.0852 49.6049 44.7951 -0.379651 0.155598 -0.911951
-10.9287 48.2515 44.9153 -0.389038 0.153002 -0.908368
-11.6872 47.582 45.1068 -0.381813 0.18838 -0.904838
-12.0023 47.5081 45.2243 -0.381811 0.18838 -0.904839
-9.6642 31.203 40.3036 -0.240303 0.266645 -0.933259
-8.56836 31.1491 40.0108 -0.235789 0.244133 -0.94064
-7.57701 30.7519 39.6592 -0.235789 0.244132 -0.94064
-6.74536 30.1371 39.2912 -0.234065 0.244031 -0.941095
-6.34042 29.2268 38.9618 -0.209444 0.251497 -0.944925
-6.32998 28.4539 38.7537 -0.209444 0.251497 -0.944925
-6.23835 27.4293 38.4654 -0.203909 0.24777 -0.947087
-6.71267 26.5966 38.342 -0.200389 0.254356 -0.946122
-7.72171 25.8794 38.3675 -0.204657 0.254028 -0.945296
-8.68026 25.5137 38.466 -0.191834 0.269824 -0.943607
-9.49427 25.3603 38.5879 -0.192137 0.269798 -0.943553
-10.4451 25.4238 38.7933 -0.181075 0.282574 -0.941999
-11.1918 25.9888 39.1154 -0.186221 0.297239 -0.936467
-11.7296 26.6025 39.4171 -0.186221 0.29724 -0.936467
-12.2273 27.2873 39.7335 -0.186218 0.297242 -0.936467
-12.2682 28.2957 40.0542 -0.224221 0.286 -0.931612
-10.8948 30.3443 40.345 -0.229377 0.285827 -0.930424
-10.2362 30.814 40.3269 -0.229378 0.285829 -0.930423
-9.89648 31.0519 40.3163 -0.229441 0.280276 -0.932078
-9.36065 29.7708 39.8208 -0.216814 0.268802 -0.93844
-10.7391 28.1789 39.6691 -0.208933 0.270491 -0.939777
-9.91276 26.905 39.1138 -0.209203 0.274456 -0.938567
-9.07698 26.7947 38.9097 -0.191397 0.265767 -0.944847
-7.86097 27.5065 38.8406 -0.210286 0.261157 -0.942113
-7.75479 28.9446 39.2034 -0.212479 0.251336 -0.94429
-9.1194 29.7335 39.7523 -0.224695 0.267113 -0.937103
-4.58314 16.616 35.2751 -0.144376 0.260933 -0.954486
-5.49392 15.7255 35.1645 -0.139289 0.261081 -0.955215
-6.56982 14.4544 34.9582 -0.136212 0.273628 -0.952142
-6.84225 13.7247 34.7845 -0.119681 0.283462 -0.951469
-6.99256 12.9797 34.5813 -0.112954 0.279372 -0.953516
-6.86768 11.9508 34.265 -0.112955 0.279373 -0.953516
-6.49609 11.2795 34.0243 -0.111039 0.282916 -0.952687
-5.46886 10.4196 33.6678 -0.0995816 0.277217 -0.955633
-4.59679 9.99616 33.4541 -0.0995811 0.277216 -0.955633
-3.82996 9.80043 33.3174 -0.097929 0.272992 -0.957007
-2.70706 9.91035 33.2218 -0.111191 0.256667 -0.960083
-1.88049 10.2128 33.207 -0.111191 0.256665 -0.960083
-1.24362 10.879 33.3076 -0.124162 0.247688 -0.960783
-0.930879 11.7172 33.4731 -0.131596 0.239311 -0.961984
-0.626691 12.6254 33.6576 -0.131313 0.240879 -0.96163
-0.271206 13.859 33.9201 -0.130969 0.242251 -0.961333
0.0876497 14.9167 34.131 -0.145588 0.230105 -0.962199
-0.911386 16.0513 34.5683 -0.157412 0.236052 -0.958906
-1.58718 16.4322 34.773 -0.148331 0.243259 -0.958482
-2.38716 16.7002 34.9594 -0.139675 0.250543 -0.957977
-3.42442 16.7574 35.1322 -0.149462 0.260785 -0.953757
-4.41211 16.5916 35.2416 -0.149462 0.260785 -0.953757
-4.31711 15.0195 34.8019 -0.138317 0.253257 -0.957455
-3.27476 15.1217 34.6762 -0.140099 0.250619 -0.957895
-1.75393 14.665 34.3352 -0.139252 0.25047 -0.958057
-1.74022 13.7726 34.1018 -0.13866 0.248337 -0.958698
-2.01802 12.9701 33.9341 -0.134815 0.245294 -0.960016
-2.37515 12.0608 33.7549 -0.128152 0.23997 -0.962285
-2.77311 11.4579 33.6504 -0.118981 0.256329 -0.959239
-3.71599 11.2298 33.7001 -0.108818 0.262743 -0.95871
-5.03454 11.9266 34.0385 -0.110747 0.271136 -0.956103
-5.48264 12.8926 34.3753 -0.114399 0.279277 -0.953371
-5.07925 14.1672 34.6729 -0.123957 0.259324 -0.957803
-4.53052 14.932 34.8089 -0.130246 0.257608 -0.957409
-3.57085 13.3913 34.2601 -0.136536 0.255896 -0.957014
-3.52787 13.1077 34.1781 -0.134012 0.254645 -0.957699
-18.1489 9.49363 34.5103 -0.0643784 0.341307 -0.937741
-18.0043 8.62659 34.1828 -0.0599737 0.337307 -0.939455
-18.3622 7.97551 33.9755 -0.0568925 0.331195 -0.941846
-19.6744 7.42738 33.8446 -0.0431816 0.351539 -0.935175
-20.4009 7.79923 34.0215 -0.0480767 0.360233 -0.931623
-21.0881 8.36275 34.2748 -0.0480782 0.360233 -0.931623
-21.1326 9.43568 34.675 -0.0578852 0.349705 -0.935043
-20.5783 10.0835 34.8859 -0.0608228 0.355673 -0.932629
-19.696 10.7215 35.0717 -0.0702933 0.351494 -0.93349
-18.6739 10.1615 34.7885 -0.0657019 0.339194 -0.938419
-18.2628 9.6951 34.5911 -0.0657021 0.339194 -0.938419
-15.7573 1.85004 31.68 -0.0271029 0.331361 -0.943115
-16.8559 1.08135 31.437 -0.0222399 0.334896 -0.941986
-17.6158 -9.28068e-05 31.0661 -0.0222537 0.338281 -0.940782
-17.7333 -0.799305 30.7815 -0.0132352 0.340758 -0.940011
-17.3926 -1.95782 30.3512 0.00174683 0.349586 -0.936903
-16.8717 -2.75197 30.0547 0.00298101 0.340517 -0.940177
-16.0569 -3.40778 29.8239 0.00575759 0.338537 -0.940935
-15.0246 -3.63723 29.7477 0.00895956 0.337911 -0.94113
-13.8227 -3.27037 29.8722 -0.00294594 0.32393 -0.946077
-12.7356 -2.91061 29.992 -0.0110469 0.319094 -0.94761
-12.2329 -2.25334 30.2021 -0.0190021 0.318545 -0.947717
-11.8497 -1.58445 30.4193 -0.0239886 0.312166 -0.949688
-12.2317 -0.148038 30.8925 -0.0289751 0.305786 -0.951659
-12.3646 0.722862 31.1871 -0.0346659 0.316819 -0.947852
-12.788 1.2994 31.3957 -0.0365025 0.316757 -0.947804
-13.6987 1.89331 31.629 -0.0394965 0.319191 -0.946857
-14.502 1.97539 31.688 -0.027103 0.331361 -0.943115
-14.998 1.99762 31.7101 -0.0271035 0.331361 -0.943115
-14.7485 0.609443 31.2255 -0.0238461 0.320921 -0.946806
-15.8345 0.0993917 31.0714 -0.0143509 0.329438 -0.94406
-16.1219 -0.749184 30.778 -0.0104212 0.329954 -0.943939
-15.8504 -1.62744 30.468 -0.00706367 0.338937 -0.940728
-14.9997 -2.1429 30.2778 -0.00824702 0.333785 -0.942613
-14.0121 -1.85784 30.3642 -0.0129832 0.319928 -0.947353
-13.4706 -0.849371 30.6974 -0.0129832 0.319928 -0.947353
-14.1752 0.401622 31.1406 -0.0238459 0.32092 -0.946806
-5.91226 -4.38447 29.3771 -0.0233513 0.285918 -0.957969
-6.47393 -5.74764 28.9849 -0.0233775 0.285284 -0.958158
-6.30127 -6.63839 28.7143 -0.0131679 0.293637 -0.955816
-5.48854 -7.59809 28.4153 -0.0251633 0.278856 -0.960003
-4.83605 -8.48377 28.1409 -0.0217601 0.277509 -0.960469
-4.68317 -9.23239 27.9256 -0.0103534 0.276595 -0.960879
-5.05125 -10.172 27.6489 -0.0037481 0.283801 -0.958876
-6.08882 -11.1042 27.3801 0.0107877 0.286559 -0.957869
-6.77764 -11.4022 27.2706 0.0253969 0.292715 -0.955863
-7.82257 -11.8561 27.1084 0.0225193 0.301637 -0.953123
-8.77422 -12.4775 26.8796 0.0297262 0.30494 -0.951908
-9.2891 -13.114 26.6597 0.0401972 0.313756 -0.948545
-9.33602 -13.9279 26.3906 0.0566729 0.304832 -0.950709
-9.1685 -14.7347 26.1399 0.0527633 0.306268 -0.950482
-9.00212 -15.4675 25.9101 0.0610164 0.326463 -0.943239
-8.30996 -16.5202 25.6061 0.0736258 0.302675 -0.950236
-7.20047 -16.8508 25.5807 0.0531778 0.295685 -0.953804
-5.91499 -17.4489 25.4669 0.0531773 0.295685 -0.953804
-5.07661 -17.8439 25.3997 0.0560423 0.282763 -0.957532
-4.31916 -18.3133 25.301 0.0501002 0.28231 -0.958014
-3.16257 -18.7105 25.2445 0.0500997 0.28231 -0.958014
-1.71904 -18.7443 25.3177 0.0524443 0.273207 -0.960511
-0.594744 -19.0441 25.2809 0.0335036 0.264908 -0.963691
0.230819 -19.3063 25.2375 0.0332432 0.272761 -0.961473
1.06184 -19.4815 25.2212 0.0200477 0.227222 -0.973637
1.99398 -19.5363 25.2276 0.0200483 0.227221 -0.973637
3.34573 -19.3188 25.3073 0.0104832 0.226249 -0.973947
4.28572 -18.6775 25.455 0.00476941 0.219335 -0.975638
4.74478 -17.9206 25.6274 0.0047695 0.219335 -0.975638
4.90908 -16.9665 25.84 -0.00799224 0.214584 -0.976672
4.5059 -15.7734 26.1211 -0.0100649 0.227367 -0.973757
4.36778 -14.639 26.3874 -0.014008 0.232765 -0.972408
3.84652 -13.723 26.6217 -0.0182863 0.233787 -0.972105
3.11877 -12.8606 26.839 -0.0239243 0.234672 -0.97175
2.43225 -12.1806 27.0278 -0.0292259 0.239934 -0.970349
1.45666 -11.4455 27.2303 -0.0164386 0.24504 -0.969363
0.638616 -10.9033 27.3859 -0.0201613 0.247276 -0.968735
-0.48902 -10.4122 27.5345 -0.0201529 0.247052 -0.968793
-1.02313 -9.77781 27.7174 -0.0294646 0.254028 -0.966748
-1.45868 -8.62325 28.034 -0.0294646 0.254028 -0.966748
-1.1267 -7.80714 28.2421 -0.0285045 0.25835 -0.965631
-0.669221 -6.55115 28.5646 -0.0285045 0.25835 -0.965631
-0.670342 -5.42983 28.862 -0.044195 0.25202 -0.966712
-1.0971 -4.5128 29.1325 -0.0433683 0.264202 -0.963492
-1.56058 -3.80692 29.3469 -0.0473666 0.268439 -0.962113
-2.30068 -3.2297 29.5503 -0.0513644 0.272674 -0.960734
-3.1776 -2.69371 29.7479 -0.0553002 0.269785 -0.961316
-4.15734 -2.72124 29.7915 -0.0466675 0.280782 -0.958636
-5.33825 -3.53094 29.6129 -0.0468728 0.279852 -0.958898
-5.51179 -3.71437 29.5678 -0.0350991 0.283203 -0.958339
-4.42153 -4.7488 29.2219 -0.0402285 0.272024 -0.961449
-4.65196 -5.57745 28.9847 -0.0290411 0.287128 -0.957452
-4.07893 -6.74045 28.6275 -0.0217605 0.277508 -0.96047
-3.35497 -8.06972 28.2316 -0.0183577 0.27616 -0.960936
-2.53307 -7.68267 28.3271 -0.030871 0.270334 -0.962172
-2.17971 -6.93407 28.5168 -0.0433849 0.264507 -0.963407
-2.32008 -5.73684 28.8518 -0.0433855 0.264508 -0.963407
-2.87817 -4.96614 29.0883 -0.0473666 0.268439 -0.962113
-3.48089 -4.3551 29.294 -0.0457974 0.27235 -0.961091
-3.8397 -4.51689 29.2632 -0.0402291 0.272024 -0.961449
-2.65596 -9.61295 27.7861 -0.00734744 0.264075 -0.964474
-3.22027 -10.3842 27.5793 -0.00713472 0.264854 -0.964262
-4.26505 -11.6927 27.2013 0.0105955 0.27134 -0.962425
-5.42387 -12.5445 26.9567 0.0107878 0.286559 -0.957869
-6.38626 -12.8382 26.8394 0.0282307 0.300848 -0.953254
-7.25791 -13.2265 26.6911 0.0282312 0.300849 -0.953254
-7.74772 -13.8945 26.4642 0.0315668 0.298946 -0.953744
-7.58917 -14.6863 26.2233 0.0367418 0.294854 -0.954813
-6.97568 -15.509 25.9984 0.0429979 0.293124 -0.955107
-5.68066 -16.1656 25.8657 0.0432399 0.281663 -0.958535
-4.44892 -16.7032 25.7608 0.0444005 0.2766 -0.959944
-3.72915 -17.0664 25.6937 0.0479938 0.272623 -0.960923
-2.03719 -17.43 25.6751 0.0327239 0.265567 -0.963387
-0.878055 -17.573 25.6641 0.0271304 0.253421 -0.966975
0.0289427 -17.6778 25.6621 0.0271304 0.253421 -0.966975
1.22785 -17.9239 25.6113 0.00887526 0.246535 -0.969092
2.54173 -17.8375 25.6475 0.00096888 0.240965 -0.970472
3.20603 -16.6721 25.9246 -0.00863394 0.235983 -0.971719
2.78373 -15.7363 26.1476 -0.0140069 0.232765 -0.972408
2.44811 -14.7111 26.4052 -0.0179507 0.238162 -0.971059
2.25743 -13.954 26.5944 -0.0146521 0.237563 -0.971256
1.34001 -13.3136 26.7647 -0.0127089 0.24258 -0.970048
0.535676 -12.7541 26.9151 -0.0164386 0.24504 -0.969363
-0.369914 -12.0923 27.103 -0.0201678 0.247499 -0.968678
-1.2279 -11.4421 27.2735 0.00196813 0.260754 -0.965349
-1.8173 -10.738 27.4717 -0.00713493 0.264854 -0.964262
-2.04889 -10.4776 27.5448 -0.00734753 0.264075 -0.964474
-2.72705 -12.1605 27.0863 0.00183675 0.268487 -0.963237
-3.49379 -12.7783 26.9037 0.0105955 0.27134 -0.962425
-4.62673 -13.6781 26.646 0.0251385 0.271436 -0.961902
-5.57815 -14.0383 26.4983 0.0382769 0.285366 -0.95765
-5.21315 -14.6761 26.3246 0.0409521 0.284407 -0.957829
-4.4495 -15.183 26.2067 0.0409515 0.284406 -0.957829
-3.26988 -15.7207 26.0985 0.0443994 0.2766 -0.959943
-1.96247 -16.0033 26.0583 0.017454 0.258511 -0.965851
-0.725168 -16.1607 26.0385 0.0222925 0.255966 -0.966413
0.601906 -16.1951 26.0475 0.0071771 0.247121 -0.968958
1.04181 -15.5864 26.2064 0.00734637 0.247629 -0.968827
0.328759 -14.4071 26.5061 0.0045569 0.25177 -0.967776
-0.698363 -13.6201 26.7029 0.0103539 0.2534 -0.967303
-1.36222 -13.0782 26.8389 0.010858 0.255876 -0.966649
-1.94407 -12.6591 26.9433 0.00196761 0.260754 -0.965349
-2.62888 -14.2837 26.5032 0.0132791 0.257303 -0.966231
-1.77003 -14.4864 26.4648 0.0172329 0.256141 -0.966486
0.0211664 -27.8612 22.9327 0.0916521 0.258147 -0.961693
-0.951424 -28.4206 22.6796 0.110485 0.272435 -0.95564
-1.70166 -29.3283 22.3112 0.119031 0.287376 -0.950393
-2.05865 -30.1769 22.0171 0.122908 0.276798 -0.953035
-2.53369 -30.9276 21.7294 0.13999 0.300546 -0.943438
-2.84461 -31.7824 21.411 0.141451 0.296186 -0.944586
-2.65905 -33.1242 21.0095 0.176316 0.311717 -0.933662
-2.7061 -34.1734 20.6555 0.177433 0.307461 -0.934872
-3.23742 -34.9813 20.2702 0.195481 0.31644 -0.928231
-2.72449 -35.7729 20.1199 0.212496 0.298754 -0.930371
-2.2384 -37.1051 19.8031 0.212498 0.298756 -0.930371
-1.86471 -38.2322 19.5276 0.212531 0.297905 -0.930636
-1.64217 -39.8659 19.0627 0.223742 0.300834 -0.927026
-2.99703 -40.0574 18.6492 0.241761 0.315681 -0.917515
-4.9093 -40.0296 18.1643 0.237121 0.322114 -0.916524
-6.20216 -40.4489 17.6508 0.25459 0.332058 -0.908252
-7.02286 -40.8427 17.2788 0.255654 0.343398 -0.903641
-7.34758 -41.5247 16.9164 0.268498 0.343702 -0.899794
-7.80558 -43.7028 15.9683 0.27598 0.334255 -0.901171
-7.77097 -44.8956 15.5155 0.296033 0.34197 -0.891842
-6.74052 -45.7211 15.5512 0.294687 0.332883 -0.895708
-5.56482 -46.3547 15.6939 0.287803 0.331672 -0.898423
-4.89075 -46.9056 15.7157 0.295858 0.325602 -0.898026
-4.13823 -47.5874 15.7231 0.302509 0.313932 -0.89995
-3.37792 -47.5667 15.9892 0.296012 0.308637 -0.903874
-2.70479 -47.2363 16.3124 0.285672 0.306695 -0.907926
-1.67561 -46.7899 16.7874 0.275264 0.2998 -0.913321
-1.08125 -46.25 17.1305 0.26473 0.292556 -0.918874
0.0267528 -45.6084 17.654 0.264662 0.29258 -0.918886
0.837995 -46.144 17.7171 0.264592 0.292603 -0.918899
1.46269 -46.6383 17.7395 0.264593 0.292604 -0.918898
2.42409 -47.4006 17.7664 0.24392 0.279363 -0.928686
3.35721 -48.2324 17.7801 0.256174 0.270472 -0.927995
4.60561 -48.901 17.9298 0.256172 0.270471 -0.927995
5.81907 -48.8824 18.2278 0.222578 0.254261 -0.941175
6.67429 -48.6015 18.5059 0.222579 0.254262 -0.941175
7.29653 -48.0318 18.7944 0.197878 0.245876 -0.948845
7.6417 -47.3954 19.0241 0.193567 0.238423 -0.951676
7.77262 -45.8386 19.4568 0.172848 0.238573 -0.95544
7.1646 -44.5113 19.6685 0.159907 0.226522 -0.96079
6.32223 -43.7818 19.71 0.152097 0.243723 -0.957844
5.47219 -43.4078 19.6695 0.16344 0.252954 -0.953459
4.66618 -43.4135 19.5109 0.191513 0.249401 -0.949274
3.72003 -43.5359 19.2516 0.23334 0.265416 -0.935471
2.69257 -43.4224 19.0302 0.237978 0.271519 -0.932498
0.818877 -43.6675 18.4626 0.239708 0.27976 -0.929643
0.435501 -42.8963 18.6004 0.234199 0.282682 -0.930184
0.242144 -42.0782 18.8004 0.233275 0.291492 -0.927648
-0.0167017 -41.3786 18.9625 0.232352 0.300305 -0.925111
-0.363855 -40.3783 19.205 0.223742 0.300834 -0.927025
0.590372 -39.7716 19.6064 0.20638 0.28465 -0.936139
1.49589 -39.2005 19.9824 0.193563 0.274575 -0.941677
2.29173 -38.5482 20.3088 0.174049 0.248487 -0.95287
3.76817 -37.202 20.9296 0.174051 0.248486 -0.95287
4.29892 -36.2995 21.2419 0.131627 0.237913 -0.962248
4.21864 -35.383 21.4478 0.120214 0.231747 -0.965298
4.10117 -34.3387 21.6886 0.115151 0.235538 -0.965019
4.29268 -33.4192 21.9345 0.114315 0.233191 -0.965688
4.47494 -32.344 22.2157 0.11029 0.239668 -0.964539
4.21493 -31.576 22.3833 0.104219 0.243954 -0.964166
3.92297 -30.8502 22.5342 0.10057 0.245299 -0.964209
3.58315 -29.8281 22.7633 0.0989699 0.248839 -0.963475
3.2986 -29.0435 22.9303 0.0880238 0.240589 -0.966602
2.6771 -28.4772 23.0185 0.0933401 0.246594 -0.964613
1.56005 -27.9661 23.0411 0.0933386 0.246594 -0.964613
0.65492 -27.829 22.9949 0.0813662 0.258802 -0.962497
0.14503 -29.2279 22.5783 0.110619 0.265916 -0.95744
-0.288188 -30.0498 22.2839 0.126967 0.274528 -0.95316
-0.923751 -31.2614 21.8503 0.126327 0.276547 -0.952659
-1.16255 -32.0254 21.5952 0.138302 0.283109 -0.948964
-1.23858 -33.112 21.2526 0.150918 0.287653 -0.945769
-1.36534 -34.2588 20.861 0.168278 0.294606 -0.940511
-1.44716 -35.1257 20.5883 0.179038 0.282651 -0.942361
-1.25466 -36.1954 20.3007 0.179637 0.285469 -0.941402
-0.934308 -37.0036 20.1167 0.185431 0.276556 -0.942877
-0.499654 -37.6572 20.0195 0.196622 0.277375 -0.940352
0.0783625 -38.194 19.9796 0.202021 0.287109 -0.936352
1.18746 -37.6543 20.362 0.171736 0.268159 -0.947737
2.46797 -36.3891 20.9243 0.152248 0.26868 -0.951121
2.74822 -35.4216 21.2319 0.151549 0.248896 -0.9566
2.68785 -34.6305 21.4282 0.151549 0.248896 -0.9566
2.67525 -33.3991 21.7466 0.147242 0.251642 -0.956541
2.67496 -32.1377 22.0726 0.100802 0.24817 -0.963458
2.34504 -30.9472 22.3447 0.100802 0.24817 -0.963458
2.02737 -30.0015 22.5563 0.100905 0.249477 -0.963109
1.05564 -29.4012 22.6212 0.0942713 0.257304 -0.961721
0.646615 -31.5008 21.9875 0.133053 0.274876 -0.952193
0.078436 -32.2764 21.6856 0.125683 0.278568 -0.952157
0.62049 -33.5866 21.3896 0.141678 0.262785 -0.954356
0.0587457 -34.3703 21.0973 0.160686 0.267109 -0.949901
0.833929 -35.6998 20.8495 0.179038 0.28265 -0.942361
1.28892 -35.789 20.9051 0.151899 0.258788 -0.95386
0.872139 -34.6838 21.1355 0.142935 0.254388 -0.956481
1.35586 -33.8429 21.4314 0.142935 0.254387 -0.956481
0.646243 -32.1839 21.7929 0.140422 0.271184 -0.95223
-1.95524 -41.7901 18.3453 0.236305 0.308512 -0.921341
-2.94518 -41.4206 18.2042 0.246401 0.309249 -0.918505
-4.24745 -41.4494 17.8428 0.256651 0.315563 -0.913492
-5.17573 -41.594 17.528 0.256018 0.321106 -0.911781
-5.89884 -42.0668 17.1584 0.256018 0.321107 -0.911781
-6.32514 -43.7566 16.4043 0.279686 0.333571 -0.900281
-6.06524 -44.3956 16.2514 0.286424 0.325607 -0.901078
-4.92095 -45.1655 16.3369 0.277889 0.324984 -0.903926
-3.86626 -45.7915 16.4399 0.277394 0.309322 -0.9096
-2.81116 -45.2611 16.947 0.275264 0.2998 -0.913321
-1.79855 -44.7689 17.3954 0.264391 0.298763 -0.916949
-1.32953 -43.4717 17.9631 0.26405 0.304969 -0.915025
-1.54325 -42.589 18.1956 0.249125 0.293826 -0.922604
-1.59044 -41.9061 18.396 0.229281 0.304039 -0.924644
-3.49482 -42.9909 17.5191 0.248265 0.313678 -0.916499
-4.31067 -43.7739 17.014 0.265036 0.31745 -0.910484
-4.0808 -44.1518 16.9491 0.267195 0.320907 -0.908628
-3.77388 -42.944 17.4596 0.256651 0.315564 -0.913492
2.40475 -45.3759 18.3698 0.24468 0.279082 -0.928571
2.80687 -46.1727 18.2363 0.24392 0.279363 -0.928686
3.70489 -46.3353 18.4224 0.243161 0.279643 -0.928801
4.75333 -47.398 18.3977 0.233664 0.26529 -0.935206
5.72402 -47.3561 18.6305 0.213921 0.265818 -0.939989
6.17348 -46.3807 18.9937 0.203478 0.251822 -0.946141
5.93051 -45.562 19.1594 0.203478 0.251822 -0.946141
4.91639 -44.8593 19.1549 0.175652 0.275218 -0.945199
4.04528 -44.7886 18.9727 0.231543 0.271997 -0.934027
2.98508 -45.6011 18.455 0.24392 0.279363 -0.928686
0.283842 -51.6263 15.8634 0.301746 0.272545 -0.913431
-0.972379 -51.5613 15.4639 0.302071 0.289667 -0.908211
-1.86348 -51.8646 15.0708 0.30207 0.289667 -0.908211
-2.34683 -52.7172 14.6292 0.318002 0.292444 -0.90186
-2.64025 -53.5834 14.2398 0.322249 0.299448 -0.898046
-3.07863 -54.2377 13.8644 0.325809 0.291399 -0.899364
-3.25155 -55.2827 13.465 0.342646 0.293595 -0.89241
-3.13782 -56.0663 13.2509 0.342646 0.293595 -0.89241
-2.95819 -57.1314 12.9773 0.347318 0.283774 -0.893766
-2.38983 -57.9131 12.9551 0.351078 0.280553 -0.893328
-1.64624 -58.3877 13.0983 0.35108 0.280554 -0.893326
-0.956366 -58.7173 13.2578 0.336232 0.272968 -0.901342
-0.249557 -58.9237 13.4622 0.339516 0.270036 -0.901005
0.782143 -59.121 13.7946 0.326719 0.258174 -0.90904
1.94882 -58.8285 14.2746 0.312447 0.255303 -0.914985
2.78762 -58.3766 14.6863 0.307339 0.251001 -0.917876
3.28116 -57.2762 15.1615 0.290663 0.272556 -0.917185
3.65215 -56.2292 15.5902 0.290663 0.272555 -0.917185
3.75187 -55.1631 15.9164 0.278206 0.258018 -0.925208
3.34772 -54.5312 15.9746 0.275996 0.261677 -0.924852
2.52401 -53.2466 16.0836 0.288774 0.264798 -0.920031
1.65683 -52.3579 16.075 0.28546 0.2697 -0.91966
1.56574 -52.2622 16.0748 0.28546 0.269699 -0.91966
0.769032 -53.518 15.4592 0.301745 0.272546 -0.913431
-0.570671 -53.0878 15.1202 0.318031 0.275392 -0.907202
-1.26416 -53.7913 14.6635 0.318624 0.281014 -0.905248
-1.78116 -54.8482 14.1454 0.319217 0.286637 -0.903294
-1.85123 -55.939 13.7745 0.324762 0.278027 -0.90395
-1.23566 -57.0275 13.6717 0.332948 0.2759 -0.901679
0.0206229 -57.5403 13.9787 0.336232 0.272968 -0.901342
0.84605 -57.5804 14.256 0.31037 0.264959 -0.912939
2.11278 -56.6954 14.9481 0.311178 0.267726 -0.911861
2.31244 -56.0078 15.2182 0.307632 0.273064 -0.911459
2.0727 -55.0379 15.4345 0.298087 0.26915 -0.915729
1.30802 -54.0231 15.4784 0.288774 0.264798 -0.920031
0.655528 -55.4641 14.8313 0.317195 0.27391 -0.907832
-0.521805 -55.2363 14.4692 0.330305 0.269417 -0.904607
0.248722 -55.9863 14.5272 0.330305 0.269417 -0.904607
0.797293 -55.6508 14.8215 0.304085 0.278402 -0.911057
-24.4775 19.7104 39.0689 -0.118687 0.385369 -0.915031
-25.5665 20.0892 39.3605 -0.10895 0.390574 -0.914102
-26.3272 20.878 39.7896 -0.110166 0.391399 -0.913603
-26.1768 22.0027 40.257 -0.110097 0.394208 -0.912403
-25.8166 22.636 40.4872 -0.121278 0.39029 -0.912592
-25.037 22.882 40.4776 -0.133907 0.382628 -0.914147
-24.0212 22.6456 40.2299 -0.133907 0.382629 -0.914147
-23.2994 21.9636 39.8417 -0.134639 0.376692 -0.91646
-23.1571 21.0772 39.451 -0.128398 0.381374 -0.91546
-23.6514 20.2655 39.1834 -0.128421 0.380162 -0.915961
7.22867 40.2663 37.842 -0.238049 0.150731 -0.959465
8.17148 39.2356 37.4428 -0.232208 0.154752 -0.96027
9.2786 39.23 37.1813 -0.225084 0.154377 -0.962032
10.5208 39.581 36.9428 -0.226422 0.145408 -0.963113
11.2676 40.2823 36.8746 -0.225086 0.146141 -0.963317
11.7688 41.4555 36.9355 -0.226 0.139882 -0.964011
12.1095 42.5896 37.0125 -0.226913 0.133622 -0.964705
12.1047 43.9043 37.1983 -0.220358 0.129986 -0.966701
11.5648 44.4218 37.3909 -0.22757 0.127406 -0.965386
10.5279 44.8981 37.701 -0.230577 0.126386 -0.964811
9.83819 45.2096 37.9092 -0.237337 0.132178 -0.962393
8.82218 45.0139 38.1328 -0.237338 0.132179 -0.962392
7.50543 44.5756 38.4067 -0.243586 0.131059 -0.960983
6.37386 43.4638 38.544 -0.253978 0.13536 -0.957687
6.27541 42.7215 38.4579 -0.255309 0.148888 -0.955327
6.55463 41.7856 38.2423 -0.242118 0.147148 -0.959024
6.72815 41.2831 38.1214 -0.24146 0.146132 -0.959344
8.06842 42.0104 37.8969 -0.234387 0.14185 -0.961722
8.35622 41.3317 37.7231 -0.233132 0.147307 -0.961223
8.91561 40.7458 37.4976 -0.23313 0.147306 -0.961224
9.75068 41.1017 37.3534 -0.226423 0.145407 -0.963113
10.5145 42.7398 37.4084 -0.228744 0.135672 -0.963982
10.0454 43.5417 37.6354 -0.230576 0.137725 -0.963258
8.98489 43.7311 37.9163 -0.233108 0.137056 -0.96274
8.10992 43.4498 38.098 -0.245611 0.142979 -0.958766
