-28.8244 46.0925 56.8105 -0.550542 0.369218 -0.74872
-28.3481 46.8114 56.8148 -0.541072 0.288204 -0.784991
-28.3481 46.8114 56.8148 -0.541072 0.288204 -0.784991
-28.3481 46.8114 56.8148 -0.541072 0.288204 -0.784991
-28.3221 48.2078 57.0189 -0.662466 0.118998 -0.73958
-28.4287 49.4165 57.3088 -0.662465 0.118997 -0.739581
-28.9948 48.5994 57.6845 -0.597033 0.163096 -0.780421
-29.2999 47.8119 57.6833 -0.531598 0.207192 -0.821264
-29.7317 46.3058 57.5828 -0.541068 0.288205 -0.784993
-29.6618 45.5271 57.0997 -0.431649 0.458927 -0.776572
-29.204 45.7381 56.9148 -0.55054 0.369219 -0.748721
-29.1596 44.5468 56.1588 -0.545323 0.518644 -0.651362
-30.1473 43.9776 56.3725 -0.464758 0.544326 -0.698362
-30.8329 44.0103 56.8542 -0.448202 0.501627 -0.737468
-31.2262 44.8084 57.4534 -0.344875 0.42992 -0.834404
-31.1402 45.8308 57.9446 -0.334257 0.379404 -0.860792
-30.8598 46.6068 58.13 -0.32364 0.328889 -0.88718
-30.3982 47.7162 58.3729 -0.428537 0.268154 -0.853598
-30.1138 48.5241 58.4272 -0.585522 0.273128 -0.76326
-29.8309 49.2262 58.4615 -0.599728 0.174999 -0.774432
-29.4246 50.4319 58.1686 -0.700171 -0.00818048 -0.713928
-29.1298 51.082 57.872 -0.665892 -0.0113592 -0.744538
-28.3985 51.6138 57.2749 -0.623254 -0.0327921 -0.780918
-27.6787 50.8138 56.7036 -0.626799 -0.0076656 -0.779143
-27.4572 49.9741 56.5298 -0.648363 0.0632742 -0.755378
-27.3681 48.973 56.2764 -0.670611 0.120783 -0.73191
-27.2612 47.8444 55.9923 -0.696154 0.180272 -0.690636
-27.5095 46.5738 55.7991 -0.721693 0.23976 -0.649364
-28.1099 45.531 55.854 -0.628317 0.389339 -0.673523
-28.218 45.3978 55.8778 -0.627102 0.44115 -0.638943
-27.9684 44.427 54.8851 -0.549263 0.447669 -0.705622
-27.0939 45.218 54.7062 -0.561287 0.441355 -0.699962
-26.5779 46.4387 54.8402 -0.635313 0.239126 -0.734299
-26.3291 47.6359 55.0147 -0.63059 0.244109 -0.736691
-26.2427 48.3854 55.1942 -0.629101 0.182807 -0.752483
-26.4269 49.2786 55.4821 -0.647239 0.123556 -0.751896
-26.5261 50.3636 55.7632 -0.648363 0.063276 -0.755378
-26.651 51.1931 55.8614 -0.634583 -0.0040408 -0.772844
-26.9994 52.2434 56.1491 -0.603092 -0.012415 -0.796742
-27.3434 52.9227 56.3674 -0.577727 -0.0305022 -0.81566
-27.9772 53.4024 56.7646 -0.490038 -0.149789 -0.857996
-28.9811 53.1412 57.4146 -0.43213 -0.195161 -0.877124
-29.7208 52.5735 57.8412 -0.349595 -0.200953 -0.914931
-30.3233 51.8309 58.2163 -0.361078 -0.372199 -0.830734
-30.5693 51.207 58.4844 0.0102688 -0.15858 -0.987293
-30.9329 49.8658 58.792 -0.232266 -0.108099 -0.962821
-31.1745 49.027 58.9731 -0.211717 0.0509652 -0.951149
-31.5691 48.0151 58.8222 -0.285066 0.232344 -0.929921
-32.1579 46.6416 58.6596 -0.317957 0.285568 -0.90146
-32.4495 45.908 58.4456 -0.296279 0.407066 -0.864012
-32.5148 45.0769 58.0561 -0.287194 0.444748 -0.848362
-32.4424 44.2825 57.6386 -0.288814 0.404062 -0.86794
-32.23 43.5866 57.0718 -0.261838 0.685782 -0.679076
-31.6899 42.8788 56.0923 -0.289982 0.704596 -0.647604
-30.9835 42.5237 55.3917 -0.279971 0.693334 -0.663704
-30.2345 42.7978 55.3353 -0.30577 0.703617 -0.641427
-29.2718 43.4008 55.3402 -0.545323 0.518641 -0.651364
-28.4394 44.0759 55.0289 -0.587575 0.470314 -0.654994
-28.2444 44.2132 54.9642 -0.549263 0.447669 -0.705622
-28.0126 43.1561 54.0976 -0.546827 0.514536 -0.66048
-26.8717 43.8771 53.6825 -0.561287 0.441355 -0.699961
-26.3447 44.6648 53.7408 -0.573312 0.435041 -0.6943
-25.7676 45.6519 53.8828 -0.604311 0.337085 -0.714301
-25.3564 47.0038 53.978 -0.625867 0.249094 -0.739082
-25.2679 47.771 54.1616 -0.625866 0.249095 -0.739083
-25.1789 48.5073 54.3344 -0.629099 0.182808 -0.752483
-25.3935 49.298 54.6319 -0.632333 0.116521 -0.765883
-25.5426 50.7368 54.9932 -0.603719 0.0789809 -0.790942
-25.7795 52.2111 55.1992 -0.588413 0.0162615 -0.808397
-26.3306 53.5415 55.6271 -0.577201 -0.0254273 -0.815036
-26.7318 54.4295 55.8066 -0.540427 -0.0786849 -0.837704
-27.8328 55.011 56.4623 -0.526538 -0.116433 -0.841172
-28.6536 54.818 56.8875 -0.40566 -0.201068 -0.891634
-29.3402 54.5402 57.2625 -0.405658 -0.201066 -0.891636
-29.981 54.1714 57.5799 -0.224091 -0.206543 -0.95243
-30.7386 53.6063 57.8807 -0.247008 -0.234059 -0.93955
-31.2182 53.0665 58.1728 -0.235728 -0.250399 -0.938245
-31.7498 52.2059 58.5023 -0.199101 -0.227311 -0.953168
-31.987 51.0057 58.8797 -0.158405 -0.310058 -0.937428
-32.211 50.225 58.9067 0.063326 -0.103378 -0.992624
-32.4797 49.4734 58.9678 0.109972 -0.0360391 -0.989894
-32.749 48.5802 58.8968 0.156618 0.0313002 -0.987163
-33.1732 47.5576 58.744 0.172342 0.15807 -0.969486
-33.6113 46.8892 58.4986 0.232025 0.197517 -0.952445
-33.8162 46.0626 58.2567 0.170044 0.280465 -0.942407
-33.7908 44.9993 58.0309 0.104491 0.204117 -0.973354
-33.7454 44.0848 57.6643 0.0577277 0.510393 -0.858002
-33.6471 43.3503 57.1598 0.10096 0.720102 -0.651966
-33.2826 42.5624 56.1166 -0.104544 0.77572 -0.622358
-32.6716 41.86 55.283 -0.0384827 0.738854 -0.672766
-32.0916 41.3592 54.6426 -0.279969 0.693334 -0.663705
-31.2996 40.9785 53.9717 -0.285471 0.634563 -0.718217
-30.2047 41.5566 54.1026 -0.289889 0.674672 -0.678244
-29.5963 42.0728 54.3237 -0.33163 0.661594 -0.672273
-28.1828 43.0487 54.1548 -0.546827 0.514536 -0.66048
-27.5134 42.3711 53.0727 -0.496869 0.503422 -0.703704
-26.7796 42.4881 52.7108 -0.44691 0.492311 -0.746928
-25.9534 43.4342 52.7823 -0.513122 0.422575 -0.745876
-25.3875 44.393 52.8735 -0.530701 0.384999 -0.755071
-24.9354 45.1011 52.9168 -0.530574 0.385066 -0.755126
-24.6572 45.7643 53.0059 -0.579931 0.265948 -0.769829
-24.3368 46.7491 53.0858 -0.576231 0.250603 -0.777917
-24.0182 48.0581 53.2715 -0.576231 0.250603 -0.777917
-24.0097 48.8575 53.4742 -0.598969 0.158145 -0.784086
-24.2403 49.5019 53.7478 -0.613345 0.137545 -0.777746
-24.3937 50.5278 54.0502 -0.613344 0.137545 -0.777747
-24.4137 51.6327 54.1819 -0.594097 0.0204187 -0.804135
-24.4339 52.6429 54.2225 -0.594096 0.0204189 -0.804135
-24.626 53.3795 54.3831 -0.591239 0.0183295 -0.806278
-25.1258 54.0036 54.7595 -0.577204 -0.0254231 -0.815035
-25.4157 54.77 54.8966 -0.565995 -0.0671053 -0.821673
-25.8137 55.7174 55.0934 -0.553212 -0.0728954 -0.829688
-26.529 56.5663 55.387 -0.512649 -0.154182 -0.844641
-27.2961 57.2301 55.7315 -0.465364 -0.174146 -0.866035
-28.3092 56.3343 56.4047 -0.41808 -0.19411 -0.887429
-29.0613 56.1353 56.7892 -0.405479 -0.189948 -0.894151
-30.1617 55.5891 57.2991 -0.221934 -0.242946 -0.944217
-31.2248 54.9675 57.6912 -0.213112 -0.234007 -0.94859
-31.8142 54.5169 57.9275 -0.0617318 -0.213449 -0.973624
-32.5772 53.5818 58.2546 0.0590453 -0.38351 -0.921647
-33.2752 52.6336 58.6044 0.105752 -0.2818 -0.946705
-33.2884 51.896 58.7648 0.203845 -0.247642 -0.947165
-33.4444 50.9402 58.8805 0.262642 0.0534212 -0.963414
-33.7275 50.131 58.7415 0.312725 0.0913841 -0.945437
-34.0738 48.9368 58.5578 0.361793 0.0268964 -0.93187
-34.495 48.2877 58.3054 0.397263 0.114505 -0.909571
-35.0663 46.8982 57.9239 0.360016 0.106411 -0.926858
-35.0229 45.8541 57.7308 0.395757 0.207063 -0.894707
-35.0236 44.9423 57.5195 0.395759 0.207061 -0.894707
-34.9976 44.2049 57.3624 0.334291 0.370785 -0.843276
-34.7473 42.9148 56.2406 0.306456 0.664487 -0.681573
-34.3822 41.678 55.1989 0.100957 0.720103 -0.651965
-33.7696 40.99 54.4984 -0.0683849 0.6422 -0.763481
-33.1294 40.5491 54.0703 -0.0683856 0.642198 -0.763482
-32.6818 40.1206 53.6069 -0.121123 0.676179 -0.726712
-32.097 39.4515 52.8868 -0.122544 0.673204 -0.72922
-31.5887 39.3961 52.7055 -0.248297 0.625759 -0.739223
-30.1453 40.2592 52.9235 -0.252665 0.611782 -0.749589
-29.3042 41.1414 53.2429 -0.361225 0.626167 -0.689501
-28.4907 41.6414 53.3134 -0.447845 0.587884 -0.662302
-28.4041 41.7143 53.2985 -0.546833 0.514528 -0.66048
-20.8182 39.4263 47.6685 -0.397317 0.389121 -0.831098
-20.9951 38.4453 47.2922 -0.371539 0.41318 -0.831009
-20.4543 37.3977 46.5851 -0.343122 0.394125 -0.852603
-19.9016 36.8045 46.0885 -0.343122 0.394126 -0.852603
-18.9474 36.3061 45.538 -0.305401 0.357653 -0.882505
-18.1202 36.0842 45.1618 -0.305394 0.357656 -0.882506
-17.265 35.9634 44.7908 -0.333147 0.329586 -0.883322
-15.834 36.0637 44.3251 -0.304187 0.299509 -0.904304
-14.788 36.3056 44.0534 -0.304188 0.299508 -0.904303
-13.874 36.4791 43.8025 -0.306272 0.299488 -0.903606
-12.8056 36.6735 43.5048 -0.306275 0.299486 -0.903606
-11.9776 36.865 43.2931 -0.28925 0.271125 -0.918053
-11.3722 37.2952 43.2181 -0.30228 0.258304 -0.917532
-10.4781 38.4104 43.2424 -0.304304 0.263937 -0.915279
-9.89747 39.2906 43.2781 -0.323638 0.230892 -0.917577
-9.5423 40.1634 43.3724 -0.32364 0.230899 -0.917575
-9.47692 41.1851 43.6113 -0.333245 0.225025 -0.915491
-9.62649 42.3816 43.9454 -0.34017 0.213198 -0.915877
-10.3976 43.1896 44.411 -0.337771 0.205439 -0.918535
-11.2804 44.1656 45.0044 -0.367732 0.211401 -0.905563
-11.5996 44.8034 45.2777 -0.365926 0.205834 -0.907596
-11.6182 45.5594 45.4567 -0.365926 0.205833 -0.907596
-11.0621 46.0794 45.3357 -0.380544 0.18046 -0.906984
-10.3042 46.468 45.095 -0.375025 0.182732 -0.908805
-9.49787 47.427 44.9627 -0.367832 0.171032 -0.913914
-9.10364 48.1684 44.9322 -0.366157 0.157045 -0.917205
-8.58906 48.7942 44.8297 -0.371832 0.14867 -0.916318
-8.13326 49.5397 44.7657 -0.371832 0.148671 -0.916318
-8.14835 50.4833 44.9232 -0.376855 0.137409 -0.915969
-8.70785 51.2776 45.2701 -0.38297 0.129701 -0.91461
-9.30858 52.0326 45.6245 -0.380102 0.114856 -0.917785
-10.5503 52.7252 46.2577 -0.406503 0.111375 -0.906835
-11.2738 53.0083 46.6171 -0.407211 0.110539 -0.90662
-12.934 52.8327 47.3414 -0.425903 0.114332 -0.897265
-13.7416 52.0131 47.6368 -0.450912 0.11296 -0.88535
-14.2789 51.3163 47.83 -0.454114 0.138903 -0.879487
-14.6235 50.5933 47.8671 -0.450995 0.170014 -0.876184
-14.7868 49.4317 47.7257 -0.450994 0.170012 -0.876185
-14.7009 48.4352 47.496 -0.422144 0.173192 -0.889605
-14.4518 47.6865 47.2185 -0.433022 0.179562 -0.883317
-14.0166 46.918 46.8489 -0.431221 0.20502 -0.878259
-13.3795 46.3016 46.4053 -0.40195 0.207774 -0.891777
-12.7609 45.8299 46.0166 -0.40195 0.207775 -0.891777
-13.1334 45.0529 45.9886 -0.406358 0.228045 -0.884799
-13.8733 44.4293 46.1677 -0.406358 0.228045 -0.884799
-14.5701 43.8567 46.3306 -0.387307 0.248388 -0.887861
-15.6165 43.3317 46.6402 -0.40553 0.251618 -0.878524
-17.0929 42.6607 47.1633 -0.423747 0.254867 -0.869185
-18.4805 42.0864 47.5991 -0.411621 0.318898 -0.853662
-19.1358 41.6221 47.7511 -0.422122 0.317706 -0.849044
-20.4033 40.3777 47.9157 -0.409719 0.353413 -0.840072
-20.7646 39.5302 47.6916 -0.397315 0.389121 -0.831099
-19.5194 39.1154 46.9191 -0.370817 0.342798 -0.863125
-18.9106 40.0742 47.0599 -0.40972 0.353415 -0.84007
-17.392 41.2122 46.7643 -0.40112 0.320091 -0.85828
-15.9324 41.9825 46.3792 -0.368776 0.29748 -0.880469
-14.7224 42.4602 46.0043 -0.388621 0.253995 -0.885697
-13.5226 43.1668 45.6805 -0.369772 0.254502 -0.893355
-12.1605 43.0536 45.0973 -0.369537 0.216968 -0.90353
-11.2562 42.1596 44.5127 -0.360231 0.235986 -0.902272
-10.9017 40.882 44.0409 -0.326316 0.236851 -0.915106
-11.3183 39.5224 43.8376 -0.324978 0.233877 -0.91634
-12.0666 38.3873 43.7721 -0.320429 0.26583 -0.909208
-12.9139 37.9307 43.9372 -0.32043 0.265829 -0.909208
-13.8789 37.7267 44.2177 -0.313353 0.282659 -0.906407
-15.5204 37.3859 44.6806 -0.323045 0.327402 -0.887947
-16.7886 37.408 45.1501 -0.333147 0.329584 -0.883323
-17.8109 37.474 45.5744 -0.34325 0.331766 -0.878699
-18.6571 37.5967 45.9513 -0.344353 0.337696 -0.875979
-19.3925 38.3012 46.5413 -0.370818 0.342796 -0.863125
-17.9419 39.0093 46.2242 -0.345456 0.343627 -0.873258
-16.4246 40.4967 46.0888 -0.384257 0.298044 -0.873794
-15.392 40.9464 45.8172 -0.353294 0.296916 -0.887144
-14.6181 41.2683 45.6167 -0.370958 0.275455 -0.886421
-13.6294 41.7644 45.3252 -0.369772 0.254499 -0.893356
-12.3742 41.2321 44.6856 -0.347527 0.247077 -0.904484
-12.4808 40.0387 44.4117 -0.344134 0.23915 -0.907953
-13.6274 39.0257 44.5201 -0.325605 0.275495 -0.90448
-15.2253 38.6078 44.9874 -0.338046 0.276046 -0.899735
-16.0024 38.6728 45.2994 -0.345669 0.286482 -0.89344
-16.3164 39.492 45.6986 -0.368775 0.297481 -0.880469
-17.1724 38.8287 45.8488 -0.364857 0.320835 -0.873526
-17.5687 38.8365 46.0086 -0.345456 0.343626 -0.873259
-12.3281 47.0704 46.09 -0.412921 0.183344 -0.89212
-11.5192 47.1392 45.7466 -0.386955 0.185288 -0.903279
-10.6928 48.0014 45.5534 -0.397345 0.164591 -0.902788
-9.98505 49.2287 45.4657 -0.381753 0.160817 -0.909996
-9.94522 50.4969 45.6613 -0.409105 0.150391 -0.900009
-10.4935 50.9593 45.9878 -0.409104 0.150391 -0.900009
-11.0804 51.5333 46.3505 -0.408156 0.130467 -0.903315
-12.2248 51.3964 46.8478 -0.408158 0.130465 -0.903315
-13.0137 51.1202 47.1602 -0.404133 0.15943 -0.900639
-13.3963 49.7946 47.108 -0.425263 0.15352 -0.891955
-13.2354 48.5971 46.8252 -0.425263 0.15352 -0.891955
-12.8401 47.5885 46.4332 -0.419026 0.192866 -0.887254
-12.5881 47.2855 46.254 -0.412899 0.181509 -0.892507
-9.72774 31.3231 41.0209 -0.249243 0.272263 -0.929245
-8.77098 31.2998 40.7569 -0.241273 0.249316 -0.937876
-7.3365 30.7184 40.2386 -0.239849 0.245558 -0.939241
-6.61396 30.1479 39.9049 -0.236802 0.245104 -0.940127
-6.26884 29.4771 39.6523 -0.219242 0.243627 -0.944676
-6.24246 28.3489 39.3432 -0.211202 0.253697 -0.943945
-6.80935 26.6934 39.0217 -0.209131 0.256871 -0.943544
-7.56753 25.8708 38.9636 -0.206525 0.256973 -0.944094
-8.84575 25.2352 39.0494 -0.190784 0.276905 -0.941767
-9.75303 25.1588 39.214 -0.194684 0.277574 -0.940771
-10.9788 25.4729 39.5513 -0.186403 0.295327 -0.936962
-11.7973 26.4109 40.0253 -0.189782 0.305859 -0.93297
-12.285 27.4413 40.4623 -0.18978 0.305858 -0.932971
-12.0161 28.6728 40.7802 -0.237864 0.291041 -0.926669
-10.9697 30.2171 40.9966 -0.237864 0.291041 -0.926669
-10.3514 30.7971 41.0201 -0.237124 0.286378 -0.928297
-9.36393 30.0631 40.5609 -0.220834 0.271817 -0.93664
-10.0877 29.3562 40.5199 -0.213807 0.273188 -0.937899
-10.726 28.0333 40.2801 -0.213807 0.273188 -0.937899
-10.1363 26.7674 39.7678 -0.214581 0.280679 -0.935507
-9.19983 26.5747 39.5121 -0.192796 0.269673 -0.943454
-8.29966 26.9716 39.4281 -0.212944 0.26534 -0.940346
-7.61944 27.7782 39.5017 -0.214113 0.259501 -0.941689
-7.49322 28.8356 39.7573 -0.21528 0.253658 -0.943033
-7.95816 29.4384 40.0378 -0.227861 0.270447 -0.935381
-8.7322 29.9053 40.3614 -0.227861 0.270447 -0.935381
-9.10498 28.1757 39.9521 -0.220834 0.271817 -0.93664
-8.95034 28.0784 39.8863 -0.22157 0.262053 -0.939207
-4.68354 16.5548 35.8751 -0.145034 0.262662 -0.95391
-5.77871 15.4526 35.7319 -0.139686 0.262814 -0.954681
-6.67367 14.3196 35.5354 -0.136993 0.275468 -0.951499
-6.93121 13.6094 35.364 -0.120262 0.285425 -0.95081
-7.08348 12.807 35.1429 -0.113525 0.280884 -0.953004
-6.91677 11.8059 34.828 -0.113526 0.280884 -0.953004
-6.53622 11.1665 34.5942 -0.114521 0.280796 -0.95291
-5.51097 10.2966 34.2301 -0.102604 0.278697 -0.954882
-4.41502 9.77001 33.9587 -0.102603 0.2787 -0.954882
-3.48886 9.60973 33.8158 -0.101766 0.269029 -0.957732
-2.50128 10.1541 33.8538 -0.109436 0.257739 -0.959997
-1.83682 10.5387 33.8813 -0.109436 0.257738 -0.959997
-1.16684 11.0161 33.9177 -0.12921 0.244065 -0.961108
-0.762143 11.7738 34.0532 -0.130145 0.241487 -0.961637
-0.44215 12.6312 34.2262 -0.130584 0.243299 -0.961121
-0.0822101 13.8924 34.4972 -0.13051 0.243756 -0.961015
0.269398 14.7635 34.6581 -0.146936 0.23062 -0.961876
-0.207128 15.742 34.9683 -0.155262 0.236264 -0.959198
-0.771283 16.3046 35.2008 -0.158369 0.23728 -0.958445
-1.63234 16.9434 35.5012 -0.158362 0.237282 -0.958446
-2.34919 17.1456 35.6697 -0.14908 0.244502 -0.958048
-3.52043 16.8802 35.7812 -0.150382 0.262516 -0.953137
-4.46576 16.5544 35.8406 -0.150382 0.262515 -0.953138
-3.70434 15.3647 35.4002 -0.140597 0.251872 -0.957493
-4.57647 15.0101 35.435 -0.138756 0.254683 -0.957012
-5.2393 14.0936 35.2728 -0.124581 0.260988 -0.957269
-5.62837 13.0414 35.0365 -0.120049 0.270847 -0.955043
-5.27068 11.9619 34.6751 -0.115516 0.280707 -0.952817
-3.92738 11.0451 34.2653 -0.108323 0.265889 -0.957898
-3.19152 11.1209 34.2032 -0.114685 0.26701 -0.956821
-2.58581 11.5792 34.2513 -0.124952 0.250372 -0.960012
-2.18533 12.2325 34.3624 -0.130106 0.242897 -0.961287
-1.58493 13.609 34.6294 -0.135037 0.247331 -0.959456
-1.18661 14.6651 34.848 -0.13968 0.251315 -0.957774
-2.66309 15.5661 35.3004 -0.139795 0.251722 -0.95765
-2.7605 15.5845 35.3195 -0.140595 0.251872 -0.957493
-3.06324 14.1095 34.9759 -0.140195 0.251797 -0.957572
-3.08401 13.3557 34.7778 -0.132717 0.255483 -0.957661
-3.82087 12.6771 34.6988 -0.134814 0.256487 -0.957097
-3.93841 13.4864 34.9335 -0.13691 0.257492 -0.956532
-3.0777 14.1057 34.977 -0.138752 0.254682 -0.957013
-18.1806 9.32334 35.067 -0.0643088 0.343882 -0.936805
-18.2045 8.37612 34.7186 -0.0598681 0.339722 -0.93859
-18.9164 7.48388 34.4453 -0.0490939 0.343197 -0.937893
-20.1806 7.53312 34.5221 -0.0462883 0.358402 -0.932406
-21.1332 8.16876 34.8189 -0.0479844 0.362593 -0.930712
-21.5445 9.05447 35.1753 -0.0577269 0.352248 -0.934097
-20.8682 10.1194 35.5408 -0.0607076 0.358284 -0.931637
-20.2226 10.4787 35.6369 -0.0607083 0.358281 -0.931638
-19.0444 10.5871 35.5883 -0.0727394 0.345929 -0.935398
-18.276 9.51151 35.1423 -0.065603 0.341824 -0.937471
-19.3967 8.92166 35.0005 -0.0630134 0.345939 -0.936139
-19.3969 8.89949 34.9923 -0.0630132 0.345939 -0.936139
-15.9147 1.79803 32.2635 -0.0246791 0.333129 -0.942555
-14.9306 1.96441 32.2939 -0.0271827 0.332976 -0.942543
-13.9729 1.91257 32.245 -0.0386244 0.32396 -0.945274
-13.2452 1.57658 32.1012 -0.0369509 0.317041 -0.947692
-12.5414 0.951179 31.8643 -0.0357466 0.318081 -0.947389
-12.2739 0.108938 31.5719 -0.0350025 0.317818 -0.947506
-11.7414 -1.33389 31.0859 -0.0296285 0.306733 -0.951334
-12.0803 -2.33466 30.7594 -0.018811 0.320107 -0.947194
-12.5973 -2.93353 30.5677 -0.00842005 0.321905 -0.946653
-13.2802 -3.33929 30.4282 -0.00398251 0.33 -0.943973
-14.267 -3.72439 30.2977 -0.00398456 0.33 -0.943972
-15.2624 -3.95448 30.212 0.00614831 0.339786 -0.940483
-16.403 -3.49239 30.3715 0.00615044 0.339786 -0.940483
-17.0508 -2.97688 30.554 0.00199701 0.353836 -0.935303
-17.5439 -2.07349 30.8923 0.00229191 0.351786 -0.936078
-17.9862 -0.995692 31.2988 -0.00300687 0.350114 -0.93669
-17.8149 -0.118095 31.6214 -0.0131508 0.343003 -0.939194
-17.0176 0.975629 31.9985 -0.0222215 0.34031 -0.940051
-16.6064 1.31297 32.1082 -0.0221747 0.333283 -0.942566
-15.7264 0.213804 31.7019 -0.0141265 0.331395 -0.943378
-16.4381 -1.39648 31.1426 -0.0100821 0.332053 -0.943207
-15.9857 -2.25344 30.8213 0.00303219 0.342558 -0.939435
-15.1254 -2.62812 30.6918 1.76033e-05 0.337691 -0.941257
-14.0525 -2.31248 30.7955 -0.00672257 0.334855 -0.942245
-13.4763 -1.85636 30.9448 -0.0124789 0.321462 -0.94684
-13.2699 -0.802239 31.3 -0.0127135 0.321571 -0.9468
-14.0147 0.34084 31.709 -0.0238674 0.322309 -0.946333
-15.0283 0.502062 31.7895 -0.02102 0.326523 -0.944941
-6.21083 -4.58769 29.9027 -0.0236484 0.285731 -0.958018
-6.45959 -5.75055 29.562 -0.0236489 0.285746 -0.958014
-6.16803 -7.06426 29.1578 -0.00660581 0.290976 -0.956702
-5.59303 -7.65823 28.9756 -0.0158513 0.284161 -0.958579
-4.74235 -8.78159 28.6249 -0.0224526 0.27829 -0.960226
-4.94542 -9.78088 28.3362 -0.00323779 0.28274 -0.959189
-5.39674 -10.3603 28.166 -0.00112915 0.282621 -0.959231
-6.09468 -11.0819 27.9542 0.0126669 0.28804 -0.957418
-7.02826 -11.3307 27.8543 0.0161642 0.299547 -0.953945
-7.89049 -11.782 27.698 0.0234335 0.302697 -0.952765
-8.79406 -12.3247 27.4944 0.0304204 0.305898 -0.951578
-9.43588 -13.1366 27.213 0.0409509 0.314628 -0.948224
-9.58385 -14.0619 26.8942 0.06152 0.303872 -0.950724
-9.40057 -15.4201 26.4683 0.0575904 0.317905 -0.946293
-8.90696 -16.1328 26.252 0.0616119 0.328743 -0.942407
-8.51567 -16.7839 26.0656 0.0751578 0.304969 -0.949367
-7.70672 -16.9834 26.0712 0.0808349 0.301258 -0.95011
-5.99309 -17.5669 25.9879 0.0531491 0.295103 -0.953986
-5.20469 -17.856 25.9491 0.0561288 0.28395 -0.957181
-4.47014 -18.2686 25.8659 0.051033 0.28396 -0.957477
-3.34996 -18.6343 25.8171 0.0510329 0.28396 -0.957477
-1.81523 -18.7709 25.8662 0.0523376 0.274136 -0.960252
-0.226307 -19.3457 25.7692 0.0332842 0.274133 -0.961079
0.552832 -19.669 25.7118 0.0514478 0.249443 -0.96702
1.55634 -19.8554 25.7 0.0192974 0.226806 -0.973749
2.40312 -19.8944 25.7077 0.0192973 0.226806 -0.973749
3.1771 -19.7823 25.7492 0.0166411 0.229739 -0.973102
4.38296 -18.9807 25.9399 0.00340679 0.220018 -0.97549
5.04083 -17.9619 26.1719 0.00340662 0.220017 -0.97549
5.15369 -17.0596 26.3697 -0.00943749 0.215169 -0.97653
4.84393 -16.07 26.6024 -0.0138607 0.229496 -0.973207
4.41671 -14.5903 26.9551 -0.0149945 0.234091 -0.972076
3.90127 -13.7857 27.1635 -0.0191772 0.235039 -0.971786
3.0636 -12.8852 27.3938 -0.019456 0.230678 -0.972836
2.54447 -12.286 27.5586 -0.0299872 0.240971 -0.970069
1.89801 -11.7496 27.7118 -0.0214166 0.242345 -0.969915
0.818362 -10.9964 27.9222 -0.0200989 0.248063 -0.968535
-0.412057 -10.4941 28.0762 -0.0200829 0.247743 -0.968618
-0.976472 -9.93236 28.2407 -0.0297503 0.254822 -0.96653
-1.4424 -8.74532 28.568 -0.0297505 0.254821 -0.96653
-1.10243 -7.97256 28.7648 -0.0288829 0.258928 -0.965465
-0.671234 -6.71597 29.0889 -0.0288832 0.258928 -0.965465
-0.728085 -5.73588 29.3535 -0.0368647 0.255866 -0.965971
-1.26038 -4.3582 29.7603 -0.0526078 0.26585 -0.962578
-2.09605 -3.38768 30.074 -0.0526078 0.26585 -0.962578
-2.95254 -2.88643 30.2595 -0.0559338 0.270143 -0.961181
-4.32663 -2.70137 30.3869 -0.0475564 0.281571 -0.958361
-5.45652 -3.44638 30.2259 -0.0358087 0.283203 -0.958306
-6.17132 -4.53419 29.9177 -0.0235952 0.286839 -0.957688
-6.19779 -4.56949 29.9078 -0.0236493 0.285731 -0.958018
-4.67171 -4.90401 29.7667 -0.0360688 0.28016 -0.959224
-4.94441 -6.16368 29.3965 -0.0302017 0.287871 -0.957193
-4.41615 -6.92098 29.1584 -0.026183 0.279774 -0.959709
-3.44487 -8.66657 28.6328 -0.018723 0.276807 -0.960743
-2.42733 -7.93489 28.8238 -0.0316722 0.271163 -0.961908
-2.03853 -7.10517 29.0345 -0.0446206 0.26552 -0.963072
-2.10058 -5.69494 29.4262 -0.0446199 0.26552 -0.963072
-3.00514 -4.41579 29.8314 -0.0450736 0.272665 -0.961053
-3.67555 -4.18459 29.9272 -0.041936 0.272449 -0.961256
-4.18867 -4.3674 29.8977 -0.0419365 0.272448 -0.961256
-3.19292 -9.14088 28.4939 -0.0171942 0.270281 -0.962628
-2.57632 -9.57767 28.3622 -0.00689548 0.264636 -0.964324
-2.03779 -10.6224 28.0716 -0.00689616 0.264636 -0.964324
-1.18974 -11.4563 27.8358 0.00290361 0.26172 -0.965081
-0.308762 -12.0425 27.6774 -0.0201169 0.248384 -0.968453
0.606856 -12.6333 27.5068 -0.0164829 0.246051 -0.969107
1.38688 -13.1999 27.3541 -0.0128489 0.243718 -0.969761
2.20899 -13.6357 27.2337 -0.0214134 0.242345 -0.969915
2.51807 -14.6481 26.9778 -0.0188977 0.2394 -0.970737
2.89182 -15.5466 26.7489 -0.0188969 0.239399 -0.970737
3.45549 -16.482 26.5214 -0.0110915 0.228784 -0.973414
3.61115 -17.4808 26.2784 -0.00516047 0.229335 -0.97329
2.76884 -18.3907 26.0719 0.0096794 0.227015 -0.973775
1.99919 -18.4544 26.0411 0.0146352 0.239959 -0.970628
1.02436 -18.2867 26.0744 0.00828327 0.247946 -0.968738
0.177836 -17.9826 26.1462 0.017399 0.25169 -0.96759
-0.933654 -17.715 26.1849 0.0277131 0.255017 -0.966539
-2.10927 -17.509 26.2111 0.0337142 0.266694 -0.963047
-3.08998 -17.3669 26.2018 0.0487235 0.27358 -0.960614
-4.55183 -16.8175 26.2842 0.0454258 0.277491 -0.95964
-5.60942 -16.4189 26.3547 0.0421294 0.281402 -0.958665
-6.93617 -15.8732 26.4516 0.0467536 0.283425 -0.957854
-7.73286 -15.3519 26.5735 0.0377108 0.295865 -0.954463
-8.10287 -14.1437 26.9383 0.0315526 0.297737 -0.954126
-7.63453 -13.2967 27.2225 0.0335488 0.302278 -0.952629
-6.59864 -12.786 27.417 0.027906 0.2977 -0.95424
-5.52607 -12.3991 27.5655 0.0126651 0.288039 -0.957419
-4.57406 -11.6004 27.7976 -0.00534497 0.282858 -0.959147
-3.73269 -10.178 28.2123 -0.0112705 0.276569 -0.960888
-3.00885 -9.60067 28.3615 -0.017194 0.270281 -0.962628
-2.90648 -11.7898 27.7548 0.00262068 0.269485 -0.962955
-3.93201 -12.824 27.4498 0.0115935 0.272243 -0.962159
-4.53173 -13.2917 27.3102 0.0110805 0.265777 -0.963947
-5.37096 -13.7485 27.1567 0.0395012 0.286237 -0.95734
-6.33113 -14.6917 26.8367 0.0367285 0.287319 -0.957131
-4.72689 -15.3977 26.694 0.0422721 0.285154 -0.957549
-3.39133 -15.9179 26.5992 0.045427 0.277491 -0.959639
-2.06642 -16.207 26.5623 0.018705 0.259808 -0.965479
-0.867223 -16.3707 26.5415 0.0232104 0.257413 -0.966009
0.415986 -16.5525 26.5146 0.00708445 0.24836 -0.968642
1.6817 -16.4973 26.538 0.00828379 0.247946 -0.968738
1.25898 -15.7032 26.7379 -0.0118835 0.238159 -0.971153
0.906249 -14.8481 26.9519 -0.0122095 0.238508 -0.971064
0.455409 -14.2465 27.1058 -0.0125354 0.238857 -0.970974
-0.192935 -13.8458 27.2127 -0.0126924 0.241288 -0.970367
-1.02892 -13.2052 27.3732 0.0121587 0.256707 -0.966413
-1.86749 -12.6235 27.5172 0.00290274 0.261719 -0.965082
-2.56297 -12.0624 27.6771 -0.00635343 0.26673 -0.96375
-2.77041 -11.8801 27.7289 -0.00635274 0.26673 -0.96375
-2.52392 -14.0029 27.1412 0.0145233 0.258135 -0.965991
-3.55962 -14.4868 27 0.0105675 0.259312 -0.965736
-2.79492 -14.8632 26.9072 0.0145233 0.258135 -0.965991
-1.53883 -14.899 26.9217 0.0184799 0.256958 -0.966246
-1.42062 -14.4183 27.0503 0.0112327 0.251896 -0.967689
-1.81668 -14.1745 27.1091 0.014856 0.254427 -0.966967
1.07031 -27.7649 23.6134 0.0802388 0.25725 -0.963008
0.0017647 -27.9836 23.4659 0.0918255 0.256642 -0.962064
-1.00034 -28.611 23.1909 0.112038 0.271384 -0.955751
-1.83229 -29.5229 22.8102 0.120664 0.286735 -0.950381
-2.44574 -30.8771 22.3352 0.13378 0.288389 -0.947985
-2.91801 -31.5257 22.0569 0.142909 0.300636 -0.942971
-2.904 -32.4978 21.7534 0.162565 0.304659 -0.93823
-2.72686 -33.3636 21.4932 0.18066 0.312191 -0.932671
-2.78174 -34.4443 21.1264 0.181778 0.30771 -0.933955
-3.34903 -35.2348 20.735 0.200323 0.31629 -0.92725
-2.77743 -36.1157 20.5717 0.218745 0.297416 -0.929352
-2.30485 -37.429 20.2626 0.218745 0.297416 -0.929352
-1.93559 -38.4557 20.0178 0.218833 0.30038 -0.928377
-1.67431 -39.8052 19.6478 0.226652 0.299186 -0.926883
-2.16623 -40.3123 19.3625 0.239302 0.302205 -0.922621
-3.59002 -40.1333 19.0425 0.239192 0.319905 -0.916759
-4.90486 -40.1767 18.6843 0.239192 0.319906 -0.916759
-5.95164 -40.4442 18.2921 0.259991 0.331787 -0.90682
-7.2543 -40.9761 17.7276 0.260883 0.343549 -0.902082
-7.69065 -41.8022 17.2721 0.266538 0.35357 -0.89663
-8.18569 -43.5582 16.4601 0.290154 0.341286 -0.893968
-8.16504 -45.0529 15.8819 0.299276 0.347852 -0.8885
-7.34953 -45.8174 15.8683 0.303561 0.335509 -0.891785
-6.64365 -46.1635 15.9794 0.29351 0.332573 -0.896241
-5.62183 -46.7413 16.0996 0.297446 0.329607 -0.896025
-4.78986 -47.3347 16.1631 0.302671 0.322423 -0.896891
-4.17464 -47.8305 16.1957 0.307714 0.315391 -0.897674
-3.44467 -47.8094 16.4564 0.301368 0.310308 -0.901533
-2.78024 -47.5008 16.775 0.291446 0.308547 -0.90546
-1.7519 -47.1362 17.2308 0.282043 0.302461 -0.910388
-1.23104 -46.6527 17.542 0.272459 0.295873 -0.915546
-0.248285 -45.8864 18.0821 0.270222 0.296593 -0.915973
0.832561 -46.4613 18.2117 0.26798 0.297308 -0.916403
2.12332 -47.2597 18.3204 0.247182 0.28708 -0.925443
3.17839 -48.4137 18.266 0.258881 0.273213 -0.926446
4.3696 -49.2981 18.3363 0.267196 0.268777 -0.925332
5.13424 -49.3132 18.531 0.223884 0.254492 -0.940803
6.52722 -48.9463 18.9617 0.223882 0.254491 -0.940803
7.34888 -48.1819 19.3465 0.199657 0.245263 -0.948636
7.96647 -47.1799 19.7245 0.195875 0.238131 -0.951276
7.82858 -45.9893 20.0059 0.176368 0.23879 -0.954771
7.49347 -45.2158 20.1319 0.16465 0.227667 -0.959718
6.86414 -44.3388 20.232 0.16465 0.227668 -0.959718
6.06919 -43.763 20.2408 0.159658 0.250662 -0.954798
5.28768 -43.595 20.1446 0.180412 0.261105 -0.948302
4.47014 -43.3681 20.0515 0.180412 0.261104 -0.948302
3.61876 -42.7436 20.0453 0.193393 0.252659 -0.948031
2.78247 -42.506 19.9381 0.193321 0.251416 -0.948375
1.97746 -42.7752 19.6629 0.232844 0.28066 -0.931136
1.18367 -42.8202 19.4509 0.2421 0.286255 -0.926991
0.733769 -41.2835 19.7955 0.253664 0.280048 -0.925866
0.828316 -39.9889 20.1963 0.20455 0.271041 -0.940577
1.48259 -39.4235 20.4987 0.203468 0.268183 -0.941636
2.45209 -38.9316 20.8483 0.187665 0.265507 -0.945524
3.10272 -38.1855 21.1459 0.147274 0.238799 -0.959727
3.63229 -37.6228 21.3737 0.143373 0.252417 -0.956938
4.38966 -36.5969 21.7578 0.143373 0.252417 -0.956938
4.38607 -35.7374 21.9606 0.128087 0.226756 -0.965492
4.50553 -34.995 22.1508 0.128087 0.226755 -0.965493
4.5402 -34.1937 22.3481 0.115318 0.235104 -0.965102
4.64362 -33.3364 22.5672 0.114598 0.232957 -0.965711
4.52078 -32.3563 22.789 0.110912 0.238819 -0.964684
4.18431 -31.6925 22.9192 0.102698 0.240072 -0.965308
3.85365 -30.9228 23.0766 0.0997639 0.247723 -0.963681
3.59036 -29.9957 23.2876 0.0997644 0.247723 -0.963681
3.29156 -29.1084 23.4753 0.0856208 0.238878 -0.967232
2.59971 -28.5122 23.5662 0.092458 0.245677 -0.964932
1.70194 -28.1046 23.5839 0.0924576 0.245677 -0.964932
1.30412 -27.8069 23.6216 0.0863483 0.251464 -0.96397
1.17748 -29.4573 23.1868 0.093187 0.256473 -0.962049
0.0473529 -29.2851 23.1232 0.110659 0.265356 -0.957568
-0.542073 -30.3281 22.7439 0.128131 0.274238 -0.953088
-1.16223 -31.5468 22.3098 0.127418 0.276345 -0.952572
-1.48162 -32.5755 21.9525 0.154309 0.288073 -0.945094
-1.43301 -33.4678 21.6884 0.15431 0.288073 -0.945094
-1.55469 -34.4914 21.3312 0.16132 0.310299 -0.936851
-1.62982 -35.3167 21.0687 0.184017 0.28264 -0.941403
-1.48968 -36.099 20.8582 0.184559 0.286042 -0.940275
-1.01938 -37.355 20.5684 0.191062 0.27696 -0.941627
-0.373412 -37.8366 20.5669 0.198025 0.27094 -0.942002
-0.626831 -38.5541 20.3046 0.212624 0.285531 -0.934283
0.707463 -38.3005 20.6599 0.198485 0.274002 -0.941024
1.93545 -37.5123 21.1428 0.174145 0.258573 -0.949806
2.60505 -36.6433 21.4747 0.150724 0.249267 -0.956634
3.00095 -35.9191 21.7258 0.150751 0.248201 -0.956906
3.07605 -35.1122 21.946 0.133408 0.242193 -0.960836
3.1077 -33.6992 22.2974 0.115318 0.235104 -0.965102
2.91249 -32.5853 22.5519 0.103908 0.245995 -0.963679
2.67809 -31.811 22.7261 0.100589 0.247309 -0.963701
2.42395 -31.083 22.8864 0.100617 0.247649 -0.963611
2.16437 -30.19 23.0892 0.100644 0.247987 -0.963521
1.67563 -29.7419 23.1591 0.093187 0.256472 -0.962049
0.95675 -30.9769 22.7585 0.134594 0.274577 -0.952058
0.036278 -31.8953 22.3674 0.126704 0.278453 -0.952056
-0.228914 -33.39 21.8949 0.134594 0.274577 -0.952058
-0.248082 -34.1702 21.6773 0.164809 0.2645 -0.949873
-0.287851 -35.314 21.3307 0.183474 0.279238 -0.94253
0.278956 -36.502 21.0828 0.191062 0.27696 -0.941627
1.37004 -36.2628 21.3793 0.174145 0.258573 -0.949806
1.69947 -35.0145 21.7544 0.148463 0.248449 -0.957196
1.76716 -33.6074 22.1319 0.144314 0.260231 -0.954638
1.51882 -32.7184 22.3475 0.142483 0.270701 -0.952061
1.08536 -32.3089 22.399 0.142483 0.270701 -0.952061
-0.68259 -41.0809 19.4754 0.226541 0.301312 -0.926224
-1.9639 -41.6491 18.9772 0.239302 0.302206 -0.922621
-3.17821 -41.4854 18.6981 0.252064 0.303099 -0.919019
-4.04938 -41.4949 18.456 0.255015 0.308609 -0.916341
-5.35686 -41.6212 18.0362 0.261034 0.321179 -0.910332
-6.25013 -42.0581 17.626 0.273279 0.327537 -0.904329
-6.55948 -42.9285 17.2041 0.285524 0.333896 -0.898326
-6.64879 -44.7351 16.5042 0.288698 0.330012 -0.898733
-5.73411 -45.2083 16.6295 0.291871 0.326128 -0.89914
-4.92446 -45.6443 16.7342 0.284373 0.32562 -0.901688
-4.17822 -46.1401 16.7957 0.28375 0.311298 -0.906962
-3.42486 -46.1617 17.0245 0.291627 0.309053 -0.905229
-2.80515 -45.7178 17.3757 0.282043 0.302463 -0.910388
-1.69669 -45.2193 17.8667 0.272459 0.295873 -0.915547
-0.363082 -44.7993 18.4034 0.262003 0.298048 -0.917799
0.319955 -44.2827 18.7531 0.251686 0.291691 -0.922806
0.601136 -45.0006 18.6027 0.252394 0.289031 -0.923444
1.64298 -45.5073 18.7315 0.253431 0.286211 -0.924044
2.50263 -45.9534 18.8248 0.240932 0.287951 -0.926842
3.20685 -46.4559 18.8518 0.240932 0.287951 -0.926842
4.19409 -47.5539 18.7953 0.256715 0.26829 -0.928503
5.50084 -47.8735 19.0151 0.21498 0.265669 -0.939789
6.24748 -47.5423 19.2795 0.210403 0.258581 -0.942755
6.25352 -45.9176 19.7129 0.196956 0.250703 -0.947773
5.26774 -44.9945 19.7438 0.193148 0.261863 -0.945438
4.43038 -44.7347 19.6587 0.180471 0.272236 -0.945155
3.24805 -44.2244 19.5381 0.228387 0.278531 -0.93287
2.395 -43.9084 19.4258 0.230001 0.281266 -0.931655
1.3677 -44.2671 19.0434 0.251356 0.29185 -0.922845
0.548675 -43.7576 18.9815 0.251685 0.29169 -0.922806
-0.339825 -42.7505 19.057 0.252014 0.29153 -0.922767
-0.532628 -41.3176 19.4382 0.253665 0.280049 -0.925866
-0.527685 -41.173 19.4833 0.240103 0.29068 -0.926044
-1.97622 -43.0838 18.4951 0.264979 0.309343 -0.913247
-1.63775 -43.9726 18.2994 0.271991 0.304566 -0.912831
-2.31884 -44.2411 18.0069 0.271992 0.304566 -0.912831
-3.60865 -43.959 17.7333 0.264625 0.315465 -0.911265
-3.90516 -44.6413 17.4069 0.274078 0.320961 -0.906551
-4.60729 -44.5238 17.2342 0.276874 0.325113 -0.904236
-5.1954 -43.734 17.3381 0.274078 0.32096 -0.906551
-4.55997 -43.4 17.6442 0.271283 0.316808 -0.908866
-3.95746 -42.7795 18.0403 0.264626 0.315464 -0.911265
-2.7305 -43.2729 18.2171 0.257967 0.314119 -0.913664
-1.06438 -51.6868 15.9641 0.306641 0.291698 -0.906027
0.0952745 -51.7813 16.3262 0.314678 0.284546 -0.905481
1.46629 -52.4831 16.5552 0.289447 0.271003 -0.918029
2.38947 -53.5111 16.5428 0.293506 0.265029 -0.918456
2.97931 -54.2782 16.5175 0.287849 0.259678 -0.921741
3.82957 -55.3883 16.4608 0.280413 0.256584 -0.92494
3.78749 -56.349 16.1854 0.287335 0.261057 -0.921512
3.40393 -57.4541 15.7391 0.29198 0.269246 -0.917744
2.93932 -58.3092 15.3405 0.305063 0.267705 -0.913828
2.3814 -59.0232 14.9429 0.322931 0.25152 -0.912389
1.44276 -59.5268 14.4718 0.32293 0.251522 -0.912388
0.729058 -59.7819 14.1427 0.347461 0.25686 -0.901824
-0.108747 -59.43 13.924 0.343987 0.269593 -0.89944
-0.770843 -58.9748 13.8072 0.34399 0.269591 -0.89944
-1.7272 -58.413 13.62 0.336965 0.276507 -0.899999
-2.94963 -57.5384 13.4047 0.357611 0.279566 -0.891043
-3.23778 -56.3783 13.6636 0.348473 0.290621 -0.89112
-3.44719 -55.4747 13.8799 0.34821 0.293729 -0.890209
-3.49853 -54.6558 14.13 0.340995 0.288791 -0.894554
-2.90261 -53.6597 14.6788 0.326508 0.300256 -0.896236
-2.38684 -52.0785 15.3864 0.322905 0.294534 -0.899434
-1.85903 -51.918 15.6208 0.306641 0.291697 -0.906027
-0.685256 -53.0939 15.6455 0.322715 0.277395 -0.904935
-1.58765 -53.921 15.0701 0.323248 0.282237 -0.903231
-2.14689 -54.9093 14.5518 0.33378 0.283853 -0.898898
-2.11738 -55.8089 14.2787 0.32878 0.285467 -0.900213
-1.68715 -56.7006 14.1611 0.335725 0.273613 -0.901339
-0.934478 -57.3812 14.2338 0.336962 0.276507 -0.9
0.00197875 -57.9181 14.4195 0.340477 0.273048 -0.89972
1.03186 -57.9414 14.7811 0.317743 0.264161 -0.910634
2.21061 -56.9565 15.4814 0.318146 0.266164 -0.909912
2.45241 -56.2222 15.7807 0.31382 0.272432 -0.909527
2.17444 -55.2976 15.9695 0.303528 0.268877 -0.914013
1.25007 -54.2439 15.9672 0.293506 0.265028 -0.918456
0.702922 -53.6526 15.9693 0.306082 0.274198 -0.911482
0.334984 -53.323 15.9391 0.322715 0.277394 -0.904935
-0.519855 -54.7771 15.181 0.32378 0.28708 -0.901527
0.67791 -55.5651 15.378 0.321991 0.27471 -0.905911
0.965331 -56.3453 15.2367 0.309494 0.278698 -0.909143
0.113093 -56.3541 14.9321 0.334488 0.27072 -0.902678
-0.743396 -55.7971 14.7818 0.334488 0.27072 -0.902678
-0.954732 -55.368 14.8367 0.32378 0.28708 -0.901527
-24.4439 19.6655 39.7326 -0.121693 0.390098 -0.91262
-25.199 19.8409 39.9009 -0.111367 0.395684 -0.911609
-25.8623 20.2456 40.1584 -0.112901 0.396662 -0.910996
-26.3295 21.0525 40.5701 -0.112937 0.401324 -0.908947
-25.9435 22.4783 41.1517 -0.112942 0.40133 -0.908944
-24.9962 22.8371 41.1702 -0.136895 0.39301 -0.909287
-23.8092 22.4139 40.8086 -0.136897 0.393009 -0.909287
-23.2666 21.588 40.3755 -0.132344 0.389051 -0.91166
-23.4892 20.5632 39.9724 -0.132026 0.384515 -0.913629
-24.0319 20.0191 39.8219 -0.132025 0.384514 -0.913629
7.01623 40.7952 38.5708 -0.240768 0.146505 -0.959459
6.76375 41.4979 38.7431 -0.248623 0.14831 -0.957155
6.67262 42.4324 38.9098 -0.255624 0.142299 -0.956247
6.68007 43.2031 39.0225 -0.253972 0.140165 -0.956997
6.7829 44.1571 39.1329 -0.253865 0.136987 -0.957488
7.50277 44.9307 39.0507 -0.255416 0.13595 -0.957225
8.3069 45.3658 38.9057 -0.241752 0.133005 -0.961177
9.19863 45.4372 38.693 -0.240065 0.133839 -0.961486
10.8318 45.3146 38.2681 -0.236161 0.130837 -0.962852
11.7455 44.5226 37.943 -0.232257 0.127835 -0.964217
12.2938 43.1648 37.6309 -0.231977 0.133188 -0.963545
12.0944 42.1652 37.5399 -0.227034 0.132685 -0.964806
11.7729 41.2395 37.4852 -0.225244 0.145377 -0.963395
11.2326 40.3468 37.4768 -0.227938 0.14375 -0.963
10.5262 39.8752 37.5754 -0.228241 0.152277 -0.961622
9.36109 39.5959 37.8077 -0.228241 0.152278 -0.961622
8.0357 39.7219 38.1485 -0.237041 0.151903 -0.959548
7.43618 40.1807 38.371 -0.238515 0.153428 -0.958942
7.25888 40.4538 38.4588 -0.238946 0.149182 -0.959495
8.33423 41.376 38.3299 -0.236568 0.145996 -0.960579
8.00762 42.1393 38.5258 -0.242446 0.140408 -0.95995
8.01517 43.1739 38.6757 -0.241783 0.14084 -0.960055
8.98232 43.859 38.5273 -0.241754 0.133005 -0.961177
9.75593 43.8842 38.3376 -0.236161 0.130837 -0.962852
10.7731 43.3147 38.0171 -0.232257 0.127835 -0.964217
10.8104 42.4005 37.8779 -0.231697 0.138544 -0.962872
10.4773 41.668 37.8527 -0.233524 0.137051 -0.962641
