-25.2801 52.6656 60.3335 0.719919 0.119298 0.679065
-25.4545 51.5114 60.6424 0.720886 0.01817 0.691083
-25.4545 51.5114 60.6424 0.720886 0.01817 0.691083
-25.9044 51.9611 61.038 0.662713 0.142677 0.735156
-26.5314 52.5744 61.4406 0.619119 0.171664 0.766305
-27.1555 53.221 61.7397 0.521845 0.206231 0.827329
-26.6166 53.8005 61.2087 0.620728 0.19538 0.759291
-25.7477 53.7241 60.5062 0.631199 0.200938 0.749141
-25.3602 53.0826 60.3229 0.666168 0.146529 0.731266
-25.2999 52.8426 60.3161 0.666168 0.146528 0.731265
-24.2169 52.4125 59.1387 0.728283 0.0670468 0.681989
-24.1991 51.2743 59.1968 0.762879 0.00803877 0.64645
-24.2504 50.2682 59.259 0.761071 0.00123417 0.648668
-24.3053 48.8906 59.326 0.776492 -0.0344363 0.627632
-24.3854 47.5926 59.2242 0.782271 -0.0992433 0.614982
-24.4866 46.2889 59.1425 0.793236 -0.141429 0.590133
-24.6318 45.5525 58.9875 0.78157 -0.28772 0.551828
-24.7573 44.7987 58.7857 0.808337 -0.274074 0.521032
-24.8711 43.9023 58.4906 0.798322 -0.298011 0.522682
-25.2793 43.1256 58.5932 0.790487 -0.376632 0.482988
-25.8682 42.4485 59.029 0.765556 -0.412411 0.491795
-26.3426 41.8937 59.2342 0.740625 -0.448192 0.500598
-26.715 41.7246 59.6617 0.774284 -0.465207 0.42903
-26.3086 42.5871 59.8636 0.786787 -0.403622 0.461572
-25.8679 43.5014 59.7457 0.812945 -0.319781 0.486683
-25.5646 44.2802 59.7653 0.798322 -0.298012 0.522681
-25.4148 45.1086 59.9668 0.807268 -0.272674 0.523419
-24.9299 46.0202 59.6938 0.806723 -0.197738 0.551103
-25.2493 46.4611 60.2322 0.80618 -0.122802 0.578787
-25.2133 47.2858 60.3916 0.773581 -0.0913688 0.622518
-25.4204 48.3245 60.6569 0.764957 0.00943992 0.643981
-25.6379 49.1409 60.8946 0.76568 0.01549 0.643028
-25.8559 49.826 61.1393 0.742005 0.0513795 0.666464
-26.2233 50.4187 61.4558 0.717928 0.0539395 0.694025
-26.6275 50.9727 61.8309 0.717928 0.0539369 0.694025
-27.1349 51.4754 62.1265 0.595594 0.158149 0.787564
-27.6678 51.9069 62.4332 0.45818 0.233702 0.857269
-28.3364 52.2598 62.6774 0.44742 0.254381 0.857383
-28.9925 52.5884 62.9172 0.296105 0.296514 0.903575
-29.2482 53.3409 62.7044 0.22305 0.333375 0.916029
-28.9381 53.9486 62.3598 0.296871 0.311194 0.901586
-28.2103 54.9275 61.847 0.363347 0.275224 0.885947
-27.5769 55.1957 61.4089 0.453809 0.309355 0.835677
-26.9061 55.3058 60.9574 0.511754 0.239982 0.820916
-26.0538 55.3774 60.3461 0.639742 0.207561 0.73997
-25.1876 55.2755 59.6183 0.641128 0.19969 0.740999
-24.6375 54.8258 59.2636 0.641127 0.199691 0.741
-24.256 53.4927 59.0743 0.730053 0.0854888 0.677756
-24.2453 53.3918 59.0728 0.728283 0.0670472 0.681989
-23.1024 53.0798 57.8881 0.708656 0.0166454 0.705069
-23.141 52.0572 57.9229 0.734486 0.0062042 0.677072
-23.1619 50.6023 57.9812 0.762878 0.00803852 0.64645
-23.2531 49.3422 58.0045 0.791912 -0.0701056 0.606598
-23.3446 48.0625 57.9761 0.787092 -0.084675 0.61079
-23.4099 47.2811 57.9331 0.793236 -0.141429 0.590133
-23.5982 45.9036 57.7535 0.804201 -0.183615 0.565285
-23.7917 44.5707 57.3913 0.756123 -0.308469 0.577098
-24.0552 43.3094 57.0441 0.757444 -0.31557 0.571571
-24.6541 42.4569 57.2184 0.716059 -0.386547 0.581241
-25.2653 41.6898 57.4613 0.716028 -0.411455 0.563079
-26.0179 40.9656 57.8013 0.717901 -0.536736 0.44332
-26.7256 40.3514 58.2037 0.717901 -0.536737 0.443319
-27.6321 39.7718 58.6294 0.615038 -0.640986 0.459201
-28.2804 39.2018 58.7021 0.64089 -0.640694 0.420217
-29.003 38.5413 58.4119 0.473106 -0.760805 0.444237
-29.5729 37.936 57.9822 0.363994 -0.813542 0.436941
-30.0675 37.3631 57.1788 0.274435 -0.84312 0.462423
-30.3782 36.8415 56.4123 0.269231 -0.842179 0.467119
-31.1965 36.5811 56.2253 0.144479 -0.863112 0.481796
-32.0485 36.8158 56.9884 0.0959185 -0.873613 0.472608
-32.799 37.4146 58.0752 0.0390468 -0.863563 0.502727
-33.3531 37.8222 58.8184 0.0213792 -0.899902 0.427034
-33.9941 38.4888 59.9915 -0.352804 -0.843913 0.404153
-33.9311 38.8405 60.7809 -0.352804 -0.843913 0.404153
-33.5463 39.1052 61.6345 -0.376549 -0.802095 0.463524
-32.3575 38.8682 61.8027 -0.125714 -0.986027 0.109304
-31.4244 38.7123 61.4692 0.174393 -0.930697 0.100964
-30.6303 38.9807 61.2848 0.310127 -0.93101 0.192463
-29.8034 39.2579 61.293 0.514656 -0.797997 0.196942
-28.992 39.8879 61.0634 0.591814 -0.746073 0.305175
-28.4581 40.4276 61.0324 0.700745 -0.604256 0.376951
-27.937 41.0573 61.1395 0.722552 -0.544864 0.414748
-27.514 41.8493 61.2371 0.772778 -0.450468 0.446509
-27.0241 42.7995 61.19 0.825745 -0.344783 0.446396
-26.6831 43.5777 61.1602 0.826729 -0.31984 0.461907
-26.4214 44.4358 61.1844 0.812635 -0.264065 0.519513
-26.1897 45.2721 61.247 0.809952 -0.268372 0.521463
-26.173 46.1701 61.4361 0.790374 -0.106971 0.603213
-26.2066 46.9699 61.622 0.790374 -0.106971 0.603213
-26.3678 47.7678 61.8426 0.774976 0.0406891 0.630679
-26.6346 48.7914 62.0953 0.752936 0.0795475 0.652505
-26.9492 49.453 62.3421 0.746744 0.11034 0.655895
-27.5334 50.1593 62.7124 0.595189 0.265484 0.758465
-28.0785 50.6065 62.982 0.502307 0.266281 0.822487
-28.7864 50.978 63.3074 0.438449 0.284209 0.848586
-29.6165 51.2488 63.5575 0.358976 0.313927 0.878913
-30.5004 51.3553 63.766 0.217063 0.379127 0.899526
-31.4805 51.2013 63.9618 -0.0282967 0.373029 0.927164
-31.5242 52.0084 63.6509 0.0252891 0.386054 0.920751
-31.3798 52.9311 63.2205 0.0657201 0.413392 0.908178
-30.853 53.6852 62.8913 0.106784 0.374451 0.919824
-30.4355 54.3673 62.5286 0.144183 0.360002 0.921111
-30.1206 55.1685 62.1997 0.138031 0.329078 0.93416
-29.7961 55.9383 61.8806 0.18332 0.33421 0.923311
-29.0493 56.3949 61.4855 0.28785 0.310694 0.905876
-28.2141 56.6662 61.127 0.331494 0.329899 0.882298
-27.1631 56.7431 60.6737 0.303673 0.433573 0.848408
-26.5393 56.7856 60.1963 0.594768 0.316108 0.737193
-25.5685 56.8864 59.4404 0.571001 0.281975 0.771005
-24.7423 56.75 58.7714 0.617155 0.227655 0.752342
-23.9645 56.1962 58.325 0.634896 0.186658 0.747756
-23.3383 55.0576 57.927 0.678547 0.07459 0.73076
-23.0815 53.5416 57.8433 0.695787 0.0551582 0.715492
-21.8371 53.5714 56.5746 0.713027 0.0357245 0.700226
-21.8992 52.5006 56.6925 0.708656 0.0166472 0.705069
-21.9108 51.6141 56.7009 0.71785 -0.027008 0.694946
-22.0577 50.0754 56.7421 0.731413 -0.0515882 0.679981
-22.1924 49.0794 56.7752 0.721304 -0.0804352 0.687932
-22.2647 48.3268 56.763 0.734676 -0.11724 0.666726
-22.445 47.3952 56.7497 0.738168 -0.176362 0.650678
-22.6109 45.8731 56.4728 0.728289 -0.19868 0.655836
-22.7347 44.8993 56.2569 0.721825 -0.290899 0.626522
-22.9882 43.5047 55.8145 0.701902 -0.328162 0.632174
-23.1593 42.6033 55.5122 0.678813 -0.401846 0.612136
-23.6596 42.0226 55.6179 0.683294 -0.442692 0.578691
-24.3939 41.1933 55.9186 0.715997 -0.436363 0.544917
-25.1119 40.4783 56.1489 0.639508 -0.527997 0.558793
-25.9157 39.8433 56.4688 0.630722 -0.554627 0.541759
-26.6037 39.4218 56.7663 0.588269 -0.634489 0.499144
-27.6088 38.7144 57.1296 0.616081 -0.638419 0.461373
-28.4836 37.9498 56.9048 0.453102 -0.762555 0.461745
-28.818 37.1351 55.9515 0.461585 -0.745827 0.480293
-28.9648 36.6553 55.2892 0.275151 -0.828056 0.487914
-29.2727 36.0631 54.5359 0.266659 -0.804465 0.530781
-29.6573 35.5647 53.9737 0.266659 -0.804466 0.530781
-30.3921 35.0131 53.6186 0.302867 -0.75618 0.580055
-31.4118 35.1197 54.0335 0.146744 -0.787875 0.598096
-32.3934 35.5797 55.0097 0.172811 -0.814024 0.554528
-32.9328 36.0824 55.8315 0.00107741 -0.813835 0.58013
-33.6731 36.6453 56.7078 -0.0322417 -0.875765 0.48166
-34.3209 37.0618 57.4218 -0.0322423 -0.875765 0.48166
-34.7636 37.6373 58.1939 -0.211025 -0.802746 0.557735
-35.1522 38.1416 58.8091 -0.200669 -0.833174 0.515319
-35.5681 38.8153 59.7363 -0.20067 -0.833175 0.515316
-35.6462 39.3998 60.436 -0.403727 -0.705617 0.582317
-35.1713 39.89 61.4604 -0.495236 -0.707689 0.503903
-35.021 40.3612 62.2698 -0.495235 -0.70769 0.503902
-35.1277 40.9533 62.802 -0.504275 -0.611944 0.609287
-35.0761 41.4154 63.2649 -0.565614 -0.349449 0.745148
-34.717 41.8765 63.7064 -0.558172 -0.302505 0.772616
-34.7939 42.4654 63.8814 -0.566226 -0.205266 0.792058
-34.6915 43.1536 64.0455 -0.574284 -0.108029 0.811497
-34.9901 43.8179 63.9409 -0.548371 -0.103324 0.829295
-34.7211 44.6142 64.1579 -0.508113 -0.030697 0.860743
-34.4341 45.3828 64.3548 -0.508153 -0.0174679 0.860988
-34.6952 46.0326 64.2039 -0.508195 -0.00434466 0.861231
-34.8086 46.7945 64.1324 -0.46062 0.113334 0.880332
-34.8943 47.7301 63.9671 -0.460623 0.113329 0.880331
-34.7933 48.4821 63.9635 -0.428194 0.0802493 0.899161
-34.6011 49.3026 63.9469 -0.354681 0.129167 0.924396
-34.3342 50.1478 63.8729 -0.281595 0.196728 0.93915
-33.9465 50.9785 63.7866 -0.158195 0.291056 0.942847
-33.5114 51.9653 63.5197 -0.1004 0.315496 0.943261
-33.1912 52.7762 63.2594 -0.0845624 0.334711 0.938519
-32.6906 54.1429 62.8474 -0.00723674 0.33297 0.939568
-32.2237 54.71 62.5974 0.0693201 0.354101 0.932634
-31.8191 55.4865 62.2981 0.050611 0.321363 0.945603
-31.6422 56.2659 62.0237 0.0505937 0.321436 0.945579
-31.2631 56.9491 61.7712 0.0976573 0.316287 0.94243
-30.1878 57.6176 61.3191 0.186386 0.35067 0.917764
-29.0546 58.16 60.8817 0.237118 0.330682 0.91182
-28.0197 58.193 60.4185 0.376596 0.353509 0.856275
-27.0486 58.2363 59.9735 0.376596 0.353508 0.856275
-26.0392 58.3531 59.2061 0.555105 0.322989 0.766509
-25.0911 58.3955 58.5977 0.548931 0.231685 0.800901
-24.093 58.086 57.9133 0.595859 0.203987 0.77675
-23.4799 57.6678 57.5564 0.605268 0.151021 0.779636
-22.7643 56.6492 57.1069 0.630455 0.103364 0.769313
-22.1409 55.5326 56.7667 0.676526 0.118361 0.725504
-21.8118 53.9549 56.5292 0.713028 0.0357241 0.700225
-27.5783 48.4144 63.2502 0.73649 0.1911 0.646003
-28.0443 49.0691 63.5106 0.664188 0.268526 0.694508
-28.7126 49.553 63.7807 0.542006 0.374759 0.752187
-29.4993 49.8848 64.0686 0.342469 0.480853 0.807152
-30.4958 49.93 64.3932 0.197352 0.441982 0.875023
-31.2302 49.7157 64.6276 -0.0330294 0.422369 0.905822
-32.1348 48.9455 64.6807 -0.184727 0.267675 0.945635
-32.9048 48.1497 64.8024 -0.270003 0.27049 0.916201
-33.3915 47.5173 64.7543 -0.379505 0.223859 0.897699
-33.7203 46.8566 64.6753 -0.446032 0.109627 0.888278
-33.6928 46.0687 64.7427 -0.443352 0.0531683 0.894769
-33.6672 45.255 64.8207 -0.519762 0.0761994 0.850166
-33.9683 44.0379 64.648 -0.581875 0.0254567 0.81288
-33.8444 43.1432 64.6442 -0.582492 -0.121064 0.803771
-33.7133 41.9707 64.4684 -0.590297 -0.24271 0.766812
-33.6591 41.1916 64.3255 -0.622421 -0.182927 0.761005
-33.5041 40.4355 63.7627 -0.561474 -0.626215 0.540926
-32.6506 39.5398 63.5215 -0.534782 -0.620883 0.57316
-31.9232 38.9914 63.4135 -0.314157 -0.878653 0.249921
-31.1734 39.0184 63.076 0.474499 -0.87537 0.0926232
-30.0128 39.525 62.9226 0.514652 -0.798 0.196943
-29.2806 40.3536 62.706 0.766022 -0.571152 0.291312
-28.7431 40.9683 62.627 0.75369 -0.573802 0.317952
-28.1698 42.0502 62.6774 0.842446 -0.416255 0.342076
-27.7378 42.862 62.583 0.883541 -0.289743 0.352021
-27.4679 43.675 62.6002 0.851348 -0.303847 0.42765
-27.2783 44.515 62.7099 0.84951 -0.195838 0.488682
-27.0884 45.4365 62.7954 0.844892 -0.126533 0.511355
-27.0536 46.2669 62.7927 0.856684 -0.0342657 0.514702
-27.2705 47.3216 63.0036 0.792073 0.0791686 0.60527
-27.5392 48.3103 63.2256 0.77578 0.1073 0.620777
-30.4379 38.5548 59.9111 0.31571 -0.870845 0.376571
-30.6854 38.0413 58.8982 0.290401 -0.881689 0.371875
-31.2053 37.8342 58.8278 0.157911 -0.907564 0.356046
-31.5402 38.0786 59.4825 0.00370934 -0.93624 0.351341
-31.3183 38.2571 59.9559 0.157913 -0.907563 0.356049
-30.6541 38.4906 59.9501 0.318575 -0.874899 0.364675
-20.2046 39.1697 50.6321 0.540312 -0.4234 0.727183
-20.3807 38.3304 50.2743 0.509012 -0.459365 0.726372
-20.4283 36.7234 49.353 0.440682 -0.441431 0.780986
-19.8329 35.8314 48.5472 0.396452 -0.412534 0.819073
-19.2614 35.3791 48.0843 0.380149 -0.381751 0.842468
-17.6162 34.7489 47.0564 0.385675 -0.379243 0.841065
-16.7407 35.2145 46.8755 0.342211 -0.349859 0.872061
-16.0195 35.6911 46.7837 0.342209 -0.349859 0.872062
-15.1779 36.1017 46.6182 0.342209 -0.34986 0.872061
-14.2562 36.3636 46.3303 0.369051 -0.325204 0.870657
-12.9824 36.308 45.7992 0.348418 -0.324721 0.879296
-11.8035 36.3246 45.3732 0.319554 -0.293013 0.901109
-10.8702 36.439 45.0856 0.326359 -0.27779 0.903288
-9.84115 37.3996 44.9787 0.338499 -0.262125 0.903719
-9.0931 38.7066 45.0746 0.349108 -0.246808 0.903844
-8.59429 39.464 45.0723 0.360284 -0.234595 0.902863
-8.26032 40.268 45.148 0.349181 -0.234571 0.907143
-8.52333 41.3222 45.5082 0.360738 -0.218127 0.906801
-9.05885 41.9819 45.8799 0.374728 -0.23193 0.897392
-9.73784 42.6208 46.354 0.388718 -0.245734 0.887983
-10.6985 43.5416 46.9921 0.41662 -0.215577 0.882726
-11.8146 43.2637 47.4848 0.425947 -0.244345 0.870765
-12.8312 42.9793 47.879 0.41226 -0.26545 0.871538
-13.9816 42.629 48.362 0.441299 -0.257838 0.85952
-15.3335 42.4604 49.07 0.483911 -0.287455 0.826528
-16.2537 42.0781 49.4849 0.489688 -0.283859 0.824397
-17.0405 41.742 49.8366 0.483795 -0.31146 0.817367
-18.0091 41.4824 50.3396 0.509251 -0.345033 0.788426
-19.1935 40.6688 50.7486 0.509252 -0.345035 0.788424
-19.8384 39.9327 50.8044 0.540315 -0.423399 0.727182
-18.8298 38.8512 49.6085 0.453669 -0.409441 0.791544
-18.8148 37.6542 49.0069 0.451313 -0.393463 0.800939
-18.2376 36.894 48.3082 0.421418 -0.383577 0.820905
-17.2876 36.552 47.7123 0.391199 -0.376737 0.839662
-16.3701 36.9794 47.4767 0.391363 -0.375213 0.840266
-15.5405 37.324 47.2273 0.394668 -0.331889 0.855895
-14.2846 37.7127 46.8334 0.37032 -0.308837 0.876061
-13.5217 37.7682 46.5408 0.350053 -0.310841 0.883652
-12.3253 37.6537 46.0266 0.367615 -0.291847 0.882618
-11.3705 38.269 45.7999 0.361554 -0.265938 0.893205
-10.4286 39.9981 45.9431 0.349106 -0.24681 0.903844
-10.7917 41.191 46.4196 0.394381 -0.244235 0.885875
-11.8129 41.737 47.0318 0.400045 -0.242738 0.883766
-12.5885 41.451 47.3044 0.392079 -0.255171 0.88371
-13.6589 41.1338 47.7303 0.43623 -0.289324 0.852053
-14.7744 41.1401 48.3035 0.433817 -0.290826 0.852769
-15.6871 40.8553 48.6673 0.454653 -0.315695 0.831911
-16.5629 40.4944 49.0328 0.477902 -0.339062 0.810338
-18.0017 39.8572 49.6542 0.47939 -0.370598 0.794144
-18.3674 39.4145 49.6348 0.453669 -0.40944 0.791545
-16.121 39.256 48.3389 0.425209 -0.323635 0.844607
-15.1717 39.5634 47.9643 0.431403 -0.292328 0.853485
-13.9563 39.3338 47.2714 0.433817 -0.290825 0.852769
-12.4189 39.7805 46.7247 0.384111 -0.267601 0.883656
-13.7453 39.0235 47.071 0.367614 -0.291848 0.882618
-15.3212 38.9408 47.804 0.419015 -0.354941 0.835729
-16.0711 38.5768 48.0254 0.419015 -0.354941 0.835729
-12.1859 45.9822 48.3198 0.454744 -0.206931 0.86585
-12.5427 46.6868 48.6972 0.480247 -0.184872 0.856844
-13.1031 47.6834 49.1908 0.484827 -0.153792 0.860982
-13.3466 48.5502 49.4919 0.49103 -0.163282 0.855703
-13.6313 49.921 49.9191 0.485934 -0.146098 0.861442
-13.5239 50.8217 49.9902 0.482981 -0.125943 0.866526
-12.8665 51.9421 49.7866 0.477542 -0.130995 0.868754
-12.285 52.6705 49.5852 0.469924 -0.11351 0.875075
-11.6658 53.2014 49.3107 0.467745 -0.090974 0.879169
-10.5181 53.4938 48.7394 0.443078 -0.0956179 0.891207
-9.81067 53.1868 48.371 0.432014 -0.108742 0.895071
-8.87121 52.5439 47.8204 0.434934 -0.127864 0.891338
-8.20917 52.1812 47.4582 0.397513 -0.116795 0.910133
-7.40659 51.4434 47.013 0.397514 -0.116795 0.910133
-6.94358 50.9316 46.7309 0.40479 -0.139528 0.903702
-6.54176 50.0971 46.4221 0.40479 -0.139527 0.903702
-6.42105 49.2275 46.2399 0.375699 -0.144329 0.915307
-6.90534 48.3648 46.297 0.395476 -0.158272 0.904737
-7.49904 47.5574 46.4152 0.394515 -0.165223 0.903886
-8.13905 46.9673 46.5816 0.395167 -0.170667 0.902613
-9.27625 46.6125 47.0153 0.410812 -0.177616 0.894065
-10.0051 46.5525 47.3522 0.424822 -0.186053 0.885952
-11.158 46.276 47.8739 0.446641 -0.180058 0.876408
-11.3869 46.2241 47.9799 0.440229 -0.188987 0.877701
-11.1519 47.8093 48.1682 0.450046 -0.168962 0.876849
-9.75977 48.0697 47.5413 0.426144 -0.162813 0.889796
-8.75511 48.5451 47.1358 0.412725 -0.154132 0.897503
-8.25071 49.5458 47.0895 0.394806 -0.157151 0.905225
-8.70576 50.4974 47.4532 0.399798 -0.148338 0.904464
-9.96451 51.4559 48.2013 0.441386 -0.121698 0.889026
-11.1318 51.5351 48.7917 0.441385 -0.121698 0.889027
-11.6628 50.7423 48.9468 0.456744 -0.128873 0.880004
-11.9927 49.4165 48.8979 0.456009 -0.15103 0.877067
-11.7849 48.5617 48.6427 0.456009 -0.151029 0.877067
-11.6451 48.275 48.517 0.454924 -0.172508 0.873662
-8.64264 30.6701 42.5982 0.257303 -0.27377 0.926671
-9.78583 30.3817 42.8171 0.25887 -0.286364 0.922395
-10.8261 29.7388 42.9178 0.260124 -0.299167 0.917987
-11.3735 28.9335 42.797 0.250463 -0.311351 0.916694
-12.0579 27.3026 42.43 0.25046 -0.311355 0.916694
-11.7428 26.2863 42.0172 0.2089 -0.311651 0.926949
-10.6286 25.3499 41.4398 0.219762 -0.294863 0.929841
-9.77377 25.1263 41.1787 0.209549 -0.286202 0.934971
-8.83893 25.0582 40.949 0.209262 -0.283801 0.93577
-8.07323 25.0744 40.7884 0.205647 -0.272383 0.939893
-6.84782 25.817 40.7199 0.212689 -0.264191 0.940726
-5.6939 26.6642 40.7007 0.214578 -0.253325 0.943191
-5.71134 28.1547 41.0952 0.235201 -0.253516 0.938218
-6.23793 29.0863 41.4912 0.246291 -0.257882 0.934258
-6.66018 29.6955 41.7707 0.246315 -0.258043 0.934207
-7.31091 30.3624 42.1266 0.256312 -0.262632 0.930158
-8.34889 30.6504 42.5081 0.266285 -0.267068 0.926157
-8.95241 29.0534 42.1903 0.248297 -0.285456 0.925669
-8.07018 29.0186 41.9429 0.237304 -0.278388 0.930587
-7.46145 28.2734 41.5795 0.226311 -0.27132 0.935505
-7.43882 27.1116 41.2371 0.225709 -0.276049 0.934253
-8.27155 26.7505 41.3293 0.225107 -0.280779 0.933
-9.03585 26.6249 41.476 0.217474 -0.28469 0.933586
-10.1496 27.2443 41.9373 0.229933 -0.298726 0.926222
-10.1073 27.9854 42.1637 0.23018 -0.296329 0.926934
-9.70839 28.5192 42.2283 0.248297 -0.285456 0.925669
-4.35652 17.1755 37.8472 0.159818 -0.260719 0.95206
-5.12201 16.5996 37.8093 0.152922 -0.268131 0.951168
-5.73131 15.9631 37.7278 0.146128 -0.273751 0.950594
-6.38904 15.4511 37.6737 0.139332 -0.279372 0.95002
-6.84548 14.8261 37.5569 0.139096 -0.281159 0.949525
-6.86023 14.0651 37.3305 0.126485 -0.286711 0.949631
-6.90713 13.1199 37.0514 0.123441 -0.292046 0.948384
-6.7669 12.0382 36.7032 0.113976 -0.284895 0.951759
-6.24843 11.2405 36.4023 0.117046 -0.284546 0.951485
-5.67684 10.6307 36.1479 0.116544 -0.277635 0.953559
-4.88292 10.1147 35.9078 0.112973 -0.271075 0.955906
-3.59418 9.99901 35.7226 0.11328 -0.271063 0.955873
-2.46852 9.95514 35.5691 0.123427 -0.275903 0.953228
-1.49872 10.2089 35.5204 0.121825 -0.261105 0.957568
-0.912867 11.1105 35.676 0.136226 -0.252462 0.957969
-0.628523 11.9769 35.8639 0.136225 -0.252464 0.957969
-0.107602 13.2512 36.1212 0.137282 -0.248808 0.958774
0.298021 14.3171 36.3326 0.155005 -0.238788 0.958613
-0.438353 15.2961 36.7003 0.160035 -0.241402 0.957138
-1.20088 15.9671 36.997 0.160035 -0.241402 0.957138
-2.3652 16.8517 37.4247 0.162162 -0.2498 0.95462
-3.28025 17.0663 37.6341 0.159971 -0.250018 0.954935
-3.85026 17.1535 37.7525 0.16345 -0.253373 0.953447
-3.39472 15.489 37.2224 0.149436 -0.267643 0.951859
-2.33743 15.0383 36.938 0.1463 -0.258211 0.954945
-1.86455 14.4816 36.7141 0.148044 -0.258217 0.954676
-1.73913 13.3363 36.3872 0.14727 -0.254869 0.955695
-2.24851 12.1669 36.1415 0.134671 -0.257663 0.956786
-3.47422 11.6486 36.1752 0.128477 -0.25897 0.957268
-4.21723 11.9803 36.3668 0.123182 -0.277557 0.95275
-4.91322 12.3795 36.5722 0.126245 -0.270922 0.954287
-5.22965 13.6425 36.9727 0.126246 -0.270921 0.954287
-4.80577 14.6532 37.2069 0.139099 -0.281159 0.949525
-3.75936 15.4002 37.2547 0.149436 -0.267645 0.951859
-18.779 9.60665 37.0774 0.0684136 -0.35263 0.933259
-18.542 8.94389 36.8087 0.0639751 -0.360696 0.930487
-19.1176 7.94975 36.4707 0.0501157 -0.345759 0.936984
-19.7162 7.45674 36.319 0.0519504 -0.353134 0.934129
-20.6922 7.67887 36.457 0.0463877 -0.373508 0.926466
-21.5395 8.25999 36.7337 0.046387 -0.37351 0.926465
-22.0042 8.90451 37.0137 0.0588059 -0.368092 0.927891
-21.9861 9.60894 37.2977 0.0628616 -0.374642 0.925036
-21.6206 10.3556 37.5753 0.0646718 -0.370715 0.926481
-20.8464 10.6267 37.627 0.0664844 -0.366787 0.927926
-19.7172 10.5309 37.4954 0.0755143 -0.357787 0.9307
-19.2443 10.1321 37.3101 0.0684135 -0.35263 0.933259
-15.8031 1.61245 33.9812 0.02787 -0.337532 0.940865
-16.6636 1.26844 33.879 0.0305073 -0.348864 0.936677
-17.4973 0.655779 33.678 0.0305059 -0.348864 0.936677
-18.0854 -0.394888 33.2926 0.0106398 -0.354048 0.935137
-17.8921 -1.67576 32.8149 0.00593281 -0.348693 0.937218
-17.4436 -2.72534 32.4163 -0.00235345 -0.355583 0.934626
-16.6367 -3.32303 32.1935 0.00356953 -0.350327 0.93662
-15.7133 -3.63384 32.0737 0.00356953 -0.350327 0.93662
-14.4713 -3.87805 31.9842 -0.000301691 -0.337912 0.941163
-13.5559 -3.49278 32.1126 0.0101373 -0.325101 0.945625
-12.8203 -2.82336 32.3349 0.0101355 -0.325101 0.945625
-12.2627 -2.15376 32.5591 0.0155077 -0.324155 0.945861
-11.9248 -1.35494 32.8162 0.0318992 -0.315153 0.948468
-12.2815 0.053773 33.3081 0.037477 -0.320972 0.946347
-12.7919 0.856832 33.6007 0.0374763 -0.320975 0.946346
-13.8784 1.57627 33.8935 0.0370551 -0.331067 0.942879
-15.4348 1.65324 33.9817 0.0364347 -0.333222 0.942141
-15.3583 0.110641 33.4293 0.02787 -0.337532 0.940865
-16.3184 -0.415696 33.2595 0.0199285 -0.339687 0.940327
-16.2763 -1.59918 32.8213 0.0172162 -0.346696 0.937819
-14.9798 -2.29309 32.5574 0.00900074 -0.337801 0.941174
-13.6765 -1.44733 32.8341 0.0196511 -0.335798 0.941729
-13.9147 -0.511155 33.1633 0.0238631 -0.324327 0.945644
-14.1706 0.0290598 33.355 0.0298372 -0.329852 0.943523
-6.36946 -5.0705 31.4795 0.0178202 -0.292395 0.956131
-5.66797 -4.12341 31.7485 0.0270988 -0.290646 0.956447
-4.93209 -3.26047 31.9774 0.0334754 -0.28025 0.959343
-4.02109 -2.99318 32.0237 0.0383093 -0.281482 0.958788
-3.05315 -3.2845 31.8893 0.057669 -0.26856 0.961535
-2.12899 -3.74557 31.705 0.0585128 -0.268821 0.961411
-1.51307 -4.55872 31.4415 0.0584723 -0.264698 0.962557
-1.02854 -5.43186 31.172 0.0584722 -0.264698 0.962557
-0.835789 -6.19895 30.9493 0.0501528 -0.270765 0.961282
-1.08257 -7.36163 30.6371 0.0308808 -0.26507 0.963734
-1.43042 -8.22475 30.4109 0.0308809 -0.26507 0.963734
-1.55654 -9.14166 30.1632 0.0309135 -0.264388 0.963921
-1.11929 -10.5745 29.7562 0.0309137 -0.264388 0.963921
-0.208954 -10.926 29.6447 0.0165323 -0.253826 0.967109
1.08011 -11.2157 29.5466 0.016532 -0.253825 0.967109
2.15449 -11.8236 29.3717 0.0120979 -0.242312 0.970103
3.11715 -12.7415 29.1279 0.0330554 -0.233358 0.971829
3.98955 -13.781 28.8486 0.0330554 -0.233358 0.971829
4.28755 -14.9155 28.5838 0.021105 -0.223139 0.974556
4.57961 -15.9842 28.331 0.0206936 -0.224838 0.974176
4.7922 -17.4936 27.9873 0.012423 -0.218258 0.975812
4.73928 -18.8821 27.6766 0.0123844 -0.218779 0.975696
4.59325 -19.7817 27.4669 -0.0087693 -0.230524 0.973027
4.35413 -20.5132 27.2907 -0.00886348 -0.231343 0.972832
3.40246 -20.7994 27.214 -0.0193609 -0.236968 0.97125
2.39578 -21.1379 27.0983 -0.0298589 -0.242591 0.969669
1.53173 -20.9724 27.1131 -0.0280385 -0.244024 0.969361
0.631321 -20.3636 27.2404 -0.0354855 -0.249007 0.967851
0.054714 -19.8894 27.3413 -0.0354847 -0.249007 0.967851
-1.04683 -19.0412 27.5062 -0.0440793 -0.255206 0.965803
-2.23523 -18.0516 27.7277 -0.0380311 -0.269654 0.96219
-3.73466 -17.6258 27.7965 -0.0461908 -0.278502 0.959213
-5.10999 -17.3765 27.7857 -0.0591684 -0.284717 0.956784
-6.66867 -17.6036 27.6407 -0.053808 -0.29857 0.952805
-7.53012 -17.9151 27.4837 -0.0635206 -0.303441 0.950731
-9.02136 -17.3503 27.56 -0.0675765 -0.301366 0.951111
-9.9567 -16.7264 27.6879 -0.0824123 -0.317283 0.944738
-10.2315 -15.5733 28.051 -0.0611204 -0.311645 0.948231
-10.2383 -14.5231 28.3957 -0.0611199 -0.311645 0.948231
-9.80642 -13.5134 28.774 -0.0462292 -0.318441 0.946687
-9.05689 -12.2474 29.2117 -0.0362292 -0.307299 0.950923
-8.35573 -11.5944 29.4541 -0.0275148 -0.310374 0.950152
-7.42067 -11.4601 29.5118 -0.0143279 -0.298323 0.954345
-6.59515 -11.587 29.4878 -0.01751 -0.294671 0.955438
-5.48868 -11.4699 29.5442 -0.0175099 -0.294671 0.955438
-4.55758 -10.4043 29.8605 0.00621042 -0.282491 0.95925
-4.58582 -9.65336 30.0805 0.00608812 -0.280013 0.959977
-5.1334 -8.75977 30.3446 0.00690743 -0.280385 0.959862
-5.66816 -8.1202 30.5388 0.00852419 -0.291849 0.956426
-6.44657 -6.97755 30.8944 0.00852419 -0.29185 0.956426
-6.65931 -5.96439 31.2115 0.0171644 -0.295014 0.955334
-4.97818 -6.19619 31.1035 0.023661 -0.285862 0.957977
-4.54018 -5.40476 31.3302 0.0235171 -0.287248 0.957568
-3.67705 -4.93019 31.4396 0.0424082 -0.277125 0.959898
-2.95441 -5.20859 31.3273 0.0424081 -0.277125 0.959898
-2.44039 -6.28496 30.9944 0.0417364 -0.274153 0.960776
-2.63737 -7.39384 30.6899 0.0416391 -0.271478 0.961543
-3.35735 -8.05586 30.5159 0.0205502 -0.282298 0.959107
-4.32795 -7.50494 30.6989 0.0221786 -0.283388 0.958747
-4.89176 -6.39702 31.0418 0.0238063 -0.284478 0.958387
-2.65518 -10.7499 29.7422 0.00905472 -0.283546 0.958916
-2.69056 -11.6747 29.4691 0.0050999 -0.271022 0.962463
-1.73732 -11.9364 29.3979 -0.000712054 -0.257712 0.966219
-0.867798 -12.3033 29.3027 0.00718168 -0.251513 0.967762
0.190806 -12.7637 29.1673 0.0169325 -0.246099 0.969097
0.984003 -13.2283 29.0354 0.0120981 -0.242312 0.970103
1.95188 -14.0412 28.8285 0.00726345 -0.238524 0.971109
2.78467 -15.0025 28.5874 0.00399445 -0.232695 0.972529
3.03253 -15.9151 28.3721 0.000213192 -0.2296 0.973285
3.2752 -17.2755 28.0511 -0.00197627 -0.236379 0.971631
3.12639 -18.2722 27.8096 -0.0104991 -0.228841 0.973407
2.48563 -19.1181 27.6039 -0.0168304 -0.231679 0.972622
1.31958 -18.8668 27.6367 -0.0231625 -0.234513 0.971837
0.555434 -18.3713 27.7448 -0.0159116 -0.248783 0.968428
-0.0829347 -17.7641 27.8908 -0.0154241 -0.248994 0.968382
-1.18849 -16.8205 28.1158 -0.0291389 -0.258006 0.96556
-1.90434 -16.4909 28.1811 -0.0329555 -0.270402 0.962181
-2.81937 -16.2072 28.2291 -0.0326992 -0.268518 0.96272
-4.34122 -15.9339 28.2537 -0.0274143 -0.272873 0.961634
-5.80425 -15.7813 28.2407 -0.0441409 -0.293003 0.955092
-7.26842 -15.905 28.1351 -0.0432647 -0.293317 0.955035
-8.27704 -15.472 28.2168 -0.0663001 -0.309653 0.948535
-8.36845 -14.1634 28.6218 -0.0418763 -0.299422 0.953182
-7.83453 -13.235 28.9428 -0.0413658 -0.305231 0.951379
-5.77582 -12.926 29.093 -0.0170746 -0.29117 0.956519
-4.68053 -12.7183 29.1809 -0.024473 -0.281609 0.959214
-3.58883 -11.9387 29.3995 0.00509888 -0.271022 0.962463
-3.29286 -11.6792 29.4734 0.00905436 -0.283547 0.958916
-2.41289 -13.4284 28.9995 -0.000712187 -0.257711 0.96622
-3.22818 -13.6352 28.9451 -0.0104415 -0.270019 0.962654
-4.55804 -14.1368 28.7674 -0.0220766 -0.279386 0.959922
-3.65583 -14.4582 28.6954 -0.022129 -0.277229 0.960549
-2.36835 -14.7491 28.6511 -0.017611 -0.260831 0.965072
-1.59759 -14.6545 28.6779 -0.00252187 -0.253145 0.967425
-0.921302 -15.3493 28.4979 -0.00252133 -0.253146 0.967425
0.570344 -15.7252 28.4217 -0.0152635 -0.245264 0.969336
1.06806 -16.6705 28.1903 -0.0153441 -0.247128 0.968859
1.52983 -16.7429 28.1771 -0.00197649 -0.23638 0.971631
1.09831 -15.4696 28.4876 0.00777426 -0.235791 0.971773
-0.389923 -15.0724 28.5717 -0.00889212 -0.249205 0.96838
-0.613499 -14.1339 28.8167 -0.00254462 -0.255036 0.966926
-1.58656 -13.557 28.9675 -0.00256908 -0.256926 0.966428
0.361107 -28.7487 25.023 -0.119165 -0.248115 0.961126
-0.395534 -29.1194 24.8213 -0.117566 -0.265247 0.956986
-0.983848 -29.6316 24.6071 -0.117566 -0.265246 0.956986
-1.71121 -30.0288 24.4077 -0.126678 -0.276319 0.952563
-2.56348 -30.7455 24.0684 -0.135789 -0.287391 0.948139
-3.39971 -31.7699 23.612 -0.172607 -0.303067 0.937085
-3.19296 -32.6712 23.3456 -0.184762 -0.309489 0.93273
-2.9249 -34.0473 22.9545 -0.191684 -0.302723 0.933604
-2.60655 -35.4278 22.5609 -0.202313 -0.305416 0.930418
-2.38894 -36.5783 22.2415 -0.210116 -0.298215 0.931085
-2.46139 -37.6446 21.8834 -0.210153 -0.298393 0.93102
-2.62716 -38.4684 21.582 -0.210153 -0.298394 0.931019
-2.86741 -39.4338 21.1916 -0.241561 -0.311911 0.91889
-3.20153 -40.2496 20.8268 -0.243541 -0.316502 0.91678
-4.01146 -40.7569 20.4313 -0.248604 -0.320183 0.914149
-4.91441 -41.1373 20.0497 -0.263393 -0.328762 0.906789
-6.38343 -41.2963 19.5408 -0.275103 -0.33825 0.899947
-7.45301 -41.5015 19.1437 -0.271672 -0.345715 0.898129
-8.28468 -41.7054 18.8073 -0.280557 -0.355622 0.891469
-8.4695 -42.6939 18.3423 -0.283797 -0.364179 0.887036
-8.41987 -44.0627 17.8282 -0.295823 -0.343857 0.891208
-8.60772 -45.1671 17.3157 -0.313001 -0.353345 0.881549
-8.05175 -46.0465 17.1687 -0.318425 -0.345311 0.882809
-6.86481 -47.033 17.2173 -0.321834 -0.343782 0.882177
-5.67467 -47.7976 17.3652 -0.329113 -0.326256 0.886132
-4.36205 -47.7519 17.8576 -0.315015 -0.317747 0.894317
-3.31785 -47.2931 18.3808 -0.312432 -0.309536 0.898095
-2.64732 -47.0158 18.7084 -0.308403 -0.310375 0.899197
-1.92688 -46.9735 18.9687 -0.290192 -0.291798 0.911396
-0.930813 -46.5612 19.4179 -0.290192 -0.291798 0.911396
0.565409 -46.6519 19.8434 -0.27443 -0.296347 0.914804
1.6506 -46.6909 20.1411 -0.254051 -0.285366 0.924095
2.29907 -47.1916 20.1582 -0.251085 -0.277499 0.927273
2.81115 -48.0656 20.0471 -0.256264 -0.268216 0.928649
3.33955 -48.8828 19.9549 -0.256252 -0.279365 0.925335
3.94298 -49.5052 19.9207 -0.239072 -0.290385 0.926564
4.63313 -49.8719 19.9838 -0.239073 -0.290386 0.926564
5.41505 -50.1277 20.1054 -0.239074 -0.290383 0.926564
6.75327 -49.9163 20.4862 -0.222226 -0.241939 0.944501
7.65499 -48.9837 20.9372 -0.214673 -0.253555 0.943097
7.90507 -48.2261 21.195 -0.19231 -0.245839 0.950019
7.75857 -46.8296 21.5259 -0.185965 -0.244934 0.951538
7.31655 -45.9637 21.6585 -0.184329 -0.239445 0.953252
6.47208 -45.1618 21.6966 -0.18433 -0.239447 0.953251
5.45853 -44.5933 21.6482 -0.185111 -0.249538 0.950477
4.46443 -44.528 21.4651 -0.19128 -0.253432 0.948253
3.6187 -44.4781 21.3079 -0.191282 -0.25343 0.948253
3.02273 -43.933 21.3238 -0.203417 -0.248767 0.946962
2.67545 -43.1381 21.458 -0.202532 -0.251336 0.946469
2.29129 -42.2614 21.6115 -0.201645 -0.253904 0.945977
1.91274 -40.8153 21.9189 -0.201643 -0.253902 0.945978
2.59064 -39.7384 22.3382 -0.187168 -0.253637 0.949018
3.49401 -38.5694 22.8288 -0.187168 -0.253637 0.949019
3.89381 -37.7151 23.1224 -0.147676 -0.246913 0.957672
3.93344 -36.675 23.403 -0.140418 -0.252971 0.957229
4.02758 -35.8002 23.648 -0.140416 -0.25297 0.95723
4.07549 -34.4235 23.9896 -0.134688 -0.233074 0.963087
3.96136 -33.1785 24.2974 -0.114381 -0.254916 0.960173
3.95419 -32.4205 24.4964 -0.11409 -0.2532 0.960663
4.01562 -31.409 24.7448 -0.0801909 -0.227801 0.9704
3.58052 -30.8012 24.8515 -0.0802095 -0.227739 0.970413
2.7685 -29.8346 25.0005 -0.103463 -0.235909 0.966233
1.87527 -29.074 25.0978 -0.0967061 -0.233289 0.967556
1.36209 -28.8779 25.0938 -0.0967053 -0.23329 0.967556
1.3137 -30.8952 24.587 -0.119165 -0.248115 0.961126
0.430654 -30.6536 24.5233 -0.138989 -0.256 0.956633
-0.607305 -31.1924 24.2243 -0.145364 -0.266747 0.952724
-1.18752 -31.6369 24.0069 -0.150728 -0.268475 0.951421
-1.77004 -32.4379 23.6886 -0.156225 -0.282659 0.946277
-1.6001 -33.6708 23.3289 -0.161721 -0.296844 0.941132
-1.24773 -34.9902 22.9895 -0.179505 -0.284776 0.941604
-0.932046 -36.1139 22.7016 -0.182277 -0.291717 0.938976
-0.747613 -37.1085 22.4361 -0.195177 -0.282315 0.939255
-0.8741 -37.9573 22.1527 -0.207433 -0.287548 0.934945
-1.14003 -38.8613 21.8078 -0.220158 -0.298269 0.928711
-1.19748 -39.6776 21.5247 -0.221049 -0.305647 0.92613
-1.49767 -40.7377 21.1032 -0.223956 -0.303957 0.925982
-2.58566 -41.777 20.4691 -0.255795 -0.296818 0.920037
-3.68261 -42.4186 19.9572 -0.266935 -0.308719 0.912754
-4.45682 -42.5972 19.6561 -0.278444 -0.320492 0.905403
-5.95167 -42.8259 19.1148 -0.278813 -0.320365 0.905334
-6.65695 -43.3989 18.6733 -0.299996 -0.342736 0.890244
-6.94404 -44.0605 18.3218 -0.299997 -0.342736 0.890244
-6.99537 -44.8292 18.0086 -0.302839 -0.334686 0.892298
-6.44281 -45.5445 17.9362 -0.30568 -0.326636 0.894354
-5.22939 -46.25 18.0933 -0.304757 -0.326878 0.89458
-3.97215 -45.863 18.6617 -0.303836 -0.327121 0.894805
-2.66101 -45.396 19.2492 -0.285301 -0.303153 0.90923
-1.46195 -45.1721 19.7023 -0.286877 -0.30268 0.908893
-0.282138 -45.1497 20.0692 -0.265293 -0.288224 0.920065
0.869096 -44.7383 20.5242 -0.260417 -0.28987 0.920955
1.60294 -44.8921 20.6833 -0.250841 -0.282415 0.925824
1.17466 -43.5532 20.9679 -0.241265 -0.274959 0.930693
0.791543 -42.2728 21.2296 -0.237812 -0.26209 0.935269
0.690051 -41.5665 21.4042 -0.233533 -0.264764 0.935608
0.595086 -40.7597 21.6088 -0.230197 -0.283516 0.930721
0.577577 -39.8863 21.8896 -0.226861 -0.302267 0.925834
0.532428 -39.7411 21.926 -0.216334 -0.287804 0.932738
1.20123 -38.9663 22.2978 -0.205804 -0.273342 0.939643
2.15793 -37.767 22.8119 -0.168455 -0.26501 0.949415
2.28299 -36.502 23.1846 -0.168232 -0.263196 0.949961
2.274 -35.5865 23.4366 -0.164927 -0.265236 0.949965
2.19939 -34.1076 23.8317 -0.138695 -0.256173 0.956629
2.16473 -32.9313 24.1416 -0.137698 -0.261547 0.955302
2.20478 -32.053 24.3868 -0.11264 -0.254247 0.960558
1.61325 -31.1315 24.5613 -0.110112 -0.242917 0.963702
1.48417 -30.9994 24.5786 -0.103463 -0.235908 0.966233
0.443346 -32.716 23.9552 -0.138347 -0.26597 0.954
0.492601 -33.5108 23.744 -0.149065 -0.267551 0.951807
0.387497 -34.3567 23.4772 -0.159436 -0.278931 0.946984
-0.0174902 -34.5009 23.3637 -0.176732 -0.277835 0.944232
-0.136839 -33.4246 23.6581 -0.169228 -0.28734 0.942681
0.0122694 -32.8395 23.8577 -0.145364 -0.266747 0.952724
-0.857375 -42.7376 20.6572 -0.268463 -0.292842 0.917699
-0.746815 -43.7518 20.3685 -0.270171 -0.286579 0.919174
-2.20897 -43.7884 19.9273 -0.278524 -0.294629 0.914033
-3.55222 -44.0605 19.417 -0.283725 -0.303628 0.909566
-4.79998 -44.4288 18.9049 -0.29378 -0.315376 0.902185
-3.66382 -43.9604 19.417 -0.278075 -0.320621 0.90547
-2.38245 -43.6197 19.9311 -0.266935 -0.308719 0.912754
-1.32169 -43.116 20.4006 -0.268463 -0.292841 0.917699
3.40656 -46.2961 20.7297 -0.240841 -0.279579 0.929377
4.73087 -46.0723 21.0865 -0.209742 -0.25125 0.944924
5.65323 -46.4495 21.191 -0.209742 -0.25125 0.944924
6.3048 -47.3916 21.0769 -0.197103 -0.249331 0.948143
5.79834 -48.5007 20.6648 -0.215451 -0.264818 0.939883
4.87113 -48.3048 20.4989 -0.22378 -0.264465 0.938073
4.06041 -47.4387 20.5576 -0.220163 -0.270782 0.937126
3.68964 -46.7593 20.6668 -0.238213 -0.2695 0.932888
3.581 -46.5557 20.6956 -0.251083 -0.277498 0.927274
1.75808 -53.2741 18.1603 -0.288332 -0.264411 0.920293
0.833907 -53.0522 17.924 -0.322852 -0.291571 0.900418
0.0904701 -52.9768 17.6819 -0.32285 -0.291572 0.900418
-0.639175 -52.9113 17.4414 -0.322617 -0.291672 0.900469
-1.74147 -52.9381 17.0381 -0.322383 -0.291773 0.900521
-2.81259 -53.318 16.4946 -0.342795 -0.305968 0.888186
-3.49874 -53.5674 16.1438 -0.342316 -0.306217 0.888285
-4.0365 -53.9993 15.7818 -0.354084 -0.307119 0.883317
-4.21578 -54.7406 15.4585 -0.355546 -0.300125 0.885162
-4.2574 -55.5229 15.1765 -0.357123 -0.299342 0.884791
-4.24096 -56.2474 14.9386 -0.359871 -0.292991 0.885785
-4.01597 -57.1195 14.7469 -0.365996 -0.291105 0.883915
-3.71644 -57.8227 14.6393 -0.365997 -0.291105 0.883914
-3.25428 -58.6504 14.5624 -0.369472 -0.282253 0.885338
-2.63292 -59.1493 14.6635 -0.370331 -0.281861 0.885104
-1.74484 -59.759 14.8361 -0.36123 -0.27802 0.890065
-1.1162 -60.1861 14.9567 -0.360981 -0.271497 0.892148
0.0585932 -60.7884 15.254 -0.359499 -0.265623 0.894538
1.51925 -60.1168 16.0076 -0.3378 -0.269342 0.90177
2.26728 -59.2306 16.5648 -0.328685 -0.276817 0.902909
2.92483 -58.6598 16.969 -0.321266 -0.272202 0.907025
3.28925 -57.8721 17.3345 -0.321247 -0.271688 0.907186
3.23512 -57.0863 17.546 -0.29178 -0.26104 0.920175
3.13037 -56.0254 17.8137 -0.291718 -0.260782 0.920268
2.78245 -55.0555 17.9784 -0.291096 -0.261025 0.920396
2.3665 -54.4168 18.028 -0.291096 -0.261025 0.920396
1.98337 -53.7329 18.1008 -0.291191 -0.261741 0.920162
1.00739 -54.8269 17.4488 -0.322069 -0.267239 0.908177
1.43065 -55.5661 17.3749 -0.315194 -0.273646 0.908715
1.68425 -56.673 17.1263 -0.31559 -0.276162 0.90782
1.37354 -57.6145 16.7333 -0.321248 -0.271688 0.907185
0.548716 -58.5691 16.1231 -0.352708 -0.274024 0.894711
-0.289776 -58.8688 15.7008 -0.352708 -0.274024 0.894711
-1.17999 -58.3596 15.5024 -0.361231 -0.27802 0.890065
-1.94079 -57.75 15.3872 -0.360489 -0.287692 0.887288
-2.44513 -57.1016 15.3925 -0.360489 -0.287692 0.887288
-2.71706 -56.0912 15.6094 -0.359872 -0.29299 0.885785
-2.41257 -55.0122 16.0859 -0.344449 -0.289908 0.892921
-1.30246 -54.4722 16.6894 -0.347902 -0.287401 0.892382
-0.566602 -54.3345 17.0201 -0.336835 -0.27365 0.900811
0.572176 -54.5959 17.3578 -0.329338 -0.263347 0.906744
-0.0468732 -55.9162 16.7182 -0.345877 -0.281681 0.894996
-0.67047 -56.8098 16.1936 -0.350763 -0.282657 0.892788
-1.05231 -56.1522 16.2513 -0.351395 -0.283634 0.892228
-0.576708 -55.7896 16.5545 -0.347844 -0.284422 0.893361
-24.624 20.1834 42.105 0.130169 -0.413901 0.900967
-23.9438 21.2379 42.4817 0.145433 -0.408012 0.901297
-24.6887 22.2968 43.0991 0.151788 -0.423157 0.893204
-25.417 22.4703 43.2978 0.142716 -0.424555 0.894083
-26.2656 22.3218 43.365 0.148665 -0.433821 0.888637
-26.858 21.5379 43.0761 0.146197 -0.437557 0.887226
-26.905 20.6788 42.6621 0.133615 -0.423544 0.895894
-25.884 19.9225 42.1672 0.130169 -0.413902 0.900967
8.12726 41.4839 40.2246 0.24984 -0.145797 0.957212
8.84922 40.8124 39.9284 0.246999 -0.151379 0.957112
10.49 40.6003 39.4876 0.237038 -0.145493 0.960539
11.5951 41.2717 39.3125 0.239047 -0.143052 0.960413
12.1993 42.0328 39.2755 0.238147 -0.138434 0.961301
12.4212 42.9366 39.347 0.236349 -0.134521 0.962311
12.1893 43.7507 39.5177 0.23635 -0.134522 0.962311
11.4964 45.1264 39.8678 0.23943 -0.123742 0.962975
10.6267 45.8256 40.1814 0.244859 -0.126583 0.96126
9.77069 46.0732 40.432 0.246059 -0.12576 0.96106
8.87474 45.7005 40.6197 0.260056 -0.133292 0.956349
8.32769 45.1259 40.6884 0.260054 -0.133293 0.95635
7.85237 44.5271 40.7342 0.262739 -0.131863 0.955809
7.51365 43.0631 40.612 0.25734 -0.142554 0.955708
8.06926 41.5852 40.2543 0.250573 -0.137703 0.958254
8.11904 41.5285 40.2331 0.250577 -0.137677 0.958257
9.44722 42.7204 40.059 0.247813 -0.139368 0.958731
9.95597 42.2009 39.852 0.242532 -0.136592 0.960459
10.7456 42.8953 39.7539 0.237251 -0.133817 0.962188
