62.1688 26.9025 16.3897 0.64171 0.766908 -0.00777143
61.6258 27.3557 16.4892 0.642425 0.76626 0.00163281
61.4384 27.5055 15.5184 0.66311 0.748285 -0.0188105
62.5158 26.582 15.0242 0.638636 0.769272 -0.0190054
63.2157 25.9906 14.4902 0.635618 0.771765 -0.0191674
64.167 25.1926 13.4316 0.63536 0.772121 -0.01182
64.6922 24.7427 12.6469 0.638835 0.76919 -0.0153465
64.7809 24.6604 11.0856 0.639565 0.768735 -0.0018131
64.9381 24.5301 10.0389 0.640885 0.767298 0.0226529
64.6153 24.8276 8.98617 0.647751 0.76141 0.0241333
64.1351 25.2825 7.72901 0.656871 0.753816 0.0168113
63.589 25.8046 6.89966 0.671606 0.740346 0.0283174
62.8967 26.4633 6.30639 0.67553 0.736734 0.0297041
61.7457 27.5703 5.80472 0.685881 0.727671 0.00783127
60.9905 28.2856 5.81522 0.67486 0.73783 -0.0117072
59.8859 29.3089 6.02145 0.680308 0.732393 -0.0279488
59.1481 29.9451 6.44093 0.604554 0.796044 -0.0287916
58.2015 30.7087 7.65368 0.579475 0.813491 -0.0432478
57.5922 31.1615 8.58303 0.55645 0.83044 -0.0270465
57.4079 31.261 9.67215 0.53102 0.847072 0.0219015
57.2387 31.3385 10.6755 0.521101 0.852434 0.039877
57.2119 31.2793 11.6839 0.531995 0.843544 0.0735819
57.5259 30.9292 12.8011 0.579401 0.808599 0.0995808
57.898 30.5571 13.8373 0.596935 0.797666 0.0849259
58.8804 29.7316 14.7713 0.611057 0.789198 0.0614072
59.5567 29.1706 15.2836 0.617284 0.784505 0.058613
60.3341 28.5095 15.6354 0.649991 0.757872 0.048968
61.0386 27.86 15.5331 0.663111 0.748285 -0.0188106
12.866 44.965 32.4375 0.103157 0.99416 -0.0316818
10.625 45.188 32.8027 0.0740364 0.996747 -0.0318445
8.39358 45.3431 33.1819 0.0438662 0.998554 -0.0310611
5.98914 45.4295 33.5999 0.0221393 0.999674 -0.0126862
3.71183 45.4431 34.0805 -0.000162007 0.999956 -0.00942367
1.40157 45.4045 34.5732 -0.029483 0.999562 -0.00236133
-1.0736 45.3054 35.1007 -0.0462117 0.998931 0.000928227
-1.80776 45.271 35.2514 -0.0482386 0.998831 0.00314709
-2.44139 45.2427 34.3897 -0.0486292 0.998815 0.00214826
-0.269371 45.3398 33.9529 -0.0411101 0.999149 -0.00323715
2.23044 45.4177 33.4315 -0.023146 0.999671 -0.0110353
4.91803 45.4306 32.8648 0.00365438 0.999967 -0.00723484
7.15176 45.3793 32.4368 0.0402448 0.998935 -0.0225626
9.63858 45.2352 32.022 0.0715164 0.997156 -0.0237559
11.8172 45.0478 31.6696 0.101559 0.994258 -0.0337085
14.4281 44.7543 31.2841 0.118579 0.99247 -0.0306838
16.7193 44.4621 30.9806 0.125698 0.991575 -0.0312882
17.5997 44.3441 30.8693 0.130088 0.991017 -0.0310156
21.0892 43.8424 29.6521 0.130273 0.99112 -0.0266575
18.6807 44.1678 29.826 0.133524 0.990615 -0.0292213
16.2904 44.4895 30.1101 0.126258 0.991531 -0.0304172
13.8772 44.7939 30.4193 0.113814 0.992964 -0.0327062
11.4666 45.055 30.7836 0.0942652 0.995026 -0.0321998
9.07309 45.2547 31.1589 0.0737198 0.996799 -0.0309281
6.44238 45.3832 31.6125 0.0365197 0.999145 -0.0193815
3.91746 45.4216 32.1154 -0.00869947 0.999755 -0.0203408
1.61409 45.3961 32.5889 -0.0191797 0.999729 -0.0132149
-0.76377 45.3175 33.0695 -0.040468 0.999178 -0.00219209
-2.38733 45.2459 33.3869 -0.0488932 0.998801 -0.00239344
-2.53419 45.236 32.4263 -0.0484803 0.998817 -0.00380709
-0.29681 45.3345 31.9908 -0.0383838 0.99926 -0.00252966
1.89051 45.3877 31.5567 -0.0205023 0.999687 -0.0143192
4.07765 45.4029 31.1161 -0.00649489 0.999772 -0.0203607
6.39906 45.367 30.6756 0.0298417 0.999371 -0.0191341
8.58818 45.2565 30.2957 0.0574174 0.997929 -0.0289893
10.7805 45.0887 29.94 0.0840015 0.995997 -0.0305461
12.9854 44.8692 29.6035 0.113798 0.992967 -0.0326618
15.2707 44.5922 29.3054 0.122288 0.99194 -0.0331854
17.4581 44.3052 29.0509 0.128884 0.991145 -0.031952
19.8789 43.9788 28.8127 0.130158 0.991134 -0.0266723
22.3499 43.6507 28.5817 0.127626 0.991492 -0.025615
24.6292 43.3602 28.4804 0.12448 0.991976 -0.02211
25.3265 43.2728 28.4473 0.123219 0.992137 -0.0219433
28.7668 42.8163 27.203 0.129314 0.991317 -0.0238557
26.5677 43.0957 27.402 0.123284 0.992126 -0.0220778
24.2003 43.3937 27.5989 0.123783 0.992019 -0.0239919
21.9324 43.6817 27.6859 0.126504 0.99166 -0.0246367
19.7145 43.974 27.9051 0.129326 0.991195 -0.0284072
17.1772 44.3117 28.1574 0.126548 0.991338 -0.035126
14.6343 44.6423 28.4593 0.121681 0.991943 -0.0352597
12.3294 44.9041 28.7524 0.098169 0.994509 -0.0362495
9.99291 45.1227 29.1157 0.077915 0.996337 -0.0352531
7.40465 45.2993 29.5464 0.0498286 0.998039 -0.0378828
5.07718 45.3711 29.9686 0.00687872 0.999517 -0.0303141
2.85258 45.3789 30.3882 -0.00690307 0.999715 -0.0228539
0.500287 45.3477 30.8523 -0.0279114 0.999486 -0.0157819
-1.76271 45.2665 31.2904 -0.0451288 0.998958 -0.00687512
-2.90293 45.2147 31.5059 -0.0465393 0.998913 -0.00269187
-2.7901 45.2158 30.4926 -0.0438342 0.999027 -0.00483935
-0.417444 45.3059 30.048 -0.0331507 0.999328 -0.0156206
1.89931 45.3547 29.6006 -0.0130021 0.999715 -0.0200246
4.11402 45.3542 29.1827 0.00599989 0.999685 -0.0243723
6.48266 45.3064 28.7541 0.0370542 0.998899 -0.0287697
9.09233 45.1612 28.3064 0.072728 0.996717 -0.0355747
11.3201 44.9674 27.9534 0.0862657 0.995629 -0.0357858
13.5686 44.7373 27.6823 0.110949 0.993077 -0.0385795
15.9268 44.4426 27.3705 0.125281 0.991447 -0.0365607
18.3205 44.1309 27.1148 0.127145 0.991347 -0.0326375
20.6189 43.8278 26.8707 0.127758 0.991397 -0.028473
22.8645 43.5384 26.6928 0.123251 0.992052 -0.025356
25.5902 43.1977 26.5557 0.122103 0.992224 -0.024127
27.9903 42.895 26.3539 0.125167 0.991856 -0.0235455
30.1966 42.6052 26.2654 0.13153 0.990981 -0.0256321
32.5408 42.2741 26.1558 0.150861 0.988275 -0.023519
32.8701 42.2234 26.1375 0.150861 0.988275 -0.0235213
36.6604 41.4954 25.0955 0.216986 0.974873 -0.0504056
34.4017 41.9387 25.15 0.17593 0.983889 -0.0317916
32.218 42.299 25.2683 0.143447 0.989367 -0.0239837
29.4644 42.6791 25.3804 0.131781 0.990926 -0.026451
27.2323 42.9692 25.5018 0.122766 0.992138 -0.0243031
24.943 43.2549 25.6751 0.122357 0.992168 -0.025136
22.5715 43.5503 25.7768 0.123324 0.992012 -0.0265276
20.2887 43.8439 25.9752 0.126853 0.991448 -0.0306487
18.0623 44.135 26.2067 0.125503 0.991552 -0.0327512
15.7394 44.4328 26.4618 0.123154 0.991686 -0.0373029
13.5588 44.7011 26.7412 0.104952 0.993687 -0.0396282
11.3571 44.9273 27.0098 0.089869 0.995147 -0.0400801
9.10993 45.1213 27.3471 0.0690922 0.996657 -0.0435905
6.78556 45.2657 27.7321 0.0412191 0.998686 -0.0304407
4.48674 45.327 28.1402 0.0119063 0.999626 -0.0246335
2.00135 45.335 28.5987 -0.014834 0.999651 -0.0218401
-0.238241 45.2982 29.0216 -0.0284893 0.999473 -0.0155279
-2.48154 45.2229 29.445 -0.0384728 0.999224 -0.00841577
-2.57392 45.2192 29.462 -0.044393 0.998993 -0.00652805
-2.47871 45.2135 28.4453 -0.0391125 0.99919 -0.00948238
-0.199808 45.2834 28.0216 -0.0268626 0.999518 -0.0155891
2.10395 45.3131 27.5951 -0.0124917 0.999655 -0.0230913
4.53488 45.3004 27.1543 0.0141876 0.999544 -0.0266394
6.77884 45.2317 26.7673 0.0418297 0.998481 -0.0358537
9.25088 45.0682 26.3645 0.0663132 0.996894 -0.0424889
11.9096 44.8362 25.9977 0.0911746 0.994965 -0.0416248
14.2913 44.5721 25.6958 0.114142 0.992523 -0.0432485
16.6041 44.2892 25.4378 0.120815 0.992018 -0.0361083
18.8612 43.9994 25.1649 0.125737 0.991545 -0.0320667
21.2663 43.6906 24.9611 0.123496 0.991932 -0.028637
23.6395 43.3928 24.8086 0.121664 0.992237 -0.0257721
25.9785 43.1021 24.6664 0.121434 0.992284 -0.0250114
28.2341 42.8175 24.5139 0.127495 0.991487 -0.0264447
30.5062 42.5152 24.4262 0.13234 0.990864 -0.0259654
32.9937 42.1537 24.3127 0.156273 0.98724 -0.0305972
35.3774 41.7239 24.1842 0.186787 0.981787 -0.0347066
37.8265 41.199 24.2251 0.225213 0.973585 -0.03757
39.9974 40.607 24.1858 0.283749 0.957976 -0.0420508
40.8129 40.3579 24.1828 0.31964 0.946478 -0.0448171
45.1201 38.6513 23.38 0.413295 0.909843 -0.0370585
43.7852 39.2337 23.3569 0.381022 0.923413 -0.0461568
42.3525 39.7945 23.3323 0.35076 0.936118 -0.0255211
40.9555 40.2799 23.2992 0.305292 0.951491 -0.038243
39.3424 40.755 23.2969 0.26585 0.962827 -0.0478389
37.7901 41.1652 23.3025 0.23245 0.971577 -0.0447833
36.11 41.5405 23.2871 0.20131 0.978654 -0.0413634
34.6327 41.8303 23.3108 0.178496 0.983021 -0.0425221
33.2795 42.0707 23.3789 0.163057 0.985735 -0.0416879
31.7189 42.3182 23.4608 0.142278 0.989128 -0.0371837
30.1267 42.5418 23.5214 0.131653 0.990925 -0.0271057
28.751 42.7235 23.5742 0.129266 0.991197 -0.0286213
27.281 42.9148 23.654 0.124981 0.991774 -0.0276298
25.7758 43.1034 23.7493 0.121907 0.992203 -0.0259219
23.8254 43.3449 23.8662 0.120704 0.992298 -0.0278292
21.9006 43.5832 23.9781 0.122264 0.992077 -0.0288774
20.4913 43.7608 24.0996 0.123493 0.991872 -0.0306459
19.0561 43.9428 24.2158 0.124737 0.991615 -0.0337741
17.4495 44.148 24.3925 0.121466 0.991948 -0.0358395
15.8858 44.3435 24.5718 0.11833 0.992242 -0.0381202
14.4148 44.5186 24.7411 0.111245 0.992919 -0.0416776
12.8934 44.6922 24.924 0.105791 0.99328 -0.0469453
11.2217 44.8619 25.1359 0.0863108 0.995354 -0.0426676
9.88462 44.9793 25.3131 0.0748034 0.996319 -0.0418666
8.36197 45.0938 25.5461 0.0656776 0.997085 -0.0388296
7.02722 45.182 25.7618 0.0430724 0.998144 -0.043047
5.54692 45.2408 26.0121 0.0266126 0.998963 -0.0369376
4.01326 45.2817 26.2696 0.0101241 0.999554 -0.0280847
2.47055 45.2945 26.5454 -0.00187555 0.999683 -0.0250897
1.10862 45.2856 26.7934 -0.012923 0.999749 -0.0182812
-0.238987 45.2662 27.0399 -0.0260372 0.999493 -0.0183438
-1.70653 45.2279 27.3136 -0.0333064 0.999335 -0.0148516
-2.59475 45.1993 27.4749 -0.0403429 0.999124 -0.0111252
-2.69157 45.1816 26.5069 -0.0370152 0.999192 -0.0156786
-1.03915 45.2291 26.2058 -0.0273689 0.999434 -0.0195657
0.665104 45.2611 25.8961 -0.0162708 0.999628 -0.0218946
2.13475 45.2706 25.632 -0.00270943 0.999652 -0.02625
3.852 45.257 25.3338 0.0090795 0.999549 -0.0286418
5.47131 45.2067 25.058 0.0255168 0.998941 -0.0382842
7.04889 45.1377 24.7963 0.0454633 0.998052 -0.0427214
8.57811 45.0412 24.5512 0.0663804 0.997027 -0.0391209
10.1426 44.9169 24.3224 0.0773625 0.996102 -0.0423836
11.4919 44.7935 24.1458 0.096176 0.994292 -0.0461998
13.0682 44.6296 23.948 0.102975 0.993765 -0.0427394
14.6359 44.4528 23.7634 0.111704 0.992856 -0.0419392
16.3171 44.2523 23.5725 0.116865 0.992399 -0.0385612
17.7883 44.0703 23.4045 0.121403 0.991939 -0.0363005
19.2592 43.8848 23.2646 0.122828 0.991895 -0.0325138
20.6557 43.711 23.1496 0.120267 0.99225 -0.0312483
22.0426 43.5385 23.041 0.119801 0.992367 -0.0292511
23.7047 43.3337 22.9431 0.120207 0.992372 -0.0273574
25.0439 43.1696 22.8645 0.120432 0.992358 -0.0268599
26.9719 42.9286 22.7449 0.123031 0.992022 -0.0274793
28.7535 42.6976 22.6494 0.127893 0.991426 -0.0268005
30.2923 42.4906 22.5935 0.136287 0.990084 -0.0340551
31.8251 42.2726 22.5388 0.147619 0.988445 -0.0344329
33.3336 42.0303 22.4589 0.164835 0.985832 -0.0310438
34.7795 41.7781 22.398 0.188144 0.981653 -0.0309682
36.2885 41.4698 22.3841 0.207414 0.977401 -0.0408334
37.8588 41.1131 22.3905 0.23713 0.970791 -0.0365279
39.3642 40.7193 22.3931 0.265439 0.963897 -0.0210761
40.6693 40.3299 22.4078 0.289637 0.956604 -0.0319154
41.9668 39.9021 22.4326 0.328171 0.94421 -0.0277553
43.343 39.3806 22.4388 0.37831 0.924922 -0.0374242
44.9729 38.6835 22.4635 0.414452 0.909874 -0.0189318
46.4238 37.9924 22.4713 0.439023 0.897806 -0.0346822
47.5004 37.4187 22.4922 0.468507 0.882671 -0.0373291
49.0538 36.4894 21.6502 0.524281 0.851063 -0.0286502
47.7253 37.2623 21.6008 0.492707 0.869507 -0.0346095
46.3504 37.9945 21.5671 0.454279 0.890531 -0.0241919
45.1107 38.6017 21.5502 0.427522 0.903634 -0.025908
43.6937 39.21 21.5381 0.393917 0.919057 -0.0128037
42.3905 39.7207 21.5363 0.345602 0.937559 -0.0392634
41.0482 40.1796 21.5188 0.297945 0.954164 -0.0282711
39.4313 40.6691 21.491 0.283566 0.958586 -0.0265222
37.9306 41.0657 21.4804 0.240577 0.970346 -0.0234714
36.4196 41.4079 21.4766 0.214618 0.976298 -0.0279479
34.9384 41.7122 21.493 0.198828 0.979405 -0.035107
33.4522 41.9812 21.5422 0.16603 0.985644 -0.0306672
31.905 42.228 21.6073 0.151531 0.988031 -0.0288728
30.5696 42.4265 21.6705 0.139672 0.989919 -0.0234974
28.9353 42.649 21.7197 0.129493 0.99119 -0.0278064
27.1166 42.8845 21.8032 0.125147 0.991755 -0.0275871
25.5736 43.0781 21.8954 0.121427 0.9922 -0.0281745
24.0266 43.2685 21.9822 0.1191 0.992486 -0.0280379
22.2528 43.4851 22.0918 0.119802 0.992367 -0.0292556
20.5835 43.69 22.2156 0.119398 0.992345 -0.0315458
18.8526 43.9035 22.3606 0.118332 0.992408 -0.0335268
17.482 44.074 22.4932 0.118201 0.992304 -0.0369067
16.0162 44.2515 22.6546 0.114512 0.992631 -0.0396303
14.4574 44.4334 22.8257 0.108318 0.993249 -0.041518
12.7516 44.6212 23.0303 0.0988162 0.994098 -0.0447649
11.0784 44.7921 23.2395 0.0872949 0.995269 -0.0426568
9.36544 44.9403 23.4726 0.078286 0.995974 -0.0436642
7.91573 45.0466 23.6897 0.0569805 0.997472 -0.0424544
6.40303 45.1291 23.93 0.0445258 0.998177 -0.0407529
5.00801 45.1847 24.1643 0.027096 0.998953 -0.0368531
3.37424 45.2303 24.4494 0.0122786 0.999185 -0.0384548
1.8132 45.2471 24.7202 0.000343904 0.999737 -0.0229194
0.400509 45.241 24.9713 -0.0121042 0.99968 -0.0222093
-1.0525 45.2103 25.231 -0.0266566 0.99948 -0.0181671
-2.43343 45.1742 25.4771 -0.0333535 0.999343 -0.0141865
-2.5471 45.1707 25.4975 -0.0335323 0.999335 -0.0142957
-2.27338 45.1651 24.4639 -0.0298807 0.999423 -0.016145
-0.401368 45.2049 24.1336 -0.0222046 0.999567 -0.019322
1.23419 45.2256 23.8472 -0.00558739 0.999652 -0.0257784
2.65395 45.2107 23.6 0.0115624 0.999384 -0.0331278
4.00005 45.1809 23.363 0.0217583 0.999073 -0.037156
5.38187 45.1358 23.1229 0.0323989 0.998685 -0.039721
6.92695 45.0635 22.8774 0.0506157 0.997892 -0.0406032
8.35227 44.9756 22.6469 0.06164 0.997227 -0.0416907
9.76038 44.8646 22.4504 0.0788437 0.995938 -0.043494
11.4215 44.7159 22.2364 0.0931795 0.994743 -0.0424844
13.1744 44.5341 22.0181 0.101037 0.99389 -0.0444419
14.7254 44.3621 21.8373 0.110088 0.993101 -0.0403929
16.1098 44.2027 21.6907 0.112798 0.992854 -0.0389661
17.8471 43.9944 21.5137 0.118161 0.992385 -0.0347763
19.2976 43.8174 21.3805 0.11837 0.992417 -0.0331222
20.6861 43.6477 21.2649 0.118662 0.992455 -0.0308665
22.1617 43.4681 21.1589 0.118258 0.992535 -0.0298161
23.5558 43.2991 21.0655 0.119046 0.992493 -0.0280396
24.9568 43.1272 20.9843 0.121274 0.992205 -0.0286691
26.3081 42.9593 20.9156 0.122171 0.992067 -0.0296297
28.0169 42.7421 20.8325 0.127745 0.991385 -0.0289381
29.5233 42.544 20.7848 0.131074 0.990949 -0.0289613
31.061 42.3303 20.7171 0.142605 0.9894 -0.0274206
32.7856 42.0576 20.6445 0.159125 0.98653 -0.03791
34.3295 41.7921 20.6003 0.1852 0.982269 -0.029121
35.8125 41.4992 20.5735 0.200634 0.978806 -0.0410461
37.2873 41.1843 20.5693 0.222813 0.974218 -0.0354147
38.761 40.8202 20.5767 0.260438 0.964367 -0.0465652
40.0998 40.4419 20.596 0.290089 0.956308 -0.0363655
41.462 40.0089 20.6213 0.324575 0.944477 -0.0511284
42.8877 39.4926 20.6354 0.35532 0.93351 -0.0480294
44.2531 38.9494 20.6423 0.399432 0.916224 -0.0314308
45.9133 38.1784 20.671 0.438254 0.898261 -0.0325686
47.1827 37.5311 20.6965 0.479811 0.87689 -0.0290896
48.6143 36.7277 20.7356 0.494492 0.868791 -0.0260727
49.7665 36.0163 20.8052 0.538292 0.842287 -0.0281847
50.9963 35.219 20.8914 0.563471 0.825999 -0.0150063
52.1327 34.4339 20.9784 0.574722 0.818336 -0.00454609
53.3502 33.557 21.1274 0.584099 0.811653 0.00692179
54.5822 32.6609 21.311 0.587993 0.808806 0.00981178
55.7211 31.8285 21.4905 0.589351 0.807805 0.010803
56.8289 31.0149 21.6603 0.593374 0.804906 0.00579346
57.0362 30.8618 21.693 0.593375 0.804905 0.00579595
58.9573 29.4382 21.0821 0.610255 0.792194 0.00421697
57.6656 30.4062 20.8704 0.594827 0.803788 0.0102784
56.5843 31.2055 20.7004 0.592891 0.805195 0.0119066
55.2431 32.1895 20.5093 0.587836 0.808889 0.0121495
54.031 33.0721 20.3328 0.586128 0.810181 0.00774673
52.4073 34.2402 20.1134 0.573194 0.819405 0.00493569
51.0939 35.1388 20.0024 0.564035 0.825718 -0.00737945
49.9131 35.8996 19.9242 0.531403 0.847076 -0.00849338
48.6871 36.6606 19.8502 0.511664 0.858848 -0.0240895
47.3108 37.436 19.802 0.484786 0.874521 -0.0139631
45.9183 38.1595 19.7751 0.43124 0.902213 0.00655352
44.5041 38.8089 19.7459 0.403809 0.914382 -0.0290493
43.105 39.3702 19.7401 0.36733 0.929162 -0.0415624
41.7198 39.8805 19.7197 0.332833 0.941937 -0.0444615
40.3381 40.3314 19.6935 0.297097 0.953731 -0.0461711
38.8322 40.757 19.6665 0.264203 0.963196 -0.0494955
37.4575 41.1104 19.66 0.247952 0.967219 -0.0548405
35.9362 41.4355 19.6598 0.203778 0.978061 -0.0432604
34.4883 41.735 19.6849 0.193485 0.980488 -0.034734
32.895 42.0046 19.7265 0.161721 0.98603 -0.0398947
31.2647 42.2683 19.7777 0.155466 0.987105 -0.0381277
29.7662 42.4864 19.8363 0.13461 0.990329 -0.0336007
27.936 42.7247 19.9071 0.126954 0.991434 -0.0306834
26.55 42.901 19.962 0.122296 0.992043 -0.0298995
25.1359 43.0773 20.031 0.122098 0.992095 -0.0289718
23.7261 43.2507 20.111 0.119251 0.992434 -0.0292124
22.1791 43.4381 20.2122 0.117492 0.992641 -0.0293195
20.8243 43.6018 20.3104 0.117894 0.992545 -0.030925
19.4182 43.7715 20.426 0.116596 0.992678 -0.0315618
18.0343 43.9382 20.545 0.115788 0.992608 -0.0363799
16.6394 44.1028 20.6767 0.112795 0.992854 -0.0389675
15.1246 44.2783 20.8303 0.108045 0.993317 -0.0405982
13.6994 44.4356 20.9916 0.102598 0.993864 -0.0413188
12.1193 44.6045 21.1876 0.0963298 0.99437 -0.0441357
10.6005 44.7503 21.3787 0.0798972 0.995804 -0.0446176
8.90422 44.8941 21.5988 0.0774958 0.995985 -0.0448224
7.25647 45.0032 21.8432 0.0516573 0.997805 -0.0414257
5.74986 45.081 22.0899 0.0382671 0.998437 -0.0407254
4.1325 45.1407 22.362 0.0269841 0.998879 -0.0388841
2.58554 45.181 22.6368 0.0176688 0.999325 -0.0322018
0.977268 45.1998 22.9094 -0.0020721 0.999577 -0.0290096
-0.505375 45.1835 23.1724 -0.0221958 0.999546 -0.0203536
-1.91946 45.1556 23.4177 -0.0261108 0.999506 -0.017515
-2.11456 45.1511 23.4507 -0.0261078 0.999506 -0.0175169
-2.10772 45.134 22.4711 -0.0249927 0.999485 -0.0201024
-0.352421 45.1626 22.1686 -0.0164922 0.999527 -0.0259627
1.28997 45.1706 21.8798 -0.00511877 0.999528 -0.0302848
2.88126 45.1425 21.6144 0.0128177 0.999377 -0.0328963
4.2911 45.1018 21.3602 0.0267525 0.999045 -0.0345507
5.6503 45.0448 21.1272 0.0382439 0.9984 -0.0416617
7.25687 44.961 20.8741 0.0534063 0.997613 -0.0437745
8.78787 44.86 20.6547 0.0688707 0.996602 -0.0451742
10.531 44.7144 20.4257 0.0796014 0.99594 -0.0420421
11.9028 44.5817 20.2513 0.0941039 0.994659 -0.0424042
13.3819 44.4294 20.0634 0.101351 0.994055 -0.0397751
15.181 44.2336 19.8601 0.105954 0.993638 -0.0381849
16.5201 44.0813 19.7271 0.111663 0.993115 -0.0354022
18.041 43.904 19.5877 0.113877 0.9929 -0.0343643
19.6807 43.7093 19.453 0.116162 0.992712 -0.0320763
21.0972 43.5397 19.3424 0.116982 0.992667 -0.0304661
22.5584 43.364 19.2368 0.117309 0.99265 -0.0297291
24.2755 43.1555 19.1341 0.119566 0.992378 -0.0298398
25.918 42.9515 19.0497 0.123034 0.991955 -0.0298039
27.4834 42.7543 18.9852 0.126542 0.991482 -0.0308392
28.8995 42.5708 18.934 0.128637 0.991214 -0.0307833
30.7401 42.3124 18.8694 0.141508 0.989166 -0.03907
32.0966 42.0995 18.8235 0.159339 0.986524 -0.0371577
33.8956 41.8034 18.7874 0.174686 0.983719 -0.042215
35.3375 41.5241 18.7513 0.204547 0.978064 -0.0393943
36.775 41.2189 18.7438 0.222402 0.973548 -0.0523698
38.144 40.8822 18.7541 0.247552 0.967285 -0.0554751
39.6662 40.482 18.7728 0.277522 0.959352 -0.0512322
41.1433 40.0284 18.8042 0.313124 0.948283 -0.0520832
42.4927 39.5562 18.8292 0.343073 0.93809 -0.0478384
43.9011 39.0166 18.839 0.366955 0.929479 -0.0375869
45.3806 38.3893 18.8654 0.41547 0.909414 -0.0187151
46.8532 37.6682 18.8887 0.456797 0.889357 -0.0195355
48.2212 36.9076 18.9417 0.500215 0.865799 -0.0132993
49.682 36.0423 19.0197 0.525414 0.850841 -0.00314217
50.9234 35.2528 19.1028 0.558405 0.829553 0.00502808
52.1134 34.443 19.2062 0.564292 0.825564 0.00426845
53.5769 33.4116 19.3764 0.58037 0.814276 0.0112215
54.7635 32.5538 19.5293 0.586065 0.810166 0.012594
55.8519 31.7607 19.6794 0.588039 0.808608 0.0190658
57.1589 30.7973 19.8673 0.595991 0.802659 0.0230864
58.2472 29.9826 20.0456 0.599306 0.800462 0.009668
59.5641 28.9767 20.2539 0.609481 0.792769 0.00707392
60.8095 28.0041 20.4491 0.619167 0.785259 -0.00100887
61.92 27.1288 20.6248 0.621599 0.783316 -0.00561565
63.2864 26.0261 19.9234 0.62742 0.778613 -0.0102407
62.0292 27.0356 19.7129 0.623779 0.781577 -0.00606865
60.7277 28.0715 19.509 0.618426 0.785841 0.0016032
59.4064 29.1132 19.3063 0.612341 0.790334 0.0202684
58.2248 30.0201 19.1268 0.603153 0.797347 0.021064
57.011 30.9307 18.9391 0.59361 0.804402 0.0237454
55.6628 31.923 18.7527 0.588373 0.808272 0.0226696
54.2365 32.9526 18.5599 0.58123 0.813557 0.0171962
52.8318 33.952 18.3969 0.578948 0.815346 0.00546998
51.6077 34.7963 18.2688 0.566359 0.82413 0.00690563
50.2286 35.7045 18.1613 0.527623 0.84945 0.00700388
48.7336 36.6086 18.0783 0.505263 0.862949 -0.00538755
47.2698 37.4211 18.0132 0.469188 0.882937 -0.0168633
45.8311 38.1601 17.9798 0.44249 0.896683 -0.0127203
44.5296 38.7288 17.9653 0.371648 0.92794 -0.0283666
42.9393 39.3469 17.929 0.348451 0.936597 -0.0369891
41.3406 39.9145 17.9081 0.31984 0.946657 -0.039272
39.8012 40.3902 17.8739 0.286563 0.956686 -0.0513246
38.1719 40.8318 17.8434 0.2412 0.969394 -0.0457916
36.8464 41.1514 17.8341 0.229687 0.97184 -0.0526334
35.5233 41.4422 17.8375 0.195643 0.979189 -0.0539616
34.0263 41.7338 17.8611 0.175936 0.982872 -0.0548513
32.3092 42.0271 17.9021 0.159542 0.98631 -0.0416903
30.9602 42.2389 17.9296 0.152935 0.987299 -0.0430384
29.5573 42.4462 17.9725 0.141507 0.989166 -0.039076
27.8421 42.677 18.0293 0.130786 0.990744 -0.0363442
26.1506 42.8935 18.0942 0.124311 0.991729 -0.0319306
24.4644 43.1036 18.1723 0.120517 0.992234 -0.0307679
22.9435 43.2887 18.2624 0.118684 0.992498 -0.029363
21.143 43.5051 18.3831 0.116471 0.992764 -0.02922
19.7565 43.6708 18.4901 0.115016 0.992873 -0.0312182
18.2023 43.853 18.6137 0.113713 0.992997 -0.0320514
16.8613 44.0086 18.7337 0.111654 0.993212 -0.0326019
15.1526 44.2005 18.8988 0.105745 0.993771 -0.0351704
13.7545 44.3513 19.051 0.0984491 0.994449 -0.03713
12.3741 44.4939 19.213 0.0935921 0.994767 -0.0409847
10.994 44.6291 19.4089 0.0862934 0.995307 -0.0437888
9.50819 44.7587 19.5977 0.0769765 0.99607 -0.043802
8.12924 44.8625 19.7834 0.0620529 0.996976 -0.0467702
6.78374 44.9484 19.9788 0.0548363 0.997551 -0.043413
5.09084 45.0321 20.2476 0.0367877 0.99869 -0.0355758
3.65015 45.0895 20.4985 0.0271005 0.999044 -0.0343049
2.11812 45.127 20.7756 0.0142634 0.999398 -0.0316196
0.602506 45.1403 21.0286 -0.00682842 0.999443 -0.0326549
-0.755107 45.1319 21.2616 -0.0163551 0.999497 -0.0271681
-2.09803 45.112 21.4885 -0.0218133 0.999517 -0.0221387
-2.01801 45.0919 20.5023 -0.0186859 0.999529 -0.0243247
-0.649251 45.107 20.2666 -0.011134 0.99951 -0.0292507
0.698521 45.1087 20.0327 -0.00204429 0.999356 -0.0358172
2.28175 45.0882 19.7656 0.0154074 0.999209 -0.0366561
3.81108 45.0461 19.4948 0.0292035 0.998796 -0.0394074
5.28325 44.9888 19.2412 0.0394827 0.998493 -0.0381074
6.8389 44.9044 19.0064 0.0537992 0.997818 -0.0382715
8.1909 44.8157 18.8124 0.0619165 0.997172 -0.0425871
9.92287 44.6807 18.5807 0.0790352 0.99589 -0.0442342
11.2867 44.5607 18.3839 0.0844716 0.995537 -0.0420868
12.7126 44.4209 18.1935 0.0958951 0.994699 -0.0371161
14.0583 44.2825 18.0426 0.100258 0.994251 -0.0375937
15.6652 44.1099 17.8789 0.105752 0.99377 -0.035167
17.113 43.9474 17.7444 0.108352 0.993531 -0.0339935
18.5972 43.7759 17.6127 0.11251 0.993185 -0.0304193
20.1095 43.5993 17.4886 0.114758 0.992953 -0.0295859
21.6706 43.4133 17.3716 0.117031 0.992698 -0.0292211
23.4875 43.1947 17.2653 0.119363 0.992427 -0.0289953
25.052 43.0023 17.1905 0.122484 0.992022 -0.0298431
26.5985 42.8062 17.1272 0.124829 0.991641 -0.0326407
28.413 42.5666 17.0693 0.133368 0.990508 -0.0332772
30.0055 42.3462 17.0265 0.14312 0.989065 -0.0355987
31.4906 42.1178 16.9972 0.156305 0.987053 -0.0359816
33.0548 41.8592 16.965 0.174917 0.983513 -0.0459021
34.4801 41.6004 16.927 0.175918 0.982877 -0.0548315
35.9476 41.3064 16.9227 0.21057 0.9761 -0.0537488
37.4908 40.9523 16.9299 0.232767 0.971636 -0.0417565
39.0134 40.5587 16.9558 0.269582 0.962259 -0.0372048
40.8699 40.0136 17.0029 0.296953 0.953788 -0.0459052
42.1928 39.5816 17.0327 0.335756 0.940942 -0.0435505
43.5722 39.0774 17.0507 0.347546 0.936954 -0.0364612
45.0042 38.4964 17.0761 0.388048 0.92046 -0.0465939
46.4419 37.8301 17.0802 0.456674 0.88916 -0.0290565
47.6676 37.193 17.1397 0.472441 0.881234 -0.0150559
48.9941 36.4494 17.212 0.500891 0.865453 -0.00994334
50.1847 35.7361 17.2807 0.535384 0.844605 -0.00237344
51.3969 34.9428 17.3723 0.555042 0.831813 0.00389902
52.7227 34.0397 17.5002 0.56722 0.82344 0.014412
53.9377 33.186 17.6403 0.578993 0.815061 0.0210531
55.2033 32.283 17.7938 0.583397 0.811788 0.0254738
56.3416 31.4529 17.9556 0.58717 0.809116 0.0237384
57.8018 30.371 18.155 0.599311 0.800005 0.0285942
58.9694 29.4773 18.3225 0.61568 0.787599 0.0250349
60.2042 28.5031 18.5064 0.62449 0.780934 0.0124682
61.5279 27.436 18.7074 0.624709 0.780843 0.00483494
62.685 26.5017 18.8949 0.630013 0.776574 -0.00411435
64.2429 25.238 19.1515 0.631845 0.77496 -0.0144411
64.979 24.64 19.2671 0.633052 0.77397 -0.0146579
65.5234 24.1771 18.4244 0.635057 0.772286 -0.0166133
64.4417 25.0593 18.2538 0.632665 0.774314 -0.0131262
63.3484 25.9515 18.0764 0.632846 0.774188 -0.0117779
62.2901 26.8168 17.9046 0.630014 0.776573 -0.00411504
62.2462 26.8522 17.8973 0.630535 0.77616 -0.00144103
63.6835 25.6627 17.1999 0.63426 0.772974 -0.0149943
64.955 24.6223 17.4045 0.636241 0.771316 -0.0164122
66.2141 23.5882 17.5971 0.635951 0.771511 -0.0183402
66.6042 23.2682 17.6634 0.636616 0.770946 -0.0190449
67.0256 22.8981 16.7872 0.638055 0.769744 -0.0194917
65.7145 23.9775 16.5872 0.637 0.770653 -0.0180247
64.5934 24.8994 16.4179 0.63602 0.771506 -0.0159987
65.3517 24.2559 15.6063 0.637447 0.770312 -0.0167452
66.4126 23.3798 15.748 0.639205 0.76881 -0.018655
67.1725 22.751 15.8599 0.63898 0.768991 -0.0189027
66.9979 22.8721 14.883 0.639791 0.768285 -0.0201655
66.0314 23.6733 14.7654 0.639429 0.76863 -0.0184078
66.5161 23.25 13.8834 0.640307 0.7679 -0.0183459
66.59 23.1884 13.8921 0.641376 0.766987 -0.019193
66.9728 22.8471 12.9957 0.640906 0.767439 -0.0166507
67.0887 22.7506 13.0094 0.642568 0.766009 -0.0183284
57.5818 30.5635 17.2301 0.596652 0.801759 0.0344746
55.9698 31.7547 17.0103 0.586282 0.809441 0.0328418
54.4774 32.8293 16.8272 0.575693 0.817364 0.0222285
52.8848 33.9436 16.6303 0.567525 0.823146 0.0186319
51.3432 34.9852 16.4873 0.552004 0.833754 0.0120996
49.9214 35.8992 16.3854 0.534717 0.845018 -0.00463942
48.2885 36.8344 16.2944 0.486129 0.873782 -0.0135896
46.4221 37.8138 16.2004 0.43545 0.899864 -0.0250789
44.8436 38.5268 16.1726 0.386064 0.922144 -0.0245807
43.2556 39.1624 16.1567 0.349511 0.936403 -0.031502
41.3359 39.8243 16.1188 0.301876 0.952026 -0.0501674
39.3387 40.4332 16.0669 0.279058 0.959252 -0.0442951
37.6832 40.8651 16.0274 0.249547 0.967135 -0.0487438
36.0588 41.2323 16.0111 0.210568 0.976101 -0.0537452
33.9591 41.6498 16.0187 0.180256 0.98296 -0.0360316
32.2126 41.9687 16.0535 0.166755 0.985165 -0.0405242
30.324 42.2614 16.089 0.149736 0.987951 -0.0391324
28.4902 42.5234 16.1217 0.135367 0.990208 -0.0341315
26.5941 42.776 16.1803 0.126231 0.991491 -0.0318087
24.345 43.0615 16.2616 0.121609 0.992101 -0.0307603
22.4405 43.2929 16.354 0.117288 0.992696 -0.0282435
20.7075 43.4992 16.4615 0.114884 0.99298 -0.028148
19.0287 43.6958 16.5973 0.112618 0.993172 -0.0304494
17.162 43.9107 16.7657 0.110801 0.993329 -0.0319502
15.3934 44.1071 16.944 0.103802 0.994067 -0.0324797
13.5916 44.2958 17.1298 0.0987288 0.994506 -0.0347889
11.7024 44.4816 17.3434 0.0892173 0.995338 -0.0366442
9.66998 44.6611 17.6312 0.0765214 0.996268 -0.0399368
7.62527 44.8154 17.9249 0.0623902 0.997253 -0.0399116
5.46442 44.9415 18.2458 0.0425296 0.998442 -0.036111
3.81453 45.0093 18.5199 0.0286318 0.999003 -0.0342631
2.06875 45.0581 18.8282 0.0170458 0.999247 -0.0348636
0.29151 45.0781 19.1277 0.000840452 0.999521 -0.0309273
-1.29599 45.0743 19.4024 -0.0136179 0.999628 -0.0236196
-1.73364 45.0479 18.5025 -0.0104616 0.999643 -0.0245726
0.137702 45.05 18.1839 -0.00114522 0.999552 -0.029913
2.08157 45.0249 17.8527 0.0175335 0.999332 -0.0320708
4.05091 44.9673 17.5107 0.029731 0.998916 -0.0358162
5.99302 44.8792 17.2015 0.0472549 0.998225 -0.0362529
7.66295 44.7738 16.9438 0.0636069 0.99715 -0.040582
9.53863 44.6333 16.6715 0.0754883 0.996411 -0.0382919
11.2224 44.4897 16.4373 0.0828669 0.99588 -0.0368364
13.0119 44.3202 16.2217 0.0941159 0.994935 -0.0353073
14.9569 44.1207 16.0082 0.102477 0.994176 -0.0333607
16.9132 43.9086 15.807 0.107844 0.993747 -0.0289287
18.697 43.706 15.6366 0.111512 0.993346 -0.0288023
20.7039 43.4721 15.4816 0.115092 0.992971 -0.0276134
22.5098 43.2568 15.3709 0.118681 0.992515 -0.0287759
24.5718 43.003 15.2875 0.122408 0.99205 -0.0292158
26.5117 42.7559 15.2276 0.126788 0.991439 -0.0312131
28.5388 42.4833 15.1766 0.137481 0.989883 -0.0350688
30.5502 42.19 15.1489 0.150368 0.987931 -0.0371833
32.3152 41.911 15.1241 0.171777 0.984252 -0.0417205
34.3557 41.5343 15.0961 0.19455 0.979773 -0.046855
36.1934 41.1535 15.1092 0.211558 0.975891 -0.0536612
38.071 40.7219 15.1414 0.240006 0.96933 -0.052878
40.2597 40.1141 15.1925 0.288887 0.956437 -0.042092
41.8786 39.6136 15.238 0.302399 0.952522 -0.0354525
43.698 38.9621 15.2589 0.351962 0.935214 -0.0386973
45.3487 38.2805 15.2962 0.417623 0.908236 -0.0264353
47.0043 37.4935 15.3631 0.451344 0.892156 -0.0185923
48.6317 36.6482 15.4326 0.477363 0.878705 0.00153677
50.0867 35.7982 15.5117 0.522091 0.852831 0.0100635
51.7039 34.7588 15.628 0.550392 0.834806 0.0129137
53.2124 33.7376 15.7788 0.562597 0.826283 0.0272135
54.7469 32.6708 15.9629 0.572123 0.819627 0.0297707
56.2754 31.5775 16.1566 0.586177 0.80903 0.0431986
56.9675 31.0689 16.2517 0.590101 0.805844 0.048954
56.2477 31.6454 15.2613 0.58357 0.810856 0.0442504
54.8485 32.633 15.0878 0.568774 0.821747 0.0350511
53.4897 33.5763 14.9236 0.560658 0.827686 0.0244751
51.8708 34.6639 14.7624 0.54816 0.836255 0.0140468
50.2464 35.7093 14.6404 0.518346 0.855157 0.00486604
48.6497 36.6359 14.5616 0.479888 0.877313 -0.00543601
46.9818 37.4954 14.492 0.450418 0.892804 -0.00493707
45.4779 38.2054 14.4318 0.384428 0.922336 -0.038871
43.6058 38.9616 14.3782 0.358647 0.932661 -0.0389339
41.776 39.6089 14.3432 0.311743 0.948887 -0.0492897
40.0297 40.1419 14.2902 0.291483 0.955374 -0.0479467
38.0619 40.6755 14.2461 0.239911 0.969407 -0.0518931
36.3425 41.0749 14.209 0.214001 0.975896 -0.0427939
34.6583 41.4315 14.18 0.197416 0.979164 -0.0475991
32.8307 41.7808 14.1909 0.17591 0.983272 -0.0472526
30.9567 42.093 14.2074 0.151676 0.987754 -0.0365725
29.2054 42.3576 14.2217 0.141584 0.989261 -0.0362763
27.0659 42.6526 14.2545 0.131527 0.99082 -0.0312319
25.1125 42.9071 14.2928 0.125421 0.991664 -0.0295294
23.2422 43.1399 14.3593 0.120187 0.992362 -0.0277931
21.5265 43.3472 14.4484 0.117478 0.992684 -0.0278955
19.477 43.5881 14.5857 0.11308 0.993225 -0.026762
17.2347 43.8437 14.7731 0.107844 0.993747 -0.0289289
15.5472 44.0273 14.9554 0.101384 0.99447 -0.0273859
13.7828 44.2097 15.1525 0.0951335 0.995024 -0.0296163
11.7515 44.4066 15.3981 0.0877968 0.995508 -0.0354357
10.0349 44.5576 15.6251 0.0775037 0.996382 -0.0348767
8.35053 44.6893 15.8697 0.0648371 0.997321 -0.0338715
6.31275 44.823 16.1834 0.0515798 0.997823 -0.0410961
4.59701 44.9131 16.4622 0.0419065 0.998543 -0.0340004
2.74829 44.9782 16.7699 0.020669 0.999382 -0.0284281
1.01202 45.0157 17.0681 0.0127474 0.999566 -0.0265499
-0.922274 45.0255 17.3977 -0.00304364 0.999726 -0.0232218
-1.6354 45.0248 17.5178 -0.00921056 0.999671 -0.0239457
-1.53783 45.0031 16.539 -0.00615443 0.999715 -0.0230635
0.180023 44.9975 16.2483 0.000702263 0.999683 -0.0251617
1.8708 44.9726 15.9558 0.021999 0.999348 -0.0286241
3.58377 44.9218 15.6674 0.0311781 0.998951 -0.0335469
5.47075 44.8392 15.3525 0.0474809 0.998305 -0.0336564
7.29043 44.7302 15.0614 0.0600031 0.997626 -0.0338051
8.9323 44.6135 14.8122 0.0732784 0.996801 -0.0319061
10.7161 44.4667 14.5623 0.0797879 0.996335 -0.0308324
12.6619 44.2897 14.3109 0.0902301 0.995504 -0.0288174
14.6434 44.0936 14.0655 0.0979961 0.994781 -0.0284179
16.8397 43.8601 13.8198 0.107216 0.993912 -0.0253828
18.6118 43.6613 13.6585 0.110012 0.993604 -0.0254494
20.4785 43.4453 13.5232 0.116123 0.992886 -0.0263109
22.2926 43.2286 13.4237 0.118563 0.992583 -0.0268663
24.2368 42.9886 13.3357 0.124496 0.991789 -0.0292486
26.0357 42.7594 13.3045 0.131029 0.990884 -0.0313033
27.8867 42.5081 13.2911 0.136432 0.98999 -0.0361483
30.1328 42.1848 13.2755 0.147437 0.988368 -0.0372945
31.8011 41.917 13.2683 0.173338 0.984015 -0.0408368
33.4493 41.6208 13.2627 0.18139 0.982552 -0.0411003
35.1308 41.291 13.2775 0.200253 0.978821 -0.0425341
37.1247 40.8588 13.3257 0.228695 0.972207 -0.0501303
38.7947 40.4387 13.3666 0.256119 0.965008 -0.0562401
40.7139 39.889 13.422 0.286898 0.957013 -0.0426055
42.6718 39.2565 13.477 0.328781 0.943192 -0.0478741
44.8317 38.4364 13.5385 0.372006 0.927386 -0.0395878
46.4377 37.7471 13.5957 0.425972 0.904555 -0.0181186
48.1553 36.8951 13.6637 0.465327 0.885071 -0.0109554
49.6397 36.0708 13.7326 0.502776 0.864366 -0.00933151
51.1264 35.1661 13.8276 0.534236 0.845236 0.0129665
52.8301 34.0471 13.971 0.556175 0.830779 0.0217902
54.2375 33.0958 14.1301 0.557988 0.829104 0.0351661
55.5582 32.1836 14.2822 0.573667 0.817856 0.0449197
55.3867 32.3542 13.3766 0.56035 0.826772 0.049555
53.9934 33.2989 13.2135 0.557986 0.829105 0.0351627
52.3019 34.4229 13.0563 0.540109 0.84126 0.0237424
50.6999 35.4456 12.9431 0.520302 0.853938 0.00872545
49.229 36.3 12.8386 0.498692 0.866772 -0.00347596
47.6118 37.1587 12.7623 0.455479 0.89006 -0.0182054
46.066 37.9044 12.7043 0.424691 0.905158 -0.0180619
44.4685 38.5597 12.6564 0.366444 0.930251 -0.0187774
42.8537 39.1652 12.5988 0.320217 0.946655 -0.0361335
41.1256 39.7309 12.5412 0.295821 0.954582 -0.0355522
39.3571 40.2496 12.4882 0.26561 0.963275 -0.0393944
37.476 40.7294 12.4355 0.237173 0.970555 -0.0421006
35.5352 41.162 12.3767 0.214677 0.975565 -0.0467591
33.8793 41.5031 12.3478 0.189295 0.980984 -0.0428746
32.0754 41.8318 12.3396 0.172529 0.984275 -0.0379076
30.2943 42.1219 12.337 0.156493 0.986864 -0.0401146
28.5282 42.3869 12.343 0.139618 0.989595 -0.0347722
26.7266 42.6348 12.3343 0.135727 0.990207 -0.0326953
24.8807 42.8783 12.3453 0.127777 0.991366 -0.0294474
23.1781 43.094 12.4154 0.124015 0.991906 -0.0272468
21.0134 43.3567 12.5003 0.116813 0.992854 -0.0244194
19.1813 43.5718 12.6183 0.111963 0.993416 -0.0242512
17.5363 43.7587 12.7619 0.107535 0.993941 -0.022736
15.8438 43.943 12.9368 0.104323 0.994253 -0.0240276
14.0372 44.1282 13.1543 0.0977111 0.994874 -0.0260365
12.3584 44.2901 13.3588 0.0908464 0.995462 -0.0283403
10.6336 44.4446 13.6 0.0786776 0.996579 -0.0252832
8.5625 44.6093 13.8935 0.0681401 0.997278 -0.0281608
6.86049 44.7273 14.1605 0.0599615 0.99772 -0.0309904
4.67652 44.8458 14.5199 0.040714 0.998866 -0.0246709
3.018 44.9136 14.7985 0.0307118 0.999168 -0.0268403
1.063 44.9619 15.133 0.0120057 0.999584 -0.0262081
-0.702415 44.9799 15.4405 0.000667896 0.999777 -0.0211086
-1.34628 44.9804 15.5494 -0.00268071 0.99979 -0.0203127
-1.04505 44.9606 14.5401 -0.00341917 0.999811 -0.0191289
0.606984 44.9456 14.2541 0.0124457 0.999662 -0.0228143
2.46992 44.9073 13.9304 0.0239422 0.999422 -0.024139
4.5307 44.8287 13.5853 0.0386414 0.998903 -0.0264652
6.41988 44.7279 13.2636 0.0584525 0.997988 -0.0245681
8.0858 44.6183 12.9946 0.0651962 0.997518 -0.0265989
9.75324 44.4933 12.7412 0.0766983 0.996741 -0.0249972
11.8092 44.315 12.4461 0.0856706 0.996068 -0.0225662
13.749 44.1325 12.1956 0.0938668 0.995289 -0.0242791
15.5328 43.953 11.9864 0.0997079 0.99475 -0.023032
17.4542 43.7444 11.7639 0.108345 0.993843 -0.0231696
19.1013 43.5577 11.621 0.112111 0.993443 -0.0223983
20.7508 43.3642 11.5176 0.117088 0.992863 -0.0226784
22.7131 43.126 11.4211 0.122368 0.992147 -0.0258856
24.5271 42.8955 11.394 0.128969 0.991284 -0.0268767
26.3209 42.6591 11.3644 0.136807 0.990107 -0.0311875
27.9956 42.4274 11.3868 0.139663 0.989497 -0.0372877
29.6865 42.1797 11.4103 0.150377 0.987701 -0.0428061
31.7354 41.8481 11.4084 0.167294 0.984814 -0.0464104
33.6175 41.5111 11.4305 0.183639 0.981969 -0.044883
35.7126 41.0843 11.4837 0.21351 0.976013 -0.0425725
37.6632 40.6445 11.543 0.225659 0.973084 -0.0467397
39.4752 40.1771 11.5998 0.271009 0.961633 -0.0426233
41.092 39.7066 11.6507 0.295339 0.954621 -0.0383893
43.1665 39.0232 11.7341 0.327071 0.944261 -0.0373652
45.0972 38.2948 11.8035 0.375479 0.926669 -0.0173385
46.6576 37.609 11.8509 0.422909 0.906001 -0.0176186
48.1587 36.8639 11.9088 0.459949 0.887889 -0.00995963
49.95 35.8919 12.0233 0.491241 0.87102 -0.00261767
51.4949 34.9607 12.1393 0.529515 0.848261 0.00825769
53.1043 33.9245 12.2665 0.54219 0.839783 0.0281855
54.5321 32.9766 12.4055 0.553414 0.831903 0.0408778
55.0727 32.6164 12.4649 0.550661 0.833666 0.0421023
54.8366 32.8179 11.5621 0.550703 0.833653 0.0418231
53.2301 33.8764 11.4138 0.54611 0.837067 0.0329077
51.8143 34.7779 11.2921 0.524804 0.850967 0.0208786
50.3853 35.6509 11.1797 0.499798 0.866079 0.0104405
48.6822 36.5801 11.0718 0.460119 0.887847 -0.00425266
47.1159 37.3771 10.9888 0.417891 0.908295 -0.0191677
45.1577 38.2495 10.9232 0.39469 0.918517 -0.0233549
43.4859 38.8802 10.8681 0.332459 0.942715 -0.0275794
41.6593 39.491 10.7921 0.301351 0.952711 -0.0391116
39.71 40.0717 10.7165 0.273768 0.960801 -0.0437238
37.9164 40.5412 10.6532 0.2306 0.971897 -0.0473258
36.2772 40.9245 10.5989 0.230223 0.972257 -0.0414014
34.4344 41.3099 10.5414 0.193061 0.980536 -0.0357355
32.7149 41.6331 10.5011 0.178721 0.982889 -0.044594
31.0069 41.9281 10.4794 0.162156 0.985682 -0.0462186
29.0558 42.2352 10.4553 0.1485 0.988144 -0.0389855
27.3435 42.4858 10.4174 0.142769 0.989211 -0.0328558
25.6365 42.7208 10.3939 0.131629 0.990864 -0.0293644
23.4343 43.0086 10.4196 0.125251 0.991795 -0.0255947
21.7106 43.2241 10.4673 0.120298 0.992432 -0.0246273
19.9892 43.4313 10.5582 0.115864 0.993067 -0.0198116
18.2622 43.6328 10.6864 0.112171 0.993483 -0.0202416
16.5835 43.8205 10.8447 0.106472 0.994136 -0.0189172
14.8461 44.0033 11.0527 0.0987477 0.994957 -0.0175763
12.8762 44.1951 11.3012 0.0896893 0.995757 -0.0205704
10.8837 44.3765 11.5847 0.0822884 0.996364 -0.0220826
9.08581 44.5204 11.8694 0.0715479 0.997211 -0.0212215
7.01219 44.6678 12.196 0.0589362 0.998013 -0.0222923
5.06074 44.7817 12.5286 0.0444336 0.998765 -0.0222187
3.35948 44.8541 12.8249 0.036481 0.999088 -0.022209
1.66054 44.904 13.1144 0.0201458 0.999621 -0.01875
-0.02368 44.935 13.4105 0.0127587 0.99974 -0.0189131
-1.14846 44.9439 13.605 0.000492558 0.99983 -0.0184512
-0.764721 44.9243 12.5868 0.00593448 0.999859 -0.0157262
1.05251 44.8997 12.2682 0.0124571 0.999812 -0.0148609
3.03063 44.8469 11.9265 0.0279079 0.999453 -0.0177717
4.95082 44.767 11.5859 0.0423946 0.998957 -0.0169607
6.92022 44.6534 11.2432 0.0598458 0.998077 -0.0161575
8.84718 44.5215 10.9178 0.0715751 0.997285 -0.017305
10.7111 44.3734 10.6105 0.0808201 0.996619 -0.0147748
12.5777 44.2056 10.3389 0.0911325 0.99574 -0.0140422
14.4207 44.0285 10.0932 0.0969752 0.995133 -0.0174997
16.361 43.8261 9.86099 0.105378 0.994275 -0.0176835
18.3812 43.5996 9.66904 0.110985 0.993642 -0.0188963
20.3279 43.3701 9.53824 0.118551 0.992706 -0.0219074
22.2417 43.135 9.45192 0.123305 0.992141 -0.0212552
24.0296 42.9067 9.42978 0.131795 0.990901 -0.0273013
25.805 42.6699 9.42341 0.135374 0.990337 -0.0300912
27.7873 42.3889 9.47185 0.145631 0.988693 -0.0357442
29.713 42.1004 9.5409 0.149793 0.988031 -0.0368312
31.4288 41.8182 9.56347 0.166147 0.985277 -0.0403068
33.2744 41.4948 9.59791 0.181378 0.98255 -0.0411951
35.1971 41.1181 9.65784 0.204578 0.977907 -0.0429528
36.8291 40.7542 9.71251 0.230954 0.971883 -0.0458658
38.685 40.3091 9.78996 0.247425 0.967586 -0.0505695
40.5377 39.7964 9.86419 0.282782 0.958173 -0.0440293
42.4461 39.2109 9.94736 0.312946 0.94916 -0.034058
44.3615 38.5425 10.0052 0.351646 0.935908 -0.020548
46.1907 37.7815 10.076 0.401257 0.915853 -0.0143347
47.8587 36.999 10.1581 0.456436 0.88973 -0.00688332
49.7959 35.9889 10.2788 0.488305 0.872606 0.0107871
51.3524 35.0843 10.3871 0.518451 0.85475 0.0247218
52.7715 34.2008 10.5103 0.532809 0.845851 0.0254942
54.533 33.0568 10.66 0.54532 0.837565 0.0333215
54.6253 32.9965 10.6677 0.545322 0.837564 0.0333202
54.8819 32.8626 9.83493 0.544849 0.837859 0.0336482
53.4398 33.8043 9.70224 0.540453 0.84088 0.0288487
52.0048 34.7081 9.58205 0.526103 0.849985 0.0272058
50.4572 35.6281 9.45888 0.49642 0.868032 0.00939266
48.9452 36.4486 9.35714 0.455741 0.89011 0.00222776
47.0268 37.3909 9.24324 0.412685 0.910802 -0.0114875
45.0638 38.2387 9.15627 0.372298 0.927778 -0.0249442
43.2863 38.9018 9.07718 0.335486 0.94173 -0.0243469
41.4063 39.4991 9.01288 0.289021 0.95665 -0.0358844
39.4092 40.0741 8.93085 0.268665 0.962503 -0.0375206
37.6672 40.5196 8.84969 0.231059 0.971888 -0.0452327
35.9803 40.9058 8.77919 0.22202 0.974045 -0.0440766
34.0455 41.3078 8.71434 0.185557 0.9815 -0.0471946
32.3316 41.6238 8.66282 0.176985 0.983356 -0.041066
30.6813 41.9061 8.62262 0.165274 0.985513 -0.03805
28.9057 42.1881 8.56637 0.154734 0.987309 -0.0357492
27.2609 42.4351 8.50766 0.143519 0.989133 -0.0319145
25.4671 42.6871 8.46187 0.137726 0.989995 -0.0306928
23.7552 42.9162 8.44349 0.131832 0.990952 -0.0251949
21.8426 43.1634 8.4616 0.124285 0.992002 -0.0220458
19.743 43.4202 8.54816 0.119442 0.992647 -0.0196244
18.0013 43.6246 8.68967 0.112388 0.993535 -0.0160109
16.0901 43.839 8.88099 0.105885 0.994279 -0.0140359
13.9701 44.0582 9.1316 0.0964247 0.995264 -0.0122934
12.2353 44.2243 9.36469 0.0895919 0.995891 -0.0132204
10.3295 44.3903 9.66914 0.0808201 0.996619 -0.0147748
8.21752 44.5527 10.0404 0.0684451 0.997578 -0.01238
6.16365 44.6853 10.4152 0.0593974 0.998168 -0.0114724
4.46624 44.7745 10.7153 0.0419157 0.999053 -0.0116385
2.61975 44.8437 11.0478 0.0290916 0.999454 -0.0156718
0.729193 44.8937 11.3785 0.0168785 0.999768 -0.0134019
-0.341854 44.9081 11.5641 0.00795022 0.999904 -0.0113116
0.170925 44.8923 10.5303 0.00888049 0.999947 -0.00515007
2.25219 44.8448 10.1644 0.0246923 0.999641 -0.0103974
3.95201 44.7865 9.85638 0.0367282 0.999311 -0.00537601
5.79818 44.6946 9.51454 0.0538479 0.998535 -0.00532699
7.60967 44.5838 9.16975 0.0639394 0.997933 -0.00646213
9.24088 44.4671 8.86091 0.0745527 0.99718 -0.00856291
10.9681 44.3267 8.54951 0.0850822 0.996317 -0.0106155
12.8304 44.1569 8.26041 0.0931438 0.995622 -0.00776174
14.5035 43.9943 8.02162 0.100039 0.994931 -0.0101745
16.6108 43.7674 7.77293 0.107385 0.994114 -0.0143452
18.3721 43.5656 7.62967 0.114962 0.993231 -0.016598
20.5325 43.3052 7.50428 0.119427 0.992676 -0.0181938
22.232 43.0927 7.46676 0.127818 0.99155 -0.0221439
23.9999 42.8597 7.46622 0.133151 0.990771 -0.0253754
26.0106 42.5828 7.51828 0.138952 0.989929 -0.0270729
27.9555 42.3012 7.58769 0.148711 0.988372 -0.0317173
29.9511 41.9926 7.6821 0.161914 0.986192 -0.0347798
31.8196 41.6766 7.7311 0.169886 0.984707 -0.038619
33.8454 41.3047 7.80027 0.188602 0.98115 -0.0421102
35.6021 40.9505 7.86392 0.212845 0.97602 -0.0456392
37.258 40.5744 7.93595 0.231063 0.971887 -0.0452348
38.8835 40.1726 8.01577 0.24994 0.967687 -0.0333378
40.5789 39.7164 8.08957 0.278006 0.959976 -0.0340347
42.5684 39.1124 8.16934 0.301283 0.952859 -0.0359017
44.317 38.5054 8.24696 0.333378 0.942656 -0.0160832
46.0866 37.7965 8.32332 0.40321 0.914958 -0.0165193
47.6404 37.106 8.40616 0.429624 0.902988 -0.00595957
49.2991 36.2713 8.51098 0.460737 0.887521 0.00532985
50.839 35.4257 8.62349 0.494124 0.86925 0.0156633
52.3996 34.4931 8.74922 0.525911 0.849952 0.0316168
54.0406 33.444 8.89704 0.54297 0.83923 0.0296101
55.0594 32.7793 8.9918 0.544839 0.838066 0.0281918
55.2708 32.6695 8.14047 0.545842 0.837451 0.0270733
53.7861 33.6394 8.00214 0.542381 0.83967 0.0278827
52.2095 34.6424 7.8683 0.517515 0.855273 0.0262201
50.5783 35.5833 7.7422 0.478067 0.87788 0.0278946
48.8239 36.5233 7.61314 0.460739 0.88752 0.00532566
47.2411 37.2855 7.50897 0.40205 0.915597 0.00622992
45.3733 38.0847 7.40821 0.363296 0.931611 -0.0108136
43.6903 38.71 7.32906 0.33244 0.942879 -0.0215008
41.9382 39.2807 7.25772 0.304749 0.952006 -0.0284886
40.0459 39.8329 7.17831 0.267038 0.963183 -0.0311202
38.3611 40.2768 7.10932 0.242029 0.969667 -0.0341893
36.7325 40.6603 7.02122 0.225941 0.973424 -0.0373564
34.9693 41.0442 6.9436 0.20752 0.977348 -0.0415437
33.0769 41.4111 6.86732 0.183615 0.98218 -0.0401021
31.0926 41.7682 6.79221 0.171884 0.984485 -0.0352896
29.2457 42.0712 6.70876 0.157699 0.98689 -0.034332
27.5071 42.3372 6.62654 0.151299 0.987973 -0.0319011
25.4003 42.6415 6.53707 0.139143 0.989894 -0.0273594
23.5281 42.8988 6.47855 0.135173 0.99053 -0.0240547
21.5668 43.1561 6.47771 0.127467 0.99159 -0.0223712
19.8326 43.3722 6.52189 0.119592 0.992685 -0.0165721
18.0996 43.5824 6.60914 0.119404 0.992736 -0.0147537
16.4421 43.7729 6.73441 0.11 0.9939 -0.00791822
14.6738 43.9661 6.9502 0.10774 0.994165 -0.00533814
13.0162 44.1327 7.1983 0.093906 0.99558 -0.00141112
10.9438 44.324 7.53527 0.0859878 0.99629 -0.00357228
9.07921 44.4727 7.89827 0.0740411 0.997248 -0.00389086
7.19331 44.6046 8.2767 0.0652483 0.997864 -0.00332722
5.28934 44.7154 8.6489 0.0505657 0.99869 -0.00784044
3.54535 44.7966 8.98147 0.0384121 0.999242 -0.00635385
1.85171 44.8482 9.29072 0.0248389 0.999678 -0.0051723
4.047 44.7746 7.93712 0.0367788 0.999323 0.000967355
5.70944 44.6916 7.60562 0.0515346 0.998669 -0.00191787
7.53172 44.5828 7.22656 0.0641377 0.997941 -0.000147724
9.29918 44.4567 6.84904 0.0754095 0.997149 0.00285406
10.9794 44.3193 6.51735 0.0862528 0.996273 -0.000535904
12.8389 44.1492 6.18313 0.0958161 0.995399 -0.00078464
14.4759 43.9834 5.93444 0.105206 0.994441 -0.00422827
16.1774 43.7944 5.71599 0.11091 0.993822 -0.00397906
17.8948 43.5926 5.57206 0.119921 0.992724 -0.0108879
19.7073 43.372 5.49544 0.120634 0.992604 -0.0135974
21.5322 43.1397 5.48328 0.128311 0.991544 -0.0194045
23.4028 42.8929 5.49639 0.134433 0.990699 -0.0210659
25.2697 42.6355 5.57608 0.142136 0.989495 -0.026386
27.3106 42.339 5.67149 0.148751 0.988431 -0.0296204
29.2382 42.0398 5.77742 0.157878 0.986847 -0.0347472
30.8875 41.7695 5.86849 0.166842 0.985357 -0.0351496
32.9022 41.4073 5.96585 0.185789 0.981918 -0.0363167
34.7736 41.0458 6.04332 0.198007 0.979218 -0.0438777
36.708 40.6341 6.13093 0.223916 0.974095 -0.0316327
38.5166 40.2091 6.22333 0.235899 0.971313 -0.0300355
40.3875 39.7104 6.30357 0.268281 0.962859 -0.0304693
42.0066 39.2342 6.3723 0.302826 0.952702 -0.0255955
43.6127 38.7169 6.43575 0.315328 0.948811 -0.01808
45.486 38.029 6.52985 0.361744 0.932058 -0.0202428
47.0433 37.3819 6.62035 0.403713 0.914824 0.0106458
49.1569 36.3786 6.76855 0.45367 0.890775 0.0265113
51.0127 35.373 6.9156 0.492175 0.870088 0.026649
52.5378 34.4635 7.03728 0.529213 0.848073 0.0265759
54.0691 33.4837 7.15256 0.545779 0.837547 0.0253137
55.7694 32.36 7.30472 0.554672 0.831967 0.0130543
56.3668 31.9663 6.48024 0.567677 0.823208 0.00848087
54.9537 32.9259 6.35414 0.552488 0.833248 0.0213447
53.3733 33.9642 6.22232 0.546152 0.837272 0.0263345
51.9524 34.8503 6.11822 0.505272 0.862235 0.0353592
50.2761 35.8 5.98288 0.474927 0.879608 0.0270976
48.3706 36.7952 5.8354 0.444003 0.895846 0.0179531
46.7633 37.505 5.72679 0.380665 0.924708 -0.00303409
44.7453 38.2994 5.60929 0.347632 0.937528 -0.0139238
43.1293 38.8583 5.52923 0.308211 0.951184 -0.0159603
41.519 39.3562 5.45808 0.28387 0.958613 -0.0219012
39.762 39.8556 5.38538 0.268281 0.962859 -0.0304693
37.9753 40.3095 5.29946 0.233281 0.971865 -0.0325205
36.3324 40.683 5.22059 0.214275 0.976029 -0.0381358
34.2097 41.1274 5.12754 0.195292 0.98021 -0.0323821
31.8988 41.5571 5.01459 0.179068 0.98315 -0.0367488
30.1741 41.856 4.9125 0.170204 0.984802 -0.0345857
28.5132 42.1272 4.79706 0.156884 0.987177 -0.0294805
26.7021 42.4024 4.70253 0.148833 0.988453 -0.0284368
24.6543 42.7005 4.59504 0.140487 0.989835 -0.0221375
22.5739 42.9838 4.49577 0.134161 0.990796 -0.0180321
20.541 43.2513 4.44787 0.127949 0.991675 -0.0144631
18.6915 43.4844 4.47821 0.121154 0.992564 -0.0117513
16.6067 43.7377 4.61351 0.11717 0.993103 -0.00423693
14.9547 43.9286 4.82144 0.110167 0.993913 -0.00013765
13.2408 44.1094 5.0745 0.101764 0.994794 0.00531443
