-8.97661 52.401 8.04277 0.0641983 -0.99792 0.00591382
-10.1273 52.3189 7.77048 0.0775972 -0.996984 -0.00147236
-11.2874 52.2236 7.60073 0.0860541 -0.99629 -0.000743673
-12.3692 52.1296 7.48568 0.0876505 -0.996151 -0.00118829
-13.4824 52.0234 7.37626 0.0995553 -0.995026 -0.00358506
-14.5467 51.9041 7.33074 0.113077 -0.993543 -0.00916896
-15.6036 51.7793 7.18765 0.123286 -0.99228 -0.0134218
-16.8253 51.6137 7.03957 0.144807 -0.989355 -0.0144311
-18.0227 51.4315 7.08606 0.161591 -0.986689 -0.0182672
-19.2118 51.2327 7.14331 0.1695 -0.985451 -0.0125208
-20.2871 51.0405 7.22346 0.17985 -0.983574 -0.0153889
-21.544 50.7908 7.40602 0.19892 -0.979872 -0.0167119
-22.6632 50.5503 7.62535 0.208966 -0.977844 -0.0124169
-23.6411 50.3217 8.07049 0.225783 -0.974009 -0.018054
-24.539 50.0923 8.83885 0.234345 -0.971993 -0.0176431
-25.2233 49.9018 9.79724 0.24492 -0.969281 -0.0225298
-25.6695 49.7629 10.9422 0.256595 -0.966212 -0.0237624
-25.78 49.6973 12.2507 0.25674 -0.966149 -0.0253088
-25.7606 49.6681 13.516 0.263007 -0.964481 -0.024541
-25.795 49.6285 14.7274 0.268061 -0.963024 -0.0260107
-25.8436 49.5762 16.0338 0.273996 -0.961343 -0.0273067
-25.8118 49.5572 17.1736 0.278307 -0.960218 -0.0229565
-25.7454 49.5473 18.3544 0.281655 -0.959177 -0.0254868
-25.6951 49.5333 19.4938 0.28081 -0.959518 -0.0217162
-25.6931 49.5025 20.6107 0.28189 -0.958971 -0.0301982
-25.6101 49.4869 22.0131 0.287483 -0.957519 -0.0226047
-25.3843 49.5245 23.3619 0.286694 -0.95782 -0.0196764
-25.4363 49.4906 24.5224 0.288195 -0.957508 -0.0110244
-25.3776 49.4854 25.7519 0.293383 -0.955752 -0.0213389
-25.3727 49.4581 27.0826 0.291084 -0.956513 -0.0187736
-25.2896 49.4594 28.5023 0.294296 -0.955633 -0.0125121
-25.2116 49.464 29.7704 0.299259 -0.953933 -0.0213539
-25.1665 49.4539 31.0597 0.297541 -0.954651 -0.0104935
-25.1192 49.4553 32.2736 0.30083 -0.953588 -0.0130827
-25.0403 49.4608 33.5848 0.29812 -0.954461 -0.0101103
-24.9982 49.4673 34.7578 0.299983 -0.953907 -0.00736955
-25.0928 49.4267 35.8758 0.303879 -0.952667 -0.0091639
-25.1829 49.386 36.9971 0.297687 -0.954576 -0.0127329
-25.1027 49.3944 38.2376 0.291211 -0.9566 -0.010437
-25.0424 49.3975 39.615 0.289299 -0.957198 -0.0088619
-24.9471 49.4162 40.8347 0.28619 -0.958156 -0.00559195
-24.8758 49.4252 41.9736 0.285227 -0.958362 -0.0137025
-24.9332 49.3938 43.0572 0.282079 -0.959326 -0.0111742
-24.8204 49.4148 44.3807 0.279957 -0.95999 -0.0066212
-24.6883 49.4464 45.5018 0.281124 -0.959654 -0.00566441
-24.315 49.5497 46.5151 0.273175 -0.961941 -0.00612713
-23.5227 49.7645 47.6411 0.26595 -0.963935 -0.00821664
-22.5371 50.0258 48.0287 0.247231 -0.968901 -0.0104159
-21.4063 50.3108 48.2206 0.242951 -0.970004 -0.00815146
-20.2811 50.586 48.2354 0.231389 -0.972856 -0.00319128
-19.1336 50.8432 48.0801 0.213839 -0.976849 -0.00629036
-17.6184 51.1595 47.5697 0.199492 -0.979883 -0.00565319
-16.1954 51.4357 47.1554 0.181078 -0.983408 -0.00920831
-14.9984 51.6557 46.624 0.171081 -0.985135 -0.0138856
-13.8439 51.8542 46.0431 0.154739 -0.987865 -0.0113828
-12.7021 52.0281 45.3584 0.139354 -0.990205 -0.00859934
-11.5418 52.1927 44.7968 0.130231 -0.991435 -0.00958564
-10.5402 52.3219 44.3747 0.121263 -0.992579 -0.00902337
-9.41616 52.4628 43.6037 0.112892 -0.993548 -0.0108595
-8.3228 52.5895 42.9354 0.106228 -0.994297 -0.00883458
-7.22277 52.7076 42.4582 0.103315 -0.994602 -0.00962128
-6.10312 52.8274 41.9102 0.0999764 -0.994926 -0.0113037
-5.18122 52.9278 41.2948 0.100193 -0.994886 -0.0128127
-4.25673 53.0272 40.6386 0.0987223 -0.995022 -0.0135214
-3.1561 53.1446 39.9692 0.0997402 -0.994969 -0.0093872
-2.17612 53.2514 39.4491 0.103389 -0.994591 -0.00955534
-1.17782 53.36 38.9288 0.110303 -0.993878 -0.00633065
-0.291155 53.4649 38.3363 0.114217 -0.993409 -0.00963725
0.644887 53.5785 37.6936 0.124329 -0.992241 -0.000699914
1.58112 53.6963 37.1238 0.131328 -0.991314 -0.00143386
3.07358 53.9038 36.2666 0.144313 -0.989491 0.00378162
4.02245 54.0497 35.6846 0.157311 -0.98751 0.0074539
5.01977 54.2034 34.9406 0.168204 -0.985518 0.0214698
5.91432 54.3449 34.1748 0.180442 -0.982785 0.0396885
6.64461 54.4423 33.3895 0.173249 -0.983892 0.0440578
7.39076 54.5225 32.5855 0.163856 -0.984297 0.0656511
8.41469 54.584 31.4596 0.155099 -0.981091 0.11578
8.97381 54.5164 30.4552 0.0847756 -0.986719 0.138557
9.60934 54.3703 29.2293 0.0658958 -0.988213 0.134884
10.1346 54.2368 28.2138 -0.00150967 -0.989657 0.143441
10.8247 54.0449 27.3213 -0.0831228 -0.9809 0.17564
11.507 53.8189 26.4478 -0.150349 -0.970492 0.188522
12.2775 53.5327 25.5568 -0.182867 -0.96696 0.177618
13.1388 53.2689 24.8688 -0.172226 -0.975097 0.138859
14.3397 52.9374 24.1782 -0.199401 -0.971056 0.130531
15.3172 52.7033 23.8173 -0.192765 -0.975285 0.107989
16.4785 52.4825 23.6468 -0.175908 -0.980904 0.0829736
17.5597 52.2771 23.5432 -0.17022 -0.982884 0.0693466
18.6547 52.0809 23.3965 -0.165924 -0.98471 0.0526909
19.9153 51.8756 23.3548 -0.150803 -0.987788 0.039023
21.2093 51.682 23.3939 -0.149137 -0.9883 0.0319606
22.4993 51.5033 23.5246 -0.134163 -0.990583 0.0272948
23.5682 51.3614 23.5819 -0.129198 -0.991382 0.0216904
24.7049 51.2151 23.6183 -0.123613 -0.992061 0.0229497
25.9792 51.0665 23.8207 -0.114781 -0.99311 0.0236327
27.0668 50.9449 23.8749 -0.109927 -0.993717 0.0210309
28.3271 50.8131 23.9297 -0.100421 -0.994811 0.0163275
29.4888 50.7027 23.9529 -0.0936073 -0.995419 0.0194436
30.8074 50.5891 24.0053 -0.0795213 -0.996697 0.0165061
31.9208 50.5011 23.9813 -0.0770869 -0.996926 0.014015
33.16 50.4135 24.141 -0.071911 -0.997268 0.0167576
34.3997 50.3229 24.2455 -0.0744585 -0.997042 0.0190558
35.6109 50.2332 24.3672 -0.0920643 -0.995339 0.0269355
36.7738 50.1168 24.4613 -0.100895 -0.994442 0.0295
37.8578 49.9781 24.5009 -0.141861 -0.988578 0.0508839
38.9288 49.8089 24.5816 -0.174872 -0.983418 0.048053
39.992 49.6041 24.8209 -0.225556 -0.973079 0.045834
41.265 49.2838 25.0131 -0.284932 -0.956729 0.0590208
42.6605 48.8386 25.029 -0.31981 -0.946601 0.0408346
43.701 48.4828 25.2695 -0.350153 -0.936284 0.0275147
44.7027 48.0924 25.419 -0.389538 -0.920595 0.0276626
45.7015 47.6433 25.4078 -0.420539 -0.906746 0.0301061
46.6895 47.1705 25.4112 -0.447203 -0.893703 0.0361277
47.8934 46.5517 25.2848 -0.460529 -0.887031 0.0330186
48.878 46.0151 25.1964 -0.498882 -0.866036 0.0319762
50.1327 45.2791 25.1784 -0.512455 -0.858174 0.0279885
51.5375 44.4023 25.0554 -0.529315 -0.848253 0.017086
52.6572 43.667 24.8516 -0.551699 -0.833972 0.0104713
53.8394 42.8731 24.6968 -0.560473 -0.82809 0.0116937
54.8046 42.1998 24.4293 -0.57554 -0.817716 0.00973674
55.6337 41.6061 24.0694 -0.587484 -0.809232 0.00261116
56.5872 40.9036 23.7724 -0.599655 -0.800243 -0.00488513
57.5363 40.1899 23.4195 -0.609314 -0.792834 -0.0122947
58.6468 39.3402 23.1496 -0.612824 -0.79009 -0.0136431
59.537 38.6498 22.8521 -0.618323 -0.785779 -0.01486
60.4171 37.9568 22.6485 -0.623341 -0.781803 -0.0149323
61.3101 37.2489 22.3319 -0.626595 -0.779162 -0.0166393
62.1594 36.5692 22.0271 -0.631476 -0.775271 -0.0128249
63.3402 35.6014 21.7328 -0.637711 -0.77017 -0.0123465
64.4464 34.678 21.6656 -0.644303 -0.764675 -0.0120665
65.6439 33.6683 21.5361 -0.645676 -0.763517 -0.0120145
66.4865 32.9547 21.5015 -0.646008 -0.763226 -0.0126689
67.5828 32.0303 21.2134 -0.647506 -0.76198 -0.011075
68.7261 31.0651 20.8547 -0.647932 -0.761641 -0.00922901
69.6882 30.2483 20.6629 -0.648285 -0.761364 -0.00718877
70.5582 29.5051 20.2984 -0.652565 -0.757705 -0.00584397
71.5287 28.6698 19.7113 -0.653631 -0.756801 -0.00432713
72.3562 27.9515 19.12 -0.657603 -0.753359 -0.0027008
73.1891 27.225 18.5421 -0.658369 -0.752693 -0.000104665
73.9247 26.5737 17.4666 -0.662325 -0.749208 0.00315772
74.2807 26.2435 15.926 -0.665243 -0.746567 0.00941163
74.2538 26.255 14.8346 -0.667317 -0.744689 0.010778
74.1644 26.3185 13.7516 -0.669503 -0.742733 0.010638
74.0049 26.4314 12.4272 -0.677942 -0.734838 0.02019
74.0789 26.3273 11.3121 -0.681556 -0.731213 0.0280999
74.0634 26.3004 10.1181 -0.685702 -0.727233 0.0306479
74.081 26.2408 9.0756 -0.688226 -0.724703 0.033725
74.0633 26.2044 7.98348 -0.69147 -0.721554 0.0349517
74.0018 26.185 6.44538 -0.694438 -0.718497 0.0387604
73.8913 26.2152 5.12472 -0.696108 -0.716718 0.0418247
73.6332 26.4071 4.02647 -0.700477 -0.712568 0.0397386
73.0082 26.9706 3.07507 -0.702061 -0.711064 0.0387188
72.2532 27.6711 2.26263 -0.701864 -0.711233 0.0391744
71.5836 28.2937 1.57552 -0.701407 -0.711629 0.0401503
70.8362 28.9826 0.723844 -0.703223 -0.709727 0.0419778
69.8878 29.8893 0.121365 -0.707941 -0.70482 0.0452246
69.1194 30.6321 -0.363901 -0.71183 -0.700869 0.0456
68.3423 31.3615 -1.31603 -0.713709 -0.699018 0.0446448
67.423 32.2575 -1.99712 -0.714671 -0.697829 0.0477513
66.7169 32.9536 -2.46316 -0.722617 -0.689701 0.046152
66.05 33.6161 -3.0638 -0.722745 -0.689694 0.0442811
65.3914 34.2563 -3.99191 -0.726056 -0.686702 0.0358252
64.7238 34.9254 -4.87282 -0.731511 -0.681274 0.0275376
63.9373 35.7177 -5.95426 -0.727371 -0.68552 0.0315151
62.9972 36.6594 -7.02759 -0.716072 -0.697882 0.0141857
62.2351 37.4111 -7.96814 -0.712321 -0.701358 0.026383
61.4511 38.1713 -8.74381 -0.698117 -0.715708 0.0197738
61.352 38.2654 -8.83361 -0.696948 -0.716886 0.0183765
61.7577 37.8437 -9.67435 -0.706986 -0.70684 0.0207183
62.5289 37.0782 -8.88458 -0.713502 -0.700256 0.0233182
63.1664 36.44 -8.12837 -0.72468 -0.688708 0.022795
63.9112 35.6828 -7.22863 -0.734414 -0.678279 0.0239454
64.7535 34.8336 -6.1221 -0.733746 -0.678456 0.0362594
65.4432 34.1318 -5.21215 -0.736504 -0.675546 0.03462
66.1016 33.4695 -4.39245 -0.734529 -0.676788 0.049252
66.7803 32.8075 -3.50364 -0.730985 -0.679891 0.0583818
67.7911 31.8043 -2.86872 -0.716763 -0.694766 0.0594287
68.5883 31.0439 -2.22411 -0.714651 -0.697242 0.055815
69.2032 30.4703 -1.49129 -0.713472 -0.698907 0.0498771
70.035 29.673 -0.85109 -0.70917 -0.703098 0.0522647
71.0306 28.7235 -0.299682 -0.701084 -0.711522 0.046941
71.8761 27.9505 0.619172 -0.701218 -0.711765 0.0410308
72.5162 27.3574 1.27812 -0.701722 -0.711387 0.0389208
73.3282 26.6011 2.10611 -0.70246 -0.710615 0.039707
73.9854 25.9981 2.95137 -0.702953 -0.710103 0.040125
74.426 25.6141 3.84462 -0.701047 -0.71184 0.0426313
74.6454 25.48 5.19008 -0.701489 -0.711267 0.0448663
74.7084 25.4924 6.32647 -0.694729 -0.718012 0.0425279
74.7619 25.5056 7.4148 -0.690399 -0.722452 0.0375742
74.7951 25.5406 8.67666 -0.690163 -0.72261 0.0388698
74.8007 25.5976 9.92062 -0.688889 -0.723981 0.0358224
74.8187 25.6354 11.185 -0.679791 -0.732714 0.0318323
74.8657 25.6463 12.6366 -0.674696 -0.737654 0.0255452
74.9298 25.6219 13.7813 -0.672246 -0.740068 0.0192327
74.9894 25.5948 14.9308 -0.667776 -0.744239 0.0135169
75.0259 25.5815 16.0513 -0.66542 -0.7464 0.0101345
74.8518 25.7516 17.3152 -0.665261 -0.746585 0.00603597
74.3125 26.2347 18.472 -0.663163 -0.74847 0.00292422
73.7273 26.7525 19.2565 -0.659884 -0.751367 0.000120903
72.931 27.4493 19.8771 -0.656549 -0.754282 -0.000977391
72.1036 28.1678 20.4806 -0.65614 -0.754636 -0.00215601
71.3018 28.8594 21.0503 -0.653353 -0.757048 -0.00292258
70.3695 29.6585 21.453 -0.649435 -0.760404 -0.00446712
69.5366 30.3668 21.7072 -0.647192 -0.762285 -0.00803815
68.6047 31.1558 21.923 -0.647049 -0.762407 -0.00790047
67.7928 31.841 22.1779 -0.645706 -0.763544 -0.00803553
66.7326 32.7311 22.5001 -0.645653 -0.763548 -0.0112522
65.8955 33.4389 22.5329 -0.646741 -0.762616 -0.011911
65.0316 34.1698 22.6378 -0.645359 -0.763836 -0.00818338
63.9762 35.062 22.7317 -0.643568 -0.765361 -0.00416868
63.1026 35.7883 22.794 -0.633427 -0.773794 -0.00284142
62.1607 36.5496 23.133 -0.6273 -0.778724 -0.00920427
61.284 37.2494 23.3614 -0.62426 -0.781113 -0.0127207
60.1685 38.1344 23.6346 -0.621296 -0.78342 -0.0156128
59.3111 38.8081 23.94 -0.615476 -0.788095 -0.00977034
58.4072 39.5114 24.1607 -0.614048 -0.789209 -0.00950042
57.4494 40.2459 24.5347 -0.608778 -0.793322 -0.00547741
56.4856 40.9793 24.8378 -0.60762 -0.794212 -0.00206097
55.4419 41.7474 25.2211 -0.59161 -0.80622 0.00256596
54.4331 42.4746 25.6103 -0.575079 -0.817992 0.00802384
53.2999 43.2545 25.7876 -0.560056 -0.828289 0.0144035
51.9221 44.1694 25.9946 -0.54336 -0.839236 0.0210366
50.7288 44.9361 26.1913 -0.528139 -0.848511 0.033148
49.4265 45.7355 26.2463 -0.516863 -0.855545 0.0296598
48.3985 46.3247 26.2334 -0.490981 -0.870149 0.0420243
46.9913 47.0676 26.4307 -0.450212 -0.891696 0.0462683
45.9684 47.5631 26.3834 -0.416557 -0.907831 0.0481913
44.5938 48.1768 26.3715 -0.389237 -0.919556 0.0538946
43.5725 48.5778 26.2371 -0.34741 -0.936431 0.0490246
42.1831 49.0536 26.0062 -0.316659 -0.946144 0.0673677
41.0892 49.3893 26.0487 -0.27012 -0.96129 0.0543784
39.6861 49.737 25.7805 -0.201478 -0.97732 0.0576666
38.4479 49.9417 25.5494 -0.173578 -0.983552 0.0499013
37.0667 50.1155 25.4926 -0.116404 -0.992841 0.0267693
35.8338 50.2383 25.3947 -0.0728303 -0.997192 0.0174276
34.7438 50.3155 25.237 -0.073691 -0.997138 0.0168843
33.5362 50.402 25.2913 -0.068534 -0.997578 0.0118468
32.3587 50.484 25.0276 -0.072309 -0.997298 0.0123957
31.1556 50.5769 24.9856 -0.0803719 -0.996645 0.0154936
29.7003 50.7006 24.9287 -0.0899229 -0.995863 0.0130949
28.4703 50.8154 24.9431 -0.0970549 -0.995208 0.011854
27.1097 50.9575 24.8635 -0.10792 -0.994077 0.012797
25.8328 51.1019 24.82 -0.118527 -0.992781 0.0174632
24.4799 51.2679 24.6387 -0.125355 -0.991896 0.0204655
23.4059 51.4085 24.6277 -0.135948 -0.990466 0.0220897
21.8467 51.6234 24.5014 -0.146232 -0.988816 0.0293255
20.6484 51.799 24.333 -0.152934 -0.987679 0.0331752
19.5809 51.9743 24.3704 -0.16898 -0.984598 0.0448542
18.3607 52.1946 24.4723 -0.174088 -0.982882 0.0603074
17.0589 52.4447 24.626 -0.186775 -0.98014 0.0666107
15.9056 52.6728 24.7161 -0.249832 -0.963138 0.0818518
14.6462 52.9936 25.1697 -0.202332 -0.97214 0.117952
13.567 53.3065 25.7654 -0.218171 -0.964979 0.144909
12.7803 53.5871 26.4376 -0.211421 -0.958041 0.193543
12.0903 53.9022 27.3617 -0.154541 -0.970576 0.18466
11.2667 54.1767 28.2802 -0.0764478 -0.979421 0.186096
10.6293 54.4268 29.3666 0.00982637 -0.973785 0.22726
10.1163 54.6005 30.3869 0.0719661 -0.983941 0.163345
9.51742 54.7523 31.5232 0.142029 -0.973923 0.174478
8.73211 54.7899 32.7225 0.18127 -0.976947 0.112763
7.66089 54.6625 33.7105 0.206176 -0.976479 0.0624179
6.87326 54.544 34.6376 0.209953 -0.976789 0.0385139
6.06588 54.3998 35.3403 0.187347 -0.982135 0.017645
5.15258 54.2355 36.0525 0.172142 -0.985056 0.00549497
4.20594 54.0832 36.7596 0.163889 -0.986459 0.000666532
3.11004 53.9117 37.4014 0.147409 -0.989073 -0.00221452
2.12027 53.767 37.9781 0.14121 -0.9899 -0.0125207
1.11254 53.6304 38.576 0.121589 -0.992534 -0.00952747
0.0980839 53.498 39.2728 0.117293 -0.993018 -0.0115114
-1.18163 53.3479 40.0627 0.108484 -0.994011 -0.0131972
-2.17524 53.2374 40.5825 0.104351 -0.994429 -0.0146654
-3.47768 53.0944 41.3772 0.0987224 -0.995022 -0.0135214
-4.44948 52.9903 41.9671 0.0962776 -0.99522 -0.016371
-5.43096 52.8849 42.6218 0.0966538 -0.995193 -0.0157618
-6.50292 52.7722 43.2631 0.0971045 -0.995233 -0.0090787
-7.69883 52.6474 43.7124 0.103203 -0.994624 -0.00849654
-8.96397 52.5049 44.517 0.111875 -0.993679 -0.00905065
-10.0119 52.3797 45.2551 0.112788 -0.993591 -0.00747417
-11.2067 52.2298 45.6866 0.128517 -0.991674 -0.00664515
-12.1808 52.0948 46.2042 0.137294 -0.990504 -0.00663292
-13.2584 51.9353 46.89 0.151324 -0.988457 -0.00725756
-14.4141 51.7449 47.4301 0.166281 -0.986041 -0.00849862
-15.5699 51.5394 48.0001 0.174801 -0.98458 -0.0063984
-16.9434 51.2851 48.4203 0.189769 -0.981827 -0.00198956
-18.1619 51.0407 48.8622 0.203271 -0.979123 -0.00011986
-19.3108 50.7978 49.1836 0.210459 -0.977576 -0.007243
-20.6235 50.5018 49.2504 0.231768 -0.972735 -0.0016788
-21.9957 50.1582 49.2293 0.246355 -0.96918 -0.00019033
-23.233 49.8357 48.9076 0.259762 -0.965667 -0.00317754
-24.4199 49.5128 48.3262 0.272486 -0.962144 -0.00309207
-25.0334 49.3391 47.2501 0.279552 -0.960125 -0.00228618
-25.563 49.1856 46.1575 0.28337 -0.959006 -0.00301661
-25.7286 49.1428 44.8378 0.284776 -0.958582 -0.00473369
-25.8918 49.1017 43.5494 0.285757 -0.958284 -0.00590134
-25.8437 49.1288 42.1963 0.289349 -0.957182 -0.00896942
-25.8881 49.1274 41.0293 0.293871 -0.955816 -0.00750063
-26.004 49.0989 39.9605 0.295285 -0.955368 -0.0084806
-26.0394 49.1014 38.6881 0.297929 -0.95453 -0.0105172
-26.1052 49.0967 37.0722 0.298206 -0.954471 -0.00757884
-26.0604 49.12 35.9157 0.300738 -0.953685 -0.00640481
-25.9318 49.1691 34.756 0.304767 -0.9524 -0.00710472
-26.0383 49.1458 33.5235 0.305315 -0.952195 -0.0102144
-26.0519 49.1572 32.2947 0.305968 -0.951957 -0.0127156
-26.1076 49.1558 30.992 0.303075 -0.952861 -0.0137348
-26.1322 49.1691 29.8794 0.305133 -0.952099 -0.0199384
-26.2214 49.1646 28.5469 0.300843 -0.953539 -0.0156391
-26.335 49.1503 27.416 0.307983 -0.951179 -0.0201098
-26.3054 49.1813 26.3409 0.301165 -0.953351 -0.0204696
-26.3822 49.1859 25.0744 0.301895 -0.953129 -0.0200478
-26.3948 49.204 23.9895 0.298862 -0.954038 -0.0221755
-26.4815 49.2121 22.5234 0.295197 -0.955012 -0.0277909
-26.6712 49.1902 21.2997 0.292544 -0.955803 -0.0292743
-26.6536 49.2386 19.8855 0.286802 -0.957627 -0.0263343
-26.717 49.2549 18.581 0.285819 -0.95789 -0.0274662
-26.7667 49.279 17.1636 0.277398 -0.960371 -0.0271709
-26.8264 49.3014 15.7939 0.277857 -0.9602 -0.0284777
-26.79 49.3482 14.6297 0.272905 -0.961575 -0.0299452
-26.7074 49.4053 13.5543 0.272945 -0.961556 -0.0301834
-26.7454 49.4301 12.4126 0.26203 -0.964592 -0.0300407
-26.7297 49.4705 11.1609 0.260168 -0.965184 -0.0270646
-26.4129 49.5875 10.0273 0.257691 -0.965816 -0.0281771
-25.9687 49.7383 8.86505 0.249501 -0.968 -0.0257019
-25.2783 49.9307 8.03853 0.23806 -0.970996 -0.0222149
-24.3232 50.1769 7.26301 0.22704 -0.973634 -0.0216645
-23.4081 50.4033 6.7569 0.217566 -0.975851 -0.0194862
-22.0857 50.6994 6.50353 0.20358 -0.978765 -0.0229902
-20.9255 50.9386 6.29095 0.189849 -0.981479 -0.023954
-19.8688 51.1362 6.15208 0.173699 -0.984467 -0.0249126
-18.6411 51.3467 6.17644 0.16663 -0.985857 -0.0172563
-17.5618 51.5195 6.10802 0.149952 -0.988576 -0.0142898
-16.0285 51.7379 6.09366 0.13286 -0.991048 -0.0109617
-14.8061 51.8865 6.30684 0.110335 -0.993771 -0.0155686
-13.6096 52.0159 6.34712 0.0987655 -0.995029 -0.012792
-12.2937 52.1382 6.51159 0.0875186 -0.99616 -0.00222565
-11.2151 52.2323 6.61708 0.0840824 -0.996453 -0.00136115
-10.1164 52.3212 6.76247 0.0739006 -0.997257 0.00028139
-8.53729 52.4282 7.13774 0.0633246 -0.997992 -0.0011927
-7.37194 52.4978 7.2854 0.0533293 -0.998569 -0.000131347
-6.24576 52.5522 7.52125 0.0461023 -0.998935 0.00089246
-5.01709 52.6007 7.69331 0.0325678 -0.999466 0.00250197
-3.73163 52.6433 8.00135 0.0292723 -0.999556 0.00411421
-2.41652 52.6738 8.17675 0.0205056 -0.999773 0.00575484
-1.3179 52.6904 8.3842 0.00893213 -0.999921 0.00805933
-0.189107 52.7006 8.58904 0.00697196 -0.999911 0.0113688
1.43963 52.7019 9.00179 -0.00417716 -0.99988 0.0148019
2.66562 52.684 9.15405 -0.0172521 -0.999701 0.0173263
3.8585 52.6535 9.27916 -0.0280492 -0.999471 0.0164317
4.93346 52.6186 9.50165 -0.036948 -0.999126 0.0193472
6.41006 52.5626 9.757 -0.0453286 -0.998719 0.02248
7.6216 52.5075 10.0886 -0.0552727 -0.998213 0.0226843
8.71324 52.4468 10.2533 -0.0639137 -0.997654 0.0241159
10.0725 52.3553 10.4135 -0.0735435 -0.996973 0.0248064
11.3887 52.267 10.8462 -0.0836128 -0.996109 0.0278363
12.4785 52.1789 10.9666 -0.0960284 -0.99519 0.0193149
13.611 52.0765 11.1039 -0.0942032 -0.995127 0.0291051
14.8975 51.9576 11.3147 -0.0985005 -0.994751 0.0277244
16.4462 51.8056 11.5251 -0.103954 -0.994218 0.0268992
17.7827 51.6722 11.8296 -0.107047 -0.993868 0.0276899
19.0304 51.5459 12.2101 -0.111117 -0.993466 0.0260525
20.2776 51.4054 12.2096 -0.112558 -0.993313 0.0256745
21.7465 51.2433 12.4856 -0.115708 -0.992927 0.026586
23.032 51.0968 12.6436 -0.116921 -0.99277 0.027143
24.4144 50.9369 12.7637 -0.117715 -0.992647 0.0281919
25.4834 50.8124 12.8798 -0.11939 -0.992434 0.0286519
26.6573 50.6723 12.9128 -0.118125 -0.992498 0.0315221
27.9727 50.5145 12.9421 -0.120919 -0.992066 0.0343961
29.0597 50.3793 12.8569 -0.12274 -0.99168 0.0388024
30.4239 50.2141 12.9199 -0.123908 -0.991268 0.0451093
31.7604 50.0398 12.8132 -0.127972 -0.990412 0.052038
32.8334 49.8918 12.709 -0.133574 -0.989565 0.0540051
34.013 49.7217 12.6775 -0.14286 -0.9877 0.0635627
35.2556 49.5332 12.6229 -0.157064 -0.984786 0.0743338
36.3287 49.3486 12.4677 -0.177545 -0.981126 0.0766191
37.8292 49.0529 12.2779 -0.191868 -0.977567 0.0867208
38.9555 48.8191 12.2207 -0.209265 -0.973875 0.0881747
40.1248 48.5519 12.1674 -0.220026 -0.971201 0.0913311
41.1924 48.2693 12.0408 -0.253498 -0.962635 0.0952506
42.2023 47.9483 11.5354 -0.282397 -0.954956 0.0911548
43.2133 47.5954 10.8921 -0.287795 -0.954945 0.0724287
44.3205 47.1659 9.84859 -0.307551 -0.949034 0.0689041
45.1832 46.8132 8.802 -0.314802 -0.947 0.0639601
45.9173 46.5019 7.75603 -0.336215 -0.940709 0.0450155
46.2667 46.3312 6.70619 -0.329708 -0.943597 0.0298371
46.2466 46.2882 5.27811 -0.307424 -0.951107 0.0293264
45.912 46.3619 3.97379 -0.304476 -0.952287 0.0210768
45.3742 46.5062 2.91276 -0.275613 -0.961223 0.00943423
44.5784 46.7226 2.01199 -0.259589 -0.965626 0.0118973
43.7948 46.9137 1.05816 -0.249386 -0.968266 0.0161862
42.909 47.1295 0.234789 -0.241889 -0.970228 0.00979297
42.2261 47.2863 -0.586752 -0.23378 -0.972236 0.00949356
41.0636 47.5481 -1.43124 -0.221852 -0.975 0.0125106
40.1409 47.748 -2.10743 -0.214007 -0.976712 0.0153176
38.9138 47.9997 -3.04048 -0.206434 -0.978375 0.0129263
38.1281 48.1571 -3.75118 -0.20511 -0.978669 0.0113854
37.5837 48.2571 -4.71088 -0.198049 -0.980121 0.0118322
38.6733 48.0272 -5.24209 -0.204523 -0.978826 0.00836368
39.7548 47.7994 -5.42445 -0.20943 -0.977793 0.00680755
41.0199 47.5267 -5.77029 -0.210894 -0.977505 0.00236737
42.2761 47.2548 -6.05306 -0.212812 -0.977093 -7.98556e-05
43.3474 47.0184 -6.18206 -0.215969 -0.976376 -0.00684956
44.5182 46.7625 -6.62333 -0.217061 -0.975963 -0.019503
45.5219 46.5448 -6.984 -0.216551 -0.975884 -0.026322
46.7907 46.2778 -7.4843 -0.223487 -0.973832 -0.0403392
47.8223 46.0709 -7.98528 -0.217968 -0.97467 -0.0500817
48.8316 45.8609 -8.46077 -0.231762 -0.968859 -0.0871763
49.8876 45.6169 -9.0844 -0.293271 -0.949549 -0.111121
50.7522 45.3967 -9.72836 -0.327915 -0.934186 -0.134549
51.7716 45.0922 -10.3342 -0.420109 -0.895923 -0.144328
52.8627 44.6841 -11.2088 -0.472031 -0.870664 -0.138281
54.0961 44.0348 -11.8264 -0.527802 -0.844943 -0.0843457
55.0348 43.449 -12.0077 -0.555916 -0.829253 -0.0574126
55.9155 42.8582 -12.2376 -0.580646 -0.812839 -0.0412212
56.8639 42.156 -12.179 -0.59896 -0.800216 -0.0292495
57.9812 41.2792 -11.8499 -0.617562 -0.786307 -0.0183851
58.8826 40.5123 -11.6163 -0.648649 -0.760893 0.00224754
59.6528 39.833 -11.2658 -0.673516 -0.739124 -0.000917112
60.3828 39.156 -10.7398 -0.687234 -0.726416 -0.00546008
61.1825 38.4061 -10.2091 -0.692318 -0.72136 0.00986083
61.6961 37.9022 -9.73591 -0.701082 -0.712908 0.0133854
61.9235 37.6464 -10.801 -0.71379 -0.700146 0.0173138
62.5433 37.033 -10.0625 -0.713717 -0.700219 0.0173823
63.2204 36.3474 -9.37339 -0.723101 -0.690552 0.0161951
63.8797 35.671 -8.5454 -0.735723 -0.676994 0.0191592
64.5697 34.9472 -7.67089 -0.739154 -0.672759 0.0308258
65.2962 34.2103 -6.67015 -0.741046 -0.670183 0.0412299
65.9687 33.5161 -5.8883 -0.742438 -0.668343 0.0458657
66.5759 32.8927 -5.18472 -0.738891 -0.671913 0.050499
67.2686 32.2178 -4.34092 -0.727587 -0.682327 0.0710468
68.1617 31.3555 -3.7152 -0.711256 -0.700181 0.0619561
69.2745 30.3016 -2.7574 -0.711419 -0.700409 0.0575404
69.9402 29.6732 -2.1414 -0.711137 -0.701027 0.053346
70.7153 28.9358 -1.67621 -0.70019 -0.711945 0.0532037
71.6729 28.0584 -0.860835 -0.698472 -0.714057 0.0475233
72.3091 27.4794 -0.19501 -0.699011 -0.714157 0.0369314
73.1575 26.6813 0.495026 -0.70314 -0.709957 0.0394485
73.9926 25.9134 1.55146 -0.702541 -0.710558 0.0392805
74.6213 25.3383 2.41399 -0.704072 -0.709006 0.0398967
75.134 24.8928 3.51649 -0.704671 -0.708167 0.0440222
75.361 24.7585 4.96677 -0.703201 -0.709348 0.0482431
75.4197 24.7912 6.08724 -0.695157 -0.716759 0.0538104
75.4833 24.8044 7.33156 -0.694205 -0.718487 0.0430798
75.5382 24.8202 8.45452 -0.688745 -0.723951 0.0390398
75.5536 24.8721 9.64557 -0.684981 -0.727616 0.0370937
75.5889 24.914 11.0132 -0.681457 -0.730889 0.0371399
75.6107 24.9459 12.1404 -0.677049 -0.735222 0.0318405
75.6663 24.9557 13.6847 -0.670229 -0.741619 0.0275062
75.7529 24.9139 15.0587 -0.666625 -0.745262 0.0139717
75.772 24.9223 16.3631 -0.662446 -0.749006 0.0124424
75.6433 25.0482 17.4425 -0.66393 -0.747751 0.00804412
75.2284 25.426 18.5472 -0.662318 -0.749205 0.0050571
74.4888 26.0843 19.6994 -0.660346 -0.750959 0.00144313
73.4917 26.9603 20.5853 -0.65844 -0.752631 0.000393767
72.6167 27.7186 21.3693 -0.655982 -0.75477 -0.00325272
71.8665 28.3715 21.8689 -0.655039 -0.755585 0.00153005
70.9399 29.167 22.2481 -0.649615 -0.760253 -0.00387119
70.1232 29.8627 22.4955 -0.647738 -0.761846 -0.00494954
68.7321 31.038 23.0056 -0.646438 -0.762949 -0.00514412
67.7771 31.8411 23.3029 -0.643286 -0.765597 -0.00660611
66.9439 32.5373 23.4494 -0.645273 -0.763843 -0.0129558
65.8098 33.4965 23.5666 -0.648201 -0.761355 -0.0131891
64.968 34.2114 23.6683 -0.648626 -0.761007 -0.0123284
63.9459 35.0798 23.8359 -0.646454 -0.76295 0.00207611
63.0651 35.8159 23.8748 -0.630341 -0.776292 -0.000133378
62.011 36.6534 24.217 -0.622433 -0.782553 -0.0134404
61.0835 37.3921 24.3585 -0.626109 -0.779632 -0.0121748
60.0222 38.236 24.6829 -0.620664 -0.784005 -0.0104457
58.8284 39.1706 25.1258 -0.616977 -0.786909 -0.0104125
57.8232 39.9501 25.4636 -0.612019 -0.790827 -0.00493334
56.8774 40.6813 25.8151 -0.608949 -0.793207 0.0022184
55.8164 41.477 26.1069 -0.590504 -0.807022 0.00441918
54.9501 42.1202 26.4695 -0.586695 -0.809487 0.0180829
53.9812 42.8042 26.7161 -0.562181 -0.826701 0.0227637
53.1029 43.4055 26.8447 -0.562512 -0.826484 0.0224445
52.1617 44.0455 26.9577 -0.540454 -0.840363 0.0412231
51.1435 44.703 27.1788 -0.53666 -0.843298 0.0283555
50.1283 45.3454 27.2528 -0.519825 -0.853786 0.028457
49.2215 45.8966 27.4024 -0.514252 -0.856794 0.03807
48.1673 46.5092 27.3319 -0.469662 -0.88119 0.0476591
46.6486 47.3012 27.4019 -0.45229 -0.889023 0.0687825
45.612 47.7843 27.3497 -0.411184 -0.909368 0.0630713
44.6217 48.2361 27.3561 -0.398231 -0.913589 0.082263
43.4197 48.6927 27.267 -0.342977 -0.937294 0.0618141
42.4173 49.0516 27.0869 -0.29604 -0.952767 0.0665172
41.0521 49.4552 27.0665 -0.296806 -0.950303 0.0904047
40.0136 49.7112 26.9201 -0.23116 -0.972309 0.0343664
38.435 50.0196 26.5871 -0.179762 -0.980793 0.0757062
37.1305 50.1477 26.5027 -0.114837 -0.992422 0.043716
35.6423 50.2803 26.3472 -0.0748643 -0.99651 0.0369093
34.5597 50.3409 26.1861 -0.0721948 -0.997347 0.00926722
33.1193 50.442 26.3245 -0.065597 -0.997807 0.00881727
32.0085 50.5154 26.0406 -0.0710679 -0.997462 0.00429601
30.1759 50.6673 26.0011 -0.086761 -0.996185 0.00934793
28.8792 50.7843 25.9155 -0.0938071 -0.995558 0.00420985
27.6234 50.9145 25.9457 -0.106825 -0.994245 0.00809353
26.2911 51.0604 25.8082 -0.111224 -0.99378 0.00546226
25.0726 51.2124 25.8387 -0.124117 -0.992195 0.0120229
23.6517 51.3939 25.6373 -0.136749 -0.990489 0.015169
22.4812 51.5542 25.5885 -0.13631 -0.990529 0.0164951
21.3641 51.7237 25.4674 -0.153899 -0.987681 0.0283008
20.2089 51.8998 25.4698 -0.163124 -0.986135 0.0279118
19.066 52.1078 25.4413 -0.18285 -0.982523 0.0348569
18.0137 52.3105 25.5069 -0.196095 -0.979042 0.0549942
16.9413 52.5462 25.7483 -0.204184 -0.976272 0.0721284
15.8739 52.7897 25.8964 -0.304801 -0.948549 0.0857413
14.8532 53.0747 26.2656 -0.243317 -0.963142 0.114689
13.7382 53.4295 26.7812 -0.228715 -0.96177 0.150628
13.0915 53.7514 27.6441 -0.235297 -0.955414 0.178378
12.1681 54.2087 28.7578 -0.11504 -0.960497 0.2534
11.6511 54.4703 29.6535 -0.0292587 -0.976138 0.21517
11.1706 54.743 30.6599 0.00770112 -0.970297 0.241796
10.6255 54.9091 31.599 0.190415 -0.948531 0.253043
10.0125 55.0681 32.7212 0.213019 -0.956833 0.192742
9.16971 54.9988 33.6692 0.258598 -0.958418 0.120221
8.34855 54.8546 34.4276 0.276121 -0.960035 -0.0426874
7.56411 54.7063 35.3848 0.200359 -0.979481 0.0213259
6.49057 54.4783 36.2232 0.200221 -0.97923 -0.0188498
5.55147 54.3112 36.986 0.17118 -0.985217 0.00670564
4.70284 54.1577 37.6373 0.1705 -0.985184 -0.0139942
3.78449 54.0097 38.1892 0.146958 -0.989136 -0.00373116
2.72133 53.8476 38.8184 0.148632 -0.988871 -0.00657297
1.52899 53.6632 39.5029 0.115621 -0.992832 -0.0302723
0.459386 53.5271 40.1996 0.106464 -0.994277 -0.00884958
-0.433278 53.4223 40.7989 0.112091 -0.99365 -0.00971735
-1.46429 53.2987 41.318 0.0996416 -0.994768 -0.0225363
-2.40393 53.1917 41.9408 0.0986119 -0.99498 -0.0170217
-3.50567 53.072 42.5563 0.0985455 -0.994969 -0.0180257
-4.72366 52.9408 43.3619 0.0927042 -0.995538 -0.017352
-6.32909 52.7782 44.2984 0.0937545 -0.995522 -0.0120187
-7.61017 52.6471 44.8595 0.106137 -0.99434 -0.00482799
-8.92413 52.5019 45.717 0.110833 -0.993817 -0.00515862
-10.456 52.3187 46.593 0.12133 -0.992582 -0.00563098
-11.4541 52.1882 46.9939 0.133174 -0.991079 -0.00521841
-12.4593 52.0476 47.6485 0.139109 -0.990269 -0.00403794
-13.5124 51.8886 48.1148 0.153946 -0.988072 -0.00346817
-14.9355 51.6511 48.7884 0.169715 -0.985465 0.00189116
-15.9946 51.4617 49.1923 0.176757 -0.984252 0.00233379
-17.1281 51.2493 49.6147 0.194907 -0.98082 0.00167361
-18.4579 50.9805 50.0511 0.203042 -0.979141 0.00339195
-19.4938 50.7569 50.2803 0.222424 -0.974942 -0.00405758
-20.6845 50.4853 50.2522 0.220996 -0.975259 0.00110165
-21.9177 50.18 50.3255 0.238825 -0.970948 0.0149061
-23.1103 49.8679 50.0083 0.257271 -0.966317 0.00573175
-24.3919 49.5199 49.5052 0.268422 -0.963251 0.00983107
-25.4342 49.2157 48.7828 0.283177 -0.959058 -0.00442563
-25.9802 49.0576 47.7393 0.285625 -0.958339 -0.0021046
-26.582 48.8796 46.351 0.289026 -0.957314 0.00140982
-26.7249 48.8426 44.7633 0.290641 -0.956824 -0.00409856
-26.8423 48.8122 43.5476 0.293308 -0.955989 -0.00738954
-26.8086 48.8342 42.0386 0.296358 -0.955033 -0.00920573
-26.8777 48.8208 40.9311 0.297878 -0.954579 -0.00685728
-26.9586 48.8037 39.6913 0.304765 -0.952409 -0.00531163
-26.9907 48.8091 38.2526 0.29728 -0.954738 -0.0100043
-27.0803 48.7912 36.9872 0.300337 -0.953825 -0.00397784
-27.0724 48.7973 35.6451 0.302252 -0.953227 -0.00143339
-26.9012 48.859 34.6018 0.306514 -0.951832 -0.00813103
-27.0357 48.8264 33.3002 0.310055 -0.950683 -0.00804378
-26.9607 48.8636 32.1951 0.310722 -0.950408 -0.0133028
-27.0375 48.8577 30.8834 0.310208 -0.950552 -0.0148988
-27.0691 48.8698 29.6516 0.3092 -0.950803 -0.0192012
-27.198 48.8497 28.5122 0.309357 -0.950783 -0.0175865
-27.3356 48.8302 27.2346 0.312679 -0.94964 -0.0204026
-27.292 48.8686 26.144 0.307758 -0.951161 -0.024048
-27.3835 48.8709 24.9096 0.302419 -0.952853 -0.0247837
-27.4053 48.9043 23.2865 0.2952 -0.955011 -0.0277822
-27.6204 48.8816 21.8359 0.297882 -0.954159 -0.0289881
-27.622 48.9266 20.4608 0.294858 -0.955035 -0.0309218
-27.6549 48.951 19.3752 0.29054 -0.956383 -0.0302751
-27.7091 48.9763 17.8804 0.28892 -0.957003 -0.0258837
-27.757 49.0048 16.5925 0.285329 -0.957973 -0.0295905
-27.7945 49.03 15.5059 0.284724 -0.958038 -0.0331055
-27.7447 49.0893 14.2256 0.272924 -0.961506 -0.0319176
-27.7828 49.1229 13.0079 0.268255 -0.962179 -0.0474481
-27.8046 49.1605 11.7523 0.265418 -0.96357 -0.032959
-27.534 49.2803 10.3376 0.252851 -0.967034 -0.0301849
-27.2203 49.3986 9.19291 0.25965 -0.965107 -0.0335544
-26.8501 49.5299 8.17618 0.250214 -0.967657 -0.0321398
-26.0325 49.769 7.08797 0.238715 -0.970701 -0.0274483
-25.1129 50.0097 6.55315 0.233261 -0.972046 -0.0261352
-23.7069 50.3665 5.76612 0.225195 -0.973524 -0.0381244
-22.1032 50.7262 5.5657 0.202532 -0.978537 -0.0369475
-20.8668 50.9821 5.22037 0.182067 -0.982701 -0.0330753
-19.6208 51.2079 5.04011 0.17441 -0.984388 -0.0232995
-18.1465 51.4496 5.1926 0.153376 -0.987776 -0.0278303
-17.0426 51.6153 5.05985 0.142446 -0.989544 -0.022606
-15.5702 51.8114 5.11366 0.123643 -0.992173 -0.0174773
-14.4616 51.9409 5.34757 0.109895 -0.99374 -0.0201001
-13.2293 52.0611 5.29585 0.0934125 -0.99561 -0.00596823
-12.0817 52.164 5.48489 0.0861955 -0.996243 -0.00842462
-10.7796 52.2722 5.59158 0.0801512 -0.996767 -0.00478755
-9.50199 52.3667 5.90644 0.0705819 -0.997498 -0.00401904
-8.20846 52.4524 6.21363 0.0628296 -0.997991 -0.00814991
-6.94935 52.5198 6.34069 0.0495725 -0.998752 -0.00577542
-5.68639 52.5775 6.60158 0.0432838 -0.999041 -0.00606599
-4.50367 52.6169 6.79016 0.0322222 -0.99947 -0.00384294
-3.33372 52.6496 7.07503 0.0289377 -0.999578 -0.0022603
-2.03738 52.683 7.24723 0.026041 -0.999582 -0.0125899
-0.978809 52.6919 7.41851 0.00763852 -0.999939 -0.00801676
0.101051 52.6986 7.70475 0.00138035 -0.999976 0.00210078
1.40714 52.6944 7.89738 -0.00205828 -0.999976 0.00662227
2.50531 52.681 8.08216 -0.0349257 -0.999358 0.00801009
3.88696 52.6373 8.24128 -0.032481 -0.999439 0.00810882
5.10776 52.5958 8.51436 -0.0373506 -0.999183 0.015455
6.37471 52.5503 8.80148 -0.043908 -0.999014 0.00653042
7.48492 52.4913 8.96747 -0.0549544 -0.998383 0.0145701
8.54547 52.4339 9.19962 -0.0648937 -0.997652 0.0218811
9.66733 52.36 9.24667 -0.0666174 -0.997736 0.00925863
10.8732 52.2789 9.60808 -0.0751055 -0.996946 0.0213983
11.9259 52.2019 9.85769 -0.0795172 -0.996642 0.0195417
13.1825 52.0904 9.94096 -0.0984916 -0.994921 0.0207243
14.501 51.9661 10.1932 -0.0989627 -0.994814 0.0234838
15.6928 51.8515 10.381 -0.100282 -0.994576 0.0276018
16.9294 51.7314 10.5318 -0.104589 -0.994224 0.0239054
18.2688 51.5975 10.9768 -0.107316 -0.993932 0.0241372
19.4992 51.4693 11.2567 -0.110392 -0.993637 0.0223613
20.646 51.3382 11.2184 -0.113477 -0.993268 0.0232828
21.731 51.218 11.3946 -0.116805 -0.992894 0.0227487
23.0665 51.0657 11.6017 -0.117106 -0.992811 0.0247606
24.1992 50.9341 11.7032 -0.118692 -0.992599 0.0256712
25.4934 50.7822 11.8656 -0.120202 -0.99237 0.0274116
27.3859 50.5518 11.9303 -0.122333 -0.991979 0.0317544
28.492 50.4166 11.907 -0.12287 -0.991873 0.0327286
29.5531 50.2728 11.7131 -0.128682 -0.990913 0.0390632
30.9898 50.0964 11.8317 -0.129408 -0.990603 0.0438472
32.1711 49.9268 11.6581 -0.138425 -0.989216 0.0478584
33.4394 49.7492 11.7039 -0.142571 -0.988352 0.0532281
34.5335 49.5831 11.5613 -0.14337 -0.98829 0.0522312
35.7969 49.3739 11.5571 -0.164103 -0.985125 0.0509577
37.0382 49.1307 11.3109 -0.187544 -0.980275 0.0623209
38.5644 48.8204 11.2363 -0.204584 -0.975352 0.0818497
39.6338 48.5694 11.0601 -0.217545 -0.973047 0.0765095
41.2873 48.1509 10.9226 -0.26004 -0.962925 0.0717962
42.1625 47.8591 10.2537 -0.279453 -0.957298 0.0740736
43.1505 47.5255 9.6734 -0.292225 -0.954255 0.0632073
43.9279 47.2225 8.73262 -0.310426 -0.949304 0.0495755
44.7027 46.9236 7.93698 -0.318639 -0.946423 0.0524608
45.3356 46.639 6.59997 -0.312697 -0.948743 0.0456092
45.3429 46.583 5.3709 -0.293903 -0.955229 0.0340312
45.0465 46.6369 4.32054 -0.290493 -0.956608 0.0227088
44.3081 46.8278 3.19451 -0.268133 -0.962849 0.030594
43.6272 46.9833 2.38975 -0.248314 -0.968404 0.0231098
42.6734 47.2087 1.2394 -0.256187 -0.96631 0.0247448
41.6752 47.4332 0.530221 -0.237207 -0.971138 0.0230364
40.9894 47.5882 -0.279719 -0.235862 -0.971678 0.0145204
39.5182 47.898 -1.301 -0.214734 -0.976497 0.0183537
38.5826 48.0884 -2.0786 -0.209759 -0.977554 0.0197467
37.4877 48.2992 -3.03744 -0.200035 -0.979635 0.0173754
36.5628 48.4731 -3.9531 -0.198616 -0.979942 0.0161867
36.3092 48.5086 -5.16063 -0.194285 -0.980905 0.00877273
37.2658 48.311 -5.99795 -0.193895 -0.981 0.0057174
38.538 48.0512 -6.21841 -0.200486 -0.979693 0.000279416
39.6764 47.8142 -6.45785 -0.209665 -0.977772 0.00137687
40.9456 47.5419 -6.75994 -0.208908 -0.977935 0.000938328
42.1719 47.2799 -7.08848 -0.211893 -0.977284 -0.0042065
43.5482 46.981 -7.35395 -0.215746 -0.976434 -0.00552239
45.1293 46.6547 -7.82664 -0.206631 -0.978104 -0.0245015
46.2029 46.4421 -8.28659 -0.208931 -0.977295 -0.0352363
47.2917 46.2334 -8.79571 -0.218242 -0.974304 -0.0556985
48.3609 46.0314 -9.33467 -0.211665 -0.975301 -0.0631424
49.3308 45.8796 -9.87354 -0.291438 -0.950456 -0.108152
50.4894 45.6948 -10.7665 -0.294291 -0.935441 -0.191482
51.7276 45.3356 -11.624 -0.43728 -0.882906 -0.171065
52.5787 44.9972 -12.2225 -0.450037 -0.878669 -0.15793
53.6336 44.4403 -12.8464 -0.547302 -0.8314 -0.0961012
54.6667 43.7681 -12.9047 -0.550132 -0.830996 -0.082464
55.586 43.1369 -13.2224 -0.566957 -0.822631 -0.0428629
56.5811 42.4305 -13.2719 -0.598155 -0.799506 -0.0547858
57.5943 41.6331 -13.0769 -0.622234 -0.780454 -0.060965
58.4724 40.8854 -12.8425 -0.650518 -0.759164 -0.0222744
59.25 40.1989 -12.5512 -0.65961 -0.75136 -0.016881
60.0822 39.4441 -12.1482 -0.684481 -0.728892 -0.0142472
60.8954 38.6707 -11.6084 -0.695708 -0.718318 -0.00318425
61.7729 37.7972 -10.9124 -0.714318 -0.69965 0.0153446
61.8113 37.7589 -10.8777 -0.713791 -0.700145 0.0173114
69.7966 30.1856 17.2422 -0.653306 -0.757065 -0.00598158
68.9983 30.8689 17.6012 -0.65269 -0.757585 -0.00776555
68.1234 31.6201 17.6795 -0.652253 -0.757949 -0.00893066
67.0009 32.5866 17.568 -0.652817 -0.75738 -0.0143621
66.0973 33.3722 17.2756 -0.653871 -0.756361 -0.0192532
65.3054 34.0686 16.7839 -0.64927 -0.760214 -0.022868
64.57 34.729 16.1157 -0.651421 -0.75799 -0.0331912
63.7086 35.5201 15.0722 -0.652693 -0.756478 -0.0416217
63.2023 36.0085 14.0192 -0.646538 -0.761599 -0.0442215
62.8877 36.3335 13.0316 -0.643054 -0.764296 -0.0483001
62.7131 36.5388 11.9769 -0.635134 -0.770823 -0.0493655
62.6328 36.6955 10.556 -0.634971 -0.770989 -0.0488696
62.767 36.6472 9.4718 -0.640131 -0.766996 -0.044148
63.1109 36.4264 8.1219 -0.641862 -0.766057 -0.0341895
63.6574 36.0056 6.78387 -0.652653 -0.757328 -0.0223091
64.34 35.4369 5.97991 -0.662907 -0.748553 -0.0127738
65.2494 34.611 4.88654 -0.680775 -0.732476 0.00499301
65.9527 33.9471 4.36165 -0.692463 -0.721391 0.00719108
66.6811 33.245 3.97371 -0.693548 -0.720306 0.0114404
67.7354 32.2024 3.69244 -0.701814 -0.712162 0.016829
68.4983 31.4482 3.74525 -0.704422 -0.709425 0.022085
69.5745 30.3917 4.0032 -0.701445 -0.712168 0.0281296
70.5527 29.4564 4.67873 -0.701002 -0.712534 0.0298473
71.2145 28.8345 5.33273 -0.697284 -0.716159 0.0301741
71.823 28.2781 6.1961 -0.694728 -0.718732 0.0277594
72.3199 27.8373 7.10188 -0.69246 -0.72086 0.0293343
72.789 27.4374 8.33044 -0.691309 -0.721887 0.0310938
73.009 27.2669 9.358 -0.688284 -0.724857 0.0290031
73.0935 27.2359 10.8772 -0.684078 -0.729051 0.022789
73.1129 27.2453 11.9893 -0.681859 -0.731354 0.0137291
72.9051 27.4546 13.1919 -0.675776 -0.737071 0.00583443
72.534 27.7977 14.1465 -0.673692 -0.739002 0.00385519
72.0446 28.2349 15.0182 -0.664668 -0.747126 -0.00441012
71.4503 28.7553 15.8153 -0.65896 -0.752151 -0.00602014
70.7514 29.365 16.3796 -0.657235 -0.753655 -0.0059565
70.2234 29.8177 16.8875 -0.655215 -0.755414 -0.00640927
69.7441 30.2402 16.1748 -0.654178 -0.756308 -0.00701372
70.4373 29.6452 15.519 -0.658961 -0.752151 -0.00601944
71.3134 28.8877 14.6241 -0.661657 -0.749768 -0.00616214
71.9063 28.3673 13.6504 -0.669054 -0.743173 -0.000822824
72.3193 27.9867 12.5642 -0.675775 -0.737072 0.00585006
72.4177 27.8819 11.3655 -0.682956 -0.730317 0.0140681
72.3619 27.9019 10.098 -0.686273 -0.727067 0.0199955
72.1543 28.0591 8.70387 -0.690904 -0.722416 0.0276828
71.6238 28.5186 7.38152 -0.692954 -0.720474 0.0270524
71.0672 29.0204 6.45783 -0.695869 -0.717704 0.025817
70.1871 29.8408 5.48079 -0.697496 -0.716186 0.0240158
69.296 30.6948 4.9328 -0.700083 -0.71373 0.0217351
68.2841 31.6854 4.73119 -0.703013 -0.710965 0.0173498
67.3667 32.5898 4.72807 -0.699003 -0.714975 0.0135304
66.4434 33.4923 5.13511 -0.693551 -0.720303 0.011442
65.6169 34.2752 5.73278 -0.681698 -0.731617 0.00480383
64.945 34.8935 6.52886 -0.661679 -0.749549 -0.00374515
64.0734 35.6174 7.79339 -0.652053 -0.757715 -0.0260631
63.6178 35.9615 8.99873 -0.646827 -0.762228 -0.0232862
63.405 36.084 10.0668 -0.63613 -0.770454 -0.0416487
63.4041 36.0161 11.1967 -0.640136 -0.766654 -0.0496479
63.5607 35.794 12.5614 -0.646319 -0.761321 -0.0514271
63.8782 35.4555 13.6647 -0.649162 -0.759304 -0.0452362
64.5291 34.8273 14.7481 -0.655204 -0.754498 -0.0379469
65.1593 34.2434 15.4311 -0.658539 -0.752105 -0.0257626
65.8717 33.5973 16.0365 -0.660146 -0.750685 -0.0260707
66.7064 32.8619 16.4855 -0.656772 -0.753924 -0.0157739
68.0813 31.6682 16.6534 -0.653913 -0.756498 -0.0101116
68.9201 30.9468 16.5811 -0.653054 -0.757269 -0.00803137
69.577 30.3831 16.341 -0.653521 -0.756873 -0.00727763
69.1935 30.7243 15.2931 -0.65323 -0.757123 -0.00742964
68.4095 31.3989 15.586 -0.657334 -0.753528 -0.01016
67.3787 32.2944 15.5818 -0.654886 -0.755681 -0.00798787
66.5723 33.005 15.3175 -0.656482 -0.754085 -0.0196674
65.6223 33.8677 14.6949 -0.663825 -0.747062 -0.034981
64.8392 34.613 13.7155 -0.662686 -0.747336 -0.0483422
64.3594 35.1072 12.6885 -0.646547 -0.761169 -0.0509879
64.164 35.3743 11.3574 -0.638861 -0.767134 -0.0572644
64.181 35.4419 10.1015 -0.635371 -0.770925 -0.0443194
64.4537 35.2613 8.95947 -0.642741 -0.765746 -0.0227331
64.9949 34.8232 7.83212 -0.650824 -0.759132 -0.0109744
65.615 34.2898 6.92206 -0.672126 -0.740388 0.0085223
66.2923 33.6549 6.29109 -0.679917 -0.733183 0.0124697
67.4016 32.5788 5.71119 -0.694046 -0.719572 0.0227146
68.1721 31.8172 5.6972 -0.702098 -0.71193 0.0146402
69.17 30.8467 5.93178 -0.699255 -0.714626 0.0187551
69.8643 30.1808 6.36119 -0.69455 -0.719274 0.0156572
70.7333 29.3728 7.32262 -0.694646 -0.718981 0.0230886
71.3783 28.7999 8.70608 -0.689616 -0.723774 0.0240935
71.6303 28.5981 10.0367 -0.694542 -0.719224 0.018089
71.6702 28.5751 11.2161 -0.681218 -0.731982 0.0119974
71.5105 28.7302 12.5523 -0.676894 -0.73608 -0.000641756
71.0587 29.1245 13.4832 -0.665751 -0.746141 -0.00702038
70.4848 29.6202 14.3267 -0.660891 -0.750399 -0.0111767
69.5654 30.4061 14.9855 -0.652226 -0.757922 -0.012461
69.3143 30.6207 15.1946 -0.654185 -0.75631 -0.00617443
55.6034 42.9753 -10.4958 -0.567057 -0.823029 -0.0327096
53.6733 44.0278 -9.04884 -0.498823 -0.864638 -0.0597959
51.0506 45.061 -7.45282 -0.37077 -0.926768 -0.0602557
48.622 45.7771 -6.44267 -0.269195 -0.960684 -0.067976
47.62 46.0367 -6.15183 -0.23022 -0.972699 -0.0292369
44.2364 46.8068 -4.83684 -0.225641 -0.974186 -0.00686036
46.8859 46.1764 -5.0171 -0.248745 -0.968116 -0.0296178
49.4396 45.4923 -5.72841 -0.298502 -0.953972 -0.0288968
51.9596 44.6575 -6.92392 -0.37815 -0.923175 -0.068924
54.2844 43.6338 -8.39348 -0.496469 -0.86676 -0.047383
56.2388 42.5136 -9.77527 -0.558046 -0.829376 -0.0268357
57.3988 41.6948 -10.4243 -0.607576 -0.794156 -0.0129517
59.614 39.8556 -9.46138 -0.658189 -0.752852 9.23018e-05
57.6323 41.5028 -9.36417 -0.604691 -0.796398 -0.009899
55.6897 42.8188 -8.27778 -0.499436 -0.865368 -0.0412474
53.4063 44.0056 -6.73576 -0.424772 -0.90421 -0.044417
51.2142 44.8762 -5.49663 -0.341347 -0.938653 -0.0491143
48.7958 45.6416 -4.48824 -0.275096 -0.96087 -0.0324167
46.1293 46.3425 -3.94401 -0.243487 -0.969675 -0.0210829
43.5484 46.9585 -3.90955 -0.2248 -0.974396 -0.00416986
41.3801 47.4515 -4.15193 -0.214961 -0.976612 0.00458544
41.1745 47.5042 -3.21952 -0.219727 -0.97555 0.00470849
43.6787 46.9274 -2.93584 -0.236093 -0.971723 -0.00389987
46.3943 46.2584 -2.98278 -0.242833 -0.969898 -0.0181539
49.1543 45.4977 -3.59244 -0.296573 -0.954044 -0.0429506
51.6748 44.6629 -4.69066 -0.349966 -0.935118 -0.0554843
54.1844 43.6111 -6.14644 -0.454421 -0.890078 -0.0355314
56.2634 42.4528 -7.5446 -0.553305 -0.832591 -0.0254218
58.3511 40.9437 -8.47889 -0.598933 -0.800704 -0.0123208
60.4784 39.1132 -7.96189 -0.675458 -0.737066 0.0221245
62.1666 37.5163 -6.59394 -0.710024 -0.703985 0.0164521
63.7885 35.9185 -5.01747 -0.727551 -0.685359 0.030848
65.174 34.5113 -3.51062 -0.727044 -0.685664 0.0356563
73.1035 26.9275 4.02218 -0.701312 -0.711784 0.0390411
72.4346 27.5486 3.28859 -0.702062 -0.711063 0.0387183
71.7934 28.1405 2.54661 -0.701849 -0.711245 0.039221
71.1531 28.7322 1.82791 -0.701403 -0.711634 0.0401481
70.4455 29.3894 1.05702 -0.703226 -0.709727 0.0419741
70.2532 29.5666 0.845725 -0.705601 -0.707263 0.043655
66.8124 32.9028 -1.76124 -0.721438 -0.690804 0.048138
67.6102 32.1375 -0.892599 -0.716109 -0.696585 0.0442378
68.5369 31.2574 0.154911 -0.712611 -0.700086 0.0454519
69.2578 30.5731 0.989461 -0.708984 -0.70436 0.0349034
70.1169 29.76 1.90601 -0.704676 -0.708612 0.0360683
70.868 29.0599 2.7247 -0.702776 -0.710487 0.0362439
71.7071 28.2842 3.67188 -0.700271 -0.713178 0.0315777
72.4133 27.6282 4.45577 -0.69871 -0.714638 0.0331191
73.1463 26.951 5.23457 -0.695448 -0.71775 0.0344517
73.244 26.8612 5.33852 -0.697996 -0.715175 0.036401
73.3894 26.7835 6.63737 -0.692765 -0.720278 0.0357296
72.6341 27.4767 5.85036 -0.69545 -0.717748 0.034453
71.8476 28.205 5.01476 -0.697844 -0.7156 0.0305066
71.0112 28.9802 4.08035 -0.699252 -0.71425 0.0298783
70.2896 29.6594 3.30607 -0.701909 -0.711706 0.0282529
69.5308 30.3757 2.49177 -0.707059 -0.706292 0.034922
68.7606 31.1088 1.66098 -0.709348 -0.704126 0.032114
68.0578 31.7781 0.84073 -0.710746 -0.702679 0.0328827
67.2297 32.57 -0.0990325 -0.713591 -0.699542 0.0377974
66.4625 33.3135 -0.956755 -0.718988 -0.69424 0.0329666
65.5779 34.1785 -1.91134 -0.714226 -0.699177 0.0321285
64.6123 35.1373 -2.91532 -0.722652 -0.691169 0.00765081
63.8611 35.9019 -3.71978 -0.731075 -0.681587 0.0311277
63.1539 36.6062 -4.51722 -0.711336 -0.702139 0.03165
62.3315 37.389 -5.30021 -0.683238 -0.72979 0.0243184
61.5715 38.1122 -5.9564 -0.704176 -0.709981 -0.00793048
60.7841 38.8564 -6.62056 -0.672319 -0.740228 0.0070768
59.8731 39.6602 -7.11109 -0.647041 -0.762402 0.00897586
58.9185 40.4665 -7.28587 -0.644838 -0.764258 0.00963972
57.6697 41.4433 -7.15741 -0.600223 -0.799833 0.000707802
56.4585 42.2922 -6.52745 -0.553305 -0.832591 -0.0254196
55.2371 43.0107 -5.73614 -0.506841 -0.861248 -0.0369423
54.2466 43.5336 -5.10865 -0.459725 -0.886827 -0.0468043
53.2094 44.0022 -4.48139 -0.423329 -0.904103 -0.0582199
52.1175 44.4489 -3.87527 -0.352954 -0.934542 -0.0453238
50.6457 44.9729 -3.17032 -0.341146 -0.938918 -0.0453145
49.4976 45.3543 -2.70118 -0.305229 -0.951351 -0.0420338
48.3628 45.6915 -2.33621 -0.273648 -0.961393 -0.0289739
46.9038 46.1021 -2.07037 -0.267568 -0.963352 -0.0189794
45.4144 46.4961 -1.94129 -0.249516 -0.968273 -0.0137721
44.1812 46.8037 -1.95084 -0.236695 -0.971583 0.00168277
43.066 47.074 -2.02562 -0.227574 -0.973745 0.00549812
43.8064 46.8973 -1.00914 -0.243636 -0.969867 -1.55115e-06
45.1602 46.5541 -0.968326 -0.253472 -0.967338 -0.00305429
46.5279 46.1869 -1.03419 -0.269808 -0.962755 -0.0175207
47.7835 45.8277 -1.22349 -0.284414 -0.958329 -0.0267374
49.0482 45.4461 -1.53153 -0.317596 -0.947704 -0.0314734
50.3647 45.017 -2.02621 -0.338789 -0.939765 -0.0454257
51.543 44.6149 -2.54195 -0.354944 -0.934003 -0.0406514
52.8704 44.0985 -3.22317 -0.411628 -0.910419 -0.0412359
54.0663 43.5673 -3.91229 -0.45655 -0.889164 -0.03082
55.1389 43.0155 -4.57602 -0.493628 -0.868654 -0.0420964
56.224 42.3863 -5.25697 -0.519925 -0.853648 -0.031045
57.4318 41.5881 -5.8962 -0.57758 -0.815938 -0.0254285
58.5332 40.7702 -6.17978 -0.613608 -0.78858 -0.0403315
59.479 39.9855 -6.06833 -0.639107 -0.769116 -0.00157575
60.3787 39.2188 -5.71455 -0.660975 -0.750368 -0.00770932
61.3507 38.3067 -4.97677 -0.678918 -0.734151 -0.00963941
62.1993 37.5246 -4.27324 -0.678489 -0.734611 0.000251602
62.9385 36.8303 -3.5237 -0.691795 -0.722063 0.00663082
63.6308 36.139 -2.76971 -0.714248 -0.699702 -0.0163189
64.3575 35.4137 -2.01546 -0.717013 -0.696774 0.0199476
65.128 34.6692 -1.2176 -0.702895 -0.711129 0.0152863
65.8497 33.973 -0.433165 -0.716302 -0.696966 0.0339062
66.5643 33.2786 0.375053 -0.716296 -0.696769 0.0378538
67.3651 32.498 1.28029 -0.708868 -0.704916 0.0244935
68.2245 31.6715 2.28843 -0.707948 -0.70595 0.021084
68.9861 30.9394 3.1119 -0.705107 -0.708616 0.0262148
69.0547 30.8738 3.1831 -0.703961 -0.709759 0.0261055
67.8159 32.1045 3.06764 -0.708455 -0.705446 0.0209045
66.9551 32.94 2.07016 -0.71107 -0.702709 0.0240891
66.2578 33.6197 1.26533 -0.703158 -0.711022 0.00405894
65.511 34.3329 0.408245 -0.697455 -0.716393 0.0183856
64.8117 35.0007 -0.358445 -0.700983 -0.712973 0.0171107
63.9608 35.8259 -1.25818 -0.70109 -0.712935 0.0140254
63.2446 36.5155 -2.00594 -0.707411 -0.706771 -0.00667895
62.4037 37.3293 -2.87105 -0.685604 -0.727907 -0.00995435
61.6601 38.0229 -3.58287 -0.67849 -0.73461 0.000253864
60.7133 38.8879 -4.35137 -0.678917 -0.734152 -0.00963779
