14.3251 55.6038 25.6912 -0.00181811 0.914373 -0.402282
14.0368 55.0398 24.2785 0.0559562 0.936889 -0.34512
13.7418 54.5227 22.6177 0.0919835 0.959839 -0.265044
14.9368 54.3295 22.3149 0.0885925 0.952982 -0.289031
16.0209 54.1583 22.0723 0.0898656 0.965341 -0.245031
17.1853 53.8809 21.6238 0.129268 0.964203 -0.229831
18.4007 53.5938 21.1118 0.146282 0.966192 -0.212287
19.4527 53.3481 20.7679 0.16753 0.973527 -0.155493
20.8726 53.0514 20.5558 0.189986 0.968536 -0.16076
21.9823 52.8572 20.7573 0.236217 0.954846 -0.180197
22.2973 52.9815 21.8207 0.233961 0.942917 -0.23175
23.1701 53.2301 23.4384 0.256065 0.91665 -0.303936
23.9839 53.4456 24.5147 0.261199 0.886217 -0.380477
25.2292 53.5447 25.6478 0.282639 0.856477 -0.431691
26.4975 53.3782 26.1931 0.291518 0.858375 -0.422125
27.8049 53.1563 26.5899 0.271632 0.870411 -0.410611
28.9948 53.0311 27.1191 0.255053 0.888293 -0.381874
30.3037 52.924 27.6886 0.224042 0.901896 -0.368274
31.4423 52.6716 27.8112 0.220993 0.911449 -0.34656
31.0756 53.0343 28.5111 0.242808 0.902306 -0.355988
29.8662 53.4326 28.6701 0.247219 0.896934 -0.366596
28.8019 53.7618 28.7116 0.279367 0.889154 -0.362436
27.6158 54.198 28.7449 0.305527 0.868159 -0.390818
25.8291 54.8735 28.8624 0.323526 0.844957 -0.424367
24.5556 55.5549 29.146 0.341969 0.825771 -0.448508
23.2266 56.3452 29.6364 0.319049 0.831347 -0.455042
22.2278 56.9468 30.0425 0.288033 0.84068 -0.458579
21.1469 57.0525 29.6611 0.216844 0.828379 -0.516495
20.202 56.9226 29.0677 0.128369 0.835303 -0.533141
19.1528 56.7278 28.5702 0.091589 0.846448 -0.524535
17.5673 56.4839 27.8637 0.0548787 0.898306 -0.435291
16.1669 56.3751 27.4871 0.0272236 0.904813 -0.424625
14.8432 56.2414 27.1436 0.00483213 0.915536 -0.40187
14.4605 55.9186 26.4204 -0.0406016 0.91315 -0.405181
13.3695 55.9565 26.5952 -0.0360976 0.9061 -0.421521
13.7148 56.6291 28.0309 -0.0184585 0.90896 -0.416474
14.8985 56.8796 28.5252 -0.0142362 0.906883 -0.42109
16.3913 56.9047 28.6599 0.0368062 0.899853 -0.434235
18.0318 57.1051 29.1723 0.0317629 0.892179 -0.450565
19.1152 57.2871 29.6481 0.0458975 0.888565 -0.456375
20.3827 57.6378 30.4347 0.104571 0.876785 -0.465152
21.3063 57.8091 31.299 0.14357 0.975992 -0.163792
22.3616 57.4642 31.3313 0.374443 0.875597 -0.30516
23.6478 56.6708 30.7017 0.388778 0.863982 -0.319981
24.9976 55.9332 30.2978 0.379159 0.853538 -0.357367
26.1877 55.3272 30.1132 0.38309 0.852794 -0.354912
27.5829 54.7139 29.9801 0.314864 0.892737 -0.322305
29.1941 54.0801 29.7988 0.322102 0.892192 -0.316476
30.3521 53.7163 29.8118 0.284924 0.910601 -0.299372
31.4421 53.3506 29.7369 0.258739 0.917169 -0.30186
32.6921 52.9594 29.5046 0.232555 0.923736 -0.304353
33.9164 52.599 29.3793 0.277421 0.933378 -0.227419
35.244 52.3023 29.3952 0.208605 0.963813 -0.165974
36.7951 51.8088 28.4791 0.22148 0.961444 -0.162447
37.1692 51.879 29.4546 0.215334 0.964306 -0.152696
38.0255 51.6703 29.2208 0.214714 0.968006 -0.127061
37.5564 51.6914 28.7071 0.175029 0.979507 -0.0996558
35.7419 51.9825 28.3585 0.181138 0.951039 -0.250427
34.748 51.9578 27.6361 0.129354 0.948381 -0.289554
33.5695 52.055 27.366 0.164454 0.944066 -0.285821
32.2375 52.2038 27.0496 0.203778 0.911619 -0.356966
31.0936 52.3506 26.7983 0.198519 0.903127 -0.380344
29.7322 52.5281 26.4193 0.241014 0.887846 -0.391587
28.501 52.5769 25.8222 0.251764 0.877224 -0.408223
27.3708 52.7285 25.4289 0.257327 0.868422 -0.423823
26.2752 52.9135 25.0885 0.288182 0.860561 -0.419984
25.0989 52.9726 24.3279 0.345629 0.843141 -0.411891
24.3658 52.8859 23.3932 0.341972 0.90749 -0.233258
23.4878 52.7569 22.0727 0.242587 0.931103 -0.272178
23.1967 52.5802 20.8416 0.230613 0.961032 -0.150322
22.8673 52.5305 19.7041 0.179805 0.978816 -0.0979249
22.009 52.6504 19.2459 0.176722 0.98238 -0.0608199
20.5671 52.9525 19.3516 0.17513 0.978527 -0.108489
19.3034 53.1787 19.5306 0.145557 0.983246 -0.109727
18.152 53.4092 19.8905 0.126218 0.980195 -0.152598
16.9686 53.6516 20.4093 0.130422 0.972692 -0.191202
15.9533 53.8839 20.8744 0.12517 0.976511 -0.174591
14.5928 54.1103 21.1791 0.0985747 0.973875 -0.203093
13.0427 54.2393 21.1965 0.0613622 0.981268 -0.181074
11.9747 54.3409 21.5325 0.040986 0.980931 -0.189358
12.6055 54.6491 23.0143 0.0186409 0.965497 -0.258695
12.901 54.9596 24.1052 0.00327612 0.950654 -0.308021
13.1665 55.4684 25.4686 -0.012377 0.934379 -0.356065
13.3017 55.7564 26.171 -0.0406015 0.91315 -0.405181
12.2207 55.7563 26.478 -0.100433 0.942237 -0.306605
12.014 55.3641 25.3027 -0.0531572 0.937877 -0.342872
11.8374 54.9327 24.0847 -0.0957788 0.962702 -0.252942
11.297 54.5868 22.7044 -0.00577008 0.987499 -0.153437
10.5664 54.4083 21.6676 0.0314536 0.988142 -0.15029
10.3251 54.2158 20.2919 0.0456053 0.989139 -0.139726
11.4305 54.1199 20.0335 0.0600273 0.987385 -0.145916
12.5789 54.0272 19.8717 0.0610077 0.989281 -0.132669
14.1243 53.9301 19.991 0.0735094 0.984583 -0.158722
15.3216 53.7767 19.8611 0.111642 0.979388 -0.168279
16.3276 53.5679 19.303 0.124128 0.983144 -0.13424
17.4113 53.363 18.8537 0.12949 0.984427 -0.116851
18.4557 53.1917 18.4603 0.15087 0.983313 -0.10165
19.6571 52.9879 18.194 0.148098 0.98608 -0.074894
21.2285 52.7284 18.0829 0.179963 0.980516 -0.0739437
22.4041 52.5129 17.7953 0.163436 0.986345 -0.0202962
23.984 52.2469 17.798 0.175818 0.984273 -0.0171876
23.7427 52.2776 19.0936 0.295943 0.949386 0.00880879
24.1649 52.282 20.4455 0.278197 0.956456 -0.088306
24.5697 52.3154 21.63 0.307927 0.936462 -0.167762
25.186 52.349 22.6049 0.400245 0.89573 -0.193577
26.1574 52.3071 23.8538 0.30609 0.846545 -0.433177
27.6357 52.1677 24.4558 0.259614 0.86403 -0.431339
28.6823 52.0933 24.9341 0.236145 0.864434 -0.443835
29.9511 51.9849 25.4061 0.23631 0.871343 -0.430002
31.3418 51.9225 25.8699 0.161458 0.879882 -0.439597
32.7593 51.7428 26.1703 0.154439 0.920045 -0.356595
34.4074 51.692 26.5963 0.105289 0.949163 -0.295396
35.6981 51.6494 27.0153 0.0947619 0.954182 -0.283238
36.7699 51.598 27.4227 0.135153 0.970905 -0.197678
37.9124 51.5057 27.6212 0.0900264 0.96961 -0.22749
39.2086 51.2793 27.951 0.226972 0.971089 -0.0734725
40.235 51.0808 28.4464 0.278748 0.960219 -0.0166883
41.5747 50.6295 28.2456 0.320841 0.946615 -0.0109692
42.6304 50.3001 28.4361 0.33116 0.942774 0.0120905
43.4434 49.9618 29.3359 0.362793 0.93176 0.0100767
42.3982 50.3674 29.5484 0.331158 0.942774 0.0120916
41.0234 50.8676 29.5237 0.354135 0.934806 -0.0248794
39.9254 51.2379 30.0984 0.294473 0.95381 -0.0594315
38.4763 51.7009 30.4764 0.261971 0.960772 -0.0832557
36.9031 52.1539 30.7779 0.261117 0.955848 -0.134808
35.5428 52.4673 30.7294 0.237693 0.949849 -0.198041
34.0788 52.9415 30.9604 0.266843 0.935866 -0.230108
32.5199 53.4109 30.953 0.287937 0.930908 -0.224728
31.4588 53.7501 30.9865 0.319306 0.912393 -0.256092
29.9513 54.2388 30.9931 0.288487 0.90699 -0.30683
28.5932 54.7811 31.1737 0.32934 0.891645 -0.310651
27.5087 55.206 31.2707 0.350943 0.872394 -0.33738
26.447 55.7499 31.4198 0.38702 0.852051 -0.352457
25.3038 56.3001 31.4992 0.366094 0.863353 -0.346723
23.9559 56.9744 31.8951 0.363302 0.895483 -0.257141
22.6987 57.8115 32.5537 0.297215 0.899905 -0.302991
21.3839 58.1677 33.0193 0.0828277 0.977293 -0.195033
20.1991 58.0859 31.9349 0.128716 0.976341 -0.173752
19.3942 57.9337 31.0564 -0.00179206 0.934098 -0.357012
18.232 57.6649 30.359 0.0237118 0.92979 -0.366296
17.1241 57.5348 29.9799 0.0203314 0.903291 -0.428546
15.984 57.4014 29.635 0.0553171 0.88857 -0.455393
14.7148 57.4248 29.8563 -0.114782 0.898897 -0.422859
13.3507 57.3066 29.9843 -0.138268 0.964236 -0.22612
12.2408 57.1579 30.0357 -0.195952 0.963698 -0.181352
12.4825 56.9318 29.0142 -0.0849347 0.969549 -0.21658
12.4491 56.5856 27.6975 0.0529396 0.817837 -0.534667
12.2797 55.8881 26.7732 -0.145965 0.913877 -0.378844
22.1767 53.3205 22.847 0.213618 0.937395 -0.275058
20.7699 53.2313 21.4836 0.191507 0.957511 -0.215632
18.6394 53.7174 21.8294 0.144488 0.965987 -0.214459
20.3035 53.9093 23.4085 0.172195 0.920868 -0.349787
22.0973 54.1623 25.0604 0.218754 0.885166 -0.410643
23.8292 54.4614 26.5842 0.228231 0.869946 -0.437154
25.396 54.6401 28.0284 0.305084 0.864144 -0.400224
23.8061 55.5903 28.6557 0.318288 0.832772 -0.452972
22.0332 55.2563 27.0997 0.259008 0.836627 -0.48267
20.2502 54.8473 25.5975 0.198911 0.87726 -0.436863
18.326 54.4499 23.881 0.162852 0.914292 -0.370877
17.0905 54.2158 22.7439 0.110739 0.950879 -0.289079
14.8777 54.5512 23.0521 0.0691821 0.95685 -0.282226
16.4604 54.9355 24.4766 0.0836521 0.912519 -0.400388
18.0451 55.3639 25.8583 0.12304 0.896272 -0.426095
19.6876 55.8428 27.215 0.182082 0.844508 -0.503639
21.6269 56.3915 28.7896 0.218557 0.835367 -0.504376
22.3073 56.552 29.3687 0.303962 0.835419 -0.457911
