24.6083 57.2021 29.4195 0.456192 0.812801 -0.362192
25.6581 56.499 29.1372 0.45107 0.81735 -0.358434
26.5988 55.7918 28.7839 0.371974 0.811031 -0.445612
27.8277 55.3113 28.8305 0.350955 0.849802 -0.393278
28.9955 54.859 28.8952 0.332401 0.861264 -0.383622
30.4943 54.3001 28.708 0.276573 0.886289 -0.371481
32.3582 53.6513 28.4663 0.263174 0.909319 -0.322303
33.7158 53.1909 28.1949 0.214326 0.93395 -0.286011
32.7635 53.1768 27.4351 0.203491 0.926172 -0.315804
31.5762 53.2263 26.7895 0.240563 0.900182 -0.363045
30.1998 53.3486 26.1691 0.248375 0.896982 -0.365615
28.4872 53.4471 25.0248 0.307942 0.884658 -0.349257
27.1773 53.2605 23.3043 0.284821 0.901377 -0.326068
26.6098 53.0593 21.9445 0.266575 0.937343 -0.222869
26.2894 52.9679 20.7379 0.237378 0.965342 -0.10743
25.0155 53.2374 20.5163 0.214847 0.968239 -0.124837
23.8684 53.5046 20.4325 0.195514 0.96904 -0.145472
22.5108 53.7438 20.4209 0.193658 0.965056 -0.176532
21.3179 54.0212 20.6047 0.182424 0.962222 -0.201994
19.7675 54.3792 20.9505 0.165247 0.967425 -0.191788
18.7067 54.6841 21.3421 0.126554 0.954185 -0.271136
17.0463 55.1074 21.9918 0.099328 0.932234 -0.34578
15.7936 55.3891 22.4224 0.0799554 0.922433 -0.37779
14.445 55.5672 22.6804 0.0291525 0.932455 -0.360109
13.0453 55.6298 22.858 -0.0584875 0.954466 -0.292531
12.9079 55.9392 23.7272 -0.047669 0.9335 -0.355395
13.0785 56.5444 24.739 -0.122185 0.828401 -0.546647
13.1578 57.2184 25.7437 -0.210667 0.817538 -0.535958
13.84 58.0701 26.6449 -0.229405 0.746209 -0.624936
14.3882 59.0457 27.6205 -0.295958 0.811787 -0.503342
15.4163 59.5401 27.7996 -0.278418 0.803329 -0.525707
16.782 59.923 27.9734 -0.189396 0.773318 -0.602293
17.9766 60.4132 28.1776 -0.0239289 0.615514 -0.786182
18.9922 60.7654 28.6172 0.262641 0.770289 -0.581098
20.0655 60.6837 29.1622 0.718669 0.611473 -0.329905
21.1455 59.9404 29.8091 0.538487 0.810393 -0.229909
22.4326 59.0603 30.2487 0.605609 0.732542 -0.304069
23.3664 58.1964 29.8135 0.543065 0.775261 -0.322569
24.2832 57.4199 29.4908 0.50219 0.791756 -0.344258
24.553 57.7585 30.5787 0.461317 0.808251 -0.365946
23.2864 58.806 31.1667 0.57057 0.783851 -0.245006
22.2305 59.5572 31.6168 0.408316 0.906796 -0.103194
20.8906 60.1715 30.8881 0.443996 0.895128 0.0351639
19.8074 60.786 30.2243 0.302244 0.915087 0.182631
18.7685 60.9843 29.6995 0.0678368 0.994691 0.0773793
17.5704 60.6559 29.1677 -0.299351 0.91456 -0.260946
16.3958 60.3196 28.8616 -0.232465 0.923995 -0.298094
15.2344 59.9167 28.8886 -0.317522 0.902542 -0.290742
14.0898 59.5272 29.0251 -0.353656 0.912213 -0.20687
13.0446 59.1342 28.7499 -0.235861 0.939873 -0.247
12.9013 58.473 27.4706 -0.207198 0.786665 -0.577811
12.323 57.3942 26.2971 -0.201328 0.804036 -0.559458
12.0645 56.4799 24.9794 -0.193424 0.857369 -0.476975
11.7125 55.8681 23.8362 -0.19285 0.925132 -0.327016
10.889 55.506 22.8852 -0.061177 0.983375 -0.170968
10.5265 55.283 21.8179 -0.00441121 0.98455 -0.175048
11.6842 55.2634 21.5882 -0.0221852 0.973796 -0.22472
13.2607 55.2447 21.5343 0.0292613 0.975536 -0.215875
14.8341 55.1796 21.5631 0.0729239 0.966315 -0.244945
16.1514 54.9511 21.1793 0.089568 0.946085 -0.309488
17.2193 54.7175 20.7464 0.0978366 0.962726 -0.252164
18.7584 54.385 20.1399 0.134102 0.971148 -0.195536
19.8562 54.1251 19.7559 0.147946 0.973396 -0.172272
21.2499 53.8501 19.5114 0.188302 0.970588 -0.148982
22.5917 53.5512 19.2988 0.165274 0.982139 -0.0899039
23.7758 53.3517 19.3246 0.160927 0.979183 -0.119856
24.9223 53.1256 19.32 0.1953 0.97496 -0.10635
26.5684 52.7786 19.2771 0.21328 0.974583 -0.0685467
27.3377 52.6441 20.1139 0.288715 0.956244 -0.0473352
27.4209 52.7593 21.4669 0.272549 0.955321 -0.114363
27.8676 52.8612 22.5967 0.309749 0.925136 -0.219497
28.6943 52.9651 23.9175 0.312636 0.890768 -0.329792
30.049 52.9058 24.9977 0.276622 0.88638 -0.370527
31.3948 52.8144 25.6823 0.242202 0.891033 -0.383926
32.5271 52.7723 26.2125 0.194752 0.909762 -0.365707
33.6872 52.7136 26.7191 0.192652 0.918392 -0.345603
34.8066 52.6387 27.1067 0.173487 0.941012 -0.290516
36.0862 52.5397 27.6612 0.203619 0.941112 -0.269904
37.1268 52.4113 27.8884 0.149012 0.969388 -0.195025
38.4789 52.2101 28.5596 0.245183 0.964532 -0.093882
39.0007 52.1069 29.0371 0.270149 0.957338 -0.102589
37.9447 52.4548 29.4981 0.271248 0.957029 -0.102564
36.7974 52.7886 29.6196 0.27221 0.951046 -0.146335
35.3301 53.1451 29.532 0.240875 0.957842 -0.156581
34.1452 53.454 29.4912 0.297627 0.927688 -0.225418
32.7523 53.952 29.6854 0.261331 0.916064 -0.304191
31.4864 54.3749 29.8715 0.286554 0.908464 -0.303124
30.0824 54.868 29.8929 0.313669 0.898886 -0.305929
29.0099 55.3077 29.9848 0.354954 0.877321 -0.322786
27.4891 55.9101 29.9916 0.346355 0.87819 -0.329879
26.4139 56.5524 30.2022 0.437494 0.82105 -0.366709
25.3765 57.2253 30.4391 0.456193 0.812801 -0.362189
25.0144 57.4527 30.4849 0.461316 0.808252 -0.365945
25.3132 57.6631 31.5649 0.473596 0.85466 -0.212749
26.3128 57.1068 31.4407 0.443361 0.863918 -0.238908
27.46 56.4692 31.2641 0.440427 0.842484 -0.302808
28.8924 55.8235 31.2814 0.363553 0.876452 -0.315693
30.5652 55.1025 31.0634 0.315556 0.89691 -0.3098
31.7069 54.646 30.9719 0.350031 0.902071 -0.252481
32.9251 54.2212 30.9641 0.317902 0.922207 -0.220166
34.0312 53.868 31.0446 0.297616 0.927692 -0.225415
35.4641 53.3691 30.8836 0.297638 0.927684 -0.225419
37.2671 52.8262 30.8486 0.295131 0.947256 -0.124914
38.3625 52.463 30.6797 0.270696 0.957184 -0.10258
39.5012 52.0456 30.268 0.326092 0.943626 -0.0568762
40.699 51.6265 29.9622 0.312586 0.948357 -0.0539314
42.1725 51.0816 29.9342 0.364013 0.931319 -0.0118248
43.2355 50.6604 29.7456 0.395344 0.918532 -0.00161139
44.5384 50.1009 29.3817 0.394773 0.918428 0.0175122
43.071 50.7515 28.6611 0.385941 0.922126 0.0270821
41.8861 51.1815 28.3053 0.362568 0.931934 -0.00627034
40.5138 51.6645 28.0154 0.249982 0.966119 -0.0277704
39.298 51.8991 27.6405 0.239622 0.967356 -0.0757824
38.1114 52.1124 27.1901 0.155898 0.968389 -0.194728
36.4648 52.2642 26.6758 0.142126 0.970387 -0.19532
35.343 52.2784 26.3217 0.142243 0.939365 -0.310706
34.2963 52.2986 25.8392 0.158852 0.932995 -0.322933
32.8051 52.3248 25.3099 0.173023 0.898142 -0.403473
31.3365 52.3566 24.6656 0.237323 0.865054 -0.439698
29.9645 52.4593 23.9777 0.343938 0.83529 -0.424516
29.1512 52.4753 23.0118 0.418921 0.877777 -0.227994
28.2374 52.4572 21.5445 0.455941 0.868505 -0.159646
28.3028 52.3499 20.003 0.324537 0.945375 0.022701
28.6221 52.2574 18.8709 0.27184 0.960817 0.0530201
29.0788 52.2022 17.7712 0.237966 0.969482 0.0447465
27.9377 52.4428 17.7535 0.227692 0.973306 0.0144169
26.656 52.7083 18.0135 0.206626 0.977895 -0.0286015
25.1916 52.9891 18.1081 0.18737 0.980401 -0.0599124
23.7643 53.2597 18.0798 0.167819 0.982889 -0.0738995
22.4133 53.4811 18.1852 0.164302 0.982578 -0.086867
21.2665 53.7073 18.3855 0.176875 0.977801 -0.108588
20.1091 53.9076 18.5736 0.15862 0.978043 -0.134089
18.5285 54.2048 19.0209 0.126076 0.983157 -0.131055
17.3811 54.4335 19.5373 0.12562 0.977595 -0.168903
15.9211 54.7171 20.0804 0.109137 0.970941 -0.212215
14.6613 54.9222 20.5106 0.0947626 0.968246 -0.230107
13.4888 54.9533 20.3223 0.0577919 0.973082 -0.223095
12.0499 54.9589 20.116 0.0294372 0.982022 -0.186459
10.776 55.0457 20.4733 0.00138329 0.985353 -0.170374
9.59178 55.0578 20.5617 -0.00524229 0.98835 -0.151864
8.43927 55.0707 20.7491 -0.0277078 0.989301 -0.143231
8.80278 55.2593 21.9975 -0.010773 0.990939 -0.133881
9.52155 55.4643 22.9996 -0.0525146 0.983271 -0.173563
10.3958 55.6862 24.0981 -0.127012 0.954254 -0.248991
10.9971 56.2581 25.0534 -0.212272 0.851775 -0.478977
11.2106 56.7814 26.0994 -0.341115 0.825509 -0.438702
11.749 58.0787 27.4246 -0.29158 0.704755 -0.646544
11.9481 58.8099 28.4646 -0.21807 0.952645 -0.211926
12.4713 59.0959 29.8009 -0.340638 0.928099 -0.0975652
12.8028 59.2533 30.5736 -0.301096 0.952947 -0.0351057
13.9521 59.6529 30.3871 -0.343403 0.939164 -0.00670637
15.347 60.1216 30.0289 -0.33732 0.936238 -0.0983485
16.906 60.6317 30.2347 -0.236209 0.966469 -0.100708
18.0306 60.9081 30.5595 -0.117939 0.988039 -0.0303213
19.0347 60.8764 31.1589 0.249764 0.963618 0.0578654
20.3956 60.3131 31.8009 0.364695 0.923135 0.121735
21.5468 59.8857 32.9286 0.322233 0.946512 0.0167812
22.6382 59.4695 32.803 0.43776 0.89826 -0.0386594
23.6004 58.9375 32.3018 0.559429 0.789383 -0.252811
24.5287 58.1599 31.8141 0.474786 0.853724 -0.213855
24.8547 57.9464 31.6825 0.473597 0.85466 -0.21275
14.104 55.8456 23.2946 0.0089575 0.865812 -0.500289
13.9008 55.9395 23.455 -0.0656462 0.871265 -0.486403
13.9704 56.5128 24.4916 -0.130387 0.850306 -0.509882
15.2402 55.9369 23.4753 0.0314658 0.866975 -0.497357
15.6433 55.733 23.1579 0.0385176 0.880322 -0.472811
17.8942 55.1689 22.3368 0.174742 0.904154 -0.389834
16.9339 55.6842 23.2138 0.113122 0.881677 -0.458093
15.6298 56.4109 24.2484 0.0404135 0.821655 -0.568551
14.4228 57.0416 25.1288 -0.00941289 0.782215 -0.622937
14.0745 57.193 25.3875 -0.157018 0.792019 -0.589959
14.4134 57.788 26.0976 -0.246701 0.732844 -0.634096
15.6058 57.1768 25.2737 -0.0201215 0.776991 -0.62919
16.9886 56.3613 24.3064 0.085162 0.819388 -0.566879
18.0152 55.7056 23.4624 0.12871 0.854046 -0.504023
19.2661 54.8762 22.2707 0.179479 0.875575 -0.448504
19.8321 54.5768 21.6852 0.197561 0.93805 -0.284661
21.1917 54.2552 21.5821 0.17792 0.96196 -0.207311
20.21 54.8004 22.5847 0.199123 0.901629 -0.383947
19.1608 55.5585 23.6107 0.156007 0.867081 -0.473109
18.2804 56.2629 24.4 0.119517 0.792293 -0.598321
17.2906 56.9751 25.1151 0.135072 0.735124 -0.66434
16.1388 57.7237 25.8706 -0.0536509 0.658171 -0.750955
15.0037 58.373 26.5692 -0.146287 0.720332 -0.678028
14.7293 58.4826 26.7449 -0.205458 0.721058 -0.661712
15.4309 59.0143 27.1584 -0.151783 0.691432 -0.706317
16.6457 58.3882 26.4168 -0.0544702 0.659844 -0.749426
17.8136 57.5062 25.7365 0.0987285 0.652946 -0.750942
18.7755 56.7236 25.1089 0.119513 0.792292 -0.598323
19.9424 55.6659 24.0791 0.261447 0.809489 -0.525711
21.0226 54.8155 23.0218 0.242153 0.867573 -0.434373
21.9991 54.2244 22.0432 0.216101 0.92345 -0.317082
22.8768 53.8047 21.1491 0.181313 0.961733 -0.205417
24.0061 53.6215 21.2988 0.219293 0.950481 -0.220217
22.7888 54.2054 22.5252 0.215636 0.923605 -0.316947
21.8859 54.7694 23.4086 0.24074 0.868234 -0.433837
20.9642 55.4919 24.2885 0.245167 0.822873 -0.512614
19.96 56.4175 25.1987 0.277566 0.795608 -0.538484
18.956 57.4966 25.9531 0.291947 0.667025 -0.685452
17.8021 58.5291 26.6368 0.0813065 0.649607 -0.75591
16.4803 59.375 27.3791 -0.00824089 0.721513 -0.692352
16.4286 59.402 27.4074 0.0089756 0.714634 -0.699441
17.4962 59.7087 27.665 -0.073485 0.619066 -0.781893
18.7219 58.7602 27.0187 0.186751 0.672928 -0.715746
19.8737 57.4712 26.3192 0.278885 0.67824 -0.679862
20.8382 56.3531 25.5562 0.272667 0.745204 -0.608542
21.9516 55.3004 24.5479 0.360239 0.805484 -0.470557
23.1124 54.4334 23.4672 0.243752 0.914654 -0.322481
24.0901 53.888 22.4961 0.212689 0.933466 -0.288799
25.0017 53.4445 21.5593 0.227351 0.947402 -0.225258
25.3413 53.2789 21.2056 0.249264 0.944881 -0.212293
25.9474 53.2448 21.8805 0.282194 0.937727 -0.202573
25.0372 53.7575 22.8123 0.251832 0.923113 -0.290591
24.0907 54.2786 23.7638 0.226053 0.91985 -0.320585
23.1466 54.9002 24.6588 0.232615 0.872325 -0.430046
22.2177 55.7593 25.4845 0.363153 0.784733 -0.502308
21.1733 56.9331 26.3143 0.359093 0.710418 -0.605275
20.0448 58.3363 27.1482 0.341269 0.607298 -0.717443
19.0195 59.5456 27.7188 0.182253 0.473587 -0.861684
18.5036 60.0925 27.9465 0.025626 0.611962 -0.790472
19.3687 60.3669 28.3313 0.443342 0.427455 -0.787864
20.2706 59.0254 27.9044 0.39884 0.578936 -0.711168
21.3222 57.6154 27.2034 0.366993 0.672225 -0.642985
22.7763 55.9592 26.1154 0.349167 0.737283 -0.578356
23.9043 54.948 25.1604 0.241846 0.845706 -0.475702
25.1105 54.1261 23.9963 0.218142 0.906086 -0.362523
26.1535 53.4689 22.956 0.286554 0.910811 -0.297172
26.3718 53.3286 22.7367 0.268922 0.924445 -0.270337
26.6487 53.573 23.7162 0.276922 0.902646 -0.329461
25.7114 54.2101 24.6376 0.28806 0.895429 -0.339452
24.6929 54.9628 25.5814 0.237814 0.847052 -0.475339
23.6643 55.8154 26.4681 0.349166 0.737281 -0.57836
22.351 57.2573 27.3935 0.357405 0.711369 -0.605158
21.1737 58.8028 28.2273 0.384624 0.624601 -0.67966
20.3149 60.1124 28.7205 0.421317 0.523598 -0.740497
20.2487 60.2411 28.7484 0.600675 0.505548 -0.619363
21.1736 59.7453 29.2252 0.569021 0.715093 -0.406025
21.9156 58.5953 28.7054 0.525897 0.689904 -0.497458
22.9107 57.3642 27.9911 0.46403 0.734967 -0.494469
24.3102 55.8835 26.9982 0.43342 0.759995 -0.484309
25.1968 55.1334 26.2552 0.326501 0.845433 -0.422658
26.3436 54.2414 25.2204 0.278132 0.888046 -0.366085
27.1911 53.6496 24.4022 0.29272 0.900109 -0.322675
27.5715 53.8401 25.2269 0.297037 0.881696 -0.36658
26.5618 54.5684 26.1795 0.302595 0.867537 -0.394735
25.5918 55.3529 27.0229 0.331627 0.853337 -0.402293
24.43 56.4031 27.9162 0.412317 0.768725 -0.488934
23.4499 57.4494 28.6127 0.473511 0.718659 -0.509232
22.6454 58.3926 29.1958 0.499935 0.704607 -0.503581
22.1971 59.0205 29.5817 0.654895 0.704605 -0.27321
25.0047 56.4767 28.5165 0.412317 0.768725 -0.488935
25.9831 55.5631 27.7912 0.331628 0.853337 -0.402292
26.9068 54.8265 26.9902 0.339484 0.851041 -0.400598
28.1545 53.8943 25.8505 0.310639 0.882343 -0.353517
29.0438 53.7329 26.1986 0.287708 0.891039 -0.351104
27.8619 54.5891 27.3006 0.310849 0.877332 -0.365598
26.8244 55.4144 28.1694 0.339484 0.851042 -0.400596
28.017 54.9831 28.2902 0.349137 0.84925 -0.396079
29.107 54.172 27.3354 0.294808 0.880679 -0.370801
29.7371 53.7293 26.7455 0.28272 0.888823 -0.360643
30.5842 53.6547 27.1725 0.253821 0.893751 -0.369844
29.5063 54.3835 28.172 0.288005 0.887192 -0.360476
29.4879 54.3963 28.1888 0.300548 0.887636 -0.348961
31.1253 53.7843 27.8966 0.26603 0.899522 -0.346536
31.7018 53.4223 27.3586 0.240339 0.903871 -0.353914
