25.9446 58.0029 29.3774 0.431036 0.785715 -0.442917
24.4944 58.9004 29.6814 0.43726 0.828409 -0.35006
23.3245 59.6766 30.0356 0.44272 0.824242 -0.353021
22.1299 60.5833 30.3328 0.490199 0.85025 -0.19178
21.159 61.001 29.7531 0.565941 0.772669 -0.252966
20.3026 61.6049 29.1649 0.549944 0.788981 -0.054727
19.1021 61.7286 28.8103 0.275469 0.936972 -0.214942
17.727 61.4783 28.5463 -0.209278 0.939369 -0.258315
16.1588 61.2233 28.4839 -0.179082 0.920544 -0.347172
14.9205 60.8077 28.1459 -0.263962 0.858982 -0.428353
14.2682 59.9724 27.1485 -0.247547 0.770476 -0.58078
13.7349 59.1544 26.4378 -0.227024 0.727223 -0.647663
13.2557 58.3608 25.6014 -0.194512 0.813782 -0.547654
12.533 57.457 24.4469 -0.16889 0.85407 -0.491976
12.4989 56.8843 23.2796 -0.127967 0.915317 -0.381863
13.9859 56.8171 23.0196 -0.0460321 0.884511 -0.460272
15.2973 56.7175 22.8631 0.0405135 0.847637 -0.529028
16.6087 56.5124 22.6183 0.0353635 0.877191 -0.478837
18.0606 56.1343 22.1513 0.128357 0.904359 -0.403665
19.3462 55.7212 21.6978 0.160643 0.941936 -0.292481
20.6182 55.3317 21.3104 0.200427 0.923789 -0.325498
21.8661 55.0171 20.9975 0.179034 0.959286 -0.218442
23.0516 54.7174 20.8137 0.190379 0.962636 -0.192583
24.5498 54.4146 20.89 0.233309 0.959245 -0.159422
26.2593 54.0078 20.8112 0.222485 0.967568 -0.119634
27.9026 53.5933 20.6272 0.245658 0.965408 -0.0874067
29.0789 53.2945 20.6834 0.257386 0.958464 -0.110704
29.4549 53.4013 21.8912 0.252118 0.954013 -0.162128
29.9127 53.6026 23.2847 0.271215 0.921056 -0.275491
30.673 53.7386 24.4065 0.292003 0.900199 -0.322469
31.4502 53.8369 25.3681 0.311264 0.888235 -0.337865
33.1991 53.7953 26.5974 0.276693 0.894758 -0.349777
34.5649 53.7081 27.4324 0.22818 0.933464 -0.276729
34.5059 54.0558 28.6564 0.230901 0.939878 -0.251625
33.3239 54.4101 28.5631 0.316794 0.908495 -0.272542
32.1041 54.8225 28.5202 0.320865 0.903808 -0.282896
30.8982 55.3339 28.6934 0.329849 0.887661 -0.321336
29.732 55.8106 28.813 0.365244 0.868352 -0.332871
27.6176 56.8202 28.9903 0.402503 0.817306 -0.407009
26.7703 57.4191 29.186 0.452997 0.781305 -0.429367
27.3204 57.5657 30.2583 0.459422 0.83691 -0.297511
29.1791 56.5437 29.9812 0.3981 0.871005 -0.287865
30.6272 55.8665 29.8864 0.343294 0.88721 -0.307636
31.9779 55.2677 29.7194 0.35674 0.886757 -0.293936
33.366 54.7594 29.7247 0.324938 0.899123 -0.293246
34.5197 54.3479 29.7523 0.384828 0.90034 -0.200906
35.7879 53.9032 29.6215 0.311108 0.940367 -0.137554
37.0289 53.4879 29.5891 0.309359 0.940909 -0.13778
38.3543 53.0557 29.4169 0.29258 0.949463 -0.112618
39.3082 52.6736 28.5973 0.295907 0.950201 -0.0977631
38.1935 52.9512 28.0569 0.252802 0.956342 -0.140463
37.0433 53.1291 27.5087 0.236811 0.955563 -0.175555
35.5903 53.3117 26.9417 0.188081 0.943941 -0.267934
34.462 53.3864 26.2631 0.211944 0.921816 -0.320938
32.9846 53.3397 25.2828 0.221404 0.910122 -0.350226
31.9987 53.354 24.6039 0.311124 0.888968 -0.336058
31.1789 53.3201 23.7508 0.320679 0.888376 -0.328364
30.6273 53.213 22.6731 0.340629 0.915388 -0.214563
30.2983 53.0667 21.3475 0.30371 0.944359 -0.126281
30.466 52.8915 19.898 0.227776 0.973125 -0.0338402
30.4192 52.8726 18.9305 0.229155 0.973251 -0.0164204
28.9165 53.2322 19.2351 0.228353 0.971599 -0.0603895
27.6984 53.5434 19.5019 0.225567 0.969163 -0.0966408
26.3192 53.8535 19.675 0.21398 0.970244 -0.112754
24.8813 54.1723 19.8064 0.197679 0.971839 -0.128268
23.5303 54.4441 19.7718 0.163462 0.972724 -0.164582
22.2533 54.6965 19.874 0.198647 0.964229 -0.175419
21.0388 54.9801 20.1376 0.183862 0.959666 -0.212687
19.694 55.2918 20.4575 0.161266 0.964849 -0.207508
18.4179 55.5946 20.8638 0.13063 0.951871 -0.277269
17.1921 55.9217 21.4224 0.120509 0.933603 -0.337435
15.9556 56.1619 21.7604 0.0618801 0.943783 -0.324723
14.6859 56.3368 21.9414 0.0807537 0.923594 -0.374771
13.1608 56.3865 21.9766 -0.0281239 0.941677 -0.335341
11.7391 56.4035 22.1523 -0.0495078 0.956676 -0.286857
10.5331 56.4074 22.4669 -0.126439 0.947808 -0.2927
10.0195 56.5279 23.1412 -0.209405 0.956109 -0.20495
11.3065 57.279 24.464 -0.224693 0.891344 -0.393724
11.955 57.9779 25.4944 -0.253287 0.797565 -0.544064
12.5841 58.9778 26.6273 -0.218576 0.734062 -0.642944
13.4334 59.9955 27.6113 -0.259617 0.820573 -0.509175
13.9492 60.7803 28.803 -0.248259 0.899243 -0.36018
15.1134 61.2869 29.4909 -0.216438 0.964959 -0.147837
16.6638 61.5814 29.5607 -0.143364 0.978736 -0.146708
18.0817 61.7825 29.6622 -0.130102 0.991022 0.0308128
19.5196 61.6927 30.03 0.213119 0.973429 0.0837629
20.5236 61.2972 30.5094 0.383181 0.923404 0.0222799
21.6754 60.7848 31.4939 0.37038 0.925058 -0.042899
22.7714 60.3983 31.602 0.353951 0.929186 -0.105403
23.7864 59.8505 31.1189 0.453531 0.875381 -0.167385
24.7588 59.23 30.7917 0.43999 0.826326 -0.351541
26.3623 58.1468 30.4072 0.48805 0.816306 -0.308952
26.4277 58.104 30.3941 0.459422 0.83691 -0.297512
26.8821 58.2258 31.4407 0.48382 0.854242 -0.190233
25.6524 58.9718 31.6629 0.483783 0.854252 -0.190283
24.5366 59.6416 32.0401 0.442377 0.87936 -0.176149
23.3035 60.3027 32.6468 0.367772 0.924224 -0.102733
22.1258 60.7277 33.1385 0.27307 0.96187 0.0117498
20.8074 61.0943 32.1998 0.26551 0.964106 0.00204258
19.7702 61.5163 31.2519 0.310608 0.943883 0.112283
18.5028 61.8251 30.8196 0.0378245 0.983046 0.0555559
17.3295 61.7601 30.6798 -0.0264144 0.997737 -0.0618287
15.785 61.5659 30.6838 -0.166629 0.984505 -0.0546318
14.5755 61.3081 30.6384 -0.261405 0.95985 0.0186319
13.068 61.0388 30.5891 -0.139245 0.975081 0.172709
13.0866 60.7751 29.292 -0.154381 0.886033 -0.429763
12.3936 59.9748 27.7616 -0.144334 0.738466 -0.649896
11.5458 58.9659 26.9714 -0.221726 0.735448 -0.640276
11.059 57.9794 26.0139 -0.312061 0.781351 -0.54047
10.2966 57.2436 24.9602 -0.284033 0.86315 -0.411888
9.52091 56.606 24.1049 -0.214617 0.961242 -0.173072
8.4639 56.2287 22.9616 -0.166653 0.974891 -0.147696
7.28091 55.9593 22.0977 -0.101245 0.985827 -0.13292
8.79425 55.9686 21.2994 -0.0727841 0.985695 -0.152012
10.2464 56.0649 21.1873 -0.060445 0.968336 -0.242223
11.5084 56.0574 20.948 -0.0182575 0.96958 -0.244091
12.7774 56.0396 20.8326 -0.000415629 0.968614 -0.248568
14.0867 56.0379 20.9357 0.0539616 0.962386 -0.26627
15.6601 55.8683 20.7612 0.101163 0.954572 -0.280282
16.8643 55.6553 20.4413 0.105836 0.960977 -0.254871
18.151 55.347 19.7634 0.103488 0.972554 -0.208394
19.3813 55.1062 19.401 0.142163 0.970709 -0.191392
20.673 54.8739 19.1615 0.161558 0.972256 -0.169166
21.854 54.614 18.9068 0.192559 0.973535 -0.123088
23.0816 54.3817 18.7488 0.169299 0.979326 -0.110714
24.3009 54.1708 18.7685 0.18931 0.976569 -0.10235
25.5048 53.9077 18.5568 0.197121 0.975749 -0.0951677
27.1745 53.5624 18.3835 0.200301 0.977248 -0.0691297
28.3309 53.3167 18.1086 0.210951 0.975736 -0.0549748
30.1091 52.9236 17.7531 0.204839 0.978489 -0.0239687
31.8215 52.5801 17.754 0.196356 0.980528 0.00315303
32.8774 52.3918 17.5495 0.180698 0.983209 0.0254461
33.1084 52.3445 17.7382 0.15992 0.986256 0.034637
32.1064 52.4951 18.8792 0.22115 0.974036 0.0427755
31.3889 52.6191 20.1008 0.312847 0.949792 0.0046872
31.1998 52.7556 21.537 0.38515 0.910955 -0.147715
31.6308 52.8598 22.8383 0.459201 0.864581 -0.175004
32.2761 52.8566 23.8771 0.345311 0.815563 -0.442038
33.6872 52.8491 24.5663 0.23283 0.871029 -0.432549
34.775 52.9252 25.2522 0.17229 0.925447 -0.337437
36.0117 52.9804 25.962 0.137364 0.930943 -0.329895
37.3557 52.8496 26.4088 0.233921 0.956186 -0.176013
38.6001 52.6981 27.1266 0.09714 0.992152 -0.07415
39.8688 52.4821 27.744 0.229253 0.971291 -0.063539
41.2122 52.1317 28.0807 0.345042 0.938417 -0.00347281
42.5108 51.6331 28.4965 0.373594 0.92744 0.00102878
43.1576 51.3565 28.9928 0.338746 0.939075 0.0250363
44.9455 50.5423 29.3484 0.414439 0.910016 0.00806049
43.8618 51.0347 29.8035 0.414087 0.910236 0.00129019
42.6879 51.548 29.7534 0.383388 0.923559 -0.00725407
41.6211 51.9867 29.5283 0.345043 0.938417 -0.00347303
40.1331 52.5262 30.0134 0.333762 0.941472 -0.0472632
38.9572 52.9771 30.4567 0.319541 0.943953 -0.074929
37.8437 53.3791 30.763 0.323737 0.938199 -0.122379
36.7116 53.7669 30.7786 0.316299 0.936624 -0.14998
35.3766 54.2555 30.9425 0.321493 0.932882 -0.162401
34.2736 54.7247 31.0217 0.41031 0.892889 -0.185457
33.0491 55.2083 30.9189 0.359513 0.907736 -0.216253
31.7601 55.7318 30.92 0.353193 0.900272 -0.254488
30.6596 56.1797 30.9771 0.353192 0.900273 -0.254488
29.5118 56.7963 31.2057 0.405405 0.869772 -0.281148
28.1505 57.5099 31.3389 0.449603 0.839192 -0.305964
27.8305 57.7066 31.4081 0.449601 0.839193 -0.305964
26.9939 53.9128 21.3349 0.211235 0.967605 -0.138276
28.9621 53.8811 23.2799 0.271509 0.922073 -0.275797
29.7641 53.9155 24.0473 0.282132 0.907117 -0.312315
31.1341 54.8489 27.6695 0.331645 0.875012 -0.352655
28.7278 54.7548 25.3685 0.271512 0.885548 -0.376943
26.5614 54.5503 23.3795 0.264443 0.899976 -0.346572
24.8773 54.531 21.7379 0.230227 0.943564 -0.238083
22.2332 55.0869 21.6513 0.212434 0.948362 -0.235546
24.3324 55.2287 23.6516 0.214105 0.914843 -0.342376
26.4358 55.5235 25.4994 0.264288 0.864522 -0.427496
28.4626 55.7165 27.3381 0.352218 0.846654 -0.398897
29.285 55.7432 28.127 0.376513 0.8516 -0.364712
27.2411 56.6881 28.3527 0.403382 0.819088 -0.407894
24.6704 56.4445 26.025 0.305518 0.825185 -0.475109
22.398 56.0305 24.1316 0.359744 0.794246 -0.48965
20.3693 55.7179 22.2922 0.179795 0.930113 -0.320256
20.177 55.6932 22.1126 0.179794 0.930114 -0.320254
18.2752 56.3402 22.6903 0.16201 0.884945 -0.436607
20.3686 56.9564 24.367 0.283587 0.772947 -0.567566
22.5065 57.4886 26.0619 0.33871 0.69711 -0.631913
24.685 57.8169 27.9119 0.415558 0.77061 -0.483189
25.3948 57.8343 28.5927 0.409075 0.790124 -0.456468
23.7158 59.0298 29.0151 0.435419 0.801393 -0.410097
21.5054 58.8608 27.0143 0.333204 0.664789 -0.668603
19.1456 58.1298 25.2369 0.20307 0.67163 -0.712514
16.6954 57.0498 23.5329 0.0628483 0.810961 -0.581715
16.245 56.8539 23.1889 0.0679793 0.850263 -0.52195
14.1094 57.1907 23.6411 -0.0843844 0.861304 -0.501034
16.2228 58.3093 25.0954 -0.0246487 0.77354 -0.633267
18.5233 59.5934 26.4852 0.0527049 0.675186 -0.735762
21.0357 60.5168 28.2596 0.461112 0.634158 -0.620661
22.0186 60.4083 29.2725 0.475087 0.853745 -0.213103
18.5338 61.3996 28.1678 0.0126992 0.726028 -0.687548
16.4725 60.1279 26.8918 -0.0230384 0.74985 -0.661207
14.2549 58.6756 25.7143 -0.206959 0.775475 -0.596495
13.9222 58.4554 25.5052 -0.192407 0.810687 -0.552961
