28.1063 68.6134 -24.9439 0.160553 0.798897 0.575236
28.5083 67.6324 -23.8603 0.138812 0.755126 0.640716
29.4789 66.6468 -23.0369 0.259076 0.753136 0.604702
30.7091 65.6766 -22.4194 0.31497 0.729841 0.606714
31.9701 64.3956 -21.5482 0.355163 0.713121 0.602999
32.9131 63.4834 -20.9756 0.366153 0.751983 0.548136
33.8786 62.6801 -20.5185 0.370599 0.750451 0.547226
35.1423 61.6578 -19.7811 0.330467 0.791499 0.514121
36.154 60.9078 -19.35 0.370876 0.789321 0.489308
37.7538 59.7977 -18.812 0.382783 0.796371 0.467635
39.0472 58.7107 -18.0112 0.41669 0.787902 0.453409
40.61 57.5077 -17.3515 0.402675 0.785719 0.469574
41.5815 56.7545 -16.9242 0.39774 0.79363 0.460195
43.0825 55.5666 -16.2003 0.447893 0.820317 0.354863
44.1619 54.775 -15.7245 0.465984 0.796812 0.383072
45.2785 53.9245 -15.3153 0.488212 0.815029 0.31003
46.5557 52.8485 -14.7625 0.527681 0.788805 0.315181
47.7797 51.874 -14.2077 0.491769 0.83499 0.246889
48.8114 51.1311 -13.7625 0.48456 0.842222 0.23565
49.7655 50.8104 -14.7186 0.527827 0.831349 0.173288
50.5097 50.5256 -15.9745 0.576081 0.810817 0.103472
51.2581 50.0873 -16.9419 0.599092 0.797731 0.0686611
50.0555 51.1504 -17.9501 0.615614 0.781212 0.103542
48.9996 52.0539 -18.4709 0.613296 0.7835 0.0997718
47.9439 52.9987 -19.0609 0.64787 0.753441 0.11221
46.9352 53.9409 -19.7962 0.622007 0.776113 0.103706
45.9572 54.8397 -20.4619 0.629632 0.766173 0.128241
44.8962 55.8533 -21.2269 0.641535 0.752794 0.147428
44.007 56.736 -21.89 0.652238 0.74626 0.132975
42.9949 57.7037 -22.4838 0.63149 0.760772 0.149825
41.9358 58.6448 -22.9653 0.62352 0.774112 0.109154
40.9622 59.4658 -23.4587 0.597159 0.784262 0.166598
39.7402 60.5541 -24.0241 0.615763 0.774376 0.145528
38.6804 61.5073 -24.5702 0.60387 0.779999 0.164141
37.7057 62.4598 -25.21 0.643878 0.739075 0.197965
36.8855 63.3451 -25.8168 0.652523 0.731481 0.197864
36.0556 64.2405 -26.39 0.637708 0.742698 0.203355
34.809 65.4448 -26.9946 0.634896 0.752968 0.17294
33.8716 66.4016 -27.6106 0.660267 0.731281 0.170803
32.9994 67.3133 -28.1347 0.643598 0.753362 0.131225
32.0029 68.2142 -28.7776 0.626385 0.766146 0.141877
31.1175 69.0381 -29.3646 0.56082 0.790521 0.246084
30.1584 69.8506 -29.5646 0.6171 0.743035 0.25901
29.0286 70.0687 -28.2275 0.5512 0.745109 0.371632
27.7732 70.2467 -27.3595 0.320105 0.806706 0.487591
27.848 69.4711 -26.2235 0.207549 0.816435 0.538007
28.0137 68.8464 -25.2833 0.190051 0.832848 0.51985
26.7778 68.7944 -24.8873 0.0619494 0.761023 0.641941
26.58 69.7236 -26.0736 0.225052 0.800026 0.556157
26.069 70.6343 -27.2286 0.103882 0.802595 0.587409
26.6982 71.1974 -28.2493 0.222216 0.752846 0.619551
27.9222 70.9282 -28.5764 0.414284 0.740443 0.528468
28.9344 70.7401 -29.3324 0.591166 0.710655 0.381434
29.6189 70.6841 -30.5663 0.658065 0.701761 0.272913
29.917 70.7854 -31.6928 0.688448 0.699189 0.190953
30.8177 69.7923 -31.1412 0.670243 0.714678 0.200024
31.6839 68.8736 -30.5896 0.638381 0.74767 0.181772
32.8651 67.7097 -29.766 0.630945 0.758471 0.163186
33.9748 66.6132 -29.0645 0.657486 0.738646 0.148709
34.9719 65.6275 -28.4608 0.642582 0.75415 0.135449
35.8463 64.7567 -27.9163 0.666543 0.733517 0.132942
36.8313 63.809 -27.4295 0.651871 0.742595 0.149931
37.6633 62.8743 -26.8078 0.659822 0.730608 0.17448
38.819 61.6729 -26.0193 0.649289 0.748212 0.132613
39.922 60.6749 -25.4072 0.626367 0.76739 0.135611
41.2873 59.4164 -24.729 0.650626 0.75278 0.100044
42.3901 58.4437 -24.1337 0.628717 0.771205 0.0988895
43.4069 57.5264 -23.6538 0.656779 0.748735 0.08965
44.303 56.6797 -23.1585 0.663816 0.744715 0.0689042
45.2274 55.7792 -22.4907 0.668901 0.738513 0.0846712
46.4811 54.5794 -21.6595 0.651649 0.754955 0.0734612
47.5024 53.6366 -20.9643 0.639258 0.764452 0.0806581
48.3957 52.7983 -20.3187 0.6481 0.75307 0.113368
49.4504 51.8318 -19.6874 0.636003 0.767899 0.0763698
50.3927 51.0124 -19.2035 0.630215 0.773628 0.0657406
51.3411 50.1931 -18.7385 0.630197 0.773145 0.0711006
52.3452 49.3363 -18.1492 0.627223 0.77685 0.0551778
53.4181 48.4045 -17.2056 0.629127 0.776256 0.039534
52.6388 48.9934 -16.5646 0.611326 0.790107 0.0419295
51.6723 49.6823 -15.8505 0.587951 0.804012 0.0860861
50.8565 50.147 -14.6633 0.52131 0.845511 0.0961736
50.2035 50.2541 -13.2624 0.469676 0.862934 0.186331
49.6036 50.2323 -12.0051 0.418805 0.877674 0.229593
48.5874 50.8341 -12.287 0.418263 0.868487 0.266056
47.3635 51.6622 -12.9176 0.455271 0.82299 0.339727
46.3961 52.3891 -13.3822 0.443788 0.829112 0.339788
44.8388 53.553 -14.0359 0.446751 0.796406 0.407617
43.5896 54.5007 -14.5773 0.434424 0.803139 0.407696
42.1996 55.5161 -15.2544 0.379374 0.824925 0.419016
41.193 56.264 -15.7135 0.392802 0.801543 0.450817
39.4645 57.5256 -16.399 0.403487 0.785326 0.469532
38.2355 58.5049 -16.9779 0.405687 0.782275 0.472699
36.7877 59.6709 -17.8833 0.302955 0.799708 0.518331
35.3565 60.5785 -18.3559 0.316681 0.767339 0.557588
33.6754 61.8266 -19.2017 0.294418 0.781855 0.549564
32.652 62.5802 -19.7676 0.290608 0.754953 0.585631
31.6823 63.3779 -20.2261 0.248114 0.73924 0.62607
30.2175 64.8618 -21.2868 0.269519 0.696108 0.665427
29.2042 65.7825 -21.9224 0.204423 0.684754 0.699516
28.1655 66.4692 -22.453 0.0345463 0.787308 0.615591
27.3181 67.2927 -23.2737 0.0961793 0.711197 0.696383
26.8115 68.5383 -24.5901 -0.00715143 0.757094 0.653266
26.8104 68.5593 -24.6144 -0.00715322 0.757096 0.653264
25.5405 68.3857 -24.4272 -0.00303192 0.762326 0.647122
25.7977 67.4999 -23.3669 0.0219164 0.740955 0.66973
26.4088 66.4672 -22.3482 0.0430241 0.708731 0.704121
27.6274 65.6706 -21.5442 -0.00516131 0.722911 0.690922
28.8918 64.7317 -20.7476 0.169025 0.702966 0.690391
29.8241 63.8767 -20.0969 0.168051 0.722175 0.669926
30.7664 62.9437 -19.3902 0.20497 0.714056 0.669411
31.8197 62.1966 -18.8501 0.204675 0.760593 0.616122
33.3775 61.1168 -18.0346 0.204681 0.760482 0.616257
34.414 60.3089 -17.4881 0.29109 0.762662 0.577592
35.59 59.4914 -16.9128 0.248264 0.7923 0.557338
36.8692 58.6029 -16.3048 0.302061 0.775682 0.554145
38.0539 57.6591 -15.6305 0.302698 0.775308 0.55432
39.0919 56.9903 -15.2492 0.303752 0.793275 0.527677
40.6438 55.8794 -14.6164 0.364179 0.782419 0.505168
41.7056 55.157 -14.1564 0.366301 0.813871 0.451041
42.8533 54.2762 -13.494 0.363954 0.816186 0.448752
43.9863 53.4809 -12.9665 0.398997 0.81092 0.425953
45.1069 52.6533 -12.3915 0.432306 0.835232 0.339852
46.1632 51.9376 -11.9763 0.443789 0.829111 0.339789
47.5327 51.008 -11.2311 0.41054 0.861099 0.299942
48.9018 50.1612 -10.5537 0.382143 0.884468 0.267736
49.9696 49.5476 -10.0874 0.394727 0.881681 0.258506
50.7745 49.3397 -10.6055 0.393561 0.882567 0.257266
50.8822 49.6456 -11.9335 0.409401 0.892263 0.1899
51.1862 49.6923 -13.1679 0.456968 0.875746 0.150106
51.8168 49.4783 -14.3801 0.580121 0.812673 0.0496123
52.6245 48.931 -15.3168 0.598827 0.799293 0.0503748
53.9354 47.9146 -15.9926 0.640425 0.767222 0.0337909
55.3031 46.8184 -16.3331 0.648874 0.760062 0.0314363
56.6398 45.6508 -16.2357 0.646642 0.761662 0.0415285
56.6695 45.6566 -16.7989 0.646945 0.761379 0.0420053
55.6772 46.5495 -17.5533 0.648873 0.760062 0.0314336
54.7118 47.3901 -18.3087 0.642249 0.765533 0.0384145
53.7773 48.1918 -18.771 0.638951 0.767922 0.0451426
52.7468 49.0953 -19.5253 0.63828 0.768055 0.0518766
51.8254 49.8917 -19.9845 0.6385 0.767482 0.0573452
50.867 50.7242 -20.4682 0.637582 0.767703 0.0642007
49.829 51.6353 -21.047 0.642738 0.762681 0.0714852
48.7189 52.6484 -21.6731 0.656688 0.750254 0.0756548
47.6539 53.6416 -22.4186 0.651091 0.75543 0.0735274
46.4927 54.7328 -23.202 0.657987 0.748204 0.0851179
45.1357 56.0247 -24.0657 0.661681 0.746541 0.0696786
43.8048 57.2752 -24.8463 0.66605 0.74416 0.0510267
42.6649 58.3188 -25.3918 0.652057 0.754864 0.0706348
41.7071 59.204 -25.9032 0.661171 0.745539 0.083806
40.826 60.0308 -26.4466 0.656194 0.748381 0.0961709
39.8436 60.9887 -27.0537 0.64591 0.755313 0.10882
38.8833 61.9179 -27.5067 0.668197 0.732469 0.128774
38.0147 62.7786 -27.9796 0.680569 0.723297 0.116908
37.0299 63.8087 -28.6199 0.682917 0.721516 0.114115
36.0077 64.8549 -29.3001 0.665221 0.735572 0.128124
35.1735 65.7024 -29.8343 0.653901 0.744862 0.131781
34.1688 66.6983 -30.4168 0.656919 0.741704 0.1354
33.2375 67.6395 -31.0602 0.656408 0.742203 0.135143
32.354 68.5836 -31.7961 0.674268 0.721996 0.153516
31.4236 69.5701 -32.5212 0.655411 0.739093 0.155494
30.6982 70.3265 -33.2265 0.658939 0.750701 0.0474121
29.4738 71.3545 -34.0876 0.620659 0.779821 -0.0753569
28.757 71.6944 -35.2501 0.549876 0.825403 -0.125314
27.9331 72.2885 -34.929 0.547405 0.828189 -0.12021
28.5973 72.0778 -33.356 0.559219 0.820249 -0.119424
29.0263 71.7866 -32.2171 0.65978 0.723807 0.190152
28.7308 71.5397 -30.4875 0.724506 0.617165 0.288316
27.6718 71.7254 -29.3527 0.416883 0.617223 0.667267
26.03 72.1859 -29.0159 0.161592 0.692376 0.690407
24.6048 72.1592 -28.937 0.0214703 0.730169 0.682862
23.2069 71.956 -28.8223 -0.0537597 0.774799 0.629918
23.7972 71.4616 -28.1638 -0.0535951 0.774705 0.630047
24.7367 70.5627 -26.9716 -0.05204 0.778307 0.625724
25.3052 69.4552 -25.6561 -0.00279166 0.752888 0.658143
25.5232 68.6753 -24.763 -0.00496902 0.754992 0.655703
5.45292 64.1113 -47.4965 -0.516885 0.855662 -0.0259371
6.67528 64.861 -47.077 -0.508549 0.859716 -0.0434859
5.59277 64.1743 -47.9056 -0.492765 0.868635 -0.0492059
4.42096 63.4921 -48.5681 -0.487344 0.872418 -0.0371774
2.86196 62.6398 -49.3987 -0.452687 0.891517 -0.016468
1.74797 62.063 -49.9987 -0.450161 0.892849 -0.0122137
0.653929 61.536 -51.8311 -0.418174 0.908364 -0.0023581
-0.271991 61.1063 -52.7947 -0.395264 0.918563 -0.00283193
-1.8877 60.4058 -53.857 -0.38234 0.923892 -0.00153159
-3.21515 59.8817 -54.935 -0.368606 0.929584 0.00139006
-4.2553 59.4919 -55.7236 -0.350339 0.93661 0.00486545
-5.89781 58.9164 -56.6704 -0.317903 0.948032 0.0131389
-6.98868 58.5618 -57.5227 -0.307151 0.951466 0.0143624
-8.2577 58.1881 -58.363 -0.290078 0.956894 0.0144587
-9.50056 57.8263 -58.665 -0.280719 0.959599 0.0191622
-9.79101 57.7338 -58.2801 -0.280013 0.959819 0.0184416
-8.65744 58.0551 -57.5805 -0.290747 0.956638 0.0173648
-7.45486 58.4071 -56.9012 -0.288845 0.957061 0.0240966
-6.62409 58.6407 -55.8927 -0.318596 0.947349 0.0292286
-5.2038 59.1298 -55.4807 -0.351877 0.935849 0.0181967
-3.87379 59.62 -54.4819 -0.359574 0.93299 0.0149385
-3.07675 59.9247 -52.9975 -0.376283 0.926471 0.00789311
-2.14035 60.2882 -52.0249 -0.384494 0.92296 0.0175812
-1.09119 60.7357 -51.2044 -0.407065 0.913247 0.0166437
0.222427 61.3337 -50.0858 -0.427469 0.904011 0.00580357
1.32293 61.847 -49.2087 -0.464401 0.885383 0.0200842
2.47703 62.4411 -48.4411 -0.468758 0.883067 0.0214081
4.17146 63.3695 -47.7851 -0.49669 0.867928 8.51046e-06
5.23036 63.9755 -47.5341 -0.507173 0.861563 -0.0129397
5.09887 63.9386 -46.1239 -0.517657 0.855196 -0.0258857
6.35737 64.7264 -45.6941 -0.537255 0.841375 -0.0586916
7.84576 65.7047 -45.1432 -0.527148 0.847681 -0.059595
8.96859 66.4791 -44.7272 -0.551263 0.828414 -0.0991972
9.91715 67.053 -44.7111 -0.50886 0.849798 -0.137173
8.83661 66.1672 -46.6817 -0.498343 0.861949 -0.0927042
7.27283 65.128 -48.1668 -0.489612 0.869737 -0.0619508
6.2385 64.4893 -48.9089 -0.484551 0.873961 -0.0374384
4.92108 63.7179 -49.8246 -0.47971 0.87691 -0.0268646
3.47894 62.9238 -50.9813 -0.462381 0.88646 -0.0165086
2.50011 62.4227 -51.8926 -0.44763 0.894183 -0.00796138
1.18112 61.7654 -53.4885 -0.415329 0.909566 -0.013853
0.155473 61.2833 -54.3409 -0.403747 0.914653 -0.0137213
-1.56097 60.5383 -55.4753 -0.382343 0.923891 -0.00153238
-2.92653 59.9978 -56.3592 -0.368784 0.929514 0.00103348
-4.03918 59.5835 -57.2286 -0.346283 0.938066 0.0109347
-5.04118 59.225 -58.2114 -0.332092 0.94305 0.012037
-6.45538 58.7575 -58.9194 -0.318966 0.947702 0.0110219
-7.56597 58.4228 -59.6524 -0.297739 0.954541 0.0132688
-9.16006 57.9434 -60.48 -0.281887 0.959432 0.00549412
-10.3819 57.6027 -61.0979 -0.271552 0.962349 0.0120125
-11.4651 57.3038 -61.9795 -0.262419 0.964944 0.00440083
-12.7784 56.9498 -62.3926 -0.260944 0.965352 0.00185413
-14.3249 56.5363 -63.1378 -0.255716 0.966735 0.0034428
-15.8568 56.1373 -63.5673 -0.252122 0.967693 -0.00198867
-16.9991 55.8391 -64.3037 -0.251186 0.967907 -0.00779123
-18.2953 55.4978 -64.7727 -0.25192 0.967703 -0.0093508
-19.3047 55.2454 -63.8072 -0.250796 0.967977 -0.0109854
-18.1408 55.5501 -63.2672 -0.250901 0.967991 -0.00651142
-16.8923 55.8737 -62.3142 -0.244821 0.969565 -0.00270964
-15.7228 56.1733 -61.4932 -0.248037 0.968746 0.00298427
-14.5787 56.4665 -60.6924 -0.252149 0.967688 0.000743806
-13.4708 56.7475 -59.7982 -0.249654 0.968312 0.00671168
-12.2162 57.0753 -58.9187 -0.263226 0.9646 0.0146178
-11.101 57.3609 -58.1005 -0.262728 0.964635 0.0213126
-10.2029 57.5914 -57.12 -0.273533 0.961668 0.0181254
-9.0645 57.9047 -56.3362 -0.284998 0.95828 0.0207641
-7.8602 58.2389 -55.2869 -0.286278 0.95774 0.0279285
-6.602 58.6143 -54.549 -0.308986 0.950791 0.0229105
-5.25524 59.0759 -53.7036 -0.351879 0.935849 0.0181967
-4.3706 59.3937 -52.5403 -0.365762 0.93035 0.0258332
-3.09745 59.8818 -51.4739 -0.381151 0.924327 0.0185612
-1.90946 60.365 -50.4255 -0.395116 0.918535 0.0133248
-0.838437 60.8291 -49.6188 -0.42742 0.903727 0.0198374
0.298102 61.3296 -48.6291 -0.4302 0.902204 0.0305782
1.38433 61.8515 -47.9157 -0.46004 0.8877 0.0187635
2.42837 62.3898 -47.2093 -0.473053 0.880932 0.0134234
3.54607 63.0092 -46.7194 -0.501573 0.865114 0.00163393
4.75101 63.7256 -46.2049 -0.517659 0.855195 -0.0258856
4.31184 63.4494 -45.0629 -0.534207 0.845237 0.0140578
5.68264 64.3453 -44.5929 -0.552834 0.832964 -0.0230053
6.73576 65.0505 -44.1749 -0.557142 0.829181 -0.0409358
8.02363 65.9601 -43.788 -0.549912 0.831409 -0.0797233
9.1144 66.7232 -43.5054 -0.558761 0.823045 -0.10147
10.247 67.4677 -43.3897 -0.529831 0.836176 -0.141737
11.3891 68.1625 -43.3442 -0.498489 0.850181 -0.168342
12.7776 68.9475 -43.2285 -0.47324 0.854518 -0.214107
14.1067 69.6814 -43.0014 -0.41401 0.875177 -0.248153
15.1542 70.312 -42.4786 -0.369561 0.886656 -0.274809
16.5533 70.8597 -42.3492 -0.327702 0.9052 -0.270598
17.9193 71.3786 -41.924 -0.219874 0.933726 -0.282033
18.2338 71.3491 -42.2754 -0.212158 0.93955 -0.268765
16.5624 70.8595 -42.3597 -0.283133 0.915995 -0.284235
15.6641 70.2937 -43.1527 -0.330996 0.902731 -0.274808
14.5638 69.6049 -44.0751 -0.387443 0.898392 -0.206835
13.3446 68.8974 -44.7078 -0.397172 0.899626 -0.181459
12.2883 68.2726 -45.2411 -0.438992 0.882728 -0.167564
10.8715 67.3659 -46.2971 -0.460768 0.873509 -0.154828
10.0994 66.8022 -47.3557 -0.475397 0.872554 -0.112455
9.10421 66.1337 -48.336 -0.465889 0.879306 -0.0969162
7.97196 65.4335 -49.259 -0.481033 0.873106 -0.0793283
7.00947 64.858 -49.9396 -0.470093 0.880611 -0.0591571
6.02346 64.277 -50.6399 -0.47588 0.877584 -0.0581725
4.92079 63.6505 -51.6217 -0.460007 0.886935 -0.0417164
3.7278 62.9968 -52.9565 -0.450218 0.892565 -0.0251285
2.67201 62.455 -54.1472 -0.431174 0.902146 -0.014874
1.16798 61.7281 -55.3515 -0.416582 0.908934 -0.0172641
-0.131861 61.1392 -56.3324 -0.392048 0.919811 -0.0148936
-1.22183 60.6599 -56.9597 -0.379952 0.924754 -0.0157361
-2.47069 60.1723 -57.6973 -0.355763 0.934576 -0.000949662
-3.73772 59.6964 -58.7762 -0.341202 0.93997 -0.00611699
-4.7672 59.3314 -59.5267 -0.317808 0.9481 0.0102789
-6.17303 58.8684 -60.2827 -0.318385 0.947901 0.0106519
-7.15654 58.5628 -61.1265 -0.29321 0.956038 -0.00432011
-8.48781 58.1518 -61.7191 -0.296677 0.954946 0.00225455
-9.61523 57.8261 -62.4939 -0.273274 0.961936 -0.00050484
-10.726 57.5103 -63.1852 -0.267573 0.963518 0.00210703
-12.0709 57.1438 -63.6927 -0.264465 0.964395 0.000211663
-13.267 56.8217 -64.1923 -0.259139 0.96584 0.000459412
-15.1616 56.3188 -64.8783 -0.253204 0.967413 0.00054322
-16.2393 56.0334 -65.4007 -0.255857 0.966706 -0.004037
-17.5569 55.6821 -66.1122 -0.255866 0.966702 -0.00444807
-18.935 55.3164 -66.3334 -0.255897 0.966693 -0.00467182
-20.2771 54.9495 -66.8733 -0.258536 0.965903 -0.0138124
-21.6362 54.5822 -67.1147 -0.262139 0.964915 -0.0144505
-23.0914 54.1779 -67.3402 -0.265417 0.964023 -0.01458
-24.5797 53.7611 -67.4763 -0.270267 0.962677 -0.0144481
-26.203 53.2947 -67.7335 -0.276259 0.960964 -0.0151153
-27.5469 52.8994 -67.9077 -0.281423 0.959436 -0.0168405
-27.4466 52.956 -66.6091 -0.280408 0.959636 -0.0216923
-26.2847 53.3036 -66.0542 -0.273191 0.961767 -0.0191981
-24.9929 53.6751 -65.7775 -0.268905 0.962963 -0.0197991
-23.5254 54.1005 -64.7552 -0.266011 0.963619 -0.024698
-21.9819 54.5441 -63.9456 -0.254337 0.966867 -0.0219435
-20.6527 54.9027 -63.3974 -0.246515 0.969002 -0.0148725
-19.3674 55.2495 -62.2189 -0.247625 0.968788 -0.0107761
-17.9132 55.6191 -61.5206 -0.243201 0.969966 -0.00433112
-16.6263 55.9404 -60.7205 -0.24161 0.970355 0.004111
-15.461 56.2358 -59.6243 -0.249396 0.968377 0.00482477
-14.1408 56.5675 -58.7534 -0.249246 0.968362 0.0113632
-13.0158 56.8361 -57.9409 -0.252982 0.967155 0.0226674
-11.9427 57.1102 -57.1247 -0.262361 0.964721 0.0218782
-10.9579 57.359 -56.1796 -0.267584 0.963236 0.0239625
-9.63574 57.7116 -55.3492 -0.275413 0.960403 0.0409819
-8.1578 58.113 -54.1849 -0.291611 0.955912 0.0345695
-7.03047 58.4307 -53.2926 -0.308638 0.950469 0.0367538
-5.85889 58.8164 -52.4198 -0.355943 0.934238 0.0224387
-4.8433 59.175 -51.463 -0.362788 0.931353 0.0300381
-3.67165 59.62 -50.4266 -0.382618 0.923645 0.0219966
-2.32116 60.1674 -49.3306 -0.3941 0.918393 0.0315604
-0.769607 60.8043 -48.0957 -0.427595 0.903328 0.0340805
0.441222 61.3463 -47.23 -0.441932 0.896057 0.0421688
1.85898 62.0443 -46.221 -0.460771 0.886888 0.0334782
3.21493 62.8037 -45.5943 -0.503341 0.863963 0.0147019
3.96499 63.2314 -45.138 -0.51825 0.854893 0.0150284
26.8598 72.5641 -36.6439 0.341534 0.913985 -0.219059
27.7098 72.297 -35.7244 0.550233 0.820781 -0.153501
27.0741 72.536 -36.3761 0.502703 0.839746 -0.205223
27.0181 72.5495 -36.458 0.422113 0.876878 -0.212157
30.4789 69.2943 -28.7324 0.589375 0.767312 0.252722
29.8379 69.4294 -27.9464 0.51126 0.799095 0.316322
28.8075 69.4805 -26.8663 0.359772 0.827538 0.430982
28.4642 69.462 -26.5442 0.359732 0.827758 0.430592
28.8085 68.9376 -25.8472 0.33863 0.820144 0.461188
29.7514 69.0041 -26.7247 0.385013 0.839092 0.384305
30.6099 68.8966 -27.6941 0.447457 0.84521 0.292236
31.2006 68.7082 -28.4751 0.559526 0.803416 0.2036
31.7965 68.1878 -28.0319 0.541499 0.81796 0.194215
31.0958 68.4294 -27.087 0.504893 0.826605 0.248611
30.3931 68.4881 -26.3197 0.443769 0.825548 0.348625
29.6207 68.4681 -25.5641 0.307884 0.835462 0.455204
29.289 68.4303 -25.2705 0.307886 0.835463 0.4552
29.145 67.7885 -24.2127 0.18628 0.749341 0.635443
30.1388 67.9281 -25.0585 0.348534 0.776523 0.524915
30.8918 67.9763 -25.7643 0.448676 0.797215 0.403904
31.6879 67.8871 -26.659 0.507887 0.798671 0.322761
32.4213 67.6551 -27.6349 0.577398 0.792074 0.198069
32.445 67.6457 -27.6683 0.576266 0.796098 0.184786
33.0313 67.0882 -27.2584 0.631411 0.749013 0.20075
32.1983 67.3626 -26.127 0.540876 0.788455 0.292904
31.5235 67.433 -25.3733 0.429788 0.808756 0.401492
30.7662 67.3858 -24.6632 0.340065 0.800358 0.493744
29.932 67.2705 -23.9551 0.390298 0.746596 0.53876
29.7953 67.2552 -23.8349 0.327481 0.720776 0.610932
30.3396 66.6603 -23.4226 0.286302 0.743472 0.604385
31.2489 66.8321 -24.1382 0.314727 0.755389 0.574747
31.9969 66.8793 -24.8337 0.426898 0.787418 0.44467
32.7903 66.7676 -25.7589 0.596889 0.745923 0.295503
33.3832 66.5962 -26.548 0.646388 0.730225 0.221257
34.1802 65.8847 -26.5284 0.646381 0.730232 0.221252
33.433 66.1423 -25.4788 0.616763 0.733393 0.2859
32.5969 66.3206 -24.4204 0.507693 0.76425 0.397707
31.8249 66.2601 -23.7323 0.399885 0.741519 0.538741
31.2258 66.1477 -23.2599 0.313288 0.733187 0.603562
32.1233 65.6374 -23.107 0.35547 0.713733 0.603511
32.9288 65.6645 -23.8804 0.509419 0.660398 0.551695
33.608 65.5889 -24.6539 0.599189 0.710097 0.369776
34.4573 65.3594 -25.7732 0.611027 0.744229 0.269757
34.7965 65.2576 -26.2269 0.612643 0.751581 0.244529
35.2482 64.7076 -25.6682 0.61785 0.752132 0.229256
34.6259 64.9058 -24.8262 0.559579 0.780193 0.27959
33.6172 65.0395 -23.6571 0.495928 0.735593 0.461474
32.8595 65.0415 -22.8937 0.436782 0.722788 0.535536
32.7178 64.3147 -21.9469 0.393674 0.69975 0.59613
33.5434 64.4378 -22.6367 0.436782 0.722787 0.535537
34.4526 64.4067 -23.5865 0.514369 0.729387 0.45102
35.5386 64.2123 -24.8923 0.61252 0.75003 0.24955
36.0026 64.0482 -25.5378 0.617856 0.752126 0.229258
36.3403 63.5427 -24.8277 0.649702 0.727866 0.219313
35.7906 63.7322 -24.068 0.587443 0.742261 0.322426
35.0682 63.8414 -23.2178 0.441109 0.795256 0.415921
34.1916 63.8466 -22.3325 0.410328 0.758826 0.505781
33.3901 63.7416 -21.6485 0.366155 0.751983 0.548135
33.9062 63.1642 -21.2011 0.370603 0.75046 0.547233
34.6894 63.2629 -21.874 0.375045 0.748918 0.546318
35.5302 63.2854 -22.6877 0.482363 0.747603 0.456526
36.1931 63.1661 -23.4886 0.581082 0.749702 0.316687
36.9274 62.9302 -24.4886 0.632969 0.746558 0.204941
37.1456 62.8343 -24.8132 0.632968 0.746559 0.20494
37.6059 62.2946 -24.2686 0.63844 0.742839 0.201458
36.9297 62.5125 -23.3482 0.612554 0.731131 0.300375
36.0838 62.6672 -22.3263 0.519456 0.727353 0.448467
35.378 62.7032 -21.5794 0.410327 0.758826 0.505781
34.6523 62.6117 -20.9559 0.375045 0.748918 0.546318
34.634 62.6094 -20.9402 0.375045 0.748918 0.546318
35.421 62.1132 -20.6729 0.360793 0.791788 0.49285
36.1564 62.1434 -21.3753 0.471287 0.798058 0.375488
37.2034 62.0297 -22.553 0.544901 0.781717 0.303318
37.8322 61.8521 -23.3819 0.574082 0.781386 0.244673
38.2768 61.6977 -23.9899 0.597615 0.776401 0.200145
38.5654 61.2344 -23.1875 0.555006 0.805696 0.206935
37.4737 61.5013 -21.8049 0.530965 0.77062 0.35245
36.6116 61.6114 -20.816 0.430803 0.792082 0.432453
36.1846 61.5779 -20.4259 0.386145 0.771584 0.505519
36.9657 61.0472 -20.1903 0.381699 0.78564 0.486905
37.7413 61.007 -21.0125 0.481072 0.814199 0.325037
38.3778 60.9232 -21.7447 0.513087 0.802987 0.303238
39.2652 60.6779 -22.898 0.581266 0.790394 0.193408
39.4214 60.6085 -23.1264 0.606885 0.774214 0.179675
39.939 60.0846 -22.6197 0.607544 0.773576 0.180194
39.3257 60.274 -21.8033 0.568518 0.7672 0.296969
38.6484 60.4339 -20.9488 0.523593 0.779987 0.342739
37.872 60.5175 -20.0779 0.485158 0.798732 0.355877
37.7581 60.5126 -19.9693 0.392473 0.78185 0.484433
38.4777 59.9728 -19.6811 0.440216 0.792812 0.421496
39.3001 59.8291 -20.6636 0.560985 0.759677 0.328917
40.2117 59.5951 -21.8296 0.598355 0.752257 0.275827
40.7754 59.425 -22.5723 0.580465 0.793997 0.180634
41.457 58.8469 -22.2758 0.580843 0.788502 0.202204
40.6766 59.1035 -21.2299 0.534911 0.800063 0.271605
39.9977 59.2435 -20.4022 0.52867 0.792036 0.305266
39.3131 59.3788 -19.5676 0.526025 0.779795 0.339437
38.9711 59.4221 -19.1775 0.470755 0.778979 0.414225
39.4664 58.8507 -18.6976 0.522684 0.766521 0.373159
40.3594 58.7376 -19.7162 0.526029 0.779792 0.339436
40.9805 58.612 -20.4703 0.507167 0.811244 0.290971
41.7727 58.4135 -21.4656 0.573637 0.791917 0.209304
42.0953 58.2925 -21.9106 0.572496 0.795417 0.198898
42.745 57.7233 -21.5728 0.61993 0.758878 0.199476
41.9487 58.0114 -20.483 0.541627 0.800801 0.255651
41.2196 58.1435 -19.6191 0.507313 0.797341 0.326924
40.303 58.2505 -18.5902 0.472675 0.804795 0.359003
40.8368 57.7197 -18.1036 0.472814 0.804476 0.359535
41.4872 57.6486 -18.8273 0.502533 0.801444 0.324265
42.3332 57.5166 -19.8059 0.543718 0.785611 0.295273
43.1499 57.2169 -20.9297 0.601524 0.768009 0.219842
43.3074 57.1498 -21.1559 0.628333 0.758464 0.173002
43.8802 56.5754 -20.7513 0.62095 0.756605 0.204867
43.3377 56.8032 -19.9783 0.594079 0.767025 0.242368
42.5894 57.0339 -18.9934 0.543721 0.785608 0.295275
41.5174 57.1749 -17.7821 0.491675 0.796065 0.352897
41.4848 57.1789 -17.7455 0.482274 0.800316 0.356239
42.2854 56.6158 -17.56 0.465992 0.818158 0.336853
42.932 56.5433 -18.2783 0.514058 0.805217 0.295585
43.735 56.3043 -19.3238 0.572547 0.784164 0.239324
44.5754 55.9817 -20.4866 0.617126 0.76942 0.164764
45.0383 55.4838 -19.8937 0.618284 0.770564 0.154776
44.3771 55.7423 -18.9751 0.555003 0.80816 0.1971
43.7259 55.937 -18.1319 0.530022 0.811743 0.245257
43.1218 56.0713 -17.3945 0.466949 0.813361 0.346991
43.7223 55.5593 -16.9595 0.427932 0.832177 0.352641
44.3435 55.4133 -17.7221 0.5271 0.817134 0.233361
44.9359 55.2391 -18.4852 0.584906 0.789062 0.187792
45.4881 54.985 -19.2915 0.614018 0.768906 0.178229
46.3003 54.3303 -19.2074 0.605652 0.777807 0.167936
45.6957 54.6097 -18.3263 0.604609 0.776866 0.17586
45.0803 54.855 -17.4689 0.542137 0.805807 0.23825
44.412 55.0505 -16.6096 0.539588 0.789818 0.291602
44.3675 55.0561 -16.5593 0.466267 0.797294 0.383298
45.1336 54.4485 -16.3828 0.53536 0.771378 0.344043
45.9352 54.2092 -17.4227 0.591481 0.78607 0.179565
46.4905 53.9785 -18.2047 0.586799 0.793568 0.160986
46.9182 53.7718 -18.8283 0.595148 0.790186 0.146301
47.4052 53.2882 -18.2532 0.609778 0.777965 0.151463
46.7437 53.5846 -17.3073 0.590619 0.782213 0.198272
46.0721 53.8541 -16.3657 0.59092 0.782481 0.196309
45.9289 53.8859 -16.1899 0.4591 0.834552 0.304551
46.4203 53.3477 -15.6708 0.525755 0.747401 0.406168
47.0022 53.1506 -16.4549 0.600236 0.757448 0.256885
47.6292 52.8979 -17.3256 0.600663 0.779004 0.179877
48.1359 52.675 -18.0453 0.609812 0.773657 0.172002
48.8324 52.0901 -17.7645 0.614938 0.781473 0.105594
48.1952 52.3589 -16.8816 0.590676 0.786305 0.181178
47.5386 52.5995 -15.9904 0.574419 0.776758 0.258243
47.0693 52.752 -15.3716 0.540548 0.796721 0.270267
47.7373 52.1919 -15.0565 0.540547 0.79672 0.27027
48.6067 51.9187 -16.1836 0.55126 0.812147 0.191126
49.4347 51.5579 -17.3398 0.581864 0.798992 0.151808
49.4612 51.5431 -17.3796 0.615619 0.781212 0.103543
50.1198 50.9815 -17.0377 0.605837 0.785552 0.125972
49.4018 51.3287 -16.0072 0.581865 0.798991 0.151808
48.7463 51.5478 -15.154 0.5153 0.836091 0.188197
48.4578 51.6417 -14.7814 0.506362 0.834678 0.216586
