24.3359 62.453 30.0329 0.458057 0.885347 -0.016334
25.537 61.6009 29.6034 0.667005 0.709365 -0.115743
26.2797 60.6656 29.3122 0.66 0.703163 -0.264503
27.0519 59.8592 29.0955 0.636465 0.714157 -0.289154
28.0593 58.9649 28.8724 0.567649 0.715802 -0.406696
29.2721 58.0284 28.7836 0.508113 0.779476 -0.366141
30.3802 57.2289 28.6537 0.518344 0.776623 -0.358017
31.4782 56.595 28.5152 0.430325 0.84372 -0.320869
33.0571 55.77 28.3639 0.385618 0.87572 -0.29054
34.1202 55.2736 28.2474 0.333821 0.89754 -0.287726
35.1548 54.6863 27.5697 0.319903 0.902898 -0.28708
34.3946 54.6771 26.6999 0.303097 0.906371 -0.294318
33.5135 54.6517 25.8182 0.299256 0.887458 -0.350157
32.6774 54.5918 24.8987 0.332158 0.876252 -0.348369
31.9509 54.4382 23.7384 0.341498 0.883636 -0.320261
31.6047 54.1708 22.5464 0.312595 0.915574 -0.252998
31.3994 53.9273 21.2584 0.25125 0.945818 -0.205675
30.5651 54.0488 20.7983 0.255099 0.944194 -0.208323
29.4353 54.35 20.8673 0.232283 0.945543 -0.228022
28.1922 54.7207 20.98 0.284503 0.928322 -0.239325
27.0746 55.0821 21.1231 0.274119 0.938824 -0.206907
25.8886 55.4891 21.2559 0.357952 0.877665 -0.293322
24.4459 56.1834 21.4098 0.327529 0.838079 -0.43629
23.153 56.541 21.4291 0.2576 0.840451 -0.470412
21.6542 57.0576 21.6097 0.194059 0.812687 -0.549408
20.5111 57.4594 21.8053 0.195482 0.817458 -0.541802
19.2819 57.8444 22.1399 0.1053 0.812921 -0.572775
18.277 58.2048 22.4666 0.0393332 0.816916 -0.571605
17.2007 58.4767 22.9081 -0.0158123 0.789236 -0.61159
15.3275 58.7604 23.4539 -0.130875 0.793771 -0.593967
13.8093 58.394 23.3221 -0.150262 0.813476 -0.561852
12.4356 58.2483 23.5571 -0.194984 0.827525 -0.526482
12.3762 58.7198 24.3202 -0.221538 0.83818 -0.496656
13.2668 59.4744 25.0423 -0.23214 0.796658 -0.558075
14.1804 60.2136 25.5607 -0.215465 0.739711 -0.634746
14.9486 60.9339 26.2199 -0.157957 0.753019 -0.638758
15.7464 61.8215 27.131 -0.0478151 0.785907 -0.616493
16.6988 62.6562 28.2345 -0.121481 0.896676 -0.399476
17.8572 62.8817 28.5706 -0.194211 0.933742 -0.300679
18.9822 63.1307 28.7249 0.0305621 0.954276 -0.277025
20.3991 63.1952 29.1218 -0.0657068 0.986948 -0.0565264
21.5484 63.0795 29.5898 0.122824 0.986572 0.107654
22.5475 62.9051 30.2022 0.163494 0.985565 0.0439517
23.9235 62.6061 30.1594 0.33405 0.935277 0.116907
24.133 62.5392 30.0962 0.36193 0.928082 0.0565479
24.3599 62.2852 31.2095 0.458396 0.869649 0.138749
23.2427 62.6189 31.531 0.309593 0.933344 0.181717
21.62 62.9621 31.0943 0.0934137 0.994181 0.0536399
20.6068 63.1094 30.3901 0.0515615 0.991936 0.0891983
19.0919 63.2058 29.8478 0.0386586 0.998066 -0.00997249
17.4321 63.0795 29.6792 -0.0287303 0.997086 -0.0218047
16.1217 63.0556 29.3885 0.0203524 0.947908 -0.317893
15.395 62.5609 28.3297 -0.0825008 0.882623 -0.462785
14.6853 61.8985 27.4579 -0.191546 0.785125 -0.588972
13.5503 60.7879 26.4947 -0.272971 0.726401 -0.630737
12.7274 60.0528 25.9858 -0.252414 0.743504 -0.619265
11.7786 59.1666 25.2808 -0.29305 0.774673 -0.56036
10.9414 58.3955 24.4928 -0.248093 0.848835 -0.466829
10.084 57.6911 23.7502 -0.254194 0.930013 -0.265446
9.55563 57.2888 22.782 -0.169584 0.951211 -0.257037
10.9134 57.55 22.6614 -0.232144 0.915687 -0.328064
12.2017 57.6367 22.4495 -0.152449 0.907666 -0.387758
13.3205 57.7384 22.2758 -0.114527 0.884827 -0.451624
14.9259 57.962 22.3128 -0.110292 0.876674 -0.468272
16.758 57.8351 21.9534 0.0405859 0.873346 -0.485406
18.0052 57.5286 21.5062 0.00697623 0.847128 -0.527921
19.0831 57.1591 21.0439 0.131365 0.892739 -0.431
20.1612 56.8737 20.7749 0.143201 0.908288 -0.390938
21.2506 56.5911 20.5808 0.145124 0.881901 -0.448542
22.3809 56.2571 20.4177 0.210716 0.887115 -0.41064
23.5828 55.9183 20.2788 0.169545 0.927958 -0.331887
24.8016 55.5303 20.2052 0.326756 0.889478 -0.319467
26.2091 55.1112 20.0613 0.292265 0.930248 -0.221857
27.4591 54.746 19.9069 0.23041 0.957433 -0.173877
28.9548 54.2988 19.6932 0.245679 0.962712 -0.11326
30.2028 53.9756 19.53 0.225482 0.968158 -0.108759
31.2718 53.7047 19.3352 0.238591 0.965866 -0.0995833
32.4008 53.4252 19.2093 0.233135 0.971635 -0.0396617
32.9435 53.3492 20.1112 0.291282 0.956002 -0.0348592
32.7784 53.5028 21.2348 0.303557 0.940448 -0.153006
32.6721 53.7808 22.3957 0.34744 0.916446 -0.198524
32.9445 54.0133 23.6004 0.332715 0.887841 -0.317866
33.6986 54.0907 24.5358 0.313741 0.887749 -0.3368
34.5913 54.1388 25.4036 0.285443 0.889049 -0.357931
35.6479 54.2227 26.5433 0.257882 0.923553 -0.283808
36.6449 54.1572 27.3949 0.304553 0.92917 -0.209497
37.7397 53.9013 27.8462 0.291228 0.935447 -0.199572
38.8384 53.6468 28.4491 0.298213 0.952041 -0.0684617
38.2178 53.9409 29.1411 0.341155 0.931092 -0.125965
36.9266 54.4845 29.4523 0.346601 0.927449 -0.14038
35.1066 55.1953 29.4026 0.364054 0.90322 -0.227285
34.055 55.6624 29.5746 0.399834 0.887911 -0.224102
32.6816 56.3837 29.7154 0.410614 0.874163 -0.255726
31.0937 57.2367 29.7825 0.483786 0.839976 -0.242454
29.6053 58.2497 29.9771 0.52472 0.814234 -0.248378
28.5869 59.017 29.9782 0.592356 0.756051 -0.278389
27.3434 60.1096 30.2434 0.612928 0.725154 -0.313801
26.3168 60.9691 30.5135 0.561298 0.825429 -0.0547186
25.3192 61.7027 30.8496 0.528012 0.845741 -0.00352648
24.5217 62.1804 31.1645 0.564589 0.814988 0.130515
24.5221 62.054 32.2217 0.423425 0.895502 0.122257
25.4924 61.557 31.9751 0.473281 0.878236 0.0643962
26.5346 60.9154 31.6972 0.541367 0.838528 -0.0615888
27.5368 60.1876 31.4056 0.605129 0.787573 -0.116355
28.3928 59.5026 31.1615 0.578831 0.808154 -0.108817
29.8945 58.4299 31.1838 0.579037 0.80803 -0.108648
30.8422 57.8185 31.1275 0.513734 0.81826 -0.25793
32.0869 57.0198 30.9452 0.449275 0.863281 -0.229927
33.0963 56.5095 30.9775 0.444715 0.864869 -0.232875
34.0758 55.9806 30.8723 0.399831 0.887913 -0.224101
35.7022 55.2001 30.7362 0.425967 0.892957 -0.145535
36.7648 54.7499 30.8191 0.350541 0.925885 -0.140918
38.1343 54.1595 30.621 0.393644 0.914638 -0.0920973
39.3386 53.6594 30.3417 0.364088 0.928556 -0.0698384
40.7108 53.0724 30.0509 0.36051 0.931172 -0.0458164
41.8002 52.6144 29.9326 0.399769 0.916371 -0.021191
42.8071 52.1641 29.8892 0.426294 0.90452 -0.0103914
43.3077 51.9369 29.1665 0.417617 0.90852 0.0136689
44.3447 51.4553 29.4981 0.405269 0.913801 0.0218451
45.6357 50.8481 28.9951 0.459039 0.88774 0.0346428
44.1924 51.5393 28.9204 0.392924 0.919081 0.0300177
43.1752 52.0041 28.7498 0.430162 0.902256 0.0242356
42.1686 52.4366 28.3474 0.363791 0.931412 0.0113211
41.116 52.8716 28.1484 0.370006 0.928164 -0.0239701
39.6509 53.3277 27.6054 0.317019 0.945692 -0.0718707
38.6658 53.5451 27.0294 0.159873 0.966944 -0.198643
37.438 53.733 26.5654 0.278732 0.941512 -0.189375
36.3384 53.8044 25.7537 0.250248 0.931437 -0.264199
35.1212 53.6214 24.4271 0.251583 0.907405 -0.336633
33.9116 53.5245 23.4049 0.496104 0.778283 -0.384911
33.7396 53.3609 22.239 0.320197 0.928392 -0.188579
33.8195 53.1592 21.0697 0.319868 0.938903 -0.101766
34.0496 53.04 20.0058 0.222468 0.974617 0.0251111
34.6454 52.9413 19.0506 0.180707 0.983478 0.0108078
35.1609 52.874 18.0013 0.161529 0.986745 -0.0155825
34.1419 53.0403 17.972 0.16644 0.985938 -0.0139975
32.1751 53.4287 17.9698 0.2139 0.976216 -0.0258537
30.5249 53.7853 18.1158 0.214757 0.974435 -0.0648394
29.0485 54.1368 18.3584 0.216579 0.973268 -0.0764465
27.7845 54.4806 18.7216 0.202105 0.972095 -0.119099
26.5156 54.7959 18.8532 0.232875 0.962326 -0.140347
25.3254 55.0799 18.9398 0.229936 0.955403 -0.185296
24.1302 55.4081 19.1487 0.230138 0.948672 -0.214804
22.7306 55.6842 19.2064 0.167845 0.960873 -0.220166
21.4149 56.0727 19.3832 0.234419 0.91096 -0.339411
20.1148 56.3753 19.6 0.143204 0.908289 -0.390934
19.0058 56.6131 19.8429 0.127897 0.92692 -0.35279
17.7743 56.9361 20.2874 0.0540207 0.894678 -0.441936
16.5113 57.2323 20.8482 0.0302001 0.887578 -0.458543
15.0687 57.393 21.1889 0.0154015 0.92417 -0.38167
13.7256 57.2766 21.0979 -0.086473 0.906137 -0.411613
12.3073 57.1954 21.1996 -0.0974678 0.935636 -0.338243
10.821 57.0991 21.3968 -0.0880464 0.957521 -0.274102
9.44054 56.9324 21.4639 -0.148184 0.961491 -0.231417
7.91142 56.7314 21.4407 -0.101519 0.980005 -0.171129
6.3062 56.5509 21.7513 -0.154995 0.978734 -0.134374
6.84011 56.7202 22.4087 -0.146109 0.987493 -0.0592454
7.80069 57.018 23.0635 -0.352965 0.915333 -0.19386
8.62348 57.3745 23.8966 -0.151114 0.965304 -0.210651
9.5741 58.0868 24.897 -0.332951 0.813274 -0.47721
10.3586 58.7183 25.4993 -0.450608 0.783605 -0.401677
11.1735 59.655 26.219 -0.280525 0.758984 -0.587579
11.9254 60.362 26.7372 -0.299921 0.727503 -0.616643
12.9335 61.3156 27.3531 -0.267323 0.719945 -0.640483
13.9626 62.291 28.0636 -0.0924393 0.802369 -0.585353
14.6631 62.889 29.0029 -0.0303326 0.874244 -0.484539
15.1009 63.3745 29.9687 0.143333 0.952451 -0.207546
15.709 63.213 30.8325 -0.0177135 0.952187 0.305001
16.8148 63.1768 31.0004 0.0160738 0.993233 0.0441889
18.2882 63.1298 30.8504 -0.0287315 0.997086 -0.0218085
19.375 63.0861 31.2255 0.0544247 0.991547 0.117783
20.4717 62.9769 31.6373 0.0548365 0.99151 0.1179
21.2521 62.8444 32.4336 0.0544481 0.993011 0.104502
22.1802 62.652 33.0566 0.172174 0.969882 0.172291
23.364 62.3953 32.7917 0.320521 0.938839 0.125886
24.0253 62.1999 32.5652 0.348253 0.92613 0.140851
5.99303 56.4706 21.5684 -0.208376 0.967458 -0.143541
5.19372 56.302 21.0308 -0.133653 0.98686 -0.0906816
6.02709 56.4612 21.4554 -0.208494 0.967425 -0.143596
6.04003 56.5053 21.7339 -0.208358 0.967463 -0.143538
36.4756 52.6677 17.8157 0.0898807 0.994987 -0.0438376
35.43 52.8268 17.8093 0.162138 0.986638 -0.0160356
36.4935 52.6615 17.6374 0.143145 0.989595 -0.0145473
36.7434 52.637 17.6677 0.089889 0.994987 -0.0438349
13.204 58.8651 24.2081 -0.226771 0.791024 -0.568204
13.5581 58.7596 23.9187 -0.180332 0.817571 -0.546862
14.0276 59.3447 24.5472 -0.206758 0.7878 -0.580192
14.3028 59.2458 24.3293 -0.159499 0.788915 -0.593442
14.5698 59.9252 25.1244 -0.142742 0.746711 -0.649651
15.5209 59.4893 24.3876 -0.129507 0.794451 -0.593359
15.3815 60.3987 25.4984 -0.127475 0.74011 -0.660293
16.3764 59.8841 24.7295 -0.12861 0.767994 -0.627411
17.5455 59.2747 23.8317 -0.00499392 0.757563 -0.652742
18.6782 58.5141 22.9794 0.077965 0.775164 -0.626931
20.6041 57.9396 22.5602 0.192355 0.767867 -0.611048
19.2651 58.9957 23.5439 0.0502302 0.733447 -0.677888
18.3403 59.6129 24.2368 0.0116025 0.762579 -0.646791
17.3921 60.2401 24.9507 -0.0597089 0.758949 -0.648407
15.8125 61.0691 26.1666 -0.111399 0.75049 -0.651425
15.794 61.078 26.1806 -0.16307 0.743949 -0.648034
16.3167 61.6024 26.7826 -0.110443 0.795021 -0.596443
17.5768 61.0009 25.8242 -0.0597095 0.758949 -0.648407
19.1336 59.9898 24.659 -0.00173404 0.733145 -0.680071
20.423 59.0086 23.7163 0.152862 0.742267 -0.652436
21.6271 57.9245 22.8396 0.193891 0.715553 -0.671111
22.4378 57.2252 22.1378 0.198524 0.810068 -0.551704
23.7143 56.8006 22.1419 0.295553 0.798995 -0.523695
22.8417 57.6778 22.9695 0.30358 0.731309 -0.610759
21.6486 58.897 23.8891 0.235824 0.688599 -0.685725
20.7256 59.7422 24.5018 0.117131 0.675633 -0.727874
19.6093 60.6145 25.3313 0.0283964 0.735233 -0.677219
18.6273 61.2403 26.0625 -0.0240681 0.756373 -0.653698
17.3512 61.9229 27.015 -0.113375 0.792109 -0.599757
17.0347 62.0589 27.2545 -0.113374 0.792109 -0.599757
17.6491 62.5809 27.8277 -0.136605 0.814285 -0.564162
18.8268 62.0833 26.9056 -0.097209 0.753532 -0.650184
20.104 61.2765 25.977 -0.0253267 0.678836 -0.733853
21.3839 60.2034 25.0359 0.0879278 0.707031 -0.701695
22.3661 59.1874 24.403 0.250436 0.650324 -0.71719
23.1498 58.341 23.8204 0.332278 0.681743 -0.65178
24.1455 57.1918 22.932 0.273376 0.777244 -0.566708
25.1572 56.1508 21.9216 0.397299 0.833961 -0.382965
26.3652 55.5514 21.9023 0.417874 0.821823 -0.387284
25.584 56.3514 22.7051 0.385835 0.758924 -0.524563
24.8061 57.2855 23.4695 0.391782 0.752648 -0.529177
23.9249 58.3807 24.2671 0.357577 0.693763 -0.625166
22.967 59.6602 24.9979 0.203802 0.621282 -0.75662
22.0474 60.7246 25.5194 0.103896 0.560308 -0.821743
20.9083 61.7418 26.3796 -0.0253259 0.678837 -0.733852
19.7304 62.4732 27.2448 -0.102695 0.834682 -0.541072
18.8277 62.822 28.0028 -0.0975636 0.888619 -0.448149
19.8631 62.9863 28.3372 -0.0161228 0.982641 -0.184816
21.0906 62.563 27.2652 -0.0296679 0.752907 -0.657458
22.0625 61.8501 26.4958 0.072983 0.827192 -0.55716
22.9435 60.9651 25.893 0.23018 0.467839 -0.853313
23.8672 59.6291 25.3564 0.404367 0.540254 -0.737979
24.7068 58.3425 24.6719 0.36721 0.688228 -0.625699
25.4202 57.36 24.0301 0.384987 0.718935 -0.57872
26.1651 56.466 23.2984 0.385835 0.758924 -0.524563
26.9757 55.5658 22.5076 0.371679 0.819075 -0.437003
27.8697 54.9822 21.6109 0.267421 0.936471 -0.226953
28.9936 54.6828 21.7168 0.263676 0.931651 -0.250002
28.1411 55.239 22.5777 0.292902 0.886074 -0.359278
27.2571 55.976 23.4255 0.422137 0.756571 -0.4994
26.4604 56.912 24.1758 0.437189 0.740476 -0.510451
25.7438 57.8926 24.8148 0.470036 0.69286 -0.546819
25.0498 58.8557 25.4385 0.46989 0.691633 -0.548495
24.2318 60.1872 26.0493 0.471606 0.590213 -0.655162
23.597 61.4314 26.3927 0.307097 0.58489 -0.75073
22.6842 62.2469 27.1664 0.0815554 0.827336 -0.555756
21.6961 62.9203 27.9953 0.100924 0.943267 -0.316324
20.9955 63.1509 28.6399 0.00289716 0.964531 -0.263953
22.148 62.9617 29.0447 0.246943 0.967576 -0.0530604
23.1718 62.4893 28.0941 0.22045 0.926138 -0.306056
24.1489 61.6693 27.1796 0.555302 0.711308 -0.430907
24.6524 60.5409 26.6707 0.53045 0.480303 -0.698521
25.3326 59.3704 26.2007 0.582381 0.556339 -0.592722
26.6077 57.5508 25.1242 0.451088 0.704245 -0.548232
27.4054 56.5614 24.4576 0.429675 0.720496 -0.544303
28.2654 55.6575 23.676 0.288589 0.878108 -0.381633
29.1976 54.9886 22.7613 0.268402 0.906414 -0.326149
30.0428 54.44 21.9049 0.254841 0.932841 -0.254682
30.3035 54.307 21.6307 0.258945 0.942571 -0.210969
30.8161 54.3815 22.3736 0.250226 0.921223 -0.297883
29.8712 54.9993 23.3321 0.272265 0.877722 -0.394304
29.0555 55.6095 24.1328 0.268991 0.879508 -0.392567
28.2351 56.3792 24.8482 0.369389 0.770567 -0.519401
27.4205 57.3718 25.5302 0.431921 0.715283 -0.549376
26.4298 58.6361 26.3412 0.469738 0.690404 -0.550172
25.6147 59.8872 26.963 0.599815 0.589478 -0.541052
25.0236 60.9699 27.5378 0.666085 0.550793 -0.502949
24.3709 62.1693 28.3458 0.444202 0.815541 -0.370916
23.4725 62.7224 29.2268 0.185216 0.965523 -0.182923
23.3271 62.777 29.3677 0.154369 0.972667 -0.173461
24.8638 62.0976 29.193 0.557793 0.818242 -0.139096
25.5784 60.9254 28.2241 0.696654 0.596124 -0.399135
26.446 59.3942 27.4202 0.605997 0.66588 -0.435169
27.4 58.0957 26.6324 0.542102 0.675927 -0.499247
28.4126 56.9306 25.7991 0.482873 0.746195 -0.458287
29.2865 56.0806 25.0528 0.391062 0.81964 -0.418641
30.1606 55.3122 24.2753 0.322034 0.874102 -0.363648
30.8829 54.7505 23.5559 0.301872 0.885935 -0.352127
31.4226 54.8248 24.2416 0.344309 0.875215 -0.33978
30.5861 55.4728 25.0369 0.321921 0.873947 -0.364119
29.6282 56.3315 25.8724 0.391784 0.825254 -0.40677
28.5139 57.4824 26.8062 0.484707 0.745609 -0.457303
27.4146 58.8313 27.7482 0.558044 0.718812 -0.414605
26.536 60.1379 28.5489 0.658981 0.659902 -0.360934
28.2209 58.4667 28.2211 0.56765 0.715801 -0.406696
28.9909 57.5971 27.5081 0.49788 0.782331 -0.374264
30.0489 56.4994 26.6182 0.391785 0.825254 -0.406769
31.0196 55.63 25.7893 0.391432 0.822465 -0.412714
31.7951 55.0136 25.0569 0.346957 0.866393 -0.359143
32.1071 55.2344 25.9049 0.351244 0.866635 -0.35436
31.1642 56.0169 26.7851 0.429017 0.819779 -0.379351
30.1964 56.9016 27.6024 0.429884 0.832165 -0.350286
29.6492 57.4668 28.1114 0.508157 0.779547 -0.366173
31.1698 56.5235 27.9134 0.430325 0.84372 -0.320869
32.1979 55.6293 26.987 0.350513 0.870357 -0.345861
32.9772 55.0121 26.2236 0.350885 0.868505 -0.350113
33.5234 55.0473 26.9023 0.330002 0.887846 -0.320668
32.8145 55.6023 27.5817 0.382946 0.865915 -0.321781
