-47.3271 44.7111 36.1031 0.319704 -0.947386 -0.0157963
-47.8757 44.5401 35.2636 0.321362 -0.946746 -0.0198925
-48.3581 44.4003 34.1951 0.322105 -0.946459 -0.0215426
-48.6028 44.3439 33.0269 0.323384 -0.945971 -0.0237101
-48.6378 44.3664 31.6839 0.324753 -0.945491 -0.0241191
-48.4066 44.4745 30.6142 0.327612 -0.94448 -0.0249964
-47.7594 44.7306 29.3651 0.328373 -0.944255 -0.023545
-47.2062 44.9434 28.5054 0.3295 -0.943914 -0.0213505
-46.5305 45.195 27.7258 0.328335 -0.944377 -0.018667
-45.6448 45.5149 27.0708 0.325855 -0.945251 -0.017773
-44.3741 45.9597 26.59 0.323254 -0.946138 -0.0181372
-43.279 46.3349 26.4672 0.32123 -0.946812 -0.018865
-42.0341 46.7516 26.5838 0.318798 -0.947599 -0.0205748
-40.9518 47.1081 26.9122 0.31785 -0.947911 -0.0208604
-40.1157 47.3769 27.401 0.320432 -0.946873 -0.0274874
-39.0837 47.71 28.0416 0.324095 -0.945615 -0.0278147
-38.2748 47.9716 28.64 0.328198 -0.944272 -0.0252126
-37.7549 48.1302 29.5074 0.329031 -0.943978 -0.0253527
-37.5465 48.1736 30.5402 0.332379 -0.942783 -0.0259423
-37.1919 48.2663 31.9092 0.342868 -0.939112 -0.0223347
-37.2447 48.2265 32.8919 0.343742 -0.938885 -0.0182829
-37.5511 48.0958 34.0945 0.345145 -0.938458 -0.0130857
-37.8884 47.9607 35.2522 0.345303 -0.938476 -0.00533114
-38.5593 47.7118 36.1738 0.340908 -0.940093 -0.00137876
-39.4074 47.4062 37.0332 0.337558 -0.941304 -0.000391419
-40.5418 47.0029 37.8243 0.33479 -0.942293 -0.000322291
-41.7084 46.5965 38.1213 0.327857 -0.944726 0.000710294
-42.6636 46.267 38.2332 0.326042 -0.945355 0.000312867
-43.7442 45.8969 38.2121 0.320119 -0.947368 -0.00336422
-44.8581 45.5213 37.8558 0.320136 -0.947335 -0.00829998
-44.5522 45.6299 36.933 0.317405 -0.948283 -0.00380266
-43.6663 45.9246 37.2431 0.318544 -0.947907 -0.00150846
-42.5531 46.3047 37.197 0.324848 -0.945763 0.0014774
-41.5902 46.6338 37.0667 0.323658 -0.94617 0.00264941
-40.6554 46.961 36.7166 0.336227 -0.941776 0.00318425
-39.8262 47.2564 36.0329 0.336997 -0.941505 0.000959971
-39.0479 47.536 35.3143 0.341021 -0.940055 0.00109552
-38.4973 47.7468 34.1457 0.347059 -0.937774 -0.0113917
-38.1914 47.8771 33.0686 0.344637 -0.938584 -0.0169057
-38.1149 47.928 32.0037 0.342791 -0.939082 -0.0249052
-38.6442 47.7924 30.465 0.33201 -0.942611 -0.0354203
-38.98 47.7064 29.3913 0.327449 -0.944521 -0.0256402
-40.2327 47.3117 28.4098 0.315266 -0.948611 -0.0272848
-41.148 47.0202 27.876 0.31738 -0.948033 -0.0224278
-42.6167 46.5381 27.462 0.317651 -0.948055 -0.0170283
-44.0043 46.0704 27.4881 0.323612 -0.946098 -0.0131839
-45.1248 45.6802 27.867 0.326539 -0.9451 -0.0125684
-45.9929 45.3674 28.4988 0.329635 -0.943968 -0.0163203
-46.6855 45.1055 29.4041 0.330006 -0.943755 -0.0205385
-47.3106 44.8572 30.4849 0.328676 -0.944026 -0.0279221
-47.6695 44.7031 31.5579 0.326336 -0.944907 -0.0255959
-47.6754 44.673 32.6066 0.324089 -0.945691 -0.0251902
-47.5078 44.6972 33.7926 0.321475 -0.946586 -0.024619
-47.0323 44.8347 34.8572 0.319628 -0.947324 -0.0203675
-46.3465 45.0462 35.7993 0.318544 -0.947804 -0.0140261
-45.3351 45.373 36.5639 0.315956 -0.948718 -0.0102505
-44.7096 45.5775 36.8607 0.316168 -0.94867 -0.00713937
-24.6281 52.9778 8.31817 0.237814 -0.971075 -0.021411
-26.729 52.4422 8.45814 0.253434 -0.967018 -0.025451
-27.4318 52.2487 8.48446 0.270365 -0.962203 -0.032695
-30.1135 51.4334 9.38014 0.29797 -0.953597 -0.0431996
-28.2746 51.9778 9.4603 0.275023 -0.960895 -0.0323028
-26.5262 52.4692 9.4052 0.265731 -0.963745 -0.0241525
-24.3202 53.0341 9.24018 0.238609 -0.970923 -0.0193719
-22.296 53.5019 9.03802 0.207629 -0.978109 -0.0139163
-20.5212 53.8604 8.8397 0.192341 -0.981194 -0.01622
-16.8248 54.4922 9.46467 0.142162 -0.989843 0.000577964
-18.7074 54.1868 9.6078 0.169377 -0.985497 -0.0103096
-20.9711 53.7587 9.8457 0.196819 -0.980293 -0.0169812
-22.6708 53.4066 10.0387 0.208299 -0.977894 -0.0182786
-24.3825 53.0002 10.1881 0.241225 -0.970349 -0.0152542
-26.2857 52.5091 10.3307 0.261428 -0.964865 -0.0262822
-28.1057 51.998 10.4151 0.276867 -0.960509 -0.0276796
-29.7743 51.5 10.358 0.293281 -0.955433 -0.033661
-31.5161 50.9453 10.2202 0.31271 -0.948988 -0.0404206
-31.9945 50.7893 10.1828 0.314536 -0.948446 -0.0389453
-34.585 49.8766 10.8673 0.327579 -0.944074 -0.0376305
-32.7828 50.4881 11.0727 0.321877 -0.946116 -0.0354861
-30.919 51.105 11.2294 0.308859 -0.950541 -0.032823
-28.8052 51.7639 11.3637 0.29388 -0.955321 -0.0315492
-26.8368 52.3291 11.3006 0.270304 -0.962363 -0.028146
-24.8824 52.8586 11.1716 0.243457 -0.969756 -0.0173751
-23.0536 53.3039 11.017 0.225877 -0.974025 -0.0159898
-21.2554 53.6864 10.8345 0.20262 -0.979247 -0.00459057
-19.2622 54.08 10.6175 0.187601 -0.982245 2.00569e-05
-17.3038 54.4159 10.4414 0.157539 -0.98749 -0.00676291
-15.2649 54.709 10.3332 0.130759 -0.991412 0.00191896
-14.4047 54.8141 10.2974 0.115952 -0.993255 -0.000303873
-12.5703 55.0275 11.1559 0.104201 -0.994542 0.0053422
-14.3026 54.8262 11.2344 0.12022 -0.992743 0.00292258
-16.2408 54.5701 11.3278 0.14755 -0.989048 -0.00351182
-18.3601 54.238 11.4905 0.168285 -0.985734 -0.00295927
-20.2128 53.8917 11.6698 0.19501 -0.980775 -0.0071889
-21.9992 53.5258 11.864 0.205524 -0.978624 -0.00741722
-23.979 53.0643 12.0326 0.23818 -0.971086 -0.0161955
-25.809 52.5889 12.1679 0.261512 -0.964709 -0.0307898
-27.5157 52.1106 12.2737 0.280388 -0.959435 -0.0294515
-29.2803 51.5877 12.2878 0.291756 -0.955995 -0.0308657
-31.2539 50.9622 12.1664 0.313484 -0.948975 -0.0342497
-33.2355 50.2982 11.996 0.324426 -0.945178 -0.0372354
-34.9427 49.7153 11.7896 0.328235 -0.943871 -0.0369969
-36.4483 49.1983 11.5711 0.330399 -0.943092 -0.0375994
-38.2149 48.5475 12.3623 0.330867 -0.942944 -0.0371871
-36.1222 49.2709 12.6194 0.330127 -0.943199 -0.0373112
-34.3111 49.8941 12.8491 0.327149 -0.944276 -0.0362705
-32.4714 50.5185 13.0272 0.322163 -0.945977 -0.0365933
-30.8166 51.0692 13.1463 0.310161 -0.950125 -0.0326038
-28.9329 51.6645 13.239 0.290205 -0.956535 -0.0286787
-27.1773 52.1843 13.18 0.27989 -0.959757 -0.022965
-25.1648 52.7457 13.0535 0.256307 -0.966336 -0.0223849
-23.2676 53.2203 12.9098 0.234939 -0.97197 -0.00879855
-21.3148 53.6651 12.7302 0.201454 -0.979485 -0.0050436
-19.454 54.0378 12.5425 0.194074 -0.980971 -0.00554946
-17.5561 54.3663 12.3793 0.157559 -0.987509 -0.00143732
-15.2001 54.7174 12.2144 0.137648 -0.990481 9.10139e-05
-13.4575 54.9309 12.1241 0.116296 -0.993212 0.00222957
-11.5139 55.1397 12.0405 0.095941 -0.99538 0.00384833
-11.35 55.155 12.0336 0.0929864 -0.995651 0.00566574
-10.3631 55.2522 12.9211 0.0929403 -0.995654 0.0059952
-12.1284 55.0825 13.0026 0.101609 -0.994813 0.00486038
-14.0908 54.8594 13.0908 0.117149 -0.993101 0.00515391
-16.255 54.5669 13.2289 0.146561 -0.989201 -0.000900462
-18.0488 54.2863 13.365 0.163218 -0.986588 -0.00188632
-20.3499 53.8585 13.574 0.196623 -0.980479 -0.000581768
-22.1362 53.4771 13.7473 0.221075 -0.975251 -0.00349343
-24.0208 53.0269 13.897 0.244043 -0.96969 -0.0120056
-25.8486 52.5396 14.0315 0.263597 -0.964485 -0.0169132
-27.7156 52.0046 14.1309 0.279889 -0.959758 -0.0229647
-29.3879 51.4952 14.1434 0.302293 -0.952794 -0.0283498
-31.1929 50.9146 14.072 0.310339 -0.950073 -0.0324206
-33.1137 50.2654 13.9402 0.324869 -0.945194 -0.0326777
-35.2656 49.5276 13.7155 0.329408 -0.943497 -0.0361044
-37.2552 48.8395 13.4979 0.330746 -0.942992 -0.0370589
-39.0178 48.2291 13.2977 0.330819 -0.94298 -0.0367199
-40.2614 47.7988 13.1527 0.330872 -0.942999 -0.0357366
-41.7583 47.2441 14.0191 0.328797 -0.943777 -0.0343008
-40.0611 47.8294 14.1951 0.329148 -0.943602 -0.0357374
-38.2989 48.4384 14.3996 0.33051 -0.943115 -0.0360079
-36.584 49.0324 14.5802 0.330773 -0.943 -0.0366143
-34.8201 49.6442 14.7435 0.330478 -0.943162 -0.0350709
-33.1682 50.2143 14.8912 0.325721 -0.944905 -0.0325792
-31.2916 50.8514 15.0118 0.321007 -0.946582 -0.0306014
-29.3242 51.4911 15.0579 0.303802 -0.952511 -0.0206851
-27.6136 52.0156 15.0731 0.283122 -0.958888 -0.0193721
-25.6703 52.5722 14.9479 0.263681 -0.964459 -0.0170589
-23.9331 53.0399 14.8216 0.248773 -0.968529 -0.00797797
-22.0144 53.4994 14.6874 0.218119 -0.975844 -0.0123817
-20.0256 53.9214 14.4882 0.192862 -0.981226 -0.000781572
-18.1429 54.2682 14.3229 0.169595 -0.985512 -0.00184488
-16.3015 54.5602 14.1764 0.147335 -0.989086 0.00119194
-14.5079 54.8154 14.0501 0.124819 -0.992148 0.00795105
-12.3037 55.0665 13.9387 0.104341 -0.994502 0.00883564
-10.4428 55.2541 13.8523 0.09717 -0.99518 0.0132223
-9.19265 55.362 13.82 0.07647 -0.997004 0.0116133
-8.70572 55.4103 14.7446 0.0764432 -0.996979 0.0137267
-10.5369 55.2554 14.7854 0.0942194 -0.995517 0.00828376
-12.7929 55.0202 14.8906 0.110087 -0.993913 0.00418883
-14.8535 54.7718 15.002 0.133175 -0.99109 0.002119
-17.0347 54.4473 15.1732 0.149328 -0.988784 -0.00259779
-18.9243 54.1278 15.3382 0.174393 -0.984674 -0.00211002
-20.7147 53.7705 15.4923 0.208399 -0.978014 -0.00766971
-22.7008 53.3326 15.6955 0.225097 -0.974277 -0.0107733
-24.7292 52.8165 15.7999 0.259821 -0.965568 -0.0130705
-26.6743 52.2705 15.9516 0.278069 -0.96038 -0.0186533
-28.5259 51.7193 16.001 0.297099 -0.954441 -0.0278262
-30.3502 51.1352 15.9737 0.310832 -0.950156 -0.0242302
-32.0073 50.5785 15.9203 0.325739 -0.944872 -0.0333205
-33.7776 49.9698 15.8074 0.330108 -0.943321 -0.0342699
-35.4579 49.3854 15.6633 0.330749 -0.943038 -0.0358293
-37.1045 48.8131 15.5278 0.330637 -0.943056 -0.0363862
-38.7911 48.2287 15.3747 0.329922 -0.943319 -0.0360673
-41.006 47.4656 15.1309 0.328842 -0.943735 -0.0350317
-42.4053 46.9863 14.9383 0.327404 -0.944279 -0.0338234
-43.4423 46.5937 15.8729 0.326957 -0.944441 -0.0336101
-41.5709 47.2352 16.062 0.327435 -0.944266 -0.03389
-39.8237 47.8346 16.2657 0.328555 -0.943842 -0.0348339
-37.857 48.5137 16.4586 0.33008 -0.943274 -0.0358027
-35.7418 49.2489 16.6366 0.331341 -0.942839 -0.0356006
-33.7962 49.9285 16.7643 0.330891 -0.943031 -0.0346803
-32.0498 50.5313 16.8696 0.326591 -0.944676 -0.0304115
-30.3517 51.1078 16.8983 0.318877 -0.947491 -0.0240578
-28.6282 51.6613 16.9408 0.29558 -0.954967 -0.0259086
-26.912 52.1818 16.8982 0.279921 -0.959712 -0.0244261
-25.1262 52.6916 16.7647 0.26701 -0.963529 -0.0178454
-23.4006 53.1524 16.6849 0.23344 -0.972136 -0.0214071
-21.62 53.5656 16.5184 0.212361 -0.97711 -0.0126058
-19.7746 53.955 16.3519 0.204189 -0.978831 -0.0140297
-17.9393 54.2929 16.1934 0.165075 -0.98625 -0.0078084
-15.8583 54.6237 15.9981 0.152352 -0.988326 0.000569132
-13.9361 54.8898 15.8822 0.125919 -0.992028 0.00488897
-11.6974 55.1423 15.7705 0.103969 -0.994573 0.00378762
-9.79697 55.3318 15.7016 0.095687 -0.995401 0.00451271
-7.84878 55.4912 15.6643 0.0748603 -0.997074 0.0154545
-7.48784 55.5311 16.5921 0.0727141 -0.997204 0.0172438
-9.4363 55.3728 16.6071 0.0949803 -0.995433 0.00963184
-11.2363 55.1965 16.687 0.102594 -0.994704 0.00618137
-13.1498 54.9901 16.7749 0.120223 -0.992746 -0.00141553
-15.1129 54.7362 16.8777 0.140128 -0.990133 0.000448091
-17.3191 54.3923 17.0723 0.165449 -0.986215 -0.00265863
-19.3273 54.0294 17.2529 0.181604 -0.983269 -0.0142129
-21.2881 53.6227 17.4215 0.206335 -0.978408 -0.0119665
-23.4546 53.1148 17.6022 0.240731 -0.970226 -0.0266523
-25.3639 52.6083 17.721 0.26695 -0.963554 -0.0173552
-27.1169 52.0975 17.827 0.281279 -0.959301 -0.02498
-28.8613 51.5636 17.8856 0.301011 -0.953231 -0.0272518
-31.1852 50.796 17.8218 0.32369 -0.945598 -0.0327108
-32.8629 50.2182 17.7813 0.328979 -0.94376 -0.0330194
-34.7391 49.5624 17.686 0.332401 -0.942484 -0.0351147
-36.9281 48.798 17.5335 0.330954 -0.942937 -0.0366023
-38.8357 48.1365 17.39 0.329203 -0.943592 -0.0354922
-40.5189 47.5591 17.1971 0.327434 -0.944257 -0.0341531
-42.1847 46.9878 17.031 0.327325 -0.944315 -0.0335726
-43.8505 46.4158 16.8998 0.326853 -0.944479 -0.0335653
-44.1092 46.3275 16.8662 0.326719 -0.944528 -0.0334802
-45.0464 45.9707 17.8193 0.326808 -0.944538 -0.0323197
-43.1449 46.6209 18.0125 0.326117 -0.944768 -0.0325721
-41.147 47.3053 18.1972 0.326621 -0.944561 -0.0335209
-39.5019 47.8698 18.3506 0.32748 -0.944228 -0.0345138
-37.65 48.5092 18.4849 0.32939 -0.943561 -0.034562
-35.6596 49.2032 18.6171 0.332004 -0.942625 -0.0350872
-33.9426 49.8058 18.6969 0.331831 -0.942705 -0.0345855
-32.0223 50.4752 18.7508 0.327101 -0.94438 -0.0339317
-30.1966 51.101 18.7653 0.318355 -0.947424 -0.0322144
-28.3312 51.7029 18.8164 0.29598 -0.954829 -0.0263881
-26.1972 52.3491 18.6967 0.280088 -0.959859 -0.0148421
-24.5179 52.8212 18.6009 0.257634 -0.965943 -0.0240605
-22.3685 53.3628 18.4464 0.233234 -0.972361 -0.0107394
-20.5386 53.7699 18.2836 0.204326 -0.978845 -0.0106556
-18.4443 54.1901 18.0978 0.180616 -0.983543 -0.00455376
-16.2279 54.5661 17.8895 0.159793 -0.987119 -0.00786067
-14.2883 54.843 17.7572 0.127374 -0.991826 -0.00758268
-12.3337 55.0851 17.6712 0.107615 -0.99418 0.00500644
-10.4331 55.2841 17.5742 0.100916 -0.994833 0.0111296
-8.57743 55.4606 17.5173 0.0868073 -0.996193 0.00799644
-6.77528 55.5986 17.5249 0.0701088 -0.9974 0.0166724
-6.47703 55.6196 17.5314 0.0714944 -0.997269 0.0185447
-5.88029 55.6828 18.4646 0.0727126 -0.997114 0.0218494
-7.65063 55.5497 18.4486 0.0791081 -0.996822 0.00936928
-9.38946 55.3941 18.4784 0.0928215 -0.995638 0.00942745
-11.4476 55.1856 18.5517 0.107706 -0.99417 0.00508201
-13.3361 54.9657 18.6352 0.127685 -0.991814 -0.001405
-15.3195 54.6963 18.7447 0.148511 -0.988911 -0.000325484
-17.3487 54.3763 18.9221 0.166416 -0.986019 -0.00854595
-19.2052 54.0362 19.0938 0.195553 -0.980686 -0.00374793
-21.0887 53.6439 19.2629 0.205921 -0.978554 -0.00531628
-23.2456 53.1366 19.4515 0.239736 -0.970795 -0.00914708
-25.2103 52.619 19.5624 0.272805 -0.961952 -0.0150253
-26.8891 52.1271 19.6565 0.287926 -0.957482 -0.0181119
-28.5774 51.6039 19.7393 0.301515 -0.953214 -0.0217078
-30.309 51.0316 19.7028 0.322756 -0.946024 -0.0294478
-32.0926 50.4182 19.6937 0.33 -0.9435 -0.0301129
-33.8573 49.8006 19.6633 0.332378 -0.942548 -0.0335902
-35.5228 49.2151 19.5996 0.332071 -0.94264 -0.0340366
-37.5566 48.5042 19.5124 0.330178 -0.943301 -0.0341274
-39.2045 47.9339 19.4196 0.327782 -0.944134 -0.0342003
-40.9728 47.3281 19.256 0.32654 -0.944632 -0.0322775
-43.0423 46.6202 19.0744 0.326361 -0.944711 -0.0317707
-44.8878 45.9892 18.9016 0.326271 -0.944756 -0.0313473
-45.8221 45.6702 18.7769 0.326753 -0.944593 -0.0312386
-46.515 45.4002 19.7451 0.326121 -0.944905 -0.0282825
-44.8165 45.9802 19.9486 0.325652 -0.945032 -0.0294292
-43.0241 46.5919 20.1284 0.3256 -0.944994 -0.0311558
-41.2784 47.1879 20.2671 0.325977 -0.94483 -0.0321753
-39.5632 47.7754 20.4052 0.327195 -0.944429 -0.0315802
-37.6465 48.4369 20.5041 0.328352 -0.943975 -0.0330994
-35.8884 49.0518 20.5545 0.332203 -0.942582 -0.0343659
-34.1715 49.6558 20.6082 0.332966 -0.942327 -0.0339664
-32.5213 50.2376 20.6354 0.331254 -0.943011 -0.0316492
-30.8071 50.8361 20.6345 0.32379 -0.945827 -0.0239161
-29.0911 51.4119 20.6546 0.311589 -0.949762 -0.0294026
-27.0895 52.0465 20.5925 0.291477 -0.956374 -0.0197459
-25.4064 52.5477 20.4992 0.275963 -0.961006 -0.0176417
-23.4822 53.0685 20.3984 0.243448 -0.96981 -0.0142224
-21.5907 53.5268 20.2407 0.223488 -0.974681 -0.0071435
-19.7202 53.9274 20.0708 0.198435 -0.980109 -0.00315607
-17.8219 54.2876 19.8954 0.176403 -0.984317 0.00162673
-15.4868 54.6707 19.6802 0.148739 -0.988876 -0.000889766
-13.2994 54.972 19.5513 0.12927 -0.991603 0.00342832
-11.1258 55.2295 19.455 0.105468 -0.994386 0.00858534
-9.13601 55.4268 19.4117 0.0925571 -0.995647 0.0109841
-7.34256 55.5855 19.3811 0.0837788 -0.996381 0.014377
-5.44186 55.7384 19.3831 0.0773788 -0.996775 0.0212452
-5.02441 55.7692 19.3884 0.0756193 -0.996716 0.0289551
-4.54503 55.834 20.2811 0.0836109 -0.996186 0.024964
-6.50256 55.6687 20.2959 0.0801991 -0.996629 0.0172788
-8.25836 55.5157 20.3345 0.0889631 -0.995972 0.0112082
-10.0639 55.3454 20.3657 0.100896 -0.994881 0.00565748
-11.8351 55.1539 20.4282 0.113676 -0.993517 0.00141182
-14.1305 54.8677 20.5193 0.127363 -0.991856 -0.000763922
-16.3899 54.5339 20.6819 0.159077 -0.987258 -0.0041248
-18.4442 54.173 20.8852 0.184948 -0.982747 -0.00177394
-20.1817 53.8304 21.0378 0.202049 -0.979361 -0.00533714
-21.9002 53.4471 21.1981 0.228834 -0.973432 -0.00804085
-23.6085 53.0211 21.3229 0.247895 -0.96872 -0.0113708
-25.5245 52.4952 21.4359 0.278644 -0.960227 -0.0179284
-27.4079 51.9282 21.5302 0.298837 -0.95405 -0.0220396
-29.3733 51.2941 21.5896 0.313796 -0.94914 -0.0258004
-31.2792 50.6427 21.5691 0.330766 -0.943226 -0.0302915
-32.9307 50.0616 21.5752 0.332838 -0.942493 -0.0304213
-34.9782 49.3376 21.5501 0.333777 -0.94213 -0.031361
-36.7259 48.7237 21.5064 0.330891 -0.943069 -0.0336429
-38.723 48.0311 21.4577 0.327178 -0.94443 -0.0317327
-40.4277 47.4443 21.3679 0.326106 -0.944819 -0.031191
-42.3495 46.7894 21.2138 0.324353 -0.945474 -0.0295797
-44.1062 46.1899 21.0717 0.325003 -0.945272 -0.0288608
-45.9444 45.563 20.883 0.325962 -0.944955 -0.02845
-47.1726 45.141 20.8127 0.326757 -0.94474 -0.026384
-48.092 44.7932 21.8908 0.327364 -0.944534 -0.0262458
-45.889 45.5498 22.0124 0.324777 -0.945418 -0.0265538
-44.0436 46.18 22.1411 0.324679 -0.94542 -0.0276406
-42.3067 46.7711 22.266 0.324349 -0.945475 -0.0295837
-40.1831 47.4959 22.3975 0.325617 -0.945036 -0.0296605
-38.5131 48.0703 22.4686 0.327455 -0.944374 -0.0304972
-36.8425 48.6511 22.4932 0.329561 -0.943651 -0.0302079
-35.0691 49.2745 22.5073 0.334519 -0.94192 -0.0297357
-33.1875 49.9407 22.5193 0.332961 -0.942488 -0.0292039
-31.296 50.6063 22.5124 0.328344 -0.944054 -0.0308498
-29.6114 51.1865 22.5213 0.3199 -0.947075 -0.0267001
-27.935 51.7417 22.4709 0.30445 -0.952269 -0.0222431
-26.1917 52.2789 22.399 0.288504 -0.957301 -0.0184412
-24.506 52.7699 22.2902 0.27542 -0.961133 -0.0191797
-22.8167 53.2108 22.1916 0.242232 -0.970073 -0.0167763
-20.9405 53.658 22.0368 0.22267 -0.974872 -0.00657707
-19.2179 54.0251 21.8781 0.190523 -0.981677 -0.00321448
-17.0752 54.4142 21.6862 0.16688 -0.985968 -0.00419016
-15.3413 54.693 21.5228 0.14475 -0.989426 -0.00910825
-13.4329 54.9565 21.4052 0.127518 -0.991836 -0.00101485
-11.6458 55.1765 21.3707 0.118487 -0.992952 -0.00257573
-9.88207 55.368 21.2925 0.104979 -0.994474 0.0010125
-8.02083 55.5478 21.2666 0.0917354 -0.99571 0.0120565
-5.92124 55.7377 21.2142 0.0912534 -0.995689 0.016642
-3.97662 55.91 21.1989 0.0882869 -0.995604 0.0312858
-2.87065 56.0128 21.2341 0.0989349 -0.994341 0.0387148
-1.9132 56.1428 22.1368 0.101421 -0.993755 0.0465331
-3.9485 55.9404 22.1364 0.0963661 -0.995052 0.0241939
-6.19407 55.729 22.1389 0.093346 -0.995498 0.0164553
-7.96725 55.5626 22.2021 0.0969462 -0.995266 0.00679194
-9.91735 55.366 22.2397 0.105025 -0.994462 0.00385272
-12.0393 55.1292 22.3112 0.118735 -0.992923 0.0023911
-13.8953 54.892 22.3632 0.137237 -0.990517 -0.00655957
-15.8559 54.6118 22.5138 0.145934 -0.989293 -0.00182222
-17.6628 54.3109 22.6831 0.170447 -0.985367 -0.000688948
-19.8348 53.8961 22.8557 0.203951 -0.978934 -0.00957686
-21.7557 53.4558 23.0387 0.236406 -0.97152 -0.0161469
-23.6933 52.975 23.1702 0.252859 -0.967383 -0.0152189
-25.6657 52.4182 23.2835 0.276727 -0.960763 -0.0188994
-27.4425 51.8731 23.3775 0.306378 -0.951569 -0.0254939
-29.166 51.3094 23.4413 0.314582 -0.948911 -0.0246044
-30.9027 50.7148 23.4514 0.330223 -0.943539 -0.0262052
-32.7484 50.0665 23.4624 0.332673 -0.942644 -0.0274184
-34.4259 49.4725 23.4678 0.334097 -0.942099 -0.0287724
-36.1789 48.8528 23.4774 0.332358 -0.942691 -0.0295382
-38.0216 48.2101 23.4618 0.329264 -0.943815 -0.0282428
-39.6858 47.6354 23.4206 0.326368 -0.944825 -0.028109
-41.4801 47.0223 23.3223 0.323125 -0.945914 -0.0289257
-43.1869 46.4421 23.2513 0.323299 -0.945973 -0.0247734
-44.8701 45.8684 23.1619 0.324224 -0.945638 -0.0254582
-46.9734 45.1492 23.0462 0.325111 -0.94534 -0.0251906
-48.6524 44.5718 22.9319 0.327111 -0.944677 -0.0241776
-49.3872 44.2922 23.962 0.32709 -0.944723 -0.0225841
-47.6239 44.898 24.118 0.326045 -0.945081 -0.0227393
-45.7454 45.5422 24.1922 0.324511 -0.945595 -0.0233155
-43.7528 46.2219 24.2856 0.322738 -0.946198 -0.0234458
-41.6747 46.9282 24.3288 0.322131 -0.946355 -0.0253716
-39.9127 47.5281 24.398 0.325293 -0.945233 -0.0268228
-38.1705 48.1288 24.4424 0.327827 -0.944337 -0.0275271
-36.4 48.7462 24.4446 0.329138 -0.943866 -0.0280132
-34.5341 49.405 24.4248 0.333756 -0.942244 -0.0279777
-32.5841 50.0971 24.4022 0.332792 -0.942604 -0.0273403
-30.8266 50.7155 24.3887 0.328759 -0.944089 -0.0247664
-29.1252 51.2987 24.3603 0.314789 -0.948827 -0.0252242
-27.2697 51.907 24.2882 0.308807 -0.950845 -0.0230551
-24.9913 52.5961 24.1612 0.276792 -0.960788 -0.016539
-22.9472 53.1498 24.0525 0.241499 -0.970308 -0.0133977
-20.6712 53.696 23.8632 0.224429 -0.974393 -0.0137976
-18.9519 54.0699 23.7237 0.190171 -0.981671 -0.0125044
-17.2273 54.3861 23.582 0.171588 -0.985128 -0.00895805
-15.0307 54.7304 23.392 0.143317 -0.989676 0.000981693
-13.1421 54.9968 23.271 0.128014 -0.991772 0.000337511
-11.3932 55.2102 23.239 0.118498 -0.992943 0.00470318
-9.57906 55.405 23.1679 0.104391 -0.994528 0.00414206
-7.63996 55.6011 23.1175 0.0981333 -0.99515 0.00678676
-5.60637 55.8004 23.0799 0.096133 -0.99523 0.0165742
-3.57914 56.0028 23.0809 0.101804 -0.994344 0.0302556
-1.4562 56.2296 23.0565 0.109597 -0.993374 0.0345958
-0.666065 56.3227 23.0626 0.118532 -0.991741 0.0489864
0.849519 56.5628 23.9623 0.14128 -0.987623 0.0681277
-0.974508 56.3228 23.9627 0.123762 -0.991503 0.0400534
-2.77345 56.112 23.9837 0.114347 -0.993092 0.0263338
-4.51982 55.9229 24.01 0.10132 -0.994692 0.0179579
-6.49494 55.724 24.0326 0.0983676 -0.995091 0.0108419
-8.43189 55.5274 24.075 0.10222 -0.994743 0.00614307
-10.4666 55.3138 24.1324 0.106861 -0.99427 0.00297966
-12.3226 55.098 24.1849 0.12442 -0.992217 -0.0049074
-14.2107 54.8498 24.273 0.138772 -0.990321 -0.00242898
-16.075 54.5701 24.4207 0.155406 -0.987845 -0.00320118
-17.8354 54.2753 24.5803 0.179682 -0.983714 -0.00456459
-19.5857 53.9322 24.7017 0.201135 -0.979523 -0.0089507
-21.2984 53.5444 24.8442 0.237905 -0.97125 -0.00865744
-23.038 53.1144 24.976 0.241635 -0.970272 -0.0135982
-24.9005 52.6077 25.0842 0.273821 -0.961723 -0.0105188
-26.7321 52.0586 25.1821 0.303874 -0.952467 -0.0216234
-28.797 51.3842 25.2764 0.313227 -0.949421 -0.0221252
-30.5369 50.7919 25.3259 0.328182 -0.944307 -0.0240805
-32.6303 50.0542 25.3449 0.332403 -0.942775 -0.0261389
-34.6303 49.3429 25.383 0.334179 -0.942152 -0.0259518
-36.5071 48.6811 25.4088 0.331216 -0.94317 -0.0269526
-38.2268 48.0813 25.4144 0.325773 -0.945041 -0.0277199
-40.106 47.4347 25.3737 0.323843 -0.945756 -0.0259201
-40.99 47.1336 25.3561 0.321639 -0.946532 -0.0250093
-38.9141 47.8163 26.3815 0.3254 -0.945186 -0.0271861
-37.179 48.4166 26.3867 0.329763 -0.943666 -0.0273896
-35.4604 49.0223 26.3624 0.333172 -0.942523 -0.0254331
-33.714 49.6428 26.3195 0.33487 -0.941919 -0.0255021
-31.9935 50.2542 26.2847 0.333209 -0.942561 -0.0234582
-29.8682 50.9993 26.2401 0.325301 -0.945321 -0.023406
-28.0121 51.6253 26.1628 0.31102 -0.95022 -0.0186873
-26.0433 52.2537 26.0696 0.290639 -0.956584 -0.0218444
-23.9611 52.8569 25.9482 0.260281 -0.965457 -0.012073
-21.9464 53.3763 25.8264 0.241781 -0.970266 -0.0112295
-19.8894 53.8602 25.6639 0.21003 -0.977637 -0.0106624
-18.0592 54.2289 25.5351 0.187155 -0.982279 -0.010012
-15.9907 54.5801 25.3619 0.155752 -0.987789 -0.00369583
-14.2369 54.8415 25.2267 0.13912 -0.990259 -0.00570955
-12.4539 55.0786 25.1243 0.125378 -0.992107 -0.00182143
-10.5957 55.3012 25.0642 0.113195 -0.993572 0.000962869
-8.4759 55.5288 25.0138 0.104545 -0.994502 0.00604185
-6.45817 55.7377 24.9698 0.103062 -0.994632 0.00919153
-4.66677 55.9235 24.9308 0.10799 -0.994042 0.0147748
-2.54668 56.1623 24.8886 0.114602 -0.993045 0.0269785
-0.55803 56.41 24.8676 0.141581 -0.989329 0.0343918
1.22303 56.6751 24.848 0.158364 -0.98586 0.054782
2.61185 56.9119 24.8015 0.189763 -0.979374 0.0693994
3.68751 57.2005 25.726 0.215496 -0.974384 0.0643249
1.73904 56.8081 25.7333 0.186434 -0.980667 0.0594606
-0.0389823 56.5191 25.7634 0.148794 -0.98828 0.0340966
-1.82521 56.2702 25.7845 0.130424 -0.99099 0.030457
-3.87453 56.0261 25.8329 0.113372 -0.993397 0.0175924
-5.96979 55.7977 25.8919 0.106967 -0.994208 0.0103834
-7.74928 55.6108 25.9272 0.10532 -0.994411 0.00735403
-9.50049 55.4265 25.9834 0.107897 -0.994152 0.00439799
-11.6392 55.18 26.0169 0.117228 -0.993092 0.00510737
-13.4816 54.9397 26.1286 0.129748 -0.991545 0.00177979
-15.3966 54.6675 26.2664 0.150792 -0.988547 -0.00610269
-17.3506 54.3535 26.4166 0.165277 -0.986243 -0.0027205
-19.4949 53.9301 26.5658 0.203452 -0.978997 -0.0130846
-21.4403 53.4907 26.7147 0.233667 -0.972218 -0.0138614
-23.4056 52.9934 26.8354 0.24856 -0.968512 -0.0142263
-25.1652 52.4996 26.9411 0.284648 -0.958541 -0.0132017
-26.8709 51.9771 27.0333 0.301778 -0.953222 -0.0172531
-28.551 51.4268 27.1076 0.318309 -0.94792 -0.0112683
-30.4703 50.7686 27.1928 0.329783 -0.943801 -0.0219749
-32.3693 50.0975 27.2472 0.335483 -0.941806 -0.0212777
-34.3195 49.4017 27.2926 0.334569 -0.942053 -0.0244988
-36.214 48.729 27.3459 0.332655 -0.942691 -0.0259683
-37.4471 48.2951 27.3632 0.328557 -0.944088 -0.0273656
-36.4364 48.6233 28.3277 0.3326 -0.942761 -0.0240743
-34.6362 49.2638 28.2682 0.334696 -0.942007 -0.0245307
-32.7655 49.934 28.2095 0.336659 -0.941377 -0.0217015
-31.1071 50.5262 28.1537 0.332491 -0.942904 -0.0195449
-29.3532 51.1376 28.0774 0.324723 -0.945674 -0.0159853
-27.6333 51.7165 27.9998 0.309308 -0.950785 -0.0183586
-25.8437 52.2855 27.9056 0.289946 -0.956868 -0.0182798
-24.1304 52.7854 27.802 0.267358 -0.963577 -0.00629257
-22.3622 53.2509 27.7029 0.240468 -0.970636 -0.0064588
-20.6637 53.6629 27.5817 0.225704 -0.974096 -0.0139492
-18.6112 54.1084 27.4391 0.202041 -0.979366 -0.00458266
-16.8733 54.431 27.3254 0.165272 -0.986244 -0.00272282
-15.0858 54.711 27.1892 0.149435 -0.988767 -0.00285313
-13.2279 54.974 27.0583 0.134654 -0.990892 0.00131483
-11.4476 55.207 26.9615 0.118134 -0.992988 0.00441101
-9.70822 55.4072 26.9221 0.109222 -0.993993 0.0069187
-7.97289 55.5938 26.862 0.10547 -0.994398 0.00693441
-5.83415 55.8219 26.8105 0.106965 -0.994209 0.0103879
-3.85966 56.0436 26.7512 0.118013 -0.992943 0.0117278
-1.95246 56.2768 26.7091 0.129449 -0.991277 0.0247638
0.132139 56.5812 26.6752 0.158403 -0.987192 0.0189713
2.04424 56.9219 26.6519 0.186434 -0.980666 0.0594606
4.11971 57.3807 26.6134 0.241332 -0.968614 0.0595444
5.10554 57.6252 26.5865 0.293798 -0.952487 0.0803157
5.90222 57.9684 27.4406 0.322836 -0.943243 0.0779015
4.22454 57.4613 27.5002 0.252946 -0.964864 0.0711095
2.41289 57.0394 27.569 0.197045 -0.979337 0.0455172
0.518103 56.6739 27.6005 0.179744 -0.982877 0.0405568
-1.44511 56.3663 27.6298 0.141229 -0.989871 0.0144892
-3.30496 56.1215 27.6648 0.120123 -0.992641 0.0152823
-5.21506 55.9003 27.722 0.109006 -0.99396 0.0127091
-7.24593 55.6782 27.7727 0.10697 -0.994224 0.00875179
-9.02503 55.4879 27.8291 0.108043 -0.994126 0.00638711
-10.7738 55.2935 27.8931 0.118821 -0.992883 0.00800724
-12.6297 55.0562 27.9685 0.132735 -0.99115 0.0018841
-14.4877 54.7985 28.0869 0.141514 -0.989932 -0.00304857
-16.4597 54.4951 28.2368 0.161764 -0.986814 -0.0055707
-18.2531 54.1749 28.3554 0.192361 -0.981259 -0.0112955
-19.9602 53.8159 28.4628 0.223681 -0.974662 -0.000830699
-22.2303 53.2775 28.613 0.240466 -0.970636 -0.00645843
-24.0079 52.8122 28.7167 0.265774 -0.963989 -0.00946316
-25.9042 52.2481 28.8292 0.292964 -0.955939 -0.0187758
-27.8336 51.6332 28.9377 0.31156 -0.95008 -0.0166862
-29.4854 51.0772 29.0195 0.325175 -0.945556 -0.0135774
-31.3879 50.4081 29.1084 0.335404 -0.941931 -0.0164348
-33.1382 49.7803 29.1745 0.338286 -0.940838 -0.0196455
-34.8827 49.1535 29.2494 0.336578 -0.941428 -0.020729
-36.3459 48.6312 29.3074 0.333837 -0.942345 -0.0232157
-35.8561 48.7829 30.2701 0.336392 -0.941445 -0.0228629
-34.1314 49.4033 30.1846 0.338348 -0.940845 -0.0182245
-32.1757 50.1086 30.0888 0.33889 -0.940675 -0.0168405
-30.3026 50.7776 29.9996 0.329099 -0.944213 -0.0124766
-28.5467 51.3814 29.9001 0.317901 -0.948032 -0.0132269
-26.8582 51.9376 29.8105 0.307338 -0.951533 -0.0113254
-25.1845 52.4547 29.7065 0.28666 -0.957964 -0.0114017
-23.2937 52.9973 29.6025 0.259058 -0.965801 -0.0108336
-21.508 53.4478 29.49 0.232708 -0.972547 1.45154e-06
-19.4579 53.9155 29.3648 0.206162 -0.978484 0.00813703
-17.742 54.2611 29.2588 0.185706 -0.982559 -0.00951701
-15.9516 54.5718 29.137 0.153544 -0.988138 -0.00268285
-14.1917 54.8393 29.0125 0.142872 -0.989741 -0.000700063
-12.314 55.0999 28.8961 0.1317 -0.99129 0.00016665
-10.5558 55.3206 28.8278 0.117948 -0.99302 0.000211494
-8.67908 55.5317 28.748 0.107845 -0.99414 0.00747215
-6.63908 55.7529 28.6934 0.109471 -0.993943 0.00971718
-4.79043 55.9587 28.6442 0.110238 -0.993835 0.0118287
-2.93569 56.1818 28.602 0.121973 -0.992423 0.0148262
-0.990695 56.4438 28.5649 0.143177 -0.98963 0.0115257
0.763844 56.7474 28.5321 0.189081 -0.98151 0.029776
2.73771 57.1522 28.4687 0.225805 -0.973124 0.0451944
4.76571 57.6695 28.3755 0.273572 -0.960422 0.0524141
6.69922 58.3091 28.2879 0.376027 -0.923901 0.0707795
7.55492 58.7152 28.2491 0.465529 -0.881824 0.0752927
8.61076 59.3961 28.9658 0.527141 -0.846848 0.0705007
7.04772 58.5399 29.1402 0.431767 -0.899354 0.0688408
5.12558 57.8345 29.2577 0.295434 -0.954713 0.0352428
3.41782 57.3609 29.338 0.25046 -0.967447 0.0362668
1.62008 56.9355 29.433 0.211043 -0.977168 0.0245618
-0.178837 56.5953 29.4982 0.170293 -0.985192 0.0199131
-1.91265 56.3275 29.5362 0.135542 -0.990616 0.0175375
-3.91237 56.0746 29.5691 0.123426 -0.992244 0.0147781
-6.00395 55.8328 29.6116 0.110797 -0.993787 0.0105802
-8.14341 55.5971 29.6641 0.110023 -0.993891 0.008653
-9.91713 55.3994 29.7397 0.115966 -0.993247 0.00343015
-11.745 55.1741 29.8209 0.129652 -0.991558 0.00146007
-13.5151 54.9386 29.9116 0.140113 -0.990124 0.00470175
-15.3882 54.6571 30.0345 0.153739 -0.988108 -0.00248216
-17.4705 54.3078 30.1731 0.179209 -0.983803 -0.00383409
-19.3654 53.939 30.2961 0.202465 -0.979252 -0.00858558
-21.1063 53.5427 30.3943 0.228766 -0.973468 -0.00518444
-22.8371 53.1093 30.4903 0.26455 -0.964353 -0.00602223
-24.7039 52.5893 30.5985 0.281649 -0.959484 -0.00806636
-26.4002 52.0699 30.6957 0.301164 -0.953479 -0.0133303
-28.1448 51.5031 30.8002 0.314516 -0.949191 -0.010748
-29.923 50.8987 30.9141 0.330262 -0.943824 -0.0110497
-31.8604 50.2066 31.0249 0.339836 -0.940372 -0.0145978
-33.6435 49.5614 31.1187 0.339443 -0.940449 -0.0182648
-35.3715 48.9356 31.2274 0.337916 -0.940966 -0.0199122
-35.6742 48.8269 31.2413 0.337395 -0.941138 -0.0205809
-35.7326 48.7871 32.2261 0.340366 -0.940157 -0.0160042
-33.9227 49.4437 32.1012 0.341009 -0.939967 -0.0132732
-32.2543 50.05 31.9981 0.340415 -0.940187 -0.0128855
-30.2665 50.7663 31.8784 0.333752 -0.942573 -0.0128802
-28.6136 51.3359 31.7587 0.317335 -0.948287 -0.00708076
-26.7088 51.9623 31.6323 0.302943 -0.952995 -0.00513223
-24.7988 52.5535 31.5213 0.282236 -0.959279 -0.0112628
-23.0213 53.0502 31.4261 0.262131 -0.964988 -0.00925543
-21.1314 53.5286 31.3241 0.231439 -0.972812 -0.00847305
-19.3959 53.9229 31.2287 0.207561 -0.978171 -0.0100306
-17.6825 54.2641 31.1219 0.177455 -0.984115 -0.00525425
-15.7309 54.6059 30.9974 0.16081 -0.986985 0.000152929
-13.9916 54.8721 30.885 0.145386 -0.989345 0.00770171
-12.2178 55.1159 30.7854 0.128281 -0.991727 0.00462976
-10.3704 55.3481 30.6985 0.120052 -0.992759 0.00401973
-8.44642 55.5715 30.6118 0.111768 -0.993708 0.00724532
-6.63811 55.7718 30.5578 0.110696 -0.993805 0.00991733
-4.6718 55.996 30.5289 0.115665 -0.993212 0.0122939
-2.86694 56.2206 30.507 0.124746 -0.992021 0.0182329
-1.03507 56.4785 30.4772 0.15448 -0.987679 0.0250215
0.88997 56.812 30.3893 0.193674 -0.980684 0.0273785
2.80854 57.2297 30.2895 0.229344 -0.973141 0.0199715
4.82205 57.7745 30.1768 0.293785 -0.955197 0.0359055
6.62424 58.4151 30.0664 0.419712 -0.906065 0.0537472
8.28341 59.2894 29.8921 0.507007 -0.860923 0.0419079
9.90839 60.3486 29.7031 0.595094 -0.803043 0.031375
10.1029 60.4919 29.682 0.595095 -0.803043 0.031375
10.8673 61.1157 30.4823 0.625998 -0.778997 0.035927
9.30986 59.9749 30.6577 0.548607 -0.833833 0.0612647
7.76007 59.047 30.8618 0.476909 -0.876176 0.0698162
5.96254 58.2242 31.0162 0.348323 -0.934122 0.0780162
4.24803 57.6431 31.1129 0.291424 -0.955379 0.0481942
2.37543 57.1582 31.242 0.226735 -0.973245 0.0372302
0.634591 56.7895 31.3564 0.176199 -0.984219 0.0163471
-1.17686 56.4814 31.436 0.163604 -0.986283 0.0218972
-2.90485 56.2309 31.4579 0.130844 -0.991257 0.017012
-4.72417 56.0008 31.4682 0.117972 -0.99294 0.0123954
-6.81419 55.7616 31.4966 0.110798 -0.993789 0.0103195
-8.87814 55.5282 31.5621 0.113465 -0.993513 0.00753571
-10.8822 55.2912 31.6614 0.123462 -0.99234 0.0042188
-12.798 55.0428 31.7593 0.132529 -0.991175 0.00298821
-14.8022 54.749 31.8779 0.15648 -0.987675 -0.00338336
-16.7347 54.4304 31.9945 0.173211 -0.984874 -0.00453551
-18.4572 54.108 32.1018 0.194456 -0.9809 -0.00470359
-20.5435 53.6606 32.2219 0.223991 -0.974522 -0.0116445
-22.5037 53.1807 32.3267 0.25846 -0.966 -0.0064905
-24.2852 52.686 32.4242 0.278842 -0.960263 -0.0119462
-26.3588 52.0687 32.5322 0.299016 -0.954224 -0.00681019
-28.2966 51.4348 32.6642 0.318438 -0.94791 -0.00794461
-30.2609 50.7546 32.8214 0.334225 -0.942433 -0.0107039
-31.9651 50.1421 32.9367 0.340264 -0.94026 -0.0114786
-33.6603 49.5255 33.0525 0.341639 -0.939743 -0.0129107
-35.5945 48.8215 33.1955 0.340842 -0.940023 -0.0135203
-35.6935 48.7856 33.2031 0.339794 -0.940384 -0.0147516
-35.9626 48.6747 34.2057 0.34215 -0.939572 -0.0117663
-34.0385 49.3758 34.048 0.341664 -0.939766 -0.0102681
-32.2717 50.0188 33.9142 0.340786 -0.940096 -0.00916616
-30.3644 50.7071 33.7692 0.335749 -0.941878 -0.011739
-28.6304 51.3129 33.6281 0.321972 -0.946691 -0.0105198
-26.9729 51.8624 33.5037 0.304229 -0.95253 -0.0114534
-25.2504 52.3949 33.3988 0.281792 -0.959357 -0.0151004
-23.404 52.9231 33.309 0.263322 -0.964685 -0.00670528
-21.5721 53.407 33.2112 0.233591 -0.972254 -0.0125688
-19.6985 53.8438 33.1041 0.213913 -0.976804 -0.00980245
-17.7508 54.2407 32.9967 0.190109 -0.981726 -0.00857159
-15.8609 54.5769 32.881 0.164344 -0.986394 0.00419882
-13.5227 54.9421 32.7434 0.144458 -0.989501 -0.00446076
-11.535 55.2098 32.6331 0.129604 -0.991554 0.00475852
-9.80808 55.4265 32.5341 0.120954 -0.992644 0.00535394
-8.05207 55.6312 32.4575 0.113262 -0.993525 0.00896588
-5.85505 55.8804 32.4172 0.114569 -0.993359 0.0105799
-4.00055 56.1016 32.407 0.124976 -0.992087 0.0120058
-1.96493 56.3758 32.4073 0.13772 -0.99032 0.017322
-0.181183 56.6661 32.3505 0.163233 -0.986381 0.0201805
1.56873 57.0015 32.2512 0.221171 -0.974871 0.026646
3.33182 57.4208 32.0885 0.241854 -0.969196 0.0465415
5.03104 57.939 31.9639 0.345971 -0.937289 0.0423378
6.72012 58.6185 31.8585 0.387696 -0.918343 0.0796139
8.48407 59.5185 31.6789 0.505784 -0.861225 0.0497349
9.67793 60.2747 31.5131 0.558931 -0.827311 0.0561457
7.17456 58.866 32.7074 0.443539 -0.895194 0.0436131
5.56576 58.1725 32.815 0.343394 -0.938437 0.0376396
3.54317 57.5168 32.9874 0.279565 -0.959753 0.0267966
1.40312 56.9932 33.2269 0.220146 -0.974978 0.0308863
-0.313259 56.6622 33.3024 0.166767 -0.985854 0.0167811
-2.05631 56.3794 33.3458 0.15241 -0.988111 0.0201774
-3.99884 56.1144 33.3521 0.128337 -0.991642 0.0132727
-5.75441 55.9026 33.3501 0.114982 -0.993305 0.0111431
-7.58345 55.6927 33.3767 0.113302 -0.993524 0.00857248
-9.53122 55.4667 33.4554 0.117397 -0.993058 0.00731403
-11.3175 55.2426 33.5592 0.129708 -0.991542 0.00447087
-13.1262 54.9988 33.6586 0.14524 -0.989396 0.000321304
-14.9256 54.7303 33.7655 0.151387 -0.988472 -0.00212703
-16.7322 54.427 33.8718 0.179309 -0.983793 -0.000393089
-18.8762 54.0094 33.9878 0.201334 -0.97947 -0.0101257
-20.6001 53.6257 34.085 0.229631 -0.973214 -0.0111067
-22.291 53.2138 34.1846 0.251681 -0.967782 -0.00740532
-24.0709 52.7312 34.274 0.277483 -0.960689 -0.00892351
-26.0796 52.1312 34.3859 0.28717 -0.957785 -0.0134492
-27.8731 51.5551 34.4969 0.311524 -0.950169 -0.0114556
-29.8684 50.8737 34.6724 0.332358 -0.943116 -0.00835916
-31.534 50.2767 34.8131 0.339791 -0.940448 -0.00998174
-33.5176 49.5555 34.9691 0.342308 -0.939543 -0.00920308
-35.242 48.9256 35.1242 0.3427 -0.939381 -0.0109616
-36.294 48.5414 35.2206 0.341265 -0.939925 -0.00890253
-36.8617 48.3271 36.2591 0.340107 -0.940374 -0.00490692
-34.9172 49.0345 36.0706 0.342145 -0.939611 -0.00826205
-33.2046 49.6605 35.8979 0.342454 -0.939504 -0.00751982
-31.4156 50.3109 35.7547 0.33864 -0.940875 -0.00878253
-29.4812 51.0009 35.5848 0.328925 -0.944292 -0.0109563
-27.5056 51.6639 35.4039 0.308975 -0.950999 -0.0116009
-25.7382 52.2213 35.2963 0.290934 -0.956627 -0.0149284
-23.7863 52.8033 35.1942 0.274822 -0.961479 -0.00553265
-21.8624 53.3202 35.0931 0.244648 -0.969605 -0.00369032
-20.0479 53.7532 34.9897 0.216427 -0.976298 0.00138548
-18.2465 54.1329 34.8906 0.197269 -0.980346 -0.00243379
-16.5163 54.4637 34.7926 0.175546 -0.984466 -0.00310597
-14.7181 54.7583 34.693 0.152205 -0.988339 -0.00433545
-12.9588 55.023 34.5892 0.142701 -0.989762 0.0028605
-10.9895 55.289 34.4724 0.126339 -0.991976 0.00459231
-8.84317 55.5546 34.3507 0.116473 -0.993173 0.00641476
-6.60339 55.8133 34.2893 0.11518 -0.993313 0.00794653
-4.84385 56.0208 34.2801 0.118829 -0.992859 0.0105517
-2.91642 56.2725 34.2866 0.13828 -0.990316 0.0123692
-0.77554 56.6 34.2498 0.165483 -0.986055 0.0176312
1.13178 56.9613 34.1971 0.207545 -0.977957 0.0229113
3.10619 57.4264 33.9813 0.261201 -0.964871 0.0282354
4.8316 57.9534 33.7894 0.335685 -0.940707 0.0488543
5.87347 58.3235 33.6761 0.411192 -0.911076 0.0293667
4.03403 57.7047 34.8087 0.265053 -0.964089 0.01673
2.04186 57.1864 35.0617 0.236197 -0.971624 0.012544
0.167203 56.7914 35.1646 0.189609 -0.981527 0.0255522
-1.67186 56.4671 35.1976 0.156737 -0.987522 0.0152987
-3.62204 56.187 35.2299 0.132071 -0.991161 0.0125188
-5.45938 55.9556 35.2003 0.118958 -0.992859 0.00894304
-7.76548 55.6849 35.2518 0.115694 -0.993259 0.00712501
-9.66815 55.4604 35.3319 0.120935 -0.992655 0.00342699
-11.4339 55.2352 35.4318 0.135596 -0.990761 0.00268059
-13.4219 54.9532 35.5566 0.149666 -0.988736 0.00114601
-15.346 54.6522 35.6675 0.158409 -0.987361 -0.00488089
-17.2432 54.3279 35.7839 0.187259 -0.982245 -0.0113193
-18.9714 53.9791 35.8658 0.205314 -0.978617 -0.0124412
-20.7533 53.585 35.9705 0.23134 -0.972827 -0.00943842
-22.4689 53.1627 36.0477 0.255634 -0.966769 -0.00307245
-24.4733 52.5935 36.1629 0.2802 -0.959862 -0.0123413
-26.5997 51.9459 36.2779 0.295977 -0.955181 -0.00518101
-28.3338 51.3846 36.4001 0.314877 -0.949086 -0.00944264
-30.0716 50.7819 36.5736 0.33196 -0.943247 -0.00941207
-31.7083 50.1974 36.7246 0.339223 -0.940687 -0.00605754
-33.4638 49.5581 36.8864 0.341813 -0.939744 -0.00674795
-35.2171 48.9183 37.0698 0.341991 -0.939688 -0.00532087
-37.2321 48.1885 37.2797 0.339107 -0.940741 -0.00370205
-37.268 48.1755 37.2836 0.33914 -0.940729 -0.00370422
-38.8306 47.611 38.4447 0.335814 -0.941928 -0.000495988
-37.1073 48.23 38.2476 0.338366 -0.941011 -0.00275597
-35.3704 48.8581 38.0546 0.340661 -0.940178 -0.00393596
-33.7246 49.4562 37.8739 0.341697 -0.939794 -0.00543046
-31.7998 50.1573 37.6836 0.341464 -0.939871 -0.00667149
-29.8944 50.8351 37.4942 0.330829 -0.943658 -0.00786019
-28.0535 51.4675 37.3194 0.316274 -0.948595 -0.0117631
-26.2151 52.0588 37.1848 0.294642 -0.955542 -0.0111698
-24.3443 52.6202 37.0981 0.281395 -0.959523 -0.011518
-22.436 53.1534 36.9889 0.247125 -0.968888 -0.0136152
-20.59 53.6097 36.9028 0.233854 -0.972147 -0.0155437
-18.7558 54.012 36.7971 0.204675 -0.978745 -0.0129264
-17.022 54.3564 36.7076 0.183035 -0.983016 -0.0133519
-14.8912 54.7252 36.5857 0.163985 -0.986413 -0.00990032
-13.1235 54.999 36.4804 0.149138 -0.988816 0.000482572
-11.3459 55.2504 36.3639 0.132113 -0.99123 0.00316406
-9.52692 55.4798 36.2477 0.123276 -0.992369 0.00276259
-7.45792 55.7274 36.1777 0.116824 -0.993136 0.00580376
-5.47421 55.962 36.1265 0.11957 -0.992786 0.00891601
-3.5069 56.2124 36.1542 0.133508 -0.991 0.00972525
-1.59379 56.4961 36.1239 0.165052 -0.986192 0.0134966
0.517935 56.8701 36.0791 0.199329 -0.979811 0.0154343
1.53472 57.0918 36.0224 0.208854 -0.977899 0.00965012
-0.208627 56.746 37.0335 0.176349 -0.984324 0.00262728
-2.00069 56.441 37.0553 0.16395 -0.986443 0.00715479
-3.85683 56.1765 37.0579 0.128336 -0.991706 0.00697753
-5.81097 55.9291 37.0528 0.121539 -0.992556 0.0078666
-7.59425 55.7154 37.1037 0.118091 -0.992992 0.0047047
-9.63737 55.4693 37.1879 0.121773 -0.992552 0.00331603
-11.5492 55.2247 37.3211 0.13048 -0.991451 -0.000424144
-13.3609 54.9617 37.4405 0.148364 -0.988923 -0.00442845
-15.6835 54.5839 37.5678 0.166884 -0.985938 -0.00866726
-17.5682 54.2438 37.6747 0.184413 -0.982834 -0.00543389
-19.631 53.8139 37.7846 0.211665 -0.977253 -0.0132075
-21.5348 53.3692 37.881 0.240378 -0.970591 -0.0130729
-23.2994 52.9063 37.9832 0.261179 -0.96511 -0.0186383
-25.0307 52.4057 38.0556 0.283892 -0.958772 -0.0127382
-27.022 51.7923 38.1636 0.300356 -0.953746 -0.0124464
-28.9382 51.1601 38.3505 0.321745 -0.946802 -0.00671222
-30.7869 50.5155 38.5311 0.33514 -0.942148 -0.00618182
-32.8233 49.7794 38.7408 0.340749 -0.940142 -0.00472542
-34.509 49.1672 38.9264 0.340902 -0.940091 -0.00384028
-36.3465 48.5013 39.1403 0.339556 -0.940583 -0.00219679
-38.0838 47.8767 39.3445 0.33581 -0.941929 -0.00113797
-39.9262 47.2206 39.5726 0.333215 -0.942851 -0.000156045
-41.9644 46.5051 39.8909 0.3289 -0.944363 -0.00185244
-43.7913 45.8724 40.2224 0.325383 -0.945573 -0.00416385
-45.6379 45.2353 40.6236 0.325344 -0.945575 -0.00622686
-47.2663 44.6739 40.9452 0.32519 -0.945614 -0.00809971
-48.024 44.4119 41.1085 0.32563 -0.945459 -0.00852641
-47.1037 44.7211 42.0251 0.325817 -0.945404 -0.00741383
-45.4275 45.3013 41.6713 0.325615 -0.945487 -0.00546902
-43.5093 45.965 41.2489 0.326907 -0.94505 -0.00361618
-41.8873 46.5299 40.9143 0.329086 -0.944297 -0.00248264
-40.2277 47.1128 40.6428 0.332363 -0.94315 -0.00188812
-38.5637 47.7041 40.3996 0.335793 -0.941934 -0.00199116
-36.4988 48.4442 40.132 0.338886 -0.940826 -0.00155869
-34.7195 49.0874 39.9216 0.340435 -0.940264 -0.00264843
-32.9609 49.725 39.708 0.339683 -0.940532 -0.00389589
-31.1218 50.3893 39.5163 0.338395 -0.940988 -0.00549144
-29.1946 51.0659 39.3146 0.323168 -0.946309 -0.0078831
-27.3037 51.6925 39.134 0.305334 -0.952199 -0.00938359
-25.3917 52.2874 39.0035 0.289132 -0.957193 -0.0135441
-23.3604 52.8706 38.9058 0.270882 -0.962572 -0.00888432
-21.3841 53.3922 38.8153 0.235852 -0.971652 -0.0162953
-19.6685 53.7957 38.7293 0.2221 -0.974977 -0.00959216
-17.6882 54.212 38.6178 0.193791 -0.981008 -0.00830068
-15.6434 54.5805 38.5047 0.168894 -0.985575 -0.0107875
-13.8242 54.882 38.4112 0.153625 -0.988063 -0.011463
-11.7585 55.1932 38.2782 0.144505 -0.989467 -0.00854401
-9.96446 55.4301 38.1504 0.127199 -0.991875 -0.00222007
-7.96353 55.6753 38.037 0.118902 -0.992903 0.0025638
-6.03089 55.9075 37.9697 0.120197 -0.992745 0.00305882
-4.07425 56.1515 37.9569 0.127318 -0.991857 0.00317358
-2.3891 56.3893 37.9395 0.153133 -0.988142 0.0112512
-3.63693 56.2113 38.8527 0.132279 -0.991211 -0.00171247
-5.67116 55.9534 38.8725 0.121246 -0.992622 0.00105065
-7.51661 55.7322 38.9357 0.119263 -0.992855 0.00380865
-9.33805 55.509 39.0427 0.127837 -0.991794 -0.00173281
-11.3817 55.24 39.1835 0.134484 -0.990913 -0.00226825
-13.3631 54.9512 39.3132 0.152182 -0.988341 -0.00470043
-15.483 54.6028 39.4286 0.169737 -0.985484 -0.00323506
-17.2304 54.2947 39.5342 0.184084 -0.982885 -0.00707521
-19.0669 53.9212 39.6333 0.21308 -0.977001 -0.00806183
-20.8334 53.5164 39.7298 0.238211 -0.971193 -0.00637869
-22.864 52.9972 39.8078 0.2607 -0.96539 -0.00756064
-24.5438 52.5294 39.8896 0.275748 -0.961182 -0.00963811
-26.2991 52.0023 39.9932 0.29571 -0.95521 -0.0114142
-28.0276 51.4484 40.1305 0.311566 -0.950208 -0.00564387
-29.7551 50.8672 40.3198 0.328884 -0.944354 -0.00559293
-31.4108 50.2795 40.4969 0.338151 -0.941074 -0.00583151
-33.0995 49.6708 40.696 0.338658 -0.940902 -0.00388441
-34.8353 49.0427 40.913 0.340135 -0.940372 -0.00287314
-36.4649 48.4545 41.1094 0.339178 -0.940719 -0.00230128
-38.3073 47.7935 41.3676 0.335799 -0.941932 -0.00198977
-40.2468 47.1044 41.6665 0.333354 -0.9428 -0.00179609
-42.0266 46.4786 41.9979 0.329349 -0.944207 -0.00164347
-43.8692 45.8357 42.4159 0.328079 -0.944639 -0.00459315
-45.5448 45.254 42.7784 0.326761 -0.945092 -0.00538077
-46.5279 44.9125 42.9939 0.327185 -0.94494 -0.00617404
-45.1242 45.3938 43.7522 0.327046 -0.944991 -0.00579028
-43.3987 45.9954 43.3726 0.329083 -0.944297 -0.00281223
-41.7444 46.5747 42.9834 0.330552 -0.943785 -0.00215064
-39.7882 47.2651 42.6166 0.333818 -0.942636 -0.00157604
-37.8841 47.9433 42.3118 0.336639 -0.941633 -0.00109725
-35.9652 48.6326 42.0298 0.339176 -0.940721 -0.00215881
-34.233 49.2576 41.817 0.339639 -0.940553 -0.00249162
-32.588 49.8513 41.6057 0.33845 -0.940978 -0.00357401
-30.8253 50.4847 41.3828 0.335828 -0.941911 -0.00488372
-29.1758 51.0627 41.1887 0.32481 -0.945757 -0.006536
-27.3691 51.6544 41.0026 0.303816 -0.952681 -0.00975487
-25.592 52.2122 40.8949 0.29629 -0.955065 -0.00793335
-23.4826 52.8222 40.77 0.269121 -0.963043 -0.0110385
-21.7367 53.2849 40.6978 0.242239 -0.970162 -0.0102929
-19.8151 53.7485 40.6165 0.220596 -0.975316 -0.00981035
-18.0059 54.1351 40.5104 0.197951 -0.980168 -0.00922495
-16.1476 54.4847 40.4172 0.183799 -0.982937 -0.00731173
-14.0793 54.8329 40.2847 0.158248 -0.98739 -0.00434956
-12.2144 55.1184 40.1728 0.147606 -0.98904 -0.00361523
-10.0226 55.4186 40.0222 0.128526 -0.991704 -0.00208377
-8.15646 55.6562 39.8899 0.118103 -0.992994 -0.00377533
-6.29034 55.8797 39.82 0.119395 -0.992847 0.000477717
-5.14241 56.0202 39.7966 0.122841 -0.992426 -7.28649e-05
-7.36618 55.7489 40.7746 0.120831 -0.99267 -0.00226013
-9.51261 55.4823 40.9125 0.12396 -0.992275 -0.00487359
-11.4531 55.2251 41.0388 0.139605 -0.990204 -0.00239177
-13.1849 54.9725 41.1716 0.15555 -0.987826 -0.00217027
-14.9687 54.6879 41.2797 0.161905 -0.986805 -0.00189112
-16.7749 54.3603 41.3889 0.183704 -0.982944 -0.00862164
-18.7173 53.9762 41.5038 0.207948 -0.978066 -0.012012
-20.4717 53.583 41.5836 0.234565 -0.971989 -0.0147429
-22.1946 53.1575 41.6517 0.251508 -0.96779 -0.011242
-24.3887 52.5608 41.7637 0.267884 -0.963428 -0.0067196
-26.4997 51.9228 41.8754 0.299968 -0.95391 -0.0087079
-28.2741 51.3565 42.0146 0.309949 -0.950733 -0.00619473
-29.9284 50.7956 42.2342 0.328084 -0.944629 -0.00615242
-31.6393 50.1886 42.4591 0.336282 -0.941754 -0.00373408
-33.4511 49.5373 42.6824 0.339096 -0.940748 -0.00255699
-35.1347 48.9298 42.9119 0.338946 -0.940804 -0.00213623
-37.0258 48.249 43.1942 0.337602 -0.941288 -0.00110793
-38.8114 47.6111 43.4859 0.33584 -0.941919 -0.000892287
-40.5297 47.0008 43.7713 0.333565 -0.942725 -0.00189728
-42.3412 46.3629 44.1877 0.330659 -0.943748 -0.00205778
-43.9741 45.7911 44.5785 0.329405 -0.944184 -0.00311379
-44.3684 45.6534 44.6472 0.329223 -0.944247 -0.00312238
-43.0012 46.1288 45.3975 0.330451 -0.94382 -0.00252023
-41.2549 46.7424 44.9721 0.331981 -0.943284 -0.00192591
-39.2684 47.4469 44.5791 0.335216 -0.942141 -0.000893039
-37.3745 48.1226 44.2711 0.336711 -0.941607 -0.0016582
-35.6871 48.7284 43.9649 0.338901 -0.94082 -0.0021819
-33.8263 49.3994 43.715 0.339025 -0.940774 -0.00247501
-31.7493 50.1455 43.435 0.335828 -0.941917 -0.00357675
-30.0814 50.7359 43.2153 0.328594 -0.944454 -0.00578171
-28.2164 51.3694 42.953 0.311098 -0.950368 -0.00443182
-26.4106 51.9426 42.8062 0.29387 -0.955812 -0.00805173
-24.3035 52.5777 42.7035 0.275667 -0.96121 -0.00912163
-22.6153 53.0349 42.6172 0.247592 -0.96875 -0.0148886
-20.8451 53.4781 42.5397 0.232591 -0.972454 -0.0153104
-19.1236 53.8733 42.4632 0.214249 -0.976638 -0.0166051
-17.4072 54.2344 42.3556 0.191903 -0.981352 -0.0110008
-15.4744 54.596 42.2564 0.179363 -0.983714 -0.0116036
-13.6999 54.8874 42.1448 0.156126 -0.987722 -0.00545248
-11.8352 55.1655 41.9976 0.140452 -0.990065 -0.00665689
-9.95996 55.4225 41.864 0.132319 -0.991205 -0.00227068
-9.06537 55.5372 41.7632 0.126148 -0.992011 0.000185926
-11.4428 55.2158 42.892 0.13886 -0.990306 -0.00354619
-13.2438 54.9539 43.0473 0.146517 -0.989198 -0.00450462
-15.1894 54.6339 43.1652 0.174109 -0.984632 -0.0136227
-16.9754 54.3061 43.2661 0.183446 -0.98296 -0.0117391
-18.7082 53.9525 43.3739 0.209837 -0.977633 -0.0141937
-20.565 53.5294 43.4702 0.227641 -0.973647 -0.0138541
-22.565 53.0383 43.5518 0.24918 -0.968424 -0.00800717
