-42.0172 48.3278 25.8815 0.320737 -0.946843 -0.0248137
-41.0089 48.6604 26.2319 0.320873 -0.946775 -0.0256476
-40.0292 48.9813 26.655 0.32243 -0.946242 -0.0257596
-39.055 49.2871 27.6773 0.324757 -0.945405 -0.0272431
-38.4505 49.4714 28.5053 0.32824 -0.944225 -0.0262964
-37.8666 49.6475 29.5159 0.330203 -0.943518 -0.0271997
-37.4443 49.7673 30.6659 0.333982 -0.942308 -0.0226117
-37.3283 49.7852 31.737 0.335821 -0.941733 -0.0190514
-37.2742 49.7795 32.9843 0.338359 -0.940893 -0.0150691
-37.4712 49.6914 34.2626 0.339335 -0.940588 -0.0119857
-37.8653 49.5369 35.4307 0.338847 -0.940806 -0.00821273
-38.7016 49.2263 36.8203 0.338942 -0.9408 -0.00365075
-39.7964 48.8311 37.8255 0.336871 -0.941548 -0.00223866
-40.6739 48.52 38.3384 0.333001 -0.942925 -0.00148168
-41.572 48.2039 38.7964 0.330269 -0.943886 -0.00120675
-42.5742 47.8545 39.1447 0.327168 -0.944964 -0.00107186
-43.5714 47.5098 39.2173 0.324722 -0.945805 -0.00229146
-44.6163 47.1511 39.0687 0.325682 -0.94547 -0.0041998
-44.7324 47.1112 39.0357 0.325381 -0.945571 -0.00461649
-44.8365 47.0813 38.0129 0.320498 -0.947237 -0.00474443
-45.9624 46.7035 37.5646 0.318653 -0.947832 -0.00859814
-47.0258 46.3535 36.8917 0.31722 -0.948259 -0.013268
-47.8723 46.078 36.2292 0.3194 -0.947493 -0.0154972
-48.5009 45.884 35.2964 0.320986 -0.946876 -0.0198574
-49.0419 45.7235 34.2232 0.320576 -0.947006 -0.0202595
-49.3832 45.6312 33.2465 0.32292 -0.946147 -0.0230064
-49.3931 45.6541 32.1996 0.324699 -0.945491 -0.0248145
-49.1536 45.7702 30.9196 0.327228 -0.944616 -0.0249031
-48.9514 45.8653 29.9153 0.327826 -0.944437 -0.0238442
-48.2615 46.1335 28.7333 0.327976 -0.944423 -0.0222901
-47.3934 46.455 27.8443 0.328736 -0.944207 -0.0200854
-46.528 46.7679 27.1816 0.326596 -0.944999 -0.017672
-45.4525 47.1452 26.7833 0.32329 -0.946144 -0.017172
-44.3581 47.523 26.5202 0.321414 -0.946763 -0.0182528
-43.3937 47.8487 26.4939 0.318003 -0.947891 -0.0193372
-42.2774 48.2163 26.8236 0.315597 -0.948663 -0.020911
-40.9718 48.6459 27.2124 0.318916 -0.94744 -0.0254951
-39.9955 48.9589 27.868 0.321269 -0.946618 -0.0264629
-39.3436 49.1541 28.8217 0.324918 -0.945219 -0.0314662
-38.703 49.3456 29.8273 0.330677 -0.943314 -0.0284633
-38.2636 49.4702 30.9338 0.334758 -0.942032 -0.0226303
-38.1201 49.4952 32.0063 0.342352 -0.939361 -0.0199237
-38.12 49.4707 33.1731 0.34398 -0.938838 -0.0155656
-38.3749 49.3621 34.3192 0.34488 -0.938582 -0.0108908
-38.9354 49.1478 35.5368 0.344585 -0.938745 -0.0042662
-39.5294 48.9296 36.4027 0.340842 -0.940121 0.000605544
-40.4311 48.6063 37.131 0.334831 -0.942277 0.00123958
-41.8185 48.1177 37.849 0.330189 -0.943913 0.00154024
-42.8532 47.757 38.234 0.326139 -0.94532 8.89582e-05
-44.0283 47.3538 38.1991 0.322375 -0.946604 -0.00266952
-44.1836 47.3014 38.171 0.320499 -0.947237 -0.0047462
-43.964 47.3794 37.1853 0.320078 -0.947388 -0.00245204
-45.2056 46.9626 36.9517 0.317147 -0.948351 -0.00685717
-46.3145 46.6015 36.2463 0.315879 -0.948689 -0.01431
-47.1209 46.3415 35.6524 0.319706 -0.947375 -0.0163897
-47.7057 46.162 34.7503 0.317134 -0.948173 -0.0198365
-48.1688 46.0303 33.8214 0.321467 -0.946613 -0.0241551
-48.4458 45.9694 32.5466 0.323748 -0.945803 -0.025385
-48.214 46.0805 31.463 0.326802 -0.944698 -0.0272759
-48.0514 46.1685 30.2993 0.329654 -0.943798 -0.0239613
-47.5648 46.3604 29.3884 0.32904 -0.944076 -0.0212756
-46.6172 46.7136 28.4466 0.332433 -0.942959 -0.0177943
-45.7479 47.0256 27.9048 0.328467 -0.944391 -0.0153366
-44.4502 47.4762 27.4692 0.322626 -0.946404 -0.0152421
-43.3654 47.8397 27.481 0.315773 -0.948737 -0.0136427
-42.3318 48.1747 27.8528 0.315157 -0.948777 -0.0223282
-41.0449 48.5936 28.2527 0.318725 -0.947515 -0.0251107
-40.0916 48.8834 29.2743 0.317723 -0.947596 -0.0333711
-39.3546 49.0961 30.4951 0.330861 -0.943217 -0.0295596
-39.0192 49.1795 31.6665 0.339501 -0.940233 -0.0264928
-38.956 49.1739 32.7448 0.348729 -0.937037 -0.0186828
-39.1142 49.0959 33.7562 0.347705 -0.937517 -0.0118922
-39.498 48.9454 34.7044 0.346412 -0.938058 -0.0061141
-40.0481 48.7419 35.5896 0.344414 -0.938818 -1.62853e-05
-40.9639 48.4142 36.3863 0.337992 -0.941128 0.0062356
-41.9703 48.0624 36.8647 0.330877 -0.943669 0.00296108
-42.914 47.735 37.273 0.32529 -0.945607 0.00369789
-43.7794 47.4418 37.2186 0.317513 -0.948249 -0.00135316
-29.9666 52.9754 8.81101 0.282828 -0.958542 -0.0347157
-29.3283 53.1582 8.8473 0.276142 -0.960426 -0.0364316
-32.0007 52.312 9.63118 0.30346 -0.952092 -0.0378557
-30.1737 52.8789 9.75024 0.28958 -0.956557 -0.0337943
-28.285 53.4256 9.82782 0.271444 -0.962077 -0.0269522
-26.2469 53.9858 9.72699 0.25297 -0.967237 -0.0214019
-24.3205 54.4722 9.59282 0.234831 -0.971759 -0.0232064
-23.6189 54.6397 9.51913 0.221117 -0.975108 -0.0164683
-20.5176 55.3077 10.1463 0.200181 -0.979648 -0.0147509
-22.5 54.8771 10.3357 0.216702 -0.976133 -0.0143307
-24.3124 54.4538 10.5341 0.233001 -0.972392 -0.012794
-26.1614 53.9859 10.6686 0.255643 -0.966518 -0.02214
-28.0661 53.4602 10.7665 0.269454 -0.962679 -0.0253752
-29.818 52.9538 10.7501 0.277117 -0.960103 -0.0375358
-31.5759 52.4103 10.6121 0.302061 -0.952727 -0.0327229
-33.3433 51.8457 10.4945 0.308978 -0.950295 -0.0383555
-34.8643 51.3471 10.2616 0.322174 -0.945899 -0.0384677
-37.0016 50.5855 10.9157 0.328388 -0.943773 -0.0381233
-34.9375 51.2831 11.2251 0.32264 -0.945731 -0.0386839
-33.2149 51.849 11.4566 0.310832 -0.949699 -0.0381458
-31.0723 52.5368 11.6004 0.301531 -0.952981 -0.0301101
-28.8345 53.2114 11.7275 0.28131 -0.959249 -0.0265748
-26.6422 53.8343 11.6354 0.260167 -0.965174 -0.0274173
-24.824 54.3161 11.5308 0.237643 -0.971267 -0.0129037
-23.0532 54.7387 11.3451 0.217613 -0.97592 -0.0149668
-21.1054 55.1723 11.1393 0.209704 -0.977692 -0.0119103
-18.8739 55.6085 10.9578 0.176069 -0.984336 -0.0090777
-18.0696 55.7508 10.8861 0.163622 -0.986512 -0.0046122
-16.5268 55.986 11.7555 0.145918 -0.989272 0.0070563
-18.5447 55.6629 11.8616 0.180641 -0.983549 0.00084525
-20.4887 55.2872 12.0345 0.205468 -0.978613 -0.00998385
-22.5693 54.8371 12.2369 0.217854 -0.975926 -0.0103587
-24.3978 54.4098 12.4286 0.239927 -0.970709 -0.0125722
-26.3041 53.9113 12.5797 0.262023 -0.964942 -0.0151945
-28.1477 53.3896 12.63 0.281251 -0.959349 -0.023387
-30.2292 52.7671 12.6148 0.297077 -0.954375 -0.0302157
-32.0431 52.1945 12.4982 0.308323 -0.950695 -0.0333984
-33.8356 51.6088 12.3337 0.313685 -0.94875 -0.0384011
-35.664 50.9984 12.126 0.322865 -0.945671 -0.0382582
-37.6846 50.3089 11.8838 0.328168 -0.943854 -0.0380144
-38.6684 49.9696 11.8091 0.329972 -0.943252 -0.0373305
-40.9908 49.1319 12.4681 0.330434 -0.94318 -0.0349985
-39.2726 49.7228 12.7312 0.32946 -0.943468 -0.0364017
-37.4856 50.337 12.9261 0.327849 -0.944005 -0.0370214
-35.4651 51.0263 13.1329 0.323066 -0.945683 -0.0362211
-33.7099 51.6126 13.339 0.315749 -0.948199 -0.0349517
-31.7695 52.2487 13.4748 0.308481 -0.950622 -0.0340062
-29.6042 52.9299 13.59 0.298051 -0.954108 -0.0290338
-27.6714 53.5071 13.5467 0.282099 -0.959106 -0.0231403
-25.4998 54.1115 13.4664 0.254745 -0.966889 -0.0151637
-23.5924 54.5914 13.2838 0.226496 -0.973978 -0.00820147
-21.776 55.0076 13.1017 0.214079 -0.976793 -0.00674833
-19.9127 55.3994 12.914 0.197168 -0.980317 -0.0101526
-18.0335 55.7461 12.7764 0.165432 -0.986183 -0.00867884
-16.0026 56.0679 12.6517 0.142349 -0.989749 0.0115701
-15.3466 56.1598 12.618 0.126852 -0.991881 0.00903111
-14.057 56.3296 13.506 0.121723 -0.992522 0.00910907
-16.0207 56.0714 13.5813 0.14705 -0.989129 2.07585e-05
-17.8669 55.7723 13.7052 0.171675 -0.985154 0.000385307
-19.7296 55.4279 13.8452 0.20001 -0.979779 -0.00539932
-21.5693 55.0448 14.0197 0.209036 -0.977873 -0.00828292
-23.7022 54.5532 14.2252 0.233742 -0.972197 -0.0140418
-25.6093 54.0651 14.403 0.260882 -0.965107 -0.0225596
-27.3814 53.5639 14.494 0.276015 -0.960831 -0.0249093
-29.2627 53.0105 14.5102 0.29296 -0.955797 -0.0250422
-31.0871 52.4353 14.4609 0.308856 -0.950516 -0.0335665
-32.8434 51.863 14.3812 0.314869 -0.948571 -0.0327168
-34.7235 51.2401 14.1937 0.322469 -0.945978 -0.0337573
-36.5513 50.619 14.0084 0.326908 -0.944321 -0.0372582
-38.5702 49.9243 13.8369 0.328219 -0.943877 -0.0369887
-40.4213 49.2887 13.594 0.329612 -0.943455 -0.0353472
-41.5676 48.8939 13.4353 0.328704 -0.943813 -0.0342057
-43.4899 48.1927 14.3388 0.327544 -0.94424 -0.0335396
-41.5469 48.8612 14.5287 0.328766 -0.943766 -0.0349169
-39.731 49.4856 14.7374 0.32842 -0.94384 -0.0361435
-37.7464 50.1685 14.9193 0.327907 -0.943997 -0.0367017
-35.7997 50.8374 15.0822 0.325391 -0.944884 -0.0362545
-33.9541 51.4635 15.2542 0.317768 -0.947613 -0.0324368
-32.0044 52.1067 15.3776 0.313283 -0.9491 -0.0326072
-30.2752 52.669 15.4175 0.310595 -0.950106 -0.0287942
-28.3768 53.2514 15.434 0.28238 -0.959085 -0.0204174
-26.1511 53.8912 15.3641 0.267377 -0.963304 -0.0235453
-24.3433 54.3859 15.209 0.249541 -0.968288 -0.012193
-22.4783 54.8334 15.0492 0.223382 -0.974694 -0.00844319
-20.3192 55.3041 14.8387 0.203486 -0.979071 -0.00360967
-18.5421 55.648 14.6912 0.18127 -0.983403 -0.00778794
-16.7407 55.9568 14.5754 0.155161 -0.987868 -0.00646318
-14.74 56.25 14.4683 0.135273 -0.990802 -0.00346145
-13.3449 56.4208 14.3852 0.116877 -0.993124 0.00670323
-12.611 56.5131 15.3299 0.112183 -0.993661 0.00732733
-14.6833 56.2557 15.3675 0.136588 -0.990625 -0.00233709
-16.8362 55.9381 15.516 0.154541 -0.987981 -0.00323662
-18.8485 55.5873 15.663 0.178057 -0.984009 -0.0047632
-20.7307 55.2122 15.8284 0.204859 -0.97872 -0.0118601
-22.5718 54.8041 15.9897 0.223922 -0.974583 -0.00683561
-24.415 54.3535 16.1362 0.258241 -0.965885 -0.0194544
-26.3462 53.8165 16.3179 0.270502 -0.962463 -0.0221979
-28.1367 53.3017 16.3761 0.281789 -0.959225 -0.0219711
-30.184 52.6698 16.3519 0.309284 -0.950442 -0.0316655
-32.2381 51.9979 16.3255 0.313115 -0.949231 -0.0303092
-34.0443 51.3998 16.206 0.321675 -0.946226 -0.0343704
-36.0382 50.7176 16.0558 0.326876 -0.94436 -0.0365556
-38.0113 50.0382 15.9048 0.328044 -0.943953 -0.0365914
-39.9052 49.3858 15.7549 0.328137 -0.943928 -0.0364178
-41.9112 48.6964 15.5551 0.328338 -0.9439 -0.0353232
-44.0088 47.9774 15.3392 0.326961 -0.944425 -0.0340258
-44.1679 47.9232 15.3149 0.327109 -0.944391 -0.0335607
-44.8263 47.6603 16.2906 0.326092 -0.944728 -0.0339591
-42.9643 48.2959 16.5235 0.327196 -0.944328 -0.0344667
-41.0526 48.9518 16.6987 0.32705 -0.944333 -0.0356833
-39.3208 49.548 16.8265 0.327962 -0.944004 -0.0360082
-37.5408 50.1614 16.9457 0.328079 -0.943943 -0.0365424
-35.5042 50.8633 17.0733 0.326695 -0.944456 -0.0356878
-33.4355 51.5683 17.2316 0.320355 -0.946684 -0.0340881
-31.387 52.2463 17.2833 0.310692 -0.950011 -0.0308315
-29.4135 52.8881 17.2992 0.304146 -0.952205 -0.0283063
-27.2997 53.5194 17.2911 0.276758 -0.960709 -0.0210539
-25.5508 54.0216 17.1635 0.267262 -0.963476 -0.0168973
-23.7875 54.4986 17.0251 0.245047 -0.96928 -0.0211744
-21.8751 54.9506 16.8849 0.213573 -0.976852 -0.012089
-19.8329 55.3898 16.6858 0.204859 -0.97872 -0.0118603
-17.726 55.7848 16.4942 0.171525 -0.985177 -0.00238253
-15.493 56.1435 16.3365 0.143586 -0.989635 -0.00230177
-13.6687 56.3918 16.2424 0.12885 -0.991662 0.00204949
-11.6666 56.6237 16.3314 0.10962 -0.993943 0.00780999
-11.6424 56.6264 16.3329 0.1096 -0.993945 0.00785198
-10.7779 56.7268 17.3307 0.1015 -0.994816 0.00631306
-12.6487 56.5207 17.1967 0.113586 -0.993511 0.00577181
-15.0499 56.2043 17.2132 0.133325 -0.991072 -0.00067294
-17.224 55.8648 17.395 0.167519 -0.985844 -0.00705117
-19.3215 55.4762 17.5817 0.189342 -0.981813 -0.0138781
-21.3144 55.0596 17.773 0.21099 -0.977451 -0.00854152
-23.0885 54.6523 17.9084 0.237493 -0.97123 -0.017601
-24.8804 54.1939 18.028 0.249324 -0.968293 -0.0156673
-27.054 53.5762 18.1907 0.279899 -0.959908 -0.0152411
-28.9374 53.0073 18.2448 0.295888 -0.954886 -0.0253686
-30.7232 52.4382 18.2434 0.310617 -0.950168 -0.0264311
-32.6469 51.7992 18.2001 0.320763 -0.946742 -0.0281286
-34.5546 51.1532 18.1048 0.323633 -0.945523 -0.0353274
-36.4022 50.5163 18.0165 0.327772 -0.944123 -0.0346046
-38.3725 49.8363 17.8948 0.327326 -0.944216 -0.0362536
-40.2904 49.1748 17.8 0.327153 -0.944341 -0.0345204
-42.1345 48.5427 17.6393 0.326701 -0.944503 -0.0343626
-43.9412 47.9245 17.4526 0.326148 -0.944726 -0.0334666
-45.7137 47.3196 17.2676 0.32609 -0.944775 -0.0326429
-45.8747 47.2644 17.2526 0.326311 -0.944702 -0.0325351
-46.5323 47.002 18.2821 0.326463 -0.944687 -0.0314508
-44.6411 47.6491 18.4349 0.325101 -0.945129 -0.0322419
-42.8481 48.261 18.608 0.325322 -0.945064 -0.0319351
-41.0012 48.8936 18.7639 0.326954 -0.944418 -0.0343051
-38.5439 49.741 18.8819 0.327319 -0.944299 -0.034088
-36.71 50.3735 18.9881 0.328258 -0.943943 -0.0349118
-34.6358 51.0897 19.0789 0.327116 -0.944421 -0.0326131
-32.8637 51.6952 19.1485 0.321792 -0.946282 -0.0316308
-31.0983 52.2883 19.19 0.313482 -0.949168 -0.0284431
-29.0509 52.9458 19.1803 0.297204 -0.954442 -0.026635
-27.1063 53.5461 19.1244 0.281692 -0.959331 -0.0182507
-25.0106 54.146 18.9711 0.263339 -0.964622 -0.0125458
-23.1498 54.6226 18.853 0.235581 -0.971754 -0.0139984
-21.1904 55.0783 18.7125 0.209215 -0.97785 -0.00621408
-19.2056 55.4884 18.5008 0.192206 -0.981303 -0.0100276
-16.7674 55.9305 18.2721 0.162659 -0.986639 -0.00922828
-14.8772 56.2276 18.1464 0.14016 -0.990126 -0.00230934
-13.0143 56.4793 18.1265 0.134167 -0.990954 -0.00298179
-11.1413 56.6955 18.2296 0.106688 -0.994241 0.0100994
-9.96392 56.8199 18.3287 0.0992372 -0.995014 0.0099498
-8.93216 56.9319 19.2319 0.096641 -0.995257 0.0111455
-10.7484 56.7452 19.1865 0.108091 -0.994125 0.00556883
-12.9804 56.484 19.0633 0.128088 -0.991762 0.00129014
-15.1373 56.1866 19.1029 0.14984 -0.988697 -0.00517006
-17.1763 55.8587 19.2561 0.161493 -0.986859 -0.00540015
-19.1855 55.4852 19.4301 0.18927 -0.981905 -0.00623536
-21.107 55.0889 19.6417 0.210972 -0.977461 -0.00783405
-22.8852 54.6774 19.7779 0.238216 -0.971143 -0.0115695
-24.9075 54.1612 19.8995 0.259718 -0.96555 -0.0161324
-27.009 53.5563 20.0472 0.286355 -0.958029 -0.013459
-29.1971 52.8845 20.1032 0.303376 -0.952668 -0.0196766
-31.0115 52.2895 20.1368 0.31627 -0.948394 -0.0228353
-32.9458 51.638 20.1004 0.324169 -0.945534 -0.0296632
-34.682 51.0399 20.0567 0.327117 -0.944421 -0.032616
-36.4572 50.4255 19.9825 0.328674 -0.943849 -0.0335082
-38.2662 49.8003 19.9068 0.327443 -0.944255 -0.0341082
-40.1902 49.1359 19.8355 0.327551 -0.944224 -0.033924
-42.2004 48.4469 19.6959 0.325052 -0.94517 -0.0315465
-44.1753 47.7723 19.5502 0.325153 -0.945152 -0.0310262
-46.0523 47.1302 19.4031 0.325871 -0.944954 -0.0294832
-47.1772 46.7445 19.3154 0.326617 -0.944684 -0.0299036
-47.7903 46.4995 20.3643 0.327082 -0.944541 -0.029318
-46.0584 47.0946 20.4724 0.325683 -0.945012 -0.0297061
-44.3298 47.6847 20.6126 0.324957 -0.94527 -0.0294352
-42.1955 48.4146 20.7241 0.324739 -0.945299 -0.0308998
-40.363 49.0426 20.8374 0.326549 -0.944647 -0.0317402
-38.3766 49.7264 20.9196 0.326671 -0.944601 -0.0318637
-36.533 50.3649 20.9612 0.328461 -0.943951 -0.0327066
-34.52 51.0631 21.0369 0.328659 -0.943919 -0.0316216
-32.5124 51.7557 21.0664 0.323436 -0.945764 -0.0303283
-30.5935 52.405 21.0778 0.317877 -0.947808 -0.0248013
-28.5757 53.0628 21.0143 0.300891 -0.953436 -0.0206031
-26.6944 53.6332 20.959 0.277058 -0.960677 -0.0184214
-24.7795 54.1755 20.8295 0.268199 -0.963281 -0.0125927
-22.9364 54.6536 20.7202 0.232493 -0.97252 -0.0123554
-21.1614 55.0748 20.585 0.219034 -0.975699 -0.00600384
-19.2014 55.4803 20.394 0.191152 -0.98156 0.00131561
-17.1773 55.8587 20.201 0.163296 -0.986568 -0.00416975
-15.1337 56.1846 20.0468 0.150972 -0.988538 6.25422e-06
-13.2024 56.4561 19.9955 0.130061 -0.991501 -0.00305048
-11.304 56.688 20.0684 0.114881 -0.993373 0.00348804
-9.4715 56.8864 20.1429 0.100891 -0.99484 0.0106605
-8.24869 57.0102 20.185 0.0998845 -0.994944 0.0104319
-6.88779 57.1602 21.0769 0.103296 -0.99456 0.0134354
-9.10219 56.9339 21.0812 0.101557 -0.994792 0.00862793
-11.3933 56.6807 20.9883 0.114648 -0.993401 0.00326634
-13.203 56.4531 20.9378 0.130065 -0.991501 -0.00305641
-15.0193 56.1998 20.989 0.149077 -0.988807 -0.0060579
-17.185 55.8486 21.16 0.165021 -0.986246 -0.00935997
-19.4199 55.4403 21.3469 0.197884 -0.980225 -0.000912737
-21.2147 55.0543 21.5219 0.228263 -0.973592 -0.00379554
-23.0086 54.6278 21.6651 0.240364 -0.970632 -0.00992833
-24.9304 54.1206 21.7779 0.268401 -0.963211 -0.0136023
-26.7728 53.5971 21.8985 0.280954 -0.959614 -0.014373
-28.5739 53.0418 21.9614 0.304195 -0.952368 -0.0214738
-30.5863 52.3825 22.0152 0.315393 -0.948623 -0.0253151
-32.4031 51.7655 22.0119 0.324662 -0.945394 -0.0287074
-34.6868 50.9731 22.0074 0.3288 -0.943917 -0.0302053
-36.6702 50.2826 21.9633 0.328434 -0.94399 -0.0318429
-38.4204 49.677 21.9354 0.326674 -0.9446 -0.0318592
-40.3909 49.0002 21.8396 0.325598 -0.945016 -0.0305063
-42.2027 48.3794 21.757 0.324574 -0.945398 -0.0295763
-44.1369 47.7181 21.6723 0.324629 -0.945411 -0.0285315
-46.0964 47.049 21.5422 0.325225 -0.945226 -0.0278618
-47.8905 46.4323 21.4977 0.326643 -0.944771 -0.026688
-48.0665 46.3716 21.4934 0.326544 -0.9448 -0.0268569
-49.4218 45.8743 22.5643 0.32747 -0.944576 -0.0232294
-47.4581 46.5501 22.637 0.326376 -0.944947 -0.0235132
-45.4414 47.2426 22.6596 0.323779 -0.945778 -0.0258911
-43.5392 47.8915 22.7492 0.323009 -0.946005 -0.0271856
-41.6281 48.5441 22.8192 0.32479 -0.945343 -0.0289439
-39.8819 49.1421 22.8686 0.325371 -0.945084 -0.0308083
-37.8535 49.8387 22.9611 0.32694 -0.944532 -0.0311354
-35.651 50.6058 22.9823 0.330162 -0.943471 -0.0292632
-33.9306 51.2064 22.9719 0.328763 -0.943975 -0.0287523
-31.911 51.9068 22.9632 0.325111 -0.945328 -0.0256536
-29.6224 52.6789 22.9337 0.317131 -0.948035 -0.0256513
-27.8771 53.2422 22.8717 0.301264 -0.953336 -0.0197421
-25.8891 53.8343 22.7772 0.272599 -0.961938 -0.0191039
-23.997 54.3563 22.6594 0.254187 -0.967012 -0.0166304
-21.9968 54.8645 22.5247 0.23182 -0.972729 -0.0075935
-20.0994 55.2987 22.3636 0.209486 -0.977807 -0.00298664
-18.0728 55.6893 22.2053 0.177949 -0.984031 -0.00417874
-16.222 56.0024 22.0429 0.158294 -0.987387 -0.00320134
-13.8355 56.3678 21.8888 0.137094 -0.990542 -0.0056525
-11.879 56.6208 21.9152 0.125154 -0.992134 -0.00251585
-10.0182 56.8387 21.9797 0.11064 -0.993855 0.00318196
-8.20539 57.0324 22.0003 0.10676 -0.99423 0.0104372
-6.20582 57.2476 22.0226 0.107956 -0.994022 0.0162721
-5.93872 57.2768 22.0361 0.10813 -0.993998 0.016583
-4.27398 57.4833 22.9431 0.121598 -0.992376 0.0200811
-6.32465 57.2487 22.9457 0.111328 -0.993729 0.0103838
-8.23665 57.0385 22.901 0.10858 -0.994057 0.00781065
-10.2184 56.8187 22.8916 0.11375 -0.993508 0.00159506
-12.2367 56.5756 22.8563 0.124769 -0.992183 0.00251341
-14.2817 56.2979 22.8678 0.143731 -0.989613 0.00258622
-16.3734 55.975 23.0221 0.158293 -0.987387 -0.00320137
-18.3288 55.6357 23.1798 0.175917 -0.984365 -0.00891105
-20.1338 55.2806 23.3113 0.205473 -0.978537 -0.015689
-22.1174 54.8265 23.4758 0.238704 -0.971015 -0.0122795
-23.9808 54.3479 23.5934 0.253278 -0.967374 -0.00619428
-25.8118 53.839 23.7113 0.273777 -0.96165 -0.0166044
-28.1033 53.1479 23.8186 0.305598 -0.951935 -0.0207431
-30.0789 52.5009 23.9052 0.315126 -0.948695 -0.0259568
-32.1708 51.7905 23.9126 0.327363 -0.944536 -0.0261682
-34.2011 51.0831 23.9401 0.329603 -0.943756 -0.0262173
-36.2473 50.3667 23.9752 0.330145 -0.943525 -0.0276682
-38.0678 49.7341 23.9464 0.325222 -0.945235 -0.0276041
-39.8865 49.1088 23.8883 0.323882 -0.94566 -0.0287736
-41.6758 48.4979 23.8488 0.322703 -0.94615 -0.0257451
-43.5298 47.8663 23.7909 0.322057 -0.946418 -0.0239062
-45.3349 47.251 23.7404 0.323266 -0.946019 -0.0234055
-47.1686 46.6224 23.726 0.325293 -0.945311 -0.0238945
-48.9262 46.0182 23.6521 0.326488 -0.944941 -0.0221975
-49.8423 45.7018 23.6489 0.327227 -0.944662 -0.0231378
-49.7508 45.7076 24.7567 0.326258 -0.945037 -0.0214694
-48.0305 46.3008 24.7592 0.325445 -0.945293 -0.0225293
-46.253 46.911 24.8101 0.325243 -0.945408 -0.0205266
-44.3604 47.5578 24.8248 0.321828 -0.946544 -0.0219548
-42.5321 48.1791 24.8514 0.322084 -0.946412 -0.0238043
-40.687 48.806 24.8958 0.321388 -0.9466 -0.0256402
-38.7561 49.4669 24.9361 0.326821 -0.944679 -0.0277356
-36.7594 50.1593 24.9633 0.329417 -0.943811 -0.0265457
-34.6208 50.9086 24.9306 0.329915 -0.943639 -0.0265021
-32.8813 51.5176 24.8839 0.329234 -0.943891 -0.0259605
-31.0868 52.1381 24.8609 0.324635 -0.945474 -0.0263093
-29.2897 52.741 24.8102 0.311345 -0.950042 -0.0220035
-27.3263 53.3778 24.7119 0.296654 -0.954789 -0.0193259
-25.5721 53.8933 24.6305 0.276971 -0.96078 -0.0137198
-23.5476 54.4521 24.5029 0.247601 -0.968797 -0.0111848
-21.6462 54.9283 24.3747 0.224296 -0.974489 -0.00797147
-19.7696 55.3439 24.2352 0.203708 -0.978973 -0.0106946
-17.8404 55.7178 24.1027 0.179887 -0.983685 0.00194005
-15.8704 56.0521 23.9518 0.153777 -0.988103 0.00238154
-13.9227 56.3521 23.8246 0.142723 -0.989762 0.000823786
-12.0275 56.605 23.8076 0.123874 -0.992294 0.00290254
-10.2242 56.8214 23.8364 0.113784 -0.993497 0.00417203
-8.05925 57.0639 23.819 0.111258 -0.993764 0.00735144
-6.09394 57.2853 23.8712 0.114397 -0.993354 0.0126969
-4.18731 57.5153 23.861 0.128337 -0.991476 0.0224592
-2.39261 57.7559 23.8914 0.144562 -0.988989 0.0316634
-0.315504 58.1281 24.9314 0.172193 -0.983853 0.0488093
-2.40776 57.7834 24.8714 0.143482 -0.989232 0.0288619
-4.48506 57.4929 24.778 0.1311 -0.99127 0.0139967
-6.33988 57.2684 24.7705 0.114395 -0.993354 0.0126953
-8.67988 57.0002 24.768 0.112932 -0.993588 0.0053838
-10.5083 56.791 24.7833 0.116775 -0.993155 0.00258226
-12.6559 56.5255 24.7742 0.12801 -0.991773 0.000310219
-14.5665 56.2559 24.8353 0.14789 -0.988978 0.00720367
-16.7605 55.9098 24.9756 0.168685 -0.98567 -0.000420306
-18.6414 55.5656 25.109 0.184682 -0.982797 -0.00140091
-20.8059 55.1091 25.2521 0.218699 -0.975791 -0.00145024
-22.7745 54.6384 25.3962 0.240842 -0.970511 -0.0101832
-24.6164 54.1565 25.4891 0.272643 -0.962047 -0.0114482
-26.524 53.5975 25.6128 0.282936 -0.958943 -0.0193768
-28.3691 53.0229 25.6926 0.310255 -0.950535 -0.0150337
-30.1811 52.4235 25.7874 0.318643 -0.947634 -0.0213817
-32.1026 51.7642 25.8347 0.328569 -0.944196 -0.0231812
-34.7315 50.8433 25.9029 0.330272 -0.943539 -0.0255787
-36.5944 50.1885 25.9533 0.330507 -0.943403 -0.0275117
-38.3382 49.5818 25.9527 0.327212 -0.944553 -0.0274354
-40.2246 48.9344 25.931 0.322433 -0.946242 -0.0257603
-38.9252 49.3509 26.9701 0.325287 -0.945271 -0.0255049
-37.0831 49.9898 26.953 0.328784 -0.944054 -0.0257612
-35.3566 50.597 26.9027 0.332236 -0.942882 -0.0243529
-33.6025 51.2148 26.8293 0.330843 -0.943397 -0.0233238
-31.8382 51.8336 26.7833 0.328408 -0.944329 -0.0197882
-29.9767 52.4717 26.7209 0.319051 -0.947586 -0.0169761
-28.2495 53.0439 26.6272 0.306552 -0.951583 -0.0227038
-26.3831 53.6225 26.5298 0.284994 -0.958374 -0.0172547
-24.6064 54.1398 26.4224 0.272625 -0.961875 -0.0217436
-22.686 54.6506 26.3204 0.240852 -0.970508 -0.0101931
-20.898 55.087 26.2057 0.22595 -0.97411 -0.00753279
-19.0517 55.4819 26.0848 0.200946 -0.979598 -0.00280842
-17.059 55.8583 25.9623 0.17056 -0.985347 -0.00112971
-15.2495 56.1572 25.8452 0.154197 -0.988037 0.00235735
-13.3557 56.4301 25.7605 0.135545 -0.990771 -0.00118478
-11.2463 56.7047 25.7347 0.120532 -0.992705 0.00306302
-9.06167 56.962 25.7167 0.114545 -0.99341 0.00388214
-7.11697 57.1868 25.7036 0.116398 -0.993152 0.0100117
-5.25108 57.4107 25.7008 0.12272 -0.992359 0.0128012
-3.04289 57.7125 25.8217 0.144291 -0.989363 0.018466
-0.707052 58.0977 25.8704 0.17288 -0.98456 0.0274726
1.31743 58.5266 25.9127 0.230962 -0.971756 0.0484361
2.02751 58.6931 25.8859 0.229694 -0.972145 0.0466235
3.59597 59.179 26.7382 0.332868 -0.941938 0.044171
1.5055 58.6057 26.7898 0.237856 -0.970899 0.0279036
-0.354471 58.201 26.7833 0.190134 -0.981226 0.0323333
-2.67599 57.7843 26.7893 0.158623 -0.987174 0.0180636
-4.72965 57.4888 26.6676 0.13448 -0.990798 0.0153411
-6.80494 57.2336 26.6355 0.120039 -0.992699 0.0118487
-8.68324 57.0116 26.6567 0.116134 -0.993205 0.00750872
-10.6466 56.78 26.6934 0.118911 -0.992892 0.00499612
-12.5883 56.534 26.711 0.132068 -0.991241 -2.06827e-05
-14.4312 56.2777 26.7823 0.144138 -0.989557 -0.00147178
-16.4271 55.9616 26.8831 0.165852 -0.986129 -0.00652282
-18.4058 55.608 27.0055 0.194398 -0.980887 -0.00835473
-20.3503 55.2055 27.119 0.216655 -0.976238 -0.00454967
-22.1265 54.7841 27.2147 0.233618 -0.972316 -0.00496329
-24.1271 54.2594 27.3364 0.269078 -0.963068 -0.00984474
-26.0505 53.7077 27.437 0.284641 -0.958528 -0.0142963
-28.0272 53.0993 27.542 0.307283 -0.951476 -0.0164445
-30.0613 52.4259 27.6691 0.319053 -0.947561 -0.0182551
-31.8012 51.8255 27.7359 0.329706 -0.943853 -0.0208653
-33.5577 51.2078 27.7943 0.332521 -0.942851 -0.0215102
-35.273 50.6017 27.8773 0.332635 -0.94275 -0.0240235
-37.0085 49.9897 27.9478 0.329926 -0.943687 -0.0245555
-38.2244 49.5654 27.9746 0.326916 -0.944636 -0.0280753
-37.28 49.8685 28.9525 0.32976 -0.943745 -0.0245736
-35.4613 50.5113 28.8696 0.332392 -0.942909 -0.0209573
-33.7118 51.132 28.7683 0.333694 -0.942509 -0.0180276
-31.9664 51.7475 28.6908 0.329761 -0.943892 -0.0180495
-30.174 52.3676 28.6033 0.323298 -0.946085 -0.0200097
-28.1826 53.0322 28.4827 0.310073 -0.950606 -0.0142249
-26.4077 53.5902 28.3944 0.289429 -0.957117 -0.0125628
-24.4315 54.1656 28.2888 0.267415 -0.963534 -0.00952619
-22.5211 54.685 28.1731 0.263824 -0.964567 -0.00262482
-20.2522 55.2215 28.0616 0.225474 -0.974238 -0.00472764
-18.3925 55.6047 27.9656 0.189103 -0.981947 -0.00449203
-16.1732 56.0047 27.8376 0.167816 -0.985813 0.00327651
-14.1926 56.3123 27.7479 0.146662 -0.989187 0.000204339
-12.3435 56.5668 27.6817 0.129903 -0.991525 0.00207533
-10.3212 56.8235 27.6484 0.122509 -0.992458 0.00426696
-8.22482 57.0742 27.5994 0.118974 -0.992871 0.00722317
-5.98158 57.3443 27.5637 0.120042 -0.992698 0.0118515
-3.94593 57.6111 27.6918 0.134734 -0.990709 0.0184992
-1.85922 57.9415 27.7461 0.173084 -0.984667 0.0217263
0.122257 58.321 27.708 0.214497 -0.976178 0.0326803
1.89805 58.7353 27.676 0.252903 -0.967135 0.0262595
3.75367 59.2687 27.5994 0.313917 -0.948469 0.0431609
5.51769 59.9224 27.4436 0.377732 -0.924822 0.0449805
7.84843 61.2013 28.0213 0.521461 -0.852901 0.0252773
6.13531 60.2641 28.2422 0.456688 -0.887864 0.0559819
4.37332 59.5219 28.3964 0.332023 -0.942287 0.043072
2.45602 58.9096 28.5222 0.284178 -0.958149 0.0345369
0.424907 58.4093 28.6218 0.219739 -0.975246 0.0246784
-1.75963 57.9797 28.6836 0.177482 -0.98398 0.016853
-3.81063 57.6479 28.6361 0.13573 -0.990602 0.0168931
-5.82865 57.3752 28.5437 0.128618 -0.991618 0.0122807
-8.01501 57.1071 28.5516 0.121137 -0.992584 0.0101232
-10.0196 56.8652 28.6002 0.120541 -0.992695 0.00517063
-12.1014 56.6014 28.6506 0.130051 -0.991489 0.00609358
-14.1871 56.3126 28.7283 0.147965 -0.988992 -0.00105389
-16.4547 55.9582 28.8314 0.160095 -0.987101 -0.00122194
-18.3776 55.6112 28.9229 0.195031 -0.980795 0.00203792
-20.5408 55.1511 29.0277 0.220009 -0.975482 -0.00561149
-22.4333 54.7064 29.1176 0.247303 -0.968878 -0.0108011
-24.3073 54.1939 29.2176 0.2711 -0.962541 -0.00439534
-26.6011 53.5154 29.3395 0.291111 -0.956535 -0.0171613
-28.3954 52.9479 29.4301 0.309535 -0.950761 -0.0155444
-30.7183 52.1648 29.564 0.323817 -0.946018 -0.013868
-32.4496 51.5609 29.6647 0.332933 -0.942803 -0.0166636
-34.2602 50.9187 29.7708 0.333698 -0.942508 -0.0180285
-36.0254 50.2891 29.8862 0.334446 -0.942164 -0.0217624
-37.0591 49.9217 29.9387 0.33397 -0.94229 -0.0235221
-36.7436 50.0112 30.9206 0.335878 -0.941678 -0.0207047
-34.9825 50.6413 30.8 0.337453 -0.941185 -0.0172072
-33.2456 51.2621 30.6653 0.334171 -0.942378 -0.0159436
-31.2994 51.9498 30.5383 0.327527 -0.944722 -0.0150612
-29.5221 52.5572 30.4275 0.318457 -0.947895 -0.00899534
-27.6003 53.194 30.3235 0.300996 -0.953507 -0.0150135
-25.5433 53.8239 30.212 0.288952 -0.957298 -0.0093189
-23.5913 54.3898 30.117 0.266345 -0.963852 -0.00702198
-21.175 54.9999 30.0067 0.227871 -0.97368 -0.00464587
-19.3297 55.4164 29.924 0.205837 -0.978586 -0.000321178
-17.2208 55.8272 29.8291 0.180211 -0.983628 -0.000299417
-14.9882 56.1954 29.7345 0.15969 -0.987148 0.00620577
-13.1744 56.464 29.6618 0.137858 -0.990442 0.00453228
-11.1637 56.7279 29.5928 0.125019 -0.992132 0.00669652
-9.01157 56.995 29.5393 0.121144 -0.99259 0.00949338
-7.17493 57.2198 29.511 0.122782 -0.992367 0.0114748
-5.3675 57.4504 29.5385 0.134048 -0.990924 0.01002
-3.29776 57.74 29.609 0.149775 -0.988478 0.0218777
-0.962058 58.1466 29.588 0.192567 -0.981047 0.0215687
1.11677 58.5835 29.4852 0.218334 -0.975713 0.0177319
2.98639 59.1098 29.3344 0.307657 -0.950909 0.0334572
4.95752 59.7845 29.2003 0.356807 -0.932119 0.0619845
6.78799 60.6397 29.0196 0.463645 -0.885403 0.0330925
8.43336 61.575 28.7927 0.533179 -0.845832 0.0169655
10.1438 62.7639 28.5839 0.58893 -0.808183 0.00113185
10.933 63.3385 28.4906 0.59071 -0.806867 -0.00523319
-50.9446 45.2707 25.8552 0.326106 -0.94509 -0.0214241
-49.126 45.8977 25.888 0.326326 -0.945015 -0.0213882
-47.3725 46.5027 25.8857 0.325778 -0.94524 -0.0197734
-47.183 46.568 25.8819 0.325116 -0.945469 -0.0197069
-48.9801 45.9226 27.0254 0.327031 -0.944793 -0.0204035
-50.7641 45.3072 26.9894 0.326145 -0.945076 -0.0214764
-51.0744 45.2005 26.9743 0.325777 -0.945201 -0.0215507
-51.0635 45.1767 28.1748 0.32575 -0.945205 -0.0217619
-49.6331 45.6698 28.2147 0.326843 -0.944836 -0.0214397
-50.6629 45.2854 29.4158 0.32683 -0.944813 -0.0225972
-50.8062 45.2359 29.4165 0.325579 -0.945238 -0.0228763
-36.5565 50.0568 31.9162 0.336666 -0.941456 -0.0177737
-34.52 50.79 31.7278 0.336468 -0.941578 -0.0148247
-32.4278 51.5373 31.5616 0.332247 -0.943109 -0.0125735
-30.1463 52.3357 31.3964 0.323374 -0.946195 -0.0120282
-28.1193 53.0154 31.2834 0.314331 -0.949253 -0.0107267
-25.9969 53.6774 31.1657 0.288721 -0.957364 -0.0096806
-23.8222 54.3122 31.0654 0.273737 -0.961715 -0.0131475
-21.7262 54.8624 30.9747 0.228125 -0.973557 -0.0120346
-19.6508 55.3396 30.8886 0.218022 -0.975912 -0.00788393
-17.4769 55.7769 30.8012 0.175874 -0.984389 -0.00688992
-15.3364 56.1429 30.7186 0.157461 -0.98752 -0.00330058
-13.2343 56.4588 30.6315 0.13442 -0.990925 1.79056e-05
-11.0373 56.7505 30.5578 0.125602 -0.992061 0.00629697
-8.85882 57.0232 30.5096 0.122203 -0.992463 0.00919071
-6.73946 57.2851 30.4871 0.124018 -0.992204 0.0122939
-4.3398 57.6029 30.5404 0.142328 -0.989696 0.0156592
-2.15209 57.9397 30.5581 0.165712 -0.985897 0.0233689
0.00858345 58.3614 30.448 0.20603 -0.978244 0.0243048
2.22156 58.9053 30.2618 0.263743 -0.964192 0.0278061
4.36299 59.584 30.0865 0.350996 -0.93625 0.015391
6.44079 60.4925 29.9088 0.454351 -0.890105 0.0357459
8.46817 61.6143 29.6557 0.533184 -0.845829 0.0169658
10.4038 62.9546 29.4429 0.588928 -0.808185 0.00113001
12.3971 64.3644 29.2453 0.561856 -0.827211 -0.00635979
14.5744 65.7338 29.0214 0.508312 -0.861124 -0.00921486
16.1895 66.5176 28.8811 0.399951 -0.91615 0.0266051
15.0024 65.9788 29.9035 0.454677 -0.89047 0.0182212
13.0617 64.8169 30.0802 0.545841 -0.837889 -0.000429462
11.3114 63.6216 30.2543 0.582398 -0.812752 0.0156827
9.38976 62.2564 30.4541 0.569599 -0.821411 0.0289798
7.49997 61.0881 30.6499 0.514044 -0.856812 0.0403824
5.15898 59.928 30.8721 0.390327 -0.919548 0.0455649
3.01775 59.1608 31.0579 0.288757 -0.957305 0.0136383
0.766411 58.5575 31.2833 0.221744 -0.974464 0.0353438
-1.61855 58.0573 31.459 0.172364 -0.984917 0.015138
-3.75679 57.7097 31.5028 0.151806 -0.9882 0.020394
-6.02393 57.3918 31.4697 0.131825 -0.991124 0.0172023
-8.48803 57.0793 31.4832 0.123258 -0.992301 0.0120983
-10.8816 56.7756 31.5272 0.126824 -0.991899 0.00720292
-13.3608 56.4413 31.6031 0.140922 -0.990021 -0.000387413
-15.7466 56.0718 31.7001 0.163159 -0.986569 -0.00779873
-17.8511 55.7033 31.775 0.180472 -0.983551 -0.00754963
-20.1031 55.2334 31.8536 0.214694 -0.976672 -0.00435456
-22.4942 54.663 31.9507 0.243082 -0.969959 -0.00950591
-24.8124 54.0199 32.0411 0.278284 -0.960442 -0.0104118
-26.9767 53.3656 32.1497 0.301097 -0.953518 -0.0119835
-29.0225 52.7037 32.2634 0.316778 -0.948472 -0.00728763
-31.1302 51.9818 32.4042 0.330637 -0.943689 -0.0114533
-33.2482 51.232 32.5777 0.336006 -0.941757 -0.0138838
-35.2442 50.5135 32.7674 0.338959 -0.94069 -0.0144703
-36.0784 50.2117 32.8616 0.337868 -0.941039 -0.0170488
-36.9645 49.878 33.9751 0.338943 -0.940742 -0.0110801
-34.8269 50.6512 33.7112 0.338806 -0.94078 -0.0120213
-32.4704 51.4981 33.468 0.336137 -0.941745 -0.0112919
-30.2933 52.2628 33.2694 0.325284 -0.945559 -0.0104486
-28.1476 52.9831 33.1515 0.307417 -0.951497 -0.012193
-26.0432 53.6463 33.0361 0.285209 -0.958382 -0.0126773
-23.8053 54.2986 32.9378 0.268178 -0.963367 -0.00219516
-21.6134 54.8698 32.8553 0.233354 -0.972368 -0.00683329
-19.436 55.3737 32.7749 0.212955 -0.977015 -0.00958225
-17.3211 55.7923 32.7106 0.175864 -0.984399 -0.00557018
-14.6456 56.2452 32.6225 0.154459 -0.987977 0.00663332
-12.4251 56.5751 32.5496 0.138133 -0.9904 0.0051482
-10.2075 56.8714 32.4828 0.127796 -0.991754 0.00959293
-7.94066 57.1595 32.4643 0.126443 -0.99192 0.0103602
-5.82102 57.4355 32.4589 0.131956 -0.991135 0.0154318
-3.49298 57.7659 32.4478 0.14998 -0.988591 0.0138931
-1.29694 58.1274 32.3597 0.187558 -0.982105 0.0170765
0.911993 58.6085 32.1522 0.238552 -0.970977 0.0172423
3.49289 59.3161 31.8967 0.293269 -0.955914 0.0148836
5.5187 60.0949 31.7325 0.425352 -0.904782 0.0210802
7.50488 61.1262 31.5312 0.504672 -0.862619 0.0345661
9.52665 62.3867 31.3428 0.563642 -0.825053 0.0399417
11.2647 63.6145 31.1743 0.580468 -0.813793 0.0282383
12.9869 64.7948 31.002 0.55103 -0.833898 0.0313099
10.216 62.9127 32.1798 0.575011 -0.817095 0.0414556
8.17667 61.5555 32.362 0.524833 -0.850795 0.0264231
6.23266 60.4708 32.5505 0.459995 -0.886725 0.0460816
3.96088 59.4892 32.7195 0.332993 -0.942853 0.0119915
1.58047 58.7967 33.0147 0.264547 -0.964192 0.0186579
-0.736461 58.2538 33.1895 0.203886 -0.9789 0.0136281
-3.11767 57.8362 33.4038 0.148207 -0.9889 0.0105285
-5.27892 57.523 33.4435 0.136599 -0.990497 0.0159934
-7.79365 57.1892 33.4409 0.128001 -0.991679 0.0137367
-9.93022 56.9166 33.468 0.126729 -0.991892 0.00952746
-12.1384 56.6207 33.501 0.139153 -0.990252 0.00616599
-14.6326 56.2533 33.5895 0.152628 -0.988274 0.00434563
-16.7814 55.8862 33.6546 0.176487 -0.984303 -0.000269194
-18.8767 55.4844 33.7091 0.197178 -0.980368 0.000544579
-21.2143 54.9606 33.7829 0.230862 -0.97298 -0.00346866
-23.5358 54.3706 33.8722 0.267265 -0.963617 -0.00344408
-25.6161 53.765 33.9561 0.285568 -0.958339 -0.00610744
-28.2698 52.9338 34.0943 0.307976 -0.951352 -0.00898434
-30.3719 52.2252 34.2195 0.32753 -0.94479 -0.00979965
-32.3849 51.5185 34.4193 0.335628 -0.941948 -0.00935976
-34.3935 50.7958 34.6462 0.339231 -0.940658 -0.00921524
-36.4058 50.0675 34.9204 0.337937 -0.941105 -0.0110086
-36.9014 49.8888 34.9824 0.338944 -0.940741 -0.0110802
-37.6602 49.6049 36.0972 0.338842 -0.940807 -0.00821429
-35.5367 50.3718 35.8002 0.339166 -0.940696 -0.0075525
-33.2547 51.1973 35.4775 0.337292 -0.941359 -0.00882266
-31.1767 51.9358 35.2355 0.327359 -0.94485 -0.00969242
-29.1658 52.6291 35.0815 0.316596 -0.948495 -0.0111009
-27.095 53.3026 34.9724 0.299828 -0.953938 -0.0102925
-24.5702 54.07 34.858 0.27798 -0.960553 -0.00809186
-22.4562 54.6518 34.7692 0.254925 -0.966935 -0.00706743
-20.2423 55.1873 34.685 0.228532 -0.973536 0.00100378
-18.1533 55.6281 34.6393 0.193491 -0.98109 -0.00484362
-15.8689 56.0482 34.5898 0.174267 -0.984698 -0.0013086
-13.6793 56.4003 34.5151 0.148611 -0.988896 0.000446623
-11.5045 56.7145 34.441 0.135036 -0.990827 0.00512714
-9.3215 57.0034 34.44 0.129394 -0.99157 0.00684039
-6.71685 57.3395 34.4047 0.130942 -0.991336 0.0103699
-4.23589 57.6807 34.4107 0.139809 -0.99013 0.00984486
-2.08124 58.022 34.2704 0.17449 -0.984538 0.0154387
0.232163 58.4832 34.0049 0.240897 -0.970266 0.0235064
2.60965 59.0994 33.84 0.264113 -0.964107 0.0272339
5.07224 59.9803 33.5183 0.391393 -0.919638 0.032821
7.14235 60.9897 33.3505 0.462668 -0.885018 0.0517838
7.32132 61.0859 33.3355 0.502089 -0.864394 0.0270045
5.48981 60.1723 34.3655 0.408891 -0.912284 0.0233626
3.47768 59.3929 34.6152 0.323763 -0.944896 0.0484573
1.39977 58.7961 34.8278 0.27125 -0.962286 0.0206973
-0.992717 58.2298 35.0953 0.21562 -0.976248 0.0211683
-3.10163 57.8568 35.3011 0.153769 -0.988016 0.0134062
-5.49111 57.5143 35.3881 0.135117 -0.990769 0.0109475
-7.79528 57.209 35.3924 0.129452 -0.991553 0.00808358
-10.0579 56.9132 35.4068 0.131709 -0.991268 0.00634315
-12.1739 56.623 35.4219 0.141146 -0.989985 0.00267368
-14.5239 56.2709 35.5017 0.155518 -0.987822 -0.00460343
-16.8787 55.8643 35.5601 0.186796 -0.982378 -0.00633341
-19.1508 55.4169 35.6019 0.205175 -0.97872 -0.00312509
-21.4352 54.9021 35.6728 0.232009 -0.972621 -0.0134423
-23.6598 54.3147 35.778 0.271224 -0.962422 -0.0134357
-25.7332 53.7123 35.8536 0.289557 -0.957116 -0.00923856
-27.9608 53.0145 35.9517 0.308245 -0.951288 -0.00601721
-30.2819 52.2382 36.1048 0.326102 -0.945304 -0.00758835
-32.369 51.5074 36.3241 0.331783 -0.943338 -0.00569065
-34.5991 50.7033 36.6502 0.339592 -0.940542 -0.00756874
-36.6586 49.9597 36.9546 0.338786 -0.940837 -0.0070458
-38.1908 49.4083 37.1789 0.337259 -0.941397 -0.00538784
-39.7776 48.8364 38.4366 0.334936 -0.942239 -0.00184615
-37.5113 49.6476 38.083 0.336907 -0.941532 -0.00330452
-35.3325 50.4313 37.7678 0.338707 -0.940883 -0.0040293
-33.2191 51.1941 37.4166 0.338443 -0.940965 -0.0064288
-31.1537 51.9272 37.1383 0.328332 -0.944534 -0.00732716
-28.7023 52.7653 36.9329 0.312145 -0.949998 -0.00836135
-26.58 53.4459 36.82 0.292938 -0.956102 -0.00747971
-24.0809 54.1833 36.7363 0.273849 -0.961712 -0.0108311
-21.9011 54.7747 36.638 0.24549 -0.969271 -0.0157403
-19.6266 55.309 36.5622 0.211086 -0.977424 -0.00917543
-17.4421 55.7527 36.5127 0.188661 -0.982035 -0.00380076
-15.3154 56.1373 36.4705 0.165008 -0.986291 -0.00142489
-12.9821 56.5097 36.4015 0.151673 -0.988426 0.00311441
-10.4265 56.87 36.3475 0.134455 -0.990909 0.00456083
-8.28949 57.1523 36.377 0.130357 -0.991429 0.0087162
-6.15539 57.4355 36.3461 0.132828 -0.991082 0.0106558
-3.85859 57.7561 36.302 0.147327 -0.98901 0.0123999
-1.76914 58.0992 36.1031 0.1843 -0.982809 0.0109239
0.439411 58.5721 35.834 0.236284 -0.9716 0.012764
2.32716 59.0749 35.6383 0.271255 -0.962285 0.0206972
-0.43328 58.3866 36.8938 0.209509 -0.977789 0.00581563
-2.64688 57.9518 37.1533 0.155728 -0.987741 0.010832
-5.0255 57.5994 37.2778 0.135759 -0.990708 0.0082202
-7.13469 57.3126 37.2865 0.132898 -0.991101 0.00756213
-9.65093 56.9802 37.318 0.132793 -0.991124 0.00620963
-11.9832 56.6589 37.3303 0.141096 -0.989974 0.00665626
-14.4024 56.2873 37.3838 0.163091 -0.98661 -0.00166262
-16.6695 55.8948 37.4339 0.184683 -0.982792 -0.00344424
-18.8364 55.4706 37.4924 0.209663 -0.977758 -0.00546003
-21.202 54.9348 37.5571 0.238583 -0.971087 -0.00826345
-23.2986 54.3934 37.6515 0.257587 -0.966155 -0.0139194
-25.6864 53.7074 37.7234 0.281572 -0.959441 -0.0137716
-27.8169 53.0447 37.8161 0.305868 -0.952005 -0.0114259
-29.9761 52.3285 37.9855 0.325754 -0.945425 -0.00749369
-32.4378 51.4671 38.2594 0.332811 -0.942967 -0.00700639
-34.7508 50.6369 38.646 0.33768 -0.941253 -0.00389478
-36.8299 49.8884 38.974 0.337501 -0.941321 -0.00294074
-38.924 49.1391 39.3122 0.335992 -0.941863 -0.00172779
-40.9426 48.423 39.6449 0.331642 -0.943404 -0.00135703
-43.1172 47.664 40.0165 0.326797 -0.94509 -0.00288429
-45.4047 46.8735 40.4055 0.325317 -0.945589 -0.00540943
-47.4758 46.1591 40.7788 0.323545 -0.946173 -0.00863569
-49.1973 45.5649 41.1044 0.325221 -0.945588 -0.00967826
-47.8397 46.0247 41.9664 0.325822 -0.945403 -0.00729984
-45.8363 46.7176 41.584 0.326398 -0.945219 -0.0051173
-43.5453 47.5121 41.1677 0.327666 -0.944785 -0.00412133
-41.4814 48.232 40.7666 0.331332 -0.943513 -0.00157787
-39.2606 49.0172 40.3938 0.335213 -0.942142 -0.00114987
-37.1043 49.7874 40.0287 0.336261 -0.941767 -0.00179961
-34.6691 50.6623 39.6094 0.33768 -0.941253 -0.00389655
-32.6228 51.3942 39.2728 0.334132 -0.942502 -0.00672852
-30.2169 52.2369 38.9882 0.324794 -0.945745 -0.00871517
-28.0701 52.9532 38.7886 0.307077 -0.951677 -0.00394015
-25.6187 53.7161 38.667 0.281826 -0.959441 -0.00685398
-23.2546 54.3891 38.5834 0.260693 -0.965309 -0.0147345
-21.0212 54.9688 38.501 0.235389 -0.971845 -0.0104647
-18.9264 55.4454 38.441 0.207776 -0.978142 -0.00823693
-16.7448 55.8774 38.3754 0.185496 -0.982642 -0.00252667
-14.4449 56.279 38.3139 0.163997 -0.986458 -0.0024627
-12.1188 56.6411 38.2806 0.14676 -0.989164 -0.00391117
-9.48839 57.007 38.2689 0.134994 -0.990834 0.00492406
-7.21269 57.3095 38.2253 0.131791 -0.991253 0.00693681
-4.93522 57.6195 38.2039 0.136458 -0.990617 0.00752493
-3.51779 57.827 38.1431 0.149836 -0.98871 0.00107115
-5.26568 57.5787 39.13 0.135124 -0.990825 0.00269544
-7.57925 57.266 39.1631 0.131355 -0.991322 0.00518882
-9.72322 56.9785 39.2203 0.136128 -0.990689 0.00232329
-11.9585 56.6629 39.2064 0.148113 -0.988969 -0.00160249
-14.4383 56.2802 39.2461 0.160809 -0.986985 -0.00064965
-16.6035 55.8999 39.3106 0.185025 -0.982715 -0.00607712
-18.8466 55.4526 39.3821 0.204855 -0.978736 -0.0105404
-21.3726 54.8694 39.4625 0.241796 -0.970228 -0.0138589
-23.5376 54.3024 39.5315 0.264052 -0.964461 -0.00957783
-25.7826 53.6611 39.6231 0.286973 -0.957901 -0.00850404
-28.2003 52.9054 39.7565 0.303553 -0.952801 -0.00501121
-30.2223 52.2266 39.9613 0.325749 -0.945435 -0.00634195
-32.4181 51.4624 40.2096 0.332507 -0.943091 -0.00428998
-34.9479 50.5586 40.6568 0.337332 -0.94138 -0.00323392
-37.2331 49.7392 41.0735 0.336415 -0.941711 -0.00238002
-39.3609 48.9807 41.4456 0.334529 -0.942384 -0.00136472
-41.5992 48.1885 41.8324 0.331773 -0.943357 -0.00214783
-43.7524 47.4361 42.2553 0.328043 -0.944656 -0.0036233
-46.02 46.6477 42.7088 0.326849 -0.94506 -0.00566722
-47.0628 46.2856 42.9358 0.32669 -0.945114 -0.00579934
-45.8503 46.7006 43.7573 0.32783 -0.944723 -0.00511934
-43.8348 47.4032 43.3551 0.328827 -0.944387 -0.00260313
-41.6046 48.1845 42.8866 0.331894 -0.943315 -0.00161235
-39.5963 48.8949 42.5272 0.334554 -0.942375 -0.00162978
-37.6009 49.6052 42.1739 0.335536 -0.942026 -0.00152358
-35.6162 50.3159 41.8029 0.337049 -0.941484 -0.00230581
-33.6462 51.0224 41.4153 0.337305 -0.941389 -0.00346748
-31.6025 51.7424 41.0724 0.328841 -0.944371 -0.00519084
-29.3591 52.5175 40.8412 0.321699 -0.946803 -0.00862918
-27.0445 53.265 40.6346 0.296862 -0.954873 -0.00954432
-24.7652 53.9481 40.5241 0.278448 -0.960415 -0.00836872
-22.3192 54.6214 40.4408 0.259267 -0.965757 -0.00969112
-20.0666 55.1748 40.3607 0.228929 -0.973374 -0.0115944
-17.9807 55.6194 40.2982 0.198319 -0.98012 -0.00580744
-15.8129 56.0437 40.2264 0.187765 -0.982192 -0.00650164
-13.3664 56.4504 40.1636 0.154429 -0.987998 -0.00337531
-11.1203 56.7851 40.1207 0.141145 -0.989987 -0.00170872
-8.81033 57.1047 40.1247 0.133766 -0.99101 0.00226254
-7.11201 57.3314 40.0805 0.132036 -0.991241 0.0026025
-8.82887 57.1035 41.0535 0.135303 -0.990803 0.00142525
-11.247 56.7643 41.0615 0.143142 -0.989701 -0.00146613
-13.6432 56.4024 41.0927 0.156613 -0.987649 -0.00463513
-15.8722 56.0285 41.1748 0.191715 -0.981441 -0.00437464
-18.2863 55.5457 41.2445 0.205649 -0.978505 -0.0153572
-20.5224 55.0578 41.3202 0.233853 -0.972225 -0.00957719
-22.8114 54.4795 41.4025 0.25942 -0.965714 -0.00991109
-25.0459 53.8574 41.491 0.278887 -0.960273 -0.00988532
-27.4804 53.1203 41.6299 0.298067 -0.954515 -0.00751733
-29.6666 52.4048 41.8301 0.322346 -0.946597 -0.00686596
-32.0245 51.5893 42.1064 0.330343 -0.943854 -0.00361953
-34.4388 50.7353 42.5856 0.336665 -0.94162 -0.00285911
-36.4922 50 43.0096 0.336928 -0.941529 -0.00149118
-38.9844 49.1109 43.4641 0.334769 -0.942299 -0.00137408
-41.0669 48.372 43.8522 0.332459 -0.943117 -0.00137322
-43.1822 47.6285 44.2864 0.330426 -0.94383 -0.00197722
-44.5974 47.1329 44.5746 0.329355 -0.9442 -0.00355078
-43.3057 47.5823 45.3737 0.330941 -0.943647 -0.00283957
-41.2542 48.3046 44.9479 0.33287 -0.942972 -0.00113778
-39.2215 49.0251 44.5708 0.335338 -0.942096 -0.00160035
-37.1267 49.7715 44.1709 0.335989 -0.941865 -0.00111054
-35.0458 50.5159 43.7239 0.336245 -0.941773 -0.0018253
-32.8163 51.3074 43.2274 0.330856 -0.943672 -0.00417264
-30.4034 52.149 42.8911 0.327297 -0.944911 -0.00440535
-28.0946 52.9226 42.644 0.304634 -0.952463 -0.00353893
-25.6074 53.6842 42.472 0.283522 -0.958907 -0.0105704
-23.2937 54.3411 42.3695 0.260046 -0.965569 -0.00732627
-21.2112 54.879 42.2897 0.238018 -0.971203 -0.0106064
-19.0314 55.3817 42.1975 0.214123 -0.976791 -0.005575
-16.4449 55.9118 42.1342 0.19308 -0.98115 -0.00808563
-14.0493 56.3343 42.0333 0.164126 -0.986439 -0.00112361
-11.8819 56.6726 41.9954 0.146478 -0.989208 0.00346184
-10.3637 56.8922 41.9863 0.137996 -0.99043 0.0021933
-12.4658 56.5876 42.9104 0.152653 -0.988278 -0.00170075
-14.7448 56.2177 42.9985 0.164713 -0.986336 0.00319151
-17.2426 55.7475 43.0758 0.191506 -0.981483 -0.00397212
-19.4441 55.2839 43.1455 0.21774 -0.975989 -0.00583952
-21.5627 54.7795 43.2428 0.240924 -0.970519 -0.00689904
-23.6889 54.2241 43.339 0.267862 -0.963418 -0.00872436
-25.8565 53.6028 43.44 0.284156 -0.958763 -0.00534137
-28.0594 52.9267 43.6145 0.30238 -0.953141 -0.00939548
-30.2944 52.1805 43.8541 0.321316 -0.946948 -0.00671902
-32.7561 51.3263 44.2051 0.331338 -0.943511 -0.00139047
-34.759 50.6173 44.6854 0.335996 -0.941863 -0.00117026
-36.7345 49.9108 45.1245 0.336506 -0.941681 -0.00114842
-38.8408 49.159 45.5451 0.33563 -0.941993 -0.00134711
-40.954 48.4089 45.9535 0.333139 -0.942877 -0.00150056
-42.2099 47.9655 46.1994 0.332596 -0.943068 -0.00179314
-40.5146 48.5629 46.9305 0.333594 -0.942716 -0.0015737
-38.4119 49.3107 46.4936 0.335506 -0.942037 -0.00111448
-36.214 50.0957 46.055 0.33671 -0.941608 -0.00107092
-34.0693 50.8614 45.5334 0.333976 -0.942582 -0.000290702
-32.0625 51.5682 45.0657 0.327119 -0.944981 -0.00206674
-29.6125 52.4076 44.7514 0.321699 -0.946836 -0.0032796
-27.5202 53.089 44.5445 0.30264 -0.953072 -0.00787723
-25.0217 53.8394 44.3719 0.281709 -0.959499 -0.000863173
-22.9243 54.4255 44.2551 0.255559 -0.966778 -0.0054397
-20.846 54.9498 44.1439 0.232682 -0.972535 -0.00587085
-18.3472 55.5174 44.0297 0.209302 -0.977827 -0.00685804
-15.6036 56.0576 43.9541 0.187468 -0.98225 -0.00637959
-13.9254 56.3576 43.8923 0.162774 -0.986631 0.00794
-15.9088 55.9962 44.8815 0.186791 -0.982394 -0.0034322
-18.3767 55.5052 44.965 0.209935 -0.977699 -0.00569154
-20.5963 55.0051 45.0651 0.23394 -0.972246 -0.00302844
-22.7198 54.4743 45.1934 0.2552 -0.966876 -0.00486735
-24.9987 53.8479 45.3614 0.275598 -0.961273 -0.00031485
-27.395 53.1215 45.5328 0.299574 -0.954059 -0.00514185
-29.701 52.3721 45.731 0.317549 -0.948223 -0.00599993
-31.7083 51.6887 45.9854 0.325845 -0.94542 -0.00233689
-33.7783 50.9634 46.4948 0.334725 -0.942314 -0.00189454
-36.0241 50.162 47.02 0.336315 -0.941747 -0.00197136
-38.3346 49.3369 47.5082 0.335456 -0.942055 -0.00115597
-39.0166 49.0938 47.6516 0.335396 -0.942076 -0.001585
-36.9431 49.8317 48.2054 0.336048 -0.941843 -0.00178979
-34.8073 50.5947 47.7146 0.335916 -0.941889 -0.00233021
-32.8397 51.2933 47.261 0.33037 -0.943841 -0.00436378
-30.538 52.0876 46.8112 0.318846 -0.947801 -0.0031749
-28.3964 52.7981 46.5861 0.307737 -0.951455 -0.00556792
-26.3446 53.4446 46.442 0.291779 -0.956466 -0.00608017
-24.2936 54.0425 46.28 0.265598 -0.964081 0.00231172
-22.1229 54.6232 46.1014 0.248827 -0.968473 -0.012031
-19.7558 55.1928 45.9874 0.221171 -0.975217 -0.00601482
-17.5247 55.6776 45.8562 0.194671 -0.980864 -0.00298895
-20.287 55.0664 46.9544 0.223423 -0.974715 -0.00361576
-22.4118 54.5459 47.0639 0.249099 -0.968476 -0.00178269
-24.7421 53.9155 47.2858 0.276952 -0.960867 -0.00564796
-26.8424 53.2882 47.4744 0.298929 -0.954275 -1.68874e-06
-29.318 52.4935 47.6732 0.310553 -0.950556 -0.000448448
-31.3787 51.7957 47.9761 0.326726 -0.945115 -0.00292184
-33.0527 51.2136 48.3297 0.331595 -0.94342 -0.00191187
-50.5125 45.1929 35.606 0.32309 -0.946185 -0.0186251
-50.641 45.1487 35.6189 0.324981 -0.945535 -0.0187097
-50.9632 45.0142 36.9031 0.325437 -0.94544 -0.0152747
-49.4784 45.5268 36.6729 0.322287 -0.946485 -0.0172486
-48.704 45.7741 37.6694 0.322193 -0.946582 -0.0132304
-50.0128 45.3242 37.9016 0.324506 -0.945781 -0.0139438
-50.7325 45.0753 38.0354 0.325378 -0.945462 -0.015211
-50.4855 45.1447 39.1539 0.324677 -0.945738 -0.0128267
-49.2005 45.5892 38.8655 0.32367 -0.946102 -0.0113254
-47.795 46.0724 38.5872 0.32253 -0.946502 -0.0104584
