24.3269 65.7216 22.2344 0.19442 0.81193 -0.546013
24.37 65.8362 22.4291 0.262211 0.805174 -0.531922
24.198 65.7548 22.2538 0.126627 0.818687 -0.560104
24.0915 64.9829 21.0821 0.133701 0.828893 -0.543194
22.5321 65.3593 21.2734 0.0891304 0.828441 -0.551098
20.9284 65.5659 21.5588 -0.00675822 0.850123 -0.526541
19.3186 65.5306 21.7247 -0.112833 0.828041 -0.549197
17.5677 65.3921 22.0069 -0.204272 0.805373 -0.556459
16.079 65.0796 22.2308 -0.310816 0.790631 -0.527538
14.536 64.6741 22.5321 -0.309814 0.79018 -0.528799
13.2897 64.2612 22.8492 -0.379631 0.819873 -0.42859
11.5483 63.4663 23.019 -0.446356 0.807859 -0.384212
11.5261 63.4749 23.0631 -0.446355 0.80786 -0.384211
13.0694 64.4964 23.4942 -0.404883 0.789687 -0.458293
14.4945 65.2932 23.5014 -0.412607 0.769459 -0.487533
15.9194 65.8225 23.4371 -0.323583 0.76927 -0.549985
17.4048 66.4481 23.5902 -0.254249 0.768356 -0.587356
18.9481 66.6753 23.3908 -0.115497 0.777243 -0.61851
20.5174 66.9908 23.5837 -0.0437554 0.782861 -0.620656
22.0631 66.9696 23.5999 0.0561394 0.805058 -0.589376
23.7459 66.7072 23.5142 0.139047 0.802209 -0.580587
25.1594 66.2517 23.4088 0.244804 0.787485 -0.565631
26.5079 65.9745 23.951 0.412114 0.802193 -0.432
27.8758 65.4698 24.5036 0.533339 0.748871 -0.393372
29.045 65.0323 25.6308 0.606094 0.760455 -0.231445
28.728 65.4164 27.4004 0.625446 0.776792 0.073559
27.9098 65.9041 28.6925 0.588616 0.803483 0.0891454
26.9325 66.3329 29.9096 0.479345 0.865135 0.147543
25.7473 66.7943 30.7336 0.406749 0.893735 0.189189
26.5815 66.3926 30.6384 0.449456 0.873511 0.186999
27.8446 65.7207 30.1757 0.515762 0.848358 0.114094
29.4731 64.7006 29.912 0.565892 0.822206 0.0609258
30.8173 63.7699 29.8343 0.574499 0.816746 0.0528712
32.1066 62.8669 29.9255 0.571019 0.819461 0.0492002
33.6102 61.8147 29.5981 0.570987 0.820427 0.029573
35.188 60.7295 29.272 0.571171 0.819973 0.0375243
36.5412 59.7959 28.8352 0.574399 0.817864 0.0340083
36.6869 59.6976 28.7094 0.586807 0.809175 0.0261511
35.3831 60.6658 27.9179 0.556694 0.829115 0.0467918
34.1204 61.4974 26.626 0.51397 0.857271 -0.0303701
33.4958 61.7103 25.062 0.442933 0.884204 -0.148301
33.8695 61.1905 23.5149 0.42642 0.859841 -0.280784
34.6387 60.4251 22.4172 0.450554 0.838984 -0.304812
35.5379 59.4986 21.3068 0.461424 0.823448 -0.330183
35.9935 58.7356 19.8729 0.468972 0.836857 -0.281503
34.7576 59.4318 19.9947 0.457817 0.836846 -0.299401
33.411 60.2161 20.0909 0.441982 0.831217 -0.337239
31.899 61.0998 20.2453 0.453816 0.823222 -0.341106
30.6468 61.939 20.5915 0.461261 0.8176 -0.344602
29.2665 62.7547 20.6638 0.446415 0.804515 -0.391751
27.6521 63.8615 21.2284 0.392328 0.803553 -0.447639
26.072 64.4365 21.1211 0.249323 0.831587 -0.495831
24.5412 64.8855 21.0444 0.200087 0.825202 -0.523667
24.8743 63.9897 19.76 0.200087 0.825203 -0.523666
26.3008 63.5193 19.6473 0.232381 0.841544 -0.48765
27.87 62.8403 19.5339 0.34423 0.837023 -0.425321
29.2538 62.1045 19.3186 0.447683 0.802023 -0.395398
30.6318 61.3122 19.1802 0.409391 0.828388 -0.382324
31.964 60.4594 18.7943 0.448087 0.826806 -0.33992
33.6807 59.5634 18.7798 0.435323 0.845058 -0.310437
35.0665 58.752 18.5059 0.433575 0.846034 -0.310225
36.785 57.85 18.3997 0.453604 0.865649 -0.211885
38.3048 57.0655 18.324 0.416366 0.888408 -0.193317
39.5879 56.3789 17.894 0.396718 0.906403 -0.14508
41.0276 55.7406 17.7055 0.353116 0.927247 -0.121632
40.413 56.1209 18.5712 0.428684 0.892632 -0.139419
39.3182 56.7952 19.4784 0.436052 0.891385 -0.123658
38.0095 57.7109 20.4489 0.511815 0.836543 -0.195554
36.879 58.7865 21.4888 0.476741 0.825325 -0.302583
35.9391 59.7684 22.5043 0.431676 0.794456 -0.425287
34.9825 60.7673 23.8138 0.331537 0.862071 -0.383274
34.3666 61.309 25.2702 0.447454 0.881238 -0.152188
35.4529 60.7059 26.6663 0.517617 0.848318 0.11149
36.5342 59.8818 27.3369 0.593269 0.803908 0.0420026
37.8427 58.8899 27.9393 0.59416 0.803483 0.036798
39.4174 57.7289 28.5627 0.567876 0.82227 -0.0370793
40.8373 56.81 29.1422 0.545148 0.837948 -0.0256443
42.1388 55.9803 29.3541 0.487857 0.870382 -0.0417304
43.477 55.2638 29.626 0.505994 0.862515 -0.00453343
42.8585 55.6247 30.0485 0.502958 0.864308 -0.0020984
41.5103 56.3819 29.4492 0.53246 0.84502 -0.0492775
40.4007 57.1269 30.3654 0.547051 0.836956 -0.0155024
38.8284 58.1657 30.7481 0.557088 0.830311 0.015371
37.3344 59.177 30.7272 0.564694 0.82516 0.0152218
35.5977 60.3723 30.7966 0.569612 0.820936 0.0400866
33.9253 61.5343 30.9851 0.573232 0.818122 0.0447621
32.4632 62.5384 31.2369 0.572737 0.818056 0.052503
31.0281 63.5137 31.3283 0.556924 0.828144 0.0633593
29.4039 64.6181 31.3981 0.561162 0.823776 0.0805626
27.7769 65.5941 31.635 0.490384 0.865138 0.105168
26.445 66.1935 32.05 0.429901 0.892171 0.138625
25.0991 66.7006 32.5172 0.363325 0.919333 0.151068
23.7152 67.1217 32.94 0.320211 0.918686 0.231261
22.2804 67.4068 33.2511 0.224753 0.948029 0.225225
20.8439 67.6753 32.996 0.123853 0.939811 0.318457
20.5407 68.0246 32.1395 0.116113 0.927311 0.355824
21.801 68.0623 31.5446 0.202051 0.924497 0.320919
23.1695 67.8678 30.7829 0.33902 0.909098 0.242088
24.6423 67.4769 30.1093 0.443394 0.856207 0.265164
26.1979 66.9372 28.9669 0.484069 0.854643 0.187613
27.4794 66.3561 27.5025 0.569013 0.81564 0.103913
28.1341 65.9283 26.1428 0.684912 0.718719 0.046502
26.9297 66.3676 25.0977 0.437972 0.78567 -0.435892
25.3886 67.0994 24.6906 0.420738 0.742984 -0.513063
23.8436 67.4021 24.487 0.134587 0.799832 -0.58494
22.2982 67.649 24.394 0.0537485 0.681081 -0.730233
20.7225 67.7296 24.4342 -0.0142756 0.732879 -0.680209
19.2106 67.5312 24.3584 -0.122636 0.740358 -0.660503
17.5927 67.247 24.5194 -0.248953 0.734389 -0.631423
16.0972 66.7049 24.5492 -0.283167 0.775653 -0.564074
14.6401 66 24.4637 -0.401706 0.747215 -0.529434
12.8243 65.0435 24.573 -0.43365 0.763082 -0.479222
11.4831 64.0647 24.2806 -0.453994 0.784287 -0.422827
9.75349 63.0083 24.4553 -0.49925 0.813536 -0.29816
8.57274 62.122 23.9998 -0.522226 0.809496 -0.26495
7.03063 61.1565 23.8003 -0.497498 0.85628 -0.138855
5.65311 60.3959 23.3498 -0.405628 0.908735 -0.0927172
4.11801 59.6974 22.7501 -0.302688 0.949751 -0.0794311
2.44006 59.1371 22.1632 -0.24048 0.96943 -0.0464715
2.11326 59.0322 21.5886 -0.210227 0.976457 -0.0452907
3.90513 59.5446 21.7338 -0.302686 0.949752 -0.0794288
5.3581 60.0345 21.8431 -0.363155 0.925917 -0.103904
6.94631 60.745 21.9481 -0.410667 0.897246 -0.162132
8.66893 61.557 21.9192 -0.468282 0.849326 -0.24308
10.5726 62.4518 21.767 -0.412709 0.849873 -0.327653
11.9035 63.1593 21.9139 -0.332732 0.864757 -0.376144
13.6717 63.7561 21.4981 -0.385391 0.827214 -0.40889
15.1289 64.098 21.149 -0.282051 0.844255 -0.455721
16.5789 64.4295 20.8946 -0.252216 0.839806 -0.480742
18.5276 64.7022 20.6408 -0.180819 0.857485 -0.481689
20.6713 64.8332 20.3792 -0.0617367 0.839872 -0.536266
22.7632 64.5245 20.0558 0.0891287 0.828443 -0.551095
23.9823 64.1029 19.7129 0.133909 0.828776 -0.543322
27.3476 65.0338 22.9782 0.250553 0.877142 -0.409689
28.6799 64.0366 22.6393 0.480981 0.788122 -0.383552
30.425 62.6049 21.8617 0.46872 0.813125 -0.345115
31.7527 61.7529 21.6317 0.486301 0.811242 -0.324651
33.4965 60.731 21.5675 0.463129 0.829983 -0.310857
32.9354 61.5051 22.8992 0.47983 0.837047 -0.262502
32.5949 62.1106 24.2555 0.483312 0.846447 -0.223465
32.7415 62.3714 25.8348 0.583343 0.800835 -0.120727
33.3239 62.0479 27.2416 0.588127 0.807014 -0.0532401
32.8162 62.4015 28.3926 0.58002 0.814423 0.0104217
31.1959 63.5734 28.512 0.579216 0.813938 0.0448736
29.9393 64.4735 28.3744 0.575463 0.816879 0.0393703
29.964 64.4478 26.8178 0.60587 0.794426 -0.0425331
29.8139 64.1726 24.8457 0.592662 0.780141 -0.195043
28.6592 64.4648 23.4931 0.531858 0.766601 -0.357907
27.3907 65.0905 23.126 0.38923 0.814248 -0.402821
32.0699 62.5197 24.5295 0.54438 0.801589 -0.247197
30.5405 62.8941 22.697 0.488006 0.814867 -0.312798
30.3787 63.7534 24.7218 0.559456 0.79451 -0.236142
31.8633 63.0575 26.7201 0.593104 0.797919 -0.107486
32.3643 62.7401 27.4341 0.595579 0.803219 0.011161
