-42.1022 48.7656 27.9468 0.312191 -0.949743 -0.0229122
-41.213 49.0519 28.3841 0.316454 -0.948201 -0.0274108
-40.5539 49.2514 29.0893 0.320619 -0.946619 -0.0333293
-39.8503 49.4556 30.123 0.323121 -0.945689 -0.0354538
-39.4028 49.577 31.1958 0.337583 -0.940934 -0.0260806
-39.2718 49.5848 32.5407 0.344433 -0.938469 -0.0245222
-39.3435 49.5341 33.7081 0.346576 -0.937938 -0.0117199
-40.0928 49.2488 35.1776 0.342804 -0.939397 -0.00408164
-40.7165 49.0208 36.0438 0.337658 -0.94126 0.0040823
-41.7065 48.6736 36.5751 0.330354 -0.943852 0.00300509
-42.6324 48.3507 37.1294 0.329857 -0.944029 0.00180362
-43.556 48.0318 37.3667 0.323834 -0.94611 0.00266842
-43.8736 47.9232 37.2877 0.31573 -0.948837 -0.00468408
-30.3301 53.3488 8.90462 0.2853 -0.95768 -0.0381219
-28.5825 53.8523 9.03908 0.270864 -0.962073 -0.0323838
-27.0697 54.2731 9.00921 0.260315 -0.965122 -0.0278475
-23.4041 55.1712 9.69539 0.225696 -0.97397 -0.0210798
-24.908 54.8077 9.81921 0.238905 -0.970721 -0.0249932
-26.8626 54.3043 9.93229 0.261718 -0.964862 -0.0233556
-28.3456 53.891 9.97965 0.272605 -0.961776 -0.0259467
-30.103 53.3858 9.88735 0.284852 -0.958083 -0.0305895
-31.6019 52.9322 9.70961 0.301277 -0.952846 -0.0362752
-33.0251 52.487 9.56103 0.304525 -0.951743 -0.0380696
-35.5183 51.6413 10.1324 0.321561 -0.946112 -0.0383358
-34.0631 52.12 10.3712 0.308562 -0.950475 -0.0372286
-32.4678 52.6255 10.5973 0.303537 -0.952186 -0.0347367
-30.9916 53.0861 10.735 0.295885 -0.954766 -0.0295619
-29.3965 53.5651 10.8812 0.286048 -0.95773 -0.0305056
-27.5502 54.0889 10.8879 0.269605 -0.962695 -0.0230351
-25.8081 54.5607 10.8121 0.253957 -0.967 -0.0204293
-24.1685 54.9709 10.6912 0.233581 -0.972249 -0.0131335
-22.2212 55.421 10.5142 0.216286 -0.976212 -0.0152054
-20.8169 55.7258 10.3996 0.199444 -0.979782 -0.0157855
-19.4378 55.9867 11.216 0.175602 -0.984377 -0.0129142
-21.2764 55.6163 11.3641 0.208694 -0.977904 -0.0122908
-22.9094 55.2524 11.5098 0.218327 -0.975791 -0.0128783
-24.6298 54.8451 11.6626 0.234949 -0.971939 -0.0115317
-26.4222 54.3754 11.7676 0.262411 -0.964748 -0.0200269
-27.9472 53.9573 11.828 0.27432 -0.961387 -0.0219864
-29.4932 53.5071 11.7984 0.285435 -0.957953 -0.029215
-31.2252 52.9838 11.6594 0.300303 -0.953348 -0.0307541
-32.9522 52.435 11.5073 0.308092 -0.950585 -0.0383111
-34.4571 51.954 11.2616 0.311877 -0.949216 -0.0415014
-35.9095 51.4701 11.054 0.32349 -0.945432 -0.0388955
-37.4145 50.964 10.7541 0.327344 -0.94412 -0.0385059
-39.2956 50.2781 11.5386 0.329949 -0.943244 -0.0377533
-37.8002 50.7901 11.7397 0.327248 -0.944155 -0.0384625
-35.9618 51.4119 12.0319 0.324049 -0.945227 -0.0392277
-34.0024 52.0598 12.3152 0.31151 -0.949452 -0.0387495
-32.3212 52.6039 12.5273 0.30825 -0.950732 -0.0330342
-30.5639 53.1568 12.6659 0.295677 -0.95484 -0.0292662
-28.7114 53.713 12.7462 0.282188 -0.959035 -0.0249373
-27.1359 54.1654 12.7295 0.266571 -0.963698 -0.015061
-25.4746 54.6159 12.6462 0.254594 -0.966929 -0.0151735
-23.7638 55.0445 12.5121 0.227765 -0.973614 -0.0140788
-22.2126 55.3993 12.3716 0.217469 -0.976009 -0.0106896
-20.5713 55.7508 12.2252 0.205843 -0.978573 -0.00493856
-19.035 56.0536 12.1034 0.179998 -0.983658 -0.00430358
-17.2271 56.364 12.006 0.161166 -0.986917 -0.00455709
-17.098 56.3847 12.0003 0.148987 -0.988838 -0.00129651
-15.8158 56.5766 12.8456 0.142485 -0.989796 0.00139523
-17.5483 56.3097 12.933 0.164505 -0.986365 -0.00464119
-19.3132 55.9986 13.0407 0.182861 -0.983112 -0.00723044
-21.1736 55.6183 13.1905 0.207429 -0.978222 -0.00742544
-22.9853 55.2166 13.3563 0.224411 -0.974457 -0.00852926
-24.7544 54.7867 13.5124 0.251198 -0.967866 -0.0115945
-26.6331 54.2854 13.6475 0.268017 -0.963158 -0.0222242
-28.3081 53.8081 13.6522 0.282188 -0.959035 -0.0249369
-30.3165 53.2034 13.6211 0.294787 -0.955101 -0.0297263
-31.9024 52.7045 13.5138 0.306383 -0.951328 -0.0332282
-33.4249 52.2112 13.3698 0.313255 -0.949043 -0.0344672
-35.038 51.6807 13.1533 0.321354 -0.946255 -0.0365151
-36.7364 51.1118 12.9069 0.325913 -0.944695 -0.0364893
-38.4009 50.5437 12.7022 0.326986 -0.944303 -0.037051
-40.1655 49.941 12.4028 0.329599 -0.943436 -0.0359567
-40.8494 49.7066 12.2817 0.329941 -0.943333 -0.0355206
-41.9054 49.3062 13.1147 0.328898 -0.943717 -0.0349747
-40.1419 49.9102 13.4227 0.328686 -0.943753 -0.0360007
-38.5002 50.4702 13.6928 0.327425 -0.944145 -0.0371845
-36.7625 51.0639 13.8993 0.325943 -0.944651 -0.0373522
-35.1191 51.6168 14.1249 0.320875 -0.946447 -0.0357343
-33.3975 52.1852 14.3412 0.314555 -0.948644 -0.0336196
-31.5674 52.7788 14.4892 0.307168 -0.951109 -0.0322354
-30.0981 53.2434 14.5547 0.298367 -0.954087 -0.0263735
-28.1668 53.8257 14.5762 0.282485 -0.958951 -0.0248199
-26.4014 54.3289 14.5478 0.268026 -0.963149 -0.0225111
-24.8692 54.746 14.4228 0.253356 -0.967235 -0.016329
-23.3712 55.117 14.2988 0.235419 -0.971841 -0.0101241
-21.456 55.5518 14.1375 0.208767 -0.977936 -0.00754224
-19.869 55.8805 14.005 0.198996 -0.979991 -0.00435345
-18.2945 56.1787 13.9036 0.172096 -0.985076 -0.00280018
-16.4676 56.4779 13.7989 0.153379 -0.988166 -0.00142372
-15.0728 56.6784 13.7568 0.133435 -0.991058 -0.000267378
-14.6691 56.7319 14.6369 0.131846 -0.99123 0.00887169
-16.4989 56.4721 14.7265 0.150725 -0.988575 -0.00144917
-18.1454 56.1996 14.8083 0.173369 -0.984834 -0.00664961
-19.7002 55.9147 14.9128 0.191226 -0.981545 -0.00172891
-21.3292 55.5708 15.0369 0.211563 -0.977344 -0.00627669
-23.0482 55.1858 15.1831 0.225174 -0.974278 -0.00887394
-25.0551 54.6807 15.3408 0.260899 -0.965303 -0.0110672
-27.004 54.1393 15.4879 0.27107 -0.962318 -0.0215539
-28.562 53.6874 15.4988 0.281747 -0.959277 -0.0201748
-30.3647 53.1387 15.4596 0.303929 -0.952387 -0.0242061
-32.0934 52.5791 15.4025 0.310492 -0.950038 -0.031964
-33.8622 51.9982 15.2494 0.315793 -0.948212 -0.0341785
-35.4951 51.4549 15.0544 0.322792 -0.945808 -0.0353928
-37.0918 50.9129 14.8504 0.32692 -0.944337 -0.0367422
-38.763 50.341 14.6625 0.327573 -0.944103 -0.0369437
-40.3136 49.811 14.445 0.32821 -0.943917 -0.0360436
-41.7834 49.308 14.2291 0.32818 -0.943988 -0.0344057
-43.3416 48.7745 14.0172 0.327658 -0.944185 -0.0339791
-44.0679 48.4896 14.9473 0.32679 -0.944487 -0.0339392
-42.5039 49.0222 15.1914 0.326952 -0.944405 -0.0346642
-40.794 49.6063 15.4322 0.327815 -0.944057 -0.0359562
-39.0853 50.1907 15.654 0.327392 -0.944178 -0.0366517
-37.5442 50.719 15.8046 0.327184 -0.944248 -0.0366927
-35.8635 51.2919 15.998 0.324812 -0.945059 -0.036891
-34.286 51.8238 16.1624 0.321646 -0.946204 -0.0352475
-32.6304 52.371 16.3135 0.313602 -0.949107 -0.0291571
-30.5488 53.0511 16.3734 0.309939 -0.950287 -0.0298839
-28.9191 53.5621 16.4113 0.293396 -0.955653 -0.0254192
-27.2001 54.0613 16.4061 0.273863 -0.96149 -0.0231735
-25.4584 54.5555 16.2722 0.270373 -0.962579 -0.0184335
-23.6836 55.0245 16.138 0.240708 -0.97054 -0.010569
-22.0078 55.4174 16.0152 0.21663 -0.976212 -0.00903097
-20.3215 55.7816 15.8827 0.20269 -0.97921 -0.00798801
-18.2897 56.1681 15.7429 0.172248 -0.985035 -0.00610631
-16.7021 56.4399 15.6563 0.159612 -0.987179 0.00127818
-15.0016 56.6932 15.5632 0.13637 -0.990651 0.00356652
-13.658 56.8709 15.4699 0.126919 -0.991893 0.00625054
-12.6148 57.0049 16.3267 0.115423 -0.993288 0.0074506
-14.1854 56.8058 16.4105 0.13335 -0.991069 0.00057315
-16.1381 56.5283 16.5463 0.153077 -0.98821 -0.00300312
-17.7198 56.2689 16.6135 0.171285 -0.985221 -0.00018557
-19.3957 55.9587 16.7359 0.187412 -0.982229 -0.0101425
-21.0565 55.6157 16.8653 0.210083 -0.977612 -0.0118319
-22.5847 55.2794 16.9743 0.222628 -0.974868 -0.00833431
-24.1988 54.8799 17.0776 0.256762 -0.966297 -0.0185302
-25.7968 54.443 17.1978 0.269785 -0.962763 -0.0173975
-27.413 53.977 17.3192 0.280378 -0.959745 -0.0166743
-28.9923 53.5132 17.3404 0.291936 -0.955989 -0.0292999
-30.4742 53.0471 17.2976 0.306468 -0.95157 -0.0243411
-32.1264 52.5087 17.2534 0.311812 -0.949683 -0.0295806
-33.9698 51.8941 17.1565 0.319037 -0.947103 -0.0348045
-35.5682 51.3547 17 0.324767 -0.945127 -0.0355014
-37.2214 50.7901 16.8531 0.326536 -0.944474 -0.0366586
-38.8123 50.2453 16.6921 0.32694 -0.944357 -0.0360504
-40.5499 49.649 16.532 0.327019 -0.944335 -0.0359299
-42.5081 48.9811 16.2697 0.326639 -0.944501 -0.0350037
-44.0136 48.4683 16.0505 0.326619 -0.944523 -0.0345942
-45.0334 48.1221 15.8808 0.326434 -0.944611 -0.0339313
-45.6061 47.8909 16.8117 0.326377 -0.94468 -0.0325168
-43.9744 48.4436 17.1167 0.326092 -0.94472 -0.0341743
-42.2064 49.0444 17.376 0.326657 -0.944492 -0.0350847
-40.7211 49.5511 17.5616 0.326593 -0.944527 -0.0347346
-39.1827 50.0795 17.6749 0.327188 -0.94427 -0.0360923
-37.7207 50.58 17.816 0.3269 -0.944363 -0.0362702
-35.9533 51.1864 17.9579 0.325918 -0.944749 -0.0350254
-34.4765 51.6893 18.0555 0.323969 -0.945471 -0.0335875
-33.018 52.1813 18.1327 0.319295 -0.947197 -0.0294632
-31.1537 52.8017 18.2005 0.311009 -0.950064 -0.0255454
-29.4874 53.3336 18.251 0.298335 -0.954137 -0.0248894
-27.763 53.8584 18.232 0.280558 -0.959671 -0.0178763
-25.8623 54.4085 18.0991 0.269942 -0.962725 -0.0170974
-24.1654 54.873 17.99 0.253782 -0.967097 -0.0178399
-22.594 55.2669 17.8854 0.226516 -0.973945 -0.0110335
-20.9375 55.6325 17.7804 0.205052 -0.978731 -0.00633767
-19.3918 55.949 17.653 0.188932 -0.981915 -0.01215
-17.8593 56.2398 17.5398 0.183924 -0.982921 -0.00615395
-15.9664 56.5508 17.4263 0.151058 -0.988516 -0.00420895
-14.3793 56.7797 17.325 0.134825 -0.990869 0.000311778
-12.449 57.0308 17.2205 0.116674 -0.993153 0.00579631
-11.9437 57.0895 17.2018 0.113215 -0.993539 0.00787266
-11.4291 57.1558 18.0761 0.114809 -0.993356 0.00792688
-13.3542 56.9189 18.1831 0.134275 -0.990943 -0.00127736
-14.8955 56.7103 18.2613 0.14063 -0.990062 -0.00113956
-16.8031 56.4129 18.3881 0.160973 -0.986909 -0.00994202
-18.3338 56.1437 18.4851 0.185427 -0.982621 -0.00853582
-19.9674 55.8276 18.6152 0.196585 -0.98046 -0.00722436
-21.7631 55.4462 18.7624 0.221721 -0.974982 -0.0157937
-23.3154 55.0818 18.8434 0.233503 -0.972208 -0.0169822
-25.0572 54.6201 18.9609 0.25952 -0.965657 -0.01252
-26.6389 54.1727 19.0653 0.281606 -0.959388 -0.0165246
-28.2267 53.6981 19.143 0.292343 -0.956112 -0.0196226
-29.9688 53.1592 19.155 0.296901 -0.954655 -0.0219812
-31.7842 52.5665 19.1023 0.315803 -0.948387 -0.0288246
-33.5116 51.985 19.0456 0.320776 -0.946635 -0.0313828
-35.1846 51.4134 18.9655 0.325589 -0.944909 -0.0337427
-36.8256 50.8508 18.8755 0.326938 -0.944395 -0.03506
-38.4567 50.2914 18.744 0.326523 -0.944577 -0.0340086
-40.1592 49.7063 18.635 0.326804 -0.94448 -0.0340052
-41.6144 49.2089 18.4842 0.326413 -0.944624 -0.033753
-43.5262 48.5587 18.2259 0.325369 -0.945029 -0.0324825
-45.2185 47.9836 17.9986 0.326 -0.944805 -0.0326592
-46.4524 47.5627 17.85 0.326902 -0.9445 -0.0324674
-47.0128 47.337 18.8062 0.326672 -0.944624 -0.0311592
-45.5378 47.8375 19.0584 0.325664 -0.944965 -0.0313526
-43.927 48.3867 19.2366 0.325659 -0.944962 -0.0314999
-42.2786 48.9458 19.4487 0.324681 -0.945267 -0.0324443
-40.8142 49.4446 19.6074 0.326773 -0.944489 -0.034058
-39.3179 49.9588 19.7113 0.326676 -0.944527 -0.0339452
-37.679 50.5225 19.787 0.326471 -0.944593 -0.0340852
-36.1067 51.0633 19.8875 0.327024 -0.94443 -0.0332664
-34.4033 51.6486 19.9595 0.325212 -0.945088 -0.0323405
-32.6852 52.2363 20.0034 0.322827 -0.946008 -0.0291785
-30.8252 52.8581 20.0443 0.315686 -0.948544 -0.024606
-29.2162 53.3767 20.059 0.294807 -0.955373 -0.0187459
-27.3681 53.9401 20.0131 0.288011 -0.957398 -0.0209683
-25.8227 54.3905 19.9263 0.270794 -0.962508 -0.0157586
-23.7367 54.9622 19.777 0.257803 -0.96614 -0.010575
-22.0006 55.3832 19.7058 0.226709 -0.973897 -0.0113239
-20.284 55.7556 19.5505 0.20647 -0.978372 -0.0125601
-18.7589 56.0552 19.4194 0.190643 -0.981623 -0.00842362
-16.9966 56.3722 19.2995 0.162552 -0.986677 -0.00678377
-15.1652 56.6698 19.1891 0.150329 -0.988633 -0.0024765
-13.4535 56.908 19.1085 0.132946 -0.991112 0.00469634
-11.5042 57.1522 18.986 0.119187 -0.992845 0.00735872
-10.0553 57.3185 18.9075 0.111526 -0.993715 0.00958363
-9.15628 57.423 19.7518 0.103723 -0.994535 0.0118965
-10.9651 57.2218 19.8526 0.118033 -0.992999 0.00469737
-12.5123 57.0323 19.956 0.124671 -0.992198 0.000553782
-14.1937 56.8127 20.0563 0.1336 -0.991029 0.00368837
-15.8953 56.5546 20.1376 0.161547 -0.986859 0.00340183
-17.762 56.2418 20.2624 0.174603 -0.984635 0.00262645
-19.4973 55.9078 20.3917 0.196403 -0.980487 -0.00840117
-21.4197 55.5035 20.5582 0.218501 -0.975769 -0.0115303
-23.1818 55.0866 20.6747 0.236965 -0.971427 -0.0133104
-24.8482 54.6462 20.7653 0.265567 -0.963894 -0.0195465
-26.4244 54.2003 20.8697 0.280489 -0.959645 -0.0201896
-27.9462 53.7489 20.9335 0.290981 -0.956624 -0.0141755
-29.4704 53.2764 20.9586 0.300149 -0.953603 -0.0235042
-31.2305 52.697 20.955 0.317968 -0.947773 -0.0249489
-33.1121 52.0616 20.9275 0.322391 -0.946127 -0.030143
-34.6345 51.5373 20.9102 0.326519 -0.944672 -0.0313034
-36.3185 50.9567 20.8359 0.327163 -0.944408 -0.0325172
-37.9596 50.3903 20.7796 0.326758 -0.944541 -0.0327419
-39.543 49.8459 20.7169 0.325914 -0.94486 -0.0319338
-41.0957 49.3145 20.5887 0.325877 -0.944884 -0.0316093
-42.736 48.755 20.4487 0.32472 -0.945334 -0.030018
-44.2764 48.2328 20.2552 0.325255 -0.945168 -0.0294252
-45.9776 47.6547 20.0468 0.32526 -0.945166 -0.029461
-47.3876 47.1727 19.8994 0.326251 -0.944836 -0.0290851
-48.264 46.8381 20.9587 0.327083 -0.944586 -0.0278387
-46.5711 47.4186 21.0988 0.325352 -0.945177 -0.0280362
-44.9812 47.9608 21.2267 0.324465 -0.945475 -0.0282797
-43.5192 48.4572 21.3763 0.323623 -0.94573 -0.0293746
-42.0189 48.9666 21.5385 0.32453 -0.945386 -0.0304115
-40.5563 49.466 21.6409 0.325126 -0.945177 -0.0305461
-38.669 50.1125 21.7606 0.326168 -0.944782 -0.0316527
-36.9364 50.7095 21.7966 0.327157 -0.944445 -0.0314914
-35.482 51.2131 21.8396 0.328538 -0.944005 -0.0302753
-33.8516 51.777 21.8611 0.326558 -0.944716 -0.0295244
-31.9584 52.426 21.8621 0.320869 -0.946708 -0.0280571
-30.283 52.9882 21.8606 0.313302 -0.949292 -0.0262035
-28.8148 53.4606 21.8603 0.298317 -0.954172 -0.0237029
-27.306 53.9275 21.8207 0.286587 -0.957895 -0.0174796
-25.6845 54.3996 21.7352 0.274711 -0.961377 -0.0169552
-24.0671 54.8457 21.6337 0.252205 -0.967535 -0.016379
-22.2198 55.3043 21.536 0.229272 -0.973334 -0.00748059
-20.5824 55.6777 21.3914 0.209907 -0.977692 -0.00758982
-18.9764 56.0066 21.2641 0.193859 -0.981021 -0.00401739
-17.3204 56.3178 21.1467 0.169449 -0.985539 8.20242e-05
-15.5475 56.6135 21.0442 0.161188 -0.986893 -0.00783077
-14.0022 56.8392 20.956 0.132005 -0.991249 -0.000827069
-12.4283 57.0433 20.8645 0.125704 -0.992067 0.00109114
-10.856 57.2386 20.7685 0.11897 -0.992892 0.00342127
-9.14481 57.4349 20.6791 0.110927 -0.993817 0.00472965
-8.36123 57.5163 20.6246 0.103695 -0.994539 0.0117873
-7.26935 57.6418 21.4464 0.107309 -0.994142 0.0128915
-9.0099 57.4522 21.5735 0.10777 -0.994161 0.00542865
-10.6871 57.2613 21.6957 0.116621 -0.993176 0.00089449
-12.3265 57.0573 21.7836 0.129887 -0.991529 -0.000747953
-14.1691 56.8125 21.8789 0.140977 -0.990013 -6.87962e-05
-16.0619 56.5219 21.9914 0.1586 -0.987326 -0.00571554
-17.6893 56.2466 22.0907 0.183101 -0.983068 -0.00714278
-19.4873 55.9017 22.2152 0.19386 -0.981021 -0.00400071
-21.2238 55.5325 22.3602 0.219094 -0.975679 -0.00697548
-22.8189 55.1518 22.4919 0.245969 -0.969126 -0.0171294
-24.8609 54.612 22.5936 0.261928 -0.964979 -0.0144685
-26.6879 54.0944 22.6975 0.275002 -0.961232 -0.0201741
-28.3259 53.5941 22.7544 0.301386 -0.953314 -0.0189674
-30.0116 53.0526 22.7785 0.315229 -0.948703 -0.024348
-31.4965 52.5555 22.7743 0.319136 -0.94737 -0.0253677
-33.255 51.9548 22.7844 0.325574 -0.945119 -0.0273981
-35.118 51.3092 22.8065 0.327741 -0.944338 -0.0284983
-36.682 50.7652 22.7959 0.3293 -0.943764 -0.0294932
-38.5894 50.1061 22.7693 0.32587 -0.944891 -0.0314476
-40.3928 49.4897 22.6481 0.324231 -0.945514 -0.0296265
-42.0476 48.9246 22.5605 0.325125 -0.945227 -0.0289767
-43.7287 48.3541 22.4368 0.323261 -0.945894 -0.0280599
-45.4792 47.7596 22.2776 0.323771 -0.945786 -0.0257056
-47.1793 47.179 22.16 0.325633 -0.945156 -0.0253462
-48.6402 46.6785 21.9997 0.326189 -0.944969 -0.025198
-49.0841 46.5269 21.9462 0.325851 -0.945111 -0.0242142
-49.6942 46.2894 22.9966 0.326955 -0.944736 -0.0239506
-47.9681 46.8807 23.1512 0.325687 -0.945171 -0.0240894
-46.2723 47.4603 23.3047 0.323965 -0.945779 -0.0234241
-44.7055 47.9935 23.4074 0.323349 -0.94594 -0.0253774
-43.2318 48.4934 23.5185 0.322338 -0.946289 -0.0252017
-41.4159 49.1092 23.6233 0.323149 -0.945956 -0.0272342
-39.9022 49.6258 23.6876 0.323543 -0.945787 -0.0284132
-38.4081 50.1383 23.7446 0.324513 -0.945492 -0.0271244
-36.94 50.6456 23.7721 0.328505 -0.944086 -0.0280381
-35.2747 51.2254 23.7617 0.328454 -0.944077 -0.0289314
-33.7071 51.7702 23.7307 0.326985 -0.944612 -0.0281045
-32.0129 52.3549 23.6984 0.324286 -0.945585 -0.0265948
-30.4249 52.8918 23.6952 0.315228 -0.948704 -0.0243476
-28.6095 53.4864 23.6637 0.303238 -0.952761 -0.0171379
-26.8358 54.0343 23.6082 0.284132 -0.958671 -0.0147742
-25.1155 54.5245 23.5161 0.268336 -0.963208 -0.0150342
-23.3886 54.9907 23.4262 0.250618 -0.968045 -0.00894824
-21.8047 55.3848 23.3186 0.226047 -0.974016 -0.0140083
-20.2358 55.7381 23.1788 0.206006 -0.978512 -0.00868618
-18.5063 56.085 23.0662 0.18553 -0.982596 -0.00920502
-16.6445 56.4198 22.9408 0.170469 -0.985358 -0.00319358
-14.9303 56.6989 22.8336 0.151956 -0.988368 -0.00616483
-13.2437 56.9363 22.7627 0.13187 -0.991267 -0.000535619
-11.7155 57.1365 22.6861 0.127898 -0.991787 -0.000497587
-9.82035 57.364 22.5521 0.116431 -0.993198 0.00157064
-8.29353 57.5379 22.4464 0.113057 -0.993563 0.00714892
-6.28836 57.7637 22.2921 0.113096 -0.993459 0.0157462
-5.12319 57.9153 23.1374 0.121844 -0.992395 0.0175045
-7.13978 57.6748 23.2656 0.114264 -0.99341 0.00897904
-8.87497 57.4766 23.4127 0.114717 -0.993391 0.00378417
-10.7676 57.2537 23.5588 0.119769 -0.992801 0.00130442
-12.6151 57.0194 23.6608 0.130932 -0.991391 -0.000816491
-14.3844 56.7744 23.7325 0.144019 -0.989572 -0.00233747
-15.9071 56.5374 23.8159 0.159279 -0.987231 -0.00229796
-17.6738 56.2317 23.92 0.181262 -0.983435 -0.000119504
-19.191 55.9467 24.0284 0.194195 -0.980922 -0.00892743
-20.7186 55.6223 24.1247 0.218662 -0.975748 -0.0101444
-22.4993 55.2039 24.2731 0.241678 -0.970286 -0.0116988
-24.1792 54.7774 24.355 0.250618 -0.968045 -0.00894824
-25.8699 54.2985 24.4633 0.272245 -0.962107 -0.0152391
-27.5858 53.7877 24.5371 0.296546 -0.954883 -0.0160636
-29.0714 53.3199 24.5816 0.316554 -0.948349 -0.0206631
-30.6308 52.8005 24.6121 0.317881 -0.947853 -0.0229547
-32.1603 52.2795 24.6258 0.323556 -0.945885 -0.0247577
-34.1912 51.5775 24.6676 0.327452 -0.944545 -0.0247135
-35.712 51.0466 24.7201 0.328711 -0.94407 -0.0260902
-37.1785 50.5352 24.735 0.327293 -0.944569 -0.0258506
-38.8496 49.9579 24.7208 0.326073 -0.944928 -0.0280449
-40.3639 49.438 24.6978 0.322953 -0.946056 -0.0260472
-42.0752 48.8569 24.6509 0.322271 -0.946294 -0.025858
-43.8281 48.2645 24.5213 0.321499 -0.946641 -0.0225483
-45.5007 47.6972 24.4183 0.32447 -0.94566 -0.0211094
-47.0413 47.1706 24.3293 0.324894 -0.94546 -0.0234263
-48.7427 46.589 24.1805 0.325902 -0.945134 -0.0225993
-50.2651 46.0664 24.0474 0.3265 -0.944945 -0.0218189
-50.3386 46.0411 24.0403 0.326777 -0.944855 -0.0215799
-50.7812 45.8638 25.109 0.326148 -0.945077 -0.0213928
-49.2422 46.3915 25.2628 0.326149 -0.945071 -0.0216081
-47.6123 46.9503 25.3816 0.324957 -0.945484 -0.0215023
-46.7449 47.2475 25.4233 0.324782 -0.945548 -0.0213184
-48.1435 46.7441 26.4618 0.326496 -0.94497 -0.020799
-49.733 46.1978 26.332 0.326407 -0.944987 -0.0214218
-51.1088 45.7258 26.2127 0.325918 -0.945157 -0.0213576
-51.1417 45.6877 27.3862 0.325743 -0.945213 -0.0215328
-49.4227 46.2792 27.4695 0.32648 -0.944956 -0.0216294
-49.3318 46.3104 27.4777 0.326483 -0.944956 -0.0216316
-50.0597 46.0332 28.6016 0.326568 -0.944906 -0.0224865
-51.0816 45.6812 28.5665 0.325782 -0.945179 -0.0224283
-41.5122 49.0207 25.7112 0.321232 -0.946664 -0.0252328
-39.3411 49.7598 25.7151 0.324679 -0.945461 -0.0262058
-37.2768 50.4741 25.7035 0.327835 -0.944358 -0.0267
-34.9157 51.2993 25.6321 0.329115 -0.943965 -0.0247888
-32.8666 52.0133 25.5666 0.327176 -0.944684 -0.0229802
-30.7188 52.7496 25.5301 0.32136 -0.946769 -0.0188575
-28.7673 53.401 25.4814 0.311472 -0.949999 -0.0220744
-26.3725 54.1383 25.3913 0.285254 -0.958326 -0.0155254
-24.389 54.7118 25.2693 0.269535 -0.962957 -0.00803757
-22.369 55.2246 25.1588 0.240553 -0.970554 -0.0126069
-20.1258 55.7414 24.9987 0.209533 -0.977729 -0.0119084
-18.1103 56.1473 24.8667 0.185437 -0.982654 -0.0021815
-15.9849 56.5271 24.7501 0.154167 -0.988038 0.00365801
-13.9438 56.8364 24.6388 0.141389 -0.989949 -0.00308819
-11.6842 57.1412 24.5417 0.12733 -0.99186 0.00103884
-9.23503 57.4376 24.3738 0.116584 -0.993173 0.00385136
-7.14825 57.6815 24.1865 0.117234 -0.993071 0.00808217
-4.73917 57.9782 24.0358 0.132904 -0.991016 0.0149575
-2.64202 58.2716 24.0431 0.152374 -0.987847 0.0306624
-0.519492 58.6765 25.1756 0.189712 -0.981084 0.0385039
-2.76389 58.2795 25.0042 0.154951 -0.987721 0.0199229
-4.99815 57.9598 24.985 0.129128 -0.991527 0.0141618
-7.13008 57.6917 25.1207 0.122103 -0.992473 0.00937417
-9.38085 57.4236 25.32 0.119401 -0.992838 0.00392875
-11.6904 57.1409 25.473 0.124464 -0.992223 0.00146906
-14.2097 56.7969 25.5886 0.139134 -0.990272 -0.00175447
-16.3752 56.4617 25.6912 0.170316 -0.985389 -0.000292002
-18.4491 56.0838 25.8084 0.192273 -0.981341 0.000472704
-20.5036 55.656 25.9354 0.212971 -0.977054 -0.00288884
-22.7315 55.1259 26.086 0.24023 -0.970669 -0.00952339
-24.8083 54.5788 26.193 0.270928 -0.962383 -0.0204339
-27.3038 53.8457 26.3441 0.285254 -0.958326 -0.0155254
-29.2994 53.2064 26.4082 0.311694 -0.949997 -0.0187849
-31.3706 52.5079 26.4617 0.324667 -0.945653 -0.0182114
-33.4006 51.8048 26.5139 0.329079 -0.944024 -0.0229496
-35.3549 51.1208 26.5973 0.329924 -0.943678 -0.024931
-37.328 50.4295 26.6645 0.327804 -0.944411 -0.0251672
-39.3202 49.7401 26.7191 0.324438 -0.945582 -0.0247763
-39.4195 49.7061 26.7213 0.323579 -0.945871 -0.0250044
-38.0305 50.1597 27.652 0.325593 -0.945185 -0.024783
-35.9251 50.8957 27.5746 0.33062 -0.943455 -0.024159
-33.8944 51.6102 27.4694 0.330859 -0.943439 -0.021328
-31.8227 52.333 27.3999 0.327036 -0.944821 -0.0189967
-29.3908 53.1608 27.3213 0.317185 -0.948212 -0.0169369
-27.0167 53.9199 27.2223 0.292804 -0.956015 -0.0173566
-24.9774 54.5161 27.1106 0.268786 -0.963168 -0.00786754
-22.5927 55.1552 26.9732 0.239467 -0.970903 -0.00173225
-20.5927 55.6343 26.8553 0.216217 -0.97634 -0.00326258
-18.5238 56.0656 26.7276 0.197233 -0.980355 -0.00192617
-16.4753 56.4441 26.6137 0.171933 -0.985108 -0.00100129
-14.0101 56.8248 26.5151 0.140159 -0.990129 0.000258258
-11.7635 57.1329 26.4182 0.127582 -0.991825 0.00246608
-9.65361 57.395 26.284 0.120818 -0.992657 0.00600251
-7.61521 57.6416 26.1245 0.122117 -0.992491 0.00697019
-5.4813 57.908 25.9672 0.130077 -0.991441 0.0111528
-3.00201 58.262 25.9561 0.155908 -0.987536 0.0215556
-0.953134 58.6234 26.0493 0.193644 -0.980567 0.0314856
1.24679 59.11 26.2221 0.238607 -0.970187 0.0424767
2.53319 59.4699 26.3516 0.300811 -0.952597 0.0455069
5.20156 60.5171 27.2474 0.40479 -0.912849 0.0533992
3.20712 59.7318 27.2946 0.317717 -0.94676 0.0519751
1.19321 59.1408 27.1474 0.244939 -0.968383 0.0473094
-0.916171 58.6573 26.9734 0.197848 -0.980012 0.0208218
-3.23349 58.2445 26.9078 0.155059 -0.987814 0.0134604
-5.37249 57.933 26.9198 0.131312 -0.991262 0.0125338
-7.53793 57.658 27.0875 0.122546 -0.992435 0.00736038
-9.85781 57.3744 27.251 0.121634 -0.992565 0.00452315
-12.1948 57.0767 27.3709 0.132672 -0.991155 0.0031996
-14.5106 56.7533 27.4818 0.145843 -0.989306 0.00187127
-16.9545 56.3598 27.5674 0.168381 -0.985717 -0.0032151
-19.2558 55.9133 27.6935 0.201473 -0.979481 -0.00507142
-21.2985 55.4639 27.8068 0.223238 -0.974764 -0.000639725
-23.3091 54.9637 27.9216 0.258578 -0.965962 -0.00738632
-25.5879 54.332 28.0548 0.279743 -0.959969 -0.0142663
-27.9236 53.6214 28.1654 0.306024 -0.951924 -0.0138133
-29.9852 52.9454 28.2603 0.317107 -0.948244 -0.0166066
-32.1302 52.2077 28.3374 0.326767 -0.944904 -0.0194945
-34.2634 51.4583 28.4352 0.331917 -0.943121 -0.0188291
-36.4495 50.6874 28.5548 0.331538 -0.943212 -0.0208391
-37.7541 50.2302 28.6226 0.328755 -0.9441 -0.0243858
-37.3247 50.356 29.5752 0.332963 -0.942648 -0.0234527
-35.2398 51.0935 29.4431 0.333146 -0.942676 -0.0193604
-33.1269 51.8402 29.3147 0.330843 -0.9435 -0.0187327
-30.8699 52.6264 29.2134 0.324188 -0.945856 -0.0160653
-28.751 53.3387 29.1136 0.312629 -0.949774 -0.0138401
-26.5387 54.0392 29.0141 0.285452 -0.958312 -0.0124511
-24.1235 54.7346 28.8828 0.264765 -0.964313 0.000374379
-22.1044 55.278 28.7685 0.232805 -0.972361 -0.017801
-20.0292 55.75 28.6613 0.21134 -0.977396 -0.00578397
-17.9484 56.176 28.5495 0.190235 -0.981738 0.000881417
-15.7564 56.5572 28.4536 0.155993 -0.987754 -0.00275465
-13.3371 56.9257 28.346 0.137629 -0.990475 0.00417774
-11.143 57.2189 28.2754 0.128335 -0.991724 0.0035836
-8.98633 57.4867 28.1399 0.123095 -0.992371 0.00682807
-6.66872 57.7755 27.9921 0.129204 -0.991554 0.0112401
-4.30094 58.0989 27.855 0.141188 -0.989813 0.0183381
-1.83572 58.499 27.8653 0.18536 -0.982515 0.0174859
0.436761 58.9745 28.032 0.231253 -0.972612 0.0233886
2.71721 59.6184 28.1564 0.314069 -0.947747 0.0560086
4.77817 60.3614 28.1322 0.385923 -0.92144 0.0448501
7.04485 61.4627 27.9842 0.472136 -0.880421 0.0441225
7.15572 61.5251 27.9754 0.528895 -0.848278 0.0263579
10.4817 63.7307 28.417 0.564021 -0.825756 -0.00270145
9.30218 62.924 28.5695 0.563433 -0.826129 0.00740556
7.80052 61.9532 28.7547 0.519294 -0.854226 0.0251336
6.5719 61.25 28.8709 0.471384 -0.881026 0.0398785
5.26345 60.6117 28.9559 0.414356 -0.909545 0.0321926
3.90854 60.0513 29.004 0.347548 -0.937192 0.0296778
2.52666 59.584 29.0014 0.311356 -0.949959 0.0252013
0.779695 59.0816 28.9765 0.256323 -0.966179 0.0282113
-0.8297 58.7205 28.8866 0.204525 -0.978519 0.0258764
-2.27859 58.4305 28.7908 0.178008 -0.98393 0.0139681
-3.91575 58.167 28.8041 0.147532 -0.988943 0.0150195
-5.40776 57.9566 28.8727 0.137775 -0.990382 0.0126785
-7.05196 57.7393 28.997 0.127546 -0.991732 0.0141435
-8.44089 57.5633 29.0782 0.125225 -0.992075 0.0102595
-9.83263 57.3896 29.1607 0.123256 -0.992336 0.00874494
-11.5797 57.1666 29.2455 0.130065 -0.991492 0.00510081
-13.2233 56.9453 29.2922 0.136117 -0.990683 0.00441694
-14.8209 56.708 29.3549 0.152661 -0.988261 0.00589158
-16.5356 56.4319 29.4136 0.164312 -0.986408 0.00096675
-18.1147 56.1413 29.4844 0.190787 -0.981624 -0.00392519
-19.5111 55.8595 29.5618 0.201765 -0.979415 -0.00606708
-21.0523 55.5182 29.6428 0.226391 -0.97403 -0.00352141
-22.588 55.152 29.7154 0.243575 -0.969879 -0.00235271
-24.1572 54.7257 29.7929 0.271608 -0.962399 -0.00422901
-26.066 54.1682 29.8977 0.282322 -0.959297 -0.00651623
-27.86 53.6172 29.9848 0.294255 -0.955481 -0.0216779
-29.6652 53.0185 30.0668 0.319494 -0.947518 -0.011528
-31.1434 52.5161 30.1423 0.324938 -0.945624 -0.0145088
-32.9521 51.8845 30.2427 0.330037 -0.943822 -0.0165698
-34.3705 51.3826 30.3418 0.33397 -0.94242 -0.0175859
-35.8504 50.8567 30.4545 0.333699 -0.942476 -0.019584
-37.1985 50.3764 30.5494 0.334202 -0.942252 -0.021675
-37.0546 50.4059 31.5415 0.335142 -0.941984 -0.0186097
-35.2747 51.042 31.3825 0.335052 -0.942041 -0.0172828
-33.8353 51.5554 31.2514 0.333851 -0.942514 -0.0145249
-32.3138 52.0931 31.1358 0.330841 -0.943601 -0.0127142
-30.993 52.5545 31.0508 0.326376 -0.945157 -0.0125178
-29.615 53.0245 30.9757 0.318587 -0.947804 -0.0130428
-28.255 53.477 30.9074 0.30706 -0.951606 -0.0126357
-26.734 53.9563 30.838 0.292591 -0.956153 -0.0127066
-24.8692 54.5091 30.7392 0.275581 -0.961247 -0.00769663
-23.308 54.9558 30.6643 0.268458 -0.963186 -0.0142391
-21.7241 55.3557 30.5973 0.229752 -0.973151 -0.0138565
-20.0917 55.7275 30.5203 0.214732 -0.976574 -0.013926
-18.4648 56.0704 30.432 0.202317 -0.979315 -0.00330364
-16.9489 56.3611 30.3655 0.178726 -0.983898 -0.00147139
-15.4652 56.611 30.3157 0.164289 -0.986412 0.000854881
-14.011 56.8385 30.2588 0.151405 -0.98845 0.00664304
-12.5386 57.0455 30.2298 0.135591 -0.99072 0.00942194
-10.9794 57.252 30.1764 0.128135 -0.991725 0.00796802
-9.17187 57.4817 30.0829 0.124657 -0.992144 0.0105287
-7.43044 57.7048 29.9881 0.12793 -0.991711 0.0119714
-5.79563 57.9182 29.8639 0.131714 -0.991179 0.0146999
-3.9078 58.1849 29.7606 0.151196 -0.988433 0.0118017
-2.17635 58.4646 29.7508 0.178512 -0.983773 0.0179966
-0.664819 58.7727 29.8286 0.207618 -0.978041 0.018167
0.761295 59.1079 29.8807 0.247859 -0.968617 0.0186409
2.10817 59.4856 29.8609 0.288585 -0.95676 0.036463
3.4499 59.9223 29.8411 0.330596 -0.943096 0.0357405
5.21728 60.6209 29.8087 0.40254 -0.9147 0.0358662
6.50129 61.2477 29.7339 0.472382 -0.880748 0.0337245
7.77042 61.9534 29.6068 0.512324 -0.858471 0.0234849
9.0985 62.7967 29.4523 0.551678 -0.834029 0.00690909
10.4695 63.7195 29.2802 0.564023 -0.825755 -0.00270205
11.6849 64.5499 29.1163 0.552341 -0.833606 -0.00453036
12.9532 65.3729 28.9612 0.518408 -0.855129 0.00266917
14.1678 66.0894 28.8132 0.479309 -0.877646 0.00078919
15.5187 66.7586 28.6523 0.399895 -0.916559 0.0016533
17.1656 67.3828 28.4849 0.290729 -0.956787 -0.00595616
17.3048 67.4252 28.4708 0.29822 -0.954443 0.0101763
17.0812 67.3798 29.4292 0.310551 -0.950303 0.0219487
15.3921 66.7175 29.5809 0.414259 -0.909941 0.0199092
14.0443 66.0218 29.7218 0.490801 -0.871081 0.0182073
12.7561 65.2586 29.8658 0.522677 -0.852518 0.00465951
11.4965 64.4237 30.0039 0.554821 -0.831805 0.0165529
10.1392 63.5062 30.18 0.561713 -0.8272 0.014813
8.86692 62.6587 30.3337 0.54983 -0.835035 0.0200935
7.34228 61.7226 30.5093 0.491042 -0.87073 0.0265905
5.95668 60.9975 30.6242 0.439179 -0.898297 0.0135774
4.49404 60.3181 30.694 0.373717 -0.927434 0.0142408
3.15625 59.8384 30.7159 0.313964 -0.949049 0.0270765
1.42414 59.3081 30.7507 0.276694 -0.960435 0.0317151
-0.14775 58.9014 30.7675 0.224196 -0.974314 0.0211739
-1.82147 58.5524 30.7205 0.180961 -0.98317 0.0251098
-3.7751 58.218 30.7286 0.162783 -0.986421 0.0218023
-5.61787 57.9556 30.82 0.134851 -0.990766 0.0140395
-7.21409 57.745 30.9427 0.129176 -0.991534 0.0131893
-8.88844 57.5293 31.0355 0.126851 -0.991843 0.0124809
-10.3352 57.3439 31.1044 0.127189 -0.991822 0.0105467
-11.8351 57.1464 31.1599 0.133023 -0.991099 0.00524589
-13.2958 56.9466 31.1932 0.139761 -0.990173 0.0048425
-15.0175 56.6858 31.2435 0.153613 -0.988131 -0.000445975
-16.5067 56.4379 31.2916 0.176185 -0.984357 -0.000899625
-18.1121 56.1397 31.3536 0.193787 -0.981033 -0.00459436
-19.5744 55.8329 31.4218 0.208645 -0.977976 -0.00541399
-21.2189 55.4632 31.4938 0.23329 -0.972335 -0.0118864
-22.794 55.0814 31.5624 0.244599 -0.969505 -0.0152072
-24.437 54.6266 31.6237 0.275985 -0.961146 -0.0055194
-25.9535 54.1826 31.6989 0.288089 -0.957569 -0.00818987
-27.4993 53.7028 31.773 0.300917 -0.953571 -0.012281
-29.2563 53.1322 31.8584 0.316089 -0.948701 -0.00730629
-30.609 52.6755 31.9439 0.323279 -0.946206 -0.013578
-32.2276 52.1108 32.067 0.330354 -0.943766 -0.013134
-33.5499 51.6427 32.1798 0.333481 -0.942676 -0.0123474
-35.0968 51.0898 32.3279 0.335347 -0.941991 -0.0139887
-36.5343 50.5739 32.4829 0.336859 -0.941421 -0.0158792
-36.806 50.4762 32.5115 0.337342 -0.941237 -0.0165305
-36.9651 50.4025 33.5331 0.337718 -0.941164 -0.0125463
-35.5753 50.9036 33.3588 0.338108 -0.941015 -0.0132128
-34.1935 51.4 33.2104 0.33595 -0.941793 -0.0127839
-32.5666 51.9784 33.0437 0.331737 -0.943294 -0.0121637
-31.1632 52.4719 32.915 0.327296 -0.944839 -0.0125376
-29.8278 52.9315 32.8006 0.321685 -0.946784 -0.0109411
-28.1044 53.5022 32.7065 0.307109 -0.951597 -0.0121606
-26.355 54.0532 32.6256 0.29889 -0.954241 -0.00944857
-24.5766 54.5805 32.537 0.285545 -0.958358 -0.0038163
-23.0601 54.9992 32.4816 0.250536 -0.968005 -0.014083
-21.4537 55.3979 32.4263 0.233032 -0.972436 -0.00804729
-19.9456 55.7471 32.3635 0.211325 -0.977399 -0.00577066
-18.3804 56.0799 32.3029 0.206496 -0.978437 -0.00449456
-16.9336 56.3601 32.2461 0.178799 -0.98386 -0.0071669
-15.2256 56.6507 32.1987 0.157108 -0.987578 -0.00261015
-13.4441 56.9242 32.147 0.149406 -0.988775 0.00142463
-11.9364 57.1384 32.11 0.134159 -0.990937 0.00675147
-10.4328 57.3395 32.0604 0.129759 -0.991505 0.00893949
-8.91078 57.5375 32.003 0.128399 -0.991654 0.0116247
-7.14219 57.7675 31.9034 0.13096 -0.991313 0.0121397
-5.73817 57.9551 31.8058 0.136236 -0.990533 0.0168341
-4.17486 58.1811 31.7226 0.145774 -0.989114 0.020098
-2.64528 58.4245 31.6806 0.169709 -0.985356 0.0164853
-1.08203 58.7198 31.6633 0.209593 -0.97749 0.024164
0.46308 59.0692 31.6616 0.252563 -0.967282 0.0240449
1.86192 59.4612 31.618 0.281645 -0.959441 0.0122254
3.63218 60.0207 31.5842 0.331456 -0.94312 0.0257306
5.11985 60.6163 31.5263 0.422246 -0.906251 0.0204254
6.45086 61.2815 31.4375 0.469226 -0.882532 0.0310558
7.73398 61.9836 31.3292 0.519135 -0.854266 0.0269843
9.20152 62.8994 31.1597 0.549631 -0.835131 0.0214866
10.4266 63.7182 30.9927 0.563571 -0.825909 0.0161502
11.9378 64.7283 30.8158 0.549672 -0.835254 0.0145444
13.1338 65.4997 30.7071 0.524345 -0.851169 0.0239575
14.3618 66.2187 30.5838 0.489706 -0.871669 0.0195454
14.8647 66.4799 30.5333 0.440931 -0.897262 0.0223753
12.5176 65.1388 31.6465 0.54903 -0.835418 0.0253465
11.3319 64.3558 31.7681 0.559813 -0.828284 0.0235484
10.0256 63.4781 31.9421 0.557678 -0.829508 0.0301946
8.82358 62.6811 32.0886 0.537826 -0.842325 0.0351079
7.21752 61.7289 32.2372 0.480072 -0.876205 0.0423755
5.9278 61.0378 32.3301 0.466504 -0.883792 0.0358551
4.61483 60.4435 32.409 0.383268 -0.923537 0.0135838
3.22397 59.9099 32.4661 0.306319 -0.951743 0.0188086
1.84974 59.4707 32.497 0.275684 -0.960901 0.0258459
0.215877 59.0373 32.5503 0.239277 -0.970433 0.0317123
-1.4601 58.6613 32.59 0.204782 -0.978566 0.0217372
-2.86047 58.4039 32.665 0.169709 -0.985356 0.0164853
-4.6555 58.1266 32.7339 0.147477 -0.988928 0.0164987
-6.23359 57.9033 32.8176 0.137987 -0.990314 0.0154031
-7.82661 57.6899 32.9174 0.129297 -0.991533 0.0120448
-9.37905 57.4879 32.9888 0.130427 -0.991396 0.0111261
-11.3043 57.232 33.0351 0.134729 -0.990852 0.0077554
-13.0326 56.9882 33.0834 0.145951 -0.989286 0.00338745
-14.825 56.714 33.1383 0.154259 -0.988027 0.00275998
-16.4215 56.4449 33.175 0.17229 -0.985042 -0.00304585
-17.8549 56.1816 33.2213 0.194269 -0.980945 -0.00240536
-19.3345 55.8759 33.2757 0.211391 -0.9774 -0.00150333
-21.0046 55.4978 33.3319 0.230212 -0.973102 -0.00868265
-22.9674 55.0135 33.3969 0.251465 -0.967846 -0.00635586
-24.37 54.6405 33.4499 0.277464 -0.960691 -0.00931193
-25.8215 54.2025 33.5215 0.287273 -0.957771 -0.0121728
-27.8744 53.5658 33.6076 0.303301 -0.952822 -0.0117702
-29.2869 53.1055 33.6882 0.320766 -0.947138 -0.00629712
-30.622 52.6488 33.7913 0.325153 -0.945589 -0.0116845
-32.1323 52.1211 33.9567 0.333241 -0.942805 -0.00830096
-33.6068 51.5978 34.1114 0.33466 -0.942273 -0.0110984
-35.0375 51.085 34.2729 0.337558 -0.941252 -0.00992788
-36.4278 50.5838 34.4494 0.337846 -0.941133 -0.0113863
-37.3196 50.2619 34.5806 0.339409 -0.940575 -0.0109752
-37.5025 50.1851 35.6057 0.338047 -0.941093 -0.00823069
-36.1256 50.6824 35.3948 0.338743 -0.940836 -0.0090124
-34.6048 51.2302 35.1893 0.336703 -0.94156 -0.00983318
-33.1405 51.7543 35.016 0.334313 -0.942414 -0.00950816
-31.6689 52.2743 34.8483 0.329339 -0.944159 -0.00997921
-29.882 52.8939 34.6662 0.325277 -0.945576 -0.00899734
-28.5094 53.3507 34.5574 0.313004 -0.94964 -0.0145855
-26.8526 53.8773 34.4811 0.302075 -0.953264 -0.00613873
-25.3164 54.3503 34.4203 0.290084 -0.956989 -0.00472654
-23.659 54.8227 34.345 0.2664 -0.963692 -0.018125
-22.1206 55.2236 34.2813 0.233955 -0.972232 -0.00548081
-20.6636 55.5758 34.2405 0.232031 -0.972706 -0.00229111
-18.806 55.9877 34.1988 0.208068 -0.978105 -0.00423664
-17.0803 56.3251 34.1333 0.179861 -0.983692 0.000742735
-15.1852 56.659 34.0959 0.16726 -0.985913 -0.000370568
-13.7605 56.8817 34.0562 0.151291 -0.988484 0.00311526
-12.1552 57.1198 34.0015 0.141759 -0.989881 0.00634621
-10.3283 57.3716 33.9805 0.134203 -0.990919 0.0083065
-8.66086 57.5927 33.908 0.129983 -0.991458 0.0106983
-6.9815 57.8148 33.842 0.131564 -0.991232 0.0122515
-5.43821 58.0277 33.7672 0.141497 -0.989885 0.0103181
-3.72379 58.2818 33.6807 0.155177 -0.987833 0.0103121
-2.06448 58.5614 33.5773 0.176751 -0.984164 0.013395
-0.688972 58.8414 33.4488 0.218757 -0.975596 0.0189277
1.24197 59.3216 33.3819 0.255308 -0.966426 0.0289777
2.62999 59.7384 33.3453 0.30318 -0.952637 0.0237666
4.17338 60.2758 33.2897 0.354735 -0.934432 0.0316133
5.83131 61.0036 33.1917 0.444741 -0.895211 0.0283191
7.20053 61.7355 33.0884 0.48207 -0.876072 0.0102698
8.43024 62.4723 32.9948 0.527341 -0.849002 0.0332703
9.5813 63.2139 32.8902 0.560256 -0.827644 0.033436
-51.3293 45.4524 34.5765 0.324465 -0.945669 -0.0208028
-51.3295 45.4523 34.5765 0.324237 -0.945759 -0.0202301
-50.8614 45.5876 35.8249 0.324727 -0.945629 -0.0183889
-50.1164 45.8435 35.7598 0.322724 -0.946308 -0.018737
-49.3288 46.0922 36.8475 0.32189 -0.946653 -0.0153245
-51.0193 45.5117 37.0464 0.325064 -0.945571 -0.0151265
-51.0194 45.4929 38.2183 0.325312 -0.945502 -0.0140522
-49.2467 46.1032 37.9427 0.321127 -0.946936 -0.0138044
-49.0962 46.1545 37.9252 0.321543 -0.946802 -0.01328
-50.6356 45.6102 39.3012 0.32475 -0.945712 -0.012863
-48.7519 46.2589 39.0017 0.322441 -0.946531 -0.0105314
-46.9949 46.8595 38.813 0.321618 -0.94682 -0.00969925
-44.9153 47.5618 39.64 0.324532 -0.945865 -0.00420567
-46.905 46.8792 39.9316 0.323392 -0.946233 -0.00780534
-48.8596 46.2088 40.156 0.324529 -0.945831 -0.00921531
-49.6961 45.9206 40.279 0.324851 -0.945694 -0.0116211
-49.0936 46.1173 41.2919 0.325302 -0.945568 -0.00898195
-46.8808 46.8796 40.9893 0.324723 -0.945792 -0.00575566
-44.9032 47.5608 40.7167 0.324916 -0.94573 -0.00495179
-43.0906 48.1885 40.4107 0.327743 -0.944763 -0.0026727
-40.9839 48.9267 40.1079 0.332419 -0.943131 -0.00100961
-39.0376 49.6163 39.8191 0.335344 -0.942094 -0.00170238
-37.0695 50.3182 39.4978 0.336443 -0.9417 -0.00268975
-35.2657 50.9651 39.1823 0.336965 -0.941507 -0.00433251
-33.271 51.6775 38.8486 0.332815 -0.942971 -0.00634449
-30.8039 52.5429 38.5239 0.327122 -0.944952 -0.00754603
-28.8002 53.2216 38.3294 0.312991 -0.949734 -0.00652806
-26.6855 53.9005 38.1407 0.299959 -0.953922 -0.0075731
-24.5095 54.5514 38.0752 0.274775 -0.961473 -0.00825066
-22.3781 55.1257 38.0076 0.254938 -0.966912 -0.0094183
-20.5007 55.5915 37.9403 0.224717 -0.974408 -0.00555143
-18.3526 56.0578 37.8979 0.196814 -0.980408 -0.00808488
-16.5091 56.4167 37.8546 0.186345 -0.982476 -0.00399472
-14.6179 56.747 37.8158 0.165714 -0.986174 -0.000525364
-12.5388 57.0819 37.7944 0.152722 -0.988266 -0.00258739
-10.6419 57.354 37.7457 0.137957 -0.990423 0.00555407
-8.45406 57.6549 37.7289 0.134497 -0.990882 0.00803244
-6.51488 57.922 37.6682 0.139264 -0.990224 0.00790572
-4.58908 58.1954 37.5794 0.149841 -0.988663 0.00964844
-2.69135 58.5014 37.414 0.189565 -0.981868 0.00109367
-1.27974 58.7709 37.2371 0.188033 -0.982153 0.0044455
-4.62484 58.2 38.5154 0.155848 -0.987753 0.00740611
-6.54713 57.9241 38.6105 0.138433 -0.990348 0.00679648
-8.55237 57.6478 38.6621 0.135455 -0.990763 0.00644806
-10.5394 57.3728 38.6933 0.140086 -0.990136 0.00253747
-12.6079 57.0688 38.7211 0.152718 -0.988266 -0.00258794
-14.8765 56.7016 38.7458 0.168162 -0.985752 0.00394057
-17.1491 56.2917 38.7941 0.185204 -0.982689 -0.00472012
-19.2643 55.8621 38.8515 0.206541 -0.978389 -0.00978025
-21.1066 55.4367 38.891 0.233663 -0.972194 -0.0154907
-23.3828 54.852 38.948 0.256242 -0.966556 -0.0105137
-25.445 54.2663 39.0399 0.283824 -0.95884 -0.00840547
-27.2622 53.712 39.124 0.29871 -0.954326 -0.00590827
-29.3273 53.0364 39.3194 0.319812 -0.947459 -0.00652722
-31.1605 52.4121 39.5126 0.327656 -0.94478 -0.0056337
-32.9255 51.7946 39.7578 0.331883 -0.943314 -0.00356269
-34.761 51.1419 40.0753 0.33579 -0.941932 -0.00283875
-36.5486 50.5021 40.4064 0.336164 -0.9418 -0.00233389
-38.4717 49.8162 40.7376 0.334946 -0.942236 -0.00169713
-40.3367 49.154 41.0311 0.333434 -0.942773 -0.00112544
-42.1646 48.5103 41.2572 0.330478 -0.943811 -0.002191
-44.1473 47.8178 41.6357 0.327312 -0.944908 -0.00385849
-46.3324 47.062 41.9675 0.326387 -0.945222 -0.00515591
-48.2117 46.4125 42.266 0.325658 -0.94545 -0.00838317
-46.9994 46.8241 43.1609 0.325972 -0.945357 -0.00650415
-45.1219 47.4752 42.8723 0.327433 -0.944868 -0.00341002
-43.1783 48.1531 42.4726 0.329943 -0.943996 -0.00302377
-41.178 48.8548 42.1653 0.331686 -0.943387 -0.00231889
-39.2706 49.5303 41.8729 0.334152 -0.942517 -0.00179579
-37.4134 50.1908 41.5698 0.335777 -0.941939 -0.00220678
-35.6624 50.8163 41.2524 0.33614 -0.94181 -0.002009
-33.7474 51.5001 40.8645 0.335554 -0.942016 -0.00319156
-31.8417 52.1701 40.5549 0.327199 -0.944941 -0.00516296
-29.6878 52.9088 40.2881 0.319786 -0.947481 -0.00403032
-27.7543 53.547 40.1049 0.30254 -0.953129 -0.00395472
-25.8163 54.1471 39.9733 0.287287 -0.957822 -0.00663842
-23.8998 54.6986 39.9035 0.265667 -0.964031 -0.00804949
-21.9349 55.2235 39.8376 0.247173 -0.968887 -0.0128128
-19.7717 55.7457 39.7898 0.21803 -0.975916 -0.0071045
-17.6908 56.177 39.7409 0.197189 -0.980302 -0.0111223
-15.6219 56.5722 39.6839 0.176966 -0.98421 -0.0037867
-13.7351 56.8939 39.6584 0.161233 -0.986914 -0.00207824
-11.5161 57.2353 39.6152 0.147132 -0.989116 0.00158153
-9.60531 57.5068 39.6404 0.138014 -0.990428 0.0023604
-7.72175 57.766 39.5859 0.135874 -0.990722 0.00298394
-5.99949 58.0043 39.5314 0.138876 -0.990309 0.00084186
-8.0101 57.7291 40.5192 0.135637 -0.990755 0.00255104
-10.2918 57.4111 40.5617 0.141625 -0.98992 0.000917167
-12.2262 57.1267 40.5657 0.149476 -0.988754 -0.00469432
-14.3695 56.7883 40.5756 0.161233 -0.986914 -0.0020784
-16.2289 56.4578 40.6456 0.189711 -0.981827 -0.00497152
-18.2791 56.0506 40.6693 0.201553 -0.979473 -0.00310108
-20.527 55.5628 40.7201 0.23038 -0.973081 -0.00614815
-22.6998 55.0174 40.7823 0.252053 -0.967695 -0.00599467
-24.5934 54.4995 40.8565 0.273162 -0.961937 -0.0076841
-26.5287 53.9279 40.9302 0.286416 -0.958057 -0.00965987
-28.499 53.2987 41.097 0.310754 -0.95044 -0.00978054
-30.6166 52.5893 41.3258 0.323936 -0.946071 -0.00396637
-32.524 51.9284 41.6091 0.327637 -0.944792 -0.00461379
-34.3467 51.2839 41.9839 0.335183 -0.942151 -0.0018777
-36.2572 50.6014 42.3765 0.336255 -0.941769 -0.00180129
-38.1393 49.9303 42.7023 0.334916 -0.942247 -0.00157887
-39.9339 49.2932 43.0047 0.333901 -0.942607 -0.0015551
-41.7937 48.6364 43.279 0.331704 -0.943381 -0.00212022
-43.646 47.9862 43.6123 0.329912 -0.944008 -0.00265267
-45.4276 47.3642 43.9741 0.328144 -0.944616 -0.00465736
-46.0947 47.1322 44.0809 0.32784 -0.944722 -0.00462793
-44.6457 47.6333 44.8631 0.329318 -0.944213 -0.00346828
-42.7635 48.293 44.5073 0.330639 -0.943755 -0.00219413
-40.7511 49.0022 44.1669 0.333551 -0.94273 -0.00173117
-38.9504 49.6405 43.8631 0.334297 -0.942467 -0.00114378
-37.0758 50.3075 43.538 0.335526 -0.94203 -0.00148875
-34.8844 51.0898 43.107 0.335423 -0.942066 -0.00191976
-33.0511 51.7406 42.6696 0.331102 -0.94359 -0.00295605
-31.1138 52.4139 42.3495 0.325791 -0.945439 -0.00243672
-29.2529 53.0471 42.0991 0.315141 -0.949043 -0.00205149
-27.2807 53.6853 41.9137 0.299768 -0.953955 -0.0104528
-25.1439 54.3294 41.8048 0.28078 -0.959722 -0.00981462
-23.2726 54.86 41.7257 0.258004 -0.966103 -0.00884153
-21.376 55.3491 41.6786 0.2405 -0.970608 -0.00895372
-19.1851 55.8611 41.591 0.206777 -0.978385 -0.0022575
-16.9533 56.3132 41.5672 0.191762 -0.981437 -0.00296232
-14.8356 56.7059 41.5178 0.164707 -0.986314 -0.00745189
-12.9672 57.0135 41.4941 0.156409 -0.987692 0.00126592
-10.7594 57.3455 41.4625 0.14434 -0.989523 0.00334915
-10.1302 57.4354 41.4687 0.142092 -0.989853 0.00122565
-11.8542 57.1852 42.4162 0.149445 -0.988762 0.00388271
-13.7657 56.8817 42.4311 0.163837 -0.986487 -0.000711485
-15.7306 56.5438 42.4543 0.183683 -0.982937 -0.0097355
-17.7514 56.1566 42.4798 0.198813 -0.980037 -0.00044548
-19.8781 55.7037 42.5585 0.224654 -0.974392 -0.00953361
-22.0353 55.1763 42.6027 0.247409 -0.968871 -0.00878465
-23.9696 54.6579 42.6942 0.268754 -0.963186 -0.00660927
-25.8959 54.1012 42.7497 0.284846 -0.958546 -0.00729287
-27.9614 53.464 42.91 0.305771 -0.952078 -0.00722003
-29.905 52.8246 43.1346 0.318945 -0.947765 -0.00395804
-31.7352 52.1967 43.3841 0.325094 -0.945677 -0.00292652
-33.7204 51.5013 43.8305 0.333101 -0.942891 -0.00112911
-35.5049 50.867 44.2449 0.335696 -0.94197 -0.00120869
-37.485 50.1604 44.6259 0.335327 -0.942101 -0.00120868
-39.447 49.4625 44.9958 0.334734 -0.942311 -0.00171311
-41.3389 48.7928 45.3063 0.332571 -0.943077 -0.00188055
-43.4176 48.0607 45.6776 0.33116 -0.943571 -0.00240121
-41.9345 48.5805 46.4592 0.332403 -0.943135 -0.00221046
-40.0772 49.2374 46.1462 0.33373 -0.942668 -0.00137302
-38.1529 49.9214 45.7801 0.335165 -0.942159 -0.0011479
-36.2732 50.5915 45.4119 0.335841 -0.941918 -0.00103579
-34.5136 51.219 45.054 0.335355 -0.942091 -0.00115902
-32.7775 51.8321 44.5842 0.330165 -0.943922 -0.0015229
-30.9132 52.4768 44.2005 0.322925 -0.94641 -0.00518623
-28.9758 53.1266 43.9646 0.310993 -0.950374 -0.00848648
-27.1817 53.7043 43.7765 0.293826 -0.955841 -0.00589996
-25.2675 54.278 43.6595 0.280513 -0.959827 -0.00667797
-23.2496 54.8524 43.5915 0.267845 -0.963438 -0.00673554
-21.2235 55.3698 43.506 0.241142 -0.970452 -0.00852572
-19.3766 55.8044 43.4652 0.215583 -0.976407 -0.0123853
-17.3629 56.2295 43.3859 0.18834 -0.982101 -0.00255367
-15.2981 56.6197 43.3486 0.179759 -0.983708 -0.00238816
-13.4711 56.9312 43.346 0.16477 -0.986328 0.00294929
-14.9208 56.6833 44.2626 0.175811 -0.984416 -0.00400956
-17.3407 56.2315 44.3113 0.19051 -0.981671 -0.00518534
-19.3255 55.8061 44.389 0.218517 -0.97579 -0.00916849
-21.2936 55.3498 44.4429 0.236721 -0.971573 -0.0030642
-23.3817 54.8083 44.5211 0.258549 -0.965981 -0.00572112
-25.2266 54.2868 44.6108 0.280936 -0.959725 -0.00151742
-27.1521 53.7094 44.7147 0.297015 -0.95486 -0.00495649
-28.954 53.1267 44.9039 0.31145 -0.950253 -0.00436131
-30.7258 52.5366 45.1228 0.319041 -0.947737 -0.00277733
-32.5945 51.8962 45.5066 0.324463 -0.945896 -0.00219268
-34.6943 51.1534 46.102 0.335425 -0.942066 -0.00126925
-36.4784 50.5171 46.4856 0.335839 -0.941919 -0.00103645
-38.6892 49.7295 46.9326 0.334841 -0.942274 -0.000967693
-40.2213 49.185 47.2219 0.334222 -0.942494 -0.00124513
-38.3742 49.8403 47.9299 0.334897 -0.942254 -0.00115809
-36.4549 50.5243 47.5193 0.335656 -0.941984 -0.00135446
-34.6848 51.155 47.097 0.334419 -0.942423 -0.0019133
-32.8965 51.7872 46.6115 0.328146 -0.944617 -0.00420946
-30.9842 52.4461 46.1311 0.321237 -0.946994 -0.00315714
-29.1731 53.0505 45.8743 0.313632 -0.949528 -0.00565381
-27.2317 53.6772 45.6643 0.301058 -0.953584 -0.00650963
-25.3976 54.2331 45.5682 0.283074 -0.959078 -0.00626448
-23.5939 54.743 45.4535 0.268462 -0.963265 -0.00690168
-21.6985 55.2404 45.3768 0.246489 -0.969109 -0.00838515
-19.8489 55.6821 45.3086 0.216056 -0.976365 -0.00559465
-17.7896 56.132 45.2712 0.212251 -0.977181 -0.00814807
-17.118 56.2667 45.2462 0.195248 -0.980747 -0.00358177
-18.7072 55.9286 46.2029 0.211824 -0.977306 -0.00177674
-20.6074 55.5014 46.2786 0.233395 -0.972366 -0.00558281
-22.4381 55.0421 46.3245 0.25012 -0.968159 -0.0104084
-24.519 54.4793 46.4453 0.268089 -0.963382 -0.00481876
-26.5362 53.8846 46.5657 0.291987 -0.956388 -0.00814035
-28.672 53.2098 46.7602 0.310244 -0.950644 -0.00506031
-30.4909 52.6079 47.0277 0.318541 -0.947905 -0.00291937
-32.6613 51.865 47.5325 0.328026 -0.944666 -0.00205686
-34.6562 51.163 48.0663 0.333978 -0.942578 -0.00220916
-36.1933 50.6158 48.4861 0.335396 -0.942076 -0.00132537
-38.1895 49.9304 36.7046 0.337715 -0.941236 -0.00478846
-35.6415 50.848 36.3084 0.338152 -0.941067 -0.00683562
-32.9887 51.7987 35.9507 0.334189 -0.942456 -0.00969566
-30.447 52.6903 35.6554 0.327209 -0.944926 -0.00705635
-27.7305 53.5938 35.4401 0.301444 -0.953473 -0.00457932
-25.1599 54.3866 35.3325 0.28214 -0.959313 -0.0107161
-22.598 55.0978 35.2324 0.254845 -0.96695 -0.00785021
-19.494 55.8342 35.135 0.209855 -0.977732 0.000520206
-16.6513 56.4019 35.062 0.176907 -0.984226 -0.00195175
-13.8272 56.8729 34.9999 0.151198 -0.988503 0.0012461
-10.8291 57.3104 34.9323 0.135673 -0.990733 0.00633794
-8.0949 57.6773 34.8584 0.132019 -0.99119 0.0106622
