18.0238 66.8514 22.5603 -0.199623 0.795339 -0.570372
17.0249 66.6415 22.7299 -0.262585 0.778966 -0.569439
17.8877 66.6617 22.3352 -0.23076 0.82307 -0.518146
18.8523 66.7311 22.1798 -0.141855 0.818421 -0.555781
18.196 66.8704 22.5409 -0.152091 0.799591 -0.580964
18.116 67.4334 23.3396 -0.199623 0.795339 -0.570371
16.4509 66.962 23.4331 -0.273956 0.781268 -0.560676
15.395 66.5439 23.4797 -0.364302 0.760078 -0.538113
14.4696 66.1819 23.5394 -0.375909 0.799073 -0.466862
13.4856 65.5938 23.4238 -0.424558 0.784921 -0.451216
12.3763 64.9566 23.3795 -0.41015 0.806928 -0.422679
11.5099 64.5578 23.5665 -0.459536 0.804155 -0.377042
10.2103 63.7416 23.4713 -0.486779 0.805206 -0.338659
10.7763 63.8716 22.9116 -0.456932 0.827288 -0.324239
12.0933 64.303 22.2742 -0.425929 0.820315 -0.379509
13.1122 64.7423 22.1946 -0.389796 0.832953 -0.392744
14.0786 65.1345 22.0672 -0.410156 0.806924 -0.422679
15.2281 65.3984 21.7445 -0.320228 0.803463 -0.501897
16.2899 65.7697 21.6615 -0.286137 0.816126 -0.50074
17.2765 65.976 21.5295 -0.209474 0.817351 -0.53671
18.2312 66.1461 21.4159 -0.209474 0.817352 -0.53671
19.277 66.2296 21.2792 -0.132766 0.838018 -0.529244
20.2797 66.3543 21.237 -0.0748846 0.844718 -0.527444
21.3929 66.2756 21.0531 -0.02522 0.854698 -0.518513
22.4776 66.1161 20.8678 0.0871142 0.826786 -0.55383
23.555 65.8973 20.7952 0.131808 0.828962 -0.543551
24.7365 65.6131 20.6468 0.189775 0.829958 -0.520778
25.9501 65.2143 20.5875 0.250108 0.829473 -0.499416
27.1259 64.8072 20.5049 0.251694 0.828481 -0.50027
28.098 64.4101 20.4702 0.351581 0.825532 -0.441085
28.9932 64.0101 20.3229 0.290307 0.877143 -0.382547
29.9125 63.5813 20.2728 0.401047 0.826062 -0.395702
31.1247 62.7606 19.9552 0.448151 0.80014 -0.39867
32.2951 62.0329 19.8329 0.473434 0.798034 -0.372758
33.0964 61.5125 19.6926 0.457473 0.819818 -0.344408
34.3347 60.7642 19.5999 0.482859 0.806036 -0.342277
35.4634 60.067 19.4445 0.478273 0.823364 -0.304677
36.5268 59.3853 19.3899 0.521744 0.800733 -0.294295
36.3267 59.8149 20.2042 0.508894 0.809139 -0.293402
35.8921 60.3705 20.9486 0.507341 0.794313 -0.334173
34.8175 61.2369 21.4167 0.490657 0.803336 -0.337477
33.8314 62.0976 21.972 0.468356 0.801837 -0.37108
32.8964 62.8783 22.4299 0.493651 0.78586 -0.372468
31.9155 63.6097 22.6812 0.49485 0.777767 -0.387121
30.9497 64.2003 22.5997 0.464217 0.78256 -0.412577
30.0427 64.7778 22.8062 0.378554 0.828715 -0.412223
29.0712 65.3192 22.9381 0.411233 0.790683 -0.453551
28.2165 65.7997 23.0032 0.3675 0.810632 -0.453795
27.2858 66.2738 23.037 0.389039 0.786577 -0.479526
26.2492 66.6136 22.9409 0.275672 0.807988 -0.520731
24.7618 67.2263 23.111 0.22255 0.788756 -0.573006
23.8401 67.4723 23.0866 0.153735 0.757061 -0.632306
22.4059 67.6236 22.9627 0.0686919 0.798809 -0.59302
21.4485 67.7877 23.1637 -0.0264254 0.779486 -0.623414
20.3332 67.7377 23.2433 -0.0710632 0.801137 -0.593894
18.9788 67.5366 23.2539 -0.153235 0.800358 -0.579609
18.4064 67.4743 23.3192 -0.153235 0.800358 -0.579609
18.1614 67.9689 24.0499 -0.245583 0.754873 -0.607839
16.9279 67.659 24.1702 -0.243868 0.78403 -0.570811
15.9478 67.3551 24.2513 -0.324809 0.771826 -0.545013
14.5726 66.6591 24.233 -0.405991 0.769216 -0.49336
13.4471 66.0646 24.2498 -0.412085 0.769082 -0.488568
12.4429 65.4526 24.2036 -0.44381 0.784294 -0.433492
11.5864 64.9734 24.3597 -0.486342 0.777181 -0.397009
10.7415 64.4632 24.3958 -0.533352 0.771137 -0.347682
9.92882 63.8952 24.2602 -0.573973 0.779466 -0.250975
8.76834 63.0647 24.2107 -0.540948 0.800161 -0.259069
7.8793 62.4251 23.9096 -0.534157 0.819973 -0.204194
6.94277 61.8297 23.8394 -0.507346 0.839867 -0.191637
5.92387 61.25 23.7514 -0.392086 0.913863 -0.10518
4.9707 60.809 23.3991 -0.362549 0.927041 -0.0912589
4.07747 60.4078 22.8799 -0.422619 0.905376 -0.0410699
2.92556 60.023 22.796 -0.306591 0.951298 -0.03139
2.27031 59.79 22.0106 -0.288023 0.956595 -0.0126095
1.43066 59.5666 21.5795 -0.227331 0.973256 -0.0123813
0.891929 59.4557 22.0641 -0.227074 0.973741 -0.0122818
-0.251506 59.176 21.4681 -0.234977 0.971987 -0.00525713
-1.16758 58.9936 21.1895 -0.193864 0.981026 0.00206865
-1.93311 58.8402 20.6493 -0.177605 0.983906 -0.000658236
-3.44731 58.6025 20.0974 -0.156436 0.98768 0.0040954
-2.67688 58.7235 20.3401 -0.146301 0.989183 0.00174181
-1.75345 58.8733 20.385 -0.194789 0.980799 -0.00956501
-0.989085 59.031 20.9924 -0.189337 0.981563 0.0127196
0.373157 59.3269 21.4483 -0.227076 0.973741 -0.0122762
1.22415 59.5262 21.8575 -0.219173 0.975495 -0.0193008
1.81946 59.6647 21.3568 -0.252467 0.967237 -0.0267186
2.7481 59.9159 21.3843 -0.295032 0.95319 -0.0662104
3.76075 60.2337 21.4461 -0.295071 0.953173 -0.0662884
4.653 60.5367 21.6203 -0.338936 0.93431 -0.110396
5.76057 60.9867 22.0663 -0.362549 0.927041 -0.0912589
6.70034 61.3528 21.834 -0.387058 0.906346 -0.169481
7.75781 61.8408 21.797 -0.44102 0.878992 -0.178728
8.91891 62.5239 21.9328 -0.476238 0.841799 -0.250312
10.001 63.0395 21.8063 -0.431473 0.855117 -0.286744
11.0718 63.5098 21.6344 -0.423853 0.853005 -0.304518
12.1942 63.9564 21.4216 -0.349908 0.867008 -0.354769
13.082 64.3123 21.2905 -0.39363 0.836963 -0.380195
14.1634 64.671 21.0697 -0.307637 0.850906 -0.425815
15.3063 64.9254 20.7777 -0.292955 0.858085 -0.421742
16.5023 65.2022 20.5654 -0.219863 0.859436 -0.460613
17.7695 65.4301 20.4684 -0.191181 0.866949 -0.46027
19.5757 65.621 20.2593 -0.124554 0.834745 -0.536364
20.5914 65.7328 20.1973 -0.0748868 0.844722 -0.527438
21.6929 65.5264 19.9467 0.0424193 0.824613 -0.564104
22.7352 65.4349 19.8913 0.0871094 0.826789 -0.553827
23.9283 65.1442 19.7355 0.131021 0.829449 -0.542999
25.0997 64.9372 19.702 0.189775 0.829958 -0.520778
26.1911 64.4905 19.4824 0.254594 0.863309 -0.435751
27.3795 64.1524 19.5068 0.254594 0.863309 -0.435751
28.3316 63.8186 19.4401 0.287858 0.856623 -0.428176
29.5767 63.2792 19.3525 0.387593 0.822268 -0.41671
30.6998 62.4951 18.9446 0.448151 0.80014 -0.398667
32.0747 61.6823 18.7877 0.433901 0.824956 -0.362184
33.2599 60.9367 18.5662 0.446895 0.817634 -0.362986
34.5059 60.2308 18.48 0.461239 0.829721 -0.314359
35.643 59.5998 18.483 0.460869 0.829454 -0.315601
36.7502 58.9193 18.2918 0.483058 0.849068 -0.213864
37.6014 58.3925 18.1228 0.483048 0.849079 -0.213844
38.638 57.8152 18.0258 0.449673 0.870957 -0.198064
39.765 57.1588 17.61 0.429955 0.89167 -0.141644
40.9706 56.5798 17.6142 0.39452 0.91127 -0.105885
41.8145 56.159 17.2933 0.408786 0.903883 -0.126033
42.6733 55.8093 17.5777 0.416013 0.900575 -0.125113
41.9109 56.2116 17.9836 0.408786 0.903883 -0.126031
40.7531 56.8513 18.6658 0.427271 0.892873 -0.14219
39.7483 57.4744 19.3273 0.473056 0.869495 -0.134328
38.7991 58.1557 19.9953 0.530303 0.821139 -0.210971
37.9525 58.8716 20.5667 0.542432 0.78963 -0.286795
37.3045 59.472 21.0413 0.530708 0.799618 -0.280999
36.2322 60.4953 21.7273 0.511858 0.787862 -0.341947
35.4526 61.1835 22.2046 0.485723 0.804337 -0.342173
34.7457 61.8298 22.6053 0.534448 0.754527 -0.380859
33.6859 62.6262 23.0167 0.509111 0.800784 -0.305063
32.8084 63.3406 23.2978 0.49631 0.787272 -0.365894
31.7404 64.1357 23.4997 0.556294 0.765235 -0.323965
30.8564 64.7753 23.5855 0.464217 0.782561 -0.412575
29.8314 65.3632 23.7041 0.410526 0.794239 -0.447894
28.5813 66.0119 23.7159 0.436001 0.7773 -0.45222
27.5654 66.6009 23.7941 0.38762 0.784668 -0.483785
26.5825 67.0187 23.6005 0.256429 0.704437 -0.661826
25.2115 67.6098 23.7667 0.224662 0.755827 -0.614956
24.1444 67.9531 23.8062 0.200614 0.773307 -0.601456
23.156 68.1719 23.7578 0.153735 0.757062 -0.632305
22.1979 68.2369 23.7361 0.0104849 0.764925 -0.643806
21.0797 68.3093 23.8878 -0.0564686 0.764517 -0.640471
19.9752 68.201 23.8247 -0.0684804 0.742203 -0.665745
18.8657 68.1242 24.0032 -0.178012 0.719334 -0.671469
18.586 68.0771 24.0269 -0.20229 0.739455 -0.640576
21.706 67.1957 22.3846 -0.0175309 0.801868 -0.597063
20.6918 67.2454 22.5129 -0.0633036 0.812867 -0.578999
19.6296 67.0457 22.4098 -0.150952 0.798823 -0.582319
20.5169 66.9704 22.146 -0.0466291 0.804932 -0.591119
21.6489 67.0079 22.1393 -0.0299644 0.796994 -0.603243
21.8048 67.181 22.3637 -0.00509701 0.806741 -0.590883
31.0956 63.4587 21.3197 0.464012 0.793201 -0.393934
31.7695 62.9619 21.1465 0.480246 0.786656 -0.387989
33.0148 62.2017 21.123 0.479812 0.794748 -0.371693
33.1626 62.2756 21.4758 0.482632 0.797483 -0.36206
32.3579 62.891 21.743 0.490438 0.787366 -0.373512
31.3666 63.5348 21.8093 0.483732 0.787766 -0.381273
24.3749 66.3434 21.649 0.180185 0.807667 -0.558075
25.6403 65.9166 21.6029 0.25124 0.813381 -0.523789
26.7123 65.5782 21.5736 0.25011 0.829472 -0.499417
27.776 65.2662 21.7776 0.367265 0.817005 -0.444543
28.2848 65.2762 22.2162 0.369169 0.783187 -0.496475
27.3154 65.7452 22.2439 0.363165 0.79653 -0.480033
26.4947 66.0035 22.1242 0.264811 0.802144 -0.534872
25.9707 66.2032 22.1715 0.253958 0.796298 -0.549013
24.8947 66.6753 22.3752 0.238712 0.807248 -0.539785
23.2966 67.0732 22.4445 0.132072 0.799486 -0.585754
22.6719 66.8313 21.9736 0.132076 0.799488 -0.585751
23.7271 66.5325 21.7773 0.121657 0.808092 -0.576357
