18.2955 67.7251 21.8876 -0.176387 0.855681 -0.486515
19.2899 67.7996 21.6784 -0.165054 0.853788 -0.493764
20.5554 67.9141 21.4535 -0.173709 0.859097 -0.481432
21.3772 67.851 21.2229 0.0477496 0.898301 -0.436779
22.2032 67.677 21.0907 0.218676 0.823582 -0.523348
22.9147 67.8984 21.7365 0.184038 0.839517 -0.509607
22.0073 68.1171 21.9186 0.122261 0.902774 -0.412373
21.0563 68.1836 21.9202 -0.0322044 0.907457 -0.418908
20.0168 68.0219 21.8402 -0.162285 0.85885 -0.485686
18.7045 67.9307 22.1008 -0.170721 0.854735 -0.49014
18.5544 67.9838 22.2486 -0.176387 0.855681 -0.486516
18.5025 68.3374 22.9865 -0.240139 0.856141 -0.457554
19.611 68.3623 22.5601 -0.151382 0.854924 -0.496174
20.6081 68.4998 22.5847 -0.0399087 0.86977 -0.49184
21.5666 68.5248 22.5879 0.0480323 0.874783 -0.479775
22.4137 68.3932 22.5156 0.092006 0.864243 -0.494589
23.3119 68.2181 22.3535 0.125131 0.838741 -0.526191
24.5502 67.9406 22.3351 0.21753 0.821388 -0.525077
25.5321 67.708 22.4585 0.26583 0.803246 -0.532854
26.5105 67.3285 22.4002 0.298795 0.800525 -0.519037
27.2546 66.9353 22.2469 0.328201 0.795967 -0.508527
27.8388 66.4867 21.9614 0.375352 0.757258 -0.534482
28.9394 65.9745 21.973 0.389976 0.805056 -0.445359
29.9373 65.4719 22.029 0.424733 0.794992 -0.433116
30.7586 64.9146 21.7832 0.414495 0.802925 -0.428375
31.4812 64.4581 21.6359 0.449074 0.784868 -0.426262
32.3665 63.8397 21.4538 0.458408 0.785601 -0.415563
33.025 63.3526 21.2519 0.458944 0.805669 -0.374297
33.6891 62.8769 21.0937 0.487416 0.794426 -0.36237
34.7217 62.2291 21.0619 0.517529 0.77907 -0.352047
35.5887 61.5492 20.7583 0.499022 0.809736 -0.308716
36.2206 61.0367 20.4354 0.506399 0.803942 -0.311674
37.1307 60.3579 20.1998 0.539024 0.786749 -0.299119
37.1974 59.9085 19.0027 0.524349 0.806539 -0.273042
36.4354 60.4059 19.0358 0.508989 0.817464 -0.269598
35.2684 61.1299 19.1822 0.479863 0.821866 -0.306294
34.6107 61.5815 19.3172 0.477186 0.817722 -0.321546
33.7644 62.0078 19.1906 0.46389 0.825108 -0.322493
33.0641 62.4474 19.3081 0.475796 0.809807 -0.342152
32.3123 62.9436 19.4699 0.443875 0.812225 -0.378504
31.6821 63.3929 19.6951 0.443733 0.812307 -0.378495
30.944 63.8634 19.8626 0.432174 0.809187 -0.398047
29.8497 64.4486 19.9156 0.395503 0.82695 -0.399258
29.0363 64.7772 19.8196 0.341515 0.843596 -0.412001
28.2868 65.1937 20.067 0.357397 0.816349 -0.453698
27.5151 65.6798 20.3336 0.357395 0.81635 -0.453697
26.4347 66.0894 20.432 0.243015 0.837726 -0.489039
25.2083 66.6232 20.6273 0.281594 0.806411 -0.520005
24.0399 66.8901 20.4761 0.22378 0.819969 -0.526852
22.9919 67.1006 20.3834 0.174315 0.85162 -0.493677
22.0131 67.2808 20.4489 0.111736 0.844706 -0.523437
21.2399 67.4055 20.5099 -0.0320128 0.798812 -0.600729
20.4072 67.4479 20.7111 -0.171025 0.833521 -0.52535
19.5646 67.4045 20.917 -0.158939 0.828038 -0.537407
18.7528 67.3285 21.0605 -0.171106 0.832704 -0.526618
17.9123 67.1999 21.1785 -0.263477 0.812171 -0.519974
16.9173 66.8949 21.2554 -0.304494 0.806458 -0.506862
16.0923 66.6044 21.2849 -0.271975 0.839089 -0.470375
14.959 66.1676 21.3798 -0.365117 0.840878 -0.399517
14.1707 65.9459 21.6336 -0.364496 0.8306 -0.420363
12.6933 65.3479 21.8912 -0.421218 0.846548 -0.325473
11.737 64.9833 22.1803 -0.446648 0.83701 -0.314748
11.008 64.6111 22.2993 -0.472085 0.827471 -0.30402
10.0411 64.1599 22.417 -0.458615 0.851413 -0.250813
9.38191 63.7496 22.3213 -0.490679 0.841931 -0.224468
8.71046 63.3786 22.3953 -0.466383 0.860362 -0.202187
7.8151 62.9157 22.3812 -0.465189 0.869051 -0.168374
6.98225 62.4914 22.4927 -0.438433 0.88509 -0.152174
6.16769 62.1032 22.6878 -0.450166 0.887192 -0.101194
6.80457 62.496 23.162 -0.462235 0.877752 -0.126054
7.37705 62.8063 23.1772 -0.479547 0.869329 -0.119591
8.09034 63.2147 23.2858 -0.518227 0.840958 -0.145756
8.85272 63.7246 23.394 -0.500081 0.841132 -0.205952
9.55855 64.1395 23.3966 -0.494279 0.835984 -0.237904
10.5771 64.8256 23.5083 -0.508504 0.803398 -0.306342
11.3542 65.2865 23.544 -0.470778 0.819089 -0.327814
12.3755 65.8037 23.3053 -0.469531 0.805414 -0.360347
13.0872 66.1685 23.2405 -0.448045 0.807402 -0.383871
14.0481 66.7797 23.3968 -0.42889 0.804822 -0.409409
14.8353 67.1397 23.3309 -0.405756 0.811049 -0.421381
15.9548 67.525 23.0983 -0.365279 0.81493 -0.449933
16.9085 67.9285 23.1395 -0.287668 0.85119 -0.439002
17.7967 68.2342 23.1371 -0.260475 0.870336 -0.414056
18.2403 68.2968 23.0481 -0.223698 0.87266 -0.432742
18.5934 68.6975 23.6126 -0.230486 0.847485 -0.477574
17.2731 68.3913 23.7613 -0.288128 0.830785 -0.476212
16.2576 68.1177 23.9327 -0.316104 0.835631 -0.447961
15.495 67.7934 23.9548 -0.383263 0.814053 -0.435576
14.5498 67.3953 24.0977 -0.405757 0.811045 -0.421387
13.7925 66.9588 24.0472 -0.451669 0.798808 -0.397368
12.8945 66.3601 23.8571 -0.452213 0.782405 -0.42725
11.9613 65.8921 24.1199 -0.490425 0.803814 -0.3367
11.1138 65.4598 24.3222 -0.480605 0.81145 -0.332253
10.4089 64.9884 24.2811 -0.546225 0.78771 -0.284871
9.68479 64.4649 24.222 -0.521747 0.809046 -0.268121
9.07798 64.0196 24.0518 -0.524715 0.82303 -0.215123
8.37057 63.5856 24.131 -0.556906 0.812587 -0.171922
7.64671 63.0803 24.0874 -0.518227 0.840958 -0.145756
6.80537 62.606 23.9245 -0.483792 0.869094 -0.0957143
5.99879 62.1102 23.634 -0.52722 0.847028 -0.0625896
4.91903 61.5723 23.5737 -0.426359 0.904527 -2.386e-05
3.90887 61.0916 23.0638 -0.43139 0.902156 0.00422882
3.0911 60.8035 23.0418 -0.332836 0.941728 0.0486661
2.20955 60.4858 22.7472 -0.342609 0.93943 0.00753276
1.38436 60.2371 22.5882 -0.262118 0.963425 0.055737
0.391258 59.963 22.3089 -0.23878 0.971061 0.00502581
-0.318037 59.7852 21.9338 -0.260202 0.965375 -0.0185852
-1.53486 59.5289 21.4147 -0.186798 0.982253 -0.0168745
-2.6283 59.3034 21.1339 -0.181574 0.983004 0.0270938
-3.44784 59.1621 20.6337 -0.162585 0.986573 0.0154784
-4.15752 59.0524 20.1435 -0.163392 0.98646 0.014104
-4.92253 58.9467 19.7403 -0.133559 0.990932 0.0147116
-5.70843 58.8441 19.483 -0.135722 0.990645 0.0142009
-6.28224 58.7766 18.708 -0.135668 0.990652 0.0142629
-5.7652 58.84 19.2251 -0.135716 0.990646 0.0141912
-4.99334 58.9428 19.356 -0.137469 0.990359 0.0164879
-4.18351 59.0571 19.5177 -0.153612 0.987937 0.0166018
-3.41479 59.1815 19.7287 -0.163497 0.986444 0.0140318
-2.34205 59.3683 20.1579 -0.187155 0.982294 0.00843065
-1.59176 59.5065 20.3842 -0.180349 0.983601 0.001922
-0.929576 59.6444 20.7707 -0.202294 0.979308 -0.00569714
-0.153737 59.8037 20.5926 -0.231255 0.97234 -0.0121466
0.630003 60.0208 20.8972 -0.260175 0.965383 -0.0185744
1.62268 60.3029 21.0645 -0.28079 0.959588 -0.0186327
2.33753 60.5179 21.3634 -0.280755 0.959598 -0.0186375
3.89561 61.0624 21.5117 -0.335252 0.940477 -0.0557598
4.91292 61.4573 21.6108 -0.358583 0.932148 -0.0501802
6.00975 61.8939 21.5545 -0.41836 0.90187 -0.101907
6.73048 62.2186 21.4469 -0.411675 0.90113 -0.135974
7.50016 62.585 21.5446 -0.438433 0.88509 -0.152174
8.43521 63.0569 21.5017 -0.442718 0.878433 -0.179877
9.35954 63.5383 21.5774 -0.466383 0.860362 -0.202187
10.4165 64.0343 21.4499 -0.425925 0.861249 -0.277196
11.4131 64.5065 21.3855 -0.449003 0.844361 -0.290609
12.4565 64.9592 21.2011 -0.414587 0.842419 -0.344162
13.4435 65.4416 21.1929 -0.41472 0.842369 -0.344125
14.1605 65.56 20.8251 -0.33031 0.862739 -0.382853
15.0684 65.8237 20.5562 -0.365126 0.840877 -0.399511
16.0635 66.175 20.5089 -0.250215 0.851009 -0.461709
17.0943 66.462 20.4234 -0.294149 0.827143 -0.478863
18.0098 66.6755 20.3373 -0.22633 0.833324 -0.504326
19.2793 66.8459 20.1544 -0.146777 0.823362 -0.548208
20.3379 66.9412 19.9882 -0.119877 0.788842 -0.596227
21.2341 66.9307 19.8857 -0.0746558 0.809859 -0.581854
22.6521 66.713 19.7302 0.102654 0.811204 -0.575683
23.5967 66.4978 19.6773 0.185094 0.803969 -0.562421
24.5832 66.1516 19.5575 0.252444 0.813247 -0.523472
25.3199 65.9126 19.5752 0.242922 0.837784 -0.488986
26.1311 65.5765 19.4025 0.242926 0.837776 -0.488997
26.9006 65.3465 19.3907 0.242887 0.837787 -0.488997
27.8362 64.8812 19.1496 0.353608 0.8196 -0.450759
28.6024 64.595 19.1231 0.301839 0.85665 -0.418321
29.6921 64.1592 19.1792 0.38225 0.833511 -0.39893
30.5001 63.7331 19.0807 0.410958 0.823655 -0.390051
31.1877 63.2963 18.9152 0.430894 0.820504 -0.375638
32.0377 62.7376 18.7059 0.436301 0.82503 -0.358239
32.7948 62.3529 18.7117 0.428455 0.838219 -0.337364
33.4382 61.9012 18.474 0.455589 0.823479 -0.338114
34.4661 61.3173 18.4369 0.440602 0.839185 -0.317392
35.4865 60.6962 18.2943 0.4707 0.834317 -0.286978
36.4522 60.1274 18.2232 0.489113 0.825433 -0.280795
37.337 59.5735 18.082 0.487487 0.846237 -0.215034
38.392 58.9637 18.0738 0.487486 0.846244 -0.215009
39.0292 58.5555 17.8189 0.4933 0.856281 -0.153092
40.1746 57.9218 17.9651 0.495085 0.857134 -0.141695
40.8956 57.4936 17.7405 0.472358 0.872367 -0.125911
41.5899 57.0828 17.4741 0.456074 0.88251 -0.11477
42.3508 56.6592 17.2402 0.445031 0.890504 -0.0946058
43.1806 56.2445 17.2103 0.439678 0.893007 -0.0960328
42.645 56.5703 17.787 0.442359 0.891753 -0.0953221
41.8309 57.0186 17.9377 0.455489 0.882848 -0.114494
41.216 57.4492 18.6296 0.472676 0.871963 -0.127509
40.4132 57.9492 19.0725 0.498845 0.856595 -0.128363
39.6601 58.5255 19.5468 0.541311 0.814155 -0.210081
39.0094 59.0536 19.9172 0.527767 0.82318 -0.208736
38.327 59.4988 19.9943 0.545275 0.799551 -0.249004
37.8305 59.9943 20.4979 0.535799 0.792372 -0.291662
37.1888 60.5391 20.7994 0.5358 0.792371 -0.291664
36.5679 61.1035 21.1721 0.506401 0.803941 -0.311672
35.9697 61.5835 21.4591 0.499804 0.80759 -0.31304
35.3392 62.04 21.6302 0.523868 0.785691 -0.327102
34.6457 62.6294 21.8359 0.517528 0.779069 -0.35205
33.9471 63.0726 21.8683 0.48468 0.79849 -0.356988
33.1313 63.6961 22.0419 0.529516 0.751884 -0.392788
32.4085 64.2501 22.288 0.493666 0.782468 -0.374116
31.5804 64.8188 22.4221 0.429491 0.799074 -0.420735
30.9032 65.3291 22.6999 0.421993 0.801001 -0.424553
30.1306 65.7912 22.8048 0.441997 0.753228 -0.4825
29.1719 66.2713 22.6192 0.459253 0.711467 -0.531885
28.3717 66.698 22.6455 0.368782 0.772948 -0.516287
27.0986 67.4539 22.9266 0.330312 0.775855 -0.536948
26.3195 67.7851 22.9804 0.264719 0.797035 -0.542825
25.3859 68.1849 23.1044 0.265829 0.803247 -0.532854
24.5731 68.3235 22.9342 0.226728 0.814091 -0.534258
23.7764 68.596 23.0662 0.125132 0.838741 -0.526192
22.8393 68.7804 23.2497 0.0710476 0.861388 -0.502954
21.9098 68.9131 23.3302 0.0480323 0.874783 -0.479775
20.9622 68.9354 23.3645 0.00405856 0.885322 -0.464961
20.1527 68.8962 23.3294 -0.103654 0.865192 -0.490611
19.3602 68.8582 23.5108 -0.212134 0.857556 -0.467662
18.0557 67.7504 22.019 -0.243063 0.83632 -0.486487
17.9738 67.9586 22.4464 -0.260474 0.870337 -0.414056
17.1299 67.6888 22.5297 -0.300679 0.851344 -0.42959
16.7228 67.2846 22.0666 -0.32716 0.82894 -0.45347
17.5626 67.6038 22.0866 -0.30974 0.816958 -0.486457
17.8715 67.6862 22.0283 -0.309739 0.816958 -0.486457
31.4886 64.0408 20.8147 0.449173 0.803595 -0.389991
32.2358 63.4224 20.4345 0.458943 0.80567 -0.374297
32.8621 62.9267 20.1064 0.451717 0.813331 -0.366665
33.8031 62.263 19.8992 0.475796 0.809807 -0.342152
33.2137 62.8638 20.4241 0.487704 0.794506 -0.361808
32.5358 63.3959 20.7452 0.458944 0.805669 -0.374297
31.6616 63.9134 20.7595 0.466172 0.798006 -0.381931
29.325 64.9588 20.4525 0.395508 0.826947 -0.39926
28.4701 65.5554 20.8621 0.35631 0.815734 -0.455648
29.3984 65.1882 20.9798 0.419612 0.79896 -0.430745
30.2454 64.7713 21.0181 0.414495 0.802925 -0.428375
30.2348 64.7401 20.9456 0.408352 0.826889 -0.386655
24.8185 67.4864 21.7571 0.264223 0.814089 -0.517151
25.4631 67.0741 21.4591 0.281013 0.80157 -0.527748
26.6545 66.5687 21.3258 0.281303 0.80399 -0.523877
27.5738 66.1257 21.1822 0.356305 0.815736 -0.455649
26.956 66.6158 21.5574 0.298781 0.800525 -0.519044
26.291 67.0377 21.8445 0.279512 0.800901 -0.529556
25.2806 67.3945 21.8486 0.272617 0.807826 -0.522456
25.0999 67.4412 21.8298 0.264221 0.814087 -0.517155
14.5296 66.5986 22.5512 -0.384552 0.821026 -0.420947
14.2121 66.2893 22.2381 -0.384552 0.82103 -0.420941
15.3323 66.6541 21.9925 -0.363872 0.820323 -0.441211
16.3377 67.0928 22.0011 -0.337558 0.829765 -0.444461
15.4961 66.9556 22.4181 -0.36357 0.820538 -0.44106
15.2954 66.9038 22.487 -0.363719 0.82043 -0.441138
23.8121 67.3879 21.2115 0.199235 0.847798 -0.491471
24.2836 67.5885 21.7023 0.170843 0.828693 -0.532992
23.1482 67.8812 21.7933 0.185039 0.838245 -0.512232
23.2715 67.4881 21.1652 0.199235 0.847798 -0.491471
