68.9731 39.7159 23.4823 -0.648502 -0.761072 -0.0146467
69.8403 38.9709 23.4977 -0.64891 -0.760424 -0.0259121
70.8183 38.1494 23.3755 -0.641106 -0.767122 -0.0224924
71.6721 37.4348 23.3655 -0.63887 -0.769061 -0.0191851
72.9453 36.3817 23.2212 -0.637646 -0.77014 -0.0169883
73.8023 35.6769 23.1897 -0.632493 -0.774333 -0.0189978
74.9649 34.7314 23.0917 -0.631905 -0.774932 -0.013236
76.2179 33.7106 22.7724 -0.634607 -0.772691 -0.0148333
77.0884 33.0098 22.1657 -0.633714 -0.773374 -0.0173156
77.1882 32.955 20.9599 -0.634151 -0.773009 -0.0175724
77.2473 32.9375 19.6332 -0.632953 -0.77398 -0.0180626
77.1136 33.075 18.4335 -0.632957 -0.773969 -0.018393
77.1586 33.0712 17.1168 -0.634518 -0.77263 -0.0207512
77.0176 33.2226 15.8436 -0.635031 -0.772116 -0.0239217
77.0646 33.2253 14.6791 -0.633449 -0.773182 -0.0305322
75.9548 34.1146 15.0024 -0.624778 -0.780263 -0.028627
74.9258 34.9217 15.4236 -0.619329 -0.784747 -0.0245852
74.0418 35.5999 15.7141 -0.627749 -0.778412 0.00245562
73.0925 36.3772 15.5285 -0.644 -0.765006 0.00522467
72.3201 37.0309 14.9319 -0.647289 -0.762214 0.00683707
71.4559 37.7886 14.3664 -0.676339 -0.736576 -0.00457907
70.9488 38.2834 13.4587 -0.68653 -0.726946 -0.0130863
70.4296 38.8057 12.4268 -0.705307 -0.708518 -0.0233273
70.2194 39.088 11.3184 -0.698117 -0.714323 -0.0487353
70.3027 39.124 10.0411 -0.690838 -0.72047 -0.0605378
70.5089 39.011 9.02196 -0.690658 -0.72127 -0.0525427
71.2458 38.4227 7.53149 -0.685662 -0.725761 -0.0560266
71.8824 37.8508 6.72832 -0.6959 -0.717695 -0.0243579
73.0929 36.7234 6.07419 -0.681428 -0.73177 -0.00223749
73.8797 35.9744 5.78721 -0.69564 -0.718134 0.0192027
75.0389 34.8864 5.81885 -0.679317 -0.732904 0.0355986
75.8976 34.1147 6.21106 -0.681182 -0.730681 0.0457783
76.8115 33.3383 7.13333 -0.681049 -0.729742 0.0599548
77.333 32.8318 6.96823 -0.684807 -0.726187 0.0607609
77.4466 32.62 5.68726 -0.687025 -0.72443 0.0565546
77.5518 32.4316 4.53391 -0.68577 -0.725627 0.0564388
77.7521 32.151 3.40477 -0.686533 -0.724351 0.0631503
77.7936 32.0179 2.32584 -0.691055 -0.720119 0.0622233
77.8896 31.8218 1.1369 -0.690667 -0.720402 0.0632401
78.0546 31.5509 0.0311262 -0.694056 -0.716379 0.0713233
77.2652 32.2049 -1.11019 -0.697564 -0.712595 0.0748159
76.304 33.0825 -1.76521 -0.702801 -0.707203 0.076906
75.4834 33.8405 -2.34169 -0.707503 -0.702098 0.0804713
74.2871 34.9562 -3.20223 -0.714072 -0.694707 0.0862638
73.577 35.6513 -3.61044 -0.735707 -0.672701 0.0787889
72.3863 36.8415 -4.66989 -0.74077 -0.667361 0.0766232
71.4366 37.7796 -5.74911 -0.745769 -0.661825 0.0761564
70.846 38.3192 -6.836 -0.743067 -0.664198 0.0818085
70.1095 39.0206 -7.86774 -0.762449 -0.639888 0.0959948
69.637 39.4527 -8.82917 -0.767458 -0.635589 0.0838737
69.1052 39.982 -9.6805 -0.766964 -0.6361 0.0845167
68.6146 40.4693 -10.5263 -0.77197 -0.631954 0.0683035
68.0959 41.0096 -11.3045 -0.7607 -0.646308 0.0601714
67.3325 41.805 -12.2131 -0.75512 -0.652715 0.0612867
66.7883 42.3963 -12.8897 -0.753203 -0.656473 0.0405956
66.1067 43.1254 -13.5592 -0.745554 -0.665311 0.0380488
65.38 43.8853 -14.2844 -0.734149 -0.677643 0.0411663
64.637 44.6362 -14.8968 -0.727257 -0.685241 0.039253
63.9883 45.297 -15.4108 -0.719527 -0.693773 0.0276304
63.1268 46.1542 -15.9834 -0.716336 -0.69695 0.0335263
62.1516 47.1316 -16.6526 -0.710661 -0.703173 0.022565
61.3849 47.8786 -17.1543 -0.70733 -0.706284 0.0290997
60.601 48.6389 -17.6846 -0.698619 -0.715037 0.0255613
59.8002 49.412 -17.9357 -0.699955 -0.713703 0.0260992
58.9951 50.1872 -18.2882 -0.701457 -0.712266 0.0234404
58.2728 50.8922 -18.8727 -0.700477 -0.713567 0.0124297
57.5206 51.6244 -19.3145 -0.701598 -0.712464 0.0124666
56.7059 52.4251 -19.6353 -0.70043 -0.71371 0.004002
55.9947 53.1209 -20.0492 -0.700801 -0.713348 0.00345654
55.0148 54.0842 -20.5615 -0.70188 -0.712295 0.000643404
54.2421 54.8452 -20.8667 -0.701699 -0.712473 0.000108973
53.3787 55.6925 -21.3793 -0.700632 -0.713516 0.00298492
52.5086 56.5502 -21.8882 -0.70362 -0.710576 -0.000841919
51.6117 57.4255 -22.4578 -0.697342 -0.716736 0.00139756
50.8899 58.1251 -22.8823 -0.696557 -0.717497 0.00237012
50.1469 58.8449 -23.2012 -0.69537 -0.718645 0.00291018
49.0709 59.8767 -23.9932 -0.692884 -0.721029 0.0053659
48.2644 60.6489 -24.38 -0.692403 -0.721486 0.00595253
47.3131 61.5555 -25.0359 -0.691928 -0.721937 0.00660739
46.418 62.4091 -25.4337 -0.69125 -0.722584 0.00674614
45.4014 63.377 -25.9197 -0.691177 -0.722653 0.00689096
44.4771 64.255 -26.5912 -0.691103 -0.722728 0.00629663
43.6156 65.0726 -27.2253 -0.69067 -0.723148 0.00560036
42.7514 65.8995 -27.681 -0.692702 -0.721218 0.00290745
41.7282 66.8816 -28.1193 -0.693336 -0.720613 0.0010765
40.9704 67.6118 -28.519 -0.693777 -0.720189 -0.000550827
40.1159 68.4434 -29.0254 -0.698523 -0.715571 -0.00478432
39.3076 69.2318 -29.3451 -0.689027 -0.724574 -0.0153036
38.6446 69.8816 -29.8336 -0.691648 -0.721715 -0.0264249
38.0061 70.5087 -30.3845 -0.685983 -0.727016 -0.0295742
37.2601 71.2252 -30.6892 -0.683861 -0.728744 -0.03507
36.4531 71.9804 -31.1747 -0.66464 -0.745817 -0.0448326
35.3896 72.9754 -31.9119 -0.633512 -0.76962 -0.0796707
34.6092 73.6666 -32.4992 -0.594358 -0.797751 -0.0948428
33.8809 74.2315 -33.062 -0.537603 -0.83818 -0.09186
33.0796 74.8073 -33.493 -0.481248 -0.87018 -0.105768
32.0164 75.5016 -34.5253 -0.400935 -0.907725 -0.120999
31.1927 75.9843 -35.2002 -0.410141 -0.900648 -0.143589
30.0939 76.4747 -35.8091 -0.240904 -0.96159 -0.131572
28.668 76.8919 -36.7595 -0.170893 -0.978433 -0.108687
27.658 77.0937 -37.3969 -0.0858346 -0.991936 -0.0932478
26.7153 77.2248 -37.9231 -0.0854279 -0.990979 -0.102812
25.7647 77.3419 -38.493 -0.0361276 -0.994721 -0.096046
24.7255 77.4124 -39.0707 0.00674139 -0.996328 -0.0816323
23.5516 77.4183 -39.6349 0.086042 -0.992567 -0.0740155
22.5174 77.3198 -40.2043 0.12685 -0.99023 -0.0579078
21.3887 77.1825 -40.6246 0.166275 -0.983979 -0.0643198
19.7998 76.9185 -41.144 0.213257 -0.97592 -0.0410276
18.4918 76.6287 -41.5555 0.243799 -0.968334 -0.0494619
16.8704 76.1917 -41.7732 0.262049 -0.964528 -0.0313254
15.1326 75.6563 -42.2675 0.313189 -0.949241 -0.0288965
13.9684 75.2546 -42.2042 0.341427 -0.9392 -0.036478
12.8943 74.8443 -42.4512 0.364666 -0.930766 -0.0263217
11.9353 74.4345 -42.3915 0.416085 -0.907984 -0.0493705
10.7701 73.8817 -42.2575 0.424268 -0.90447 -0.0439442
9.49369 73.2627 -42.0204 0.447419 -0.891274 -0.0735358
8.59871 72.7786 -41.7151 0.474995 -0.874943 -0.0941008
7.50917 72.13 -41.5649 0.529704 -0.84432 -0.0808515
6.63728 71.5474 -41.2179 0.528133 -0.843259 -0.0994742
6.5246 71.4652 -41.1335 0.532122 -0.8398 -0.107617
-38.5409 52.4492 32.1346 0.333423 -0.942543 -0.0206156
-38.7524 52.3536 33.3167 0.333738 -0.942547 -0.0148405
-39.004 52.2452 34.6875 0.334423 -0.942331 -0.0131914
-39.349 52.1129 35.6903 0.335117 -0.942143 -0.00800623
-40.1555 51.8189 36.8896 0.333815 -0.942631 -0.00383524
-40.9642 51.53 37.5798 0.332396 -0.943135 -0.00282329
-42.0688 51.1403 38.2769 0.330681 -0.94374 -0.00210411
-42.9067 50.8468 38.7936 0.327919 -0.944705 -0.00116603
-43.9744 50.4754 39.3184 0.327469 -0.944858 -0.00285558
-45.0092 50.1184 39.4265 0.32502 -0.945701 -0.00339123
-46.0811 49.7528 39.2815 0.322039 -0.946717 -0.00425784
-47.2846 49.3452 38.8645 0.321443 -0.94691 -0.00603337
-48.1565 49.0545 38.4939 0.321508 -0.946848 -0.0105716
-48.9461 48.7945 37.8834 0.319654 -0.947448 -0.0127585
-49.7782 48.5247 37.1703 0.321374 -0.946825 -0.0155524
-50.7799 48.2047 36.0633 0.32073 -0.946998 -0.0180819
-51.3318 48.0325 35.2076 0.322901 -0.946248 -0.018676
-51.774 47.9059 34.0724 0.323791 -0.945893 -0.0211394
-51.866 47.8977 33.0707 0.324373 -0.945653 -0.0228414
-51.8891 47.9206 31.8154 0.324784 -0.945508 -0.0229929
-51.5814 48.0496 30.88 0.325592 -0.945222 -0.0233668
-51.2934 48.1733 29.9233 0.326595 -0.944889 -0.0228311
-50.9397 48.3185 28.9767 0.326773 -0.944832 -0.0226107
-50.3977 48.5284 28.0084 0.327064 -0.944777 -0.0206164
-49.7824 48.7578 27.2609 0.326746 -0.944897 -0.0201796
-48.8268 49.1038 26.4854 0.326108 -0.945128 -0.0196611
-48.0032 49.3974 25.9811 0.324444 -0.945712 -0.0190931
-46.7428 49.8346 25.6232 0.322 -0.946537 -0.0195977
-45.508 50.2561 25.5081 0.320348 -0.947098 -0.0195642
-44.3907 50.6309 25.5806 0.318537 -0.947675 -0.0210967
-43.3357 50.9788 25.8575 0.317321 -0.948057 -0.0222461
-42.4417 51.2688 26.2772 0.31869 -0.94757 -0.0234184
-41.3138 51.6332 26.9112 0.319573 -0.947231 -0.0250091
-40.4744 51.8999 27.5113 0.320469 -0.946909 -0.0257156
-39.7817 52.1131 28.3289 0.32132 -0.946627 -0.0254885
-39.1847 52.2854 29.5369 0.325221 -0.945296 -0.0254486
-38.8113 52.3887 30.5724 0.326959 -0.944763 -0.0228096
-38.5969 52.4445 31.4447 0.329366 -0.943983 -0.0203463
-39.4994 52.1233 31.6354 0.333365 -0.942472 -0.0247841
-39.5867 52.0689 32.7271 0.334603 -0.942199 -0.0172981
-39.876 51.9391 34.3236 0.337087 -0.941391 -0.0124408
-40.307 51.7707 35.5866 0.339814 -0.940482 -0.00452908
-41.128 51.4752 36.5092 0.335189 -0.942148 -0.00233188
-42.1662 51.1085 37.2058 0.332197 -0.94321 4.63402e-05
-43.1242 50.7729 37.7433 0.328425 -0.944529 -0.00151372
-43.9749 50.4772 38.2237 0.327414 -0.944881 -0.000813028
-44.9662 50.1352 38.484 0.325073 -0.945689 -0.000672357
-45.9781 49.7909 38.248 0.321362 -0.946955 -0.00153125
-47.0919 49.4185 37.8791 0.319775 -0.947469 -0.00683065
-48.131 49.0762 37.3871 0.317546 -0.948158 -0.0126828
-49.0374 48.7831 36.6324 0.319417 -0.947475 -0.016273
-49.7004 48.5734 35.8686 0.319496 -0.947429 -0.0173306
-50.4167 48.3525 34.8606 0.320816 -0.946891 -0.0216394
-50.8773 48.2215 33.6909 0.322953 -0.946147 -0.0225103
-50.9148 48.2337 32.6866 0.324465 -0.945559 -0.0252614
-50.7321 48.3296 31.3899 0.326416 -0.944915 -0.0242054
-50.4313 48.462 30.3071 0.327256 -0.944654 -0.0230483
-50.1071 48.5982 29.3468 0.327614 -0.944539 -0.0226946
-49.6062 48.7934 28.4955 0.328812 -0.944205 -0.0189378
-48.8288 49.0788 27.7175 0.327565 -0.944642 -0.0187892
-47.8486 49.4307 27.0338 0.325759 -0.945303 -0.0168098
-46.7373 49.8183 26.6297 0.322958 -0.94629 -0.0152413
-45.7604 50.1512 26.5387 0.320168 -0.947233 -0.0155531
-44.5575 50.555 26.5464 0.31705 -0.948273 -0.0160784
-43.5779 50.8761 26.8148 0.313529 -0.949452 -0.0155013
-42.5072 51.2209 27.3551 0.315753 -0.948503 -0.0253552
-41.39 51.5774 28.0111 0.318912 -0.947443 -0.0254284
-40.4695 51.8602 29.0283 0.323235 -0.945928 -0.0272013
-39.9131 52.0096 30.3997 0.326364 -0.944825 -0.0279734
-39.5366 52.113 31.5256 0.332285 -0.942901 -0.0227616
-40.4814 51.7768 31.5531 0.336162 -0.941462 -0.0253893
-40.5783 51.7105 32.9499 0.336857 -0.941386 -0.0179033
-40.7405 51.6303 34.003 0.341687 -0.93967 -0.0159707
-41.095 51.49 34.9971 0.337164 -0.941445 -0.00126258
-41.8221 51.2306 35.7941 0.333603 -0.942713 -0.000512613
-42.6748 50.9294 36.4873 0.333084 -0.942868 0.00737802
-43.6938 50.5755 36.9506 0.327058 -0.945004 -0.000547172
-44.7735 50.2022 37.4322 0.325917 -0.945398 -0.000123168
-45.9382 49.8099 37.1211 0.317839 -0.948139 -0.00334336
-46.876 49.5002 36.953 0.315165 -0.94898 -0.010334
-47.7732 49.2075 36.4456 0.314578 -0.949129 -0.0135569
-48.6879 48.919 35.6459 0.316733 -0.948323 -0.0188171
-49.2404 48.7494 34.8173 0.318742 -0.947574 -0.0223705
-49.7153 48.6125 33.9121 0.321255 -0.94669 -0.0239307
-49.8919 48.5826 32.7109 0.323253 -0.94595 -0.0262048
-49.7613 48.6655 31.4345 0.327191 -0.944574 -0.0268465
-49.4694 48.797 30.2659 0.330152 -0.943596 -0.0248753
-48.9985 48.989 29.2634 0.331131 -0.943337 -0.0216208
-48.0537 49.3365 28.4703 0.328147 -0.944496 -0.0154667
-47.0951 49.6776 27.7934 0.327155 -0.944862 -0.0143463
-46.0841 50.0285 27.4995 0.32044 -0.947198 -0.0108616
-44.9922 50.3936 27.5347 0.318371 -0.947868 -0.0136225
-43.7067 50.8163 27.8712 0.311687 -0.950016 -0.0176685
-42.6514 51.1496 28.3876 0.310185 -0.950373 -0.023678
-41.6587 51.4579 29.0074 0.317557 -0.947805 -0.0286761
-41.0129 51.6339 30.3469 0.326886 -0.944531 -0.0317355
-40.5198 51.7662 31.4389 0.331439 -0.942928 -0.0312539
60.1794 49.1419 -15.0704 -0.690019 -0.723171 0.0299492
60.9638 48.3956 -14.5676 -0.701606 -0.712046 0.0271845
61.6945 47.6906 -14.0886 -0.700917 -0.712517 0.032159
62.5945 46.822 -13.4702 -0.710344 -0.702891 0.0368222
63.3736 46.063 -12.9173 -0.710414 -0.702466 0.043048
64.3053 45.1451 -12.2363 -0.720359 -0.692484 0.0393597
64.9666 44.4842 -11.7335 -0.729799 -0.682853 0.0332449
67.5507 41.9094 -8.53201 -0.750328 -0.657986 0.0637371
66.6478 42.832 -9.27825 -0.733059 -0.678209 0.0515465
65.7491 43.747 -10.0034 -0.729994 -0.68155 0.05097
64.9749 44.5369 -10.6202 -0.725565 -0.687103 0.0379964
64.196 45.3188 -11.2248 -0.72059 -0.691944 0.0443067
63.4945 46.0126 -11.7462 -0.717355 -0.695619 0.0389358
62.6788 46.8071 -12.3307 -0.710265 -0.702191 0.0495099
61.8608 47.5816 -12.8957 -0.700103 -0.713302 0.0324886
61.1374 48.2714 -13.3822 -0.70173 -0.711732 0.0318253
60.4019 48.9675 -13.8629 -0.689586 -0.724049 0.0149582
59.6065 49.7083 -14.3678 -0.68452 -0.728788 0.0173456
58.8888 50.3753 -14.8173 -0.689498 -0.724181 0.0124564
57.9907 51.2233 -15.3732 -0.689026 -0.724683 0.0087627
57.1408 52.0291 -15.8939 -0.691136 -0.722692 0.0068433
56.2819 52.8535 -16.4234 -0.692791 -0.721137 0.0011705
55.5364 53.5752 -16.8785 -0.696976 -0.717087 -0.00334772
54.7323 54.361 -17.3684 -0.698954 -0.715165 -0.00139699
53.8607 55.217 -17.9076 -0.701467 -0.712699 -0.00201601
53.1089 55.9585 -18.3823 -0.701617 -0.712551 -0.00222598
52.4091 56.6488 -18.8255 -0.701307 -0.712859 -0.00101505
51.5918 57.4528 -19.3411 -0.700279 -0.713869 0.000598041
50.8391 58.1879 -19.8225 -0.699424 -0.714705 0.0017076
49.9031 59.0978 -20.4198 -0.697923 -0.716162 0.00389536
49.1474 59.8289 -20.9015 -0.695194 -0.718804 0.00521937
48.3539 60.5894 -21.4063 -0.693321 -0.720596 0.0069336
48.0512 60.8785 -21.5995 -0.69295 -0.720953 0.00679172
14.6221 75.4202 -39.6446 0.34219 -0.939546 -0.0125726
16.9263 76.1465 -39.2374 0.283759 -0.958894 0.00182635
19.2358 76.7186 -38.6682 0.201271 -0.97937 -0.0179804
21.4721 77.0947 -37.6522 0.134672 -0.990807 -0.0128317
23.4006 77.2548 -36.407 0.0277357 -0.99939 -0.0212089
25.5324 77.1538 -34.9979 -0.0808651 -0.995521 -0.0489854
27.8042 76.808 -33.5231 -0.225688 -0.973708 -0.0309324
29.7532 76.1996 -32.2805 -0.297958 -0.953034 -0.0542896
31.795 75.2771 -31.0496 -0.402847 -0.912887 -0.0659702
33.5712 74.1461 -29.9338 -0.565176 -0.822095 -0.0688199
35.3142 72.7926 -28.798 -0.615147 -0.787352 -0.0408738
36.9683 71.3566 -27.6847 -0.661837 -0.748856 -0.0344478
38.6121 69.8353 -26.5873 -0.68433 -0.729045 -0.0136446
40.1751 68.3576 -25.5661 -0.684903 -0.728604 -0.00674089
41.8778 66.7463 -24.4729 -0.688565 -0.725169 0.0028293
43.4507 65.2605 -23.4698 -0.688975 -0.724763 0.00575394
45.2518 63.5544 -22.3231 -0.690775 -0.723035 0.0070987
47.1703 61.7304 -21.0972 -0.692452 -0.721423 0.00773083
48.8287 60.1428 -20.0391 -0.694221 -0.719739 0.00566357
50.5285 58.4942 -18.9569 -0.699603 -0.714529 0.00178635
52.0785 56.9733 -17.9719 -0.70195 -0.712226 -0.000540191
53.7876 55.2837 -16.8941 -0.701269 -0.71288 -0.00483903
55.2793 53.8209 -15.9723 -0.697249 -0.716821 -0.00329372
56.9513 52.2148 -14.9466 -0.688204 -0.725515 -0.00178377
58.5645 50.6981 -13.9535 -0.685804 -0.727747 0.00753489
60.113 49.2672 -12.9781 -0.684082 -0.729081 0.0217288
61.6743 47.8137 -11.9443 -0.691356 -0.72192 0.0293035
63.3502 46.2193 -10.7655 -0.716687 -0.696116 0.0422172
65.1086 44.4722 -9.40803 -0.726205 -0.685826 0.0476281
67.0615 42.5047 -7.82229 -0.733062 -0.677735 0.0574011
68.5161 41.0016 -6.65814 -0.734519 -0.676641 0.0513636
68.7532 40.7586 -6.46818 -0.7412 -0.668582 0.0601741
69.9099 39.627 -4.486 -0.740442 -0.670566 0.045671
68.3765 41.2288 -5.662 -0.737342 -0.673556 0.0514746
66.9891 42.6671 -6.76416 -0.733905 -0.677224 0.0524623
65.3513 44.307 -8.09949 -0.723586 -0.688704 0.0459391
63.9244 45.7173 -9.2313 -0.710302 -0.702704 0.0409555
62.3778 47.2094 -10.376 -0.696371 -0.717097 0.0289714
60.8538 48.619 -11.4155 -0.685317 -0.727882 0.0229815
59.3313 50.0089 -12.404 -0.681725 -0.73147 0.0142328
57.5081 51.6914 -13.5361 -0.682165 -0.73119 0.00355569
55.8242 53.2893 -14.5729 -0.690732 -0.72308 -0.00669282
54.2017 54.8673 -15.5764 -0.699401 -0.714704 -0.00598354
52.571 56.4819 -16.6014 -0.703084 -0.711097 -0.00367434
50.9442 58.0912 -17.6321 -0.702942 -0.711247 0.000859702
49.4173 59.5811 -18.6019 -0.697933 -0.716148 0.00466362
47.7482 61.1899 -19.6651 -0.693696 -0.720225 0.00782357
46.1504 62.712 -20.6842 -0.691305 -0.722524 0.00747691
44.2243 64.5383 -21.9129 -0.689792 -0.723977 0.00669809
42.6182 66.0551 -22.936 -0.68809 -0.725607 0.00507378
41.0099 67.5705 -23.9613 -0.685444 -0.728124 0.00141497
39.3858 69.0944 -25.0065 -0.682737 -0.730633 -0.00682598
37.4792 70.8497 -26.258 -0.66648 -0.745202 -0.0218645
35.8739 72.2674 -27.3245 -0.631398 -0.77472 -0.033841
34.2294 73.5922 -28.4097 -0.558581 -0.828413 -0.0414555
32.5009 74.7872 -29.5007 -0.516179 -0.853696 -0.0690057
30.2835 75.9127 -30.8606 -0.396186 -0.916572 -0.0541543
28.3046 76.622 -32.0788 -0.244115 -0.967369 -0.0678684
26.2357 77.0524 -33.3855 -0.130853 -0.991388 -0.00513378
24.1381 77.226 -34.7562 -0.01186 -0.999897 0.00807744
22.0888 77.1514 -36.0952 0.0989554 -0.99486 -0.0214966
19.8903 76.8374 -37.31 0.185081 -0.982723 0.00108787
17.407 76.2703 -38.0953 0.260579 -0.965428 -0.00693597
15.185 75.6083 -38.5373 0.327921 -0.944678 -0.00713993
12.9491 74.7641 -38.9215 0.386259 -0.922184 -0.0194971
10.7023 73.7489 -39.3057 0.431368 -0.90212 -0.0100826
10.4758 73.641 -39.344 0.447425 -0.894258 -0.0106355
7.71966 72.0533 -38.7704 0.532776 -0.845201 -0.0422428
10.2276 73.4869 -38.3883 0.484786 -0.874402 -0.0200855
12.6851 74.6344 -37.9632 0.399358 -0.916768 -0.00703601
14.7992 75.4666 -37.5924 0.345284 -0.938455 -0.00896563
16.9359 76.1437 -37.1668 0.256508 -0.966542 0.000249557
19.2749 76.7174 -36.4918 0.208574 -0.977998 -0.0040897
21.3612 77.064 -35.4048 0.109014 -0.993822 -0.0208189
23.5133 77.227 -34.0117 0.0732872 -0.997228 -0.0128374
25.5003 77.1401 -32.7193 -0.0880168 -0.995958 0.0179284
27.5297 76.7728 -31.441 -0.243251 -0.969379 -0.033665
29.7554 76.0955 -30.0789 -0.343486 -0.938662 -0.0305142
31.8958 75.0564 -28.7716 -0.447001 -0.893865 -0.0345787
33.6302 73.9753 -27.7008 -0.566443 -0.823965 -0.0149364
35.2859 72.7203 -26.6272 -0.624877 -0.780204 -0.0284776
36.9881 71.2648 -25.5023 -0.658032 -0.752842 -0.0149588
38.5781 69.8335 -24.4593 -0.675667 -0.737175 -0.00682739
40.1821 68.3473 -23.4232 -0.677782 -0.735259 -0.00236932
41.8617 66.776 -22.3536 -0.687426 -0.726237 0.00499028
43.5486 65.1868 -21.2778 -0.688971 -0.724751 0.00742512
45.2138 63.6131 -20.2158 -0.690049 -0.723714 0.00832256
46.7333 62.1705 -19.2482 -0.692261 -0.721593 0.00884425
48.2815 60.6899 -18.2637 -0.696283 -0.717727 0.00763651
49.9377 59.0815 -17.2114 -0.700607 -0.713538 0.0036112
51.4874 57.5544 -16.2287 -0.70498 -0.709226 -0.00108068
53.0636 55.9845 -15.2302 -0.702176 -0.711983 -0.00534416
54.6173 54.4513 -14.2559 -0.69838 -0.715675 -0.0085922
56.184 52.9332 -13.2829 -0.689511 -0.724244 -0.00665436
57.8275 51.3982 -12.2678 -0.676965 -0.736013 0.00167363
59.4551 49.9207 -11.2528 -0.676554 -0.736199 0.0168917
61.3155 48.2345 -10.0246 -0.678136 -0.734301 0.0305433
62.9551 46.7047 -8.86196 -0.701122 -0.712199 0.0346649
64.5329 45.186 -7.64368 -0.716216 -0.696774 0.0392453
66.0194 43.7262 -6.43522 -0.720004 -0.692129 0.0505137
67.628 42.0903 -5.13465 -0.738337 -0.672744 0.0476853
69.0872 40.5688 -4.00511 -0.740945 -0.670007 0.0457297
70.5709 39.0159 -2.92439 -0.726749 -0.684962 0.0516107
72.0168 37.5206 -1.84789 -0.735086 -0.675532 0.0574919
73.5916 35.9546 -0.604054 -0.718836 -0.692047 0.065919
75.0409 34.575 0.587978 -0.707053 -0.705216 0.0524073
75.9604 33.7204 1.35186 -0.698034 -0.714198 0.0516645
75.9351 33.821 2.39608 -0.696949 -0.715114 0.0536098
74.4021 35.2595 1.12449 -0.712713 -0.699549 0.0516919
72.8185 36.802 -0.162044 -0.723444 -0.688975 0.0440624
71.3747 38.2593 -1.27527 -0.728986 -0.68332 0.0406636
69.9378 39.7428 -2.291 -0.735135 -0.677017 0.034996
68.1716 41.5969 -3.58999 -0.736717 -0.675144 0.0377993
66.5302 43.2888 -4.88314 -0.726161 -0.686407 0.0391914
65.0144 44.7849 -6.12952 -0.712295 -0.70064 0.0417045
63.5629 46.1865 -7.29277 -0.695999 -0.717292 0.0328288
62.0282 47.6275 -8.43998 -0.693275 -0.719957 0.0321228
60.476 49.0277 -9.50745 -0.667371 -0.744558 0.0158156
58.892 50.4331 -10.5275 -0.667068 -0.744995 0.00158308
57.193 51.9754 -11.5851 -0.675371 -0.737471 -0.00320384
55.5594 53.5173 -12.5994 -0.688495 -0.725107 -0.0139475
54.4249 54.6268 -13.3087 -0.698062 -0.715974 -0.00953056
8.16104 72.2889 -37.7278 0.53275 -0.845768 -0.0292273
9.15513 72.8652 -37.5697 0.495923 -0.867668 -0.0348116
10.151 73.4169 -37.4035 0.480732 -0.87632 -0.0309927
11.0885 73.9016 -37.2404 0.43968 -0.8978 -0.0252378
12.1966 74.4145 -37.0395 0.399358 -0.916768 -0.00703601
13.335 74.9058 -36.8329 0.384676 -0.922992 -0.0104722
14.441 75.3249 -36.6297 0.353432 -0.93544 -0.00620886
15.488 75.6988 -36.4285 0.329879 -0.943995 -0.00732362
16.5237 76.0216 -36.2134 0.296223 -0.955119 -0.000234907
17.6169 76.3258 -35.9378 0.26914 -0.963094 -0.00365345
18.9231 76.6374 -35.537 0.22795 -0.973667 0.00343088
20.0039 76.8615 -35.0494 0.177057 -0.984193 -0.00394289
20.9405 76.989 -34.5267 0.117857 -0.992628 -0.0282873
22.2331 77.123 -33.6976 0.0985933 -0.994885 -0.0219863
23.3225 77.1757 -32.9934 0.0562037 -0.997583 -0.0408576
24.2053 77.1907 -32.422 -0.00572072 -0.999616 -0.0271051
25.3343 77.1449 -31.6995 -0.116254 -0.992876 -0.0261032
26.3318 76.986 -31.0756 -0.1478 -0.989008 0.00431453
27.5238 76.7654 -30.3367 -0.21445 -0.976595 -0.0165379
28.7424 76.4151 -29.5912 -0.307443 -0.951446 -0.0151778
29.9147 76.0011 -28.8848 -0.368935 -0.929038 0.0278482
30.8361 75.6126 -28.3375 -0.44562 -0.895221 0.00163179
31.8554 75.0739 -27.7138 -0.480128 -0.877116 -0.0120667
32.819 74.5084 -27.1238 -0.543417 -0.839425 -0.00797398
33.8193 73.8146 -26.4949 -0.584494 -0.811314 -0.0116283
34.8229 73.0547 -25.843 -0.621281 -0.783257 -0.0227488
35.8603 72.2059 -25.1648 -0.627652 -0.778367 -0.0140631
36.822 71.3948 -24.5362 -0.655635 -0.755006 -0.0104134
37.8942 70.4398 -23.8325 -0.6662 -0.745737 -0.00735954
38.9275 69.5057 -23.1585 -0.676493 -0.736448 -0.000873234
39.7425 68.7551 -22.633 -0.678043 -0.735019 0.00216259
40.469 68.086 -22.1688 -0.683157 -0.73027 0.0018861
41.2062 67.3979 -21.7026 -0.684485 -0.729007 0.00538632
41.9474 66.7035 -21.2336 -0.686514 -0.727092 0.00607898
42.7413 65.957 -20.7278 -0.687166 -0.726469 0.00680926
43.4738 65.2677 -20.2595 -0.688581 -0.725125 0.00704669
44.1749 64.6068 -19.8129 -0.688361 -0.725323 0.00813406
44.9263 63.8974 -19.3344 -0.689631 -0.72411 0.00860382
46.0304 62.8509 -18.6313 -0.691227 -0.722586 0.00865245
46.0818 62.8022 -18.5987 -0.691228 -0.722585 0.00865153
8.86009 72.681 -36.6283 0.511025 -0.859481 -0.01207
10.1975 73.4211 -36.3992 0.471583 -0.881699 -0.0146762
11.5586 74.1097 -36.1488 0.437443 -0.899205 -0.00866328
12.994 74.7528 -35.8792 0.384667 -0.922996 -0.0104657
14.0224 75.1605 -35.678 0.362305 -0.931992 -0.0112013
15.1595 75.571 -35.4591 0.338861 -0.940797 -0.0086814
16.2865 75.9478 -35.22 0.305564 -0.952145 -0.00714458
17.2763 76.2292 -34.9592 0.271099 -0.962551 -0.000627803
18.4247 76.5228 -34.5968 0.226187 -0.974083 0.00124085
19.492 76.7582 -34.1578 0.199373 -0.979921 0.00218061
20.5452 76.9166 -33.6321 0.130683 -0.991135 -0.0239281
21.4558 77.0134 -33.0531 0.121387 -0.992355 -0.0223052
22.4118 77.1155 -32.4489 0.0666974 -0.997683 0.0134027
23.3071 77.1811 -31.8763 0.0283696 -0.999584 -0.00523954
24.568 77.1879 -31.0611 -0.0399692 -0.999114 -0.0131994
25.4783 77.1187 -30.4874 -0.115774 -0.993184 0.0135189
26.4497 76.9736 -29.8928 -0.150195 -0.988637 0.00618807
27.3521 76.8064 -29.3324 -0.204474 -0.978511 0.0265897
28.6587 76.4523 -28.5343 -0.307733 -0.951168 0.0240829
29.6133 76.1437 -27.9766 -0.355882 -0.934271 0.0220322
30.476 75.7826 -27.4652 -0.427403 -0.904061 -0.000293358
31.57 75.2177 -26.8062 -0.482885 -0.875671 0.00475788
32.5111 74.7017 -26.2306 -0.51471 -0.857364 0.00100645
33.0543 74.3506 -25.9002 -0.566812 -0.823835 -0.00437208
57.1596 51.9916 -10.5274 -0.669581 -0.742625 -0.0130036
58.6235 50.6761 -9.61393 -0.662939 -0.748659 -0.00464236
60.2246 49.2718 -8.58415 -0.665835 -0.745928 0.0159653
61.695 47.9706 -7.57936 -0.678087 -0.73461 0.0233578
63.0095 46.755 -6.60284 -0.695998 -0.717293 0.0328249
64.2194 45.6141 -5.64748 -0.705096 -0.707847 0.0423351
65.6685 44.2224 -4.44754 -0.715367 -0.697939 0.0336377
66.8788 42.9961 -3.45083 -0.729091 -0.683968 0.0247806
68.0302 41.7986 -2.55692 -0.730672 -0.682297 0.0242596
69.3755 40.3892 -1.59015 -0.736088 -0.676008 0.0344686
70.5552 39.1594 -0.776927 -0.724512 -0.688619 0.0297748
71.7268 37.9602 0.0543894 -0.724089 -0.688942 0.0324688
72.9632 36.722 1.02063 -0.718726 -0.694457 0.0340872
74.209 35.5084 2.01544 -0.706661 -0.706497 0.0386316
75.4524 34.3362 3.05508 -0.694872 -0.717781 0.0440737
74.1463 35.6223 3.00745 -0.707614 -0.705669 0.0362472
72.8153 36.915 1.95501 -0.713582 -0.700206 0.0226483
71.6383 38.0972 1.03848 -0.718352 -0.695281 0.0235668
70.2743 39.4886 0.120232 -0.726352 -0.686993 0.021299
69.0447 40.7731 -0.69081 -0.730023 -0.683128 0.0200585
67.8584 42.019 -1.53076 -0.731504 -0.681453 0.0228749
66.6135 43.3027 -2.48121 -0.726082 -0.687353 0.0187392
65.489 44.4515 -3.44569 -0.720099 -0.693244 0.0295166
64.3582 45.5423 -4.40479 -0.696769 -0.716179 0.0400077
63.1518 46.6684 -5.37447 -0.69031 -0.723067 0.0254391
61.9303 47.7925 -6.30514 -0.674019 -0.738379 0.0222501
60.7624 48.8248 -7.13128 -0.662016 -0.749371 0.0133124
11.1154 73.882 -35.2287 0.452715 -0.891615 -0.00848844
12.079 74.3315 -35.0439 0.416688 -0.909035 -0.00511913
13.0873 74.79 -34.8474 0.39179 -0.920055 -3.83403e-05
14.2023 75.2161 -34.6273 0.349922 -0.936697 -0.0123481
15.2857 75.6081 -34.4025 0.338356 -0.940997 -0.00630726
16.7461 76.0739 -34.0466 0.290706 -0.956723 -0.0130801
18.2477 76.4698 -33.5505 0.245375 -0.969239 -0.019169
19.4414 76.7445 -33.0585 0.157632 -0.986842 0.0360003
20.3851 76.899 -32.5965 0.108602 -0.993982 0.0143271
21.6023 77.0526 -31.8299 0.115213 -0.992861 0.0308765
22.7731 77.1738 -31.0824 0.0637677 -0.996923 0.0455778
23.8105 77.212 -30.4246 -0.0129382 -0.999477 0.0296338
24.8024 77.1788 -29.7897 -0.0648252 -0.997855 0.00914399
25.3446 77.15 -29.444 -0.102569 -0.9945 0.0211759
-33.2038 54.8945 10.285 0.29813 -0.953816 -0.0367776
-31.4134 55.4318 10.5603 0.290476 -0.956386 -0.0308057
-29.6308 55.9525 10.7208 0.274139 -0.961234 -0.029621
-27.9719 56.416 10.6713 0.264655 -0.964028 -0.0246442
-25.329 57.1043 11.5331 0.24842 -0.968481 -0.0182353
-27.0364 56.6513 11.6181 0.265437 -0.963944 -0.0188453
-28.7046 56.1906 11.6343 0.27493 -0.961237 -0.0209111
-30.5289 55.6602 11.6515 0.281969 -0.958861 -0.0328564
-32.3585 55.1164 11.4095 0.291802 -0.955939 -0.032117
-34.5251 54.4484 11.0448 0.3051 -0.951575 -0.0376617
-36.2765 53.8887 10.702 0.316335 -0.947861 -0.0386209
-38.251 53.1946 11.4138 0.321818 -0.946096 -0.0365541
-36.3677 53.8173 11.7318 0.317259 -0.947617 -0.0369861
-34.1695 54.5207 12.1229 0.30445 -0.951835 -0.0363377
-32.1185 55.1541 12.4441 0.295297 -0.954765 -0.0349748
-30.2356 55.7205 12.6001 0.284814 -0.958309 -0.0229048
-28.5458 56.2132 12.5822 0.268785 -0.962946 -0.0221407
-26.8742 56.6772 12.5786 0.260617 -0.96524 -0.0197912
-25.0075 57.1681 12.4778 0.246677 -0.968974 -0.0154925
-23.3197 57.5859 12.4361 0.228237 -0.973478 -0.0157898
-21.2026 58.0465 13.3597 0.208288 -0.978034 -0.00805838
-23.0405 57.6345 13.3726 0.226312 -0.973894 -0.0177104
-24.9269 57.1734 13.4255 0.248074 -0.968602 -0.0164257
-26.6502 56.7187 13.5027 0.26114 -0.965094 -0.0199918
-28.3322 56.2548 13.5576 0.263891 -0.964289 -0.0225656
-30.4106 55.6458 13.5217 0.286661 -0.957747 -0.0233877
-32.2049 55.0963 13.4108 0.296834 -0.954471 -0.0295782
-34.198 54.4752 13.134 0.306165 -0.951325 -0.0352655
-35.8478 53.9449 12.8743 0.314286 -0.948676 -0.0351962
-37.5501 53.3849 12.5983 0.319436 -0.946877 -0.0372032
-39.2384 52.8252 12.2771 0.323266 -0.945587 -0.0369459
-40.5225 52.3946 11.9913 0.326151 -0.944631 -0.0360334
-41.9231 51.8807 12.8208 0.326157 -0.944719 -0.0335816
-40.048 52.5119 13.1973 0.32428 -0.945279 -0.0359155
-37.8374 53.2492 13.5917 0.320162 -0.94663 -0.0372595
-36.1168 53.8203 13.832 0.316628 -0.947868 -0.0359702
-34.1721 54.4458 14.1558 0.305885 -0.951474 -0.0336314
-32.4668 54.9848 14.3363 0.302126 -0.952772 -0.0307497
-30.6373 55.5538 14.4698 0.291476 -0.956206 -0.0266765
-28.9423 56.0574 14.5023 0.282043 -0.959049 -0.026023
-27.2164 56.5456 14.4661 0.264878 -0.964098 -0.0188269
-25.4416 57.0273 14.3847 0.25821 -0.965919 -0.0181297
-23.7516 57.4504 14.3346 0.238613 -0.97101 -0.0142777
-21.7471 57.918 14.2742 0.218451 -0.975778 -0.0116593
-19.9342 58.2976 14.308 0.188018 -0.982146 -0.00616315
-18.9083 58.4901 15.2397 0.188547 -0.98206 -0.00266751
-21.0155 58.0742 15.1963 0.201105 -0.979569 -0.000953704
-22.8541 57.6552 15.2154 0.227025 -0.973873 -0.0056049
-24.542 57.2454 15.287 0.239251 -0.970905 -0.010102
-26.2452 56.7943 15.3415 0.261292 -0.965119 -0.0164827
-28.1654 56.2592 15.4473 0.271164 -0.962272 -0.0224251
-29.8585 55.7617 15.435 0.284129 -0.958532 -0.0220556
-31.6654 55.2093 15.3523 0.304097 -0.952258 -0.0270229
-33.6749 54.5705 15.2212 0.306909 -0.951294 -0.0290924
-35.3999 54.0175 14.9702 0.31764 -0.947542 -0.0356209
-37.1454 53.44 14.724 0.318831 -0.947127 -0.0360228
-38.9214 52.8487 14.4653 0.322208 -0.946006 -0.035415
-40.8797 52.1914 14.1334 0.324183 -0.94535 -0.0349108
-42.7385 51.5644 13.7893 0.325997 -0.94476 -0.033983
-43.7571 51.2191 13.6201 0.326157 -0.944719 -0.0335816
-44.7071 50.8605 14.5028 0.325765 -0.944867 -0.033208
-42.8094 51.5004 14.8956 0.325294 -0.944999 -0.0340843
-41.0644 52.0903 15.1522 0.323728 -0.945504 -0.0349554
-39.0382 52.7711 15.4752 0.322959 -0.945753 -0.0353525
-37.3959 53.3184 15.7191 0.319029 -0.947102 -0.0349088
-35.5192 53.9417 15.9416 0.317193 -0.947746 -0.0341504
-33.4471 54.6132 16.2099 0.307435 -0.951088 -0.0302379
-31.5443 55.221 16.3003 0.300299 -0.95342 -0.0284625
-29.8781 55.7339 16.374 0.285214 -0.958155 -0.0243287
-27.872 56.323 16.3658 0.27429 -0.96144 -0.019961
-25.8995 56.8716 16.2673 0.260955 -0.965285 -0.0112964
-24.1443 57.3344 16.1932 0.242765 -0.970045 -0.00876215
-22.1981 57.8025 16.1177 0.226528 -0.973987 -0.00586588
-20.3519 58.2052 16.1296 0.195592 -0.980674 -0.0047824
-18.6243 58.5404 16.1626 0.185206 -0.982682 -0.00599091
-17.7174 58.7044 16.1632 0.176262 -0.984319 -0.00697672
-16.4705 58.9227 17.1084 0.16808 -0.985771 -0.00214899
-18.2299 58.6056 17.0722 0.178873 -0.983871 -0.00141906
-20.3992 58.1912 17.0541 0.195876 -0.980605 -0.00686829
-22.1016 57.8201 17.0364 0.22631 -0.974043 -0.00478174
-24.0052 57.3597 17.1002 0.246941 -0.96897 -0.0108665
-25.9535 56.8462 17.1915 0.259072 -0.965781 -0.0122403
-27.7613 56.3361 17.2851 0.277254 -0.960649 -0.0168606
-29.736 55.7527 17.3107 0.290467 -0.956695 -0.0190775
-31.7202 55.1373 17.2318 0.298462 -0.954042 -0.0268977
-33.5481 54.5495 17.1844 0.307484 -0.951074 -0.0302035
-35.2011 54.0094 17.0039 0.317163 -0.947792 -0.033121
-37.1048 53.378 16.7756 0.319434 -0.946977 -0.0345903
-38.8376 52.7995 16.5468 0.322018 -0.946077 -0.0352618
-40.5784 52.2131 16.3316 0.322922 -0.945798 -0.0344576
-42.4061 51.5967 16.0596 0.324451 -0.945293 -0.0339596
-44.0419 51.0456 15.7522 0.325456 -0.944966 -0.0334363
-45.7046 50.4827 15.4779 0.325951 -0.944817 -0.0328197
-46.4125 50.2025 16.5248 0.325833 -0.94487 -0.0324472
-44.5495 50.8348 16.7864 0.324627 -0.945253 -0.03338
-42.9195 51.3843 17.0684 0.324144 -0.945428 -0.0331203
-41.2804 51.939 17.2712 0.3235 -0.945637 -0.0334307
-39.2829 52.6118 17.5191 0.322311 -0.945991 -0.0348725
-37.3711 53.2527 17.7493 0.320396 -0.946652 -0.034583
-35.6427 53.8291 17.9358 0.31875 -0.94728 -0.0325476
-33.5357 54.5248 18.1244 0.314829 -0.948667 -0.0302287
-31.3932 55.2154 18.1909 0.305081 -0.951924 -0.0276727
-29.5436 55.7927 18.2346 0.288786 -0.957198 -0.0193361
-27.6406 56.355 18.2169 0.277302 -0.960652 -0.0158888
-25.8494 56.8624 18.1182 0.263748 -0.964506 -0.0128811
-23.7921 57.4031 18.0059 0.245197 -0.969389 -0.0127877
-22.1067 57.812 17.9711 0.222445 -0.974906 -0.00879391
-20.2792 58.2043 17.9808 0.200419 -0.979635 -0.0121212
-18.441 58.566 17.9669 0.182522 -0.983197 -0.00296868
-16.1572 58.9712 18.0061 0.164328 -0.986402 0.00278426
-15.4951 59.0815 18.0113 0.164329 -0.986402 0.00278427
-14.3053 59.2669 18.968 0.14692 -0.989148 -0.0002085
-16.1001 58.9814 18.9064 0.170035 -0.985437 -0.0013097
-17.856 58.6728 18.8781 0.184056 -0.982913 -0.00251377
-19.8491 58.2881 18.8622 0.194834 -0.980806 -0.00769092
-21.8138 57.8671 18.9082 0.21443 -0.976667 -0.011898
-23.93 57.353 18.9427 0.244146 -0.969545 -0.0193908
-26.0377 56.7951 19.0549 0.265562 -0.963935 -0.0174835
-27.9593 56.247 19.1857 0.276178 -0.960962 -0.0166898
-29.6864 55.7272 19.1639 0.296435 -0.954778 -0.0229114
-31.6856 55.0958 19.1369 0.306547 -0.951562 -0.0236468
-33.4969 54.5077 19.0626 0.315751 -0.94838 -0.0296144
-35.165 53.9542 18.9728 0.319628 -0.947062 -0.0302004
-36.8081 53.4053 18.8206 0.320415 -0.946703 -0.0329792
-38.5744 52.8129 18.6251 0.321369 -0.946332 -0.0343043
-40.2426 52.2521 18.4331 0.322547 -0.945954 -0.0336823
-41.9771 51.6662 18.2363 0.323874 -0.945517 -0.033207
-43.8381 51.0382 17.9617 0.32445 -0.945356 -0.0321664
-45.5671 50.452 17.765 0.324426 -0.945375 -0.0318549
-47.0846 49.9343 17.6115 0.326027 -0.94484 -0.0313723
-47.8139 49.6439 18.8252 0.326162 -0.944833 -0.0301571
-45.9214 50.2949 18.8399 0.324648 -0.945324 -0.0310688
-44.2788 50.853 18.9854 0.323849 -0.945592 -0.0312792
-42.5376 51.4416 19.1898 0.323143 -0.945802 -0.0322132
-40.8316 52.0176 19.3955 0.32297 -0.945859 -0.0322715
-38.9476 52.6521 19.6008 0.321481 -0.94635 -0.0327315
-37.1769 53.2476 19.7796 0.321352 -0.946449 -0.0310982
-35.4853 53.8157 19.9174 0.320007 -0.94691 -0.0309312
-33.4883 54.4816 20.0226 0.314719 -0.948745 -0.0289006
-31.6857 55.0721 20.0875 0.309969 -0.950417 -0.0250201
-30.0357 55.5976 20.0912 0.297588 -0.954536 -0.017378
-27.8999 56.2472 20.0879 0.287921 -0.957462 -0.019165
-25.6325 56.8875 19.954 0.262416 -0.964898 -0.0105028
-23.6487 57.4075 19.8785 0.244916 -0.969419 -0.0156061
-21.7355 57.8729 19.83 0.222034 -0.974975 -0.0111539
-19.7804 58.2958 19.7647 0.198328 -0.980104 -0.00784243
-17.9094 58.6593 19.7872 0.187103 -0.982339 -0.00153775
-16.0838 58.9831 19.8352 0.160319 -0.987059 -0.00347803
-14.2736 59.2693 19.8712 0.149598 -0.988737 -0.0043323
-13.3197 59.4101 19.8907 0.146045 -0.989278 -0.000528373
-12.4725 59.5358 20.8482 0.141494 -0.989939 0.000740655
-14.2297 59.2733 20.7828 0.152082 -0.988367 0.00128479
-16.1426 58.9709 20.7635 0.159411 -0.987212 -0.000940788
-18.0142 58.6384 20.7065 0.184423 -0.982841 0.00334101
-19.8256 58.2761 20.6942 0.204032 -0.978963 -0.00155981
-21.8539 57.8353 20.752 0.216207 -0.976288 -0.0107606
-23.5913 57.4116 20.8184 0.243399 -0.96988 -0.0094546
-25.4357 56.9311 20.8684 0.259154 -0.965753 -0.0126859
-27.6946 56.2903 20.9833 0.274856 -0.961327 -0.0174426
-29.4741 55.7534 21.0379 0.29687 -0.954667 -0.0218807
-31.2622 55.1845 21.0218 0.308716 -0.950812 -0.0254926
-33.3746 54.4907 20.9925 0.316598 -0.948177 -0.0269338
-35.0739 53.923 20.926 0.319873 -0.946995 -0.0297019
-37.2672 53.1839 20.7672 0.322019 -0.946233 -0.0307697
-39.2557 52.5139 20.5883 0.321933 -0.946241 -0.0314293
-41.1041 51.8908 20.3935 0.322077 -0.946222 -0.0305013
-42.7519 51.3346 20.2173 0.323348 -0.945791 -0.0304194
-44.5775 50.7176 20.0224 0.323091 -0.945905 -0.0295922
-46.8964 49.9244 19.9892 0.324508 -0.945449 -0.0286421
-48.6999 49.3015 20.0534 0.326097 -0.944951 -0.0270004
-49.6094 48.9514 21.3793 0.326619 -0.944848 -0.0241189
-47.9073 49.5432 21.1882 0.324902 -0.945382 -0.026285
-45.9909 50.201 21.1336 0.323695 -0.945782 -0.0267928
-43.8899 50.9166 21.1727 0.322197 -0.946262 -0.027887
-42.2495 51.4713 21.309 0.321907 -0.946293 -0.0300878
-40.5491 52.0444 21.4841 0.321813 -0.946303 -0.0307773
-38.7711 52.6441 21.643 0.322156 -0.946203 -0.0302621
-36.9281 53.268 21.7711 0.321839 -0.946374 -0.0282015
-34.9715 53.9283 21.9026 0.320339 -0.946909 -0.0273215
-33.2052 54.5215 21.9446 0.31735 -0.947941 -0.0264033
-31.1716 55.1888 21.9656 0.308861 -0.950772 -0.0252642
-29.4991 55.7228 21.9639 0.29613 -0.954834 -0.0244744
-27.8128 56.2383 21.906 0.283099 -0.958917 -0.01826
-26.0797 56.7395 21.8309 0.271149 -0.962427 -0.0145666
-24.2701 57.228 21.7754 0.250914 -0.967922 -0.0130002
-22.4672 57.6793 21.7093 0.236365 -0.971616 -0.00973155
-20.1952 58.1903 21.6346 0.212728 -0.977048 -0.0111097
-18.2854 58.5884 21.6313 0.190182 -0.981738 -0.00453501
-16.2529 58.9504 21.6924 0.168049 -0.985765 -0.00525671
-14.3765 59.251 21.7068 0.155223 -0.987876 -0.00254532
-12.5783 59.5221 21.776 0.142741 -0.98976 0.000684105
-11.3151 59.7008 21.7872 0.138832 -0.990316 0.000108836
-10.1662 59.8628 22.7152 0.139805 -0.990179 0.000586787
-11.9149 59.6158 22.7072 0.142425 -0.9898 -0.00324388
-13.8021 59.3379 22.6713 0.153035 -0.988208 -0.0051031
-15.5442 59.0636 22.6202 0.164788 -0.986325 0.00278689
-17.4137 58.7393 22.602 0.175246 -0.984486 -0.0087341
-19.2629 58.3814 22.5639 0.20119 -0.97943 -0.0154592
-21.5134 57.8942 22.6076 0.219977 -0.975497 -0.00400985
-23.2684 57.4745 22.6728 0.237735 -0.971308 -0.00661804
-25.0761 57.0005 22.7351 0.258446 -0.965891 -0.0161172
-26.7607 56.5351 22.7861 0.269824 -0.962844 -0.0112256
-28.6981 55.9526 22.86 0.296344 -0.954953 -0.0156652
-30.361 55.4307 22.9017 0.309659 -0.950652 -0.0192931
-32.055 54.8771 22.9026 0.312882 -0.949463 -0.0249891
-34.2893 54.132 22.8752 0.319205 -0.947374 -0.0243182
-36.0609 53.5324 22.8186 0.321997 -0.946356 -0.0269708
-37.8216 52.9351 22.7106 0.323575 -0.945774 -0.028462
-39.9057 52.2284 22.5647 0.321937 -0.946325 -0.0287205
-41.6926 51.6263 22.3931 0.321855 -0.946301 -0.030403
-43.4949 51.0189 22.2734 0.321665 -0.946486 -0.0263737
-45.1721 50.4496 22.2164 0.322844 -0.94611 -0.0254598
-47.4645 49.6649 22.3124 0.323824 -0.945818 -0.0238086
-49.2621 49.0436 22.4723 0.325606 -0.945199 -0.0240672
-50.4394 48.6338 22.6304 0.326612 -0.944884 -0.0227866
-51.227 48.3315 23.9125 0.327317 -0.944679 -0.0211108
-49.4671 48.945 23.6399 0.325777 -0.94517 -0.0228652
-47.5128 49.6202 23.45 0.323571 -0.945917 -0.0233007
-45.829 50.197 23.3451 0.321365 -0.94665 -0.0240499
-43.8497 50.8678 23.3631 0.321408 -0.946566 -0.0266335
-42.0848 51.463 23.4271 0.320593 -0.946809 -0.0278097
-40.0358 52.1535 23.5792 0.32213 -0.946326 -0.0264517
-38.2347 52.7653 23.6826 0.323536 -0.945834 -0.0268714
-36.3982 53.3907 23.769 0.322504 -0.946222 -0.0256127
-34.5434 54.0205 23.8166 0.321091 -0.946705 -0.0254893
-32.5901 54.6777 23.8403 0.317835 -0.947882 -0.0223706
-30.7613 55.2811 23.8354 0.309902 -0.950563 -0.0197541
-29.1111 55.8092 23.7996 0.297907 -0.954458 -0.0161414
-27.4341 56.3251 23.7273 0.286498 -0.957997 -0.0126511
-25.6582 56.8339 23.6771 0.269915 -0.96282 -0.0110744
-23.9146 57.2963 23.6256 0.252929 -0.967431 -0.0101734
-22.2162 57.7188 23.5681 0.23042 -0.97309 -0.0016634
-20.0282 58.2137 23.5173 0.20608 -0.978522 -0.00502724
-17.9409 58.6369 23.5294 0.187296 -0.982258 -0.00942786
-16.0887 58.9684 23.5504 0.1725 -0.984989 -0.00638826
-14.1314 59.2844 23.5875 0.153581 -0.988133 -0.00245809
-11.8829 59.6187 23.6277 0.142488 -0.989796 -0.000551342
-9.62859 59.9412 23.6678 0.142373 -0.989809 0.0027919
-8.04223 60.1699 23.7335 0.14584 -0.989299 0.00426431
-4.99279 60.6668 25.1491 0.171518 -0.985129 0.0101154
-7.32995 60.2826 24.7681 0.150661 -0.988551 0.00821451
-9.16145 60.012 24.631 0.144666 -0.989472 0.00402812
-11.2682 59.7075 24.564 0.142436 -0.989801 0.00227767
-13.2217 59.4215 24.5284 0.146318 -0.989237 -0.00053339
-15.317 59.0917 24.5055 0.164371 -0.986396 -0.00235844
-17.1499 58.7762 24.478 0.176172 -0.984352 -0.00378478
-19.241 58.3721 24.4573 0.203639 -0.979036 -0.00454712
-21.0555 57.9826 24.4796 0.218386 -0.975849 -0.00509154
-22.8881 57.5498 24.528 0.241184 -0.970398 -0.0125375
-24.5706 57.1157 24.574 0.251535 -0.967799 -0.00974839
-26.6041 56.5574 24.6531 0.274823 -0.961373 -0.0152993
-28.6786 55.9287 24.711 0.297906 -0.954459 -0.0161447
-30.476 55.3562 24.7596 0.310684 -0.950347 -0.0177792
-32.4905 54.6896 24.7766 0.317288 -0.948131 -0.0193979
-34.1864 54.1183 24.7683 0.321129 -0.946763 -0.0227304
-35.8627 53.5471 24.7629 0.323122 -0.946048 -0.0242131
-37.7466 52.9046 24.6982 0.324132 -0.945666 -0.0255578
-39.3956 52.3423 24.6341 0.322469 -0.946232 -0.0256512
-41.0418 51.7852 24.5386 0.320978 -0.946737 -0.0257454
-42.9277 51.151 24.4313 0.319163 -0.947364 -0.0252201
-44.585 50.5922 24.419 0.320456 -0.947002 -0.0222707
-46.6249 49.8984 24.5177 0.321807 -0.946566 -0.0212701
-48.3236 49.3143 24.6878 0.323921 -0.945861 -0.0205521
-50.3394 48.6146 24.9579 0.325853 -0.945184 -0.0211433
-51.9078 48.0692 25.127 0.326507 -0.944965 -0.0208552
-52.1811 47.9493 26.2915 0.326123 -0.945107 -0.0204099
-50.4065 48.5673 26.0622 0.326336 -0.945048 -0.0197387
-49.2302 48.9763 25.922 0.326084 -0.945137 -0.019606
-50.335 48.5678 27.1969 0.327156 -0.944745 -0.0206185
-52.4307 47.8374 27.4787 0.326063 -0.945123 -0.0206351
-52.2795 47.8641 28.5907 0.325728 -0.945208 -0.0219676
-51.204 48.2406 28.3873 0.327078 -0.944746 -0.021782
14.1829 75.21 -33.6154 0.355009 -0.934781 0.0124127
15.1665 75.5696 -33.3994 0.327553 -0.944744 0.0129539
16.1637 75.8941 -33.1505 0.279377 -0.960001 0.0186161
17.5639 76.2968 -32.7221 0.251336 -0.967688 0.0202369
18.6752 76.5952 -32.2927 0.252204 -0.967441 0.0212377
19.7712 76.8151 -31.7911 0.175368 -0.98447 0.00805763
20.9644 77.0025 -31.1019 0.113967 -0.992903 0.0339886
21.2293 77.0386 -30.9354 0.117836 -0.992288 0.0384675
65.7603 44.2133 -2.01935 -0.720813 -0.692967 0.0150079
66.4493 43.4997 -1.44007 -0.724066 -0.689657 0.0101198
67.1612 42.7621 -0.888694 -0.723589 -0.69014 0.0112513
68.0419 41.8471 -0.24449 -0.725679 -0.687994 0.00741692
68.8434 41.0066 0.293616 -0.726354 -0.687284 0.00712465
69.5767 40.2337 0.771915 -0.718828 -0.695012 0.0156414
70.4657 39.3234 1.32074 -0.722876 -0.69058 0.0234466
71.3317 38.4387 1.8676 -0.718738 -0.694955 0.0213111
72.1772 37.5883 2.48599 -0.714434 -0.699469 0.018087
73.0712 36.6987 3.17197 -0.70987 -0.703922 0.0240423
73.2415 36.5316 3.30785 -0.70987 -0.703922 0.0240423
72.4049 37.3798 3.69453 -0.711108 -0.703023 0.00921715
71.5306 38.2544 3.0609 -0.708811 -0.705397 -0.00169227
70.6486 39.1486 2.47935 -0.715323 -0.698787 0.00300288
69.86 39.9542 2.0409 -0.71716 -0.696909 -0.000753518
68.8099 41.0474 1.40047 -0.720264 -0.693637 -0.00930826
67.9137 41.9826 0.820999 -0.717757 -0.696248 -0.00794703
67.0225 42.9112 0.201903 -0.71962 -0.69432 -0.00821039
66.3929 43.5697 -0.29879 -0.720527 -0.693382 -0.00794584
66.5851 43.3537 1.12626 -0.720528 -0.693381 -0.00793597
67.5331 42.3645 1.73559 -0.715618 -0.698186 -0.0206916
68.408 41.4523 2.2664 -0.711066 -0.702629 -0.0264032
69.2862 40.5426 2.76903 -0.717113 -0.69693 -0.00604494
70.2328 39.5707 3.30069 -0.713551 -0.700598 -0.00292405
71.0942 38.6914 3.777 -0.713448 -0.700702 -0.00299597
71.6009 38.1842 4.13123 -0.704304 -0.709845 -0.00873614
70.9675 38.8053 4.70707 -0.704203 -0.709698 -0.0206399
69.9788 39.809 4.18234 -0.704398 -0.709318 -0.0263053
69.0787 40.7314 3.71379 -0.71338 -0.700201 -0.0284405
68.2624 41.5675 3.27803 -0.706455 -0.707447 -0.0209568
67.323 42.5324 2.73907 -0.710692 -0.702919 -0.0286685
66.7594 43.118 2.39087 -0.713823 -0.699562 -0.0327025
66.6394 43.1682 3.53257 -0.705461 -0.707341 -0.0446387
67.5269 42.2663 3.98382 -0.699629 -0.71306 -0.0454419
68.2839 41.4969 4.35907 -0.70383 -0.709191 -0.0408697
69.2995 40.4571 4.83674 -0.70287 -0.710091 -0.0417724
70.1513 39.5954 5.27942 -0.704515 -0.709138 -0.0279632
69.4756 40.2254 5.87091 -0.700441 -0.712577 -0.040193
68.6781 41.0299 5.55611 -0.702865 -0.710096 -0.0417701
67.577 42.1477 5.10244 -0.699212 -0.712989 -0.0524317
66.8075 42.9246 4.77101 -0.697294 -0.714887 -0.0521323
66.6185 43.0244 5.77395 -0.693558 -0.717761 -0.0616122
67.7542 41.892 6.20353 -0.692696 -0.71862 -0.0613032
68.5913 41.0521 6.49526 -0.698589 -0.713925 -0.047796
69.1091 40.5334 6.69687 -0.698041 -0.714376 -0.0490449
68.9604 40.6185 7.55141 -0.695686 -0.71625 -0.0548257
68.0902 41.4755 7.30896 -0.691312 -0.720063 -0.0599762
67.2108 42.3457 7.02667 -0.692685 -0.718634 -0.061254
66.365 43.1704 6.80186 -0.686357 -0.723901 -0.069866
66.3087 43.2255 6.78375 -0.686357 -0.723901 -0.069864
66.1026 43.3237 7.76277 -0.682384 -0.727057 -0.075756
66.9645 42.4901 7.96939 -0.685265 -0.725347 -0.0654498
67.8542 41.6277 8.19855 -0.686182 -0.724439 -0.0658932
68.7166 40.7803 8.44019 -0.692667 -0.71887 -0.0586422
68.0791 41.3211 9.22263 -0.6858 -0.724766 -0.0662737
67.1313 42.2415 8.97919 -0.685724 -0.724893 -0.0656752
66.3114 43.0192 8.83536 -0.68077 -0.728913 -0.0723747
65.7782 43.531 8.71892 -0.676761 -0.73208 -0.0778036
65.0963 44.0431 9.72537 -0.667666 -0.739847 -0.0827522
66.1418 43.0789 9.81738 -0.672517 -0.736195 -0.0757491
67.1596 42.1228 9.95113 -0.681001 -0.728955 -0.0697285
68.1071 41.21 10.1559 -0.685331 -0.725254 -0.0657901
68.1462 41.1723 10.1645 -0.685141 -0.725612 -0.063795
68.0145 41.2204 11.0585 -0.68257 -0.727894 -0.0653324
67.0056 42.1719 10.9096 -0.676432 -0.733418 -0.0673612
66.0298 43.0814 10.7975 -0.668793 -0.739142 -0.0799105
65.1556 43.8689 10.7764 -0.665682 -0.741308 -0.0856161
64.9161 44.0847 10.7706 -0.664544 -0.742515 -0.0839798
64.4206 44.4055 11.8172 -0.656617 -0.749466 -0.0845887
65.3734 43.5666 11.7867 -0.663035 -0.744228 -0.0806761
66.2222 42.8067 11.8067 -0.667999 -0.740726 -0.0714321
67.4114 41.6989 11.9448 -0.678897 -0.731567 -0.0625297
68.3398 40.8316 12.0673 -0.681255 -0.72987 -0.0563942
68.3255 40.7717 13.0085 -0.68273 -0.728868 -0.0512952
67.1959 41.8231 12.8893 -0.676326 -0.734217 -0.0592359
66.0826 42.8375 12.8039 -0.662773 -0.74582 -0.0669682
65.0019 43.792 12.7877 -0.659844 -0.74765 -0.0750033
64.0756 44.581 12.8687 -0.648256 -0.75615 -0.0894514
63.694 44.9019 12.9115 -0.640813 -0.762193 -0.0917644
62.8181 45.5107 14.0776 -0.630276 -0.772404 -0.0783871
63.9102 44.6151 13.9294 -0.638854 -0.765387 -0.0777713
64.9163 43.7639 13.8431 -0.655397 -0.751699 -0.0735025
65.8745 42.9318 13.8093 -0.657403 -0.750292 -0.0698779
66.8335 42.0722 13.8566 -0.664729 -0.744722 -0.0593695
67.7684 41.2233 13.9212 -0.673044 -0.73772 -0.0527304
68.7027 40.3609 13.9928 -0.675585 -0.735723 -0.047919
68.8117 40.2602 14.0003 -0.679105 -0.733009 -0.0389139
69.0545 39.9822 14.9714 -0.675442 -0.736213 -0.0420585
67.8597 41.0695 14.9018 -0.668417 -0.742089 -0.0502271
66.7243 42.0895 14.8478 -0.663965 -0.745253 -0.0612165
65.6327 43.054 14.8364 -0.656093 -0.7519 -0.0647177
64.5926 43.9493 14.8851 -0.649369 -0.757197 -0.0705163
63.3951 44.9441 15.0106 -0.637319 -0.767322 -0.071006
62.2145 45.8909 15.22 -0.623004 -0.778916 -0.0718076
61.2121 46.6644 15.4741 -0.61293 -0.787586 -0.0634455
60.4776 47.2172 15.6852 -0.602882 -0.795425 -0.0619155
-2.73613 61.1133 24.7037 0.21569 -0.975937 0.0320175
-2.66654 61.1297 24.7173 0.234765 -0.971558 0.0309935
-2.35207 61.2249 25.6973 0.23206 -0.972501 0.0197366
-3.45728 60.9652 25.4916 0.222058 -0.974833 0.019763
-4.42337 60.7691 25.2589 0.18835 -0.981973 0.015921
4.33289 63.5236 27.3206 0.441485 -0.897167 0.0135248
1.68157 62.4232 27.2013 0.334615 -0.942322 0.0078705
-1.08391 61.5717 26.8308 0.250973 -0.967833 0.017677
-3.76238 60.9179 26.3629 0.202832 -0.97899 0.0209219
-6.69909 60.3861 25.7844 0.156503 -0.987631 0.00959072
-9.7793 59.9237 25.5401 0.146217 -0.989246 0.00371385
-12.7807 59.4891 25.4597 0.147813 -0.989014 0.0015725
-15.7996 59.01 25.4229 0.165346 -0.986235 0.00124259
-18.7387 58.4736 25.4031 0.20517 -0.978725 -0.0016055
-21.4757 57.8748 25.4302 0.227013 -0.973771 -0.0153274
-24.1995 57.2051 25.5008 0.249306 -0.968398 -0.00724323
-27.2906 56.3394 25.6088 0.285184 -0.958381 -0.0132831
-30.1213 55.4549 25.6762 0.309039 -0.950867 -0.0186349
-32.7474 54.5829 25.716 0.319018 -0.94753 -0.0203448
-35.5183 53.6413 25.7227 0.323753 -0.945869 -0.0227256
-38.2345 52.711 25.6931 0.323856 -0.945784 -0.0246936
-41.3234 51.6639 25.5491 0.320129 -0.947087 -0.0233004
-42.7279 51.1919 25.4984 0.319142 -0.947418 -0.0233923
-40.3605 51.9612 26.6534 0.32041 -0.946969 -0.0242245
