27.7058 69.5772 31.2752 -0.403232 -0.913062 0.0610083
26.5607 70.0753 31.5883 -0.321096 -0.941865 0.0989371
25.2369 70.5152 31.8413 -0.279911 -0.954514 0.102732
23.7443 70.9095 32.2215 -0.201811 -0.973716 0.10559
22.0544 71.1419 32.6521 -0.0332069 -0.993931 0.104873
20.8151 71.1616 32.8698 0.0689298 -0.993999 0.0849343
19.5188 71.0913 33.4129 0.108692 -0.989145 0.0948448
18.2239 70.883 33.6751 0.208403 -0.975356 0.0723873
16.8565 70.5796 33.9538 0.280109 -0.9564 0.0826909
15.3956 70.1173 34.4475 0.340526 -0.935677 0.0883575
14.0785 69.5879 34.8081 0.407299 -0.911448 0.0580496
12.8622 69.0313 35.1317 0.456982 -0.886866 0.0680919
11.4837 68.3288 35.5601 0.471612 -0.879882 0.0582204
10.3914 67.696 35.9221 0.51195 -0.858388 0.0328183
9.14864 66.9623 36.2087 0.511637 -0.858943 0.0210972
8.08127 66.3323 36.3314 0.505852 -0.862464 0.0164077
6.88977 65.6417 36.7328 0.505879 -0.862469 0.0151369
5.68453 64.9615 37.0423 0.477219 -0.87864 -0.0156652
4.34194 64.2759 37.4125 0.42204 -0.905992 -0.0202663
2.95168 63.6644 37.8002 0.384969 -0.92259 -0.02287
1.54545 63.1066 38.273 0.336633 -0.941179 -0.0293445
0.325352 62.6843 38.5938 0.301332 -0.952932 -0.0334522
-1.16516 62.2522 39.1377 0.259473 -0.965458 -0.0237528
-2.68918 61.8824 39.7369 0.209198 -0.977849 -0.00512841
-3.97975 61.6021 39.936 0.19707 -0.980245 -0.00926292
-5.24182 61.3712 40.6536 0.173575 -0.98482 -0.00144738
-6.55059 61.1419 41.1451 0.168744 -0.985657 -0.0022488
-7.8207 60.9432 41.7622 0.159368 -0.987076 0.0155339
-9.10911 60.7236 42.1901 0.163154 -0.986479 -0.00130525
-10.4314 60.5179 43.0445 0.16057 -0.986999 0.00707643
-11.7386 60.3113 43.6869 0.166225 -0.985989 0.0139296
-13.1418 60.0784 44.4608 0.176731 -0.984181 0.0120757
-14.1907 59.8969 45.0609 0.188618 -0.982 0.00996912
-15.3177 59.6888 45.6942 0.187589 -0.982172 0.0121883
-16.3406 59.4854 46.3572 0.20401 -0.978888 0.0123351
-17.6228 59.221 47.1266 0.216903 -0.976056 0.0163571
-18.8525 58.9472 47.6264 0.228 -0.973564 0.0137694
-20.0755 58.6532 48.3455 0.241516 -0.970382 0.00533045
-21.4144 58.3218 48.9738 0.253535 -0.967271 0.00968789
-22.5862 58.0159 49.4096 0.257563 -0.96621 0.00980537
-23.8922 57.662 49.9773 0.26554 -0.964014 0.012168
-25.2756 57.2721 50.3214 0.278978 -0.960252 0.00912294
-26.5455 56.8964 50.5494 0.29301 -0.956036 0.0118474
-27.8231 56.5068 50.7237 0.297505 -0.954659 0.00978066
-29.0615 56.1184 51.0029 0.303608 -0.952759 0.00822005
-30.208 55.7459 51.0755 0.314542 -0.949225 0.00588142
-31.5124 55.3099 51.2082 0.319171 -0.947688 0.00411277
-32.6762 54.9149 51.2608 0.323022 -0.946391 0.00130615
-33.8641 54.5079 51.1468 0.32686 -0.945062 0.00449352
-35.01 54.1097 51.2773 0.329228 -0.944249 0.00163456
-36.2843 53.6642 51.1441 0.330531 -0.943794 0.00130589
-37.7637 53.144 50.8885 0.331556 -0.943435 0.000519456
-39.196 52.6383 50.6739 0.333082 -0.942897 -0.00105551
-40.5536 52.16 50.2566 0.333552 -0.94273 -0.00131104
-41.9689 51.6604 49.7664 0.332521 -0.943091 -0.00317148
-43.0227 51.2906 49.293 0.332377 -0.943139 -0.00381422
-44.2515 50.8615 48.7384 0.330748 -0.943711 -0.00399597
-45.2491 50.5145 48.0565 0.329853 -0.944021 -0.00466544
-46.6353 50.0352 47.2003 0.329161 -0.944262 -0.00460571
-48.0358 49.5531 46.3886 0.328598 -0.944444 -0.00699757
-49.0644 49.2022 45.689 0.326571 -0.945141 -0.00763978
-50.1128 48.8463 44.8002 0.326373 -0.945209 -0.00781723
-51.0926 48.5155 43.97 0.325632 -0.945461 -0.00818887
-52.0317 48.1995 43.2152 0.32512 -0.945625 -0.00947284
-53.1108 47.8395 42.1513 0.325624 -0.945448 -0.00980276
-53.9224 47.5696 41.2902 0.325698 -0.945404 -0.0114544
-54.6862 47.322 39.9863 0.326677 -0.94506 -0.0119505
-55.048 47.212 38.7342 0.329468 -0.94407 -0.0133395
-55.1153 47.2131 37.199 0.328236 -0.944478 -0.0148793
-55.0347 47.2626 35.9986 0.328001 -0.944496 -0.0184996
-55.1087 47.2706 34.4141 0.326917 -0.944835 -0.0202892
-55.0605 47.3264 32.7328 0.326211 -0.945042 -0.0219731
-55.1608 47.3336 31.0113 0.325552 -0.945248 -0.0228754
-55.1479 47.3699 29.7063 0.325076 -0.945409 -0.0229394
-55.1248 47.4173 28.0381 0.324426 -0.945657 -0.0219239
-55.1954 47.4341 26.1569 0.323823 -0.945914 -0.0196132
-55.1263 47.4826 24.8985 0.324375 -0.945765 -0.0175672
-54.6068 47.686 23.516 0.327409 -0.944744 -0.0161738
-53.708 48.026 22.185 0.329204 -0.944033 -0.0206479
-52.8678 48.3383 21.3027 0.329621 -0.943868 -0.0215104
-52.269 48.5783 20.0557 0.329338 -0.943902 -0.0241887
-51.5364 48.8619 19.0177 0.331041 -0.94326 -0.0259162
-50.7745 49.1573 18.042 0.328022 -0.944279 -0.0271919
-50.1427 49.4091 17.0026 0.328424 -0.944007 -0.0314248
-49.4032 49.7018 15.9287 0.327689 -0.94426 -0.0315112
-48.6751 49.9878 14.9546 0.326339 -0.944665 -0.0333235
-47.8726 50.3044 13.8153 0.326146 -0.944747 -0.0329034
-46.9241 50.6637 12.8893 0.325292 -0.94503 -0.0332083
-45.9173 51.0401 11.9949 0.32549 -0.945031 -0.0311781
-44.8611 51.4257 11.3185 0.326599 -0.944703 -0.0294632
-43.6539 51.8676 10.5998 0.32803 -0.944196 -0.0298461
-42.3723 52.3371 9.9806 0.330125 -0.943274 -0.0353677
-41.1423 52.7869 9.44022 0.328727 -0.943745 -0.0358302
-39.8932 53.2343 9.10749 0.325845 -0.944617 -0.0390412
-38.7843 53.6277 8.76344 0.322708 -0.945705 -0.0387007
-37.6337 54.0301 8.52663 0.319585 -0.94659 -0.0426074
-36.2332 54.507 8.31353 0.314087 -0.948256 -0.0463646
-34.7151 55.0046 8.17672 0.299859 -0.952958 -0.0442302
-33.0318 55.5416 7.89801 0.294005 -0.954632 -0.047312
-31.7909 55.9112 7.88637 0.285552 -0.957562 -0.0391709
-30.2116 56.3629 8.00974 0.271089 -0.961919 -0.0348645
-28.9715 56.7089 8.08654 0.266732 -0.963099 -0.0359864
-27.613 57.0632 8.52427 0.262532 -0.964572 -0.0260494
-26.1432 57.4414 8.90401 0.251654 -0.967443 -0.0269285
-24.7489 57.7859 9.27705 0.238175 -0.970788 -0.0284308
-23.6687 58.0336 9.83618 0.234387 -0.971905 -0.0215233
-22.4756 58.3016 10.2719 0.213942 -0.976508 -0.0252124
-21.454 58.509 10.9027 0.211506 -0.977285 -0.0134045
-20.3314 58.7371 11.4556 0.194118 -0.98088 -0.0139188
-19.353 58.9208 12.1586 0.195865 -0.980512 -0.0151012
-17.8949 59.1876 13.117 0.183807 -0.982904 -0.0106968
-16.5592 59.4147 14.1537 0.172679 -0.984811 -0.0181539
-15.623 59.5758 14.9722 0.165702 -0.98614 -0.00840083
-14.5283 59.744 15.8091 0.152449 -0.988296 -0.00425794
-13.4778 59.9064 16.8072 0.152944 -0.988214 -0.00489103
-12.6047 60.0331 17.6412 0.149834 -0.988704 -0.00349367
-11.5404 60.1848 18.4596 0.143184 -0.989696 -0.000324147
-10.5867 60.3224 19.2888 0.143053 -0.989715 -0.000651914
-9.42926 60.4884 20.0997 0.134491 -0.99088 0.00204738
-8.32526 60.6516 20.7538 0.145746 -0.989307 0.00550722
-7.35242 60.8031 21.4938 0.159824 -0.987093 0.00749195
-5.99129 61.0259 21.9393 0.161529 -0.986854 0.00528788
-4.86939 61.2166 22.4894 0.162059 -0.986366 0.0286321
-3.73191 61.4322 22.927 0.18307 -0.982693 0.0282938
-2.56619 61.7117 23.3887 0.240345 -0.970291 0.0277625
-1.38792 62.023 23.7518 0.264517 -0.963814 0.0320601
-0.069939 62.3961 24.0569 0.279298 -0.959392 0.0389157
1.37037 62.8689 24.3974 0.316887 -0.948019 0.0290116
2.68749 63.3468 24.4026 0.390472 -0.918929 0.0437163
3.8386 63.8915 24.7512 0.418554 -0.907583 0.0331
5.00587 64.4771 24.7983 0.474544 -0.87984 0.0262443
6.64779 65.3877 24.7581 0.500204 -0.864687 0.0459621
7.71797 66.0428 24.8499 0.532391 -0.846349 -0.00138619
8.75119 66.6738 24.7706 0.512639 -0.858137 -0.0283054
9.77823 67.3001 24.6407 0.486859 -0.872149 -0.0482064
10.9888 67.9787 24.4999 0.478441 -0.877084 -0.0425109
12.3741 68.7049 24.3674 0.419249 -0.907281 -0.0327372
13.8714 69.4284 24.2092 0.399661 -0.912243 -0.0768192
15.0888 69.9284 23.7823 0.362849 -0.929982 -0.0589364
16.2617 70.3044 23.6073 0.231171 -0.972728 -0.0189769
17.6053 70.6452 23.3816 0.17159 -0.979071 -0.109441
19.1575 70.902 23.3262 0.12442 -0.988508 -0.085862
21.0314 71.0176 22.9114 0.0315509 -0.998372 -0.0475148
22.3533 70.9098 22.7124 -0.122983 -0.99181 -0.0344685
23.614 70.7499 22.4807 -0.197186 -0.978302 -0.0624948
24.7959 70.4936 22.283 -0.225589 -0.973235 -0.0438604
26.0909 70.1106 22.1425 -0.337234 -0.940047 -0.0504356
27.3472 69.663 21.895 -0.353368 -0.932304 -0.077077
28.6511 69.0354 21.8058 -0.451646 -0.890754 -0.0507304
29.7734 68.4563 21.6481 -0.478695 -0.87707 -0.0399788
31.1542 67.6759 21.5005 -0.503643 -0.862764 -0.044533
32.1743 67.0349 21.289 -0.536697 -0.843357 -0.0265375
33.2032 66.3664 21.2001 -0.557629 -0.829243 -0.0368339
34.5555 65.4319 20.9858 -0.579994 -0.814132 -0.0271469
35.5317 64.7276 20.7694 -0.592198 -0.805566 -0.0190395
36.649 63.9068 20.5217 -0.59817 -0.801247 -0.0131679
37.9912 62.8999 20.327 -0.596052 -0.802884 -0.00997301
39.4016 61.8583 19.9338 -0.597878 -0.801473 -0.0134989
40.5635 60.9936 19.6044 -0.57568 -0.81752 0.0159568
42.1493 59.8868 19.0638 -0.557131 -0.830151 0.0152006
43.4101 59.0672 18.662 -0.537188 -0.843267 0.018154
44.6667 58.2809 18.2175 -0.521411 -0.853178 0.0147473
45.7342 57.6398 17.868 -0.499554 -0.866264 -0.00568872
46.8074 57.0091 17.5242 -0.502177 -0.864476 -0.0223341
47.8467 56.3981 17.1594 -0.522008 -0.852714 -0.0196425
48.9149 55.7498 16.7432 -0.524113 -0.851481 -0.016915
49.9961 55.084 16.5646 -0.538433 -0.842026 -0.0328851
51.1107 54.3774 16.1365 -0.544569 -0.838478 -0.0199967
52.3707 53.5592 15.934 -0.556924 -0.830279 -0.0187768
53.7183 52.6742 15.457 -0.557376 -0.829925 -0.0230927
54.8562 51.9056 15.1781 -0.569731 -0.821355 -0.0279767
56.1883 50.9848 14.9327 -0.575842 -0.816872 -0.0335512
57.4876 50.0884 14.5445 -0.573241 -0.818289 -0.0420301
58.9267 49.1 14.1029 -0.577696 -0.814287 -0.0560171
59.9018 48.4182 13.782 -0.59032 -0.804776 -0.062111
61.1534 47.6074 12.8463 -0.582247 -0.807476 -0.0947195
62.1306 46.9487 12.0476 -0.617051 -0.778378 -0.114707
62.9334 46.4781 10.8854 -0.639775 -0.759121 -0.117829
63.4996 46.1298 9.86681 -0.660379 -0.743557 -0.10468
63.9736 45.8757 8.63479 -0.671278 -0.734195 -0.101145
64.4776 45.5895 7.25653 -0.681214 -0.725908 -0.0947376
64.9587 45.3539 5.4677 -0.695227 -0.713792 -0.0846233
65.2743 45.2456 3.82438 -0.711071 -0.69922 -0.0737452
65.3221 45.3611 1.96929 -0.720818 -0.690647 -0.0585505
65.2448 45.5098 0.734531 -0.732295 -0.680901 -0.01087
64.9791 45.7908 -0.396829 -0.728094 -0.685448 0.00634442
64.2455 46.5122 -1.71835 -0.708088 -0.705025 0.0393843
63.5526 47.1488 -2.62612 -0.699781 -0.712625 0.049724
62.6621 47.9571 -3.29922 -0.687478 -0.724992 0.0419584
61.5227 48.9527 -4.10132 -0.673519 -0.738154 0.0387258
60.6773 49.6724 -4.62534 -0.660124 -0.750174 0.0375378
59.8415 50.3599 -5.32361 -0.652109 -0.757995 0.0140496
58.9776 51.0807 -6.21604 -0.648508 -0.761157 0.00471381
57.8705 52.0416 -7.0427 -0.657276 -0.753641 -0.00367785
56.8868 52.9148 -8.02013 -0.662197 -0.749108 -0.0182255
55.8926 53.8303 -8.91085 -0.667573 -0.744066 -0.0266849
54.855 54.8596 -9.78044 -0.701631 -0.712038 -0.0250367
54.0388 55.6803 -10.6533 -0.697829 -0.716074 -0.0160774
52.9993 56.7349 -11.3283 -0.709485 -0.704636 -0.00960565
52.2378 57.5015 -11.9608 -0.706849 -0.707345 -0.00528132
51.2841 58.4739 -12.5346 -0.710579 -0.703607 0.00171039
50.5585 59.2042 -13.1916 -0.711409 -0.702674 0.00894284
49.7199 60.0321 -13.6567 -0.70372 -0.710394 0.0107588
48.6711 61.0491 -14.2327 -0.696369 -0.71757 0.0126888
47.5921 62.0876 -14.7327 -0.694426 -0.719475 0.0113045
46.6391 62.997 -15.2568 -0.69274 -0.721098 0.0113469
45.7608 63.8312 -15.6744 -0.690837 -0.722937 0.0103443
44.7631 64.7731 -16.3208 -0.687993 -0.725638 0.0107643
43.9064 65.5774 -16.8172 -0.687612 -0.725998 0.0107632
42.8143 66.5995 -17.4856 -0.686231 -0.727336 0.0083471
41.8062 67.5426 -18.0402 -0.684522 -0.728947 0.00816322
40.9618 68.33 -18.5486 -0.681821 -0.7314 0.0131551
40.0927 69.1319 -18.8981 -0.679061 -0.733985 0.0119078
39.2803 69.8739 -19.5115 -0.677821 -0.735046 0.0157302
38.0686 70.9687 -20.2316 -0.670072 -0.742041 0.0186666
37.1193 71.7945 -20.704 -0.658256 -0.752548 0.0171761
36.1095 72.6736 -21.2256 -0.643947 -0.764542 0.0210502
35.1443 73.4305 -21.74 -0.617152 -0.786302 0.0292092
34.0876 74.2155 -22.2648 -0.58523 -0.810307 0.0301467
33.0691 74.9265 -23.0938 -0.568006 -0.822302 0.0344862
31.8906 75.6613 -23.465 -0.525217 -0.850472 0.0290685
30.6792 76.2863 -24.1495 -0.434434 -0.899016 0.0512667
29.6337 76.7723 -24.6514 -0.391072 -0.917607 0.0604584
28.2433 77.2143 -25.2731 -0.295628 -0.953351 0.0608067
27.0158 77.5211 -25.7732 -0.207303 -0.975927 0.0677678
25.848 77.7245 -26.2615 -0.184189 -0.979573 0.0806951
24.5897 77.839 -26.8158 -0.0969356 -0.992595 0.0731978
23.2343 77.8635 -27.3342 -0.0373022 -0.995455 0.0876184
21.8854 77.7675 -27.8001 0.0892159 -0.992532 0.0828199
20.305 77.5416 -28.4068 0.151677 -0.985541 0.0747373
19.1859 77.3159 -28.8722 0.188408 -0.979417 0.072237
18.0207 77.0678 -29.1341 0.209816 -0.973939 0.0828646
16.8706 76.737 -29.6222 0.266901 -0.961686 0.0626448
15.3161 76.2494 -30.3083 0.276839 -0.959839 0.0454858
14.2395 75.8578 -30.7359 0.339819 -0.939727 0.0355739
13.1904 75.4396 -31.2929 0.360074 -0.932037 0.0406726
11.686 74.778 -32.043 0.402757 -0.91482 0.0297783
10.3839 74.1281 -32.753 0.453808 -0.890848 0.0211552
9.26107 73.5115 -33.5157 0.4749 -0.879855 0.0180209
8.28073 72.9505 -34.1859 0.495734 -0.86847 0.00289457
7.28218 72.3618 -35.0536 0.5101 -0.858969 0.0443858
6.38768 71.7883 -35.8676 0.540711 -0.841189 0.00561654
5.74549 71.3837 -36.8429 0.544956 -0.837975 -0.0242738
5.31026 71.1424 -37.9047 0.549455 -0.834975 -0.0302722
5.24782 71.1372 -39.2557 0.605483 -0.793466 -0.0595946
6.06326 71.8237 -40.4795 0.540209 -0.836854 -0.0885774
6.95408 72.473 -41.4248 0.507278 -0.856141 -0.0984507
-38.7545 52.8909 32.0769 0.332552 -0.94293 -0.017031
-39.002 52.7781 33.5646 0.332703 -0.942915 -0.0147128
-39.3611 52.6329 34.9619 0.333318 -0.94275 -0.0108823
-39.8977 52.4332 36.1121 0.333432 -0.94274 -0.0079858
-40.5853 52.1848 36.9849 0.332987 -0.942922 -0.0042922
-41.4876 51.8641 37.7305 0.330532 -0.943789 -0.00328552
-42.3127 51.5734 38.2411 0.330393 -0.943838 -0.00336256
-43.1702 51.2738 38.7293 0.327228 -0.944944 -0.0017965
-44.2076 50.9139 39.161 0.327026 -0.94501 -0.00321174
-45.1439 50.5912 39.3023 0.324869 -0.945752 -0.00355884
-46.2673 50.2081 39.2679 0.322074 -0.946702 -0.00490571
-47.4193 49.8175 38.9343 0.321619 -0.946846 -0.00667459
-48.3759 49.4978 38.5219 0.321581 -0.946822 -0.0106477
-49.1631 49.2386 37.9137 0.319795 -0.947402 -0.0126734
-49.9776 48.9757 37.1224 0.321283 -0.946853 -0.0157218
-50.9842 48.6559 35.937 0.320652 -0.947016 -0.0185067
-51.5762 48.4725 34.9706 0.32353 -0.945997 -0.0203856
-51.9773 48.3636 33.7367 0.324176 -0.945731 -0.0224196
-51.9737 48.3892 32.7403 0.324992 -0.945417 -0.0238112
-52.1711 48.3539 31.418 0.325854 -0.945141 -0.0229634
-51.9435 48.448 30.7784 0.326518 -0.944903 -0.0233184
-51.6504 48.5727 29.826 0.326853 -0.944812 -0.0223097
-51.1479 48.7701 28.8116 0.327113 -0.944748 -0.0211869
-50.4268 49.042 27.8148 0.327052 -0.944783 -0.0205364
-49.736 49.2941 27.1637 0.327656 -0.94462 -0.0182964
-48.8336 49.6202 26.4398 0.325254 -0.945452 -0.0181255
-47.5555 50.0735 25.7156 0.322826 -0.946267 -0.0189959
-46.5513 50.4188 25.5241 0.321679 -0.946646 -0.0195867
-45.3984 50.811 25.45 0.320207 -0.94712 -0.020776
-44.4242 51.1386 25.4687 0.318776 -0.947619 -0.0199781
-43.131 51.5614 25.9032 0.317333 -0.948027 -0.0233095
-41.8864 51.9563 26.7545 0.317781 -0.947879 -0.0232403
-41.0056 52.2361 27.3688 0.319077 -0.947408 -0.0246446
-40.1383 52.5055 28.2801 0.32127 -0.94666 -0.02489
-39.4807 52.6984 29.4805 0.324738 -0.945512 -0.0234869
-39.0732 52.8132 30.5351 0.32657 -0.944865 -0.0240182
-38.8502 52.8729 31.3517 0.332039 -0.943041 -0.0206047
-39.7732 52.547 31.3907 0.330117 -0.943657 -0.0229102
-40.2403 52.4189 30.1128 0.325774 -0.945042 -0.0274967
-40.972 52.2102 28.7084 0.320799 -0.946784 -0.0261673
-41.7307 51.9738 28.03 0.318106 -0.947687 -0.0263838
-42.6001 51.7005 27.434 0.314264 -0.949034 -0.0239251
-43.4353 51.4393 26.8288 0.314058 -0.949212 -0.0189225
-44.6306 51.0482 26.451 0.314977 -0.948945 -0.0170689
-46.0614 50.5669 26.5283 0.319964 -0.947298 -0.0157608
-47.3792 50.1162 26.6907 0.322967 -0.946296 -0.0146938
-48.189 49.8288 27.2035 0.325629 -0.945352 -0.0165751
-49.0001 49.5359 27.8562 0.327445 -0.944693 -0.0183227
-49.7519 49.2604 28.5821 0.328922 -0.944124 -0.0209575
-50.3547 49.0336 29.34 0.328093 -0.944396 -0.0216876
-50.8156 48.8523 30.2311 0.328049 -0.94439 -0.0226357
-51.0205 48.7486 31.522 0.326456 -0.944908 -0.0239711
-51.0571 48.7073 32.5964 0.324459 -0.945603 -0.0237042
-50.9503 48.7141 33.7673 0.322633 -0.946249 -0.0227785
-50.46 48.8522 34.9911 0.31979 -0.947234 -0.0219214
-49.7822 49.0624 35.9157 0.318768 -0.947669 -0.017624
-49.0478 49.2945 36.7657 0.317414 -0.948146 -0.0162649
-48.3292 49.5264 37.4164 0.317854 -0.948066 -0.0117734
-47.4218 49.8256 37.8864 0.319181 -0.947657 -0.0082902
-46.4324 50.1567 38.1726 0.32171 -0.946832 -0.00343957
-45.1965 50.576 38.2985 0.321408 -0.946935 -0.00328642
-44.2823 50.8904 38.1331 0.325843 -0.945422 -0.00217172
-43.1066 51.2974 37.6028 0.327612 -0.944812 0.00046946
-41.9293 51.7105 36.9011 0.332156 -0.94322 -0.00219793
-41.1789 51.9779 36.2316 0.333479 -0.942753 -0.00300356
-40.5149 52.219 35.3655 0.3356 -0.941978 -0.00702794
-40.174 52.3506 34.3791 0.33706 -0.941393 -0.0130421
-39.9219 52.456 33.3821 0.333195 -0.942734 -0.01524
-39.6976 52.5586 32.1084 0.33171 -0.943206 -0.0182106
-39.6859 52.5676 31.8562 0.331876 -0.943123 -0.0194097
-40.6109 52.2383 31.9441 0.335054 -0.941945 -0.0215575
-40.9685 52.0736 33.73 0.338292 -0.940825 -0.0201891
-41.3213 51.9333 34.7815 0.341459 -0.939889 -0.0038203
-42.0915 51.6547 35.803 0.336097 -0.941827 5.04683e-05
-42.9807 51.3391 36.4947 0.3322 -0.943195 0.00504257
-43.8416 51.0423 36.8932 0.326152 -0.945311 0.00339068
-44.7639 50.7245 37.181 0.325317 -0.945605 0.000596845
-45.8417 50.3591 37.2359 0.316657 -0.948524 -0.00202382
-47.0787 49.9504 36.8787 0.317355 -0.948261 -0.00934418
-47.9903 49.6508 36.473 0.314484 -0.949171 -0.0127406
-48.8147 49.3947 35.5679 0.316895 -0.948274 -0.0188175
-49.506 49.1823 34.6297 0.318037 -0.947796 -0.0230714
-49.9781 49.0503 33.585 0.320914 -0.946765 -0.025386
-50.0464 49.0539 32.5728 0.323608 -0.945775 -0.0280585
-49.9465 49.1245 31.3746 0.326798 -0.944708 -0.0269056
-49.7422 49.224 30.2712 0.327868 -0.944446 -0.0229132
-49.1221 49.4656 29.3106 0.331864 -0.943078 -0.0216217
-48.2073 49.8019 28.5093 0.328079 -0.944536 -0.0145225
-47.2902 50.1291 27.7806 0.326596 -0.945064 -0.0137052
-46.3039 50.4713 27.4715 0.323256 -0.946269 -0.00895685
-45.3262 50.798 27.5476 0.316884 -0.948382 -0.0125252
-44.3215 51.1319 27.5763 0.313285 -0.949588 -0.0116364
-43.3554 51.4397 28.0611 0.310032 -0.950544 -0.0186223
-42.5227 51.6931 28.6697 0.307249 -0.95131 -0.0246424
-41.7253 51.9407 29.3126 0.317006 -0.948072 -0.0258306
-41.1804 52.094 30.2771 0.32015 -0.946948 -0.0281637
-40.7996 52.1915 31.2464 0.333483 -0.942358 -0.0273996
-40.6354 52.2325 31.8358 0.333629 -0.942338 -0.026269
64.6659 45.474 -12.1575 -0.720428 -0.692649 0.0349485
63.4334 46.6873 -13.0725 -0.71354 -0.699134 0.045528
62.5623 47.5391 -13.6995 -0.710164 -0.70308 0.0366969
61.6424 48.4281 -14.3247 -0.706579 -0.706697 0.0364044
60.5405 49.4741 -15.048 -0.691804 -0.721561 0.0275297
59.7161 50.2535 -15.581 -0.695521 -0.718167 0.0220578
58.6899 51.2295 -16.2226 -0.695384 -0.718351 0.0203219
58.095 51.7968 -16.5874 -0.697432 -0.716578 0.0102361
11.0075 74.521 -40.6302 0.420952 -0.906451 -0.0338602
11.7326 74.8358 -40.5406 0.39854 -0.917049 -0.0136685
10.1154 74.081 -39.7446 0.438529 -0.898577 -0.0158598
11.9133 74.8992 -39.5212 0.401005 -0.915937 -0.0159642
13.7285 75.6153 -39.2953 0.343625 -0.939107 -0.000598509
15.6318 76.2776 -39.0539 0.28394 -0.958689 0.0171296
18.1148 76.9741 -38.6777 0.246618 -0.969092 0.00629825
19.9515 77.3268 -38.1723 0.15958 -0.987183 -0.0021
21.8079 77.5774 -37.3918 0.120142 -0.992554 -0.0200724
23.7301 77.7002 -36.3107 0.0468058 -0.998802 -0.0142676
25.4857 77.6112 -35.1655 -0.0666218 -0.99713 -0.0359566
27.2546 77.4107 -33.9645 -0.11174 -0.993619 -0.0153188
29.0388 76.9146 -32.7891 -0.292702 -0.955889 -0.024521
30.7161 76.2836 -31.7394 -0.398751 -0.916947 -0.0143407
32.3656 75.463 -30.6948 -0.469829 -0.881159 -0.0531007
34.0334 74.3311 -29.6274 -0.566879 -0.820708 -0.0713214
35.447 73.2463 -28.7052 -0.608838 -0.792523 -0.0349839
36.8932 72.0248 -27.7678 -0.657509 -0.753188 -0.0197443
38.5563 70.5416 -26.7061 -0.671209 -0.741142 -0.013678
39.8229 69.3601 -25.8905 -0.685709 -0.727838 -0.00735389
41.1745 68.0865 -25.0314 -0.683231 -0.730201 -0.00136471
42.6602 66.6858 -24.0905 -0.686504 -0.727113 0.00435531
44.2979 65.1377 -23.0517 -0.689476 -0.72428 0.00638423
45.7133 63.7969 -22.1564 -0.690791 -0.723018 0.00727014
47.0242 62.5516 -21.3292 -0.691796 -0.722048 0.00800996
48.4286 61.2128 -20.4467 -0.69362 -0.720308 0.0068962
49.709 59.9819 -19.6423 -0.695997 -0.718021 0.00588992
51.0694 58.662 -18.7883 -0.698801 -0.715309 0.00303939
52.4993 57.2629 -17.8908 -0.701277 -0.712888 0.00109089
53.936 55.8476 -16.9886 -0.701401 -0.712763 -0.00244884
55.1965 54.61 -16.201 -0.698039 -0.716059 -0.000976769
56.8074 53.0506 -15.2135 -0.692643 -0.72128 -9.35529e-05
58.2578 51.6791 -14.3257 -0.687379 -0.726265 0.00701598
59.5399 50.4843 -13.5256 -0.683188 -0.73005 0.016755
60.8113 49.3034 -12.698 -0.690392 -0.723106 0.0218189
62.0584 48.1282 -11.8508 -0.695484 -0.71802 0.0273731
63.4763 46.7778 -10.8338 -0.710908 -0.7023 0.037199
64.8296 45.447 -9.78967 -0.723031 -0.689273 0.0461389
66.3342 43.9431 -8.57973 -0.72755 -0.68392 0.0540803
67.5116 42.7574 -7.61559 -0.739068 -0.669963 0.0702032
68.7322 41.489 -6.60066 -0.752573 -0.654691 0.0707994
70.508 39.7362 -4.0265 -0.744388 -0.664639 0.0643644
69.2328 41.0721 -5.07686 -0.742766 -0.666754 0.0611357
67.905 42.4589 -6.17401 -0.744442 -0.665062 0.0591484
66.5424 43.8277 -7.28561 -0.723814 -0.686246 0.0718345
65.2959 45.0568 -8.29232 -0.718382 -0.694026 0.0474879
64.0676 46.258 -9.26421 -0.709667 -0.703219 0.043087
62.7398 47.533 -10.2587 -0.704056 -0.70959 0.0280572
61.3718 48.8136 -11.2231 -0.688186 -0.725273 0.0194881
59.9002 50.1807 -12.2066 -0.685621 -0.727795 0.0154364
58.581 51.3884 -13.0399 -0.683448 -0.729955 0.00800908
57.1508 52.7262 -13.921 -0.687347 -0.726318 0.00403527
55.8475 53.9757 -14.7192 -0.694506 -0.719484 -0.00208154
54.5302 55.258 -15.5379 -0.699617 -0.714509 -0.00361331
53.2553 56.5161 -16.3402 -0.702688 -0.711495 -0.00196884
51.7554 57.995 -17.2845 -0.701184 -0.712977 0.00202205
50.1935 59.5214 -18.2634 -0.698223 -0.71586 0.0054968
48.925 60.7467 -19.057 -0.696057 -0.717962 0.00590492
47.6435 61.9733 -19.8592 -0.692744 -0.721139 0.00798938
46.3157 63.2369 -20.6924 -0.691027 -0.722788 0.00767044
44.979 64.5035 -21.5356 -0.689719 -0.724031 0.00819852
43.5256 65.8773 -22.4555 -0.688811 -0.724912 0.00641644
42.2107 67.1153 -23.2904 -0.686605 -0.72701 0.00546528
40.8089 68.4309 -24.1774 -0.683089 -0.730332 0.0021334
39.3025 69.8335 -25.1366 -0.676431 -0.73643 -0.0105992
37.897 71.1111 -26.0349 -0.661339 -0.750049 -0.00761591
36.432 72.391 -26.9695 -0.626022 -0.779305 -0.0279228
35.0724 73.4971 -27.845 -0.607411 -0.793696 -0.0331572
33.422 74.7058 -28.9069 -0.56799 -0.821231 -0.0544663
31.7089 75.7541 -29.9733 -0.453994 -0.889451 -0.052592
29.5874 76.6982 -31.2926 -0.300196 -0.953283 -0.0336787
27.8205 77.2344 -32.4057 -0.227538 -0.973652 -0.0150858
26.0516 77.5478 -33.5892 -0.0993846 -0.99502 -0.00764363
24.079 77.667 -34.9064 -0.01446 -0.999858 0.00868074
22.2844 77.6325 -36.0008 0.0803598 -0.996697 -0.0117162
20.5203 77.417 -36.9041 0.123978 -0.992218 -0.0114938
18.6074 77.0893 -37.5294 0.186133 -0.982315 -0.0202669
16.5545 76.5626 -37.9201 0.26749 -0.963536 0.00693594
14.7451 75.9905 -38.1623 0.333014 -0.942886 0.0082596
12.9292 75.2965 -38.3953 0.37845 -0.925505 -0.0147089
11.1037 74.5242 -38.6245 0.414556 -0.909843 -0.0181564
9.00786 73.4669 -38.8909 0.474175 -0.879811 -0.0330087
8.6716 73.2802 -38.9344 0.494201 -0.868721 -0.0330061
8.16639 72.964 -38.0059 0.509007 -0.860099 -0.0337889
9.91069 73.9118 -37.7799 0.477517 -0.878144 -0.0290078
11.9922 74.8969 -37.5144 0.399198 -0.916864 -0.000731239
13.8437 75.6586 -37.2752 0.359805 -0.93302 -0.00361497
15.7347 76.3155 -37.0261 0.292762 -0.955838 -0.0257724
17.5799 76.839 -36.7209 0.245928 -0.969274 -0.00528206
19.881 77.3114 -36.0617 0.186393 -0.982441 -0.00819807
21.5982 77.5444 -35.2192 0.128303 -0.991713 -0.00657307
23.3409 77.6592 -34.2003 0.0187671 -0.999341 -0.0310724
25.1512 77.6245 -33.0064 -0.0819404 -0.996495 0.0168305
26.7346 77.4428 -31.9401 -0.142124 -0.989844 -0.00300756
28.576 77.0084 -30.7662 -0.296046 -0.955124 -0.00968944
30.2672 76.4342 -29.7377 -0.371253 -0.928032 -0.0304687
32.1683 75.4425 -28.5774 -0.459947 -0.88792 -0.00685827
33.6689 74.4874 -27.6392 -0.563803 -0.825887 -0.0060779
35.2251 73.3445 -26.6454 -0.614557 -0.788748 -0.0140035
36.7336 72.1193 -25.6857 -0.641101 -0.767418 -0.00761629
38.2776 70.762 -24.7016 -0.662227 -0.749255 -0.00845195
39.8444 69.3233 -23.7016 -0.675892 -0.736978 -0.00578783
41.2372 68.0356 -22.8206 -0.684448 -0.729044 0.00515077
42.5666 66.7888 -21.9792 -0.686665 -0.726945 0.00647575
43.972 65.4657 -21.0873 -0.688798 -0.724913 0.00758563
45.38 64.1358 -20.1973 -0.690516 -0.723275 0.00779085
46.9271 62.6684 -19.2274 -0.691273 -0.72254 0.00881425
48.2692 61.3874 -18.3902 -0.693919 -0.720003 0.00854648
49.7668 59.9434 -17.4567 -0.697151 -0.716895 0.00658463
51.2065 58.5381 -16.5566 -0.701595 -0.712567 0.00340311
52.4919 57.2696 -15.747 -0.704055 -0.710144 -0.000953163
53.8428 55.9311 -14.8932 -0.701623 -0.712536 -0.00427304
55.286 54.513 -13.9818 -0.695774 -0.718251 -0.00386265
56.6608 53.1891 -13.1367 -0.690193 -0.723599 -0.00624292
57.9641 51.9737 -12.3338 -0.683449 -0.729954 0.00801138
59.2757 50.7686 -11.5101 -0.677583 -0.735341 0.0124053
60.7285 49.4419 -10.5591 -0.684053 -0.7292 0.0184113
62.0535 48.2178 -9.63602 -0.690104 -0.723037 0.0312157
63.3227 47.0306 -8.71326 -0.699668 -0.713373 0.0395535
64.6257 45.7867 -7.69783 -0.71087 -0.702166 0.0403302
65.8842 44.5649 -6.68651 -0.71711 -0.695002 0.0522018
67.2229 43.2441 -5.61117 -0.729782 -0.682781 0.035051
68.6065 41.8046 -4.46443 -0.736717 -0.675026 0.0398511
69.97 40.3878 -3.35454 -0.737503 -0.673849 0.0449119
71.3415 38.947 -2.18706 -0.742483 -0.668644 0.040416
72.6122 37.6452 -1.1434 -0.72978 -0.682283 0.0437104
73.9475 36.3204 -0.0244225 -0.721869 -0.690146 0.0510249
75.0948 35.2218 0.970558 -0.707089 -0.705147 0.052847
74.9155 35.4687 1.91284 -0.706532 -0.70672 0.0368656
73.6946 36.6432 0.855243 -0.716158 -0.696469 0.0452716
72.254 38.0789 -0.341788 -0.728747 -0.683431 0.0430049
70.9161 39.4591 -1.42064 -0.733503 -0.678906 0.0325621
69.7015 40.7334 -2.44028 -0.729713 -0.683278 0.0255002
68.308 42.1772 -3.55591 -0.732027 -0.680601 0.0303045
67.1292 43.4004 -4.52296 -0.731741 -0.680674 0.0351839
65.9174 44.6125 -5.51314 -0.717972 -0.694605 0.0451715
64.7175 45.7653 -6.4885 -0.704911 -0.707793 0.0461456
63.4525 46.9703 -7.48553 -0.698575 -0.714581 0.0369735
62.1053 48.2178 -8.4901 -0.69013 -0.723013 0.0311874
60.6793 49.5123 -9.48581 -0.674665 -0.737917 0.0174901
59.1801 50.8669 -10.473 -0.67239 -0.740137 0.00942718
57.6166 52.2962 -11.458 -0.675342 -0.73749 -0.0047105
56.1411 53.6785 -12.3719 -0.691407 -0.722417 -0.00838263
54.7709 55.0081 -13.2218 -0.698305 -0.715758 -0.00779028
53.3283 56.4332 -14.1385 -0.701641 -0.712519 -0.00419516
51.8417 57.9133 -15.084 -0.704057 -0.710143 -0.000950778
51.2932 58.4564 -15.4296 -0.70396 -0.710239 0.000615251
67.7024 42.443 -8.56141 -0.744087 -0.664726 0.0668826
66.9684 43.2039 -9.17727 -0.736704 -0.673829 0.0567605
66.1716 44.0188 -9.83352 -0.730423 -0.680852 0.0540571
65.3446 44.8562 -10.5026 -0.72492 -0.687757 0.0384948
64.4215 45.7823 -11.231 -0.721591 -0.690988 0.042914
63.4753 46.7157 -11.9427 -0.717084 -0.695868 0.0394876
62.4429 47.7098 -12.684 -0.703806 -0.709405 0.0374418
61.592 48.5251 -13.2703 -0.699537 -0.713989 0.0294522
60.7851 49.2927 -13.8065 -0.68968 -0.723618 0.0268036
59.8844 50.1306 -14.3895 -0.694381 -0.71917 0.0250805
58.7884 51.161 -15.0814 -0.692283 -0.72147 0.0150438
57.8781 52.0192 -15.6412 -0.692092 -0.721715 0.0116207
56.7751 53.0778 -16.313 -0.69816 -0.715916 0.00607122
55.8086 54.0138 -16.9047 -0.698274 -0.71583 -0.000838351
54.9614 54.8406 -17.4241 -0.700379 -0.713771 -0.000656862
53.8328 55.9508 -18.1298 -0.701229 -0.712936 -0.000743172
52.9022 56.866 -18.7141 -0.701175 -0.712989 0.000376791
51.974 57.7762 -19.293 -0.699649 -0.714484 0.00206704
51.0527 58.6737 -19.8753 -0.698175 -0.715917 0.00379919
50.2053 59.4951 -20.4092 -0.697534 -0.716537 0.00466134
49.3652 60.306 -20.9379 -0.694208 -0.719754 0.00538962
48.3513 61.2754 -21.5756 -0.692817 -0.721078 0.0071445
47.4364 62.1483 -22.1521 -0.691968 -0.721894 0.00704196
46.4144 63.1206 -22.7974 -0.691095 -0.722725 0.0074687
45.5999 63.8939 -23.3133 -0.690618 -0.723185 0.00711359
44.7512 64.6988 -23.8503 -0.690236 -0.723554 0.00663135
43.6735 65.7202 -24.5323 -0.689893 -0.72389 0.00564895
42.9408 66.4143 -24.9975 -0.689673 -0.724099 0.0056497
49.7109 60.0074 -16.4191 -0.697351 -0.716699 0.00660639
48.0317 61.6274 -17.4619 -0.694436 -0.7195 0.00884452
46.2922 63.2839 -18.5435 -0.691022 -0.722783 0.00861571
44.4779 65.0003 -19.683 -0.689305 -0.724425 0.0081757
42.603 66.7643 -20.8714 -0.686664 -0.726946 0.00647004
40.7665 68.4783 -22.0296 -0.682192 -0.731158 0.00463444
39.0927 70.0137 -23.0888 -0.675241 -0.737597 -0.00029742
37.2262 71.6786 -24.2834 -0.654925 -0.755674 -0.0053899
35.2464 73.3067 -25.5369 -0.615676 -0.787849 -0.0153836
33.4068 74.6595 -26.7044 -0.552686 -0.83335 -0.00814673
31.5606 75.7609 -27.8367 -0.455488 -0.890198 0.00890382
29.6776 76.6406 -28.96 -0.350904 -0.936411 -0.000388542
27.7205 77.2197 -30.1442 -0.228499 -0.973364 -0.0187526
25.7447 77.5772 -31.4196 -0.131675 -0.991293 0.000662339
23.245 77.6503 -33.0804 0.026782 -0.99931 0.0257365
20.9157 77.4599 -34.4341 0.155388 -0.987703 0.0172643
18.5788 77.0596 -35.4257 0.206226 -0.978486 -0.0059457
15.9451 76.3649 -35.9683 0.281552 -0.959484 0.0109291
13.4645 75.5074 -36.3227 0.360128 -0.932881 -0.00643431
11.1573 74.5029 -36.6227 0.44127 -0.897074 -0.0232163
9.3928 73.5994 -36.8522 0.477259 -0.878273 -0.0293417
11.186 74.5104 -35.6219 0.440266 -0.897867 -0.00068168
13.4501 75.4948 -35.3242 0.361764 -0.932255 -0.00520326
16.1242 76.4246 -34.9235 0.298757 -0.954326 -0.00224134
18.3632 77.0031 -34.4086 0.227728 -0.973708 -0.0057581
20.5999 77.4156 -33.4729 0.150587 -0.988539 -0.0106539
22.639 77.6306 -32.2872 0.0448245 -0.998804 0.0195208
24.622 77.6883 -30.9733 -0.0768887 -0.997039 0.00138935
26.6736 77.4399 -29.641 -0.150966 -0.988228 0.0247746
28.6827 76.9822 -28.4276 -0.306548 -0.951846 0.00419015
30.9572 76.0739 -27.0883 -0.451627 -0.892205 0.00181395
32.8902 74.9956 -25.915 -0.539043 -0.842278 7.40794e-05
33.06 74.8849 -25.8104 -0.550905 -0.834568 0.000765171
57.9636 51.9744 -10.1488 -0.673781 -0.73893 -0.00112891
58.8648 51.1602 -9.57542 -0.670206 -0.742164 0.00397889
59.944 50.1976 -8.87768 -0.670116 -0.742077 0.0163226
60.8541 49.3872 -8.25998 -0.668414 -0.743369 0.025023
61.8964 48.4592 -7.52667 -0.681938 -0.730717 0.0318261
62.9096 47.5378 -6.77665 -0.691164 -0.721688 0.0381915
63.8533 46.6518 -6.04169 -0.700027 -0.713215 0.0358707
64.9941 45.5788 -5.12259 -0.708591 -0.704125 0.0459018
66.023 44.5816 -4.26586 -0.717684 -0.69546 0.0355609
66.8699 43.7248 -3.55085 -0.726718 -0.686604 0.0213665
67.9555 42.5956 -2.67154 -0.732708 -0.679865 0.0303695
68.8195 41.6941 -1.97348 -0.729562 -0.683639 0.0194171
69.7783 40.6975 -1.22804 -0.729764 -0.68332 0.0227446
70.5354 39.9104 -0.592751 -0.733234 -0.679468 0.0262771
71.4706 38.9295 0.150446 -0.726038 -0.687327 0.0212305
72.3147 38.0633 0.788241 -0.725341 -0.687975 0.0238972
73.1056 37.2791 1.44748 -0.716355 -0.696966 0.0327642
73.8707 36.5298 2.10617 -0.713496 -0.699603 0.0384536
74.2947 36.118 2.4634 -0.706529 -0.706723 0.0368644
73.5824 36.8517 2.92637 -0.709238 -0.704532 0.0248065
72.6207 37.8034 2.13504 -0.714969 -0.698722 0.0246388
71.646 38.7859 1.36629 -0.722732 -0.690755 0.0227106
70.6138 39.8555 0.576957 -0.730012 -0.683192 0.0181941
69.8188 40.6815 -0.0447807 -0.726428 -0.687046 0.0164259
68.8041 41.7435 -0.810703 -0.72956 -0.683641 0.0194198
67.7744 42.8221 -1.61335 -0.726472 -0.686867 0.0212435
66.897 43.7315 -2.31453 -0.728524 -0.684738 0.0196561
66.0574 44.5965 -3.047 -0.723592 -0.689845 0.0229893
65.3868 45.266 -3.632 -0.711888 -0.701171 0.0396867
66.7672 43.8935 -1.21349 -0.726485 -0.687106 0.0102145
67.6319 42.9906 -0.521865 -0.725663 -0.687975 0.0101578
68.5136 42.0661 0.153591 -0.726801 -0.686848 6.59524e-05
69.3493 41.1847 0.767053 -0.728288 -0.685262 0.00353774
70.2894 40.2085 1.45662 -0.719466 -0.694442 0.0108833
71.1948 39.2753 2.13017 -0.72587 -0.687675 0.0146762
72.0696 38.3802 2.7708 -0.714575 -0.699406 0.0146322
72.9166 37.5331 3.42463 -0.70701 -0.707151 0.00861977
72.1765 38.279 3.87013 -0.706175 -0.708037 0.000772908
71.3657 39.0942 3.3005 -0.717728 -0.696264 -0.00912564
70.5409 39.9503 2.77557 -0.714796 -0.699331 -0.0016436
69.7224 40.7955 2.19815 -0.719075 -0.694899 -0.00688858
68.8077 41.752 1.55184 -0.720253 -0.693601 -0.0123816
67.8666 42.7384 0.882316 -0.71929 -0.694643 -0.00966015
67.4176 43.2118 0.593774 -0.721953 -0.691888 -0.00870064
67.2317 43.3795 1.69676 -0.714476 -0.69886 -0.0334438
68.0378 42.5323 2.21379 -0.714143 -0.699304 -0.0312152
68.8435 41.6936 2.73672 -0.713714 -0.700184 -0.0188165
69.7094 40.7909 3.33121 -0.715247 -0.698768 -0.0120331
70.5355 39.932 3.80452 -0.71322 -0.700718 -0.0176604
71.631 38.8169 4.49367 -0.705051 -0.709121 -0.00710135
70.9557 39.4702 5.0688 -0.70434 -0.709163 -0.0315031
70.0698 40.3771 4.5775 -0.708167 -0.705372 -0.0308071
69.2111 41.2685 4.09475 -0.714477 -0.698892 -0.0327554
68.2247 42.2892 3.50969 -0.708693 -0.705108 -0.0240109
67.4388 43.1077 3.01847 -0.708825 -0.704422 -0.0368275
67.3036 43.1622 4.27364 -0.705293 -0.707252 -0.0485488
68.176 42.275 4.62611 -0.703293 -0.709489 -0.0447676
69.21 41.2047 5.16176 -0.706071 -0.706644 -0.0460154
70.2446 40.1511 5.67013 -0.701133 -0.711694 -0.0436322
69.8815 40.4613 6.44402 -0.701236 -0.711554 -0.0442591
68.8937 41.4616 6.02977 -0.700781 -0.711606 -0.0502237
67.959 42.4139 5.6663 -0.702316 -0.709778 -0.0544766
67.0348 43.3453 5.34853 -0.696036 -0.715474 -0.0602589
66.9281 43.4524 5.3092 -0.696036 -0.715474 -0.0602566
66.8004 43.4694 6.45412 -0.689051 -0.721008 -0.0731865
67.8139 42.4663 6.70317 -0.695192 -0.715944 -0.0642858
68.7312 41.5557 6.96917 -0.697505 -0.714305 -0.0570545
69.2704 41.0119 7.14575 -0.700581 -0.711638 -0.0525159
69.2069 40.9982 8.0846 -0.694926 -0.716426 -0.0617365
67.9163 42.273 7.75457 -0.689959 -0.720862 -0.0656833
66.9573 43.2022 7.59845 -0.68861 -0.721359 -0.073872
66.4252 43.7156 7.55473 -0.686867 -0.722668 -0.0772252
66.1757 43.831 8.64373 -0.684411 -0.724756 -0.0794386
67.1252 42.937 8.66756 -0.683867 -0.725901 -0.0734428
68.1587 41.9367 8.8525 -0.687282 -0.72304 -0.0696929
68.8281 41.2891 8.97604 -0.690599 -0.720354 -0.0645176
68.8509 41.1799 9.92055 -0.687717 -0.722882 -0.0669893
67.859 42.1352 9.77958 -0.686802 -0.723799 -0.0664704
66.7662 43.1589 9.74971 -0.679475 -0.730171 -0.071864
65.7572 44.0845 9.82584 -0.674883 -0.733394 -0.0816491
65.6781 44.1562 9.83588 -0.674881 -0.733395 -0.0816485
65.3051 44.3634 10.9964 -0.670446 -0.737485 -0.0813508
66.4227 43.3631 10.8318 -0.672028 -0.737083 -0.0713271
67.5049 42.3691 10.7862 -0.680811 -0.729358 -0.0673284
68.6011 41.336 10.8318 -0.686534 -0.724439 -0.0621224
68.589 41.2604 11.8145 -0.680692 -0.730433 -0.0559116
67.4168 42.352 11.8291 -0.677777 -0.731786 -0.0714725
66.3069 43.3613 11.916 -0.668828 -0.739581 -0.0754212
65.2679 44.2761 12.0921 -0.657163 -0.74822 -0.0911213
64.4234 44.9913 12.3081 -0.656767 -0.748651 -0.0904376
63.6334 45.5262 13.5646 -0.64108 -0.763329 -0.079653
64.7262 44.6219 13.2919 -0.65217 -0.754483 -0.0736878
65.7564 43.7471 13.0504 -0.663483 -0.744567 -0.0735505
66.7398 42.8767 12.9119 -0.671585 -0.737883 -0.0670933
67.9587 41.7686 12.8274 -0.674075 -0.736424 -0.0574666
68.97 40.8314 12.7901 -0.682884 -0.729078 -0.0459948
69.2233 40.5306 13.7691 -0.680903 -0.731128 -0.0426972
68.2128 41.4574 13.8293 -0.678319 -0.732824 -0.0534104
66.6467 42.8691 13.9532 -0.671171 -0.738468 -0.0647625
65.5363 43.8362 14.1439 -0.657158 -0.750472 -0.0702513
64.403 44.7837 14.4274 -0.643849 -0.761327 -0.0764168
63.1088 45.8449 14.7286 -0.633544 -0.769839 -0.0772681
62.182 46.5662 14.9877 -0.620142 -0.780431 -0.0796968
25.721 77.5981 -29.0787 -0.151356 -0.988281 0.0197762
22.8565 77.6957 -30.9455 0.0701862 -0.995907 0.0569499
19.9848 77.3229 -32.6593 0.154975 -0.987818 0.0141038
16.7158 76.5929 -33.7873 0.27332 -0.961922 -0.00176002
13.4837 75.4994 -34.3186 0.354382 -0.9351 0.00101578
12.8832 75.2718 -34.4018 0.375059 -0.926996 -0.00286477
15.6952 76.2939 -32.976 0.31403 -0.949365 0.00959402
19.266 77.1955 -31.8629 0.188282 -0.982043 0.0119227
21.3293 77.5501 -30.7208 0.117923 -0.992326 0.0371816
-32.8321 55.4972 10.5116 0.294056 -0.955205 -0.0333767
-31.4383 55.9128 10.7271 0.286102 -0.957577 -0.0345313
-30.0171 56.327 10.8726 0.278829 -0.959857 -0.0304895
-29.3332 56.5231 10.8892 0.274069 -0.961322 -0.0273353
-25.5348 57.532 11.9167 0.251705 -0.967697 -0.0143885
-27.1882 57.0942 11.9558 0.265063 -0.964033 -0.0195407
-29.068 56.5727 11.8839 0.279869 -0.959855 -0.0187537
-31.076 55.9852 11.8076 0.282653 -0.958698 -0.0317085
-32.9149 55.4349 11.5414 0.297567 -0.954098 -0.033933
-34.638 54.9014 11.2928 0.30724 -0.950915 -0.0369346
-36.5231 54.2938 11.0606 0.313996 -0.948643 -0.0385207
-36.7231 54.2287 11.03 0.314765 -0.948351 -0.0394073
-38.7401 53.5242 11.7062 0.321596 -0.946107 -0.0381829
-36.6761 54.2021 12.0775 0.314815 -0.948418 -0.0373365
-34.9212 54.7716 12.2803 0.307242 -0.950915 -0.0369287
-33.2812 55.2856 12.5231 0.297626 -0.95407 -0.0342015
-31.488 55.8329 12.7999 0.292275 -0.955913 -0.0284012
-29.5834 56.4015 12.8492 0.283173 -0.958813 -0.0221725
-27.6354 56.952 12.9319 0.26539 -0.963969 -0.0182193
-25.7672 57.4572 12.8828 0.251704 -0.967697 -0.0143887
-24.0132 57.8971 12.8896 0.233424 -0.972195 -0.0186926
-23.4511 58.0322 12.8984 0.230774 -0.972828 -0.018666
-21.849 58.3867 13.7919 0.217911 -0.975933 -0.0083319
-23.5964 57.9805 13.8209 0.23015 -0.973091 -0.01114
-25.3812 57.5412 13.8215 0.249088 -0.968346 -0.0161445
-27.0611 57.0933 13.8754 0.262743 -0.964721 -0.0167243
-28.7212 56.6328 13.8883 0.27995 -0.959644 -0.0266916
-30.6313 56.0619 13.8123 0.291137 -0.95638 -0.0240311
-32.2921 55.5556 13.7105 0.295968 -0.95479 -0.0279207
-34.0335 55.0138 13.4562 0.306374 -0.951295 -0.034232
-35.6704 54.4899 13.2295 0.31315 -0.949083 -0.0343335
-37.3463 53.9408 13.0272 0.318068 -0.947391 -0.0358271
-38.9875 53.3989 12.7375 0.320971 -0.946355 -0.0372651
-40.8258 52.7851 12.353 0.325405 -0.944913 -0.0353688
-41.1219 52.6853 12.2959 0.325313 -0.944934 -0.0356476
-42.4982 52.1801 13.1442 0.325786 -0.944847 -0.0335782
-40.7788 52.7589 13.4943 0.324526 -0.945217 -0.0353168
-38.8794 53.3931 13.8543 0.320093 -0.946691 -0.0362872
-36.9007 54.0489 14.1199 0.317338 -0.947654 -0.0353363
-35.1895 54.6084 14.3744 0.311603 -0.949702 -0.0311282
-33.2058 55.2403 14.5949 0.303024 -0.952433 -0.0323711
-31.5796 55.7463 14.7662 0.296559 -0.95465 -0.0263874
-29.9298 56.2497 14.853 0.28682 -0.957707 -0.0230641
-28.2314 56.7472 14.8624 0.271741 -0.96211 -0.0223902
-26.0114 57.3634 14.7779 0.25911 -0.965705 -0.0166053
-24.2611 57.8095 14.7473 0.237972 -0.971196 -0.0121923
-22.5062 58.2277 14.7127 0.225105 -0.974274 -0.0108862
-20.8133 58.6036 14.7164 0.204128 -0.978943 -0.00175361
-20.2659 58.7183 14.7318 0.198383 -0.980096 -0.00742892
-18.8496 58.9919 15.6514 0.189839 -0.98181 -0.00314647
-20.9089 58.582 15.6381 0.201592 -0.979462 -0.00386879
-22.801 58.1518 15.6382 0.22641 -0.974019 -0.0051103
-24.4816 57.7428 15.6983 0.240334 -0.970622 -0.0115086
-26.4689 57.22 15.7479 0.263924 -0.964407 -0.0162418
-28.2823 56.7101 15.841 0.273439 -0.961671 -0.0204883
-29.9744 56.2119 15.8514 0.290006 -0.956731 -0.023716
-31.9706 55.5977 15.725 0.301912 -0.952943 -0.0273478
-33.7975 55.0188 15.5711 0.307025 -0.951255 -0.0291364
-35.678 54.414 15.3084 0.314328 -0.948627 -0.0361088
-37.5864 53.7824 15.1015 0.317797 -0.947495 -0.0354559
-39.5933 53.1148 14.8093 0.322091 -0.946067 -0.0348511
-41.3553 52.5248 14.4811 0.324214 -0.945366 -0.0341773
-43.0967 51.9377 14.1627 0.325201 -0.945056 -0.0333733
-43.6815 51.7409 14.0325 0.325624 -0.944921 -0.0330643
-45.0291 51.2493 14.8298 0.325266 -0.945072 -0.032254
-43.2286 51.8536 15.2625 0.324724 -0.945238 -0.0328462
-41.6088 52.3997 15.5417 0.323983 -0.945451 -0.0340234
-39.8116 53.0016 15.8638 0.32209 -0.946068 -0.034849
-38.0296 53.5967 16.1088 0.320159 -0.946722 -0.0348488
-36.4015 54.1368 16.2853 0.316839 -0.947863 -0.034185
-34.2883 54.8277 16.5301 0.309849 -0.950359 -0.0284821
-32.5275 55.3934 16.6712 0.303625 -0.952382 -0.0279255
-30.4191 56.0528 16.7969 0.293208 -0.955682 -0.0264786
-28.6006 56.5986 16.8159 0.285093 -0.958316 -0.0188006
-26.8924 57.0907 16.6953 0.266871 -0.963627 -0.0142388
-25.1885 57.549 16.6337 0.250188 -0.968135 -0.0110031
-23.3948 58.0037 16.5757 0.238057 -0.971213 -0.00856549
-21.3393 58.4798 16.5569 0.215097 -0.976534 -0.010699
-19.3401 58.8924 16.5726 0.194039 -0.980955 -0.00872268
-18.1156 59.1234 16.5705 0.182555 -0.983169 -0.00716641
-16.9152 59.3442 17.5009 0.173264 -0.984872 -0.0027846
-18.6032 59.0297 17.4894 0.183251 -0.983065 -0.0014318
-20.636 58.6274 17.4931 0.20631 -0.978468 -0.00602441
-22.5242 58.2042 17.4777 0.227106 -0.973844 -0.00715442
-24.6526 57.6785 17.5528 0.248422 -0.968616 -0.00832355
-26.7385 57.1172 17.6436 0.271507 -0.962335 -0.0140088
-28.6451 56.5664 17.7758 0.284146 -0.958591 -0.0190675
-30.7028 55.9408 17.7573 0.293904 -0.955575 -0.0222995
-32.4261 55.3965 17.6679 0.304062 -0.952246 -0.0278047
-34.1284 54.8473 17.5813 0.312539 -0.949361 -0.0321303
-35.9512 54.2494 17.3642 0.317242 -0.947769 -0.0330487
-37.6475 53.686 17.1984 0.318599 -0.947285 -0.0338535
-39.6061 53.0316 16.958 0.321903 -0.946171 -0.0337302
-41.3232 52.4562 16.6925 0.323043 -0.945781 -0.0337735
-42.9572 51.9076 16.3866 0.324331 -0.945369 -0.0329649
-44.6548 51.3363 16.0491 0.324814 -0.945221 -0.0324642
-46.0782 50.8565 15.7601 0.32563 -0.944947 -0.0322595
-46.8786 50.5472 16.7507 0.325596 -0.944975 -0.0317817
-45.2347 51.1022 17.0694 0.324847 -0.945216 -0.032263
-43.4779 51.6948 17.3793 0.324417 -0.945355 -0.0325177
-41.8259 52.2491 17.6964 0.32309 -0.945803 -0.0326882
-40.078 52.8359 17.9504 0.3217 -0.946256 -0.0332874
-38.0998 53.4975 18.197 0.319814 -0.946873 -0.0339107
-36.0179 54.1918 18.3971 0.318484 -0.947389 -0.031966
-34.1876 54.796 18.5449 0.313204 -0.949204 -0.0302664
-32.4516 55.3606 18.6453 0.307985 -0.951009 -0.0269811
-30.6774 55.9238 18.7132 0.299264 -0.95387 -0.0239251
-28.8108 56.4955 18.7158 0.289639 -0.956903 -0.0211321
-27.0383 57.0175 18.6019 0.275216 -0.961237 -0.0167378
-25.1756 57.5318 18.511 0.258672 -0.965834 -0.0158924
-23.2937 58.0121 18.4276 0.239108 -0.970948 -0.00938738
-21.4212 58.4504 18.4306 0.216906 -0.976148 -0.00932502
-19.679 58.817 18.4156 0.196004 -0.98058 -0.0067735
-17.8356 59.1723 18.3997 0.184635 -0.982806 -0.00139285
-15.7656 59.5399 18.3882 0.164589 -0.986362 -0.000750818
-15.5279 59.5784 18.4001 0.160316 -0.987059 -0.00373825
-14.5695 59.7303 19.3964 0.152077 -0.988359 -0.00443052
-16.4588 59.419 19.3117 0.174934 -0.98458 -0.000300403
-18.2023 59.099 19.3172 0.189005 -0.981962 -0.00522069
-19.9899 58.7482 19.3429 0.192361 -0.981305 -0.00611899
-21.8462 58.3456 19.3744 0.222236 -0.974839 -0.0173073
-23.6221 57.9184 19.4059 0.241731 -0.970269 -0.0120291
-25.4739 57.4372 19.4632 0.261323 -0.965103 -0.0169015
-27.355 56.908 19.5773 0.277837 -0.960468 -0.0175504
-29.1454 56.3748 19.668 0.288907 -0.957163 -0.019288
-30.968 55.808 19.6566 0.30025 -0.953521 -0.0254563
-32.9859 55.1591 19.6009 0.310514 -0.950142 -0.0284711
-34.95 54.5139 19.5035 0.315886 -0.94832 -0.030087
-36.8684 53.8728 19.3616 0.319277 -0.947101 -0.0325857
-38.4843 53.3325 19.2007 0.320504 -0.94669 -0.0324801
-40.4851 52.6619 18.9657 0.321496 -0.946364 -0.0321812
-42.1458 52.1034 18.7471 0.322676 -0.945966 -0.0320643
-43.8944 51.5158 18.4582 0.323559 -0.945669 -0.0319191
-45.9013 50.8404 18.0664 0.324819 -0.945268 -0.0310121
-47.3101 50.3626 17.8471 0.325649 -0.945014 -0.0300303
-48.2051 50.0221 18.8786 0.325866 -0.944961 -0.0293301
-46.1497 50.7208 19.1483 0.324534 -0.945396 -0.0300685
-44.434 51.2975 19.477 0.32293 -0.945933 -0.0304389
-42.7936 51.8486 19.7523 0.322754 -0.945986 -0.0306677
-41.0337 52.4412 19.9674 0.321929 -0.946219 -0.0321186
-39.3984 52.9905 20.148 0.320882 -0.94659 -0.0316442
-37.2496 53.7121 20.3474 0.320856 -0.946616 -0.0311444
-35.2428 54.3843 20.4994 0.319106 -0.94728 -0.028835
-33.1849 55.0682 20.5653 0.313898 -0.94913 -0.0249053
-31.2152 55.7058 20.6106 0.305352 -0.951984 -0.0220537
-29.3626 56.2881 20.6114 0.296753 -0.954752 -0.0196366
-27.3709 56.887 20.519 0.276951 -0.960726 -0.0173962
-25.6535 57.3732 20.4172 0.264859 -0.964217 -0.0116506
-23.5001 57.936 20.3625 0.246027 -0.969109 -0.0172816
-21.3563 58.4416 20.3188 0.215815 -0.976309 -0.0156382
-19.3968 58.8608 20.2582 0.198509 -0.980062 -0.00852903
-17.6374 59.2025 20.2451 0.185742 -0.982579 -0.00616043
-15.9404 59.5042 20.2634 0.163394 -0.986553 -0.00396991
-14.1379 59.7925 20.3675 0.155911 -0.98777 -0.00175648
-13.222 59.934 20.4558 0.151947 -0.988388 0.000857098
-11.9547 60.1217 21.5026 0.14483 -0.989455 -0.00185626
-14.0586 59.8035 21.3342 0.156469 -0.987682 -0.000877015
-15.8202 59.5229 21.2208 0.161529 -0.986867 -0.00126392
-17.7644 59.1768 21.187 0.183002 -0.98311 -0.00243283
-19.9484 58.7423 21.2111 0.201143 -0.979557 -0.00293659
-22.0647 58.2659 21.2691 0.229733 -0.97304 -0.0203798
-24.0985 57.7701 21.3324 0.245979 -0.969222 -0.0101557
-25.7834 57.3249 21.379 0.259826 -0.965579 -0.0121264
-27.4543 56.8484 21.4684 0.279582 -0.960004 -0.0150446
-29.4033 56.2581 21.5596 0.293538 -0.955766 -0.0186169
-31.302 55.6557 21.5695 0.304494 -0.95226 -0.0219912
-33.056 55.0845 21.5423 0.315662 -0.948563 -0.0241973
-34.6889 54.5401 21.5159 0.319313 -0.947274 -0.0266849
-36.5407 53.9185 21.4087 0.320313 -0.946845 -0.0297271
-38.3264 53.3167 21.2882 0.321208 -0.946543 -0.0297049
-40.2314 52.6767 21.1053 0.321293 -0.946482 -0.0306924
-41.8755 52.1232 20.9465 0.321838 -0.946316 -0.0301049
-43.626 51.535 20.6831 0.3209 -0.946683 -0.0285322
-45.4284 50.9306 20.3681 0.322485 -0.946165 -0.0278433
-47.0818 50.3712 20.1489 0.324268 -0.945595 -0.0264655
-48.9745 49.726 19.9235 0.326373 -0.944838 -0.0275996
-49.8994 49.3765 21.0306 0.326845 -0.944742 -0.0251982
-48.0341 50.014 21.2371 0.325156 -0.9453 -0.0260953
-46.3462 50.5874 21.4056 0.323165 -0.946026 -0.0244805
-44.5475 51.1938 21.6271 0.321702 -0.946495 -0.0255937
-42.7896 51.7833 21.8737 0.321072 -0.946636 -0.0281733
-41.042 52.37 22.0969 0.321201 -0.946533 -0.0300764
-39.4074 52.9203 22.2274 0.321031 -0.946595 -0.0299468
-37.528 53.5559 22.3501 0.322225 -0.946256 -0.0277584
-35.6969 54.1732 22.4754 0.321259 -0.946626 -0.0263051
-33.8998 54.7774 22.5009 0.317468 -0.947918 -0.0258001
-32.039 55.3946 22.5263 0.310533 -0.950271 -0.0235277
-29.9157 56.0768 22.5078 0.301519 -0.95325 -0.0200214
-28.2747 56.5873 22.4457 0.285879 -0.958182 -0.0126505
-26.5742 57.087 22.3705 0.27166 -0.962294 -0.013853
-24.8972 57.5494 22.3121 0.256028 -0.966556 -0.0148276
-23.2315 57.9784 22.2568 0.242181 -0.970209 -0.00648428
-21.2957 58.4378 22.1917 0.219813 -0.975537 -0.00308686
-19.5066 58.8302 22.1259 0.208436 -0.978012 -0.00692231
-17.6231 59.2 22.1409 0.174596 -0.984638 0.0021894
-15.7686 59.5284 22.1753 0.166137 -0.986087 -0.0055881
-14.0024 59.8109 22.2816 0.158546 -0.987347 -0.00293028
-12.1907 60.0857 22.4122 0.146322 -0.989234 -0.00237474
-10.3122 60.3612 22.593 0.145994 -0.989285 -0.000736367
-10.2834 60.3654 22.5959 0.146315 -0.989238 -0.000927268
-8.11634 60.6947 23.9627 0.156946 -0.987601 0.00348909
-10.1832 60.3798 23.5626 0.147516 -0.989059 0.00123876
-12.4169 60.0487 23.3232 0.148076 -0.988976 -0.000594459
-14.1237 59.7881 23.2091 0.155392 -0.987842 -0.0045571
-15.8191 59.5146 23.1161 0.166142 -0.986086 -0.00559294
-17.569 59.2109 23.1005 0.17817 -0.983988 -0.00471458
