-51.4786 49.0137 35.5093 0.323102 -0.946186 -0.0183256
-51.9978 48.8675 34.1105 0.323926 -0.945814 -0.0225401
-52.1062 48.855 33.0925 0.324072 -0.945742 -0.0234578
-52.1831 48.8553 32.0151 0.325747 -0.945166 -0.0234393
-52.135 48.9013 30.8064 0.326548 -0.944905 -0.0228411
-51.8932 49.0108 29.728 0.326735 -0.944857 -0.0221407
-51.4681 49.179 28.7981 0.327092 -0.944756 -0.0211439
-50.6223 49.4962 27.6915 0.326804 -0.944885 -0.0197935
-49.3327 49.9638 26.6248 0.326476 -0.945003 -0.0195716
-48.5597 50.2405 26.0847 0.324972 -0.945532 -0.0190223
-47.71 50.5388 25.7284 0.323086 -0.946191 -0.0183528
-46.3669 51.0005 25.4765 0.320749 -0.946968 -0.0192522
-44.6606 51.5746 25.5196 0.31779 -0.947945 -0.0202044
-43.3966 51.9884 25.9331 0.317056 -0.948144 -0.022269
-42.585 52.2451 26.4983 0.316004 -0.948486 -0.0227185
-41.4418 52.6063 27.3125 0.316452 -0.948275 -0.0251652
-40.6863 52.8401 28.0648 0.317647 -0.947852 -0.0259845
-39.8919 53.0799 29.165 0.321909 -0.94647 -0.023809
-39.4611 53.2048 30.1072 0.323562 -0.945946 -0.0222237
-39.1423 53.2864 31.3245 0.330748 -0.943497 -0.0204809
-39.1267 53.2891 31.4494 0.330748 -0.943497 -0.0204809
-40.0242 52.9717 31.5803 0.328894 -0.944094 -0.022523
-40.4486 52.8629 30.1388 0.324759 -0.945394 -0.0274428
-41.075 52.6825 29.0033 0.319686 -0.947154 -0.0263442
-41.7639 52.4735 28.2553 0.317074 -0.948002 -0.0274748
-42.6821 52.1871 27.5578 0.314333 -0.949019 -0.0236293
-43.5135 51.9272 26.9276 0.313972 -0.949235 -0.0193755
-44.7779 51.5158 26.4879 0.315833 -0.948683 -0.015784
-46.2177 51.0326 26.5002 0.31918 -0.94758 -0.0147338
-47.3678 50.6397 26.6443 0.32343 -0.946145 -0.0142409
-48.2192 50.3402 27.0596 0.325723 -0.945331 -0.0159498
-49.2549 49.9676 27.8132 0.328578 -0.944299 -0.018317
-50.1876 49.6257 28.6995 0.329202 -0.944039 -0.0204009
-50.7505 49.4131 29.4597 0.327697 -0.94453 -0.0218723
-51.174 49.2449 30.3801 0.32778 -0.944489 -0.0223744
-51.2229 49.1967 31.6013 0.326585 -0.944842 -0.0248084
-51.217 49.1666 32.8537 0.323978 -0.945738 -0.0248161
-51.0513 49.1948 33.9388 0.321597 -0.946625 -0.0218178
-50.67 49.297 35.0791 0.319152 -0.947451 -0.0217929
-50.0741 49.4814 35.9189 0.318261 -0.947835 -0.0178127
-49.3968 49.6949 36.6954 0.318141 -0.947927 -0.0148483
-48.653 49.9334 37.517 0.317011 -0.948369 -0.00998313
-47.8111 50.2115 37.9289 0.319332 -0.947608 -0.00809239
-46.6529 50.6006 38.0748 0.320875 -0.947108 -0.0051669
-45.3921 51.0273 38.1445 0.322923 -0.946421 -0.00241566
-44.3364 51.3885 38.0583 0.324984 -0.945717 -0.000101052
-43.3047 51.7454 37.682 0.328482 -0.944508 -0.000907991
-42.2209 52.1252 37.0339 0.332341 -0.943157 -0.000235002
-41.4792 52.3888 36.3105 0.334697 -0.942321 -0.0023313
-40.9086 52.5971 35.4656 0.337668 -0.941253 -0.00486172
-40.4437 52.7723 34.4768 0.334621 -0.942293 -0.0106024
-40.1804 52.8792 33.4828 0.332813 -0.942811 -0.0185087
-40.0335 52.9512 32.4598 0.331627 -0.943238 -0.0180165
-39.988 52.9782 31.8651 0.330594 -0.943581 -0.0190021
-40.9088 52.6557 31.812 0.331993 -0.94294 -0.0254034
-41.0455 52.5772 33.2052 0.335855 -0.941742 -0.017977
-41.5047 52.3894 34.6142 0.34085 -0.940087 -0.00758962
-42.1893 52.1383 35.6515 0.33778 -0.941224 -0.00159237
-43.356 51.7255 36.6789 0.334014 -0.942561 0.00379055
-44.3627 51.3791 36.9781 0.32488 -0.945751 0.00226297
-45.4289 51.0145 37.1339 0.321286 -0.946977 0.0013299
-46.9448 50.5107 37.034 0.313031 -0.949726 -0.00559288
-48.0233 50.1525 36.7029 0.314291 -0.949237 -0.0121635
-48.9719 49.8552 35.7014 0.316074 -0.948527 -0.0197229
-49.6099 49.6575 34.9288 0.317736 -0.94795 -0.0208517
-50.0467 49.5328 34.0285 0.319162 -0.94736 -0.025336
-50.3707 49.4624 32.5738 0.321938 -0.946428 -0.0251181
-50.2406 49.5396 31.5188 0.326162 -0.944922 -0.0270182
-50.1785 49.5875 30.5221 0.328668 -0.944117 -0.02471
-49.5293 49.8366 29.5135 0.328878 -0.944118 -0.0219133
-48.8459 50.0938 28.7444 0.332621 -0.942956 -0.0140579
-47.8527 50.4518 27.998 0.3267 -0.945039 -0.0129873
-46.8714 50.7967 27.534 0.325779 -0.945366 -0.0122438
-45.5121 51.2538 27.5173 0.316897 -0.948357 -0.0139623
-44.5043 51.588 27.5757 0.313135 -0.949584 -0.0153768
-43.4067 51.9337 28.1934 0.310325 -0.950349 -0.0231163
-42.6053 52.1781 28.7947 0.314394 -0.948857 -0.0287727
-41.896 52.3957 29.4287 0.316469 -0.94812 -0.0301304
-41.3256 52.5551 30.4378 0.321723 -0.946395 -0.0288223
-41.04 52.6264 31.2184 0.33204 -0.942878 -0.0270171
60.2986 50.3813 -15.5262 -0.696 -0.717663 0.0233006
61.2027 49.526 -14.9279 -0.694178 -0.719206 0.0293386
62.2007 48.5702 -14.2447 -0.702942 -0.710521 0.0321249
63.0315 47.767 -13.6621 -0.709719 -0.703787 0.0313552
63.7945 47.025 -13.1031 -0.71993 -0.693028 0.0375824
64.0899 46.7304 -12.8768 -0.719926 -0.693032 0.0375808
28.0629 77.7167 -34.4785 -0.235723 -0.970048 -0.0586563
29.2851 77.3529 -33.7092 -0.273342 -0.959485 -0.0683563
30.3981 76.9524 -33.0226 -0.365131 -0.927878 -0.0756463
30.8641 76.7347 -32.739 -0.377249 -0.923597 -0.0681955
67.3615 43.5126 -9.15993 -0.741491 -0.668745 0.0545201
66.6124 44.288 -9.78322 -0.735521 -0.674521 0.06349
65.9451 44.9585 -10.3234 -0.729035 -0.682286 0.0547125
65.0818 45.8174 -11.0095 -0.719929 -0.692525 0.0459362
64.1896 46.6954 -11.6988 -0.717519 -0.69534 0.0408401
63.3033 47.5586 -12.3616 -0.705161 -0.708091 0.0368194
62.6027 48.2347 -12.8708 -0.704607 -0.708876 0.032006
61.7435 49.053 -13.4705 -0.701861 -0.711774 0.0277364
60.9854 49.7702 -13.9879 -0.693169 -0.720359 0.024494
60.2475 50.4637 -14.4776 -0.694549 -0.719081 0.0229019
59.4564 51.2136 -14.9927 -0.690941 -0.7227 0.0174775
58.6615 51.962 -15.5009 -0.694617 -0.719167 0.0174807
57.8772 52.7129 -15.9837 -0.695948 -0.718035 0.00905565
56.9783 53.5808 -16.5294 -0.697019 -0.717017 0.00716719
55.9906 54.5391 -17.128 -0.699766 -0.714365 0.00306751
55.1661 55.3447 -17.6307 -0.700977 -0.713181 0.00174618
54.4439 56.0534 -18.0691 -0.701149 -0.713013 0.0014355
53.703 56.781 -18.5255 -0.700979 -0.71318 0.00178946
52.9422 57.5272 -18.9899 -0.699579 -0.714549 0.00316617
52.1003 58.3481 -19.505 -0.698198 -0.71589 0.00470335
51.242 59.181 -20.0364 -0.697107 -0.716946 0.0054014
50.2913 60.101 -20.6284 -0.696303 -0.717732 0.00476395
49.4922 60.8684 -21.127 -0.693704 -0.720221 0.00750188
48.7224 61.6037 -21.607 -0.692687 -0.7212 0.00742013
47.9996 62.2933 -22.0577 -0.692275 -0.721596 0.0073358
47.0643 63.1832 -22.6413 -0.691495 -0.722341 0.00761225
46.1943 64.0091 -23.1859 -0.690706 -0.723099 0.00728987
45.1758 64.9747 -23.8219 -0.689936 -0.723839 0.00676247
44.0574 66.0336 -24.5172 -0.689313 -0.724442 0.00563756
43.2452 66.8016 -25.0249 -0.689515 -0.724257 0.00459211
42.1884 67.8 -25.6768 -0.686554 -0.727078 0.000741125
41.2087 68.7289 -26.2834 -0.686642 -0.726995 -0.00150274
40.353 69.5379 -26.8147 -0.68408 -0.729376 -0.00671668
39.4288 70.4043 -27.3916 -0.677478 -0.735435 -0.0126207
39.3038 70.5208 -27.4698 -0.677477 -0.735436 -0.0126189
68.6738 42.2431 -6.96776 -0.750692 -0.657238 0.0670799
67.9137 43.0371 -7.59592 -0.743164 -0.666417 0.0599725
67.0686 43.9097 -8.2959 -0.73764 -0.672618 0.0589182
66.0882 44.9052 -9.1007 -0.727265 -0.68421 0.0542331
65.2729 45.7064 -9.75368 -0.715933 -0.696812 0.0435008
64.3788 46.579 -10.4514 -0.714242 -0.698441 0.0451369
63.6279 47.3067 -11.0208 -0.704338 -0.708836 0.0382058
62.8494 48.0509 -11.5922 -0.705176 -0.708055 0.0372145
61.8972 48.9506 -12.2693 -0.697632 -0.715938 0.0272371
61.0877 49.7112 -12.8261 -0.692986 -0.720559 0.0237548
60.2558 50.4926 -13.3848 -0.691121 -0.722473 0.0196077
59.4981 51.2026 -13.884 -0.689453 -0.724132 0.016975
58.7226 51.9317 -14.3825 -0.692434 -0.7213 0.0161727
57.9959 52.6173 -14.8406 -0.690502 -0.723293 0.00742613
57.2567 53.3224 -15.2911 -0.692726 -0.721179 0.00558652
56.1604 54.3782 -15.9613 -0.69518 -0.718823 0.0043105
55.2986 55.2177 -16.4889 -0.699073 -0.715047 0.00219588
54.1135 56.3799 -17.2139 -0.700821 -0.713336 0.00161992
53.2923 57.1869 -17.7152 -0.701426 -0.712741 0.00168483
52.2749 58.1834 -18.338 -0.699601 -0.714526 0.00317003
51.4033 59.0318 -18.8729 -0.697856 -0.716224 0.00459232
50.6494 59.7626 -19.3379 -0.69691 -0.717138 0.00543601
49.9328 60.4538 -19.7821 -0.695582 -0.718418 0.00649033
49.1796 61.1772 -20.2512 -0.694117 -0.719832 0.0065634
48.3658 61.9553 -20.7592 -0.692684 -0.7212 0.00772038
47.5625 62.7205 -21.2588 -0.691687 -0.722151 0.00819032
46.8245 63.4225 -21.7187 -0.690993 -0.722821 0.00759771
45.9481 64.2535 -22.2659 -0.690392 -0.723398 0.00733519
45.1139 65.0435 -22.7851 -0.689463 -0.724286 0.00705764
44.2734 65.8382 -23.3077 -0.68881 -0.724916 0.00616289
43.5396 66.53 -23.7657 -0.688239 -0.725472 0.00427986
42.6626 67.3558 -24.3124 -0.686068 -0.727526 0.00412494
41.7641 68.2014 -24.8676 -0.686515 -0.727113 0.0021184
41.037 68.8856 -25.3176 -0.682018 -0.731314 -0.00566644
39.9792 69.8802 -25.9749 -0.683937 -0.729507 -0.0070656
39.1612 70.6381 -26.4866 -0.677513 -0.735446 -0.00977045
38.4075 71.3237 -26.9547 -0.660723 -0.7505 -0.0139508
37.6567 71.9905 -27.4186 -0.65729 -0.753464 -0.0161961
36.7841 72.7566 -27.9647 -0.629881 -0.776386 -0.0217896
35.9662 73.4305 -28.4729 -0.616736 -0.786788 -0.0245197
35.0198 74.1819 -29.0647 -0.583715 -0.811237 -0.034216
34.1651 74.7957 -29.5941 -0.568182 -0.82071 -0.0600366
33.3195 75.3747 -30.119 -0.530439 -0.846928 -0.0367038
32.3198 75.9835 -30.7381 -0.461558 -0.885532 -0.0528861
31.1977 76.5436 -31.4312 -0.405602 -0.914022 -0.00712879
30.3079 76.9426 -31.9535 -0.358153 -0.933499 -0.0174756
29.3871 77.2535 -32.4964 -0.303467 -0.952635 -0.0198722
28.3981 77.5624 -33.0996 -0.246562 -0.968929 -0.0195908
27.3569 77.8509 -33.7651 -0.22888 -0.973082 -0.0269217
26.1634 78.0083 -34.5611 -0.108193 -0.994129 -0.000986389
25.05 78.1112 -35.321 -0.069251 -0.997393 -0.0202992
23.9288 78.1621 -36.0939 0.0106661 -0.999931 -0.00488587
22.6609 78.1211 -36.9757 0.0759371 -0.997088 -0.00694395
21.6004 78.0098 -37.6769 0.11363 -0.993325 -0.0198659
20.5938 77.9053 -38.3181 0.143079 -0.989518 -0.0195701
19.8237 77.7822 -38.7473 0.170004 -0.985188 -0.0224511
9.42268 74.3422 -39.844 0.430099 -0.902117 -0.0346408
10.6841 74.9311 -39.691 0.401131 -0.915722 -0.0233808
11.7086 75.3685 -39.5714 0.376363 -0.92637 -0.0137645
12.9052 75.8417 -39.4319 0.354532 -0.935042 -0.00193182
13.9979 76.2374 -39.3048 0.337907 -0.941102 -0.0120821
15.2016 76.6506 -39.145 0.30305 -0.952956 0.00599926
16.3746 76.9986 -38.9755 0.275699 -0.961233 0.00466519
17.8706 77.4009 -38.5625 0.249429 -0.968248 0.0167878
19.0067 77.6429 -38.0456 0.172041 -0.985087 -0.00245666
20.039 77.8074 -37.4793 0.153874 -0.988074 0.00571065
21.3941 77.9795 -36.6402 0.113117 -0.993561 -0.00646358
22.3214 78.0886 -36.0193 0.0759322 -0.997089 -0.00695549
23.2325 78.1303 -35.3886 0.0521566 -0.998618 0.00643214
24.1931 78.1419 -34.726 -0.0213375 -0.99962 0.0174515
25.3895 78.0784 -33.9067 -0.0903182 -0.995913 -0.000188919
26.3585 77.9864 -33.2532 -0.104368 -0.994203 -0.0258442
27.3423 77.8223 -32.6069 -0.22888 -0.973082 -0.0269219
28.3088 77.5712 -32.015 -0.242293 -0.970128 -0.0121098
29.3884 77.2251 -31.3699 -0.309673 -0.950439 -0.0277165
30.3883 76.8826 -30.7964 -0.311656 -0.950123 -0.0117339
31.4075 76.4288 -30.1873 -0.441163 -0.896453 -0.0417923
32.6181 75.7584 -29.4458 -0.461204 -0.886081 -0.0463812
33.6356 75.1111 -28.8237 -0.518913 -0.853642 -0.0449995
34.625 74.4122 -28.2177 -0.556951 -0.829846 -0.0340721
35.5597 73.7099 -27.6459 -0.605135 -0.795608 -0.028628
36.371 73.0688 -27.1482 -0.629875 -0.776391 -0.021798
37.214 72.3597 -26.6265 -0.657288 -0.753465 -0.0161981
38.1162 71.5639 -26.064 -0.658044 -0.752917 -0.00966447
38.9676 70.8008 -25.5343 -0.666937 -0.745054 -0.00952346
39.8238 70.0116 -24.9997 -0.675884 -0.73695 -0.00924505
40.6975 69.1997 -24.4563 -0.68152 -0.731789 0.00402382
41.6344 68.3277 -23.8754 -0.683778 -0.729686 0.0023553
42.4542 67.5583 -23.367 -0.685654 -0.727912 0.00475253
43.2327 66.8278 -22.8822 -0.687122 -0.726518 0.00591678
44.162 65.9529 -22.3026 -0.688333 -0.725363 0.0068256
44.9565 65.2027 -21.8091 -0.688929 -0.724796 0.00685826
45.78 64.4241 -21.2967 -0.690274 -0.723507 0.00770379
46.6097 63.6377 -20.7801 -0.690555 -0.723236 0.00796806
47.4132 62.8745 -20.2814 -0.691471 -0.72236 0.00793692
48.2425 62.0844 -19.766 -0.69259 -0.721286 0.0081366
49.1683 61.1992 -19.19 -0.694823 -0.719146 0.00710394
49.8967 60.4981 -18.7386 -0.696147 -0.717874 0.00592604
50.9277 59.5009 -18.1025 -0.698193 -0.715889 0.00546045
51.8043 58.649 -17.5647 -0.699495 -0.714625 0.00428535
52.6233 57.8466 -17.064 -0.701319 -0.712844 0.00207508
53.4036 57.0793 -16.5897 -0.70174 -0.712432 0.00112335
54.3499 56.1486 -16.0095 -0.700734 -0.713422 -0.000951029
55.3285 55.1902 -15.4078 -0.697495 -0.716589 0.000811078
56.2585 54.2888 -14.8351 -0.695442 -0.718579 0.00208909
57.0914 53.4883 -14.3228 -0.692219 -0.721667 0.00549981
57.9768 52.6481 -13.7727 -0.68973 -0.72401 0.00904802
58.9716 51.7177 -13.137 -0.685838 -0.727629 0.0134847
59.7557 50.9892 -12.627 -0.685094 -0.728217 0.0186116
60.4903 50.3045 -12.1387 -0.688742 -0.724648 0.0228066
61.2352 49.6104 -11.6321 -0.690748 -0.722742 0.0226343
62.1649 48.7401 -10.9816 -0.694381 -0.71919 0.0245168
63.0114 47.9489 -10.3727 -0.697504 -0.715877 0.031769
63.7816 47.2139 -9.80039 -0.701232 -0.712121 0.0340016
64.5514 46.4752 -9.20694 -0.708496 -0.704422 0.0426877
65.3088 45.7426 -8.60615 -0.715616 -0.69685 0.0478945
66.0904 44.9841 -7.97914 -0.715128 -0.697024 0.0524242
67.0351 44.0383 -7.21115 -0.736085 -0.674058 0.0618394
67.7267 43.3306 -6.64522 -0.740461 -0.669647 0.0573632
68.5568 42.4641 -5.96321 -0.744048 -0.6656 0.0580517
69.4766 41.5039 -5.21087 -0.741455 -0.668351 0.0595882
69.8418 41.1229 -4.90825 -0.744563 -0.66478 0.0607796
74.2801 36.6693 0.0531418 -0.723208 -0.688803 0.0501988
73.6143 37.3226 -0.554857 -0.721844 -0.690215 0.050443
73.0119 37.9271 -1.07945 -0.730179 -0.681931 0.0425428
72.2285 38.7243 -1.75283 -0.736798 -0.674485 0.0468876
71.621 39.349 -2.26696 -0.737656 -0.673822 0.0427461
70.9559 40.0458 -2.84312 -0.74092 -0.669975 0.0465899
70.3298 40.7 -3.38199 -0.73684 -0.674923 0.0393205
69.6735 41.3834 -3.9301 -0.736838 -0.674695 0.0430881
68.7167 42.3807 -4.71872 -0.738253 -0.673123 0.0434472
67.9357 43.1976 -5.35718 -0.737118 -0.674478 0.041666
67.3081 43.849 -5.87791 -0.733226 -0.678803 0.0400676
66.5387 44.6293 -6.50326 -0.726469 -0.686096 0.0389268
65.8293 45.324 -7.07391 -0.714398 -0.697184 0.0597496
65.0554 46.0623 -7.68766 -0.708769 -0.704067 0.0440074
64.2075 46.8742 -8.35748 -0.704398 -0.708538 0.0423981
63.3142 47.7132 -9.04012 -0.700895 -0.712146 0.0399277
62.5094 48.4638 -9.63113 -0.691769 -0.721362 0.0330548
61.5369 49.3637 -10.3245 -0.690601 -0.722783 0.0255959
60.6819 50.1564 -10.9144 -0.68388 -0.729282 0.0213347
59.9694 50.8161 -11.3942 -0.689383 -0.724261 0.0140507
59.2221 51.5035 -11.8866 -0.683265 -0.730062 0.0125801
58.2532 52.4046 -12.5123 -0.68415 -0.729288 0.00885016
57.5222 53.087 -12.9784 -0.686352 -0.727253 0.00493925
56.6755 53.8902 -13.5067 -0.692441 -0.721474 -1.81282e-05
55.9829 54.5561 -13.9335 -0.693532 -0.720426 0.000273609
55.2646 55.2521 -14.3812 -0.697515 -0.71657 -0.000541528
54.5857 55.9155 -14.8016 -0.700527 -0.713625 -0.000951039
53.8933 56.597 -15.2266 -0.701473 -0.712696 -0.000395617
53.1095 57.3702 -15.7064 -0.702159 -0.71202 0.000483064
52.2193 58.2468 -16.2485 -0.702077 -0.7121 0.00123899
51.5367 58.9157 -16.6662 -0.699718 -0.714413 0.0030283
50.722 59.7089 -17.1664 -0.698376 -0.71571 0.00553717
49.8851 60.5192 -17.6815 -0.696579 -0.717445 0.00717651
49.1557 61.222 -18.1323 -0.695825 -0.718169 0.00780393
48.4248 61.9222 -18.5846 -0.693656 -0.720255 0.00861974
47.757 62.5594 -18.9983 -0.692665 -0.721213 0.0082166
46.9623 63.315 -19.4906 -0.691156 -0.722652 0.00883523
46.1556 64.0799 -19.9903 -0.690443 -0.723344 0.0078947
45.482 64.7177 -20.4091 -0.689082 -0.724641 0.00780803
44.8019 65.3599 -20.8319 -0.688849 -0.724863 0.0078203
44.1081 66.0139 -21.262 -0.688514 -0.725179 0.00796072
43.0751 66.9848 -21.9046 -0.686982 -0.726649 0.00606978
42.3105 67.7019 -22.3812 -0.685816 -0.72775 0.0059992
41.6083 68.3585 -22.8181 -0.684471 -0.729019 0.00562454
40.9195 68.9996 -23.2467 -0.682647 -0.730742 0.00318861
39.6138 70.1977 -24.0559 -0.675038 -0.73778 -0.00203537
38.8791 70.8665 -24.5128 -0.668439 -0.743766 -0.00131572
38.1174 71.5484 -24.9873 -0.658591 -0.752433 -0.0101193
37.3152 72.2486 -25.4891 -0.647293 -0.762017 -0.0185031
36.5733 72.8739 -25.9496 -0.629047 -0.777306 -0.00975049
35.866 73.4471 -26.3834 -0.611191 -0.791363 -0.0138195
35.1031 74.043 -26.8496 -0.610498 -0.791919 -0.012494
34.0185 74.8071 -27.4991 -0.564818 -0.825204 -0.00436911
33.2011 75.3477 -27.9907 -0.533245 -0.845957 -0.00238789
31.9457 76.0787 -28.7512 -0.477354 -0.878711 -0.000678038
31.1641 76.5036 -29.2223 -0.465784 -0.884888 -0.00423341
30.3187 76.8871 -29.7194 -0.34097 -0.940026 -0.00949202
29.063 77.3219 -30.4428 -0.305012 -0.952332 -0.00567627
27.91 77.6563 -31.1204 -0.236767 -0.97153 -0.0084139
26.8856 77.8908 -31.751 -0.187817 -0.98199 -0.0204922
25.7351 78.0696 -32.4993 -0.14907 -0.988826 0.000474118
24.8842 78.1325 -33.0669 -0.0579333 -0.99832 0.00054543
23.9813 78.1568 -33.6862 -0.01688 -0.999857 -0.000706036
22.8642 78.1127 -34.4595 0.0572764 -0.998347 0.00484246
21.6816 78.0161 -35.2748 0.119233 -0.992865 0.00160306
20.6255 77.8871 -35.9774 0.121015 -0.992649 0.00197324
19.353 77.6935 -36.7204 0.183548 -0.982941 -0.011745
18.4675 77.5338 -37.1895 0.181899 -0.983198 -0.0153093
17.331 77.2712 -37.6632 0.253607 -0.967306 -0.00166136
16.1124 76.9338 -37.9768 0.273413 -0.961842 0.0102214
14.9883 76.5824 -38.1552 0.316643 -0.94845 0.0133728
13.8355 76.1818 -38.309 0.338416 -0.940983 0.00497515
12.7881 75.7858 -38.4386 0.370799 -0.928673 -0.00859019
11.7759 75.3827 -38.5594 0.370774 -0.928683 -0.00860406
10.6458 74.8989 -38.6982 0.39854 -0.917101 -0.00954
9.52032 74.3583 -38.8388 0.438452 -0.898456 -0.0231804
8.59616 73.883 -38.9548 0.471871 -0.880848 -0.0380047
8.28144 73.718 -38.9934 0.468653 -0.88195 -0.0502893
8.1259 73.6017 -38.0205 0.475013 -0.879603 -0.0257098
9.02712 74.0784 -37.9056 0.46747 -0.883452 -0.0313893
10.1633 74.6421 -37.7615 0.43586 -0.899674 -0.0247447
11.0899 75.0834 -37.6413 0.402116 -0.915584 -0.00303261
12.1389 75.5281 -37.5075 0.37403 -0.927364 0.00989693
13.1613 75.938 -37.3763 0.368532 -0.929603 0.00469326
14.7334 76.5006 -37.1645 0.327482 -0.94477 -0.0128542
16.4325 77.0247 -36.8017 0.276053 -0.961071 -0.0117224
17.6093 77.3375 -36.4467 0.235281 -0.971875 -0.010065
18.9569 77.614 -35.8199 0.181386 -0.983404 -0.00395506
19.8173 77.7707 -35.3399 0.143404 -0.989553 -0.0148143
20.6539 77.8838 -34.7935 0.147836 -0.988972 0.00881889
21.6108 78.0258 -34.1421 0.103412 -0.993918 0.0378613
22.4677 78.1218 -33.5471 0.0635865 -0.997341 0.0356071
23.4339 78.1757 -32.8788 0.019216 -0.999476 0.0260339
24.5268 78.1592 -32.1299 -0.0412873 -0.999 0.0171619
25.4134 78.1202 -31.5492 -0.127084 -0.99189 0.00189272
26.2769 77.9897 -30.9927 -0.157012 -0.987596 -0.000898472
27.1399 77.8249 -30.4554 -0.18857 -0.982042 -0.00582109
28.337 77.5334 -29.7441 -0.245502 -0.969193 0.0198214
29.3886 77.219 -29.1452 -0.296164 -0.955083 0.0101335
30.482 76.8189 -28.5217 -0.383092 -0.923675 0.00804968
31.3409 76.403 -28.0238 -0.454122 -0.890905 -0.00779491
32.2287 75.9169 -27.4903 -0.491125 -0.870983 -0.01363
33.0898 75.415 -26.9668 -0.540928 -0.841039 -0.00709341
34.0901 74.752 -26.3725 -0.558387 -0.82958 -0.000441261
34.9859 74.1168 -25.8445 -0.588185 -0.80871 -0.00522731
35.8016 73.4828 -25.3474 -0.61415 -0.789149 -0.00798906
36.8619 72.6199 -24.6976 -0.630683 -0.77589 -0.0152535
37.675 71.9194 -24.1902 -0.653921 -0.756549 -0.0046615
38.4463 71.2529 -23.711 -0.667578 -0.744537 -0.00218006
39.3376 70.4504 -23.1543 -0.675056 -0.737753 0.00438042
40.2364 69.6307 -22.5961 -0.675766 -0.737099 0.00502834
41.0358 68.8984 -22.0981 -0.681046 -0.732231 0.00379771
41.8021 68.1848 -21.6214 -0.682909 -0.730476 0.00630955
42.5543 67.4827 -21.1531 -0.685847 -0.727714 0.00675274
43.2243 66.8547 -20.7362 -0.686776 -0.726832 0.00734769
44.013 66.115 -20.2486 -0.686724 -0.726877 0.00771766
44.7695 65.4026 -19.7811 -0.688727 -0.724973 0.00830916
45.8434 64.3886 -19.1134 -0.689271 -0.724455 0.00841741
46.5339 63.7345 -18.6857 -0.691083 -0.722722 0.00877504
47.2398 63.0647 -18.2501 -0.692383 -0.721479 0.00859147
48.0857 62.2584 -17.7271 -0.692948 -0.720939 0.00835029
48.7487 61.6242 -17.318 -0.695172 -0.718792 0.00864637
49.6874 60.7205 -16.7406 -0.696597 -0.717428 0.0070524
50.6478 59.7912 -16.1509 -0.699709 -0.714407 0.00559789
51.5824 58.8772 -15.5762 -0.701743 -0.71242 0.00397901
52.5023 57.9714 -15.0149 -0.702273 -0.711903 0.00263104
53.1762 57.3038 -14.6032 -0.703107 -0.711084 -0.000215592
53.9018 56.5869 -14.1603 -0.701366 -0.712801 -0.000935416
54.7033 55.7959 -13.6627 -0.699647 -0.714479 -0.00374085
55.6264 54.8959 -13.0832 -0.694425 -0.719557 -0.003384
56.5067 54.0508 -12.5393 -0.69124 -0.722621 -0.00239865
57.3394 53.2644 -12.01 -0.685718 -0.727866 0.00111832
58.0252 52.6269 -11.573 -0.678996 -0.734138 0.00215005
58.7189 51.9841 -11.127 -0.681752 -0.731532 0.00870411
59.4587 51.3049 -10.6383 -0.678434 -0.734583 0.0107298
60.1667 50.6581 -10.1668 -0.683439 -0.729828 0.0162117
61.0397 49.8601 -9.57349 -0.67942 -0.733439 0.021338
61.735 49.224 -9.08584 -0.684939 -0.727891 0.0321379
62.5015 48.5216 -8.53581 -0.691796 -0.721337 0.0330286
63.4608 47.6375 -7.81818 -0.695406 -0.717531 0.0395071
64.1873 46.9569 -7.25356 -0.698297 -0.714543 0.0425395
64.8535 46.3302 -6.72625 -0.706534 -0.706193 0.0458415
65.56 45.6589 -6.1659 -0.71016 -0.702603 0.0449553
66.4108 44.8252 -5.47625 -0.722714 -0.690047 0.0389787
67.1249 44.1004 -4.89054 -0.730399 -0.681955 0.0381427
67.7827 43.4257 -4.35643 -0.73018 -0.682321 0.0357196
68.6488 42.5257 -3.6435 -0.738113 -0.673234 0.0441195
69.4395 41.6969 -2.98954 -0.737191 -0.674766 0.0352248
70.2386 40.8628 -2.31839 -0.735809 -0.6761 0.0383923
71.0066 40.0607 -1.67692 -0.736245 -0.675742 0.0362798
71.7135 39.3225 -1.08285 -0.735032 -0.677263 0.032297
72.56 38.4531 -0.377348 -0.72786 -0.684516 0.0407025
73.3991 37.6102 0.348661 -0.723183 -0.689383 0.0419278
74.0991 36.9213 0.993206 -0.717652 -0.694978 0.0445104
74.2995 36.7233 1.18438 -0.716055 -0.697117 0.0359546
74.1255 36.9541 2.13751 -0.709838 -0.703918 0.0250994
73.5096 37.5562 1.56158 -0.717459 -0.69585 0.0323277
72.732 38.3257 0.853282 -0.717477 -0.695871 0.0314711
71.8765 39.2025 0.149407 -0.724876 -0.688502 0.0228134
71.036 40.0758 -0.535068 -0.730946 -0.681816 0.0290773
70.4262 40.7234 -1.03286 -0.73503 -0.677669 0.0222715
69.7822 41.3943 -1.56409 -0.734426 -0.67797 0.0312313
69.15 42.0613 -2.07795 -0.736487 -0.67564 0.0331468
68.4192 42.8231 -2.68896 -0.732684 -0.679864 0.0309769
67.5095 43.7632 -3.41851 -0.730524 -0.682109 0.0325818
66.8784 44.4132 -3.93562 -0.727458 -0.685406 0.0320047
66.2164 45.0784 -4.4886 -0.718954 -0.69413 0.0359122
65.5825 45.7067 -5.01175 -0.7117 -0.701168 0.0429769
64.7835 46.4702 -5.65844 -0.706478 -0.706165 0.0471078
63.9872 47.2116 -6.28893 -0.694196 -0.718822 0.0372439
62.9075 48.2042 -7.11802 -0.68927 -0.723647 0.0352572
62.2639 48.7936 -7.60301 -0.683729 -0.7289 0.0349115
61.3485 49.6177 -8.2585 -0.681438 -0.731407 0.0262065
60.6826 50.2136 -8.71942 -0.679064 -0.733852 0.0182653
60.0019 50.8286 -9.18275 -0.674529 -0.738086 0.0154966
59.0061 51.7342 -9.8448 -0.675192 -0.737576 0.00986784
58.2392 52.434 -10.3484 -0.678179 -0.734883 0.00441409
36.3568 73.0293 -23.9349 -0.638746 -0.769331 0.011573
35.1642 73.9705 -24.6561 -0.599821 -0.80012 0.004834
33.5982 75.0826 -25.5789 -0.558383 -0.829583 -0.000441895
32.2549 75.8922 -26.3774 -0.489583 -0.871929 0.00697466
30.7819 76.6894 -27.2531 -0.441827 -0.8971 0.00035046
29.3725 77.2445 -28.0519 -0.323025 -0.946235 0.0171391
27.795 77.6891 -28.951 -0.238171 -0.970826 0.0277666
26.3765 77.9702 -29.7899 -0.174644 -0.984626 -0.00340518
24.815 78.1685 -30.7738 -0.0411037 -0.999062 -0.0135949
23.3341 78.1727 -31.764 0.0238223 -0.999629 -0.013188
21.8103 78.068 -32.8138 0.100927 -0.994884 0.00437432
20.3891 77.8693 -33.7898 0.16595 -0.986092 0.00914248
18.9906 77.6181 -34.6664 0.180668 -0.983544 -0.00104015
17.4098 77.2802 -35.419 0.224108 -0.974563 -0.00159513
15.8071 76.8258 -35.8803 0.28259 -0.959046 0.0193272
14.1818 76.2968 -36.2137 0.32762 -0.944809 0.000694063
12.4684 75.672 -36.4525 0.369006 -0.929207 0.020233
11.005 75.029 -36.6518 0.425026 -0.905036 -0.0162175
9.4817 74.2861 -36.8512 0.461057 -0.886994 -0.0258468
10.5132 74.7746 -35.7168 0.434052 -0.900882 -0.00312013
12.2954 75.5914 -35.4771 0.409365 -0.912336 -0.00790825
14.1687 76.2978 -35.1746 0.331403 -0.943473 0.00552217
15.9135 76.8746 -34.7998 0.291485 -0.95657 0.00310042
17.7462 77.3567 -34.1663 0.227139 -0.973861 -0.00190461
19.3128 77.6827 -33.3176 0.187328 -0.982282 0.00552882
20.678 77.9166 -32.4068 0.145038 -0.989246 0.0188637
22.098 78.1064 -31.4236 0.0886952 -0.996006 0.0102311
23.4985 78.1856 -30.4704 0.00431552 -0.99999 0.00124848
24.9055 78.1596 -29.5646 -0.0555279 -0.998273 0.0191741
26.3688 77.992 -28.6661 -0.162218 -0.986272 0.0308534
26.4061 77.9861 -28.6443 -0.175366 -0.984017 0.030936
66.5249 44.8244 -3.06742 -0.725113 -0.688103 0.0269296
67.2567 44.0699 -2.45813 -0.725481 -0.68797 0.0193393
68.2373 43.054 -1.68599 -0.726598 -0.686898 0.0150243
69.0048 42.2487 -1.05092 -0.72829 -0.685168 0.0117647
69.7217 41.4999 -0.485331 -0.731907 -0.681047 0.0220568
70.6014 40.5711 0.223411 -0.728387 -0.685149 0.00477956
71.478 39.6467 0.930718 -0.728663 -0.684581 0.0199675
72.2726 38.832 1.55493 -0.723233 -0.690413 0.0162367
73.1896 37.9128 2.37234 -0.716261 -0.697513 0.0211064
73.4736 37.629 2.6288 -0.713057 -0.700726 0.0230997
73.0472 38.0786 3.32756 -0.712078 -0.702074 0.00609591
72.196 38.9315 2.58118 -0.714615 -0.699366 0.0145541
71.2252 39.9297 1.81839 -0.722188 -0.691624 0.0100401
70.4924 40.6948 1.26237 -0.725697 -0.687995 0.00523178
69.6973 41.5335 0.641025 -0.727645 -0.685953 0.0015534
68.7258 42.5617 -0.105176 -0.726857 -0.686749 0.00744947
67.8779 43.453 -0.774757 -0.728268 -0.685251 0.00751862
67.4028 43.9475 -1.15369 -0.726314 -0.687223 0.013858
67.6848 43.6599 0.294075 -0.723786 -0.689998 -0.00610729
68.4456 42.8573 0.832857 -0.725908 -0.687782 -0.0037279
69.1838 42.0755 1.39431 -0.725514 -0.688193 -0.00442824
70.1794 41.0249 2.11795 -0.719896 -0.694014 -0.00973849
71.041 40.1225 2.74652 -0.718296 -0.695702 -0.00701707
71.8175 39.3164 3.33768 -0.712669 -0.701482 -0.00504718
72.4478 38.6825 3.87829 -0.707595 -0.706619 0.000219439
71.9027 39.2211 4.48803 -0.703149 -0.710891 -0.0147202
70.911 40.2407 3.71908 -0.714536 -0.699339 -0.0190676
70.0708 41.117 3.12997 -0.715622 -0.698163 -0.0212977
69.3237 41.8967 2.64263 -0.715435 -0.698269 -0.0239527
68.5452 42.7156 2.12748 -0.719606 -0.694017 -0.0225558
67.9143 43.3911 1.68404 -0.723242 -0.69023 -0.0224308
67.7738 43.4804 2.87156 -0.716744 -0.696439 -0.035361
68.6661 42.5443 3.35779 -0.711453 -0.702053 -0.030933
69.5467 41.6264 3.8633 -0.713486 -0.699972 -0.0312442
70.398 40.7413 4.40746 -0.709669 -0.703742 -0.0334112
71.2482 39.8586 5.01003 -0.708489 -0.704943 -0.0331297
71.3475 39.7557 5.07522 -0.704502 -0.709055 -0.0303093
70.806 40.2705 5.69968 -0.708499 -0.704932 -0.0331849
69.8547 41.2555 5.09791 -0.704194 -0.708571 -0.0451455
68.9555 42.1833 4.61113 -0.706108 -0.707009 -0.0393623
68.0034 43.1651 4.16377 -0.707387 -0.705213 -0.0477387
67.7095 43.4696 4.06565 -0.710743 -0.701743 -0.0489978
67.6619 43.4391 5.19369 -0.705304 -0.706724 -0.0555641
68.5508 42.5298 5.48555 -0.704602 -0.707415 -0.0556657
69.3409 41.7189 5.84009 -0.702347 -0.710185 -0.0484403
70.373 40.6584 6.41899 -0.70224 -0.710467 -0.0457758
70.4577 40.5713 6.46868 -0.702489 -0.710134 -0.0470977
70.0265 40.9441 7.18548 -0.698714 -0.71333 -0.0544039
69.1626 41.8272 6.76428 -0.70155 -0.710743 -0.0516984
68.1241 42.8741 6.42267 -0.697815 -0.713246 -0.0658323
67.5708 43.4287 6.27743 -0.699051 -0.712022 -0.065978
67.2288 43.6574 7.30103 -0.692396 -0.717458 -0.0764343
68.2503 42.6539 7.46689 -0.696223 -0.714806 -0.0657716
69.1206 41.7842 7.7599 -0.695315 -0.715801 -0.0645482
69.5403 41.3583 7.9494 -0.696351 -0.714789 -0.0645956
69.1117 41.7017 8.76934 -0.6957 -0.715531 -0.0633756
68.1299 42.6696 8.48872 -0.688979 -0.721189 -0.0720709
67.1421 43.6272 8.34974 -0.685159 -0.723791 -0.0817472
66.6777 44.0725 8.32025 -0.687099 -0.721708 -0.0838584
66.2779 44.32 9.43729 -0.677303 -0.730235 -0.0895447
67.1937 43.4552 9.4583 -0.683317 -0.725639 -0.080783
68.2286 42.4708 9.56464 -0.685944 -0.724181 -0.0710129
69.0623 41.6581 9.76749 -0.691272 -0.719539 -0.0663834
69.1352 41.4952 10.7873 -0.690384 -0.720539 -0.0647543
68.1515 42.4311 10.6567 -0.682801 -0.727653 -0.0656077
67.0886 43.445 10.5105 -0.678223 -0.730594 -0.0790316
65.9626 44.4758 10.5835 -0.675435 -0.732138 -0.0881
65.8609 44.5668 10.6018 -0.673201 -0.733893 -0.0905571
65.2526 44.9763 11.7961 -0.659625 -0.745757 -0.0934965
66.6613 43.7193 11.6212 -0.671784 -0.736752 -0.076829
67.8717 42.5935 11.6959 -0.67979 -0.729636 -0.0742836
68.7815 41.7395 11.7738 -0.684879 -0.726093 -0.0610661
69.2049 41.3391 11.7863 -0.686389 -0.72481 -0.0593379
69.3926 41.0816 12.7805 -0.683146 -0.728025 -0.05737
68.4912 41.9239 12.7639 -0.679688 -0.73061 -0.0650624
67.6255 42.7294 12.7086 -0.675949 -0.73423 -0.0632379
66.7458 43.5319 12.7028 -0.670531 -0.738864 -0.0668427
65.6425 44.5194 12.7675 -0.660659 -0.746901 -0.0752873
64.8989 45.1555 12.9511 -0.653583 -0.752714 -0.0790607
63.642 46.0792 14.2441 -0.635472 -0.768062 -0.0790931
64.5586 45.3295 14.0492 -0.648369 -0.75769 -0.0743214
65.7825 44.2838 13.8668 -0.663 -0.745323 -0.0701751
66.6892 43.4869 13.7727 -0.665823 -0.7433 -0.0646812
67.7445 42.5287 13.7516 -0.669256 -0.740499 -0.0612997
68.7176 41.6375 13.7642 -0.67917 -0.731818 -0.0563118
69.6535 40.7681 13.7728 -0.679108 -0.732431 -0.0485433
69.8417 40.5932 13.7714 -0.680234 -0.731357 -0.0489794
70.1715 40.2332 14.7393 -0.67449 -0.737287 -0.0383559
69.3063 41.0248 14.7584 -0.674154 -0.737211 -0.0451295
68.287 41.9553 14.7682 -0.668764 -0.741716 -0.0511097
67.2762 42.8664 14.8 -0.666921 -0.742817 -0.0586458
66.3911 43.6557 14.8495 -0.660032 -0.748385 -0.0654042
65.3798 44.5323 14.9555 -0.653314 -0.754246 -0.0655293
64.4251 45.3343 15.1038 -0.641334 -0.763645 -0.0744151
63.4728 46.1118 15.299 -0.637154 -0.766857 -0.0772281
62.5403 46.846 15.5254 -0.620425 -0.780815 -0.0734876
62.4858 46.8881 15.5391 -0.62235 -0.779579 -0.0702572
-33.5464 55.7587 10.8785 0.296668 -0.954388 -0.0336536
-31.8475 56.2664 11.2312 0.28665 -0.95756 -0.030181
-30.0576 56.7893 11.3809 0.278235 -0.960025 -0.0306159
-28.2451 57.2994 11.5246 0.265631 -0.963811 -0.0225338
-27.6924 57.451 11.5634 0.265806 -0.963806 -0.020623
-25.2579 58.0798 12.4913 0.249242 -0.968306 -0.0161848
-27.0937 57.5946 12.5434 0.259582 -0.965592 -0.0158049
-28.8964 57.0977 12.4713 0.271204 -0.962366 -0.0173488
-30.9553 56.4971 12.3566 0.284983 -0.958249 -0.023327
-32.9061 55.9156 12.1043 0.294992 -0.954818 -0.0360883
-34.5654 55.4072 11.7013 0.30507 -0.951672 -0.0353987
-36.342 54.845 11.3036 0.312053 -0.949344 -0.0370125
-36.3603 54.8391 11.2996 0.313526 -0.948828 -0.0377717
-39.2926 53.8402 11.6997 0.321541 -0.946152 -0.0375117
-37.582 54.404 12.0812 0.31803 -0.947297 -0.0385328
-35.6607 55.0223 12.5093 0.310376 -0.949915 -0.0364495
-33.9122 55.57 12.938 0.303647 -0.95229 -0.0307092
-31.9872 56.1581 13.3093 0.293201 -0.955603 -0.0292457
-30.1406 56.7149 13.3754 0.285744 -0.958041 -0.0225375
-28.1327 57.2923 13.4854 0.266416 -0.963692 -0.0178663
-26.3194 57.7872 13.4567 0.261975 -0.964946 -0.0157389
-24.2269 58.3233 13.4002 0.23691 -0.971369 -0.0177995
-23.4191 58.518 13.3926 0.229153 -0.973216 -0.0183971
-21.8172 58.8802 14.2342 0.220932 -0.97524 -0.00976849
-23.8249 58.4084 14.3088 0.236443 -0.971598 -0.00957434
-25.6371 57.952 14.3639 0.251062 -0.967839 -0.016006
-27.4562 57.4627 14.4343 0.26541 -0.964022 -0.0147805
-29.2534 56.954 14.425 0.278783 -0.960172 -0.0187025
-31.0932 56.4017 14.3976 0.292533 -0.955933 -0.0248277
-32.9297 55.8379 14.1947 0.299408 -0.953666 -0.0295791
-34.986 55.1969 13.7456 0.307584 -0.950887 -0.0347338
-36.8532 54.5981 13.3445 0.315185 -0.948333 -0.0363704
-38.6184 54.0226 12.8936 0.320606 -0.946527 -0.0360291
-40.5378 53.3836 12.539 0.323264 -0.945637 -0.035661
-41.3967 53.095 12.3872 0.324859 -0.945116 -0.0349558
-42.9401 52.5369 13.1509 0.325304 -0.945022 -0.0333349
-41.0524 53.1709 13.527 0.323319 -0.94565 -0.0348078
-39.141 53.807 13.9126 0.319867 -0.946835 -0.0344721
-37.298 54.4111 14.3469 0.316853 -0.947815 -0.0353671
-35.551 54.9785 14.6946 0.3122 -0.949366 -0.0351519
-33.7004 55.5658 15.0738 0.305534 -0.951782 -0.0275561
-31.6729 56.1972 15.3619 0.297033 -0.954523 -0.0256331
-29.6431 56.8149 15.4152 0.288453 -0.957233 -0.0223599
-27.787 57.3534 15.3948 0.275705 -0.961086 -0.0173484
-26.0067 57.843 15.3006 0.255112 -0.966808 -0.0141304
-24.0844 58.336 15.2194 0.240865 -0.9705 -0.0106496
-21.9733 58.8385 15.1525 0.227467 -0.973784 -0.00200829
-20.5969 59.1468 15.1561 0.209973 -0.977695 -0.00478904
-18.9778 59.4709 16.0793 0.187756 -0.982206 -0.00437848
-20.8419 59.0897 16.0712 0.209972 -0.977696 -0.00478871
-22.7068 58.6631 16.1003 0.229057 -0.973403 -0.00447901
-24.7008 58.1732 16.1642 0.247352 -0.968866 -0.0107246
-26.6338 57.6638 16.2436 0.255841 -0.966639 -0.0123932
-28.6533 57.087 16.3962 0.279255 -0.960051 -0.0178496
-30.5303 56.5231 16.3709 0.290749 -0.95651 -0.0235508
-32.3027 55.973 16.3106 0.301092 -0.953218 -0.0268083
-34.1326 55.3959 16.0283 0.309358 -0.950407 -0.032009
-35.9132 54.8235 15.6772 0.314715 -0.948628 -0.0325539
-37.7163 54.2326 15.3841 0.316566 -0.947903 -0.035585
-39.9787 53.4898 14.814 0.32162 -0.946265 -0.0337976
-42.1697 52.7571 14.4045 0.32339 -0.945669 -0.0336046
-44.0122 52.1361 14.0697 0.32503 -0.945126 -0.0330404
-44.301 52.0385 14.0184 0.32553 -0.944989 -0.0320422
-45.0824 51.7381 14.9542 0.324787 -0.94525 -0.0318803
-43.3964 52.3062 15.2691 0.324314 -0.945403 -0.0321445
-41.3257 52.9999 15.6852 0.322743 -0.945897 -0.0334059
-38.9113 53.8045 16.1251 0.320565 -0.946602 -0.034387
-37.0446 54.4148 16.5771 0.316951 -0.947853 -0.0334338
-35.0664 55.0608 16.9168 0.313116 -0.949169 -0.0322003
-33.287 55.632 17.2301 0.308727 -0.950688 -0.0296767
-31.5076 56.1954 17.3283 0.297581 -0.954381 -0.0245293
-29.743 56.739 17.3393 0.291055 -0.956477 -0.0209333
-27.6653 57.3589 17.2279 0.279255 -0.960051 -0.0178495
-25.9361 57.8387 17.1626 0.257935 -0.966048 -0.0148189
-24.1188 58.3108 17.0755 0.245091 -0.969439 -0.0108788
-22.387 58.7317 17.0245 0.230012 -0.973153 -0.00822817
-20.6558 59.1215 16.989 0.210941 -0.977442 -0.0105773
-18.6059 59.5367 17.0292 0.187022 -0.982331 -0.00698617
-17.7301 59.6987 17.0284 0.181293 -0.983371 -0.0106852
-16.5088 59.9122 17.9344 0.17396 -0.984727 -0.00706514
-18.6941 59.5126 17.9579 0.185276 -0.982653 -0.00812735
-20.7574 59.0906 17.9284 0.212029 -0.97723 -0.00812994
-22.5273 58.6908 17.9529 0.230973 -0.972925 -0.00830228
-24.4982 58.2034 18.0333 0.24502 -0.969438 -0.0124084
-26.4939 57.6737 18.1265 0.263589 -0.964551 -0.0127623
-28.5762 57.0731 18.2513 0.281665 -0.95937 -0.0165256
-30.6971 56.4233 18.2922 0.295082 -0.95521 -0.0223733
-32.731 55.7788 18.2538 0.30596 -0.951722 -0.0247788
-34.4069 55.2407 18.091 0.31196 -0.949638 -0.0294698
-36.1858 54.6612 17.7701 0.31675 -0.947965 -0.0321174
-38.1303 54.0205 17.4292 0.319075 -0.947151 -0.0330948
-39.9438 53.421 17.0556 0.320664 -0.946595 -0.0336489
-41.6402 52.8571 16.6935 0.322599 -0.945956 -0.0331265
-43.371 52.2778 16.3507 0.323673 -0.945625 -0.0320684
-45.1002 51.6952 16.053 0.324454 -0.945366 -0.03182
-46.378 51.2641 15.8079 0.325189 -0.945131 -0.0312991
-46.6614 51.132 16.8516 0.325641 -0.944975 -0.031315
-44.8055 51.7582 17.19 0.324241 -0.945455 -0.0313362
-43.0509 52.3479 17.5044 0.322963 -0.945871 -0.0319984
-41.0784 53.0065 17.8991 0.321521 -0.946343 -0.032543
-39.3912 53.5669 18.2346 0.320191 -0.946777 -0.0330369
-37.7002 54.1246 18.6027 0.319137 -0.947178 -0.0316994
-35.6323 54.809 18.9128 0.316738 -0.948043 -0.0298572
-33.85 55.3899 19.1841 0.311504 -0.949831 -0.0280578
-31.8125 56.0478 19.2397 0.304006 -0.952338 -0.0251557
-29.989 56.6204 19.2451 0.295742 -0.95505 -0.0203927
-27.941 57.2452 19.1374 0.284067 -0.9587 -0.0141328
-26.1917 57.7439 19.0595 0.263589 -0.964551 -0.0127622
-24.2069 58.2644 18.9589 0.245156 -0.96937 -0.0148171
-22.4335 58.7043 18.8792 0.234798 -0.97199 -0.0102923
-20.3748 59.1693 18.8472 0.20584 -0.978548 -0.00860429
-18.3904 59.5612 18.8386 0.188068 -0.982098 -0.0106643
-15.7775 60.0353 18.8492 0.172904 -0.984929 -0.00439179
-15.6258 60.0615 18.8589 0.170246 -0.985399 -0.00241208
-14.5355 60.2358 19.8684 0.15963 -0.987154 -0.0066638
-16.8013 59.8509 19.7403 0.174739 -0.984614 0.00118324
-18.7843 59.4781 19.7618 0.188778 -0.982003 -0.00580683
-20.8437 59.0563 19.7814 0.214506 -0.976678 -0.0093322
-22.5914 58.6555 19.8101 0.230817 -0.972905 -0.0134105
-24.4922 58.1763 19.9209 0.247351 -0.968841 -0.0128586
-26.3711 57.6803 20.0181 0.264108 -0.964357 -0.0162302
-28.0917 57.1851 20.1021 0.286933 -0.957793 -0.0173655
-29.903 56.6277 20.1851 0.298246 -0.954249 -0.0214181
-31.6381 56.0778 20.2014 0.306591 -0.951568 -0.0228134
-33.4791 55.4826 20.1711 0.312018 -0.94979 -0.0233257
-35.2068 54.9156 20.0372 0.315025 -0.948626 -0.0294566
-36.8843 54.3589 19.8311 0.319135 -0.947227 -0.0302465
-38.8727 53.7009 19.4378 0.319896 -0.946911 -0.032024
-40.8699 53.0389 19.0282 0.321066 -0.946505 -0.0323387
-42.7642 52.4069 18.6601 0.322133 -0.946192 -0.0308515
-44.584 51.7958 18.3653 0.323021 -0.945894 -0.0306994
-46.2815 51.2229 18.0872 0.324588 -0.945382 -0.0299232
-47.6811 50.7492 17.8519 0.325488 -0.945072 -0.0299419
-48.5294 50.427 18.827 0.325524 -0.945101 -0.0286056
-46.8194 51.0057 19.1329 0.324438 -0.945456 -0.029203
-45.1087 51.5827 19.4282 0.323382 -0.945807 -0.0295536
-43.0327 52.2799 19.7549 0.322064 -0.946216 -0.0308167
-41.2492 52.8768 20.0533 0.321482 -0.946442 -0.0299514
-39.4978 53.459 20.3623 0.319774 -0.946996 -0.0307063
-37.8436 54.007 20.7025 0.320321 -0.946847 -0.0295969
-36.1606 54.5662 20.9999 0.318693 -0.947393 -0.0296901
-33.9241 55.3095 21.1357 0.314737 -0.948792 -0.0271028
-32.1182 55.9008 21.1663 0.307337 -0.951355 -0.0216064
-30.2505 56.4988 21.1439 0.300785 -0.953486 -0.0198098
-28.3033 57.1038 21.0593 0.289043 -0.957147 -0.0179818
-26.299 57.6834 20.9585 0.268749 -0.96313 -0.0124047
-24.5167 58.1607 20.8635 0.248733 -0.968538 -0.00816696
-22.6991 58.6167 20.7564 0.232262 -0.97256 -0.0134596
-20.8737 59.0395 20.7167 0.217567 -0.976001 -0.0093015
-19.1409 59.4019 20.6945 0.193614 -0.981064 -0.00518151
-17.1198 59.7889 20.6671 0.182205 -0.98325 -0.00463432
-15.3709 60.0952 20.7536 0.161146 -0.986921 -0.00426718
-13.4929 60.3997 20.9234 0.15465 -0.987965 -0.00310333
-12.886 60.4928 20.9722 0.15225 -0.988337 -0.00314031
-12.3675 60.5709 21.9429 0.151368 -0.988474 -0.00262426
-14.2184 60.2795 21.7806 0.161309 -0.986901 -0.00258019
-16.0929 59.9692 21.6524 0.175234 -0.984501 -0.00706451
-18.0442 59.6116 21.6167 0.180806 -0.983509 -0.00445292
-19.8363 59.2562 21.6249 0.207002 -0.978306 -0.00821219
-21.8053 58.8162 21.6702 0.224587 -0.974403 -0.00995776
-23.5408 58.4002 21.7411 0.241833 -0.970275 -0.00908336
-25.4586 57.8997 21.851 0.260173 -0.96545 -0.0146982
-27.2701 57.3931 21.946 0.279721 -0.95992 -0.0176253
-29.0457 56.8571 22.0389 0.296022 -0.954985 -0.0193714
-30.8939 56.272 22.1169 0.305957 -0.951817 -0.0208698
-32.6101 55.7183 22.135 0.308336 -0.951014 -0.0223882
-34.6618 55.0381 22.0985 0.31637 -0.948271 -0.0262913
-36.4848 54.4278 21.976 0.319976 -0.947035 -0.0271967
-38.3372 53.8099 21.6681 0.320663 -0.946761 -0.0286153
-40.4174 53.1187 21.2961 0.319743 -0.947044 -0.029514
-42.3057 52.4879 21.0075 0.321393 -0.946507 -0.0288243
-43.9961 51.9223 20.7345 0.321329 -0.946533 -0.0286756
-45.8143 51.3126 20.3997 0.322514 -0.946176 -0.0271154
-47.481 50.7504 20.1101 0.324263 -0.945622 -0.0255458
-49.1584 50.1811 19.8348 0.325494 -0.945165 -0.0267771
-49.7271 49.9567 20.8811 0.326477 -0.944881 -0.0247399
-48.0307 50.5329 21.1823 0.324263 -0.945622 -0.0255458
-46.0972 51.1857 21.477 0.32239 -0.946278 -0.0249482
-44.4408 51.7407 21.7795 0.320768 -0.946812 -0.0256063
-42.6737 52.331 22.0749 0.320616 -0.946807 -0.0276111
-40.9256 52.9157 22.3053 0.32026 -0.94693 -0.0275127
-39.0044 53.5565 22.6016 0.320323 -0.946906 -0.027596
-37.2719 54.1354 22.8834 0.3207 -0.946812 -0.0264455
-35.2559 54.8122 23.0599 0.319014 -0.947415 -0.0251768
-33.4631 55.4119 23.0864 0.316665 -0.948232 -0.0240708
-31.734 55.9812 23.0807 0.306969 -0.951529 -0.0190543
-29.9299 56.5594 23.0102 0.300656 -0.953531 -0.0195847
-27.7085 57.2464 22.9053 0.284953 -0.958411 -0.0158176
-25.9033 57.7645 22.8099 0.262171 -0.964922 -0.013859
-23.9956 58.2775 22.7099 0.249597 -0.968291 -0.0106969
-21.8955 58.79 22.6163 0.231195 -0.972891 -0.0056908
-20.1543 59.1805 22.5751 0.206002 -0.978506 -0.00945728
-18.4176 59.5341 22.5627 0.194225 -0.980941 -0.00566095
-16.4069 59.9057 22.5917 0.177034 -0.984181 -0.00678892
-14.4525 60.2369 22.6994 0.16353 -0.986532 -0.00340862
-12.1989 60.5936 22.8927 0.152596 -0.988281 -0.00386869
-10.072 60.9191 23.141 0.1514 -0.988472 -0.0010085
-10.0383 60.9243 23.1457 0.156972 -0.987601 0.0018727
-7.47268 61.3437 24.5965 0.167437 -0.985865 0.00585874
-9.39627 61.0287 24.2564 0.15842 -0.987369 0.00226341
-11.3685 60.7193 23.9337 0.152498 -0.988302 -0.00185798
-13.3284 60.4162 23.7212 0.157304 -0.987547 -0.00255109
-15.1798 60.1117 23.5829 0.166068 -0.986102 -0.00487047
-17.196 59.7593 23.5239 0.176577 -0.984273 -0.00512154
-19.1607 59.3808 23.5012 0.20305 -0.979145 -0.00676075
-20.9442 59.003 23.5428 0.221415 -0.975132 -0.00962007
-22.711 58.5865 23.5981 0.237293 -0.971379 -0.0107473
-24.4984 58.1321 23.6793 0.256419 -0.966536 -0.00750405
-26.5536 57.5704 23.7733 0.276677 -0.960907 -0.0103868
-28.5329 56.9808 23.879 0.292984 -0.955966 -0.0170256
-30.4675 56.3729 23.9626 0.304136 -0.952497 -0.0158675
-32.2639 55.7889 24.0149 0.31335 -0.949418 -0.020448
-34.0918 55.1794 24.0332 0.31755 -0.947986 -0.021988
-36.2013 54.4681 23.9848 0.320606 -0.946901 -0.0242752
-37.879 53.9031 23.8218 0.32129 -0.946606 -0.0266511
-39.5927 53.3287 23.6033 0.320653 -0.946818 -0.0267927
-41.313 52.7525 23.4145 0.320202 -0.946948 -0.0275721
-43.0866 52.1616 23.1247 0.319286 -0.947313 -0.0255713
-44.7959 51.5925 22.8267 0.320425 -0.946957 -0.0244821
-46.5653 50.9984 22.545 0.322011 -0.946416 -0.0245905
-48.6393 50.2966 22.2563 0.324286 -0.94567 -0.0233798
-50.3089 49.73 21.9238 0.326738 -0.944829 -0.0232495
-51.1886 49.4005 22.9955 0.327099 -0.944749 -0.0213698
-49.508 49.9737 23.2852 0.32503 -0.945457 -0.0215938
-47.647 50.6051 23.5596 0.322797 -0.946183 -0.023229
-45.9269 51.1847 23.7899 0.32086 -0.946915 -0.0200195
-43.9045 51.8606 24.0914 0.318676 -0.947599 -0.0224106
-42.1885 52.43 24.3864 0.318697 -0.947509 -0.0256606
-40.2176 53.0885 24.6372 0.319212 -0.947319 -0.0262854
-38.5338 53.6549 24.7944 0.321654 -0.946511 -0.0255939
-36.7499 54.2577 24.9473 0.321101 -0.946732 -0.0243424
-34.8727 54.8948 24.9579 0.320709 -0.946909 -0.0225395
-33.0133 55.5197 24.9605 0.318136 -0.947848 -0.019331
-30.9128 56.2117 24.9009 0.306789 -0.951672 -0.0141836
-29.0321 56.8118 24.8325 0.294887 -0.955413 -0.0151089
-27.1525 57.3816 24.7358 0.285032 -0.958382 -0.0161408
-25.3979 57.8829 24.6586 0.260883 -0.965334 -0.00841491
-23.5824 58.3595 24.5806 0.244084 -0.969663 -0.0133095
-21.5225 58.8647 24.5101 0.227786 -0.973677 -0.00818233
-19.1974 59.3661 24.4508 0.205373 -0.978663 -0.00631311
-17.2694 59.7432 24.4755 0.181757 -0.983343 -0.000505048
-15.1244 60.1201 24.5452 0.166037 -0.986118 -0.00153706
-13.3031 60.4181 24.6729 0.156759 -0.987637 -0.000274347
-10.9624 60.7822 24.9288 0.15241 -0.988317 0.00111099
-8.95626 61.1016 25.2832 0.158418 -0.98737 0.00226901
-7.22472 61.3903 25.6051 0.168676 -0.985667 0.0031156
-5.23646 61.76 25.9918 0.192597 -0.981262 0.00562415
-3.214 62.2167 26.4336 0.236273 -0.971655 0.00786698
-1.23329 62.7457 26.7686 0.274507 -0.961477 0.0143983
0.61991 63.3143 26.9478 0.322738 -0.946376 0.0145817
0.692326 63.3391 26.9554 0.322738 -0.946376 0.0145817
21.8153 78.0962 -30.4292 0.0700107 -0.996748 0.0399041
20.6883 77.9462 -31.1982 0.150937 -0.988172 0.0270934
19.6794 77.7739 -31.8954 0.18766 -0.982042 0.0194476
18.7329 77.5834 -32.5102 0.183984 -0.982824 0.0144109
17.589 77.3175 -33.1109 0.231851 -0.972687 0.0111895
16.5572 77.062 -33.5433 0.269658 -0.962947 0.0041245
15.3022 76.687 -33.8953 0.310563 -0.950552 0.00145917
14.2908 76.3479 -34.1304 0.326484 -0.945198 0.00289851
13.1315 75.9356 -34.3369 0.345839 -0.93825 0.00912532
12.4733 75.6599 -34.4372 0.396596 -0.917953 -0.00860744
-45.9691 51.1461 24.9433 0.320749 -0.946969 -0.0192522
-47.9992 50.4603 24.6851 0.323706 -0.945943 -0.0201533
-50.2567 49.691 24.4133 0.325813 -0.945214 -0.0204051
-51.8516 49.1468 24.119 0.326828 -0.944869 -0.0201294
-52.7055 48.8299 25.1563 0.32654 -0.944975 -0.0198334
-51.0398 49.3974 25.5122 0.326255 -0.945068 -0.0200978
-49.1756 50.0348 25.7856 0.325506 -0.94535 -0.0189613
-51.1896 49.319 26.7831 0.326804 -0.944885 -0.0197935
-52.3371 48.9291 26.4793 0.326153 -0.945101 -0.0202055
-52.4313 48.865 27.9605 0.326478 -0.94496 -0.0215092
-52.4019 48.8751 27.9654 0.326478 -0.94496 -0.0215092
-44.0065 51.8012 25.1617 0.317572 -0.947993 -0.0213928
-42.9855 52.1398 25.3322 0.315835 -0.948538 -0.0229047
-41.7723 52.5403 25.5463 0.318056 -0.947801 -0.022664
-40.7345 52.8855 25.6758 0.319215 -0.94732 -0.026186
-39.5708 53.2753 25.8011 0.321365 -0.946614 -0.0254408
-38.4898 53.6409 25.8665 0.322898 -0.946119 -0.0244036
-37.1859 54.0841 25.9199 0.322337 -0.946316 -0.0242002
-36.0664 54.4663 25.915 0.322219 -0.946402 -0.022326
-34.9984 54.8297 25.9055 0.321865 -0.946538 -0.0216575
-33.8195 55.2296 25.8959 0.319729 -0.947294 -0.0202016
-32.3871 55.7101 25.8859 0.317515 -0.94807 -0.0186554
-30.9132 56.1973 25.8273 0.31267 -0.949716 -0.0166282
-29.7127 56.5839 25.7872 0.298283 -0.954383 -0.0134378
-28.3715 56.9993 25.7312 0.291979 -0.956355 -0.0115144
-26.8585 57.4565 25.6579 0.283527 -0.95891 -0.010183
-25.5303 57.8385 25.6147 0.263007 -0.964721 -0.011885
-24.4387 58.1295 25.5663 0.253848 -0.967177 -0.0114248
-23.3101 58.4212 25.5177 0.250194 -0.968167 -0.00742616
-21.9982 58.7419 25.4779 0.238436 -0.97114 -0.00589714
-20.6864 59.0451 25.4447 0.221741 -0.975046 -0.0107601
-19.2666 59.346 25.4031 0.202345 -0.979314 -0.000476871
-18.0825 59.5866 25.398 0.193581 -0.981081 -0.00258649
-16.71 59.8438 25.4374 0.176184 -0.984357 0.00047359
-15.6282 60.0348 25.4733 0.16613 -0.986102 0.00187934
-14.3643 60.2474 25.5449 0.161943 -0.986797 0.00256413
-12.738 60.5075 25.6851 0.158215 -0.987401 0.00284683
-11.2084 60.746 25.8539 0.15438 -0.987999 0.00502939
-10.0875 60.9234 26.037 0.156777 -0.987618 0.00555548
-8.8965 61.115 26.2446 0.159875 -0.987121 0.00563718
-7.77958 61.3004 26.4583 0.165676 -0.986129 0.0100276
-6.41739 61.5465 26.7146 0.182182 -0.98323 0.00832341
-5.03063 61.8146 27.012 0.191366 -0.981403 0.0150778
-3.89063 62.065 27.2519 0.213875 -0.976738 0.015491
-2.67047 62.3675 27.5178 0.251409 -0.967829 0.0100442
-1.61153 62.6564 27.6835 0.268138 -0.963233 0.0168512
-0.117979 63.0979 27.8285 0.297666 -0.954306 0.0263584
1.12395 63.5024 27.9294 0.32583 -0.945294 0.0159581
2.15564 63.8817 27.993 0.373219 -0.927604 0.01609
3.31324 64.372 28.0352 0.411865 -0.911107 0.0158478
4.44621 64.9285 28.041 0.448916 -0.893487 0.0124605
5.56449 65.5039 28.0415 0.458394 -0.888685 0.0107
6.56066 66.0396 28.0351 0.481007 -0.876702 0.00514181
7.5786 66.6081 28.0163 0.493824 -0.86956 -0.00160073
8.77927 67.291 27.9575 0.491922 -0.870629 -0.00424158
9.98119 67.9616 27.8787 0.480495 -0.87696 -0.00807872
11.0203 68.5235 27.7897 0.470702 -0.882112 -0.0178213
12.3292 69.1904 27.6628 0.437511 -0.899179 -0.00787537
13.455 69.7222 27.5205 0.417352 -0.908712 -0.00772029
14.5785 70.2013 27.3153 0.345995 -0.938223 -0.00499
15.935 70.6611 27.0182 0.287425 -0.957776 0.00724742
17.107 70.9759 26.7265 0.211301 -0.97742 0.00148136
18.231 71.2132 26.4344 0.191856 -0.981421 0.00181219
19.3221 71.3443 26.1082 0.0427415 -0.999027 0.0108648
20.363 71.3678 25.7878 0.0104175 -0.999839 -0.0146391
