-1.33613 35.041 -36.3761 -0.0576413 0.997975 0.0268908
-3.12153 34.9554 -38.1716 -0.0747636 0.997159 0.00919333
-4.87457 34.8267 -39.939 -0.0873093 0.996168 0.00510839
-6.59961 34.6655 -41.6815 -0.0960723 0.995372 -0.00222116
-8.90801 34.4041 -44.0189 -0.109221 0.99395 -0.0115684
-10.6473 34.1863 -45.7834 -0.112023 0.993626 -0.012596
-12.3344 33.9539 -47.4982 -0.120407 0.992584 -0.0166897
-14.1146 33.7058 -49.3086 -0.129901 0.991326 -0.019963
-15.6929 33.4513 -50.92 -0.138318 0.990159 -0.0212901
-17.5008 33.1631 -52.7677 -0.144568 0.989369 -0.0157887
-19.4274 32.8378 -54.7409 -0.155807 0.987583 -0.0200921
-21.3768 32.4745 -56.7473 -0.164669 0.9862 -0.0171131
-22.9232 32.1843 -58.3417 -0.173292 0.984732 -0.0165083
-24.4842 31.8838 -59.9542 -0.176792 0.984135 -0.0149078
-26.1327 31.5455 -61.6644 -0.190049 0.981699 -0.0121895
-27.7928 31.1994 -63.3908 -0.199125 0.979913 -0.0108928
-29.7507 30.7745 -65.4352 -0.203779 0.978947 -0.0116957
-29.9393 30.7344 -65.6324 -0.201357 0.979506 -0.0047426
-31.8213 30.3428 -65.0141 -0.209863 0.977715 -0.00561985
-30.2453 30.6918 -63.364 -0.207902 0.9781 -0.00989498
-28.4368 31.096 -61.4737 -0.196687 0.980382 -0.0128698
-26.867 31.4295 -59.8412 -0.19421 0.980843 -0.01516
-24.9915 31.8211 -57.8944 -0.185121 0.982559 -0.0175274
-22.9952 32.2112 -55.8325 -0.171953 0.984993 -0.0148493
-21.405 32.5168 -54.1934 -0.167178 0.985755 -0.0183969
-19.847 32.805 -52.5911 -0.155637 0.987716 -0.0139736
-18.2088 33.0912 -50.9113 -0.150773 0.988426 -0.0167963
-16.3358 33.4018 -48.9964 -0.142872 0.989541 -0.0198962
-14.7711 33.6462 -47.4002 -0.128887 0.99156 -0.0140485
-12.7911 33.9341 -45.3845 -0.123563 0.992207 -0.0160388
-11.186 34.1518 -43.7539 -0.111708 0.993663 -0.0124346
-9.15634 34.4024 -41.6961 -0.105734 0.994342 -0.0102612
-7.03132 34.6321 -39.5462 -0.0933041 0.99563 -0.00392412
-4.50793 34.8397 -37.0008 -0.0768662 0.99699 0.0101322
-2.77201 34.9307 -35.2553 -0.0571142 0.998201 0.0182681
-1.07912 34.9805 -33.5568 -0.0485885 0.998393 0.0291743
0.547311 34.9741 -31.9305 -0.0317873 0.998601 0.0422683
2.28146 34.9329 -30.1997 -0.0180951 0.998381 0.0539277
4.27622 34.8146 -28.2142 0.00259115 0.998264 0.0588366
6.23353 34.6506 -26.2696 0.0230168 0.996249 0.0834194
8.22358 34.4189 -24.2931 0.0495815 0.995322 0.0829184
10.1846 34.1462 -22.3461 0.0631898 0.994276 0.0861496
11.8971 33.8846 -20.6434 0.078707 0.993405 0.0833743
13.7711 33.5755 -18.7756 0.0835946 0.99392 0.071654
15.5459 33.2858 -16.9991 0.0975564 0.99287 0.0685028
17.5695 32.9427 -14.9707 0.107052 0.99225 0.0630808
19.5044 32.6053 -13.0249 0.121129 0.991041 0.0562542
21.1391 32.3064 -11.3782 0.128722 0.990734 0.0433304
22.8128 32.0159 -9.68604 0.128274 0.990825 0.0425653
24.4572 31.7124 -8.01482 0.14273 0.989141 0.0350572
26.1462 31.4091 -6.29102 0.159473 0.98701 0.0194919
27.9363 31.0753 -4.44905 0.173566 0.984716 0.014454
29.708 30.7278 -2.62509 0.182173 0.983237 0.00761218
31.316 30.4043 -0.961858 0.207152 0.978267 0.00904447
32.8918 30.0633 0.683379 0.211829 0.977305 -0.00157121
34.5232 29.7089 2.39201 0.22215 0.974984 -0.00743404
36.1214 29.3203 4.09135 0.263011 0.964767 0.00708377
37.6972 28.856 5.80099 0.282181 0.959361 -0.000642096
39.3737 28.3321 7.64399 0.323397 0.946252 0.0045143
41.4765 27.5836 10.0193 0.357107 0.933988 -0.0118652
43.0132 26.9698 11.8059 0.406337 0.913664 -0.0104219
44.5657 26.2824 13.6625 0.442568 0.89638 -0.0252444
46.1001 25.5611 15.5484 0.464085 0.885716 -0.0115093
47.6077 24.7296 17.5039 0.485429 0.874257 -0.00578432
49.0937 23.9005 19.4714 0.502043 0.864533 -0.0231353
50.1011 23.3528 20.8131 0.512973 0.857607 -0.0370069
48.309 24.3974 21.1294 0.488 0.872616 -0.0199369
46.7453 25.2175 19.0922 0.480476 0.877008 -0.0010466
45.0783 26.091 16.9641 0.45167 0.892164 -0.00607712
43.5231 26.7948 15.0706 0.415201 0.909489 -0.0209121
41.7304 27.5441 12.9516 0.366718 0.930331 -0.00117694
40.2938 28.0625 11.3091 0.327391 0.944521 -0.0263635
38.2176 28.7123 9.00243 0.302137 0.95321 -0.0102312
36.6938 29.1572 7.33882 0.26985 0.962884 -0.00596757
34.6888 29.6812 5.18538 0.228226 0.973559 -0.00974927
33.157 30.022 3.5702 0.218834 0.975752 -0.00447189
31.3506 30.3859 1.68396 0.194593 0.980884 -0.000954282
29.5979 30.7298 -0.138935 0.184831 0.98277 0.0006763
27.8728 31.0512 -1.9219 0.170642 0.985267 0.0114286
26.273 31.3458 -3.56835 0.159394 0.987171 0.00931892
24.4637 31.6508 -5.41628 0.149997 0.988559 0.015859
22.5031 31.9766 -7.4105 0.136762 0.990193 0.0285275
20.8575 32.2482 -9.07671 0.132431 0.990498 0.0370891
19.0984 32.5411 -10.8534 0.11895 0.991873 0.0451625
17.4763 32.8055 -12.4859 0.106815 0.993009 0.0502382
15.3884 33.1433 -14.5871 0.102862 0.992809 0.0612359
13.7833 33.3981 -16.1963 0.088388 0.993976 0.0647979
12.189 33.6375 -17.79 0.083594 0.99392 0.071653
10.4901 33.8962 -19.4858 0.0724695 0.994962 0.0692795
8.76569 34.143 -21.2004 0.0677766 0.995134 0.0715149
6.95701 34.3742 -22.9991 0.049136 0.995477 0.0813124
5.33628 34.5554 -24.6092 0.0321371 0.997217 0.0672688
3.52717 34.7094 -26.4077 0.0161587 0.997728 0.0653982
1.248 34.8382 -28.6763 -0.0111888 0.998431 0.0548577
-0.347286 34.8801 -30.2675 -0.0293081 0.998777 0.0398069
-2.32353 34.883 -32.2435 -0.0370124 0.998891 0.0290999
-4.28937 34.8192 -34.2155 -0.0625673 0.997937 0.0143949
-6.68624 34.6583 -36.6284 -0.0786076 0.996889 0.00573144
-8.3963 34.5052 -38.3547 -0.0970952 0.99527 -0.00305777
-10.0871 34.3214 -40.0647 -0.102454 0.994598 -0.0166923
-12.2051 34.0597 -42.2116 -0.110582 0.993769 -0.0139673
-14.0339 33.7974 -44.0713 -0.126848 0.991771 -0.0173358
-16.086 33.4887 -46.1617 -0.137466 0.990389 -0.0152533
-17.6788 33.2322 -47.7885 -0.14287 0.989541 -0.0198978
-19.7588 32.863 -49.9197 -0.156184 0.987444 -0.0236835
-21.6501 32.5176 -51.8624 -0.166723 0.985873 -0.0160848
-23.3242 32.1938 -53.5878 -0.175186 0.984334 -0.0199282
-25.4067 31.7784 -55.7396 -0.180887 0.983363 -0.0166691
-27.2817 31.3831 -57.6843 -0.199643 0.979783 -0.0129757
-28.9286 31.0209 -59.3997 -0.200778 0.979562 -0.0121242
-30.4603 30.6772 -60.9998 -0.208219 0.97799 -0.0134577
-32.3944 30.2371 -63.0243 -0.215263 0.976523 -0.00801601
-33.8862 29.8931 -64.5903 -0.217632 0.976018 -0.00501911
-35.7615 29.473 -63.972 -0.222272 0.974979 -0.00329335
-33.9173 29.9049 -62.0336 -0.220867 0.975278 -0.00715514
-32.2976 30.2847 -60.334 -0.217586 0.975972 -0.0116369
-30.4823 30.7056 -58.433 -0.207928 0.978085 -0.0107329
-28.7294 31.098 -56.6052 -0.20273 0.979145 -0.013254
-27.1048 31.4617 -54.9145 -0.200263 0.979576 -0.0180401
-25.0886 31.8836 -52.826 -0.182005 0.983153 -0.0168824
-23.2927 32.2512 -50.9707 -0.173961 0.984546 -0.020158
-21.6616 32.5619 -49.2921 -0.163325 0.986403 -0.0182814
-19.8491 32.9091 -47.4288 -0.158462 0.987064 -0.0243628
-18.2895 33.1748 -45.8333 -0.145008 0.989232 -0.0198007
-16.5879 33.4616 -44.0939 -0.138932 0.990043 -0.0226386
-15.0246 33.7011 -42.5014 -0.127613 0.991554 -0.0231415
-13.2825 33.959 -40.7287 -0.120871 0.99249 -0.0188018
-11.369 34.2034 -38.7891 -0.107068 0.994222 -0.00770152
-9.64872 34.3869 -37.0487 -0.0940055 0.995572 0.00034956
-7.98721 34.538 -35.3714 -0.0868334 0.996208 -0.00552799
-6.34327 34.6728 -33.7147 -0.0784496 0.996914 0.0027646
-4.55267 34.7678 -31.9155 -0.061734 0.997962 0.016121
-2.94851 34.7985 -30.3091 -0.0322221 0.998895 0.0342038
-1.32008 34.7971 -28.6818 -0.0219079 0.999246 0.0320531
0.336151 34.7598 -27.0301 -0.00811279 0.999081 0.0420952
2.14532 34.6639 -25.2289 0.0118797 0.998211 0.0585908
3.83668 34.534 -23.5462 0.0296057 0.997942 0.0568791
5.86258 34.3259 -21.5331 0.0444116 0.996887 0.0651387
7.75234 34.098 -19.6523 0.0661831 0.995715 0.064582
9.6374 33.843 -17.776 0.0750655 0.994974 0.066271
11.3622 33.5998 -16.0521 0.0843153 0.994684 0.0591226
13.2236 33.331 -14.1892 0.0951114 0.993924 0.055389
15.3998 33.0051 -12.0046 0.106205 0.993252 0.0466008
17.1613 32.7416 -10.2282 0.114247 0.992628 0.0404551
19.2862 32.4121 -8.08269 0.124488 0.991776 0.0297121
20.9827 32.1498 -6.36618 0.128408 0.991489 0.0214918
22.9329 31.8568 -4.38623 0.133542 0.990928 0.0150949
24.6709 31.5843 -2.61372 0.146517 0.989179 0.00762037
26.5067 31.2816 -0.730012 0.164026 0.986419 0.00851292
28.2199 30.9899 1.03407 0.178038 0.984021 -0.002221
30.1723 30.6282 3.06135 0.190406 0.981693 -0.00486615
31.8637 30.3059 4.82585 0.1982 0.980118 -0.00928611
33.5349 29.964 6.58098 0.221307 0.975162 -0.00909472
35.1752 29.5935 8.32213 0.253783 0.967192 -0.0115588
36.8366 29.1509 10.1174 0.268725 0.963194 -0.00669786
38.5229 28.654 11.9756 0.301112 0.953449 -0.0163394
39.9952 28.1951 13.6204 0.311286 0.950314 -0.00203362
41.5709 27.6119 15.4334 0.377097 0.926082 -0.0130208
43.2931 26.9241 17.466 0.385255 0.922808 -0.00211596
44.8342 26.1901 19.368 0.439116 0.898358 0.011387
46.3585 25.4621 21.2868 0.46326 0.885887 -0.0243957
46.6727 25.3035 21.6935 0.479174 0.877275 -0.0279548
45.262 26.0386 22.5906 0.445823 0.89494 -0.018021
43.8256 26.6918 20.8048 0.428688 0.903251 -0.0190849
42.4501 27.2794 19.1348 0.382437 0.923965 -0.00553365
41.0011 27.8639 17.4253 0.354 0.934888 -0.0258491
39.531 28.3598 15.751 0.320055 0.947399 -0.000769276
37.7999 28.9106 13.8087 0.296986 0.954829 -0.0100813
35.9018 29.4288 11.7304 0.265349 0.964115 -0.00847314
34.2656 29.8456 9.96575 0.224533 0.974458 -0.00409074
32.2571 30.2589 7.84481 0.213121 0.976829 -0.0195934
30.2962 30.6397 5.79337 0.202554 0.97917 -0.0140874
28.3866 30.9742 3.80803 0.175715 0.984383 -0.0106697
26.704 31.2474 2.07135 0.159704 0.987086 -0.0124927
24.9949 31.5158 0.315864 0.155902 0.987771 0.00183375
23.4152 31.753 -1.29931 0.141005 0.989985 0.00683666
21.6116 32.0191 -3.13958 0.133063 0.99102 0.0131706
19.6403 32.3037 -5.14114 0.127981 0.991652 0.0157519
17.7168 32.5744 -7.08989 0.116559 0.992836 0.0262946
15.9268 32.8302 -8.8981 0.104776 0.99383 0.0363992
14.2825 33.0625 -10.5566 0.0995782 0.994154 0.041735
12.4004 33.3217 -12.4446 0.0935364 0.994529 0.0465075
10.5419 33.5777 -14.3061 0.0812962 0.995329 0.0520618
8.92368 33.7904 -15.9249 0.0782829 0.995532 0.0528013
7.25707 33.995 -17.5878 0.0662146 0.996066 0.0588886
5.41799 34.216 -19.4185 0.0512193 0.996731 0.0624765
3.57674 34.4112 -21.2495 0.0357958 0.997634 0.0586915
1.37777 34.583 -23.4374 0.0210556 0.998949 0.0407016
-0.543028 34.6789 -25.3503 -0.00426219 0.998805 0.0486869
-2.62148 34.7156 -27.4235 -0.0338878 0.998823 0.0346952
-4.50002 34.7063 -29.3011 -0.0389358 0.998964 0.02355
-6.48031 34.6365 -31.2864 -0.0634272 0.997845 0.0167738
-8.09724 34.5336 -32.9126 -0.0780021 0.996951 0.00189713
-9.67946 34.3919 -34.5083 -0.0900346 0.995929 -0.00444798
-11.2683 34.23 -36.114 -0.104659 0.994495 -0.0051182
-12.8558 34.0473 -37.7217 -0.116448 0.993158 -0.00882516
-14.6894 33.8075 -39.5819 -0.126123 0.991937 -0.012373
-16.3311 33.5535 -41.2536 -0.131984 0.991093 -0.0177731
-18.0436 33.2733 -43.0011 -0.144395 0.989272 -0.0221416
-19.8 32.9754 -44.797 -0.154144 0.987845 -0.0200489
-21.4356 32.6674 -46.476 -0.165814 0.985834 -0.0252387
-23.2523 32.3092 -48.3462 -0.171431 0.985013 -0.0190172
-24.9014 31.9767 -50.0475 -0.183596 0.982765 -0.0215633
-26.5743 31.6174 -51.7797 -0.193561 0.980865 -0.0209373
-28.2803 31.2462 -53.5504 -0.199301 0.979806 -0.0161021
-30.5078 30.7374 -55.8712 -0.211955 0.977116 -0.0178558
-32.1503 30.3513 -57.5896 -0.215679 0.976366 -0.0138752
-33.696 29.985 -59.2104 -0.219372 0.975571 -0.0116968
-35.392 29.5815 -60.9918 -0.22665 0.973929 -0.00958915
-37.1746 29.1526 -62.8687 -0.228298 0.973567 -0.00694652
-37.641 29.0387 -63.3613 -0.231555 0.972813 -0.00410384
-39.2763 28.6557 -62.4954 -0.233906 0.972247 -0.00497669
-37.6892 29.0449 -60.8192 -0.231668 0.972757 -0.00858654
-35.8863 29.4896 -58.92 -0.226324 0.973981 -0.0117607
-34.0638 29.9309 -57.0057 -0.219143 0.975568 -0.0156196
-31.9179 30.4518 -54.7567 -0.216345 0.976154 -0.0178568
-30.2442 30.8439 -53.0092 -0.210982 0.977311 -0.0186898
-28.544 31.2335 -51.2387 -0.200513 0.979435 -0.0223824
-26.6497 31.662 -49.2715 -0.190786 0.981365 -0.0228659
-24.8157 32.0486 -47.3748 -0.181725 0.983173 -0.0186404
-23.1935 32.3794 -45.702 -0.174054 0.984469 -0.0229463
-21.4156 32.7323 -43.873 -0.165206 0.986087 -0.0184059
-19.6026 33.0618 -42.015 -0.148801 0.988623 -0.0219818
-17.9921 33.3382 -40.3688 -0.141851 0.989788 -0.0140551
-15.89 33.6661 -38.227 -0.127291 0.991642 -0.0210306
-14.3151 33.8889 -36.6266 -0.118745 0.992864 -0.0110004
-12.7062 34.083 -34.9963 -0.106689 0.994217 -0.0122838
-10.8935 34.2852 -33.1627 -0.0982826 0.995125 -0.00811948
-9.27868 34.4367 -31.5336 -0.0871145 0.996191 -0.0038453
-7.24542 34.5631 -29.4899 -0.0625873 0.997972 0.0116232
-5.49993 34.6239 -27.7408 -0.0442555 0.998554 0.030502
-3.75631 34.6303 -25.999 -0.0352871 0.998861 0.0321173
-2.10671 34.6225 -24.3523 -0.0209561 0.998968 0.0402946
-0.161174 34.5533 -22.4137 0.00640684 0.999361 0.0351511
1.80314 34.423 -20.4578 0.0316184 0.997928 0.0560402
3.49392 34.264 -18.7757 0.0400607 0.997479 0.0585798
5.14189 34.0936 -17.1354 0.0532844 0.996969 0.0566859
6.82046 33.9124 -15.4614 0.068048 0.996282 0.0528298
8.46629 33.7153 -13.8166 0.0749811 0.99614 0.0456496
10.1937 33.501 -12.0859 0.0778884 0.995985 0.0441169
11.9218 33.2789 -10.3532 0.0936462 0.995042 0.0334872
13.879 33.0258 -8.38677 0.0950697 0.994994 0.030792
15.845 32.7662 -6.40015 0.104563 0.994159 0.0267138
17.4924 32.5522 -4.73232 0.116203 0.993128 0.0139336
19.4469 32.2968 -2.74813 0.120635 0.992634 0.011199
21.1162 32.0699 -1.04903 0.130423 0.991454 0.00286606
22.9316 31.8161 0.801533 0.141426 0.989948 0.00158681
24.531 31.5899 2.43464 0.145061 0.989404 -0.00604008
26.2597 31.3386 4.21323 0.14991 0.988656 -0.0093297
27.9387 31.0795 5.94706 0.180982 0.983284 -0.0199319
29.7849 30.7716 7.86018 0.191426 0.981266 -0.0217532
31.9149 30.3736 10.0903 0.209244 0.977721 -0.016684
33.7616 29.9933 12.0422 0.239142 0.970934 -0.00994104
35.3857 29.6013 13.7939 0.257975 0.965937 -0.0203464
37.3661 29.0776 15.9642 0.301895 0.953137 -0.0197568
39.2888 28.4895 18.1152 0.319217 0.947652 -0.00756582
40.9736 27.8862 20.0519 0.351551 0.936125 -0.00903985
42.8156 27.178 22.2386 0.388277 0.921149 -0.026947
43.616 26.8469 23.2126 0.433577 0.900927 -0.0184711
41.65 27.6983 23.4904 0.386215 0.922186 -0.0202783
39.7399 28.3853 21.2648 0.354729 0.934666 -0.0237925
38.2507 28.8702 19.5764 0.332412 0.942763 -0.0264601
36.4468 29.4021 17.57 0.30131 0.95322 -0.0241451
34.587 29.8475 15.5478 0.255474 0.966569 -0.0218345
32.9038 30.2205 13.7429 0.238577 0.971081 -0.00907469
31.1689 30.5688 11.9098 0.20506 0.978565 -0.0189842
29.5101 30.8669 10.1732 0.187145 0.982224 -0.0145999
27.9449 31.1129 8.54879 0.171953 0.984955 -0.0172046
26.3931 31.3563 6.94556 0.152229 0.988255 -0.0133263
24.6477 31.597 5.15066 0.143146 0.989647 -0.0103474
23.0223 31.8089 3.48329 0.137336 0.990517 -0.00386464
21.1751 32.0606 1.59849 0.134961 0.990851 -0.000194528
18.9645 32.3381 -0.651633 0.112076 0.993629 0.0118459
17.0254 32.5763 -2.62049 0.107841 0.994085 0.0128529
14.9038 32.8327 -4.76758 0.105288 0.994292 0.0172369
13.2678 33.0306 -6.42051 0.0946818 0.995099 0.0285163
11.6436 33.2265 -8.05704 0.0860599 0.995852 0.0295295
9.95664 33.4305 -9.75195 0.0811977 0.996059 0.0356863
8.30237 33.6206 -11.4117 0.0772961 0.996101 0.042521
6.28884 33.8484 -13.4284 0.0571902 0.997278 0.0465464
4.61858 34.0204 -15.0959 0.0454434 0.99779 0.048471
2.71461 34.1923 -16.9941 0.0414808 0.997802 0.0516771
1.02679 34.3405 -18.6748 0.0278719 0.997886 0.0587075
-0.646787 34.4561 -20.341 -4.29157e-07 0.998949 0.0458337
-3.08891 34.5464 -22.7747 -0.0165901 0.999083 0.0394759
-4.85005 34.5488 -24.5321 -0.0312947 0.998978 0.0326167
-6.44554 34.5326 -26.1259 -0.0471855 0.998602 0.0238039
-8.2121 34.4845 -27.8946 -0.0618936 0.998013 0.0118123
-9.84529 34.3848 -29.5363 -0.0814844 0.996637 0.00868303
-11.8321 34.2103 -31.539 -0.0947472 0.995468 -0.00815389
-13.5414 34.0139 -33.2678 -0.107307 0.994155 -0.0118837
-15.9723 33.7 -35.7331 -0.115189 0.993071 -0.0232517
-17.8111 33.4183 -37.6053 -0.139877 0.989911 -0.022599
-19.4482 33.1461 -39.2764 -0.149174 0.98848 -0.025564
-21.186 32.8303 -41.0565 -0.161918 0.986588 -0.0206767
-23.0646 32.4737 -42.985 -0.168573 0.985443 -0.0220475
-24.7986 32.1173 -44.7714 -0.178556 0.983617 -0.0247898
-26.5184 31.7482 -46.5495 -0.195819 0.9804 -0.0216881
-28.4024 31.3253 -48.5049 -0.201637 0.979229 -0.0212791
-30.1042 30.9296 -50.2754 -0.210903 0.977312 -0.0195104
-31.9545 30.4878 -52.2061 -0.215913 0.976225 -0.0191647
-33.8336 30.0337 -54.1731 -0.221159 0.975057 -0.0187556
-35.411 29.6423 -55.8288 -0.223496 0.974606 -0.0138811
-36.9398 29.2601 -57.4367 -0.22766 0.973652 -0.0131616
-39.0842 28.7235 -59.6978 -0.235111 0.971897 -0.0117889
-41.1386 28.2059 -61.8709 -0.236449 0.971622 -0.00646216
-41.1705 28.1979 -61.9047 -0.237739 0.971312 -0.00574221
-42.8992 27.7775 -61.1389 -0.241031 0.970484 -0.00807865
-41.0902 28.2391 -59.2238 -0.238874 0.971015 -0.0082778
-39.4878 28.6517 -57.5297 -0.238363 0.971083 -0.013459
-37.6471 29.1207 -55.5887 -0.230907 0.972875 -0.0140096
-35.9658 29.5489 -53.8197 -0.228182 0.973462 -0.0174821
-34.4079 29.9418 -52.1828 -0.221502 0.974973 -0.0191137
-32.5017 30.4076 -50.1893 -0.215692 0.976246 -0.020534
-30.7244 30.8383 -48.3344 -0.20959 0.977505 -0.023565
-28.8022 31.2925 -46.3333 -0.199139 0.979644 -0.0253365
-27.1979 31.6609 -44.6673 -0.192098 0.981083 -0.0239637
-25.1229 32.1135 -42.5222 -0.183149 0.982785 -0.0242918
-23.4593 32.4611 -40.8079 -0.171699 0.98482 -0.0254554
-21.6045 32.8185 -38.9033 -0.168773 0.985409 -0.0220149
-20.0107 33.1088 -37.2711 -0.146364 0.988987 -0.0219615
-18.2678 33.4061 -35.4915 -0.142492 0.989503 -0.0240956
-16.4496 33.6778 -33.6413 -0.132037 0.991163 -0.0127491
-14.789 33.8952 -31.9571 -0.107242 0.994159 -0.0121454
-13.0181 34.099 -30.1662 -0.100774 0.994905 -0.00284732
-11.0148 34.2771 -28.146 -0.0851046 0.99634 0.00799647
-9.24423 34.3949 -26.3656 -0.0770968 0.996964 0.0109302
-7.33733 34.4446 -24.4573 -0.0489516 0.998343 0.0302562
-5.46095 34.4675 -22.583 -0.0370355 0.998748 0.033636
-3.33613 34.451 -20.4633 -0.0165906 0.999083 0.0394788
-1.59914 34.3821 -18.7327 -0.00688143 0.998918 0.0459872
0.0404863 34.2762 -17.0998 0.0161853 0.998451 0.0532339
1.90762 34.1356 -15.2391 0.031309 0.998445 0.0461179
3.00707 34.0504 -14.1424 0.0413456 0.998147 0.0446489
63.3451 14.4248 14.6632 0.480369 0.876478 -0.0321222
62.6526 14.7651 13.7699 0.485154 0.874067 -0.0251306
61.9524 15.1479 12.8507 0.524438 0.851402 -0.00891302
61.2245 15.5874 11.8666 0.528974 0.848546 -0.0125005
60.5058 16.0211 10.8952 0.52723 0.849486 -0.0200785
59.639 16.5597 9.71077 0.557346 0.830254 -0.0065858
58.8384 17.1288 8.56397 0.592864 0.804852 0.0269433
58.2221 17.6061 7.65211 0.58803 0.808608 0.019302
57.519 18.1648 6.60905 0.604005 0.796343 0.0318792
56.7733 18.7762 5.49358 0.598212 0.800325 0.0402723
56.1949 19.2566 4.61792 0.603419 0.796066 0.0465175
55.5557 19.8015 3.64764 0.602019 0.795784 0.0655857
54.8419 20.4101 2.58573 0.588451 0.805235 0.0729491
54.1827 20.9703 1.63551 0.562696 0.82464 0.057807
53.1838 21.7492 0.24799 0.559824 0.825382 0.0730895
52.5297 22.2533 -0.645298 0.530158 0.844989 0.0701845
51.6593 22.8808 -1.79644 0.511145 0.856549 0.0711008
50.9142 23.4182 -2.77801 0.511298 0.855641 0.0803319
50.2638 23.8326 -3.60458 0.470742 0.881007 0.0472073
49.4736 24.3188 -4.59995 0.464609 0.881677 0.0823637
48.4729 24.9185 -5.8241 0.428539 0.90018 0.077658
47.7779 25.3162 -6.66031 0.426346 0.901703 0.0718424
46.7332 25.8766 -7.88945 0.401302 0.912403 0.0804801
45.8882 26.3468 -8.88604 0.394977 0.913913 0.0935693
45.1934 26.7128 -9.68845 0.347554 0.933615 0.0870039
43.9583 27.3024 -11.0808 0.347995 0.933708 0.0841964
43.7475 27.4018 -11.3189 0.344593 0.935605 0.0768084
62.9586 14.7424 16.8956 0.50687 0.860164 -0.0565787
61.8572 15.3114 15.4517 0.520662 0.850923 -0.0695776
61.1595 15.6562 14.5485 0.510136 0.858353 -0.0546874
60.5537 16.05 13.7052 0.53978 0.841791 -0.00493683
59.8002 16.5104 12.6917 0.535695 0.84418 -0.0197827
59.1821 16.8999 11.8378 0.558883 0.828903 -0.0238572
58.5777 17.2919 10.9905 0.573346 0.819148 -0.0164771
57.9127 17.7877 10.008 0.595636 0.803146 0.0132294
57.2666 18.2831 9.04869 0.595619 0.803152 0.0136091
56.4058 18.9625 7.7657 0.600861 0.798965 0.0249213
55.7221 19.5179 6.74325 0.603614 0.796648 0.0316439
55.0493 20.0591 5.74555 0.591641 0.805448 0.0348455
54.1952 20.7387 4.48108 0.579399 0.813742 0.0460544
53.535 21.2843 3.5106 0.569579 0.820094 0.0550108
52.4616 22.1078 2.01636 0.53899 0.840374 0.0571115
51.7328 22.6147 1.0453 0.521425 0.851634 0.0532457
50.7528 23.3091 -0.244598 0.510949 0.857382 0.0618633
50.0351 23.7954 -1.16462 0.485789 0.872544 0.0517289
49.3031 24.2499 -2.08666 0.477034 0.876423 0.0657406
48.6289 24.6432 -2.91916 0.446096 0.893364 0.0538393
47.6428 25.2072 -4.1208 0.438434 0.89713 0.0541629
46.8715 25.6331 -5.04702 0.421172 0.905945 0.0433274
45.8049 26.1761 -6.29983 0.407375 0.910771 0.0673931
45.1009 26.5431 -7.11914 0.356002 0.932321 0.0635656
44.3943 26.8674 -7.91755 0.356687 0.931969 0.0648735
43.643 27.2156 -8.76278 0.357371 0.931615 0.0661806
42.8864 27.5622 -9.61279 0.336238 0.939634 0.0634973
42.0937 27.9048 -10.4953 0.32466 0.942199 0.0828061
41.2121 28.2756 -11.4607 0.295984 0.951972 0.0783746
40.3794 28.5949 -12.357 0.289814 0.954196 0.0742803
39.3969 28.9849 -13.4157 0.291517 0.952729 0.0855865
38.4787 29.3543 -14.4002 0.289679 0.952544 0.0935243
37.8527 29.5887 -15.0629 0.245709 0.963957 0.102047
33.427 30.8224 -17.0531 0.198409 0.974923 0.100791
34.8963 30.3492 -15.5328 0.215344 0.972056 0.0934546
36.9236 29.6717 -13.4142 0.238326 0.96718 0.088111
38.6852 29.0288 -11.5438 0.271016 0.959443 0.0775888
40.4648 28.3831 -9.62965 0.302234 0.951718 0.0537421
42.0604 27.7392 -7.87568 0.350612 0.93506 0.0522891
43.7105 27.021 -6.0278 0.371498 0.927986 0.0288333
45.1274 26.3781 -4.41318 0.39002 0.91974 0.0443031
46.7229 25.5607 -2.53103 0.436382 0.898564 0.0464025
48.0989 24.8072 -0.870077 0.444275 0.895262 0.0335707
49.467 23.9753 0.835393 0.499718 0.863801 0.0642602
50.6446 23.2266 2.33979 0.534839 0.844241 0.0347109
51.8982 22.359 4.0278 0.558812 0.827892 0.0482069
53.2511 21.3528 5.93282 0.575628 0.817073 0.0323073
54.5108 20.3795 7.75923 0.58894 0.807615 0.0301284
55.6258 19.5024 9.4174 0.601272 0.798859 0.0172063
56.7095 18.667 11.0299 0.597672 0.801674 0.0103496
57.9275 17.771 12.8313 0.577567 0.81608 -0.0207059
59.2531 16.923 14.6621 0.554895 0.831419 -0.0288848
60.6545 16.1116 16.5706 0.511906 0.858215 -0.0376585
61.871 15.4655 18.1781 0.509877 0.858984 -0.0466072
60.1872 16.5075 18.6656 0.515486 0.854483 -0.0642961
58.8569 17.2521 16.8457 0.566833 0.823509 -0.0231149
57.7311 17.9822 15.2558 0.569782 0.82124 -0.0302062
56.4902 18.8369 13.4934 0.58621 0.80984 -0.0227477
55.2795 19.7232 11.6959 0.585629 0.810563 0.00517341
54.2136 20.5288 10.1238 0.585888 0.810211 0.0171219
52.7172 21.6443 7.97674 0.575262 0.817269 0.0338533
51.5478 22.4846 6.33689 0.535138 0.844023 0.0354028
50.4259 23.2604 4.80598 0.523805 0.851299 0.0302905
49.1651 24.0807 3.13965 0.502425 0.864392 0.0198767
47.3475 25.1084 0.900818 0.452194 0.891587 0.0243531
46.0564 25.8068 -0.653109 0.420767 0.906354 0.0384374
44.3507 26.6482 -2.64759 0.394787 0.918131 0.0343304
42.7981 27.312 -4.40718 0.355555 0.934479 0.0181822
41.4185 27.8856 -5.94765 0.350018 0.935929 0.0390469
39.648 28.5435 -7.8768 0.299511 0.952899 0.0477205
37.7895 29.1915 -9.86977 0.258271 0.96447 0.0556212
36.2633 29.6653 -11.481 0.240688 0.968202 0.0682226
34.8615 30.1146 -12.9544 0.209072 0.974761 0.0782985
33.3018 30.6006 -14.5772 0.210009 0.973136 0.09435
31.9007 31.0143 -16.015 0.186223 0.97716 0.102367
30.4292 31.4426 -17.5164 0.16783 0.980317 0.103975
29.5557 31.6931 -18.4016 0.17045 0.977769 0.122121
25.2458 32.5403 -20.1561 0.12012 0.984093 0.130886
26.7155 32.164 -18.6826 0.13726 0.983426 0.118461
28.1905 31.7736 -17.1937 0.153198 0.982715 0.103928
29.6791 31.3816 -15.6807 0.170835 0.980453 0.09761
31.2677 30.9493 -14.0541 0.185853 0.979232 0.0810195
32.6191 30.5768 -12.6647 0.199893 0.976231 0.083765
34.6879 29.9785 -10.5064 0.209768 0.975673 0.0637102
36.3867 29.4804 -8.72861 0.243183 0.969237 0.0379727
37.9838 28.9742 -7.03288 0.269793 0.961818 0.0460154
39.2811 28.5459 -5.64277 0.270403 0.962374 0.0267876
40.9687 27.9665 -3.8049 0.325426 0.94535 0.0202781
42.5225 27.3526 -2.06958 0.361943 0.931526 0.0354572
44.1657 26.6071 -0.191874 0.37578 0.926026 0.0355689
45.7913 25.8575 1.70798 0.423921 0.905461 0.0207526
47.3831 25.0386 3.61902 0.468991 0.882911 0.0227132
48.5628 24.3675 5.09318 0.490026 0.871212 0.0293867
49.7273 23.6308 6.62731 0.524209 0.851327 0.0211477
50.8574 22.8678 8.16283 0.539674 0.841545 0.0235318
52.2962 21.867 10.1612 0.554852 0.831508 0.0270778
53.3985 21.0765 11.7208 0.576038 0.817391 0.00716225
54.401 20.3484 13.2031 0.587439 0.809254 0.00479867
55.6655 19.453 15.0241 0.584825 0.811081 -0.0112833
56.732 18.728 16.5504 0.577582 0.815679 -0.0326526
57.8173 18.0355 18.0938 0.570622 0.819879 -0.0467827
58.7238 17.5234 19.3588 0.553947 0.828902 -0.0778764
57.2243 18.5764 19.9603 0.5646 0.823994 -0.0475509
56.1686 19.2203 18.4557 0.574327 0.817406 -0.0446751
55.0202 19.9568 16.8216 0.576075 0.817133 -0.0207481
53.5693 20.9376 14.7511 0.568828 0.822416 -0.00822673
52.4162 21.7316 13.0954 0.562069 0.827018 0.0109538
51.0458 22.6681 11.1847 0.548641 0.835742 0.0230028
49.9648 23.4006 9.69861 0.531031 0.84732 0.00741916
48.2285 24.4659 7.4211 0.480028 0.877007 0.0207773
47.0809 25.135 5.95309 0.471861 0.881337 0.0243343
45.862 25.776 4.46384 0.417142 0.908816 0.00680652
44.5508 26.3833 2.92226 0.386471 0.921839 0.0292157
43.0663 27.0255 1.20883 0.373326 0.927564 0.0158677
41.7066 27.5898 -0.333943 0.332709 0.942571 0.0293944
40.3416 28.134 -1.857 0.313051 0.949159 0.0331033
38.6873 28.6829 -3.6565 0.272417 0.961922 0.0222627
37.0836 29.1439 -5.36599 0.246831 0.968488 0.0332456
35.529 29.6136 -7.01428 0.233032 0.971441 0.0446968
34.1871 29.9831 -8.4216 0.224191 0.973296 0.0493301
32.6696 30.38 -9.99914 0.193174 0.979458 0.0578385
31.1848 30.7697 -11.5317 0.187917 0.980146 0.0632541
29.3285 31.241 -13.4335 0.165405 0.983145 0.0778876
27.7223 31.6393 -15.0711 0.148338 0.985008 0.0880642
26.2011 32.011 -16.6135 0.132755 0.986632 0.0945182
24.5764 32.3962 -18.25 0.121452 0.986499 0.10986
22.8787 32.8016 -19.9506 0.111626 0.986796 0.117358
21.4828 33.1266 -21.3431 0.09156 0.986673 0.134509
20.9872 33.24 -21.8354 0.0930571 0.986663 0.133557
16.914 33.7783 -23.3247 0.0770957 0.989943 0.118612
17.7807 33.6077 -22.464 0.0770968 0.989943 0.118613
18.935 33.3623 -21.3169 0.0878123 0.989329 0.116261
20.0305 33.1327 -20.2252 0.0956023 0.989015 0.112737
21.0358 32.9214 -19.2235 0.103002 0.987961 0.115425
21.8538 32.7404 -18.4045 0.109467 0.988775 0.101692
22.7681 32.5449 -17.4881 0.118163 0.987699 0.102413
23.6951 32.3382 -16.5558 0.124409 0.988475 0.0862576
24.556 32.1541 -15.6883 0.131564 0.987392 0.0880241
25.4033 31.9621 -14.8309 0.137297 0.987132 0.0819778
26.3782 31.7445 -13.8438 0.145321 0.986025 0.0814671
27.2477 31.5503 -12.9576 0.150247 0.986357 0.067267
28.1368 31.3448 -12.0488 0.157867 0.984868 0.0715012
29.2016 31.0867 -10.9594 0.172894 0.98321 0.0583607
30.0522 30.8939 -10.0894 0.174371 0.983534 0.0474857
31.2102 30.6128 -8.89985 0.188937 0.980521 0.0536784
32.019 30.4128 -8.06752 0.19189 0.980776 0.0354538
33.4323 30.0705 -6.59647 0.203551 0.978517 0.0327439
34.2153 29.8594 -5.77434 0.222185 0.974156 0.0406586
35.0059 29.664 -4.94474 0.229822 0.972971 0.0225635
35.9162 29.4105 -3.98021 0.242112 0.969888 0.0264546
36.6649 29.2019 -3.18684 0.243012 0.969766 0.0223418
37.5428 28.9553 -2.24985 0.260599 0.965353 0.0134717
38.3213 28.7336 -1.41726 0.258717 0.965901 0.0100325
39.1836 28.4494 -0.477916 0.30341 0.952717 0.0164861
40.4488 28.0044 0.915938 0.332945 0.942755 0.0190077
41.1699 27.7335 1.71972 0.331078 0.94354 0.0109003
42.0061 27.4233 2.65615 0.341448 0.939756 0.0165003
42.8364 27.0864 3.6025 0.365548 0.930784 -0.00400531
43.9045 26.6406 4.83468 0.396515 0.917997 0.00756227
44.8389 26.2204 5.92762 0.409971 0.91205 0.00940487
45.528 25.9044 6.74294 0.409623 0.912225 0.00737739
46.4168 25.4328 7.84388 0.456971 0.8893 0.017981
47.4428 24.8671 9.13187 0.466874 0.884095 0.0201279
48.3965 24.336 10.3464 0.493674 0.869522 0.0147877
49.2086 23.8569 11.4075 0.520105 0.853982 0.0143546
50.0018 23.322 12.4937 0.54602 0.837659 0.0137805
50.6602 22.9013 13.3942 0.546268 0.837608 0.00190047
51.3568 22.4327 14.3631 0.555404 0.831576 0.00283906
52.2545 21.8613 15.6072 0.558686 0.829315 -0.0103204
52.9791 21.3812 16.6362 0.570575 0.820875 -0.0246578
53.5793 20.9896 17.4875 0.57333 0.81901 -0.0227046
54.3229 20.5081 18.5473 0.571857 0.819377 -0.0400044
55.0215 20.069 19.5404 0.569506 0.821229 -0.0352777
55.1773 19.9745 19.7609 0.561822 0.824863 -0.0629114
39.9469 28.3658 24.1399 0.34666 0.93798 -0.00454032
38.357 28.8794 22.3267 0.308278 0.951031 -0.0224441
36.7762 29.3728 20.5523 0.282945 0.959047 -0.0130843
35.2653 29.7553 18.8992 0.253409 0.967035 -0.0250289
33.474 30.1543 16.9667 0.231919 0.972397 -0.0256355
31.9062 30.4804 15.2923 0.215286 0.976251 -0.0241991
30.4264 30.7583 13.7342 0.200541 0.97927 -0.0285246
28.8684 31.0291 12.1011 0.179188 0.983426 -0.0276615
27.2539 31.2744 10.4288 0.167257 0.985714 -0.0198159
25.4446 31.5288 8.56007 0.14892 0.988665 -0.0190803
23.8336 31.7303 6.90768 0.13696 0.990456 -0.0154468
22.3407 31.9121 5.3765 0.128462 0.991613 -0.0142052
20.6959 32.117 3.69501 0.124769 0.992183 -0.00218438
19.1342 32.3087 2.1055 0.109915 0.993938 0.00222609
17.3843 32.5046 0.33063 0.111809 0.993713 0.00572914
15.8655 32.6835 -1.2101 0.0995556 0.994989 0.00922474
14.2004 32.866 -2.89406 0.0924063 0.995644 0.0124158
12.4638 33.0629 -4.64959 0.0922179 0.995521 0.0208199
11.7761 33.1394 -5.34478 0.0824498 0.996272 0.0253712
12.0271 33.0593 -2.5056 0.0875562 0.996045 0.0151024
13.6908 32.8878 -0.825631 0.0889288 0.995999 0.00882003
15.2503 32.7254 0.751979 0.101288 0.99483 0.00730311
16.7873 32.5621 2.30851 0.106833 0.994273 0.00268913
18.5562 32.3691 4.10398 0.108216 0.994126 -0.00140839
20.7212 32.1302 6.31157 0.124644 0.99208 -0.0155094
22.4091 31.9376 8.04061 0.132485 0.991067 -0.0153253
24.1184 31.7414 9.79148 0.131733 0.991113 -0.018482
25.9237 31.5209 11.6479 0.149993 0.988472 -0.0206409
27.5329 31.2987 13.311 0.158458 0.987115 -0.022258
28.9931 31.0858 14.8273 0.195867 0.980213 -0.0285946
30.5942 30.7987 16.509 0.213523 0.976611 -0.0252847
32.1645 30.4969 18.1751 0.219731 0.974989 -0.0333894
33.9733 30.127 20.1071 0.235023 0.971397 -0.0339333
35.3816 29.799 21.6324 0.269535 0.962797 -0.0193197
37.2895 29.2495 23.7499 0.291971 0.956319 -0.0143546
38.2458 28.9536 24.8294 0.311079 0.950373 -0.00460457
35.9787 29.6587 24.9145 0.287754 0.957301 -0.027806
34.4677 30.0441 23.257 0.261384 0.965189 -0.00939554
33.0634 30.3957 21.7302 0.242072 0.970124 -0.0161202
31.3066 30.7471 19.8601 0.206748 0.977842 -0.0328796
29.7192 31.0049 18.1911 0.179365 0.983574 -0.0202799
28.0331 31.2846 16.4217 0.164082 0.986363 -0.01283
26.531 31.4957 14.8678 0.147166 0.988943 -0.0182716
24.9093 31.7039 13.1964 0.13652 0.990445 -0.0195067
22.8578 31.936 11.0895 0.133675 0.990792 -0.0214969
21.0319 32.132 9.22052 0.123196 0.992305 -0.0124213
19.4715 32.2943 7.62635 0.111874 0.993668 -0.0104321
17.8584 32.4542 5.98333 0.110194 0.993882 -0.007458
16.3302 32.603 4.43313 0.0996759 0.995014 0.00342889
14.6432 32.7724 2.72275 0.0962119 0.995361 0.000451961
13.1406 32.9225 1.20224 0.0909541 0.99585 0.00322127
11.5645 33.071 -0.389417 0.0809296 0.996585 0.0163869
10.8848 33.1033 1.5058 0.0788403 0.996869 0.00595149
12.8318 32.9409 3.47374 0.0845139 0.996414 0.00397872
14.8631 32.7527 5.53168 0.0956972 0.995408 -0.00201346
16.8265 32.5703 7.52287 0.101274 0.99482 -0.00874993
18.3787 32.429 9.10296 0.107522 0.994131 -0.0119336
20.0223 32.2712 10.7771 0.108828 0.993923 -0.016514
21.6428 32.113 12.4357 0.117875 0.992875 -0.017468
23.2691 31.9418 14.0995 0.126043 0.991887 -0.0165135
24.8623 31.755 15.735 0.141286 0.98976 -0.0203324
26.4065 31.5617 17.3282 0.158627 0.987205 -0.016266
28.0355 31.3259 19.0247 0.159708 0.987045 -0.0153386
29.7394 31.0678 20.808 0.17468 0.984432 -0.0195087
31.3925 30.7865 22.5487 0.196273 0.980392 -0.0175704
33.5887 30.3074 24.9072 0.216133 0.97632 -0.0092854
34.4573 30.1095 25.8499 0.267571 0.963256 -0.0233118
32.4888 30.576 26.3254 0.21142 0.977247 -0.0170158
30.9958 30.8565 24.7368 0.19374 0.981037 -0.00552728
29.4917 31.141 23.1425 0.169395 0.985523 -0.00703077
27.7878 31.4022 21.3625 0.160885 0.986849 -0.015638
26.0837 31.6488 19.5884 0.146162 0.989067 -0.0195507
24.3002 31.863 17.7451 0.136332 0.990578 -0.0129982
22.7454 32.0433 16.1491 0.127716 0.991681 -0.0160233
21.1375 32.2123 14.5003 0.113087 0.993413 -0.0185165
19.5425 32.36 12.8769 0.109424 0.993809 -0.0192482
17.7864 32.5201 11.0853 0.0989253 0.99503 -0.0113576
15.882 32.684 9.14786 0.0965275 0.99527 -0.0109814
13.9648 32.8446 7.20075 0.0876748 0.996122 -0.00738004
12.4649 32.9675 5.68468 0.0827199 0.996573 -0.000507853
10.6602 33.1078 3.85944 0.0755334 0.997137 0.00366936
9.65008 33.1822 2.83969 0.0717404 0.997408 0.00547942
8.27259 33.2678 4.02884 0.0562193 0.998414 0.00291819
9.82918 33.1643 5.59972 0.0644689 0.99792 -1.54145e-05
11.6473 33.0386 7.43562 0.0827537 0.996552 -0.00596754
13.566 32.8936 9.37922 0.0813982 0.996663 -0.00616684
15.0692 32.7789 10.9061 0.0889291 0.995962 -0.0123189
16.5422 32.6617 12.4021 0.0925464 0.995596 -0.0149831
18.453 32.5085 14.3466 0.10324 0.994473 -0.0191202
20.0658 32.3626 15.9869 0.112728 0.993444 -0.0190264
21.8414 32.1842 17.8074 0.119475 0.992664 -0.0185209
23.4378 32.0106 19.4499 0.128013 0.99157 -0.0200373
25.2766 31.8027 21.3428 0.135399 0.990378 -0.0286257
26.984 31.5603 23.1167 0.159817 0.987021 -0.0157341
28.5545 31.3387 24.75 0.18393 0.982659 -0.0234594
30.3095 31.0243 26.5999 0.191429 0.981412 -0.0136124
28.5947 31.3527 27.3831 0.17459 0.98463 -0.00473523
26.8992 31.6169 25.6165 0.155912 0.987726 -0.00946654
25.2232 31.8538 23.8711 0.147473 0.988999 -0.011497
23.7569 32.0381 22.3619 0.130024 0.991264 -0.0221112
21.8486 32.2305 20.4045 0.11964 0.992659 -0.017744
20.2292 32.3911 18.7393 0.116854 0.993024 -0.0157769
18.4778 32.552 16.9478 0.0959774 0.995245 -0.0166144
16.7521 32.6915 15.1929 0.0902221 0.995798 -0.0156638
15.2407 32.8012 13.6602 0.08536 0.996208 -0.0168155
13.2675 32.9381 11.6588 0.0783413 0.996852 -0.0121566
11.6181 33.0506 9.98551 0.0686347 0.99764 -0.00201656
10.0207 33.1588 8.36954 0.059528 0.998222 -0.00298111
8.34059 33.256 6.6761 0.0575912 0.998337 0.00248925
6.68044 33.3507 5.00377 0.0519353 0.998636 0.00544385
4.84103 33.4307 5.72981 0.0386249 0.999246 0.00393292
6.59936 33.3497 7.49785 0.0451541 0.99898 -0.000783913
8.57698 33.2487 9.49116 0.059529 0.998212 -0.00530251
10.6227 33.1286 11.5605 0.069561 0.997524 -0.0103608
12.41 33.0281 13.371 0.0789772 0.996746 -0.0161139
13.9503 32.9323 14.9285 0.0846656 0.996299 -0.0148086
15.5004 32.8255 16.5013 0.090222 0.995798 -0.0156638
17.4312 32.6797 18.4649 0.0955718 0.995267 -0.0175684
19.0351 32.5436 20.1042 0.102788 0.99463 -0.0120848
20.5454 32.4043 21.6536 0.115314 0.993139 -0.0194237
22.0759 32.2578 23.2198 0.117467 0.992923 -0.0175033
23.9306 32.0545 25.1208 0.1262 0.99193 -0.0121813
25.4022 31.8561 26.6464 0.150533 0.98855 -0.010448
26.2003 31.7421 27.4751 0.151234 0.988451 -0.00967919
24.3414 32.0212 28.1324 0.136034 0.990696 -0.0040822
22.6799 32.2343 26.4145 0.124065 0.992257 -0.00591196
21.126 32.3952 24.8267 0.107587 0.993992 -0.0201404
19.3934 32.5535 23.0555 0.105387 0.99431 -0.015509
17.9087 32.68 21.5368 0.0943049 0.995484 -0.0108572
16.2165 32.8195 19.8116 0.0965379 0.995175 -0.0175223
14.4521 32.9409 18.0173 0.0815566 0.996503 -0.0181986
12.9378 33.041 16.4787 0.0706112 0.997386 -0.0153498
11.1375 33.1408 14.6598 0.0656535 0.997696 -0.0170827
9.59067 33.2174 13.0958 0.0598524 0.998123 -0.0129654
7.89156 33.3019 11.3792 0.0613272 0.998083 -0.00835509
6.24481 33.3738 9.7185 0.0465429 0.998912 -0.00304022
4.66219 33.4372 8.12483 0.0395841 0.999206 -0.00443074
2.98973 33.4995 6.44385 0.0273331 0.999624 0.00206915
0.652221 33.5396 6.66889 0.0104826 0.999942 0.00254744
2.22216 33.5178 8.24573 0.0196149 0.999806 0.00195957
3.94733 33.4726 9.97906 0.038807 0.999243 -0.00283945
5.67544 33.4155 11.7197 0.0375469 0.999249 -0.00957879
7.76138 33.3393 13.8237 0.0558552 0.998336 -0.0143359
9.4619 33.2589 15.5416 0.0625693 0.997953 -0.0132474
10.9684 33.1854 17.0646 0.0654027 0.997736 -0.0156527
12.4974 33.1028 18.6137 0.0735932 0.997152 -0.0165149
14.1091 33.0083 20.2484 0.0781314 0.99681 -0.0163074
15.5838 32.9 21.7457 0.0836594 0.996466 -0.00746006
17.4184 32.7596 23.6169 0.0963071 0.995223 -0.0159822
19.1167 32.6156 25.3526 0.0998006 0.994958 -0.00988696
21.0404 32.4286 27.3188 0.115179 0.993334 -0.00471584
21.7156 32.3537 28.012 0.114761 0.993381 -0.00500137
19.7472 32.5749 28.5772 0.104964 0.994468 -0.00408411
18.0801 32.734 26.8702 0.0986709 0.995068 -0.0101866
16.3104 32.8796 25.0659 0.0869121 0.996118 -0.0139613
14.6297 33.0003 23.3558 0.0822684 0.9965 -0.0148177
13.012 33.1122 21.7129 0.0749638 0.997084 -0.014281
11.1588 33.216 19.8358 0.062172 0.997931 -0.0163995
9.48573 33.2943 18.1433 0.0629385 0.997904 -0.015059
7.86117 33.3685 16.5009 0.048583 0.998739 -0.0126761
6.3781 33.4232 15.0044 0.0493878 0.998713 -0.0115286
4.89592 33.465 13.5107 0.0374161 0.999198 -0.0142452
3.40636 33.4999 12.0099 0.0252129 0.999668 -0.00523675
1.91268 33.5324 10.5069 0.0187764 0.999817 -0.00369351
0.2931 33.5415 8.88006 0.00634768 0.99998 6.38846e-05
-1.28354 33.5409 7.29578 -0.000160388 0.999995 0.00305721
-3.54154 33.5251 7.59765 -0.00980851 0.99995 0.0021071
-1.62658 33.541 9.52165 -0.0063269 0.99998 0.000828925
0.00253334 33.5512 11.1592 -0.00625403 0.999977 -0.00265516
2.00736 33.5453 13.1768 0.0174012 0.999824 -0.00707814
3.78872 33.5203 14.9713 0.0237698 0.999656 -0.0110572
5.29195 33.4858 16.4849 0.0382201 0.999225 -0.00945624
6.84476 33.4322 18.051 0.0429304 0.998935 -0.0168879
8.37773 33.3781 19.6016 0.056047 0.998368 -0.0109373
9.85633 33.3136 21.0946 0.0623208 0.997962 -0.0137333
11.4209 33.2336 22.6775 0.0656516 0.99775 -0.013618
13.5212 33.1158 24.808 0.0834508 0.996374 -0.0165639
15.2045 32.9984 26.5159 0.0872833 0.996053 -0.0161547
16.8247 32.8686 28.1652 0.0966812 0.995295 -0.00637178
17.5328 32.8025 28.8867 0.0953157 0.995432 -0.00542384
16.1543 32.9409 30.0539 0.0953158 0.995432 -0.00542387
14.264 33.1021 28.1335 0.0823341 0.996547 -0.0107445
12.7853 33.1961 26.6359 0.0736364 0.997209 -0.0123313
11.2648 33.2848 25.0967 0.0635018 0.997849 -0.0162887
9.45542 33.3692 23.2642 0.0612993 0.99799 -0.0160988
7.72873 33.4472 21.5202 0.0567013 0.998252 -0.0166503
6.11991 33.4909 19.8977 0.0398345 0.999132 -0.0122149
4.59324 33.5281 18.3542 0.0225593 0.999717 -0.00748848
2.36399 33.5601 16.1099 0.0147193 0.999866 -0.00716104
0.756092 33.5691 14.4924 0.00390129 0.999981 -0.00481729
-1.32317 33.5504 12.4001 -0.00509151 0.999977 -0.00454383
-2.90061 33.5322 10.8116 -0.00625403 0.999977 -0.00265516
-4.49099 33.5042 9.21258 -0.0246125 0.999688 0.00414432
-6.05857 33.4599 7.63562 -0.0360176 0.999342 0.00416629
-8.7616 33.3437 7.48294 -0.0515847 0.998645 0.00691404
-6.818 33.4241 9.44189 -0.0490304 0.998778 0.0061851
-5.28185 33.4715 10.9867 -0.0332587 0.999439 0.00406213
-3.69016 33.5152 12.5908 -0.0199064 0.999801 0.00119756
-1.6325 33.562 14.663 -0.0102437 0.999916 -0.00792999
0.427769 33.5865 16.7342 0.00246974 0.999988 0.0041574
1.97299 33.5769 18.2909 0.0120126 0.999901 -0.00728845
3.48633 33.5695 19.8171 0.0260081 0.999539 -0.0156398
5.00504 33.553 21.3484 0.0264059 0.999549 -0.0142958
6.92734 33.509 23.2849 0.0466896 0.998894 -0.0055946
8.51889 33.4473 24.894 0.0568945 0.998318 -0.0111825
10.0634 33.3808 26.4556 0.0583363 0.998197 -0.014102
11.9378 33.2804 28.3506 0.0675185 0.997684 -0.00827334
13.425 33.1854 29.8544 0.0786496 0.996895 -0.00394374
14.5803 33.0865 31.0251 0.0877233 0.996145 0.000199051
12.5143 33.2594 31.5018 0.0793662 0.996845 -0.000649104
10.8778 33.3689 29.8501 0.0616097 0.998001 -0.0140752
9.22948 33.448 28.1867 0.0594651 0.998188 -0.00919854
7.40273 33.5316 26.3415 0.0563171 0.998288 -0.0157662
5.58834 33.5823 24.5094 0.0307476 0.999452 -0.0122539
4.04685 33.6012 22.9571 0.0259481 0.999561 -0.0143253
2.54704 33.6186 21.447 0.016687 0.999708 -0.0174922
0.932852 33.6041 19.8205 0.00215621 0.999872 -0.0158516
-1.08604 33.5861 17.7846 -0.00778306 0.99995 -0.00628115
-2.9309 33.5545 15.9296 -0.0215032 0.999745 -0.00684932
-4.75827 33.4902 14.0876 -0.0288049 0.999576 -0.00424239
-6.38455 33.4369 12.4486 -0.0288847 0.999579 -0.00263232
-8.0508 33.3617 10.7695 -0.0490227 0.998798 0.000411093
-9.79135 33.2763 9.01432 -0.0665863 0.997744 0.00850059
-11.4336 33.1721 7.3546 -0.0725705 0.997332 0.00791685
-14.015 32.9464 7.30582 -0.100161 0.994855 0.0151826
-12.4813 33.0674 8.86312 -0.0875919 0.996082 0.0122177
-10.5593 33.2105 10.8088 -0.0770498 0.997016 0.00477948
-8.7467 33.3171 12.639 -0.057031 0.99837 0.00234558
-7.20199 33.4101 14.1981 -0.0563136 0.998408 -0.00333988
-5.48475 33.4761 15.9293 -0.0448776 0.998983 -0.00431326
-3.5976 33.5503 17.8318 -0.0312481 0.999475 -0.00859952
-1.30479 33.5988 20.1424 -0.0153344 0.999869 -0.00527072
0.324627 33.6251 21.7848 -0.0104345 0.999906 -0.00892419
2.02982 33.6527 23.501 0.00801371 0.999967 -0.00100582
3.94029 33.6345 25.4234 0.017901 0.9998 -0.00890107
6.1802 33.6004 27.6836 0.0223394 0.999746 -0.00308173
7.78345 33.5389 29.2974 0.053749 0.998554 0.000469942
9.40102 33.4586 30.9306 0.04326 0.999064 9.83932e-05
10.4575 33.4041 31.9941 0.0605949 0.998031 0.0162164
8.21729 33.5075 32.3073 0.0419025 0.999121 0.00153169
6.47167 33.5866 30.5482 0.040766 0.999092 0.0123696
4.91601 33.631 28.9814 0.0235594 0.999722 -0.00060539
3.18732 33.6612 27.24 0.0092951 0.999949 -0.00384578
1.66323 33.6582 25.7049 -0.00165122 0.999996 -0.00227965
-0.24869 33.6417 23.783 -0.0109605 0.999862 -0.0125118
-2.26624 33.5937 21.7506 -0.0176335 0.999816 -0.00754329
-3.89994 33.548 20.1035 -0.0336722 0.999433 -0.000647776
-5.43251 33.4815 18.5584 -0.0414516 0.999131 -0.00431303
-6.96066 33.4133 17.0158 -0.0551803 0.998475 -0.00139234
-8.72763 33.3157 15.2299 -0.0633242 0.997891 0.0142732
-10.5883 33.194 13.352 -0.0748694 0.997143 -0.0100154
-12.3837 33.052 11.5327 -0.0916304 0.995744 0.00991231
-14.3345 32.8854 9.55146 -0.102634 0.994671 0.00980857
-15.8102 32.7489 8.0489 -0.108307 0.994041 0.0123052
-16.5685 32.6758 7.27662 -0.116211 0.99294 0.0237608
-18.8824 32.3993 7.48419 -0.125153 0.99183 0.024701
-17.2914 32.5721 9.11131 -0.125962 0.991943 0.0135159
-15.5232 32.7496 10.9141 -0.103206 0.99463 0.00774776
-13.7171 32.9217 12.7526 -0.0972869 0.995256 0.000957325
-12.1069 33.0607 14.3859 -0.0905952 0.995886 0.00170396
-10.5666 33.1865 15.9458 -0.0821978 0.996575 0.00901026
-8.84006 33.2916 17.6931 -0.0637573 0.997962 -0.00258387
-7.30241 33.4005 19.2485 -0.0660008 0.997731 -0.0132763
-5.79473 33.4886 20.7708 -0.0467032 0.998867 -0.00910303
-3.95306 33.5641 22.6289 -0.0257237 0.999645 -0.00699488
-1.97049 33.6216 24.6237 -0.0256279 0.999623 -0.00985549
-0.428378 33.6567 26.1754 -0.00230386 0.999989 -0.00405969
1.39676 33.6636 28.0126 -0.00344925 0.999983 -0.0046167
3.21824 33.6686 29.8456 0.0220705 0.999755 0.00193114
5.19747 33.6136 31.8386 0.0232292 0.999713 0.00592886
6.51288 33.5698 33.1616 0.0259124 0.999629 0.00841288
5.16756 33.5944 34.3786 0.0218227 0.99975 0.00481667
3.54825 33.6453 32.7501 0.0232021 0.999705 0.00719608
1.84921 33.6759 31.0417 0.00110942 0.99996 0.00881927
0.124423 33.6588 29.3074 -0.0172872 0.999849 0.00154661
-2.13953 33.6206 27.0282 -0.024358 0.999703 -7.72664e-05
-3.69956 33.5769 25.457 -0.0423822 0.999055 0.00964356
-5.33422 33.5185 23.8111 -0.0320921 0.999455 0.00772759
-7.22869 33.4079 21.8994 -0.0691135 0.997607 -0.00186166
-8.71174 33.3027 20.3985 -0.0708089 0.997481 0.00417247
-10.3313 33.1912 18.7602 -0.0717143 0.997425 0.000420552
-12.2413 33.0327 16.8235 -0.0881191 0.996097 0.00508151
-13.8887 32.8933 15.1522 -0.0967913 0.995266 0.00875771
-15.4089 32.7373 13.606 -0.113073 0.993565 0.00658013
-16.9898 32.5674 11.9914 -0.135034 0.990728 0.0149894
-18.5419 32.3939 10.4047 -0.134755 0.990648 0.0214045
-20.2373 32.1825 8.66694 -0.143541 0.989277 0.0269482
-21.1054 32.0776 7.77559 -0.151425 0.988075 0.0279133
-23.0864 31.7596 8.30559 -0.155202 0.987441 0.0295394
-21.5135 31.963 9.92694 -0.148205 0.988633 0.0252913
-19.9269 32.1724 11.557 -0.140993 0.989787 0.0210488
-18.2033 32.3832 13.3229 -0.134732 0.990798 0.0128973
-16.3508 32.6046 15.2184 -0.13076 0.991258 0.017615
-14.7785 32.7763 16.8202 -0.124373 0.992151 0.0129594
-12.6853 32.9814 18.9495 -0.115142 0.993243 0.0145111
-11.2069 33.108 20.4491 -0.103735 0.994569 0.00841851
-9.3479 33.2503 22.3353 -0.0730967 0.997325 0.000694479
-7.4519 33.3939 24.2515 -0.0640765 0.997945 0.0003116
-5.49784 33.4932 26.2215 -0.0472805 0.998832 0.0099101
-3.46032 33.5769 28.275 -0.0325997 0.999467 -0.00198397
-1.83361 33.6284 29.9129 -0.0246094 0.999697 -0.000156388
-0.287507 33.6524 31.4674 -0.0150509 0.999838 0.00983347
1.26687 33.6527 33.0281 -0.00988 0.999847 0.0144059
2.93343 33.6336 34.7027 0.0110972 0.999889 0.0099268
3.07528 33.6306 34.8453 0.0110972 0.999889 0.00992678
1.551 33.6372 35.8867 0.00179785 0.999972 0.00728316
-0.48545 33.6258 33.8397 -0.0170596 0.999808 0.00963638
-2.129 33.616 32.1896 -0.0141365 0.99983 0.0118196
-3.97946 33.5672 30.3294 -0.0493316 0.998781 0.00187384
-5.60672 33.4858 28.6888 -0.0524653 0.99862 -0.00240889
-7.42194 33.3852 26.8575 -0.0722166 0.997359 0.00777084
-8.95003 33.2884 25.3141 -0.0761754 0.997049 0.00952778
-10.518 33.1558 23.7272 -0.0875012 0.996155 -0.004249
-12.6109 32.9604 21.6023 -0.10503 0.994469 -0.000569084
-14.195 32.7972 19.9901 -0.115833 0.993238 0.00781338
-15.8523 32.6085 18.2986 -0.134405 0.990756 0.0183735
-17.5121 32.4181 16.6029 -0.140867 0.989788 0.0218298
-19.147 32.2147 14.9277 -0.147828 0.988805 0.0202713
-20.7371 32.0101 13.2953 -0.155898 0.987553 0.0208598
-22.3978 31.7785 11.584 -0.164455 0.986134 0.0222386
-23.9611 31.56 9.96971 -0.165594 0.985675 0.0319967
-25.1386 31.3959 8.75271 -0.168341 0.98519 0.0325972
-27.2682 30.9902 9.11212 -0.184405 0.98218 0.036288
-25.571 31.2421 10.8723 -0.178614 0.983383 0.0324806
-23.6367 31.5298 12.8765 -0.174973 0.984103 0.0304331
-22.0147 31.7721 14.5528 -0.169418 0.985413 0.0161004
-20.2933 32.0165 16.325 -0.152436 0.988079 0.0215084
-18.5502 32.2395 18.1134 -0.139508 0.990035 0.0191725
-16.8706 32.4485 19.8342 -0.13554 0.990759 0.00502069
-15.1948 32.6639 21.5482 -0.119636 0.992789 0.00751163
-13.2103 32.8814 23.5703 -0.112141 0.993674 0.00598009
-11.4835 33.058 25.325 -0.103432 0.994609 0.00741278
-9.99844 33.1904 26.8302 -0.0786239 0.996884 0.0063945
-8.03776 33.3433 28.8126 -0.0757586 0.997126 -0.000317109
-6.43371 33.4296 30.4307 -0.0644159 0.997884 0.00885986
-4.58545 33.5298 32.2934 -0.0490231 0.998779 0.00618303
-2.86141 33.583 34.0261 -0.0309726 0.999519 0.00156175
-1.20948 33.5957 35.6854 -0.0164994 0.999817 0.00963655
0.278012 33.61 37.1789 -0.0168579 0.999837 0.00645303
-1.59389 33.5572 37.8699 -0.0297365 0.999475 0.0128391
-3.07837 33.5433 36.3798 -0.0252183 0.999471 0.0205567
-4.71841 33.5016 34.7315 -0.0631954 0.997988 0.00506863
-6.49602 33.4046 32.9416 -0.0633076 0.997962 0.0079693
-8.03436 33.3146 31.3908 -0.0678189 0.997682 0.00559601
-9.54756 33.2082 29.8628 -0.093648 0.995535 0.0118601
-11.0616 33.0732 28.33 -0.105683 0.994294 0.0144955
-12.6008 32.9222 26.7675 -0.115665 0.993263 0.00712393
-14.0811 32.7616 25.2616 -0.122403 0.992408 0.0119599
-15.5842 32.5882 23.7284 -0.130249 0.991369 0.0149088
-17.0637 32.409 22.2165 -0.140022 0.990053 0.0137725
-18.5359 32.2014 20.7058 -0.157889 0.987354 0.0142609
-20.134 31.9849 19.0641 -0.154587 0.98777 0.0203377
-21.7006 31.7605 17.4506 -0.170077 0.985211 0.0207952
-23.39 31.5019 15.7052 -0.181481 0.983142 0.0222782
-24.9323 31.2587 14.1065 -0.183259 0.982607 0.0299981
-26.3913 31.029 12.5907 -0.186351 0.981949 0.0323894
-28.2198 30.7497 10.692 -0.19016 0.981001 0.0384304
-28.8787 30.6462 10.007 -0.192221 0.980542 0.0398529
-30.7102 30.2584 10.6691 -0.199977 0.978883 0.042384
