-2.096 36.8604 13.0003 0.021326 -0.999747 0.007143
-3.61754 36.8413 14.5304 0.0224374 -0.999705 0.00933639
-5.10543 36.8022 16.0259 0.0386418 -0.999078 0.0186965
-6.5409 36.7428 17.4691 0.0607921 -0.998001 0.0172627
-7.82086 36.6586 18.7583 0.0765891 -0.99703 0.00809886
-9.12673 36.5422 20.0761 0.0860901 -0.996282 -0.00339506
-10.6585 36.3949 21.623 0.0944166 -0.995525 -0.0038757
-12.2773 36.2232 23.2614 0.113304 -0.993505 -0.0105061
-13.3999 36.0758 24.4006 0.124488 -0.992078 -0.0168664
-14.7852 35.8802 25.8104 0.128816 -0.991666 -0.00226047
-15.9444 35.705 26.993 0.150931 -0.988504 -0.00889162
-17.1963 35.4904 28.275 0.168772 -0.985555 -0.0140284
-18.5224 35.2434 29.6378 0.172198 -0.984861 -0.019931
-19.6425 35.0141 30.7936 0.175662 -0.984146 -0.0244881
-21.0978 34.6956 32.3018 0.193917 -0.980777 -0.021728
-22.8094 34.3044 34.0838 0.207785 -0.977975 -0.0197792
-23.7797 34.0676 35.0982 0.21407 -0.976612 -0.0200828
-24.9215 33.7862 36.2951 0.224735 -0.974241 -0.0186542
-26.3535 33.4258 37.8001 0.235969 -0.971626 -0.0161476
-27.6419 33.0897 39.1592 0.239357 -0.970794 -0.0163527
-28.6435 32.8279 40.2177 0.240008 -0.970695 -0.0121131
-29.7073 32.5532 41.342 0.241534 -0.970347 -0.00934051
-30.7358 32.2834 42.4314 0.245191 -0.969427 -0.00962131
-31.758 32.0147 43.5168 0.246051 -0.969228 -0.00753494
-33.1573 31.6484 45.0035 0.248813 -0.968537 -0.00524334
-34.3129 31.3423 46.2338 0.251572 -0.967831 -0.00394539
-34.3416 31.3347 46.2643 0.251764 -0.967783 -0.00330137
-34.9398 31.1819 45.6083 0.251571 -0.967831 -0.0039447
-33.8009 31.4836 44.3958 0.252184 -0.967669 -0.00457139
-32.5765 31.8079 43.0938 0.248442 -0.968632 -0.00533343
-31.2483 32.1612 41.6828 0.244914 -0.9695 -0.00932903
-29.9196 32.5098 40.2754 0.245017 -0.969459 -0.0107761
-28.5914 32.8576 38.8711 0.240012 -0.970695 -0.0121073
-27.6257 33.1157 37.8505 0.239359 -0.970793 -0.0163526
-26.4492 33.422 36.6103 0.235816 -0.971668 -0.0158853
-25.1593 33.7511 35.254 0.225108 -0.974168 -0.0179653
-23.944 34.055 33.9804 0.224799 -0.974246 -0.0176414
-22.9588 34.2936 32.9511 0.201461 -0.979251 -0.0219486
-21.5759 34.6187 31.509 0.198054 -0.97989 -0.0242772
-20.4861 34.8612 30.3781 0.193313 -0.980825 -0.0247292
-19.4665 35.0837 29.3227 0.182669 -0.982883 -0.0239515
-18.2826 35.3067 28.1041 0.169073 -0.985502 -0.0141748
-16.9713 35.5503 26.7576 0.159843 -0.987077 -0.0114097
-15.78 35.7432 25.5397 0.150936 -0.988503 -0.00892074
-14.587 35.9167 24.3244 0.133994 -0.990809 -0.0185286
-13.5898 36.0706 23.3084 0.124486 -0.992078 -0.0168692
-12.4209 36.2137 22.123 0.111639 -0.993732 -0.00580721
-10.9122 36.3764 20.5966 0.0949367 -0.995468 -0.00552148
-9.76984 36.4888 19.4429 0.086371 -0.99626 -0.00250667
-8.54849 36.597 18.2105 0.0866536 -0.996237 -0.001618
-7.36077 36.6798 17.0141 0.0765891 -0.99703 0.00809885
-6.34551 36.7308 15.9925 0.0610857 -0.998018 0.0150968
-4.55006 36.7991 14.1863 0.0421623 -0.999059 0.0102009
-3.47324 36.8324 13.1032 0.0240648 -0.999693 0.00596813
-2.1396 36.8539 11.7624 0.0151194 -0.999846 0.00887609
-0.794303 36.8505 10.408 0.00776636 -0.999917 0.0102571
0.465131 36.8394 9.1391 -0.00792545 -0.999956 0.00503709
1.62707 36.8274 7.96966 -0.0111573 -0.999937 0.000940872
2.75325 36.7957 6.83278 -0.0237162 -0.999686 0.0080988
3.2033 36.7813 6.37821 -0.0221485 -0.999754 0.00143705
1.52331 36.8245 6.79234 -0.0180121 -0.999821 0.00580156
0.334397 36.8381 7.98978 0.000765933 -0.999997 0.00226341
-0.723206 36.8359 9.05417 0.00663696 -0.999916 0.0111047
-2.02377 36.8391 10.3638 0.00889751 -0.999916 0.00940827
-3.35812 36.8252 11.7061 0.0275103 -0.999594 0.00746837
-4.70203 36.7852 13.0575 0.0411585 -0.999151 0.00159718
-6.30198 36.7175 14.6674 0.0584759 -0.998257 0.00802618
-7.34643 36.6693 15.7183 0.0653819 -0.997806 0.0103869
-8.56392 36.5866 16.9451 0.0758596 -0.997109 0.00440815
-9.86323 36.4824 18.2552 0.0873581 -0.996176 -0.0013184
-11.0514 36.3718 19.4543 0.0926231 -0.995681 -0.00629272
-12.5213 36.2132 20.9407 0.10825 -0.994068 -0.0105675
-13.7617 36.0654 22.1982 0.120326 -0.992663 -0.0118955
-14.994 35.8778 23.4535 0.134421 -0.990761 -0.0179819
-16.5805 35.6258 25.0728 0.149409 -0.988726 -0.00991748
-17.823 35.4179 26.3451 0.159784 -0.986985 -0.0181457
-19.1711 35.1524 27.7327 0.180443 -0.98321 -0.0271578
-20.3319 34.9215 28.9301 0.191482 -0.981407 -0.0132326
-21.4753 34.669 30.1154 0.210573 -0.977419 -0.0176356
-22.4616 34.4408 31.1414 0.20674 -0.978278 -0.0152032
-23.4907 34.1952 32.216 0.21936 -0.975421 -0.0208617
-24.534 33.931 33.3094 0.224797 -0.974246 -0.0176422
-25.7417 33.629 34.5749 0.231103 -0.972769 -0.0176548
-26.7194 33.3726 35.6041 0.236011 -0.971626 -0.0155633
-27.8936 33.0655 36.8418 0.242867 -0.969933 -0.0156849
-29.2716 32.6966 38.2983 0.241302 -0.970346 -0.0142021
-30.5755 32.3509 39.6779 0.245707 -0.969272 -0.0118324
-31.5395 32.0974 40.6994 0.247632 -0.968806 -0.00970402
-32.4979 31.8396 41.7177 0.250378 -0.968107 -0.00890269
-33.8954 31.4664 43.2036 0.252138 -0.96767 -0.00634283
-34.9178 31.193 44.2918 0.251878 -0.96775 -0.00425671
-35.6767 30.9904 45.1005 0.254863 -0.966971 -0.0034717
-36.4948 30.7763 44.6791 0.254775 -0.966994 -0.00363908
-35.2457 31.1119 43.3475 0.254734 -0.966997 -0.00525772
-34.1223 31.4129 42.1519 0.25401 -0.967178 -0.00678053
-33.1411 31.6789 41.1084 0.251718 -0.967764 -0.00842139
-32.0114 31.983 39.9081 0.250935 -0.967956 -0.00968398
-30.7024 32.3332 38.5204 0.244756 -0.969486 -0.013821
-29.5143 32.6528 37.2629 0.244426 -0.969541 -0.0157028
-28.556 32.9092 36.2501 0.242838 -0.969941 -0.0156321
-27.2952 33.2437 34.92 0.236552 -0.971479 -0.0164545
-26.1794 33.537 33.7457 0.235997 -0.971565 -0.019132
-25.114 33.8157 32.6261 0.222943 -0.974471 -0.0265135
-24.1075 34.0708 31.5711 0.218049 -0.975737 -0.0198039
-22.9697 34.3442 30.3814 0.214443 -0.976652 -0.0128855
-21.953 34.5804 29.3235 0.210569 -0.97742 -0.0176549
-20.7404 34.8504 28.0662 0.197656 -0.980223 -0.00975875
-19.5445 35.107 26.8298 0.189128 -0.981763 -0.0192981
-18.5567 35.3076 25.8112 0.163787 -0.98642 -0.0122319
-17.486 35.4926 24.7134 0.14868 -0.988787 -0.0139402
-16.1642 35.7149 23.3616 0.147986 -0.988825 -0.0180162
-15.0048 35.8994 22.179 0.133474 -0.990927 -0.0157735
-13.9149 36.0604 21.0694 0.120324 -0.992663 -0.0118952
-12.8079 36.1929 19.9475 0.108396 -0.994048 -0.0109088
-11.6169 36.3227 18.7429 0.0924879 -0.995702 -0.00481282
-10.5866 36.4197 17.703 0.0873581 -0.996176 -0.00131837
-9.45548 36.5156 16.5621 0.0866389 -0.996234 0.0035254
-8.39171 36.5902 15.49 0.0733912 -0.997257 0.00959733
-7.2452 36.6596 14.3351 0.0584759 -0.998257 0.00802615
-5.88246 36.7342 12.9633 0.0570362 -0.998371 0.00168737
-4.44635 36.793 11.5194 0.0436695 -0.999011 0.00842118
-3.41269 36.8126 10.4806 0.0279936 -0.999561 0.00968561
-2.09388 36.823 9.15319 0.0210121 -0.999756 0.00686633
-0.509767 36.8365 7.55899 0.00298727 -0.999995 0.0010203
-0.29455 36.8362 7.34245 0.000269717 -0.999989 0.00461031
-1.65146 36.825 7.42739 0.011605 -0.999926 0.0035508
-3.14809 36.8022 8.93354 0.0199853 -0.9998 -0.00119426
-4.2238 36.7854 10.0158 0.035184 -0.999326 0.0105012
-5.32694 36.7512 11.1245 0.0436695 -0.999011 0.00842118
-6.67469 36.6917 12.4796 0.0519738 -0.998637 0.0047847
-8.1364 36.6018 13.9511 0.066705 -0.997772 -0.00133419
-9.40802 36.5166 15.2325 0.0737986 -0.997273 -0.000565703
-10.5277 36.4219 16.3619 0.0822953 -0.996605 -0.00262483
-11.5384 36.3366 17.3813 0.0899233 -0.995944 -0.0030639
-12.707 36.2104 18.563 0.109212 -0.994018 -0.000507783
-13.8154 36.0826 19.6852 0.117103 -0.993117 -0.00218294
-14.9355 35.9262 20.824 0.135884 -0.990676 -0.00979236
-16.1855 35.7348 22.098 0.149185 -0.988681 -0.0159347
-17.211 35.5622 23.1463 0.147967 -0.988829 -0.0179916
-18.4091 35.3489 24.3742 0.167184 -0.985826 -0.0139871
-19.392 35.1616 25.386 0.186109 -0.982438 -0.0133546
-20.4335 34.9407 26.4621 0.198604 -0.979857 -0.0209091
-21.838 34.6306 27.9157 0.204118 -0.97885 -0.0137064
-23.1831 34.3142 29.3147 0.212485 -0.977017 -0.016987
-24.188 34.075 30.3638 0.224269 -0.974391 -0.0163118
-25.2974 33.7975 31.5276 0.232825 -0.972317 -0.019817
-26.6221 33.4479 32.9203 0.235318 -0.97167 -0.0219799
-27.6707 33.1705 34.0245 0.238717 -0.970861 -0.0210409
-28.7389 32.8818 35.152 0.24103 -0.970337 -0.0187282
-30.0908 32.5175 36.5805 0.245952 -0.969155 -0.0156729
-31.3818 32.1699 37.9469 0.247719 -0.968739 -0.0134103
-32.3547 31.9038 38.9795 0.251067 -0.967878 -0.0133419
-33.5598 31.5763 40.2604 0.253242 -0.967359 -0.00926383
-34.8401 31.229 41.6224 0.254156 -0.967125 -0.00857625
-35.9607 30.9259 42.816 0.255601 -0.966766 -0.00553121
-37.2011 30.5921 44.1382 0.255493 -0.966805 -0.00346316
-38.2319 30.3204 43.9427 0.255732 -0.966741 -0.00362209
-37.066 30.6339 42.7001 0.255712 -0.96674 -0.00497374
-35.9283 30.9431 41.4871 0.256124 -0.966614 -0.00766326
-34.7039 31.2775 40.1834 0.255069 -0.966889 -0.00807822
-33.4321 31.6258 38.8306 0.252923 -0.967412 -0.0119996
-32.0958 31.9922 37.4114 0.250449 -0.968037 -0.0134325
-30.8673 32.3281 36.1099 0.245892 -0.969169 -0.0157755
-29.5387 32.6917 34.7047 0.2443 -0.969516 -0.0188581
-28.2053 33.0527 33.2971 0.242526 -0.969914 -0.0211609
-27.0522 33.3627 32.0814 0.235319 -0.97167 -0.0219786
-25.8651 33.6749 30.8324 0.232611 -0.972393 -0.0185478
-24.7269 33.9637 29.6381 0.224696 -0.974272 -0.0174819
-23.2469 34.3218 28.0931 0.212205 -0.977062 -0.0178529
-22.2025 34.5679 27.0068 0.207701 -0.978066 -0.0157501
-20.5699 34.9359 25.3167 0.204592 -0.978734 -0.0148989
-19.4703 35.165 24.1806 0.187907 -0.982095 -0.0134008
-18.3343 35.3801 23.0128 0.16836 -0.985656 -0.0116977
-17.3477 35.5593 22.0011 0.150386 -0.98853 -0.0138536
-16.1211 35.7621 20.7478 0.149627 -0.988665 -0.0123442
-14.7268 35.9676 19.3286 0.135354 -0.990771 -0.00724108
-13.5476 36.1207 18.1317 0.113872 -0.993448 -0.00968523
-12.149 36.2783 16.7166 0.102067 -0.994767 -0.00465318
-10.818 36.4005 15.3729 0.0822964 -0.996604 -0.00262329
-9.75601 36.4888 14.3017 0.081278 -0.996691 -0.000647586
-8.49977 36.5793 13.0359 0.0670916 -0.997744 -0.00218619
-7.50193 36.6465 12.0311 0.0505143 -0.998719 0.00287725
-6.20523 36.7089 10.7274 0.048789 -0.998808 0.00154632
-5.11193 36.7476 9.6286 0.0361984 -0.999338 0.00353386
-3.77087 36.7896 8.27967 0.0233522 -0.999727 0.000766515
-3.10477 36.8047 7.60928 0.0216711 -0.999765 -0.000215082
-4.45112 36.7733 7.68359 0.0233522 -0.999727 0.00076651
-5.85195 36.7189 9.09263 0.0371522 -0.999309 -0.0014925
-6.86786 36.6755 10.1136 0.048523 -0.99882 0.00211939
-8.15965 36.6061 11.4127 0.0633525 -0.997991 0.000253196
-9.15927 36.538 12.419 0.0656001 -0.997836 -0.00437446
-10.4064 36.4361 13.6761 0.0815667 -0.996668 -0.000176069
-11.4219 36.3524 14.7001 0.090427 -0.995901 -0.00184524
-12.5059 36.2439 15.7957 0.0985504 -0.995131 -0.00106861
-13.7885 36.1011 17.0935 0.105515 -0.994393 -0.00695473
-15.0297 35.9341 18.354 0.127012 -0.991861 -0.00897859
-16.2003 35.7674 19.5445 0.140068 -0.989977 -0.0180686
-17.4334 35.5626 20.8043 0.158535 -0.987235 -0.0152848
-18.5763 35.3511 21.9767 0.168474 -0.985635 -0.0118345
-19.6502 35.1431 23.0813 0.190129 -0.981692 -0.0114824
-20.6353 34.9403 24.0982 0.197327 -0.980251 -0.0130468
-22.365 34.5514 25.8891 0.2077 -0.978066 -0.0157472
-23.4172 34.306 26.9821 0.211785 -0.97714 -0.0185392
-24.7245 33.9896 28.3449 0.222541 -0.974724 -0.0197009
-26.0341 33.6579 29.7177 0.229958 -0.972971 -0.0211518
-27.0955 33.381 30.8339 0.235348 -0.971634 -0.0232062
-28.2277 33.0756 32.0281 0.243244 -0.969685 -0.0233287
-29.5122 32.724 33.3851 0.242376 -0.969944 -0.0215085
-31.0195 32.3079 34.9789 0.24673 -0.968928 -0.0173818
-32.1423 31.9986 36.168 0.251265 -0.967786 -0.0159884
-33.604 31.5949 37.7194 0.253254 -0.967307 -0.01337
-34.5852 31.3255 38.7628 0.254553 -0.966989 -0.0115737
-35.8614 30.9722 40.1215 0.255404 -0.966785 -0.00975074
-36.8989 30.6878 41.2273 0.25627 -0.966574 -0.00774404
-38.0592 30.3728 42.4643 0.255308 -0.966848 -0.0048597
-38.6699 30.2082 43.1151 0.255428 -0.966816 -0.00491523
-39.7565 29.9217 42.9783 0.255549 -0.966783 -0.00497144
-38.5782 30.2394 41.7224 0.255466 -0.966797 -0.00631183
-37.266 30.598 40.3234 0.256347 -0.966545 -0.0088255
-36.1178 30.9148 39.0995 0.255946 -0.966633 -0.0106027
-34.718 31.3042 37.6097 0.256146 -0.966537 -0.0139689
-33.1618 31.737 35.9562 0.253724 -0.967149 -0.0157382
-31.8107 32.1123 34.5246 0.251591 -0.967666 -0.0180251
-30.5624 32.4596 33.2029 0.247511 -0.968698 -0.0190606
-29.5089 32.7527 32.0885 0.245564 -0.96916 -0.0206514
-28.5024 33.031 31.0246 0.243026 -0.969731 -0.0236805
-27.2018 33.3835 29.6524 0.232599 -0.972325 -0.0219597
-25.8055 33.746 28.1861 0.22633 -0.97383 -0.0207153
-24.2696 34.1288 26.5809 0.217136 -0.975955 -0.0190533
-23.2773 34.3604 25.55 0.210677 -0.977422 -0.0161907
-21.6836 34.7242 23.8975 0.204457 -0.978768 -0.014492
-20.0781 35.0709 22.238 0.182574 -0.982984 -0.0202459
-18.953 35.3001 21.0785 0.173136 -0.984769 -0.0159545
-17.8052 35.5169 19.9005 0.158533 -0.987235 -0.0152843
-16.7902 35.6906 18.8631 0.153323 -0.987946 -0.0213261
-15.6495 35.861 17.7013 0.125688 -0.992035 -0.00831182
-14.5274 36.0181 16.5606 0.128418 -0.991638 -0.0127808
-13.4764 36.1474 15.4951 0.111456 -0.993751 -0.00610362
-12.3766 36.2595 14.3836 0.0976787 -0.995213 -0.00314899
-11.3576 36.3583 13.3543 0.0884933 -0.996077 0.000119283
-9.99574 36.4747 11.9811 0.0839053 -0.996463 -0.00452438
-8.78909 36.566 10.7658 0.0610726 -0.998128 -0.0031307
-7.69536 36.6369 9.66557 0.0508165 -0.998696 -0.0048448
-6.67138 36.6871 8.63648 0.0436271 -0.999037 -0.00475207
-5.56094 36.7403 7.51962 0.0407442 -0.999155 -0.00547557
-6.91666 36.681 7.60293 0.0422207 -0.999081 -0.00739136
-8.05567 36.6203 8.74817 0.0577505 -0.99832 -0.00461767
-9.31651 36.5398 10.0162 0.0587897 -0.998249 -0.00651097
-10.3648 36.4514 11.0722 0.0807409 -0.996687 -0.00981081
-11.5028 36.3446 12.2202 0.0957668 -0.995385 -0.00608767
-12.8834 36.2122 13.6145 0.0965453 -0.995328 -0.00136561
-13.9446 36.0947 14.6884 0.115135 -0.993349 -0.00159913
-14.9852 35.9684 15.7431 0.125573 -0.992059 -0.0070443
-16.1674 35.7943 16.9464 0.140211 -0.990109 -0.00494311
-17.5394 35.581 18.3452 0.15886 -0.987231 -0.0117991
-18.9051 35.3267 19.7451 0.179393 -0.98369 -0.0131137
-20.1631 35.0786 21.0393 0.181033 -0.983378 -0.0139393
-21.2653 34.8465 22.1772 0.195977 -0.980382 -0.0210843
-22.4445 34.5823 23.3981 0.19691 -0.980157 -0.0227783
-23.5777 34.3131 24.575 0.209538 -0.977645 -0.0174181
-25.0096 33.9713 26.0649 0.2214 -0.974978 -0.0200258
-26.0337 33.7159 27.1349 0.226839 -0.97369 -0.0217055
-27.2557 33.3967 28.4173 0.231374 -0.972653 -0.020281
-28.3308 33.1071 29.5506 0.240472 -0.970408 -0.0219309
-29.4164 32.8089 30.6971 0.24596 -0.968983 -0.0240054
-30.3991 32.5347 31.736 0.246874 -0.968813 -0.0213173
-31.3647 32.264 32.7585 0.249228 -0.968211 -0.0212818
-32.3492 31.9863 33.8027 0.252351 -0.967441 -0.019421
-34.0274 31.5161 35.5822 0.254162 -0.967011 -0.0170448
-35.5678 31.0847 37.2196 0.256601 -0.966398 -0.0151646
-36.95 30.6995 38.6911 0.255516 -0.966728 -0.012159
-37.9983 30.4093 39.8089 0.255721 -0.966681 -0.0116132
-39.4007 30.0255 41.3038 0.255301 -0.966827 -0.00815578
-40.5189 29.7231 42.4953 0.255019 -0.966921 -0.00534561
-41.2895 29.5224 42.0208 0.256068 -0.966641 -0.00590002
-39.9214 29.8942 40.5631 0.255365 -0.96681 -0.00817334
-38.9555 30.159 39.5336 0.256149 -0.966567 -0.0116924
-37.8417 30.4681 38.3461 0.255517 -0.966728 -0.0121579
-36.6382 30.8035 37.0644 0.255715 -0.966668 -0.0127782
-35.0203 31.2595 35.3433 0.254943 -0.966843 -0.0147952
-33.3976 31.7163 33.6216 0.253903 -0.967045 -0.0189101
-32.1095 32.0821 32.2533 0.251528 -0.967608 -0.0216295
-30.7677 32.4614 30.8323 0.248866 -0.968258 -0.0232929
-29.721 32.7547 29.7257 0.247481 -0.968617 -0.0231306
-28.5343 33.081 28.4727 0.24082 -0.970322 -0.0219501
-27.4878 33.3634 27.3695 0.231734 -0.97254 -0.0215689
-26.2582 33.6871 26.0803 0.22684 -0.97369 -0.0217024
-25.1003 33.9745 24.8715 0.221224 -0.975028 -0.0194971
-23.7329 34.3055 23.4485 0.21201 -0.976957 -0.0246363
-22.4392 34.6134 22.1051 0.196443 -0.98027 -0.0219317
-21.1292 34.9042 20.7493 0.189528 -0.981735 -0.0165697
-20.0445 35.1203 19.6318 0.183289 -0.982946 -0.0149424
-19.0512 35.3185 18.6106 0.17836 -0.983812 -0.0173623
-17.6134 35.5835 17.1378 0.16453 -0.986318 -0.0103515
-16.1997 35.8036 15.6966 0.140537 -0.990042 -0.0081393
-15.0537 35.9664 14.531 0.116062 -0.993237 -0.00328491
-13.6517 36.1335 13.1106 0.110737 -0.993841 -0.00405591
-12.5272 36.2488 11.974 0.0937507 -0.995592 -0.00276349
-11.278 36.3809 10.7121 0.0892629 -0.995962 -0.0096108
-10.2759 36.4692 9.7022 0.0793166 -0.996824 -0.00710856
-8.86376 36.5763 8.28094 0.0568251 -0.998365 -0.00612105
-8.14993 36.6213 7.56323 0.0578398 -0.998296 -0.00774592
-9.60322 36.5375 7.74465 0.0654221 -0.997835 -0.00673847
-11.1209 36.409 9.27284 0.0761958 -0.997024 -0.0116935
-12.4518 36.2686 10.6168 0.0938713 -0.995449 -0.0163927
-13.7476 36.1246 11.927 0.108919 -0.99405 -0.00131011
-14.9534 35.9858 13.1478 0.112552 -0.993623 -0.00680177
-16.1671 35.8188 14.3811 0.136526 -0.990539 -0.0138607
-17.3864 35.6321 15.6235 0.151286 -0.988464 -0.00721215
-18.7364 35.3908 17.0051 0.167838 -0.985636 -0.0187632
-19.9978 35.1524 18.2987 0.181071 -0.983318 -0.0172691
-21.0182 34.9432 19.3497 0.183783 -0.982817 -0.0171751
-22.3353 34.6636 20.7103 0.196247 -0.980342 -0.0204276
-23.3556 34.4298 21.7683 0.212347 -0.976824 -0.0269156
-24.8516 34.0659 23.3236 0.217305 -0.975758 -0.0259713
-26.053 33.7646 24.5776 0.220791 -0.975118 -0.0199285
-27.2862 33.4459 25.8689 0.233186 -0.972185 -0.0219215
-28.7206 33.0597 27.3767 0.240802 -0.970287 -0.0236012
-29.8563 32.7481 28.5755 0.247557 -0.968587 -0.023542
-31.114 32.3947 29.9051 0.248866 -0.968258 -0.0232929
-32.5199 31.9944 31.3938 0.250297 -0.967914 -0.0222244
-33.5524 31.6994 32.4909 0.255187 -0.966673 -0.0205747
-35.1069 31.2586 34.1417 0.253534 -0.967163 -0.0177642
-36.0625 30.9867 35.1571 0.255838 -0.966587 -0.0160355
-37.3927 30.6098 36.5728 0.256901 -0.966332 -0.0143004
-38.382 30.3343 37.6266 0.256274 -0.966528 -0.0121433
-39.4323 30.0422 38.746 0.256148 -0.966567 -0.0116947
-40.768 29.6748 40.1692 0.252958 -0.967417 -0.0107862
-41.7708 29.4003 41.2378 0.255185 -0.96683 -0.0109229
-41.9685 29.3458 41.4489 0.255849 -0.966677 -0.00878743
-42.5987 29.1865 40.8236 0.25515 -0.966841 -0.0108647
-41.0383 29.6153 39.1603 0.253022 -0.967398 -0.0109816
-39.6477 29.998 37.6796 0.256223 -0.966544 -0.0119222
-38.5734 30.2973 36.5352 0.256274 -0.966528 -0.0121433
-37.6106 30.5698 35.5096 0.257547 -0.966126 -0.0164633
-36.3003 30.943 34.1158 0.256487 -0.966371 -0.018465
-35.2356 31.2461 32.9849 0.253901 -0.967045 -0.0189114
-34.2163 31.5383 31.9009 0.252821 -0.967209 -0.0242521
-32.9773 31.8962 30.5842 0.251675 -0.967501 -0.0245284
-31.8019 32.2308 29.3395 0.250383 -0.967806 -0.025691
-30.6549 32.5557 28.1265 0.2454 -0.96909 -0.0253585
-29.5323 32.8696 26.9414 0.23982 -0.970482 -0.0255175
-28.3821 33.1862 25.7294 0.236931 -0.971242 -0.0235129
-27.0461 33.5397 24.3277 0.233457 -0.972091 -0.0231875
-25.9287 33.8245 23.1596 0.222603 -0.974527 -0.0272977
-24.4241 34.2024 21.5915 0.212347 -0.976824 -0.0269137
-23.2737 34.4818 20.3948 0.196802 -0.980234 -0.0202321
-22.1491 34.7316 19.2302 0.196321 -0.9803 -0.0216569
-21.1474 34.9407 18.1974 0.176879 -0.983917 -0.0249257
-20.0703 35.1625 17.0879 0.171252 -0.984973 -0.0223846
-18.8344 35.3966 15.821 0.167837 -0.985636 -0.0187632
-17.837 35.5692 14.8011 0.151852 -0.988343 -0.0109432
-16.5769 35.7745 13.515 0.133523 -0.991001 -0.00941576
-15.38 35.9382 12.2992 0.128718 -0.991644 -0.00860254
-13.8941 36.1172 10.7943 0.105152 -0.994407 -0.00991822
-12.8822 36.2419 9.77022 0.101333 -0.994733 -0.0154231
-11.4575 36.3943 8.33108 0.0843012 -0.996362 -0.0124977
-10.4989 36.4738 7.3662 0.0740178 -0.99723 -0.00735561
-11.6519 36.3935 7.24711 0.0885851 -0.995942 -0.0158992
-13.0794 36.2348 8.68869 0.0965966 -0.99528 -0.00931126
-14.2502 36.0907 9.87351 0.108547 -0.993973 -0.0153329
-15.6675 35.9111 11.3094 0.122689 -0.992425 -0.00631458
-17.0855 35.7144 12.7498 0.138779 -0.99025 -0.0120725
-18.1401 35.5369 13.8271 0.152174 -0.98824 -0.0149788
-19.6997 35.2579 15.4232 0.165576 -0.986001 -0.0196793
-21.1439 34.974 16.9068 0.176922 -0.983905 -0.0250892
-22.1238 34.7723 17.9162 0.187573 -0.981908 -0.025947
-23.4081 34.4797 19.2468 0.195832 -0.980366 -0.02308
-24.6644 34.1807 20.5521 0.215921 -0.976057 -0.0262991
-26.1839 33.7949 22.137 0.222294 -0.974589 -0.0275873
-27.1984 33.5315 23.1972 0.229643 -0.972856 -0.0285381
-28.7047 33.1319 24.7783 0.233229 -0.972018 -0.0280092
-30.1377 32.738 26.2878 0.238967 -0.970681 -0.0259362
-31.8105 32.265 28.0546 0.24799 -0.968403 -0.026387
-32.8894 31.9532 29.1972 0.250381 -0.967807 -0.0256932
-33.9846 31.6383 30.3587 0.253168 -0.967097 -0.0250823
-34.9508 31.3594 31.3855 0.25375 -0.966981 -0.0236551
-36.2582 30.9819 32.7762 0.253994 -0.96696 -0.0218063
-37.4236 30.6491 34.0144 0.254965 -0.966714 -0.0213725
-38.6098 30.3093 35.2777 0.255476 -0.966636 -0.0185993
-39.9328 29.9371 36.6871 0.253357 -0.967243 -0.0158714
-41.0737 29.6216 37.9018 0.250841 -0.967927 -0.0140005
-42.295 29.285 39.2027 0.254123 -0.96709 -0.01262
-43.2789 29.0134 40.2518 0.255186 -0.96683 -0.0109233
-43.6056 28.9233 40.6006 0.254656 -0.96697 -0.0109408
-44.0287 28.823 39.7536 0.253558 -0.967223 -0.0136736
-42.8676 29.1454 38.5149 0.253065 -0.967343 -0.0143774
-41.3927 29.5528 36.944 0.251195 -0.967822 -0.014849
-40.3491 29.842 35.8336 0.252453 -0.96748 -0.0157823
-39.1665 30.1758 34.574 0.254683 -0.966851 -0.0183229
-38.1515 30.468 33.4932 0.256036 -0.966421 -0.0218
-37.0268 30.7912 32.2972 0.254096 -0.966913 -0.0226665
-35.9893 31.0902 31.1939 0.254847 -0.966704 -0.0231497
-34.8019 31.4358 29.9311 0.252782 -0.96719 -0.0253748
-33.6689 31.7651 28.7285 0.25138 -0.967457 -0.0288979
-32.2144 32.1849 27.1883 0.250107 -0.96782 -0.0277482
-31.2365 32.4644 26.1555 0.245916 -0.96885 -0.0292256
-30.2326 32.7465 25.0966 0.238876 -0.970637 -0.0283113
-28.9791 33.0946 23.7746 0.237082 -0.971067 -0.0286572
-27.3661 33.5259 22.0824 0.229919 -0.972756 -0.0297132
-25.9489 33.8923 20.6024 0.222384 -0.974556 -0.028032
-24.9287 34.1495 19.5391 0.215921 -0.976057 -0.0262991
-23.9352 34.3919 18.5052 0.2051 -0.978475 -0.0228242
-22.8917 34.6305 17.424 0.198245 -0.979782 -0.0269635
-21.5491 34.9234 16.0373 0.176922 -0.983905 -0.0250892
-20.2211 35.1865 14.6727 0.164585 -0.986088 -0.0232882
-19.0515 35.4012 13.4746 0.157656 -0.987381 -0.0149319
-17.9959 35.5799 12.396 0.150629 -0.988519 -0.0119153
-16.6439 35.7922 11.0184 0.124802 -0.992138 -0.00927305
-15.111 35.9968 9.46418 0.119337 -0.992767 -0.013126
-13.9933 36.1438 8.33198 0.113307 -0.993458 -0.014202
-12.9733 36.265 7.30105 0.0975083 -0.995024 -0.0204754
-12.7992 36.2857 7.12521 0.0975084 -0.995024 -0.0204753
-14.3909 36.1093 7.45383 0.117557 -0.992932 -0.0163172
-15.7123 35.9334 8.7924 0.119335 -0.992767 -0.0131288
-17.2609 35.72 10.3633 0.136546 -0.990537 -0.0138522
-18.2994 35.548 11.4227 0.143794 -0.989396 -0.0204761
-19.6483 35.3161 12.8012 0.157657 -0.987381 -0.0149305
-20.8702 35.0928 14.0528 0.164585 -0.986088 -0.0232882
-22.3757 34.7828 15.6023 0.179616 -0.983476 -0.0226371
-23.7459 34.47 17.021 0.197073 -0.979972 -0.0285758
-24.8545 34.2008 18.1737 0.208147 -0.97747 -0.0350269
-25.8837 33.9462 19.2454 0.219154 -0.975312 -0.0271626
-27.5328 33.5204 20.9666 0.222337 -0.974573 -0.0278089
-29.0944 33.1017 22.6032 0.233352 -0.971861 -0.0321532
-30.1567 32.8085 23.7228 0.238327 -0.970741 -0.0293616
-31.3738 32.4645 25.0077 0.245724 -0.968853 -0.0307242
-32.541 32.1312 26.2398 0.247684 -0.96836 -0.0305055
-34.0592 31.69 27.8475 0.25138 -0.967457 -0.028897
-35.1176 31.3784 28.9707 0.252953 -0.967086 -0.0275424
-36.1547 31.0758 30.0733 0.255088 -0.966553 -0.0265479
-37.1546 30.7848 31.1369 0.25288 -0.967214 -0.0234262
-38.1274 30.5059 32.171 0.253296 -0.967069 -0.0248712
-39.2236 30.1885 33.3379 0.254676 -0.966755 -0.0229074
-40.2281 29.9019 34.407 0.252044 -0.967519 -0.0195253
-41.5564 29.5295 35.821 0.250508 -0.967941 -0.0183526
-42.6175 29.2343 36.9508 0.252893 -0.967383 -0.0146464
-43.6955 28.9352 38.0994 0.253037 -0.967338 -0.0151487
-44.7765 28.634 39.2528 0.253559 -0.967223 -0.0136716
-45.5326 28.4453 38.7599 0.249497 -0.968237 -0.016389
-44.3011 28.787 37.4464 0.253038 -0.967338 -0.0151473
-42.8508 29.1928 35.9005 0.251353 -0.967713 -0.0188159
-41.592 29.5441 34.5613 0.25062 -0.967912 -0.0183095
-40.3734 29.8892 33.2645 0.252096 -0.96746 -0.021667
-39.2218 30.2208 32.0387 0.254927 -0.966623 -0.0255573
-37.8623 30.6143 30.5926 0.251629 -0.967531 -0.0238049
-36.5793 30.9882 29.2272 0.253457 -0.966948 -0.0277593
-35.345 31.352 27.9164 0.250933 -0.967504 -0.0311325
-33.6864 31.8381 26.1584 0.249871 -0.967767 -0.0314908
-32.3993 32.211 24.7972 0.245721 -0.968854 -0.0307247
-31.1878 32.5608 23.517 0.24256 -0.969636 -0.0311633
-29.472 33.0405 21.7082 0.237572 -0.970778 -0.0338928
-27.91 33.4631 20.0708 0.224653 -0.973906 -0.0322325
-26.7838 33.7534 18.8955 0.220112 -0.974878 -0.0341271
-25.758 34.0202 17.8247 0.212796 -0.97652 -0.0335554
-24.7093 34.2792 16.733 0.204628 -0.978405 -0.0291886
-23.3462 34.5974 15.3193 0.195913 -0.980285 -0.0256689
-21.8321 34.9249 13.7569 0.179131 -0.983541 -0.0236292
-20.7651 35.1422 12.6597 0.160964 -0.986726 -0.021521
-19.6135 35.3509 11.4807 0.152409 -0.988064 -0.0223786
-18.3764 35.5609 10.2173 0.143433 -0.9895 -0.0178069
-16.9861 35.7715 8.80347 0.129653 -0.99151 -0.00989726
-15.7899 35.9414 7.59014 0.1223 -0.992396 -0.0139139
-15.6473 35.961 7.44561 0.119828 -0.992682 -0.0149623
-16.7701 35.8246 7.30289 0.125451 -0.991971 -0.0159826
-18.1322 35.6228 8.6854 0.129129 -0.991529 -0.0139729
-19.4651 35.4032 10.0445 0.157457 -0.9874 -0.0157509
-20.5327 35.2094 11.1375 0.165823 -0.986034 -0.0154985
-21.9756 34.927 12.6185 0.177884 -0.983804 -0.0220835
-23.5143 34.5959 14.2055 0.193364 -0.980727 -0.0280134
-24.9037 34.2734 15.6456 0.202275 -0.978834 -0.0311342
-26.1713 33.9596 16.9656 0.212838 -0.976484 -0.0343483
-27.4823 33.6173 18.3343 0.220454 -0.974658 -0.0379856
-28.8304 33.2573 19.7446 0.229527 -0.972701 -0.0341991
-29.8172 32.9885 20.7792 0.233352 -0.971861 -0.0321531
-31.4401 32.5318 22.4892 0.239873 -0.970133 -0.0361004
-32.4918 32.2278 23.6008 0.242731 -0.969455 -0.0351856
-33.4908 31.9379 24.6569 0.247842 -0.968193 -0.0342904
-34.6385 31.6031 25.8718 0.248055 -0.968199 -0.032537
-35.5924 31.3211 26.8829 0.250987 -0.967386 -0.0341895
-36.5467 31.04 27.8955 0.253394 -0.966819 -0.0324357
-37.5228 30.7494 28.9325 0.253425 -0.966887 -0.0300971
-38.8693 30.3584 30.3662 0.252281 -0.96726 -0.0276227
-40.3308 29.9324 31.9214 0.251221 -0.967572 -0.0263112
-41.5178 29.5951 33.1838 0.249341 -0.968125 -0.0237163
-42.4907 29.3178 34.2193 0.250626 -0.96785 -0.0212999
-43.6591 28.991 35.4629 0.251973 -0.96754 -0.019369
-44.7142 28.6937 36.5881 0.251028 -0.967782 -0.0195932
-45.8887 28.3689 37.8398 0.249395 -0.968266 -0.0162175
-46.3762 28.2574 37.0592 0.248751 -0.968407 -0.0176286
-44.8137 28.6925 35.3941 0.250083 -0.968022 -0.0198162
-43.7492 28.991 34.26 0.250626 -0.96785 -0.0212996
-42.7209 29.2847 33.1654 0.250516 -0.967807 -0.0243359
-41.4843 29.637 31.8497 0.249486 -0.968043 -0.0254857
-40.1115 30.0328 30.3895 0.252988 -0.967075 -0.0276027
-38.7424 30.4317 28.932 0.251542 -0.967465 -0.0271757
-37.7581 30.7237 27.8853 0.25187 -0.967188 -0.0333003
-36.7957 31.0095 26.8632 0.251904 -0.967118 -0.0350209
-35.332 31.4442 25.3112 0.249522 -0.967794 -0.0333636
-34.2217 31.7704 24.1351 0.24763 -0.968184 -0.0360425
-32.5489 32.2583 22.366 0.242984 -0.969353 -0.0362531
-31.3363 32.6075 21.0849 0.236444 -0.971021 -0.0348077
-30.1984 32.9304 19.8872 0.232615 -0.971879 -0.0366337
-29.0361 33.2472 18.6688 0.228795 -0.972795 -0.0363647
-27.911 33.5518 17.4917 0.223672 -0.974017 -0.03551
-26.5876 33.8995 16.109 0.21465 -0.976109 -0.0337038
-25.2295 34.2358 14.6951 0.202094 -0.978891 -0.0305116
-23.8355 34.5596 13.2503 0.193282 -0.980751 -0.0277273
-22.2355 34.9007 11.601 0.177236 -0.983969 -0.0198341
-21.2033 35.106 10.541 0.165827 -0.986033 -0.0154981
-19.8583 35.3545 9.16338 0.157455 -0.987401 -0.0157555
-18.7969 35.5397 8.07966 0.143395 -0.989466 -0.0198891
-18.5598 35.5762 7.83881 0.137762 -0.990362 -0.0143409
-19.4212 35.4622 7.43303 0.143398 -0.989465 -0.0198867
-20.5319 35.2628 8.56813 0.153117 -0.9879 -0.0246559
-21.7857 35.0226 9.85363 0.171688 -0.984763 -0.027676
-23.1267 34.7513 11.2316 0.17328 -0.984594 -0.0234275
-24.1412 34.5256 12.2793 0.194522 -0.980538 -0.0265586
-25.462 34.2196 13.6476 0.202831 -0.978766 -0.0295972
-26.7152 33.9115 14.9515 0.21474 -0.976074 -0.0341409
-28.2937 33.4964 16.6017 0.224033 -0.973873 -0.037155
-29.8018 33.086 18.1802 0.228924 -0.972708 -0.0378658
-31.1114 32.7211 19.5547 0.23656 -0.970858 -0.0384011
-32.0934 32.4409 20.5877 0.236503 -0.970941 -0.0366044
-33.4339 32.0501 22.0061 0.243228 -0.969249 -0.0373663
-34.8465 31.6346 23.5006 0.246213 -0.968507 -0.0370648
-36.123 31.2563 24.8535 0.249451 -0.96769 -0.0367423
-37.1893 30.9404 25.9836 0.250637 -0.967412 -0.0359868
-38.5477 30.5339 27.4265 0.252129 -0.967116 -0.0334365
-39.6983 30.1911 28.6507 0.251966 -0.967259 -0.0303743
-41.1195 29.7758 30.1634 0.250596 -0.967674 -0.0284315
-42.6112 29.3494 31.7494 0.248621 -0.968259 -0.0257202
-43.8554 28.9948 33.0732 0.248327 -0.968322 -0.0261815
-45.5192 28.5219 34.8455 0.247896 -0.96848 -0.024364
-46.8281 28.1562 36.2405 0.249129 -0.96831 -0.0176204
-47.1647 28.0629 36.5994 0.249505 -0.968213 -0.0176121
-47.263 28.0617 35.4027 0.247008 -0.968733 -0.0233147
-45.7207 28.4977 33.7581 0.247896 -0.96848 -0.024364
-44.6304 28.8089 32.5973 0.248498 -0.968277 -0.0262267
-43.0895 29.2477 30.9585 0.248201 -0.968371 -0.0255707
-41.5618 29.6857 29.3346 0.249369 -0.968007 -0.0278837
-40.2397 30.0751 27.9277 0.252224 -0.967079 -0.0337758
-39.1789 30.391 26.7995 0.25214 -0.966983 -0.0369926
-38.1945 30.6873 25.7538 0.251933 -0.967047 -0.0367417
-36.8783 31.0811 24.3571 0.249565 -0.967602 -0.0382496
-35.6631 31.4435 23.0686 0.246213 -0.968507 -0.0370667
-34.2745 31.8562 21.5992 0.244342 -0.968794 -0.0416621
-33.0503 32.2158 20.3037 0.240553 -0.969765 -0.041117
-31.7381 32.5943 18.9208 0.235364 -0.971116 -0.0392132
-30.2944 33.0005 17.4053 0.227641 -0.972975 -0.0387144
-29.3178 33.2692 16.3823 0.223853 -0.973946 -0.0363325
-27.9038 33.6514 14.9015 0.220368 -0.974596 -0.0400154
-26.5588 33.9968 13.4977 0.208813 -0.977433 -0.0319672
-25.2005 34.3206 12.088 0.198654 -0.97967 -0.0279797
-24.2048 34.5519 11.0573 0.195756 -0.980114 -0.0324938
-23.0092 34.8076 9.82542 0.173674 -0.984372 -0.0291454
-21.7903 35.0559 8.57292 0.169702 -0.985147 -0.0262074
-21.211 35.172 7.97818 0.161726 -0.986494 -0.0259611
-22.711 34.9064 8.23269 0.169669 -0.985124 -0.02728
-24.2143 34.5939 9.77877 0.186285 -0.982029 -0.0302732
-25.2979 34.3408 10.9007 0.1931 -0.980566 -0.0346818
-26.7029 34.0032 12.3585 0.200743 -0.979148 -0.0311706
-27.7476 33.7394 13.4468 0.212692 -0.976463 -0.0357919
-28.8693 33.4447 14.6194 0.220368 -0.974596 -0.0400153
-29.9299 33.1552 15.731 0.226476 -0.973106 -0.0421142
-31.4276 32.7395 17.3009 0.227641 -0.972975 -0.0387144
-32.4946 32.431 18.4234 0.235418 -0.971022 -0.0411679
-33.7842 32.0559 19.7841 0.240059 -0.969849 -0.0420095
-34.9697 31.705 21.0384 0.244341 -0.968794 -0.0416623
-36.1786 31.3433 22.3179 0.243522 -0.968947 -0.0428785
-37.2161 31.0326 23.4174 0.245761 -0.96844 -0.0415463
-38.2255 30.7297 24.4883 0.248689 -0.967646 -0.0425972
-39.413 30.3733 25.7494 0.248992 -0.967752 -0.0381893
-40.3868 30.0766 26.785 0.252138 -0.966984 -0.036992
-41.8138 29.6513 28.3033 0.251171 -0.967324 -0.0346004
-43.2518 29.2362 29.8318 0.248023 -0.968327 -0.0287566
-44.7242 28.8172 31.3967 0.247677 -0.96849 -0.0261379
-45.6853 28.5428 32.4196 0.248671 -0.968232 -0.0262714
-46.8975 28.1976 33.7107 0.247665 -0.96854 -0.0243553
-47.3083 28.0817 34.1487 0.247434 -0.968599 -0.0243462
-47.3296 28.1086 32.8686 0.247655 -0.968505 -0.025806
-45.9834 28.4934 31.4352 0.248314 -0.96831 -0.026776
-44.2835 28.9784 29.6279 0.247152 -0.968609 -0.0267031
-42.8705 29.3848 28.1269 0.249135 -0.967937 -0.0320854
-41.846 29.6892 27.0374 0.250027 -0.967593 -0.0353713
-40.7476 30.0214 25.8692 0.249539 -0.967477 -0.041459
-39.4505 30.4149 24.4905 0.248595 -0.967677 -0.0424361
-38.4068 30.732 23.381 0.247272 -0.968029 -0.0421509
-37.3573 31.0484 22.2682 0.24566 -0.968244 -0.0464211
-36.328 31.3569 21.1789 0.242136 -0.969274 -0.0433457
-35.1017 31.7228 19.8812 0.242606 -0.96907 -0.0452278
-33.9634 32.06 18.6775 0.23941 -0.969994 -0.0423532
-32.6142 32.4539 17.2558 0.234451 -0.971149 -0.0436042
-31.5658 32.7528 16.1542 0.227822 -0.972838 -0.0410209
-30.4765 33.0591 15.0111 0.226476 -0.973106 -0.0421144
-29.336 33.3716 13.8152 0.219299 -0.974867 -0.0392764
-27.943 33.7372 12.3598 0.212765 -0.976426 -0.0363816
-26.9406 33.9876 11.3165 0.201651 -0.978848 -0.034541
-25.8414 34.2594 10.1749 0.197831 -0.979564 -0.0362966
-24.8656 34.4873 9.16452 0.193102 -0.980565 -0.0347019
-23.971 34.6786 8.24304 0.179421 -0.98333 -0.0295114
-25.8237 34.3078 8.86814 0.196377 -0.979965 -0.0332275
-27.1227 33.9936 10.2156 0.201462 -0.978701 -0.0394668
-28.1014 33.7448 11.2343 0.21161 -0.976492 -0.0410465
-29.1146 33.4849 12.2907 0.212324 -0.976513 -0.0366207
-30.1785 33.1987 13.4041 0.221841 -0.974207 -0.0413246
-31.1435 32.9315 14.4167 0.224785 -0.973381 -0.0447366
-32.4396 32.5648 15.7777 0.231848 -0.971577 -0.0477938
-33.7945 32.1713 17.2036 0.23445 -0.97115 -0.0436047
-35.1048 31.7825 18.5869 0.238466 -0.969988 -0.0475002
-36.2113 31.4519 19.7578 0.241238 -0.969392 -0.0456332
-37.5706 31.0457 21.1958 0.243899 -0.968761 -0.044883
-38.8704 30.6497 22.5738 0.246861 -0.967903 -0.0471561
-40.1209 30.2682 23.903 0.24878 -0.967637 -0.0422702
-41.1019 29.9697 24.9457 0.249348 -0.967461 -0.0429589
-42.1676 29.6458 26.079 0.249998 -0.967344 -0.0417969
-43.16 29.3476 27.1344 0.244808 -0.968687 -0.0414071
-44.389 28.9865 28.4405 0.245085 -0.968979 -0.0318202
-45.951 28.5388 30.1 0.248379 -0.968288 -0.0269601
-47.0783 28.2164 31.2991 0.248221 -0.968333 -0.0267689
-47.2209 28.2157 30.1485 0.244736 -0.969012 -0.0334586
-46.1072 28.5364 28.9641 0.244044 -0.969159 -0.0342635
-45.0188 28.8518 27.808 0.242472 -0.969528 -0.034973
-43.9903 29.1557 26.7156 0.244714 -0.968711 -0.0413948
-42.851 29.4972 25.5043 0.246015 -0.968306 -0.043125
-41.7963 29.8167 24.3831 0.242003 -0.969163 -0.0464479
-40.7919 30.1225 23.3156 0.245325 -0.968127 -0.0504493
-39.7339 30.4478 22.1914 0.247532 -0.967688 -0.0480399
-38.2677 30.8956 20.6362 0.24497 -0.968278 -0.0492746
-36.7758 31.3444 19.0572 0.241645 -0.969275 -0.0459708
-35.7982 31.64 18.0224 0.239179 -0.969746 -0.0488572
-34.7914 31.9392 16.9598 0.238464 -0.969989 -0.0475006
-33.7968 32.2315 15.9116 0.23357 -0.971066 -0.0497501
-32.4878 32.6121 14.5336 0.230123 -0.972081 -0.0458407
-31.3315 32.9381 13.3193 0.222726 -0.973729 -0.0473848
-30.2044 33.247 12.1382 0.21741 -0.975162 -0.0423215
-29.064 33.5503 10.9466 0.210892 -0.976451 -0.0454741
-27.8086 33.8745 9.63833 0.206171 -0.977718 -0.0395056
-27.5678 33.9354 9.38771 0.203817 -0.978212 -0.0394883
-29.1715 33.5821 9.76632 0.208175 -0.977018 -0.0458231
-30.2066 33.3063 10.8471 0.21501 -0.975528 -0.0459947
-31.3709 32.9901 12.0657 0.22007 -0.974452 -0.0448533
-32.5392 32.6617 13.2922 0.22677 -0.972722 -0.0488564
-33.7459 32.3129 14.5617 0.231847 -0.971577 -0.0477972
-34.9956 31.9453 15.8782 0.234017 -0.970909 -0.05072
-36.1325 31.6042 17.0788 0.237017 -0.970205 -0.0502565
-37.3541 31.2372 18.3703 0.238892 -0.969742 -0.0503128
-38.3442 30.9401 19.4177 0.240687 -0.969317 -0.0499351
-39.6349 30.5434 20.7866 0.243746 -0.968429 -0.0522769
-40.7614 30.1975 21.9823 0.243898 -0.968615 -0.0479381
-41.9174 29.8438 23.2098 0.243451 -0.968609 -0.0502803
-43.3691 29.4025 24.753 0.244896 -0.968356 -0.048096
-44.8635 28.9513 26.3416 0.240953 -0.969474 -0.0454075
-46.3164 28.5229 27.8848 0.244428 -0.969027 -0.0352495
-47.4043 28.2077 29.0408 0.244735 -0.969013 -0.0334593
-47.4599 28.2405 27.7976 0.242146 -0.969397 -0.0404413
-46.4842 28.5266 26.761 0.2412 -0.969628 -0.0405496
-45.2823 28.8874 25.4842 0.241255 -0.96921 -0.0492826
-43.849 29.3231 23.9605 0.238044 -0.969935 -0.0506128
-42.7858 29.6453 22.8304 0.242889 -0.968669 -0.0518184
-41.8301 29.9402 21.8153 0.241607 -0.96893 -0.0529234
-40.7258 30.278 20.6434 0.240726 -0.969194 -0.052094
-39.4032 30.6838 19.2407 0.242921 -0.968734 -0.0504273
-38.3779 30.9962 18.1544 0.238672 -0.969818 -0.0498785
-37.117 31.3781 16.8206 0.237523 -0.96993 -0.0530862
-35.8639 31.755 15.4972 0.235266 -0.970572 -0.0513734
-34.8699 32.0495 14.4493 0.232082 -0.971223 -0.0535072
-33.8633 32.3453 13.3892 0.229634 -0.97196 -0.0506244
-32.6181 32.7018 12.0803 0.225037 -0.973222 -0.0468729
-31.4391 33.0324 10.8436 0.218222 -0.974777 -0.0467743
-30.7692 33.2155 10.1423 0.215007 -0.975529 -0.0459976
-32.8782 32.6966 11.0579 0.223568 -0.973297 -0.0520635
-33.8746 32.4112 12.1046 0.226692 -0.972486 -0.0536827
-35.0726 32.0608 13.3655 0.230859 -0.971593 -0.0520677
-36.1417 31.743 14.4923 0.232584 -0.971095 -0.0536546
-37.137 31.4435 15.5432 0.236757 -0.969958 -0.0559321
-38.2991 31.0909 16.7719 0.236288 -0.970187 -0.0539018
-39.3322 30.7768 17.8649 0.239125 -0.969354 -0.0563184
-40.4765 30.4255 19.0781 0.238202 -0.969647 -0.055169
-41.4857 30.1158 20.1486 0.240727 -0.969194 -0.0520926
-42.8883 29.6853 21.6373 0.239646 -0.969357 -0.0540094
-44.2512 29.2709 23.0846 0.236899 -0.969995 -0.0546713
-45.6098 28.8581 24.5291 0.241554 -0.96893 -0.0531564
-46.6419 28.5421 25.6262 0.23992 -0.969396 -0.0520537
-47.3201 28.336 26.3469 0.242146 -0.969397 -0.0404432
-46.3496 28.7026 24.0123 0.240881 -0.969086 -0.0533741
-45.2284 29.0472 22.8196 0.237477 -0.969863 -0.0545095
-44.7916 29.18 22.3549 0.236899 -0.969995 -0.0546714
30.4174 34.8564 -18.9994 -0.15384 -0.976852 -0.148642
29.3755 34.8688 -17.939 -0.151135 -0.979607 -0.132396
28.3173 34.8824 -16.861 -0.147972 -0.981048 -0.1251
27.4428 34.9072 -15.9639 -0.14671 -0.984257 -0.0985605
26.5805 34.9508 -15.0737 -0.141221 -0.985688 -0.0920592
25.7638 34.9959 -14.2304 -0.149342 -0.985263 -0.0833855
24.8929 35.0565 -13.3289 -0.148347 -0.987103 -0.0601723
23.7242 35.1582 -12.1176 -0.140136 -0.988621 -0.0546793
22.949 35.2376 -11.3118 -0.148154 -0.988037 -0.0428255
21.6257 35.3669 -9.93764 -0.135394 -0.99026 -0.0324758
20.7997 35.4527 -9.07822 -0.13569 -0.990457 -0.0241515
19.3838 35.6083 -7.60757 -0.127243 -0.991687 -0.0191489
18.5104 35.7056 -6.70092 -0.128648 -0.99154 -0.0172884
17.7238 35.791 -5.88485 -0.117065 -0.99298 -0.0169028
16.4834 35.9212 -4.60631 -0.114683 -0.993367 -0.00835273
15.4998 36.0195 -3.59512 -0.109112 -0.993951 -0.0124937
14.3527 36.135 -2.41731 -0.0993334 -0.995019 -0.00838072
13.3944 36.2165 -1.43254 -0.0938066 -0.995551 -0.00888244
12.4657 36.2941 -0.477046 -0.088035 -0.99606 -0.0106938
11.69 36.3493 0.317526 -0.0816891 -0.996575 -0.0128132
12.3311 36.3184 -1.63098 -0.088035 -0.99606 -0.0106938
13.1832 36.2465 -2.50684 -0.0967927 -0.995226 -0.0125395
14.004 36.1773 -3.35057 -0.0963116 -0.995247 -0.0143979
14.8824 36.0956 -4.25244 -0.109112 -0.993951 -0.0124937
16.0903 35.9741 -5.4946 -0.115184 -0.993255 -0.0133217
16.9013 35.895 -6.33034 -0.11568 -0.993118 -0.0182949
17.8338 35.7999 -7.29569 -0.118449 -0.992839 -0.0155107
18.6052 35.7176 -8.09576 -0.127945 -0.991614 -0.0182186
19.5354 35.6193 -9.06001 -0.130453 -0.991086 -0.0270188
20.5556 35.519 -10.1137 -0.130997 -0.990841 -0.0327605
21.4886 35.4232 -11.0832 -0.131997 -0.990527 -0.0378461
22.6353 35.3262 -12.2714 -0.138384 -0.989444 -0.0430267
23.5369 35.2464 -13.2064 -0.144225 -0.987391 -0.0652524
24.837 35.1634 -14.5496 -0.140495 -0.986681 -0.0819881
26.0762 35.0936 -15.8292 -0.141219 -0.985689 -0.0920588
27.4237 35.0613 -17.2096 -0.132653 -0.98372 -0.121236
28.5553 35.0444 -18.364 -0.143076 -0.97984 -0.139438
29.4126 35.0467 -19.2315 -0.148153 -0.978333 -0.144619
29.7049 35.0462 -19.5274 -0.148154 -0.978333 -0.14462
28.9068 35.2328 -19.9719 -0.14717 -0.976653 -0.156491
28.1003 35.2306 -19.1558 -0.136645 -0.980065 -0.144228
27.0663 35.2204 -18.1097 -0.13376 -0.982595 -0.1289
26.2075 35.2283 -17.2337 -0.138823 -0.983578 -0.115334
25.1445 35.2635 -16.142 -0.137915 -0.984576 -0.107653
24.1913 35.2994 -15.1618 -0.131635 -0.988017 -0.0805865
23.1178 35.3636 -14.0534 -0.144225 -0.987391 -0.0652523
22.1488 35.4299 -13.0511 -0.130161 -0.989711 -0.0594116
21.2022 35.5035 -12.0723 -0.131074 -0.990164 -0.0489322
19.9949 35.6143 -10.8235 -0.126598 -0.991404 -0.0330431
18.6245 35.7487 -9.40827 -0.130454 -0.991086 -0.0270208
17.2326 35.8827 -7.96914 -0.121392 -0.992289 -0.0250168
16.4552 35.9623 -7.16362 -0.117063 -0.992981 -0.0169008
15.6664 36.0392 -6.3507 -0.113599 -0.993371 -0.0175758
14.696 36.1281 -5.35222 -0.106824 -0.99415 -0.0159322
13.7443 36.219 -4.37485 -0.101091 -0.994783 -0.0136765
12.7487 36.2994 -3.35307 -0.0967911 -0.995226 -0.01254
12.1794 36.3474 -2.76792 -0.0967927 -0.995226 -0.0125395
12.6097 36.3303 -4.50175 -0.0958287 -0.995265 -0.0162552
13.8874 36.225 -5.81271 -0.107296 -0.99401 -0.020774
14.7386 36.149 -6.68756 -0.111514 -0.99362 -0.0168594
15.8014 36.0504 -7.7822 -0.113051 -0.993303 -0.0238515
16.9522 35.9423 -8.97179 -0.121391 -0.99229 -0.0250165
17.8793 35.8538 -9.93 -0.120809 -0.992343 -0.0256918
18.6802 35.78 -10.756 -0.124439 -0.991669 -0.033275
19.5753 35.6965 -11.6776 -0.126781 -0.991372 -0.0333014
20.533 35.6264 -12.6616 -0.124072 -0.990806 -0.0539393
21.4168 35.5576 -13.5755 -0.130161 -0.989711 -0.0594116
22.7883 35.4739 -14.9931 -0.135504 -0.988661 -0.0647166
24.1055 35.4252 -16.3476 -0.136837 -0.985553 -0.0998061
24.9218 35.405 -17.1843 -0.130839 -0.985734 -0.105874
26.2602 35.3923 -18.5491 -0.134865 -0.981409 -0.136558
27.2521 35.3994 -19.5541 -0.128974 -0.981542 -0.14121
27.6584 35.405 -19.9642 -0.129323 -0.979427 -0.15491
27.0265 35.5943 -20.5756 -0.129648 -0.977124 -0.168581
25.7082 35.5639 -19.2471 -0.131756 -0.981991 -0.135405
24.614 35.5602 -18.1358 -0.13517 -0.9819 -0.132668
23.6177 35.5711 -17.1189 -0.13384 -0.985652 -0.102841
22.7203 35.5965 -16.1976 -0.117884 -0.988358 -0.0961834
21.7014 35.6309 -15.15 -0.132569 -0.988129 -0.0776348
20.7516 35.6813 -14.169 -0.129674 -0.989018 -0.0709088
19.8751 35.7349 -13.2678 -0.114587 -0.991986 -0.0532284
19.0828 35.7909 -12.4543 -0.125034 -0.991174 -0.0440491
18.2695 35.8595 -11.6195 -0.122095 -0.991961 -0.0332557
17.2085 35.9539 -10.5277 -0.122386 -0.991936 -0.0329307
16.4048 36.0275 -9.69833 -0.117263 -0.992801 -0.0243861
15.3668 36.1201 -8.62625 -0.113135 -0.993296 -0.0237558
14.4819 36.1989 -7.7149 -0.112972 -0.993309 -0.0239505
13.185 36.3101 -6.38201 -0.101598 -0.994639 -0.0192609
12.4013 36.3741 -5.5775 -0.100271 -0.994728 -0.02151
11.843 36.418 -5.0049 -0.100269 -0.994728 -0.0215087
11.4708 36.4752 -5.91255 -0.0948328 -0.995239 -0.0224809
12.4453 36.3977 -6.91248 -0.103755 -0.994239 -0.0269077
13.2495 36.3361 -7.73743 -0.106331 -0.994026 -0.0246314
14.361 36.24 -8.88069 -0.108754 -0.993726 -0.0260977
15.3626 36.1538 -9.91334 -0.115532 -0.992907 -0.0280585
16.2206 36.0836 -10.7973 -0.117222 -0.992555 -0.0330697
17.0923 36.0063 -11.6959 -0.119841 -0.992173 -0.0350844
18.0391 35.9278 -12.6664 -0.122323 -0.991666 -0.0404495
18.9858 35.8599 -13.6364 -0.119584 -0.991182 -0.0570772
19.809 35.812 -14.4823 -0.113006 -0.991235 -0.068431
20.6061 35.7895 -15.2982 -0.120574 -0.989618 -0.078218
21.4347 35.7456 -16.1539 -0.125236 -0.988312 -0.0869159
22.5533 35.7237 -17.3003 -0.119864 -0.987146 -0.105712
23.624 35.7307 -18.3888 -0.123197 -0.984045 -0.128364
24.4885 35.7305 -19.2685 -0.133465 -0.981948 -0.134037
25.4827 35.7455 -20.2738 -0.133051 -0.978651 -0.15665
26.0584 35.7632 -20.8526 -0.121188 -0.97894 -0.164284
25.4048 35.9435 -21.4449 -0.127121 -0.978821 -0.160469
24.5538 35.922 -20.5874 -0.12295 -0.980733 -0.151806
23.6528 35.89 -19.6811 -0.112117 -0.984422 -0.135438
22.4639 35.8725 -18.4757 -0.111203 -0.986027 -0.124038
21.5741 35.876 -17.5679 -0.121826 -0.98584 -0.115229
20.7344 35.8832 -16.71 -0.125236 -0.988312 -0.0869159
19.8548 35.9124 -15.8081 -0.10856 -0.990963 -0.0787841
18.9263 35.9385 -14.8578 -0.113003 -0.991235 -0.0684303
18.0357 35.9941 -13.9447 -0.121737 -0.990976 -0.0560937
16.7767 36.0809 -12.655 -0.119735 -0.99199 -0.0402373
15.9509 36.1491 -11.8072 -0.117222 -0.992555 -0.0330698
15.0981 36.2164 -10.9293 -0.11343 -0.99296 -0.034109
14.2369 36.2885 -10.0416 -0.112067 -0.993279 -0.0289542
13.3109 36.3611 -9.09064 -0.1086 -0.993637 -0.0298455
11.9835 36.468 -7.72752 -0.103754 -0.994239 -0.0269072
11.718 36.4883 -7.45517 -0.0989582 -0.994766 -0.0254468
10.8818 36.5778 -7.88797 -0.0941559 -0.995269 -0.023983
11.7755 36.5153 -8.80351 -0.095917 -0.994983 -0.0284229
12.8852 36.4333 -9.94173 -0.109082 -0.993569 -0.0303446
13.7851 36.3628 -10.8658 -0.107923 -0.993559 -0.0345497
14.5638 36.304 -11.6663 -0.115443 -0.992633 -0.0367812
15.8887 36.205 -13.0279 -0.11689 -0.992249 -0.0421816
16.9024 36.1307 -14.0666 -0.112934 -0.992188 -0.0529999
17.7359 36.0814 -14.9194 -0.114586 -0.991712 -0.0581205
18.9165 36.0409 -16.1267 -0.109159 -0.990836 -0.079555
19.8231 36.0155 -17.0545 -0.10512 -0.989998 -0.0940944
20.9051 36.0238 -18.1527 -0.102579 -0.988877 -0.107706
21.8819 36.0228 -19.1488 -0.116518 -0.985957 -0.119638
23.3606 36.0672 -20.6424 -0.113016 -0.982686 -0.146819
24.1781 36.0962 -21.4638 -0.112829 -0.982689 -0.146943
23.2754 36.2517 -21.8111 -0.112602 -0.980184 -0.162975
22.1953 36.2133 -20.723 -0.103136 -0.984444 -0.142239
21.3274 36.1735 -19.8502 -0.0990684 -0.986121 -0.133236
20.0828 36.1562 -18.5848 -0.10258 -0.988876 -0.107708
19.0832 36.148 -17.5725 -0.10106 -0.988934 -0.108614
18.1618 36.1647 -16.6329 -0.1072 -0.991031 -0.0797851
17.3185 36.1848 -15.7733 -0.110742 -0.991265 -0.0716291
15.9486 36.2561 -14.3724 -0.113734 -0.991514 -0.0629574
14.6895 36.3437 -13.081 -0.11297 -0.992709 -0.0420386
13.7544 36.415 -12.1194 -0.111105 -0.993091 -0.0377676
12.8332 36.4772 -11.1759 -0.106765 -0.993529 -0.0387534
11.9062 36.5494 -10.2242 -0.103383 -0.99414 -0.0315962
11.1123 36.6006 -9.41184 -0.0976801 -0.994675 -0.0328563
10.4838 36.6411 -8.76868 -0.0976817 -0.994675 -0.0328595
9.53656 36.7406 -9.08759 -0.0842469 -0.995839 -0.0347497
10.7591 36.6658 -10.3374 -0.0976833 -0.994675 -0.0328522
11.6797 36.6065 -11.2793 -0.103383 -0.99414 -0.0315962
12.6017 36.5429 -12.224 -0.106765 -0.993529 -0.0387534
13.523 36.4807 -13.1675 -0.111105 -0.993091 -0.0377676
14.3801 36.4243 -14.0464 -0.11771 -0.991609 -0.0534499
15.1791 36.3736 -14.8654 -0.114477 -0.991728 -0.0580605
16.1265 36.3286 -15.835 -0.113734 -0.991515 -0.0629539
17.1512 36.292 -16.881 -0.10524 -0.991223 -0.0800087
18.012 36.2763 -17.7566 -0.0923572 -0.990217 -0.104595
19.2685 36.2886 -19.025 -0.10182 -0.988905 -0.108161
20.6568 36.3212 -20.4344 -0.10489 -0.986106 -0.128817
21.6008 36.3619 -21.3849 -0.0932422 -0.986083 -0.137647
22.4851 36.4135 -22.2709 -0.0903397 -0.98247 -0.16307
21.1071 36.523 -22.1459 -0.092692 -0.982446 -0.161887
20.2433 36.4755 -21.2794 -0.0990696 -0.98612 -0.133238
18.5775 36.4174 -19.5948 -0.0891098 -0.989294 -0.115572
17.7684 36.407 -18.7786 -0.0923572 -0.990217 -0.104595
16.7596 36.4051 -17.7585 -0.105606 -0.991129 -0.0806881
15.8126 36.425 -16.7941 -0.105874 -0.991762 -0.0721052
14.4387 36.4896 -15.3882 -0.114477 -0.991728 -0.0580603
13.6625 36.5371 -14.5928 -0.104191 -0.993277 -0.0504499
12.462 36.6022 -13.3659 -0.106131 -0.993387 -0.0437908
11.565 36.6628 -12.4472 -0.106554 -0.99356 -0.038535
10.5652 36.723 -11.4254 -0.0997264 -0.994378 -0.0355996
9.63405 36.7823 -10.4728 -0.0954014 -0.994777 -0.0362995
9.31062 36.7996 -10.1429 -0.0902711 -0.995143 -0.0392541
8.37654 36.8975 -10.4758 -0.0902676 -0.995144 -0.0392546
9.45926 36.8394 -11.58 -0.0954002 -0.994777 -0.0363032
10.3058 36.7888 -12.4451 -0.0979522 -0.994335 -0.0412769
11.0842 36.7451 -13.2397 -0.102254 -0.993958 -0.0399054
12.0473 36.6886 -14.2222 -0.105708 -0.993187 -0.0490463
12.8891 36.6431 -15.0828 -0.104192 -0.993277 -0.0504486
13.7109 36.6014 -15.9243 -0.103014 -0.992944 -0.058733
14.6748 36.5607 -16.9099 -0.111776 -0.991663 -0.0641101
15.7123 36.53 -17.9683 -0.0999645 -0.991762 -0.0800919
16.5597 36.5235 -18.8284 -0.0902725 -0.990056 -0.107889
