-13.0874 36.6428 28.2028 0.122962 -0.992307 -0.0143842
-11.2304 36.8434 30.0928 0.122603 -0.992435 -0.00637664
-9.80494 36.9846 31.5402 0.104695 -0.99446 -0.00944239
-8.3609 37.1268 33.0022 0.0916236 -0.995754 -0.00886284
-6.86514 37.242 34.5124 0.0769338 -0.996829 -0.0203056
-5.39351 37.3369 35.9971 0.0719413 -0.99732 -0.0133066
-3.65525 37.3947 37.7442 0.054924 -0.998167 -0.0253998
-2.88906 37.412 38.5129 0.0489265 -0.998601 -0.0200469
-1.19723 37.4968 37.6637 0.0290448 -0.999294 -0.0238471
-3.31289 37.457 35.5406 0.0441631 -0.998861 -0.0180438
-5.3699 37.365 33.4701 0.0619371 -0.998034 -0.00962606
-6.8235 37.2723 32.0051 0.0879253 -0.996099 -0.00747909
-8.35514 37.1476 30.4569 0.104464 -0.994482 -0.00959605
-10.452 36.9468 28.3257 0.098674 -0.995049 -0.0118665
-12.025 36.7816 26.7272 0.114166 -0.993429 -0.0080194
-13.5519 36.5937 25.1704 0.135677 -0.990751 -0.00228362
-15.0252 36.4078 23.6642 0.141042 -0.989875 -0.0159345
-16.6884 36.183 21.9601 0.15692 -0.987569 -0.00912728
-18.1569 35.9671 20.4507 0.154023 -0.988004 -0.011167
-19.7079 35.7282 18.8518 0.183843 -0.982692 -0.0227663
-21.1875 35.4872 17.3215 0.19021 -0.981121 -0.0349499
-22.8811 35.1982 15.5629 0.201302 -0.979183 -0.0260231
-24.3876 34.9314 13.9926 0.204671 -0.978441 -0.0276119
-25.8548 34.6682 12.462 0.20086 -0.979147 -0.0304324
-27.2665 34.4258 10.9899 0.202325 -0.978495 -0.0401482
-28.7508 34.1762 9.44005 0.20624 -0.977584 -0.0423737
-26.6704 34.6278 9.07679 0.198722 -0.979426 -0.0351442
-25.2626 34.859 10.5387 0.198521 -0.979381 -0.0374403
-23.5355 35.1442 12.3312 0.193791 -0.980737 -0.024505
-22.1246 35.3922 13.7994 0.189138 -0.981765 -0.0190967
-20.5002 35.6643 15.4827 0.171432 -0.984977 -0.0207786
-18.9002 35.8979 17.1303 0.166229 -0.985769 -0.0250321
-17.4619 36.1039 18.6108 0.14846 -0.988828 -0.0134054
-15.9871 36.3036 20.1231 0.146072 -0.989257 -0.00582682
-14.3183 36.5336 21.8331 0.139866 -0.990116 -0.0103834
-12.6691 36.7266 23.5151 0.123091 -0.992298 -0.0139224
-10.8014 36.9314 25.4162 0.112612 -0.993618 -0.00652716
-9.24585 37.0878 26.9948 0.0959508 -0.995215 -0.0184793
-7.81411 37.2048 28.4468 0.072723 -0.997337 -0.00558864
-6.18669 37.3152 30.094 0.0735301 -0.997293 0.000954867
-4.53051 37.4273 31.7642 0.0607691 -0.998151 -0.00148916
-2.99847 37.5004 33.3065 0.0442287 -0.998991 -0.00781815
-1.38674 37.5441 34.926 0.037763 -0.999229 -0.0107514
0.173588 37.5615 36.4912 0.0265984 -0.999419 -0.0213289
0.246967 37.5619 36.5648 0.0257159 -0.999436 -0.0215736
2.13036 37.6193 35.9075 0.0212413 -0.999609 -0.0181938
0.688197 37.6086 34.4599 0.025655 -0.999611 -0.0109051
-1.0434 37.584 32.7211 0.0454674 -0.998852 -0.0150719
-3.1287 37.5058 30.6236 0.0533775 -0.998557 -0.00587593
-4.86495 37.4097 28.8734 0.0651642 -0.997867 -0.00381073
-6.51223 37.3083 27.208 0.0734915 -0.997267 -0.00763689
-8.15808 37.2072 25.5438 0.0691535 -0.997603 -0.00225357
-10.1639 37.0123 23.5093 0.106685 -0.994282 0.00454887
-11.9904 36.8197 21.6513 0.110517 -0.993871 -0.00249406
-13.6093 36.64 20.0019 0.120704 -0.992665 -0.00683683
-15.273 36.4199 18.3 0.134727 -0.990859 -0.0068656
-16.8729 36.2128 16.6608 0.143637 -0.989554 -0.012316
-18.6074 35.9844 14.8789 0.150145 -0.988568 -0.0138119
-20.0731 35.772 13.3708 0.170033 -0.985266 -0.0184367
-21.5437 35.5388 11.8482 0.1808 -0.983302 -0.0207227
-23.156 35.2833 10.1777 0.177821 -0.983692 -0.0270128
-24.5319 35.069 8.75654 0.194349 -0.980248 -0.0366439
-22.8385 35.406 7.95184 0.175169 -0.98414 -0.0280097
-21.1053 35.6643 9.74886 0.170552 -0.985178 -0.0183504
-19.4315 35.9128 11.4793 0.163142 -0.986471 -0.0161244
-17.5812 36.16 13.3813 0.141411 -0.989748 -0.020019
-15.6321 36.4052 15.3797 0.137777 -0.990354 -0.0147304
-14.1342 36.5953 16.9124 0.126001 -0.991971 -0.0108457
-12.4737 36.7832 18.6052 0.120455 -0.992718 -0.00117371
-10.9363 36.9361 20.1678 0.102522 -0.994709 -0.00663177
-9.09687 37.1064 22.0352 0.0931623 -0.995646 -0.0029805
-7.22113 37.261 23.937 0.0687932 -0.997625 0.00330807
-5.27092 37.3993 25.9075 0.0623632 -0.99805 -0.00264482
-3.65927 37.4872 27.5355 0.0429588 -0.999076 -0.00105529
-2.09728 37.5603 29.11 0.0475397 -0.998869 0.000476708
-0.622694 37.6124 30.5954 0.0392281 -0.99923 -0.000753952
0.931096 37.6588 32.1561 0.0130194 -0.99967 -0.022134
2.66434 37.6503 33.8968 0.0116423 -0.999932 -0.000992926
3.42485 37.6468 34.6605 -0.00543831 -0.999828 -0.0177409
5.27056 37.6225 33.9674 -0.026577 -0.999634 -0.00513333
3.71275 37.6566 32.4024 -0.0154086 -0.999837 -0.00944483
2.10754 37.6822 30.7906 0.00994872 -0.999947 0.00245552
0.238891 37.6378 28.9105 0.00943029 -0.999888 0.0116344
-1.23751 37.5822 27.423 0.0291781 -0.999553 0.00653804
-3.05341 37.5099 25.5924 0.0404784 -0.999179 0.00139365
-4.83714 37.4198 23.7925 0.0500418 -0.998578 0.0183745
-6.51935 37.3102 22.0908 0.0684546 -0.997645 -0.00432813
-8.00741 37.2022 20.5833 0.0784167 -0.996917 -0.0028457
-9.85189 37.0502 18.715 0.0928885 -0.995666 -0.004652
-11.4146 36.9039 17.1292 0.0912916 -0.995823 -0.00146111
-12.8639 36.7636 15.655 0.110432 -0.993845 -0.00878896
-14.3051 36.6031 14.1868 0.131116 -0.991272 -0.0137524
-15.778 36.421 12.6792 0.127678 -0.991715 -0.01416
-17.4653 36.2175 10.9487 0.140039 -0.99003 -0.0151472
-19.3804 35.9699 8.97928 0.143485 -0.989526 -0.0158535
-20.423 35.8242 7.90211 0.161849 -0.986639 -0.0186825
-18.3765 36.1447 7.46127 0.143064 -0.989576 -0.0164764
-16.5906 36.3535 9.29356 0.12413 -0.992206 -0.0109123
-14.8943 36.5528 11.0325 0.125719 -0.992039 -0.00732815
-13.4115 36.7175 12.5466 0.103745 -0.99459 0.00520249
-11.9509 36.8667 14.0318 0.0918148 -0.995776 0.000936606
-10.5062 36.9947 15.4979 0.087558 -0.996148 -0.0047918
-8.91428 37.1327 17.1121 0.084788 -0.996392 0.00364122
-7.43879 37.2578 18.6054 0.0757846 -0.997124 -0.000488297
-5.55394 37.363 20.5092 0.0507674 -0.99871 0.000664486
-3.95986 37.4461 22.1221 0.0494532 -0.998775 0.00160313
-2.48332 37.5177 23.6136 0.034914 -0.999339 0.0101492
-0.538859 37.5938 25.5739 0.0301141 -0.999532 0.00538388
0.919359 37.6262 27.0417 0.0108018 -0.999909 0.0080855
2.91644 37.6634 29.052 0.00316864 -0.999866 0.0160362
4.88196 37.6513 31.029 -0.0147107 -0.999872 -0.0062855
6.44092 37.5998 32.5965 -0.0290898 -0.99952 -0.0106697
7.15803 37.5676 33.3178 -0.0312946 -0.999419 -0.0134994
8.85212 37.5001 32.4759 -0.0538593 -0.998467 -0.0127958
7.07739 37.6004 30.6878 -0.0261362 -0.999594 -0.0113351
5.6098 37.6447 29.2111 -0.0184916 -0.999823 -0.003409
3.5473 37.6462 27.1336 0.00499187 -0.99995 0.00869134
1.64282 37.6158 25.2176 0.00849221 -0.999896 0.0116637
0.0789146 37.5849 23.643 0.00772573 -0.999893 0.0124459
-1.70138 37.5238 21.8461 0.034427 -0.999327 0.0126381
-3.79804 37.4359 19.7272 0.0314889 -0.99947 0.00820491
-5.52781 37.3634 17.982 0.0457427 -0.998925 0.0075101
-7.15938 37.2588 16.3348 0.0648896 -0.997882 0.00466843
-8.73684 37.1452 14.7389 0.0748055 -0.997198 -0.00100482
-10.2089 37.0229 13.2483 0.0858535 -0.996294 0.00514786
-11.6378 36.8936 11.799 0.0951325 -0.995464 -0.000964425
-13.4371 36.7239 9.9685 0.110641 -0.993853 -0.00382973
-15.1053 36.5507 8.26476 0.120411 -0.992668 -0.0105445
-16.0492 36.4465 7.29804 0.119836 -0.992682 -0.0148645
-13.4964 36.7392 7.35871 0.10563 -0.994298 -0.0146203
-12.0177 36.8713 8.86283 0.092685 -0.99569 -0.00325745
-10.3 37.0127 10.6066 0.0795971 -0.996827 -0.000976272
-8.55367 37.1515 12.3747 0.0697276 -0.997533 0.00815753
-7.02299 37.2569 13.9193 0.0593429 -0.998237 0.00114331
-5.32445 37.3479 15.6353 0.0394083 -0.999181 0.00919723
-3.66846 37.4256 17.3044 0.0285313 -0.999582 0.00471298
-2.17894 37.4756 18.8061 0.0262757 -0.999579 0.0122732
-0.103032 37.5358 20.9018 0.0101498 -0.999804 0.017007
1.3349 37.5738 22.3531 -0.000207406 -0.999874 0.0158486
3.12721 37.601 24.159 -0.000908694 -0.999612 0.0278465
4.68968 37.6187 25.731 -0.0191678 -0.99975 0.0115121
6.311 37.5905 27.3674 -0.026125 -0.999476 0.0190972
7.94271 37.5646 29.0114 -0.040753 -0.998927 0.0220173
9.83866 37.4583 30.9227 -0.058208 -0.998205 -0.014064
10.5922 37.4061 31.6833 -0.0621571 -0.998027 -0.00886837
12.7446 37.2718 31.3097 -0.082272 -0.996542 -0.011633
10.9682 37.392 29.516 -0.051449 -0.998659 0.00568713
9.03442 37.4756 27.5645 -0.0626461 -0.997874 0.0179623
7.38021 37.5255 25.8924 -0.0498085 -0.998695 0.0112768
5.68076 37.5655 24.1765 -0.0313648 -0.999135 0.0273078
4.09723 37.5571 22.5824 -0.0171374 -0.999816 0.00857871
2.50279 37.5476 20.9745 -0.00543211 -0.999905 0.0127057
0.842944 37.5182 19.2993 0.00783809 -0.999886 0.0128858
-0.740788 37.4952 17.7027 0.00555516 -0.999923 0.0110549
-2.31242 37.4522 16.1194 0.0149914 -0.99978 0.0146883
-4.15022 37.3807 14.2677 0.0299449 -0.999531 0.00643585
-5.76561 37.3089 12.6387 0.0385442 -0.999247 0.00436192
-7.47339 37.21 10.9167 0.0523823 -0.998582 0.00944864
-9.28639 37.099 9.08445 0.0671201 -0.99774 -0.00303184
-10.7908 36.9895 7.5597 0.0786894 -0.996877 -0.00665739
-8.34889 37.1524 7.48226 0.0559694 -0.998414 -0.00613622
-6.80892 37.2359 9.03859 0.045336 -0.998963 0.00422768
-5.33336 37.309 10.5263 0.0420538 -0.999035 0.0126743
-3.89761 37.3717 11.9727 0.0254723 -0.999617 0.0108241
-2.30811 37.4188 13.5733 0.0177795 -0.999806 0.00847479
-0.614755 37.4653 15.2793 0.0169651 -0.999781 0.0122935
1.04438 37.4968 16.9495 0.00555516 -0.999923 0.0110549
2.97303 37.5078 18.8935 -0.00255049 -0.999796 0.0200193
4.53036 37.5205 20.4634 -0.0183266 -0.999581 0.0224239
6.11669 37.5062 22.0627 -0.0388474 -0.999135 0.0148507
7.73182 37.4704 23.6925 -0.041518 -0.998876 0.0228796
9.53842 37.4092 25.5208 -0.0544034 -0.998399 0.0154906
11.169 37.3367 27.1712 -0.0611402 -0.997972 0.0177144
12.7989 37.2492 28.8194 -0.0835067 -0.996305 0.0200697
14.7644 37.0948 30.8108 -0.0951555 -0.995461 -0.00174618
14.9127 37.0805 30.9613 -0.0882807 -0.996094 -0.00168126
16.5489 36.9172 30.0749 -0.0971959 -0.995255 0.00460546
14.9563 37.0538 28.4574 -0.0899768 -0.995773 0.0184541
13.2535 37.1741 26.7313 -0.0859998 -0.996209 0.0130714
11.7494 37.2699 25.2057 -0.0685799 -0.997454 0.0195405
9.7868 37.3552 23.2168 -0.0603623 -0.997858 0.0251961
8.27489 37.4093 21.6881 -0.0476572 -0.998719 0.0170144
6.80478 37.4486 20.2047 -0.042967 -0.998846 0.0214559
5.27952 37.4658 18.6669 -0.0246796 -0.999337 0.0267845
3.80647 37.4607 17.1824 -0.0139835 -0.999685 0.0208573
2.24294 37.465 15.6069 -0.00636233 -0.999858 0.0156006
0.627477 37.4539 13.98 0.00175268 -0.999939 0.0109027
-0.823091 37.4288 12.5186 0.00085302 -0.999908 0.0135716
-2.59905 37.3888 10.7312 0.0106822 -0.999866 0.0124148
-4.20521 37.3339 9.11474 0.0226403 -0.999663 0.012738
-5.30986 37.2919 8.00164 0.0416327 -0.999127 -0.00351335
-3.36375 37.3453 7.41366 0.0200694 -0.999798 0.000923431
-1.45621 37.3852 9.33258 0.00949098 -0.999884 0.0118953
0.0819975 37.4091 10.8796 -0.00517804 -0.999869 0.0153086
1.79714 37.4202 12.6064 -0.0132077 -0.999734 0.0189133
3.44535 37.4229 14.2679 -0.027195 -0.999425 0.020242
5.1006 37.4074 15.9365 -0.0378975 -0.999091 0.0195022
6.81754 37.3871 17.6673 -0.0436486 -0.998652 0.0280963
8.40162 37.3577 19.2647 -0.0543163 -0.998246 0.0235558
10.1178 37.2903 20.9989 -0.0686394 -0.997437 0.0201831
11.642 37.214 22.5434 -0.0758825 -0.996894 0.0210777
13.3808 37.1176 24.3089 -0.085882 -0.996045 0.0227872
15.0092 37.0076 25.9625 -0.0882791 -0.995974 0.0156046
16.6262 36.8855 27.6043 -0.10583 -0.994329 0.0104555
18.2745 36.7287 29.2827 -0.109667 -0.993926 0.00921597
18.4395 36.711 29.4511 -0.113689 -0.993492 0.00697301
20.1326 36.5129 28.6328 -0.112381 -0.993646 0.00623896
18.6434 36.6655 27.1084 -0.105929 -0.994317 0.0105911
17.0423 36.8115 25.4792 -0.103554 -0.994462 0.0179401
15.3304 36.9371 23.7363 -0.0937778 -0.995403 0.0194678
13.6376 37.0496 22.0159 -0.0868913 -0.996069 0.0171987
12.0847 37.1342 20.4396 -0.0752146 -0.996899 0.0231517
10.2684 37.2264 18.6005 -0.0698421 -0.9972 0.0267133
8.7832 37.274 17.1011 -0.0547822 -0.998032 0.0305205
7.08844 37.317 15.39 -0.0485269 -0.998546 0.0234731
5.22439 37.3529 13.5091 -0.042172 -0.998891 0.0209333
3.53819 37.371 11.8082 -0.0284344 -0.999487 0.0147077
1.75333 37.3834 10.0107 -0.0154456 -0.999844 0.00855097
0.256057 37.3871 8.50521 -0.00703715 -0.999971 0.0028198
-0.982274 37.3799 7.26228 0.0100498 -0.999947 0.00208632
1.41133 37.3755 7.11942 -0.0106542 -0.999933 0.00455287
3.19555 37.3531 8.91118 -0.022625 -0.99971 0.00826542
5.14298 37.3132 10.8729 -0.0371328 -0.999264 0.00967233
6.9672 37.2637 12.7141 -0.0469739 -0.99879 0.0145536
8.70826 37.2167 14.473 -0.0558498 -0.998196 0.0220286
10.4277 37.1503 16.2123 -0.0602327 -0.997821 0.0269128
12.1183 37.0749 17.9236 -0.0785141 -0.996629 0.0237737
13.8189 36.9831 19.6481 -0.0764489 -0.996765 0.0247995
15.6082 36.8716 21.4641 -0.0928329 -0.995575 0.014589
17.6232 36.7186 23.5216 -0.0921632 -0.995581 0.0180338
19.1019 36.5963 25.0233 -0.109502 -0.99396 0.00726523
20.7808 36.425 26.74 -0.111507 -0.993721 0.00919503
22.5074 36.2342 28.513 -0.124425 -0.992221 0.00395852
22.7534 36.205 28.7648 -0.124186 -0.992239 0.00623349
24.6825 35.949 28.1916 -0.139802 -0.990176 0.00267508
23.2129 36.1327 26.6756 -0.125485 -0.992008 0.0132089
21.7135 36.2998 25.1384 -0.117469 -0.993014 0.0111084
19.9738 36.4804 23.361 -0.11141 -0.993526 0.0222394
18.4007 36.6054 21.7597 -0.0998588 -0.994669 0.0257344
16.453 36.7513 19.7708 -0.0975568 -0.994998 0.0214961
14.9842 36.8533 18.2782 -0.0827224 -0.996271 0.0245375
13.211 36.952 16.4782 -0.080222 -0.996443 0.0258117
11.6629 37.0333 14.9074 -0.0742335 -0.997039 0.0200654
10.0595 37.108 13.2828 -0.0620545 -0.997859 0.020651
8.26813 37.1785 11.4715 -0.052449 -0.998532 0.0135393
6.3941 37.2467 9.58054 -0.0475988 -0.998778 0.0133315
4.52287 37.3036 7.69689 -0.0328998 -0.999427 0.00793479
3.46621 37.3276 6.63491 -0.0223896 -0.999709 0.00893704
5.27201 37.2625 5.89757 -0.0378858 -0.999278 -0.00294934
6.96784 37.1985 7.604 -0.0489793 -0.998782 0.00590934
8.46296 37.1343 9.11145 -0.0575242 -0.998283 0.0110008
10.1325 37.0577 10.7978 -0.0635679 -0.997852 0.0158141
11.8139 36.9774 12.5004 -0.0739264 -0.997107 0.0176543
13.4157 36.8826 14.1266 -0.0858592 -0.996124 0.019121
14.8497 36.7955 15.5874 -0.0810255 -0.996399 0.0249671
16.3819 36.6949 17.1457 -0.0942805 -0.995163 0.0275964
17.9455 36.5814 18.7373 -0.0995531 -0.994752 0.0236107
19.6473 36.4447 20.4744 -0.107792 -0.993891 0.0237033
21.2085 36.3113 22.0683 -0.113146 -0.993339 0.021825
22.6533 36.1731 23.5441 -0.1204 -0.992567 0.0177553
24.2382 35.9873 25.1697 -0.127456 -0.991808 0.00851163
25.9956 35.7591 26.9861 -0.143322 -0.989656 0.00625141
26.9109 35.624 27.9414 -0.158898 -0.987292 -0.00228095
29.2443 35.2455 27.8123 -0.164242 -0.986417 -0.00226414
27.3173 35.5575 25.7909 -0.146427 -0.989221 -0.000709995
25.808 35.7775 24.2233 -0.134727 -0.990882 -0.00085493
24.2063 35.9608 22.5794 -0.124834 -0.99204 0.0165154
22.6596 36.123 20.9944 -0.117569 -0.99277 0.0242037
20.9245 36.2746 19.2213 -0.112069 -0.993402 0.0243605
19.4029 36.4036 17.6687 -0.106683 -0.993902 0.0278844
17.9485 36.5144 16.1852 -0.0992252 -0.994733 0.0257202
16.4656 36.6231 14.6708 -0.0916343 -0.995566 0.0212414
14.6408 36.7526 12.8115 -0.0889158 -0.995851 0.0193611
13.0215 36.8571 11.1663 -0.0790843 -0.996731 0.0165097
11.315 36.9628 9.43559 -0.0706095 -0.997379 0.0158064
9.73776 37.0489 7.84221 -0.0571836 -0.998341 0.00669853
7.95415 37.1399 6.04281 -0.0499684 -0.998746 0.00304913
7.00431 37.188 5.08562 -0.0503506 -0.998732 -0.00030433
9.29357 37.0638 4.83589 -0.0569477 -0.998367 0.00439708
11.1729 36.9474 6.73466 -0.0710797 -0.997464 0.00357658
12.6954 36.8415 8.27612 -0.0861308 -0.996194 0.0133583
14.4753 36.7143 10.0824 -0.0872092 -0.995989 0.0199924
16.0315 36.6038 11.665 -0.0979465 -0.994956 0.0216667
18.092 36.4457 13.7663 -0.102652 -0.994472 0.0220925
20.1129 36.2815 15.8324 -0.108332 -0.993814 0.0244406
21.7386 36.1412 17.4943 -0.112981 -0.993305 0.0240869
23.4343 35.9904 19.2278 -0.111655 -0.993519 0.0212922
24.9834 35.8352 20.8168 -0.128218 -0.991625 0.0154759
26.4052 35.6715 22.2796 -0.133739 -0.990882 0.0163491
27.9525 35.4587 23.8803 -0.159231 -0.987237 -0.00291812
29.6692 35.1756 25.6801 -0.164092 -0.986442 0.00238242
31.314 34.8868 27.4251 -0.187739 -0.982166 0.0102262
33.2399 34.4862 26.8972 -0.227703 -0.973728 -0.00243387
31.3406 34.8833 24.8573 -0.178936 -0.983861 -0.000439203
29.8982 35.1422 23.3417 -0.16378 -0.986492 -0.00298758
28.3733 35.3809 21.7506 -0.148633 -0.98877 0.0155562
26.8517 35.574 20.1765 -0.131156 -0.991139 0.0210193
25.308 35.7427 18.5866 -0.130382 -0.991213 0.0222847
23.6262 35.9066 16.8621 -0.117617 -0.992633 0.0290908
22.1717 36.0384 15.3764 -0.11798 -0.992712 0.0245874
20.5422 36.1772 13.7084 -0.111511 -0.993424 0.0259617
19.0553 36.3069 12.1859 -0.104484 -0.994259 0.0230889
17.5965 36.4271 10.6977 -0.108402 -0.993858 0.0222648
16.1156 36.5446 9.18872 -0.0999764 -0.994843 0.017097
14.4622 36.676 7.50826 -0.0925787 -0.99562 0.0130736
12.8441 36.8093 5.86726 -0.0828054 -0.996538 0.00739211
11.0573 36.9387 4.0593 -0.0745071 -0.997211 0.00435169
10.0256 37.0152 3.01648 -0.0706098 -0.997504 -0.00037556
11.2504 36.9229 1.69581 -0.0781538 -0.99694 0.00160217
12.6839 36.805 3.1462 -0.0861871 -0.996276 0.00243384
14.2979 36.6685 4.78133 -0.0929919 -0.995655 0.00494268
15.7562 36.5404 6.26106 -0.100859 -0.994809 0.0135432
17.5929 36.3791 8.12937 -0.106978 -0.994174 0.0131481
19.2426 36.2277 9.81406 -0.108401 -0.993858 0.0222665
21.163 36.0588 11.7784 -0.115289 -0.993023 0.0247737
23.1555 35.8747 13.8251 -0.118268 -0.992601 0.0274812
24.6261 35.7352 15.3256 -0.133818 -0.990503 0.0315662
26.122 35.5844 16.8603 -0.136531 -0.990098 0.0326494
27.5571 35.4281 18.3391 -0.151882 -0.987976 0.0289155
29.073 35.2346 19.9083 -0.172986 -0.984586 0.0258229
30.5389 35.0182 21.4395 -0.183384 -0.982918 0.0155797
32.1232 34.7222 23.1095 -0.210132 -0.977671 -0.00186586
33.5403 34.4164 24.6211 -0.22085 -0.975302 0.00335982
35.3458 33.9575 26.5963 -0.270264 -0.962785 -0.00146328
37.2396 33.4062 26.0985 -0.299784 -0.954003 0.00285897
35.8977 33.8062 24.5963 -0.250504 -0.968014 -0.013987
34.1114 34.2734 22.6532 -0.229867 -0.973194 -0.00735226
32.5008 34.6387 20.9301 -0.19429 -0.980918 0.00711366
30.9785 34.8855 19.3293 -0.172802 -0.984317 0.0354934
29.3582 35.114 17.6381 -0.165213 -0.985797 0.0301503
27.6943 35.3252 15.9144 -0.151081 -0.988028 0.0312398
26.1396 35.4977 14.3148 -0.135472 -0.990275 0.0316551
24.6241 35.6534 12.7612 -0.129189 -0.991212 0.0284576
22.8594 35.8324 10.9496 -0.129034 -0.991293 0.026223
21.367 35.9757 9.41996 -0.117903 -0.992716 0.0247668
19.6693 36.1393 7.6821 -0.113456 -0.993365 0.0188029
17.7975 36.3245 5.77091 -0.115998 -0.993179 0.0117943
16.0583 36.4943 4.00055 -0.0979257 -0.995178 0.00562796
14.4923 36.6394 2.41299 -0.0956804 -0.99541 0.00199262
13.0448 36.7749 0.949072 -0.094364 -0.995533 -0.00315728
12.0946 36.8676 -0.010748 -0.0827294 -0.996515 -0.0106163
12.7354 36.8299 -1.92424 -0.0961594 -0.995312 -0.0103715
14.1933 36.6793 -0.453635 -0.0936184 -0.995569 -0.00886691
15.6346 36.5252 1.00531 -0.105826 -0.99438 -0.00292533
17.0741 36.3791 2.46593 -0.108255 -0.994113 0.00458669
18.5022 36.2266 3.91791 -0.114048 -0.993431 0.0093278
20.1075 36.0541 5.55758 -0.120309 -0.992631 0.014439
21.7892 35.8721 7.28164 -0.125592 -0.991813 0.0231063
23.3711 35.7085 8.90568 -0.131148 -0.990955 0.0284177
24.8157 35.5554 10.3896 -0.135885 -0.990249 0.0306942
26.2556 35.3993 11.8681 -0.144184 -0.98901 0.0327108
27.8587 35.2151 13.5178 -0.154093 -0.987417 0.0355342
29.296 35.0301 15.004 -0.161776 -0.986354 0.0305708
30.8794 34.7993 16.6546 -0.182678 -0.982426 0.0383158
32.5064 34.5517 18.3635 -0.196402 -0.979735 0.0393061
34.011 34.2923 19.958 -0.216185 -0.975928 0.0287746
35.4234 33.9778 21.4769 -0.242744 -0.97007 -0.00636755
36.9309 33.5597 23.1181 -0.269578 -0.962584 -0.0275732
38.2404 33.0934 24.6114 -0.318958 -0.947213 -0.0324496
38.9432 32.841 25.4331 -0.333223 -0.942776 0.0116362
40.7946 32.1739 24.9697 -0.38392 -0.923357 0.00408205
39.1576 32.8391 23.0173 -0.318962 -0.947212 -0.0324469
37.8102 33.3431 21.4774 -0.281907 -0.959268 -0.0182477
36.3722 33.7193 19.9091 -0.255037 -0.966647 0.0234457
34.7714 34.0323 18.1955 -0.235401 -0.97005 0.0599075
33.005 34.3619 16.3135 -0.228135 -0.972848 0.0389879
31.3786 34.6416 14.6005 -0.202654 -0.978664 0.0338874
29.9758 34.8554 13.1368 -0.179075 -0.983297 0.0325592
28.4653 35.0531 11.5738 -0.160017 -0.986544 0.0335419
26.6944 35.271 9.75187 -0.147485 -0.988612 0.029918
24.7956 35.4785 7.79819 -0.139462 -0.989742 0.0309905
23.1003 35.6702 6.05375 -0.131452 -0.991024 0.0243409
21.5977 35.8484 4.5106 -0.128808 -0.991614 0.0105154
19.9617 36.045 2.83777 -0.120873 -0.992667 0.00162681
18.175 36.2477 1.01898 -0.116381 -0.99319 0.00534436
16.2209 36.472 -0.9632 -0.106417 -0.994292 -0.0076788
14.455 36.6736 -2.74898 -0.100158 -0.994943 -0.00756523
12.741 36.8648 -4.47796 -0.0969662 -0.995153 -0.016345
11.8815 36.9721 -5.34403 -0.102242 -0.994494 -0.0229693
-43.2891 31.2642 -43.8159 0.252438 -0.966647 0.0432346
-45.0499 30.712 -45.6949 0.257071 -0.965489 0.0417704
-46.9741 30.1134 -47.7503 0.25973 -0.964848 0.0401071
-46.8652 30.0544 -50.2263 0.262073 -0.964595 0.0295739
-44.9456 30.6425 -48.1728 0.258662 -0.965317 0.0354476
-43.0636 31.2252 -46.1617 0.258729 -0.965215 0.037672
-41.2198 31.7897 -44.1989 0.254922 -0.966143 0.0397774
-39.2102 32.401 -42.0631 0.249125 -0.96763 0.0403528
-37.0606 33.0458 -39.7839 0.246845 -0.968273 0.0389139
-35.2725 33.5699 -37.8947 0.240953 -0.969681 0.0407474
-33.3286 34.1246 -35.8461 0.234898 -0.971401 0.0346844
-31.4489 34.6392 -33.8731 0.230136 -0.972668 0.0308825
-29.4933 35.159 -31.8247 0.22676 -0.973593 0.0263979
-28.2181 35.466 -30.4938 0.215942 -0.976287 0.0152596
-34.1252 33.9929 -34.1113 0.23348 -0.97177 0.0339021
-34.9575 33.762 -34.9856 0.233919 -0.971664 0.0339198
-35.7552 33.5354 -35.8261 0.238217 -0.970447 0.0385255
-36.9992 33.1723 -37.141 0.241164 -0.969634 0.040622
-37.8472 32.9194 -38.0376 0.244732 -0.968679 0.0420478
-38.555 32.7079 -38.7863 0.244793 -0.968654 0.0422668
-39.4431 32.4407 -39.7276 0.246625 -0.968134 0.0435018
-40.2438 32.1985 -40.5778 0.24745 -0.967924 0.0434909
-40.5517 32.1049 -40.9046 0.248751 -0.967557 0.0442298
-46.0241 30.2322 -51.9159 0.262062 -0.964711 0.0256172
-45.2992 30.4509 -51.1399 0.262411 -0.964588 0.0266685
-44.5445 30.6778 -50.3322 0.261771 -0.96472 0.0281285
-43.847 30.8904 -49.5868 0.262211 -0.964552 0.0297514
-43.0508 31.1327 -48.736 0.262053 -0.964527 0.0318617
-41.7216 31.5398 -47.3165 0.258366 -0.96552 0.0319143
-40.9758 31.7663 -46.5215 0.255252 -0.966172 0.0368451
-39.918 32.0877 -45.3961 0.254237 -0.966432 0.0370481
-39.1079 32.332 -44.5356 0.252407 -0.966968 0.0355516
-38.137 32.6231 -43.5046 0.252761 -0.966904 0.0347667
-37.17 32.9125 -42.4777 0.249514 -0.967652 0.0373281
-35.9931 33.2609 -41.2303 0.247299 -0.968295 0.0353419
-35.2956 33.466 -40.4919 0.243971 -0.969053 0.0376156
-34.5786 33.6736 -39.7352 0.243178 -0.969334 0.0354563
-33.8624 33.8809 -38.9795 0.240062 -0.970159 0.034071
-33.0418 34.1107 -38.1161 0.237449 -0.970791 0.0344058
-31.9925 34.4065 -37.0123 0.232917 -0.971912 0.0337267
-31.1056 34.6471 -36.0825 0.22882 -0.972867 0.0342369
-30.2329 34.8846 -35.1673 0.226661 -0.973386 0.0338468
-29.3841 35.1094 -34.2797 0.224022 -0.974059 0.0319868
-28.5416 35.3321 -33.3989 0.217667 -0.975541 0.0306858
-27.7943 35.5179 -32.6191 0.217231 -0.975872 0.0220108
-27.0638 35.6969 -31.8567 0.214189 -0.976656 0.0163381
-26.0104 35.9417 -30.7602 0.211907 -0.977158 0.0160442
-25.1368 36.1322 -29.8574 0.197655 -0.980184 0.0131277
-24.2602 36.3211 -28.9521 0.197179 -0.980334 0.00815307
-23.3991 36.4918 -28.0659 0.183206 -0.983034 0.00890865
-22.6175 36.6447 -27.2619 0.182202 -0.983227 0.00820356
-22.1469 36.7351 -26.7778 0.180723 -0.983513 -0.00641607
-46.4696 30.0385 -54.9829 0.26635 -0.963674 0.0197556
-45.7249 30.2583 -54.1838 0.2637 -0.964385 0.0206036
-44.9689 30.4838 -53.3735 0.264121 -0.96424 0.0219356
-44.2235 30.7064 -52.5747 0.264664 -0.96408 0.0224201
-43.4539 30.9374 -51.7512 0.264815 -0.964028 0.0228625
-42.62 31.1862 -50.8595 0.263368 -0.964363 0.0253092
-41.7942 31.4379 -49.9769 0.263928 -0.964135 0.0280424
-40.8638 31.7169 -48.9854 0.260042 -0.965239 0.0262981
-40.1678 31.927 -48.2434 0.257582 -0.965784 0.0302209
-39.2228 32.2073 -47.2374 0.256416 -0.966082 0.0305944
-38.417 32.4496 -46.3802 0.254861 -0.966485 0.0308769
-37.1387 32.83 -45.0241 0.252873 -0.966987 0.0315
-36.3085 33.0746 -44.1433 0.248695 -0.967959 0.0347217
-35.5772 33.2903 -43.3674 0.247924 -0.968178 0.0341171
-34.6808 33.5519 -42.4182 0.246962 -0.96841 0.0345305
-33.7158 33.8313 -41.3974 0.243221 -0.969401 0.0332523
-32.9296 34.0545 -40.567 0.235194 -0.971401 0.0326181
-32.1569 34.2704 -39.7543 0.235592 -0.971257 0.0339937
-31.4128 34.4761 -38.9721 0.22852 -0.972986 0.0328131
-30.6206 34.6902 -38.142 0.228535 -0.972981 0.0328493
-29.8497 34.8985 -37.3342 0.225034 -0.973809 0.0324807
-28.9982 35.1254 -36.4436 0.224497 -0.9739 0.0334612
-28.1698 35.3461 -35.577 0.224262 -0.973979 0.0327244
-27.3825 35.542 -34.7568 0.211299 -0.97698 0.0293841
-26.5964 35.7366 -33.938 0.211488 -0.976922 0.0299202
-25.863 35.9132 -33.1744 0.209429 -0.977507 0.0249113
-25.1102 36.0912 -32.3916 0.195301 -0.980585 0.0176019
-24.0246 36.3246 -31.2682 0.191821 -0.981343 0.013098
-22.8562 36.5665 -30.0631 0.183571 -0.982862 0.0168792
-22.1422 36.7087 -29.3285 0.174573 -0.984508 0.0163649
-21.0645 36.9098 -28.2226 0.165929 -0.98612 0.0058618
-20.2293 37.0554 -27.3671 0.161245 -0.986898 0.00576187
-19.3467 37.183 -26.4701 0.150742 -0.988508 -0.0113006
-18.4985 37.3025 -25.6086 0.15236 -0.988265 -0.0108904
-17.6036 37.4288 -24.6984 0.147732 -0.989008 -0.0061376
-46.0797 30.1062 -57.1515 0.265768 -0.963911 0.0156156
-45.3455 30.3206 -56.3635 0.264813 -0.964178 0.0153371
-44.559 30.5519 -55.5198 0.265189 -0.964041 0.0172941
-43.7692 30.7846 -54.6729 0.265718 -0.963832 0.0205575
-42.9338 31.034 -53.7778 0.264152 -0.964262 0.020531
-41.9801 31.3164 -52.7577 0.263288 -0.964466 0.0220115
-40.9833 31.6129 -51.6923 0.26169 -0.964899 0.0220845
-39.9224 31.926 -50.5606 0.258243 -0.9657 0.0270852
-39.1799 32.1468 -49.769 0.258243 -0.9657 0.0270852
-38.2987 32.4072 -48.8316 0.257362 -0.965958 0.0262563
-37.4708 32.6495 -47.9519 0.252878 -0.967125 0.0268505
-36.7383 32.8624 -47.1761 0.251836 -0.967322 0.0294322
-35.8254 33.1313 -46.2078 0.250219 -0.967678 0.0314666
-35.1041 33.3416 -45.4433 0.248079 -0.968238 0.0311821
-33.9468 33.6737 -44.2186 0.244517 -0.969203 0.029265
-33.2367 33.8779 -43.4672 0.242339 -0.969572 0.0346716
-32.2328 34.1637 -42.4067 0.236138 -0.971148 0.0333102
-31.3323 34.4119 -41.4581 0.231538 -0.972324 0.0312351
-30.4639 34.646 -40.5464 0.228873 -0.972922 0.0322523
-29.6902 34.8549 -39.7346 0.228522 -0.972986 0.0328102
-28.8777 35.0684 -38.8849 0.221534 -0.974624 0.0321113
-28.0625 35.2817 -38.0328 0.222152 -0.974429 0.0337257
-27.159 35.5154 -37.0898 0.210038 -0.977179 0.0316992
-26.1458 35.7674 -36.0351 0.209942 -0.977215 0.0312364
-25.3503 35.965 -35.2066 0.21064 -0.977071 0.031035
-24.617 36.147 -34.4428 0.203772 -0.978485 0.0323127
-23.8606 36.3148 -33.6598 0.196354 -0.980345 0.0191982
-23.0931 36.4841 -32.8656 0.190711 -0.981475 0.0183331
-22.3161 36.6397 -32.0651 0.182469 -0.983128 0.0127891
-21.1328 36.8697 -30.8479 0.176922 -0.984194 0.00774408
-20.3322 37.0201 -30.026 0.171619 -0.985103 0.0109011
-19.164 37.2159 -28.8341 0.15656 -0.987652 0.00566673
-18.2282 37.3697 -27.8802 0.153657 -0.98812 -0.00281781
-17.4959 37.475 -27.1351 0.153979 -0.988019 -0.010477
-16.4858 37.6142 -26.1076 0.142581 -0.989704 -0.0125321
-15.6233 37.724 -25.232 0.134788 -0.990805 -0.0117163
-14.2947 37.8888 -23.8852 0.129448 -0.991133 -0.0299666
-13.5566 37.9476 -23.1421 0.118315 -0.992209 -0.0390131
-12.7463 38.0077 -22.327 0.0984178 -0.994585 -0.033378
-8.69881 38.3017 -20.8072 0.0699492 -0.996708 -0.0409867
-10.3915 38.2372 -22.5006 0.0822221 -0.996085 -0.0324626
-11.7654 38.1542 -23.8795 0.0994302 -0.994562 -0.0309954
-13.0498 38.0501 -25.1723 0.109614 -0.993915 -0.0109006
-14.3395 37.9142 -26.4752 0.131173 -0.99131 -0.00992539
-15.7551 37.7341 -27.9116 0.140142 -0.990124 0.00378341
-17.4608 37.4706 -29.6497 0.148416 -0.988877 0.00973151
-18.8244 37.2464 -31.0406 0.153882 -0.988028 0.0110105
-20.4008 36.9728 -32.6537 0.165546 -0.986137 0.011372
-21.9812 36.6684 -34.2785 0.18506 -0.982572 0.0174703
-23.3087 36.3754 -35.6504 0.197927 -0.979637 0.0337124
-24.7474 36.0342 -37.1438 0.207279 -0.977924 0.0264581
-26.1201 35.6945 -38.5726 0.212662 -0.97668 0.0295288
-27.3595 35.3817 -39.8649 0.215318 -0.976022 0.0319168
-28.6407 35.0471 -41.2052 0.223154 -0.974248 0.0323066
-30.1548 34.6457 -42.7936 0.228803 -0.973002 0.0302821
-31.3897 34.3128 -44.092 0.230096 -0.972638 0.0321135
-32.7285 33.9388 -45.5051 0.239731 -0.970406 0.0289957
-34.4253 33.4561 -47.3 0.247442 -0.96845 0.0296162
-36.1408 32.965 -49.1138 0.252877 -0.967126 0.0268516
-37.7788 32.4911 -50.8534 0.255305 -0.966624 0.0213966
-39.4465 32.0054 -52.6319 0.259843 -0.965403 0.0218694
-40.8394 31.5966 -54.1198 0.261138 -0.965118 0.0188015
-42.3464 31.1543 -55.7318 0.263885 -0.964407 0.0168408
-43.6021 30.7884 -57.0773 0.265274 -0.964049 0.0154791
-45.3059 30.2954 -58.9051 0.266148 -0.963886 0.00940726
-45.7178 30.177 -59.3473 0.266703 -0.963731 0.00963302
-44.5589 30.4844 -60.6848 0.264494 -0.964362 0.00691577
-43.0858 30.9036 -59.1051 0.263753 -0.964535 0.0102862
-41.5366 31.3487 -57.4455 0.264699 -0.964234 0.0136939
-40.1073 31.7611 -55.9179 0.261512 -0.965054 0.0168241
-38.652 32.1821 -54.3648 0.257665 -0.966035 0.0196322
-37.4183 32.5376 -53.049 0.255275 -0.966644 0.0208368
-36.0964 32.9152 -51.6412 0.250185 -0.967951 0.02186
-34.4978 33.3626 -49.947 0.245122 -0.96919 0.0242157
-32.7916 33.8438 -48.1461 0.241848 -0.969913 0.0278884
-31.4547 34.2169 -46.7339 0.236 -0.971352 0.0279011
-30.052 34.5967 -45.2568 0.232821 -0.972187 0.0254369
-28.8071 34.9242 -43.95 0.227124 -0.973465 0.0279309
-27.4153 35.2878 -42.4911 0.218879 -0.975298 0.0297446
-26.1309 35.6138 -41.1495 0.216861 -0.975819 0.0273586
-24.8738 35.9273 -39.8396 0.21215 -0.976783 0.0297858
-23.0378 36.3588 -37.9335 0.197673 -0.979961 0.0245139
-21.7482 36.6432 -36.6008 0.182716 -0.982636 0.0322864
-20.3052 36.9443 -35.1144 0.168366 -0.985434 0.0239322
-18.855 37.2107 -33.6271 0.152866 -0.988175 0.0119575
-17.4112 37.4522 -32.1517 0.153411 -0.988088 0.0121615
-16.0821 37.6698 -30.7953 0.150258 -0.988623 0.00686819
-14.6194 37.8814 -29.3069 0.133167 -0.991046 0.00972487
-13.2596 38.0575 -27.9282 0.121726 -0.992547 -0.00574482
-11.9921 38.1949 -26.648 0.10756 -0.994041 -0.0177165
-10.5648 38.2995 -25.2116 0.088518 -0.995535 -0.0327946
-9.01226 38.3845 -23.6542 0.0797313 -0.996478 -0.0259607
-7.59726 38.4398 -22.2385 0.0626108 -0.996982 -0.0458957
-6.2134 38.4493 -20.858 0.0524102 -0.997808 -0.0403981
-4.75663 38.4363 -19.4077 0.0329488 -0.998689 -0.0391659
-3.49542 38.3847 -18.1559 0.00334645 -0.998992 -0.0447718
-42.8172 30.9569 -61.3975 0.263672 -0.964586 0.00709056
-41.9505 31.2001 -60.4681 0.263475 -0.96463 0.00840213
-40.9749 31.4775 -59.4224 0.262395 -0.964915 0.00937745
-39.9612 31.7634 -58.3386 0.261508 -0.96514 0.0108493
-39.0928 32.01 -57.4106 0.260794 -0.965274 0.0152304
-38.2141 32.2603 -56.4747 0.256493 -0.966414 0.0159474
-37.2741 32.5263 -55.4742 0.256922 -0.966265 0.0179713
-36.5278 32.7383 -54.6794 0.250632 -0.967843 0.0215145
-35.4064 33.0548 -53.4864 0.250145 -0.967988 0.0206604
-34.67 33.2614 -52.7034 0.250121 -0.968004 0.0201722
-33.4305 33.6006 -51.3908 0.244831 -0.969362 0.0198987
-32.6188 33.8207 -50.5329 0.23771 -0.97104 0.0240039
-31.6905 34.0778 -49.5544 0.23805 -0.970812 0.0292494
-30.7304 34.3417 -48.543 0.235104 -0.971576 0.0276955
-29.8225 34.5888 -47.5857 0.235102 -0.971571 0.0278573
-28.545 34.9215 -46.2449 0.226383 -0.973688 0.0261323
-27.8412 35.1048 -45.5066 0.21973 -0.975192 0.0268194
-26.5385 35.438 -44.1424 0.220121 -0.975085 0.0275091
-25.7265 35.64 -43.2943 0.212094 -0.976811 0.029267
-24.8962 35.8434 -42.4289 0.209932 -0.977335 0.0273081
-24.1271 36.0321 -41.6278 0.201913 -0.978828 0.0335678
-23.0828 36.2756 -40.5444 0.191919 -0.980768 0.0355013
-22.1483 36.4826 -39.5771 0.177847 -0.983654 0.0281908
-21.0206 36.7189 -38.4131 0.180395 -0.983161 0.0292067
-20.1939 36.8945 -37.5612 0.170982 -0.984792 0.030822
-19.2248 37.094 -36.564 0.169737 -0.985111 0.0273124
-18.2852 37.2688 -35.6007 0.158025 -0.98719 0.022017
-17.5471 37.3994 -34.8451 0.152043 -0.98831 0.0112578
-16.7685 37.5271 -34.0494 0.150741 -0.98851 0.011155
-15.9181 37.6693 -33.1805 0.145267 -0.989296 0.0138006
-15.0389 37.8021 -32.2849 0.132247 -0.9912 0.00576666
-14.119 37.9302 -31.3495 0.129497 -0.991563 0.00584586
-13.3616 38.0252 -30.5813 0.118975 -0.992887 0.00442669
-12.5778 38.1248 -29.7862 0.116136 -0.993194 0.00886747
-11.2832 38.2788 -28.4767 0.105975 -0.994325 0.00938629
-10.3833 38.3757 -27.5679 0.0891833 -0.995847 -0.0183002
-9.50153 38.4258 -26.6823 0.0729215 -0.997105 -0.0215216
-8.47316 38.4787 -25.6511 0.0712039 -0.997235 -0.0212769
-7.65355 38.5232 -24.8293 0.0805099 -0.996353 -0.0282486
-6.47571 38.5597 -23.651 0.0413847 -0.998234 -0.0426092
-5.69965 38.5596 -22.8774 0.0415721 -0.998258 -0.0418548
-4.94167 38.5439 -22.1233 0.0205045 -0.998882 -0.0425926
-4.10552 38.5308 -21.2914 0.0218427 -0.999049 -0.037723
-3.25941 38.5085 -20.4509 0.00755311 -0.998808 -0.0482223
-2.31273 38.4617 -19.5121 0.00565361 -0.998441 -0.0555312
-1.5093 38.4117 -18.7148 -0.0104439 -0.998233 -0.0584943
-0.606627 38.352 -17.8184 -0.0122206 -0.998726 -0.0489647
0.181071 38.3023 -17.036 -0.0310167 -0.998245 -0.050452
1.19206 38.2129 -16.0334 -0.0388998 -0.998005 -0.0497242
2.14167 38.1152 -15.092 -0.0456623 -0.997226 -0.0587755
2.96922 38.024 -14.2713 -0.061097 -0.996665 -0.0540874
-41.3909 31.3398 -62.4474 0.263658 -0.964602 0.0052736
-39.9436 31.741 -60.8978 0.259355 -0.965725 0.010521
-38.4111 32.1683 -59.2594 0.256925 -0.966351 0.0124769
-36.9865 32.5597 -57.7423 0.253598 -0.967204 0.0142748
-35.5271 32.9682 -56.1907 0.251032 -0.967841 0.0163405
-34.104 33.362 -54.6798 0.244567 -0.969365 0.0227756
-32.724 33.7401 -53.2163 0.24057 -0.970457 0.0184032
-31.136 34.1636 -51.5402 0.237359 -0.971241 0.0187565
-29.4765 34.6047 -49.7936 0.223511 -0.974199 0.0313021
-28.1034 34.9642 -48.3516 0.222607 -0.974475 0.0290514
-26.7135 35.3207 -46.8954 0.219727 -0.975193 0.0268206
-25.3121 35.6684 -45.4305 0.210913 -0.977101 0.0280815
-23.6827 36.0526 -43.7343 0.196098 -0.980228 0.0264269
-22.2822 36.3742 -42.2811 0.189042 -0.981441 0.0321847
-20.3904 36.7902 -40.3244 0.17779 -0.983844 0.0210106
-18.7611 37.1094 -38.6487 0.171421 -0.984838 0.0266189
-17.2281 37.4011 -37.0757 0.155911 -0.987505 0.0229096
-15.633 37.6774 -35.4443 0.13873 -0.99023 0.0140522
-14.2083 37.8968 -33.9923 0.133648 -0.990933 0.0137934
-12.5109 38.1302 -32.2671 0.124034 -0.992274 0.00263641
-10.8757 38.3116 -30.612 0.10946 -0.993991 0.0011188
-9.20974 38.4746 -28.9304 0.0936984 -0.995568 -0.00805442
-7.77776 38.566 -27.4919 0.0694878 -0.997361 -0.021028
-6.01287 38.6546 -25.7228 0.0515404 -0.998632 -0.00880471
-4.51469 38.651 -24.2288 0.0192567 -0.998905 -0.0426487
-2.98122 38.6075 -22.7046 0.0156743 -0.998768 -0.0470797
-1.4614 38.5584 -21.1964 0.00448443 -0.998756 -0.0496707
-0.0404476 38.46 -19.7856 -0.0202379 -0.997653 -0.0654129
1.40801 38.3311 -18.3483 -0.0353799 -0.997663 -0.0584476
3.41675 38.1126 -16.3569 -0.06257 -0.996411 -0.0570135
4.91868 37.9393 -14.8654 -0.0592367 -0.99687 -0.0523478
6.35784 37.7553 -13.4338 -0.0835751 -0.995467 -0.0453938
7.7817 37.5771 -12.0119 -0.0975057 -0.994558 -0.036695
9.36758 37.3659 -10.4226 -0.095374 -0.99475 -0.0370974
10.8939 37.1618 -8.89067 -0.102347 -0.994198 -0.0331048
12.8364 36.907 -6.93761 -0.106613 -0.993922 -0.0274285
14.4383 36.7013 -5.32202 -0.109308 -0.993883 -0.0157614
15.8578 36.5283 -3.88882 -0.110712 -0.993784 -0.0117097
17.2617 36.3596 -2.46901 -0.116627 -0.993159 -0.00580224
19.3091 36.1071 -0.393262 -0.126748 -0.991935 0.000502275
20.7651 35.9313 1.09003 -0.127423 -0.991808 0.00892391
22.5991 35.7029 2.96358 -0.136835 -0.990555 0.00879538
24.0475 35.5168 4.44964 -0.137262 -0.990427 0.0146114
25.6748 35.3119 6.12625 -0.144117 -0.989273 0.0238518
27.1215 35.134 7.62068 -0.153959 -0.987423 0.0359561
28.6276 34.9565 9.17422 -0.165868 -0.985496 0.0358542
30.2951 34.7244 10.8964 -0.172402 -0.984692 0.0256918
31.7466 34.4951 12.4109 -0.197114 -0.979778 0.034353
33.3149 34.2039 14.0665 -0.224098 -0.974146 0.0286263
34.7539 33.9189 15.5949 -0.237912 -0.970434 0.0406824
36.266 33.6096 17.2157 -0.271548 -0.960924 0.0537368
37.8377 33.2202 18.9308 -0.309591 -0.949557 0.0499427
39.2895 32.7855 20.554 -0.378428 -0.925431 0.0192447
40.7498 32.1874 22.2844 -0.386588 -0.92225 -0.00216823
42.1143 31.6232 23.9283 -0.381469 -0.924366 0.00546474
42.3595 31.5238 24.2263 -0.381469 -0.924366 0.00546409
43.5764 30.946 23.0812 -0.415637 -0.909297 0.0206141
42.073 31.6065 21.2366 -0.416096 -0.909252 0.0111546
40.7615 32.1496 19.6698 -0.391134 -0.920108 0.0203821
39.4033 32.6404 18.0939 -0.324111 -0.944966 0.0446198
37.938 33.0634 16.4614 -0.283489 -0.958231 0.0377785
36.4295 33.4479 14.8134 -0.265933 -0.963391 0.0340252
35.0617 33.7628 13.3441 -0.243073 -0.969336 0.0361066
33.2734 34.1248 11.4428 -0.227276 -0.973089 0.0379807
31.8888 34.3826 9.98461 -0.200861 -0.979462 0.0176054
30.3907 34.6245 8.4272 -0.179644 -0.983067 0.0361524
28.7157 34.854 6.69001 -0.167437 -0.98536 0.0320848
27.2694 35.0476 5.19144 -0.155272 -0.98762 0.0222983
25.8066 35.2467 3.68089 -0.152434 -0.988178 0.0163893
24.1179 35.478 1.94549 -0.140912 -0.989984 0.00864431
22.6689 35.6682 0.463624 -0.137894 -0.990436 0.00469315
21.267 35.8505 -0.9655 -0.132785 -0.991133 0.00487748
19.4229 36.0942 -2.83958 -0.125794 -0.992041 -0.0054887
17.6175 36.331 -4.66882 -0.120405 -0.992683 -0.00908191
15.9071 36.5547 -6.39642 -0.116713 -0.993031 -0.0163582
14.3682 36.7637 -7.94999 -0.114984 -0.993113 -0.0224996
12.8559 36.9724 -9.47172 -0.113316 -0.993145 -0.0286929
11.2743 37.1923 -11.0576 -0.103854 -0.994068 -0.032307
9.62207 37.4252 -12.7142 -0.100005 -0.994112 -0.0417236
7.79684 37.6797 -14.5372 -0.0961476 -0.994403 -0.0438039
6.20351 37.8943 -16.1214 -0.0806617 -0.995073 -0.0576519
4.71513 38.0939 -17.5988 -0.0746974 -0.995792 -0.0530901
3.14942 38.2845 -19.1508 -0.0637244 -0.996601 -0.0522104
1.5584 38.4746 -20.7268 -0.0432038 -0.99707 -0.0631211
-0.345102 38.6227 -22.6165 -0.0168872 -0.998932 -0.0430176
-1.93157 38.6924 -24.1912 0.0144822 -0.998932 -0.0438756
-3.44407 38.7335 -25.6944 0.0230879 -0.998812 -0.0429089
-4.91241 38.7365 -27.1587 0.0460687 -0.998745 -0.0196683
-6.68798 38.667 -28.9373 0.06306 -0.997841 -0.0183737
-8.4633 38.5574 -30.7212 0.0806134 -0.99674 -0.00316338
-10.4387 38.3518 -32.7183 0.0999712 -0.994975 0.00561314
-12.2681 38.1362 -34.5724 0.110078 -0.993841 0.0127559
-13.9626 37.8887 -36.2967 0.128658 -0.991432 0.0225744
-15.3948 37.6607 -37.7577 0.137072 -0.990251 0.0247784
-16.9088 37.3991 -39.3067 0.156281 -0.987439 0.0232279
-18.4443 37.1104 -40.8832 0.159317 -0.986812 0.0286524
-19.8564 36.8296 -42.3367 0.180806 -0.9829 0.0348879
-21.5002 36.4732 -44.0364 0.190423 -0.98132 0.0273731
-23.339 36.0602 -45.9441 0.19588 -0.980209 0.0286444
-24.7613 35.728 -47.424 0.210475 -0.97714 0.0299574
-26.2433 35.3576 -48.9739 0.212397 -0.976652 0.0322251
-27.7031 34.9986 -50.5005 0.221629 -0.974861 0.0229297
-29.5562 34.5239 -52.4459 0.226771 -0.97375 0.0196361
-31.0354 34.1374 -54.0048 0.235864 -0.971589 0.0195795
-32.6864 33.7003 -55.7492 0.242483 -0.969974 0.0187484
-34.2858 33.2623 -57.4457 0.247253 -0.96883 0.015304
-35.6507 32.8968 -58.8941 0.249787 -0.968247 0.0101739
-37.4328 32.411 -60.7915 0.252742 -0.967488 0.00944535
-39.2904 31.9026 -62.7762 0.257332 -0.966296 0.00726866
-39.3601 31.8834 -62.8508 0.259866 -0.965634 0.00456926
-37.3421 32.4163 -63.2685 0.253298 -0.967374 0.00527314
-35.7358 32.8465 -61.5573 0.252493 -0.967549 0.0098004
-34.2771 33.2346 -60.0084 0.24563 -0.969298 0.0112477
-32.5431 33.6944 -58.1707 0.241777 -0.970233 0.0138161
-31.0477 34.0867 -56.5885 0.233191 -0.972324 0.0144225
-29.4741 34.4918 -54.9299 0.23013 -0.972917 0.0217232
-27.8969 34.8897 -53.2725 0.220119 -0.975209 0.022693
-26.482 35.2367 -51.7906 0.21571 -0.976195 0.0226472
-25.0346 35.5875 -50.2781 0.204609 -0.978456 0.0275488
-23.6127 35.9198 -48.7967 0.199 -0.979587 0.0284337
-22.2248 36.2371 -47.3541 0.188894 -0.981549 0.0296858
-20.6698 36.5811 -45.7426 0.177858 -0.983673 0.0274566
-18.5989 37.01 -43.6045 0.164876 -0.985979 0.0257217
-17.2011 37.2739 -42.1679 0.159319 -0.986811 0.0286541
-15.7131 37.5459 -40.642 0.144536 -0.98919 0.0247317
-14.0592 37.8208 -38.9514 0.134452 -0.990706 0.0205996
-12.2773 38.0876 -37.1355 0.120667 -0.992584 0.0146842
-10.4844 38.3206 -35.3152 0.107793 -0.994057 0.0152055
-8.68124 38.5237 -33.4888 0.0971955 -0.995242 0.0068502
-6.99321 38.6797 -31.7842 0.0806148 -0.99674 -0.00316618
-5.30513 38.7688 -30.0884 0.0594279 -0.998108 -0.0157738
-3.86697 38.8216 -28.6479 0.0497116 -0.998387 -0.0274296
-2.22001 38.814 -27.0057 0.0180321 -0.998687 -0.0479564
-0.537586 38.7541 -25.334 0.00344564 -0.999059 -0.0432301
1.39741 38.6281 -23.4146 -0.0393822 -0.997858 -0.0522425
3.02727 38.459 -21.7974 -0.055612 -0.996732 -0.0585875
4.48057 38.268 -20.3596 -0.0662315 -0.995637 -0.0657338
6.12049 38.05 -18.734 -0.0786426 -0.995398 -0.0547556
7.9036 37.7928 -16.9644 -0.0933451 -0.994154 -0.0542556
9.63001 37.5355 -15.2499 -0.0952362 -0.994426 -0.0452489
11.1101 37.3133 -13.7673 -0.105401 -0.993355 -0.0462216
12.6205 37.0874 -12.2562 -0.111625 -0.993106 -0.0357813
14.1458 36.8616 -10.7283 -0.113316 -0.993145 -0.0286929
15.6868 36.6363 -9.17788 -0.117586 -0.992816 -0.0221229
17.4329 36.3869 -7.41503 -0.121974 -0.992446 -0.0131791
18.8609 36.1863 -5.97219 -0.130294 -0.991404 -0.011928
20.2713 35.9905 -4.54314 -0.129468 -0.991554 -0.00766573
22.0527 35.7469 -2.73429 -0.137205 -0.990541 -0.00174905
23.5921 35.5255 -1.16665 -0.144405 -0.989476 0.00913956
25.065 35.3205 0.336338 -0.147797 -0.988994 0.00685354
26.4566 35.1208 1.76498 -0.154384 -0.987981 0.00775049
27.9221 34.9058 3.28182 -0.160258 -0.986978 0.0138683
29.3188 34.6984 4.73264 -0.184068 -0.982429 0.0308518
31.0724 34.425 6.56025 -0.192184 -0.980545 0.0399499
32.5735 34.1827 8.13041 -0.200476 -0.979013 0.036652
34.0262 33.8884 9.66197 -0.230199 -0.972684 0.0298967
35.471 33.5771 11.1974 -0.242649 -0.969324 0.0391514
36.9522 33.2315 12.7908 -0.270565 -0.962015 0.0363657
38.5001 32.8183 14.4862 -0.303429 -0.951949 0.041522
39.9468 32.3742 16.1075 -0.332684 -0.942587 0.0291732
41.666 31.7701 18.0961 -0.367245 -0.929404 0.0366047
43.0617 31.1385 19.7951 -0.41537 -0.909606 0.00913493
44.5989 30.4243 21.7033 -0.45841 -0.888254 0.029409
45.3368 30.0705 22.6332 -0.468641 -0.883215 0.0174981
47.1057 29.0925 22.2717 -0.493264 -0.869618 0.0213315
45.801 29.8038 20.556 -0.474162 -0.880438 0.000440122
44.303 30.5495 18.6602 -0.425908 -0.904743 0.00655283
42.7883 31.2407 16.8033 -0.387993 -0.921318 0.0251831
41.5335 31.7329 15.3199 -0.370325 -0.928752 0.0167242
39.976 32.2803 13.5335 -0.352573 -0.935481 0.0238034
38.071 32.852 11.4124 -0.310975 -0.950028 0.027239
36.5283 33.2411 9.74126 -0.267618 -0.962957 0.0330687
35.0248 33.5809 8.13872 -0.254584 -0.96643 0.0346434
33.5747 33.8924 6.60091 -0.226464 -0.973179 0.0404606
31.674 34.2398 4.60332 -0.198607 -0.979629 0.0296888
30.0684 34.5147 2.92601 -0.186294 -0.982389 0.0143403
28.5453 34.7671 1.33981 -0.172768 -0.984938 0.00690778
26.9503 35.0235 -0.311112 -0.159653 -0.987151 0.00659407
25.5057 35.239 -1.79028 -0.153677 -0.98812 0.00177697
23.8269 35.4918 -3.49976 -0.151597 -0.988442 -0.00118374
22.4134 35.7007 -4.93649 -0.138338 -0.990383 -0.00203707
20.7688 35.9438 -6.60552 -0.13314 -0.991052 -0.00942401
18.9417 36.2138 -8.45364 -0.132982 -0.990913 -0.0201947
17.2411 36.4703 -10.1698 -0.125952 -0.991669 -0.0269958
15.5716 36.7276 -11.8513 -0.11915 -0.992338 -0.032694
13.9885 36.9743 -13.4343 -0.120139 -0.991837 -0.0427303
12.3023 37.243 -15.1187 -0.111923 -0.992519 -0.0487793
10.3147 37.567 -17.1037 -0.102136 -0.99298 -0.0596569
8.58108 37.8422 -18.8223 -0.0917873 -0.993577 -0.0661758
7.03362 38.0799 -20.3564 -0.081105 -0.994326 -0.0688354
4.99815 38.367 -22.3708 -0.0712815 -0.994895 -0.0714366
3.49523 38.5557 -23.8613 -0.0463139 -0.996663 -0.0672206
2.04484 38.7013 -25.2973 -0.0367329 -0.997375 -0.0624007
0.600727 38.8153 -26.7294 -0.0183864 -0.998342 -0.0545397
-1.26294 38.8973 -28.5813 0.0152009 -0.99927 -0.0350617
-2.81554 38.9106 -30.1297 0.0251498 -0.99929 -0.0280524
-4.2948 38.8663 -31.6115 0.064373 -0.9976 -0.0255084
-5.8087 38.7811 -33.1336 0.0807871 -0.996721 -0.00453862
-7.45354 38.6314 -34.7952 0.0976258 -0.99522 0.00265967
-9.20152 38.4486 -36.5649 0.106348 -0.994306 0.00673518
-10.8633 38.2426 -38.2511 0.11903 -0.992793 0.0139197
-12.6533 37.986 -40.074 0.127491 -0.991617 0.0210041
-14.5332 37.6822 -41.9945 0.137911 -0.990201 0.0219749
-16.4104 37.3605 -43.9172 0.158913 -0.987039 0.0223674
-17.9463 37.0656 -45.4968 0.168518 -0.985321 0.0272754
-19.4402 36.7691 -47.0364 0.182087 -0.982938 0.0260203
-20.8389 36.4767 -48.4825 0.186319 -0.982277 0.0204416
-22.2112 36.1767 -49.9057 0.195974 -0.980364 0.0219214
-23.8686 35.7978 -51.6303 0.199857 -0.97954 0.0236187
-25.262 35.4711 -53.084 0.210357 -0.977399 0.0209973
-26.9491 35.0689 -54.8482 0.2191 -0.975515 0.0191294
-28.3123 34.7344 -56.2793 0.223902 -0.974495 0.0150732
-30.1945 34.2663 -58.2606 0.224147 -0.974386 0.0181947
-31.9014 33.824 -60.0639 0.239581 -0.970785 0.0133453
-33.274 33.4708 -61.5156 0.236387 -0.971588 0.0117581
-34.7629 33.0797 -63.0953 0.242187 -0.970187 0.00904591
-35.5215 32.8823 -63.9014 0.24746 -0.968867 0.00773675
-34.066 33.2404 -64.9288 0.240238 -0.970688 0.00710611
-32.2418 33.7053 -62.9956 0.233412 -0.97229 0.0130557
-30.6392 34.1082 -61.3023 0.227181 -0.973738 0.0149273
-29.1871 34.4682 -59.7714 0.224533 -0.974271 0.0195053
-27.2814 34.9444 -57.7658 0.21656 -0.975975 0.023974
-25.8419 35.2863 -56.2576 0.208742 -0.977848 0.0154646
-24.3361 35.6369 -54.6846 0.204066 -0.978765 0.0194181
-22.4876 36.0527 -52.7597 0.194503 -0.980694 0.0201804
-21.0951 36.3586 -51.3139 0.188166 -0.981775 0.0266613
-19.1601 36.7652 -49.3112 0.177809 -0.983819 0.0220147
-17.7458 37.0387 -47.8533 0.16691 -0.985694 0.0233949
-16.2001 37.3316 -46.2632 0.15564 -0.98747 0.0260804
-14.4842 37.633 -44.5039 0.140078 -0.989812 0.0255145
-12.5304 37.9454 -42.5067 0.132082 -0.990998 0.0218651
-10.9239 38.1905 -40.8673 0.123723 -0.992106 0.0204605
-9.25297 38.4204 -39.1669 0.112573 -0.993587 0.0105473
-7.44772 38.6287 -37.3369 0.106703 -0.994289 0.00188076
-5.88788 38.7794 -35.7584 0.0874843 -0.996155 -0.00456713
-4.16179 38.9096 -34.0166 0.0710745 -0.997439 -0.00800182
-2.57278 38.9907 -32.4196 0.0497845 -0.998257 -0.031683
-1.12896 38.9908 -30.9764 0.0213588 -0.998897 -0.0418148
0.535154 38.946 -29.3184 0.0107629 -0.998757 -0.0486692
2.34096 38.8274 -27.5256 -0.0105946 -0.997747 -0.0662498
4.04177 38.6619 -25.8428 -0.0367292 -0.997375 -0.0623997
5.51018 38.4843 -24.3892 -0.0532409 -0.995492 -0.0784987
7.31079 38.2287 -22.6061 -0.062452 -0.994877 -0.0795
8.93355 37.9681 -21.0011 -0.0786295 -0.993745 -0.0793043
10.5507 37.6973 -19.4 -0.0884977 -0.99307 -0.077334
12.1115 37.4216 -17.8511 -0.1018 -0.992343 -0.0699423
13.6011 37.1627 -16.3673 -0.109629 -0.992373 -0.0563725
15.0557 36.9139 -14.9141 -0.122103 -0.991375 -0.0475987
16.4843 36.676 -13.485 -0.12481 -0.991456 -0.0379074
18.1315 36.408 -11.8298 -0.127082 -0.991339 -0.0331098
19.5616 36.1773 -10.3885 -0.13296 -0.990711 -0.0285237
21.2413 35.9134 -8.69568 -0.136486 -0.990494 -0.0170947
23.1545 35.6105 -6.75657 -0.142631 -0.989726 -0.00994626
24.594 35.3823 -5.29064 -0.148646 -0.988885 -0.00316127
25.9981 35.1592 -3.85816 -0.156007 -0.987746 0.00449504
27.4044 34.9427 -2.42239 -0.155175 -0.987885 0.00188509
28.8679 34.6961 -0.913631 -0.170227 -0.985373 0.00794624
30.356 34.4266 0.635523 -0.193094 -0.981155 0.00702547
32.1823 34.0892 2.54162 -0.198907 -0.979891 0.0157888
33.9506 33.7427 4.40013 -0.225695 -0.973975 0.0208297
35.5685 33.3817 6.11882 -0.243148 -0.969849 0.0164978
37.3664 32.9465 8.0478 -0.269607 -0.962234 0.0376633
