-15.9407 36.6953 32.8918 0.161969 -0.986596 -0.0198641
-17.1683 36.4465 34.1571 0.17083 -0.984964 -0.0257501
-18.5271 36.1747 35.5591 0.1817 -0.983212 -0.0166828
-19.84 35.8944 36.9195 0.199745 -0.979602 -0.0219511
-21.1398 35.605 38.2722 0.208396 -0.977964 -0.012513
-22.7583 35.2214 39.9652 0.217239 -0.976039 -0.012474
-24.2979 34.8494 41.5807 0.225466 -0.974164 -0.0129984
-25.6011 34.5282 42.9524 0.225437 -0.974152 -0.0143751
-26.7375 34.2355 44.155 0.237773 -0.971237 -0.0127573
-27.9083 33.9389 45.3946 0.238133 -0.971206 -0.0071739
-28.8781 33.6928 46.4229 0.244109 -0.969724 -0.0068336
-29.5504 33.5164 47.1381 0.245939 -0.969254 -0.007727
-30.4474 33.2915 46.801 0.245888 -0.969265 -0.00807143
-29.4586 33.5514 45.7484 0.244109 -0.969724 -0.0068336
-28.1657 33.8819 44.3766 0.241928 -0.970267 -0.00727058
-26.7444 34.2501 42.8709 0.238229 -0.971135 -0.0119766
-25.7239 34.515 41.7913 0.238817 -0.970978 -0.0129817
-24.5138 34.8131 40.5186 0.225121 -0.974251 -0.0124751
-23.4004 35.0857 39.3492 0.224447 -0.974339 -0.0169318
-21.8663 35.457 37.7422 0.211843 -0.977175 -0.0158756
-20.8502 35.6912 36.682 0.204567 -0.978654 -0.0197307
-19.8651 35.9157 35.6571 0.203455 -0.978895 -0.0192563
-18.6137 36.1774 34.3622 0.183343 -0.982942 -0.0144815
-17.5033 36.4056 33.2156 0.18406 -0.98274 -0.0185459
-16.2549 36.659 31.9285 0.167395 -0.98581 -0.0125297
-14.8901 36.8897 30.5317 0.15235 -0.988103 -0.0209986
-13.8418 37.0737 29.4579 0.136615 -0.990532 -0.0135046
-12.6033 37.2532 28.1949 0.121135 -0.992589 -0.00969114
-11.3791 37.4057 26.9507 0.11444 -0.993419 -0.00471918
-10.3222 37.5322 25.8791 0.111803 -0.993691 -0.00888001
-9.11953 37.6567 24.6632 0.0888581 -0.996044 -0.000969548
-7.76409 37.7728 23.2956 0.074739 -0.997202 -0.00140048
-6.46013 37.8731 21.9812 0.0674602 -0.997707 0.00548458
-5.03567 37.9492 20.5481 0.0550066 -0.998486 0.000891617
-3.53041 37.9892 19.0339 0.0357055 -0.999246 0.01524
-2.16608 38.0173 17.6619 0.0276194 -0.999603 0.00563563
-1.02004 38.031 16.5099 0.0212434 -0.99968 0.0137641
0.152584 38.0228 15.3319 0.00328888 -0.999845 0.0173232
1.44262 38.0103 14.0367 -0.00795501 -0.999936 0.0080152
2.47508 37.9826 12.9982 -0.0177236 -0.999661 0.0190476
3.86026 37.9227 11.6025 -0.0295491 -0.999452 0.0149496
5.34826 37.8602 10.1014 -0.0321085 -0.999419 0.0113974
6.88193 37.7711 8.54897 -0.0504712 -0.99867 0.0105285
8.21008 37.6931 7.20092 -0.0520627 -0.998618 0.00724738
9.43457 37.6141 5.95535 -0.0652398 -0.997861 0.00426033
10.4954 37.543 4.87414 -0.0656096 -0.997845 0.00125866
11.8439 37.4357 3.5006 -0.0806334 -0.996743 0.00158381
13.12 37.3261 2.19682 -0.0851436 -0.996366 -0.00217842
14.2053 37.2217 1.07898 -0.0946174 -0.99551 -0.00284893
15.6865 37.0807 -0.448849 -0.107046 -0.994246 -0.00404694
17.0398 36.9369 -1.84619 -0.116067 -0.993233 -0.00397259
18.2478 36.7981 -3.09349 -0.123032 -0.99239 -0.00510668
19.5891 36.63 -4.4781 -0.130841 -0.991403 -0.000425743
20.6115 36.4988 -5.53159 -0.137497 -0.990493 -0.00433357
21.756 36.344 -6.7128 -0.140615 -0.990026 -0.00875875
22.9082 36.1875 -7.91139 -0.146332 -0.989185 -0.0100173
24.0305 36.0403 -9.07366 -0.146429 -0.989057 -0.0180095
25.4696 35.86 -10.5676 -0.154239 -0.987473 -0.0332881
26.6359 35.7297 -11.7777 -0.1485 -0.987799 -0.0469038
27.9089 35.6137 -13.0977 -0.148445 -0.987012 -0.0614105
29.0439 35.5294 -14.2787 -0.154939 -0.982922 -0.0992928
30.0312 35.4706 -15.3119 -0.16532 -0.980934 -0.102166
31.3352 35.4029 -16.6748 -0.16442 -0.978777 -0.122316
32.6783 35.3597 -18.059 -0.188208 -0.971633 -0.143203
32.878 35.351 -18.2645 -0.190903 -0.971364 -0.141452
32.2128 35.5601 -18.8317 -0.169051 -0.974007 -0.150771
31.1549 35.5851 -17.7454 -0.166258 -0.976176 -0.139424
29.7185 35.6228 -16.2605 -0.16442 -0.978777 -0.122316
28.4308 35.6822 -14.9202 -0.14454 -0.984791 -0.0964112
26.9573 35.775 -13.3899 -0.145568 -0.987348 -0.0628778
25.7983 35.8754 -12.1935 -0.148994 -0.987733 -0.0467454
24.6347 36.0045 -10.9847 -0.147244 -0.988477 -0.0350963
23.6053 36.1207 -9.92022 -0.147936 -0.988758 -0.0217412
22.5663 36.2507 -8.84571 -0.142666 -0.989655 -0.0151257
21.3507 36.4092 -7.58591 -0.140621 -0.990025 -0.00875605
20.2816 36.5481 -6.48037 -0.135349 -0.990773 -0.00705008
19.1649 36.6928 -5.32857 -0.132596 -0.991142 -0.0074884
18.0792 36.824 -4.21413 -0.122072 -0.992474 -0.00969781
17.0513 36.9437 -3.15461 -0.116151 -0.993206 -0.00715522
15.484 37.1094 -1.53518 -0.10636 -0.994303 -0.00701057
13.9929 37.2497 0.00259468 -0.0938029 -0.995563 -0.00739995
12.8773 37.3491 1.15271 -0.0902868 -0.995916 -0.000239442
11.5672 37.4564 2.49332 -0.0780327 -0.996951 -0.000541278
10.286 37.553 3.7978 -0.0755586 -0.997134 0.00394146
9.18462 37.6272 4.92044 -0.0587104 -0.998265 0.00453255
7.94107 37.6998 6.18687 -0.0526267 -0.998607 0.00392468
6.64492 37.7763 7.50347 -0.0513245 -0.99866 0.006645
5.54277 37.8379 8.62107 -0.0370885 -0.999263 0.00988827
4.08576 37.9006 10.0908 -0.0313939 -0.99945 0.010706
2.77334 37.948 11.4149 -0.0141717 -0.999798 0.0142631
1.7569 37.979 12.4389 -0.0119523 -0.999691 0.0217973
0.420537 38.0164 13.7826 -0.00772072 -0.999882 0.0132803
-0.837707 38.0157 15.0453 0.0181092 -0.99979 0.00956079
-1.96083 38.0063 16.1737 0.0212434 -0.99968 0.0137641
-3.22613 37.9868 17.4457 0.0327572 -0.999442 0.0065159
-4.53202 37.9478 18.759 0.0371367 -0.999276 0.00824843
-6.0053 37.8955 20.2408 0.0608127 -0.998146 0.00268257
-7.47938 37.8011 21.7252 0.069977 -0.997548 -0.00138107
-8.50808 37.7231 22.7619 0.082048 -0.996592 -0.00853491
-9.80706 37.5961 24.0751 0.0887149 -0.996056 -0.00117338
-11.2875 37.4277 25.5746 0.110037 -0.99387 -0.010701
-12.3614 37.2864 26.6656 0.123178 -0.992384 0.00144925
-13.4111 37.1545 27.7325 0.142003 -0.989865 -0.00129784
-14.6991 36.9611 29.047 0.144352 -0.989309 -0.020728
-15.9609 36.7303 30.3409 0.16071 -0.986757 -0.0219855
-17.1527 36.4968 31.5684 0.182106 -0.983218 -0.0109733
-18.502 36.2232 32.9603 0.18433 -0.982688 -0.0186251
-19.7788 35.9613 34.2789 0.19343 -0.980965 -0.0170896
-20.9949 35.6831 35.5444 0.203458 -0.978894 -0.019258
-22.0131 35.4468 36.6063 0.218967 -0.975547 -0.0189988
-23.4962 35.086 38.1595 0.218247 -0.975744 -0.017076
-24.4805 34.8402 39.1938 0.223701 -0.974539 -0.0152491
-25.6284 34.5578 40.4 0.232482 -0.972476 -0.0155819
-26.7042 34.2773 41.5378 0.238817 -0.970978 -0.0129815
-27.7847 33.9972 42.6811 0.240735 -0.970518 -0.0119122
-28.9814 33.6829 43.9505 0.241477 -0.970362 -0.00929345
-30.039 33.4101 45.0739 0.244107 -0.969724 -0.00683269
-31.3632 33.0612 46.4832 0.250222 -0.968153 -0.00831101
-31.5922 32.999 46.7275 0.251395 -0.967862 -0.00669327
-32.7174 32.7086 46.6339 0.250246 -0.968173 -0.00413419
-31.7138 32.9784 45.5636 0.250223 -0.968153 -0.00831573
-30.681 33.2519 44.4641 0.247654 -0.968807 -0.00898775
-29.4181 33.5822 43.1214 0.242358 -0.970129 -0.0105722
-28.2959 33.8782 41.9318 0.24354 -0.969828 -0.0110361
-27.2684 34.1473 40.8435 0.239162 -0.970902 -0.0122466
-25.8549 34.5188 39.3486 0.241246 -0.970334 -0.0159068
-24.6552 34.8198 38.0868 0.225188 -0.974137 -0.0186143
-23.5854 35.0869 36.9633 0.218605 -0.975647 -0.0180371
-22.052 35.4621 35.3574 0.219308 -0.975503 -0.0172644
-20.9366 35.7199 34.1957 0.208859 -0.977843 -0.0141582
-19.4896 36.0413 32.6937 0.187022 -0.982234 -0.0154433
-18.2511 36.2998 31.4138 0.182828 -0.982967 -0.0186978
-17.1436 36.52 30.2722 0.177579 -0.983938 -0.018226
-15.7845 36.7844 28.8742 0.169323 -0.98543 -0.0160215
-14.2792 37.0304 27.3342 0.142716 -0.98976 -0.0026659
-12.7525 37.2366 25.7804 0.1272 -0.991858 -0.00610514
-11.6715 37.3949 24.6806 0.120632 -0.992623 -0.0121808
-10.3794 37.546 23.3705 0.0987653 -0.995103 -0.00396032
-9.33141 37.651 22.3107 0.0936649 -0.995533 -0.0118859
-8.11182 37.7554 21.0797 0.0695277 -0.997577 0.00241965
-6.85495 37.8368 19.8142 0.0666185 -0.997768 0.00447402
-5.55921 37.9076 18.5101 0.0479415 -0.998794 0.0106142
-4.22146 37.947 17.1651 0.037896 -0.999254 0.00739631
-2.96975 37.9809 15.9063 0.0282369 -0.999479 0.0156489
-1.9276 37.9881 14.8596 0.021661 -0.999658 0.0146357
-0.879909 38.0019 13.8075 0.0113505 -0.999878 0.0107672
0.264641 37.9909 12.6579 0.00403271 -0.999747 0.0221069
1.56445 37.9629 11.35 -0.0130877 -0.999824 0.0134484
2.59513 37.934 10.311 -0.015255 -0.99977 0.0150818
3.86681 37.898 9.02882 -0.0247297 -0.999651 0.00934334
5.02521 37.8496 7.86121 -0.0347874 -0.999359 0.00839399
6.40384 37.7794 6.46242 -0.0406876 -0.999154 0.00590434
7.69561 37.7123 5.14831 -0.0531897 -0.998584 0.000603711
8.71608 37.6511 4.10871 -0.0587104 -0.998265 0.00453255
8.92472 37.6379 3.89599 -0.059492 -0.998228 -0.000948839
5.97936 37.7969 5.60732 -0.0439734 -0.999031 0.00202295
4.75323 37.8489 6.85238 -0.0406876 -0.999154 0.00590434
3.58128 37.8955 8.03515 -0.0250952 -0.999628 0.0106987
2.34997 37.9293 9.2759 -0.0169864 -0.999846 0.00440433
1.00959 37.957 10.6261 -0.00635332 -0.99985 0.0160881
-0.411573 37.9796 12.0561 0.00072556 -0.999944 0.0105923
-1.89299 37.977 13.5445 0.0248634 -0.999656 0.00835604
-3.27868 37.9539 14.9362 0.0348114 -0.999255 0.0166614
-4.63129 37.9223 16.2958 0.0394857 -0.999151 0.01173
-6.09072 37.8666 17.7641 0.0587425 -0.998189 0.0129742
-7.15331 37.8123 18.8334 0.0666742 -0.997763 0.00476272
-8.21945 37.743 19.9069 0.0754459 -0.997113 0.00862375
-9.46767 37.6492 21.1652 0.0925387 -0.995703 -0.00344603
-10.7074 37.5151 22.4199 0.117134 -0.993097 -0.0060985
-11.8643 37.3751 23.5937 0.117905 -0.993025 -0.000803679
-12.8594 37.2383 24.6053 0.131545 -0.991224 -0.0130486
-14.3156 37.0253 26.0885 0.13979 -0.990179 -0.00198159
-15.7924 36.7941 27.5974 0.166813 -0.985969 -0.00621565
-17.3338 36.5065 29.1814 0.177742 -0.983898 -0.0187972
-18.4553 36.2823 30.3372 0.182827 -0.982967 -0.0187009
-19.6609 36.0261 31.5839 0.187629 -0.982082 -0.0175909
-21.1673 35.6861 33.1486 0.210701 -0.977347 -0.0199419
-22.9303 35.2712 34.9874 0.219022 -0.975581 -0.0164922
-23.9297 35.0268 36.0341 0.224669 -0.974255 -0.0187103
-25.2069 34.7038 37.3763 0.227865 -0.97358 -0.0148022
-26.4768 34.3745 38.7153 0.241162 -0.970352 -0.0160572
-27.696 34.0526 40.0044 0.242122 -0.97017 -0.0121077
-28.6749 33.7923 41.0415 0.244459 -0.969596 -0.0110982
-30.0659 33.427 42.5169 0.246817 -0.969014 -0.00968442
-31.3516 33.0858 43.8844 0.247658 -0.968806 -0.00898713
-32.6131 32.7461 45.2292 0.254618 -0.967025 -0.00575527
-33.3109 32.558 45.9733 0.252848 -0.967496 -0.00446003
-34.2645 32.3061 45.6981 0.256458 -0.96655 -0.00338759
-33.274 32.5756 44.6407 0.256185 -0.966611 -0.00569064
-31.841 32.9631 43.1127 0.255271 -0.966851 -0.00592391
-30.7192 33.2641 41.9187 0.250568 -0.968049 -0.00988351
-29.3884 33.6185 40.5061 0.244458 -0.969596 -0.011097
-28.1082 33.9591 39.1493 0.246137 -0.969126 -0.014539
-26.7751 34.3167 37.7386 0.241079 -0.97037 -0.0162081
-25.3284 34.693 36.2139 0.228803 -0.973323 -0.0170925
-24.0776 35.0145 34.8991 0.224671 -0.974255 -0.0187102
-22.9992 35.2762 33.7712 0.219022 -0.97558 -0.0164937
-21.4437 35.647 32.1481 0.209735 -0.977525 -0.0213543
-20.4189 35.89 31.08 0.199204 -0.979778 -0.0187663
-19.0805 36.1737 29.6961 0.189632 -0.98175 -0.0143853
-17.8558 36.4201 28.4331 0.184972 -0.982685 -0.0107476
-16.7415 36.6367 27.2859 0.165694 -0.986149 -0.00746805
-15.3678 36.8772 25.8772 0.152562 -0.988285 -0.00416094
-14.0443 37.0725 24.5284 0.145075 -0.989345 -0.0122294
-12.7858 37.266 23.2462 0.124729 -0.992167 -0.00692669
-11.4052 37.436 21.8452 0.117883 -0.993006 -0.00648265
-10.1252 37.5877 20.5484 0.110806 -0.993832 0.00446274
-9.11525 37.6709 19.5293 0.0755117 -0.997081 0.0113276
-8.01512 37.7457 18.4209 0.0794096 -0.996809 0.00812955
-6.7875 37.8186 17.1846 0.0583981 -0.998221 0.0120603
-5.30845 37.8839 15.6959 0.056676 -0.99829 0.0143029
-4.10489 37.9176 14.4858 0.0337329 -0.99939 0.0090543
-3.04317 37.9495 13.4195 0.022877 -0.999717 0.00651565
-1.65744 37.9727 12.0274 0.0161155 -0.999823 0.00975676
-0.599556 37.9678 10.9633 0.00500991 -0.999913 0.0122026
0.457065 37.9518 9.9002 -0.00766899 -0.999942 0.00756309
1.82273 37.9302 8.52544 -0.00828932 -0.999933 0.00802669
3.16609 37.8999 7.17211 -0.0289341 -0.999574 0.00388776
3.85249 37.8773 6.48036 -0.0286754 -0.999582 0.00354252
2.70208 37.9102 6.35852 -0.0205085 -0.99978 0.00438002
1.21991 37.9319 7.85142 -0.00940226 -0.999954 0.00197551
-0.0725055 37.9483 9.152 0.00103779 -0.999936 0.0112882
-1.3384 37.9535 10.425 0.00907922 -0.999908 0.0101141
-2.46727 37.9515 11.5603 0.0229367 -0.999721 0.00569747
-3.56322 37.9327 12.6617 0.0277649 -0.999607 0.0039781
-5.01262 37.884 14.1175 0.0437555 -0.999027 0.00554947
-6.03395 37.8353 15.1453 0.049304 -0.998784 -0.000428984
-7.18554 37.7846 16.3045 0.0648511 -0.997814 0.0126981
-8.23354 37.7238 17.3607 0.0712988 -0.997366 0.0133335
-9.34976 37.6363 18.4863 0.0880717 -0.996064 0.00995929
-10.5543 37.5362 19.7018 0.110757 -0.993839 0.00406738
-11.5657 37.4242 20.7253 0.117134 -0.993097 -0.00609851
-12.8611 37.2619 22.0399 0.119147 -0.99286 -0.00573663
-13.9925 37.0967 23.1915 0.144117 -0.989465 -0.013746
-15.2376 36.8984 24.4613 0.142435 -0.989779 -0.00710558
-16.4065 36.7045 25.6576 0.165307 -0.986222 -0.00633355
-17.6909 36.4682 26.977 0.18529 -0.982613 -0.0118183
-18.9322 36.2194 28.2566 0.18692 -0.982311 -0.0112299
-20.0457 35.9915 29.4065 0.189633 -0.98175 -0.0143851
-21.411 35.6844 30.8239 0.207994 -0.977916 -0.0204664
-22.8138 35.3509 32.2869 0.214598 -0.976314 -0.0275445
-24.0104 35.0546 33.5394 0.217545 -0.975883 -0.0180591
-25.1045 34.7747 34.6884 0.231586 -0.972669 -0.0167983
-26.1905 34.4936 35.8308 0.24308 -0.969869 -0.0163003
-27.6056 34.1173 37.3248 0.241104 -0.970363 -0.016262
-28.5741 33.8539 38.3507 0.247368 -0.968778 -0.0166786
-29.5547 33.5906 39.3901 0.247735 -0.968754 -0.0119286
-30.6471 33.2957 40.5501 0.249476 -0.968328 -0.0101322
-31.7385 33.0017 41.7102 0.251346 -0.967839 -0.0106203
-32.8387 32.7015 42.8833 0.254369 -0.967082 -0.00701439
-33.8675 32.4211 43.981 0.257874 -0.966164 -0.00537561
-35.2119 32.0557 45.4162 0.25835 -0.966045 -0.00345499
-35.5521 31.9674 44.4862 0.26075 -0.965396 -0.00442325
-34.2751 32.3168 43.1227 0.258 -0.966131 -0.00512424
-33.2618 32.5964 42.0414 0.25685 -0.966426 -0.00705319
-31.9602 32.9535 40.6533 0.25626 -0.966558 -0.00985396
-30.8942 33.2428 39.5194 0.249476 -0.968328 -0.0101322
-29.8444 33.5273 38.4051 0.25031 -0.968065 -0.0139414
-28.799 33.8139 37.2966 0.248081 -0.968613 -0.0156488
-27.7414 34.1011 36.1777 0.242296 -0.970094 -0.0145106
-26.3449 34.4758 34.7032 0.243869 -0.969639 -0.0180874
-25.2672 34.7576 33.569 0.233182 -0.972205 -0.021064
-24.2269 35.026 32.4763 0.218717 -0.975463 -0.0251878
-22.9175 35.3563 31.1048 0.20931 -0.977584 -0.0227693
-21.7423 35.6323 29.8801 0.214081 -0.976723 -0.0134881
-20.2243 35.9695 28.3048 0.190939 -0.981557 -0.00943126
-19.1624 36.1914 27.2075 0.18669 -0.982199 -0.0207784
-17.8609 36.4543 25.8656 0.178869 -0.983678 -0.019576
-16.6155 36.6822 24.5869 0.156669 -0.98754 -0.0148232
-15.2732 36.9111 23.2132 0.14316 -0.989582 -0.0152669
-13.6128 37.1733 21.5202 0.131205 -0.991321 -0.00827642
-12.2991 37.3394 20.1869 0.120763 -0.992643 -0.00870001
-11.2847 37.4527 19.1599 0.108574 -0.994084 0.00282407
-9.88027 37.5869 17.7411 0.0895587 -0.995979 0.00229319
-8.7545 37.6765 16.6053 0.0694 -0.997541 0.00980468
-7.57507 37.7488 15.4161 0.0691991 -0.997596 0.00380741
-6.56798 37.8092 14.4014 0.0493032 -0.998784 -0.0004273
-5.55259 37.8553 13.3803 0.0467112 -0.998897 0.00472176
-4.48286 37.8953 12.3057 0.0407239 -0.99917 0.00132603
-3.3355 37.9266 11.1524 0.0291008 -0.999537 0.00892057
-1.91399 37.9439 9.72328 0.0088617 -0.99994 0.00641289
-0.635321 37.9396 8.43747 0.000725124 -0.999973 0.00729336
0.622831 37.9338 7.1723 -0.00199578 -0.999986 0.00483874
1.14715 37.9302 6.6446 -0.00570089 -0.999978 0.00340865
-1.01319 37.9365 7.53813 0.000407059 -0.999994 0.0033018
-2.35462 37.9287 8.88626 0.0184479 -0.999765 0.0113915
-3.82739 37.9056 10.367 0.0291046 -0.999558 0.00614206
-4.97654 37.8741 11.5221 0.0407239 -0.99917 0.00132603
-6.17605 37.8242 12.7271 0.0442451 -0.99902 0.00098271
-7.65338 37.7416 14.2136 0.0708964 -0.997483 0.00134079
-8.73111 37.6699 15.3002 0.0674994 -0.9977 0.0062742
-9.94238 37.5788 16.5224 0.0887001 -0.996051 0.00370407
-11.4774 37.4286 18.074 0.10932 -0.994006 -0.00110887
-12.6612 37.3021 19.2717 0.110327 -0.993894 0.00191659
-13.908 37.1425 20.5372 0.131205 -0.991321 -0.00827643
-15.3688 36.9155 22.0263 0.142568 -0.989694 -0.0134152
-16.5397 36.7182 23.2237 0.15544 -0.987697 -0.0171171
-17.7035 36.5121 24.4168 0.167822 -0.985665 -0.017327
-18.8124 36.2873 25.5595 0.178869 -0.983678 -0.019574
-20.3256 35.9625 27.1237 0.194578 -0.980635 -0.0222381
-21.8866 35.6171 28.743 0.215007 -0.976457 -0.0174075
-23.463 35.2418 30.3865 0.219929 -0.975401 -0.0149888
-24.4536 34.9975 31.4228 0.229673 -0.973069 -0.0196726
-25.4206 34.7425 32.4396 0.236073 -0.971585 -0.0170984
-26.4984 34.4589 33.5742 0.242247 -0.970033 -0.0187418
-27.8811 34.0833 35.0348 0.24308 -0.969869 -0.0163005
-29.0458 33.7671 36.2663 0.247836 -0.968686 -0.0149862
-30.0698 33.487 37.3512 0.25005 -0.968094 -0.0164298
-31.1993 33.1749 38.5505 0.250307 -0.968066 -0.0139411
-32.251 32.8867 39.6699 0.256452 -0.966504 -0.0101253
-33.2371 32.6141 40.7216 0.258652 -0.96593 -0.00891642
-34.2443 32.3343 41.7968 0.259061 -0.965827 -0.00806211
-35.3008 32.0439 42.9244 0.25965 -0.965689 -0.00518535
-36.2773 31.7739 43.9674 0.260748 -0.965397 -0.00442342
-37.0327 31.5673 44.7751 0.2602 -0.965548 -0.00359972
-37.5533 31.4291 44.0373 0.261418 -0.96522 -0.00331657
-36.3464 31.7619 42.7476 0.2613 -0.965244 -0.00524399
-35.0784 32.1146 41.3932 0.260031 -0.965562 -0.00857454
-33.7376 32.4871 39.9619 0.258652 -0.96593 -0.0089158
-32.5582 32.8149 38.7037 0.256683 -0.966427 -0.0114917
-31.4101 33.1361 37.4811 0.25451 -0.966976 -0.0134641
-30.292 33.447 36.2939 0.254384 -0.966986 -0.0150642
-29.0238 33.7944 34.9518 0.246627 -0.96896 -0.0170799
-28.0474 34.0642 33.9184 0.245488 -0.969196 -0.0198846
-26.6859 34.4321 32.4809 0.241757 -0.970176 -0.0176491
-25.452 34.7591 31.182 0.237065 -0.971297 -0.0195545
-23.7811 35.1849 29.4308 0.219319 -0.975528 -0.0156271
-22.2544 35.5522 27.8379 0.212444 -0.97698 -0.0194541
-20.7906 35.8885 26.3171 0.196464 -0.980314 -0.0196697
-19.7425 36.1196 25.2324 0.199156 -0.979783 -0.019032
-18.7103 36.3334 24.1676 0.179868 -0.983513 -0.0187018
-17.6485 36.5393 23.0755 0.163734 -0.986438 -0.0114836
-16.631 36.7168 22.0333 0.160502 -0.987001 -0.0082374
-15.5336 36.8986 20.9117 0.150632 -0.988582 -0.00398211
-14.3047 37.0912 19.6585 0.144041 -0.989572 -0.000123613
-13.0383 37.2585 18.3722 0.119724 -0.992806 0.00133219
-11.6827 37.4113 16.9993 0.110061 -0.993912 -0.0050416
-10.306 37.5416 15.6079 0.0881147 -0.996096 0.00541535
-9.21581 37.6321 14.5074 0.07781 -0.996951 0.00584435
-7.77369 37.7369 13.0541 0.0686458 -0.997624 -0.00575567
-6.53485 37.8074 11.8084 0.0438964 -0.999035 0.00148583
-5.15708 37.8636 10.4241 0.0472055 -0.998861 0.00691876
-3.44878 37.9064 8.70644 0.0237767 -0.999679 0.00876878
-2.4275 37.9205 7.68044 0.0186759 -0.999822 0.00281402
-3.77282 37.8943 7.75304 0.0284562 -0.999593 0.00188281
-5.29417 37.8495 9.28291 0.0349509 -0.999338 0.0101277
-6.39098 37.8053 10.3852 0.0469564 -0.998868 0.00763216
-7.55311 37.7484 11.5531 0.0624416 -0.998044 0.00302979
-8.89316 37.6581 12.9018 0.075468 -0.997146 -0.00213471
-9.99165 37.5666 14.0091 0.0835625 -0.996498 -0.00309903
-11.4767 37.4412 15.5082 0.0988634 -0.995097 -0.00286936
-12.8352 37.2862 16.8847 0.11524 -0.993321 -0.00575165
-13.8991 37.1398 17.9658 0.135578 -0.990762 -0.00319891
-15.0317 36.9829 19.1175 0.150688 -0.98857 -0.00468949
-16.2972 36.7843 20.4082 0.155557 -0.987809 -0.00598965
-17.633 36.556 21.7754 0.160492 -0.987004 -0.00811878
-18.8162 36.333 22.991 0.177451 -0.984052 -0.0123651
-19.9108 36.109 24.1195 0.199963 -0.979579 -0.0209609
-21.4363 35.7686 25.699 0.198348 -0.979982 -0.0171011
-22.4532 35.5329 26.7556 0.210199 -0.977455 -0.019966
-23.8111 35.1988 28.1744 0.223358 -0.974421 -0.0248066
-25.4849 34.7787 29.9255 0.234977 -0.971799 -0.019813
-26.5514 34.495 31.0471 0.238107 -0.970981 -0.0224032
-27.5611 34.2217 32.1128 0.2398 -0.970606 -0.0205038
-28.8103 33.8786 33.4338 0.248243 -0.968493 -0.0199285
-29.9941 33.5521 34.6866 0.25022 -0.968046 -0.0166296
-31.189 33.217 35.9533 0.254257 -0.966993 -0.0166626
-32.219 32.9293 37.0469 0.25584 -0.966617 -0.0140212
-33.2824 32.6299 38.1812 0.257927 -0.966077 -0.0130347
-34.5749 32.2674 39.5612 0.260039 -0.965534 -0.011142
-35.5918 31.9819 40.6475 0.261267 -0.965233 -0.00811168
-36.5529 31.712 41.674 0.262258 -0.964959 -0.00860989
-37.9781 31.3177 43.197 0.261322 -0.965237 -0.00525293
-38.6145 31.1422 43.8771 0.261642 -0.965159 -0.00346147
-39.0671 31.0227 43.0662 0.262986 -0.964788 -0.0047367
-37.9142 31.3424 41.8342 0.261994 -0.965057 -0.00490204
-36.9563 31.6101 40.8108 0.262258 -0.964959 -0.0086107
-35.8882 31.9108 39.6693 0.260922 -0.965309 -0.00993688
-34.9245 32.1832 38.6393 0.26187 -0.965038 -0.0112296
-33.5462 32.5731 37.1675 0.259223 -0.965717 -0.0139034
-32.2521 32.9403 35.789 0.256542 -0.966401 -0.0159505
-30.9179 33.3149 34.3737 0.25381 -0.967119 -0.0161851
-29.8307 33.6211 33.2214 0.250575 -0.96791 -0.0190554
-28.4246 34.013 31.7325 0.249432 -0.96817 -0.0207677
-27.4346 34.2846 30.6867 0.240577 -0.970355 -0.0230833
-26.3948 34.5655 29.5912 0.23498 -0.971798 -0.0198137
-24.8408 34.9702 27.9618 0.226827 -0.973791 -0.0167648
-23.5169 35.3062 26.5753 0.223635 -0.974381 -0.0238607
-22.2492 35.6042 25.2565 0.208845 -0.977793 -0.0174465
-21.1202 35.8629 24.0853 0.19842 -0.97984 -0.0233059
-20.0658 36.1033 22.9925 0.195414 -0.980461 -0.022576
-18.937 36.3289 21.8296 0.174141 -0.984578 -0.0167388
-17.7927 36.5395 20.6551 0.159931 -0.987092 -0.00840556
-16.6343 36.7401 19.4695 0.152347 -0.988222 -0.0143887
-15.4112 36.9313 18.2219 0.142768 -0.989691 -0.011357
-14.2149 37.1077 17.0042 0.133766 -0.990954 -0.0108438
-13.1696 37.2478 15.9428 0.123573 -0.992329 -0.00344803
-11.8451 37.4027 14.5999 0.114786 -0.99338 -0.00452559
-10.6168 37.517 13.3592 0.084212 -0.996435 -0.00498435
-9.36864 37.6238 12.1009 0.0747119 -0.997205 0.000272178
-8.30499 37.6998 11.0302 0.0682004 -0.997668 0.00284977
-7.29821 37.7554 10.0182 0.0590895 -0.998244 0.00421435
-6.27774 37.8015 8.99255 0.0474557 -0.998854 0.00620734
-4.8465 37.8552 7.55368 0.036403 -0.999337 -0.000385257
-6.66875 37.7788 8.1073 0.0464176 -0.998922 -8.91263e-05
-7.82883 37.7246 9.27343 0.0580869 -0.99831 -0.00158966
-8.86274 37.6634 10.3126 0.0652763 -0.997866 -0.00141606
-9.89426 37.5867 11.351 0.0754216 -0.997143 -0.00410871
-11.2037 37.4711 12.6709 0.0835501 -0.996487 -0.0057313
-12.6301 37.3156 14.1144 0.10818 -0.994063 -0.0116679
-13.6585 37.1907 15.1576 0.114114 -0.993409 -0.010837
-14.9463 37.0149 16.4654 0.131604 -0.991273 -0.00768209
-16.2051 36.8221 17.7484 0.142685 -0.989706 -0.0111109
-17.8563 36.5402 19.4362 0.161827 -0.98667 -0.0171731
-19.2704 36.2849 20.8865 0.173745 -0.984677 -0.0149995
-20.3315 36.0709 21.9804 0.193943 -0.980819 -0.0195058
-21.5595 35.7964 23.2525 0.196878 -0.980093 -0.0256459
-22.5952 35.5521 24.3282 0.204546 -0.978543 -0.024802
-23.6482 35.3042 25.4226 0.213249 -0.976696 -0.024274
-24.9516 34.9726 26.7876 0.222254 -0.974675 -0.0247212
-26.0166 34.6907 27.9054 0.231365 -0.97262 -0.0219286
-27.0443 34.4219 28.9833 0.238306 -0.970922 -0.0228162
-28.3021 34.0751 30.3106 0.245226 -0.969264 -0.0197578
-29.6691 33.6919 31.7574 0.2504 -0.967876 -0.0227028
-30.6503 33.4153 32.7974 0.252583 -0.967392 -0.0188102
-31.7825 33.0959 33.9976 0.255339 -0.966674 -0.0185321
-32.9026 32.7754 35.1877 0.258823 -0.965805 -0.0152353
-34.1484 32.4205 36.5149 0.260241 -0.965441 -0.0140611
-35.242 32.1086 37.683 0.261846 -0.965023 -0.0128983
-36.3352 31.7976 38.8512 0.262559 -0.964855 -0.0108232
-37.5962 31.442 40.199 0.26205 -0.965013 -0.00889546
-38.7597 31.1142 41.443 0.262406 -0.964927 -0.00766986
-39.8343 30.8158 42.5916 0.263304 -0.9647 -0.00491786
-40.1877 30.7174 42.9697 0.263303 -0.964701 -0.00491807
-40.9978 30.4984 42.5405 0.26339 -0.964677 -0.00486661
-39.9386 30.7939 41.4078 0.26309 -0.96474 -0.00783572
-38.8128 31.1096 40.2038 0.262978 -0.964766 -0.00824829
-37.6075 31.4507 38.9155 0.262629 -0.964842 -0.0102966
-36.3331 31.8145 37.553 0.261997 -0.964995 -0.011943
-35.1037 32.1671 36.2394 0.261078 -0.96522 -0.0137014
-33.9529 32.4966 35.0114 0.26024 -0.965398 -0.0168054
-32.8005 32.8281 33.7857 0.257912 -0.966001 -0.0180149
-31.7381 33.1326 32.6581 0.257346 -0.96612 -0.0196013
-30.5975 33.4572 31.4479 0.251631 -0.967591 -0.0212177
-29.4878 33.7737 30.2722 0.2504 -0.967876 -0.0227032
-28.2097 34.1288 28.9221 0.244796 -0.9693 -0.0230722
-27.188 34.4134 27.8441 0.238303 -0.970923 -0.0228194
-25.9914 34.7325 26.5877 0.233545 -0.971901 -0.0293997
-24.9656 35.0017 25.5114 0.222321 -0.974673 -0.0242268
-23.8049 35.2959 24.2977 0.221935 -0.974773 -0.0237395
-22.5911 35.5865 23.0355 0.205126 -0.978395 -0.0258335
-21.1117 35.9237 21.5013 0.197378 -0.980239 -0.0131742
-20.0367 36.1494 20.3904 0.192262 -0.981321 -0.00670176
-18.9434 36.3649 19.2648 0.160881 -0.986891 -0.0127886
-17.2836 36.667 17.5654 0.158615 -0.987228 -0.0148906
-15.7923 36.8993 16.0445 0.145879 -0.989227 -0.0121941
-14.6892 37.0697 14.922 0.114582 -0.993373 0.00899905
-13.6303 37.2099 13.8472 0.116655 -0.993097 -0.0122106
-12.6059 37.3341 12.808 0.114442 -0.993182 -0.0221751
-11.4814 37.4532 11.6718 0.0902057 -0.995918 -0.00321728
-10.1955 37.5648 10.3758 0.0819773 -0.99663 -0.00291568
-8.79936 37.6663 8.97078 0.0614983 -0.998107 -0.00104821
-7.8724 37.7229 8.03897 0.0464209 -0.998922 -8.89467e-05
-8.91851 37.6613 7.81167 0.0606808 -0.998154 -0.00259822
-10.3672 37.555 9.26959 0.0814877 -0.996663 -0.00485463
-11.6084 37.4446 10.5211 0.0935043 -0.995604 -0.00535661
-12.6938 37.3315 11.6176 0.107903 -0.994161 -0.000905473
-13.7079 37.2155 12.6442 0.116655 -0.993097 -0.0122107
-15.3204 36.9911 14.2821 0.119861 -0.992789 -0.00187682
-16.4869 36.8052 15.4701 0.147177 -0.988982 -0.0158899
-17.8748 36.5805 16.8866 0.156888 -0.987558 -0.0107496
-19.0106 36.3771 18.0491 0.160339 -0.986879 -0.0190314
-20.3306 36.1014 19.4097 0.187782 -0.981981 -0.0212513
-21.5908 35.8378 20.7108 0.199178 -0.979876 -0.0130747
-22.6027 35.6149 21.7591 0.206734 -0.978128 -0.0229561
-23.8696 35.3125 23.0763 0.218528 -0.9755 -0.0254044
-25.1544 34.9858 24.4181 0.222125 -0.974723 -0.0239853
-26.1445 34.7296 25.4569 0.229277 -0.973082 -0.0233123
-27.1996 34.4429 26.5657 0.237964 -0.970857 -0.0284567
-28.2868 34.1384 27.7124 0.245711 -0.969063 -0.0233009
-29.2757 33.8633 28.756 0.245298 -0.969183 -0.0226667
-30.3828 33.5481 29.9273 0.2525 -0.967341 -0.0222702
-31.6914 33.1733 31.3147 0.255719 -0.966543 -0.0200534
-32.8386 32.8429 32.5331 0.256817 -0.966227 -0.0212336
-34.0911 32.4802 33.8651 0.260721 -0.965254 -0.0176009
-35.2262 32.153 35.0747 0.261158 -0.965162 -0.0161217
-36.4625 31.796 36.3951 0.261854 -0.965 -0.0144161
-37.8196 31.4067 37.846 0.262268 -0.964917 -0.0122991
-39.0186 31.0655 39.1275 0.261707 -0.965076 -0.0117677
-40.2169 30.726 40.4093 0.262577 -0.964881 -0.00758721
-41.2207 30.4429 41.4831 0.263496 -0.964639 -0.00647687
-41.6558 30.3217 41.9483 0.263761 -0.964575 -0.00504349
-42.3555 30.135 41.4002 0.260719 -0.965375 -0.00878945
-41.386 30.4077 40.3633 0.260611 -0.965391 -0.0100992
-40.0899 30.7754 38.9768 0.263289 -0.964641 -0.0121257
-38.7748 31.151 37.5704 0.261871 -0.965026 -0.0121908
-37.4707 31.5247 36.1766 0.26294 -0.964701 -0.0146691
-36.3104 31.8603 34.9367 0.261563 -0.965026 -0.0175731
-35.266 32.1645 33.822 0.260306 -0.965312 -0.0203344
-34.2685 32.455 32.7595 0.259441 -0.965543 -0.02044
-32.9491 32.8394 31.3564 0.258149 -0.96588 -0.0208594
-31.7737 33.1796 30.1083 0.255213 -0.966601 -0.0234417
-30.6727 33.4961 28.9416 0.252848 -0.967205 -0.024113
-29.4223 33.8527 27.6193 0.245505 -0.969123 -0.0229839
-28.0175 34.2501 26.1374 0.244937 -0.969104 -0.029056
-27.0137 34.5312 25.0794 0.242568 -0.969776 -0.0263666
-25.9405 34.8127 23.9525 0.231533 -0.97251 -0.0248537
-24.6548 35.1489 22.6068 0.218525 -0.975501 -0.0254043
-23.5406 35.4241 21.4448 0.211937 -0.977014 -0.0229501
-22.5504 35.6455 20.4184 0.197898 -0.98004 -0.0189224
-21.5158 35.8761 19.3474 0.193303 -0.980917 -0.02088
-20.4202 36.1101 18.2167 0.187626 -0.982015 -0.0210438
-19.2788 36.353 17.0392 0.173921 -0.984558 -0.0199386
-17.9815 36.5763 15.7124 0.157406 -0.987483 -0.0100388
-16.9276 36.7538 14.6367 0.145706 -0.989161 -0.0181542
-15.8279 36.9354 13.5156 0.136047 -0.990607 -0.0137102
-14.3556 37.1404 12.02 0.126791 -0.991878 -0.0100784
-13.3234 37.2707 10.9745 0.114372 -0.993429 -0.00433108
-12.0541 37.4067 9.69161 0.0932271 -0.995634 -0.00462988
-10.6199 37.5399 8.24482 0.0817809 -0.996635 -0.00546938
-9.88244 37.6035 7.50173 0.06386 -0.997958 -0.0016159
-11.3693 37.4814 7.72104 0.0895745 -0.995963 -0.00576676
-12.7169 37.3452 9.08119 0.0953401 -0.995442 -0.00216666
-14.3246 37.1566 10.7075 0.114372 -0.993429 -0.00433107
-15.3589 37.0148 11.7569 0.126791 -0.991878 -0.0100784
-16.9399 36.7749 13.3658 0.145085 -0.989281 -0.0165341
-18.5857 36.4859 15.0473 0.160054 -0.986985 -0.0155957
-19.8914 36.253 16.3853 0.182804 -0.982916 -0.0213994
-21.1296 35.9864 17.6633 0.187626 -0.982015 -0.0210438
-22.554 35.6699 19.1356 0.198817 -0.979822 -0.0205084
-23.5576 35.4468 20.175 0.207159 -0.978122 -0.0190558
-24.7798 35.1479 21.4486 0.217723 -0.975765 -0.0218901
-26.1108 34.8038 22.8413 0.232929 -0.972093 -0.0279083
-27.1575 34.5251 23.9399 0.23637 -0.971375 -0.0236504
-28.2671 34.2168 25.1099 0.242572 -0.969775 -0.0263649
-29.2681 33.9331 26.1657 0.245737 -0.968915 -0.0285773
-30.3042 33.6353 27.2598 0.251312 -0.96748 -0.0287198
-31.8567 33.1883 28.9026 0.253583 -0.966934 -0.0270849
-33.0909 32.8284 30.2131 0.256315 -0.966326 -0.0227397
-34.1597 32.5152 31.3497 0.258167 -0.965792 -0.0244117
-35.5653 32.104 32.8462 0.261173 -0.96508 -0.0202308
-36.9437 31.7015 34.3165 0.260569 -0.96527 -0.0189123
-38.3069 31.3051 35.7734 0.260411 -0.965358 -0.0164082
-39.5732 30.943 37.1262 0.259215 -0.965704 -0.0149304
-40.9667 30.5421 38.6173 0.262063 -0.96496 -0.013255
-42.4028 30.1354 40.1531 0.260711 -0.965364 -0.0101425
-43.0969 29.94 40.8955 0.260811 -0.965336 -0.0101838
-43.7103 29.7829 40.2532 0.256608 -0.966429 -0.0129035
-42.2588 30.1914 38.7015 0.259354 -0.965675 -0.0143809
-41.2255 30.4858 37.5964 0.262391 -0.964854 -0.0144323
-39.8413 30.8867 36.1154 0.260969 -0.965226 -0.0152698
-38.6117 31.2399 34.8016 0.25986 -0.965467 -0.0186005
-37.282 31.6285 33.3814 0.261137 -0.965114 -0.019043
-36.1271 31.9675 32.1498 0.259856 -0.965375 -0.0229191
-34.8134 32.3557 30.7503 0.259328 -0.965488 -0.0241371
-33.406 32.7674 29.254 0.256231 -0.966281 -0.0254284
-32.3136 33.0907 28.0945 0.256147 -0.966229 -0.028115
-31.2867 33.3879 27.0075 0.251607 -0.967321 -0.0313829
-30.3162 33.6727 25.9804 0.245738 -0.968915 -0.0285763
-28.9151 34.074 24.5012 0.242171 -0.969755 -0.0304572
-27.7298 34.4019 23.2517 0.238452 -0.970611 -0.0324787
-26.2828 34.7979 21.7304 0.230992 -0.972447 -0.0314505
-24.9439 35.1364 20.3309 0.217061 -0.975942 -0.0205389
-23.5799 35.4667 18.9111 0.207159 -0.978122 -0.0190558
-22.513 35.708 17.8076 0.195196 -0.9804 -0.0267415
-21.5343 35.9318 16.7947 0.190814 -0.981233 -0.0277701
-20.4897 36.1544 15.7167 0.179906 -0.983548 -0.0163259
-18.9477 36.4467 14.1336 0.162178 -0.986519 -0.0218598
-17.2409 36.747 12.3893 0.145085 -0.989281 -0.0165341
-15.557 36.9996 10.6768 0.126584 -0.991913 -0.00927097
-14.3502 37.1591 9.45342 0.114284 -0.99344 -0.00410468
-12.9705 37.3231 8.05759 0.104773 -0.994492 -0.00302261
-12.1871 37.4051 7.26712 0.0926396 -0.995607 -0.0135958
-13.6511 37.2556 7.46574 0.107984 -0.994064 -0.0132691
-14.8098 37.1143 8.63825 0.112362 -0.99359 -0.0123635
-15.9377 36.9606 9.78193 0.124749 -0.992132 -0.0105596
-17.3954 36.7452 11.2637 0.143438 -0.989485 -0.0185712
-18.9496 36.4773 12.8511 0.160259 -0.986781 -0.0241091
-19.962 36.2872 13.8879 0.169917 -0.985152 -0.0245518
-21.0217 36.0696 14.9795 0.178643 -0.983727 -0.0191997
-22.1174 35.8352 16.1111 0.196271 -0.980124 -0.0288924
-23.1334 35.6021 17.1631 0.195195 -0.9804 -0.0267431
-24.3607 35.3096 18.4358 0.21167 -0.976959 -0.0273436
-25.5293 35.0233 19.6526 0.217091 -0.975765 -0.0274639
-26.7367 34.7115 20.9162 0.224349 -0.974191 -0.0248884
-27.8938 34.4008 22.1315 0.232935 -0.971991 -0.0312344
-28.9167 34.1117 23.2107 0.238456 -0.97061 -0.0324766
-30.0636 33.785 24.4218 0.245986 -0.968735 -0.0322889
-31.5397 33.3554 25.9828 0.251608 -0.96732 -0.0313819
-32.558 33.056 27.061 0.253581 -0.966935 -0.0270864
-33.5485 32.7629 28.1122 0.254785 -0.966553 -0.0293185
-34.5256 32.4738 29.1492 0.2565 -0.966089 -0.0296771
-35.7817 32.1009 30.4864 0.260491 -0.965181 -0.0238634
-37.0892 31.7149 31.8797 0.260138 -0.965301 -0.0228556
-38.4242 31.3212 33.3042 0.260593 -0.965215 -0.0212344
-39.6459 30.9662 34.609 0.258881 -0.965751 -0.0174688
-40.7024 30.6605 35.7378 0.261086 -0.965158 -0.0174621
-42.2073 30.2273 37.3471 0.257786 -0.966065 -0.016277
-43.9161 29.7427 39.1739 0.256746 -0.966374 -0.0142452
-44.6484 29.5378 39.9566 0.256551 -0.966445 -0.0128712
-45.2217 29.3947 39.2702 0.256588 -0.966436 -0.0128046
-44.2174 29.6783 38.1967 0.256884 -0.966317 -0.0155848
-43.1943 29.9681 37.1032 0.257785 -0.966065 -0.0162768
-41.7326 30.3854 35.5411 0.259473 -0.9656 -0.0170509
-40.7513 30.6699 34.4925 0.261116 -0.965148 -0.017551
-39.1148 31.1481 32.7448 0.26035 -0.965247 -0.022734
-37.9357 31.4958 31.4866 0.260419 -0.965227 -0.0227934
-36.8764 31.8102 30.3565 0.259079 -0.965423 -0.0289117
-35.7624 32.1429 29.1697 0.257793 -0.965772 -0.028764
-34.7413 32.4493 28.084 0.2565 -0.966089 -0.0296771
-33.7641 32.7383 27.047 0.254785 -0.966553 -0.0293185
-32.572 33.0934 25.7826 0.251555 -0.967333 -0.0314267
-31.1454 33.5154 24.2719 0.249014 -0.967925 -0.0333556
-29.9997 33.8466 23.0609 0.24635 -0.968579 -0.0341478
-28.8026 34.1917 21.796 0.240749 -0.970004 -0.0336575
-27.3294 34.5949 20.2457 0.230782 -0.972573 -0.0290021
-25.9676 34.9471 18.8216 0.222723 -0.974476 -0.0281408
-24.7203 35.2576 17.5229 0.211889 -0.976896 -0.0278953
-23.7444 35.4983 16.5088 0.20355 -0.978683 -0.0273225
-22.6361 35.7544 15.3605 0.194792 -0.98032 -0.0320621
-21.1098 36.0803 13.7841 0.177621 -0.983854 -0.0219524
-19.9904 36.3135 12.6325 0.169921 -0.985152 -0.0245521
-18.6864 36.5576 11.2967 0.151771 -0.988192 -0.0210242
-17.5551 36.7435 10.1432 0.143517 -0.989466 -0.0189447
-16.5552 36.8899 9.12704 0.12495 -0.992067 -0.0138296
-15.548 37.0337 8.10511 0.116799 -0.993088 -0.0115493
-15.0272 37.1011 7.57779 0.116801 -0.993088 -0.011549
-16.1173 36.9749 7.40094 0.120975 -0.992552 -0.0143235
-17.221 36.8164 8.52098 0.130689 -0.991324 -0.0140285
-18.3378 36.6355 9.65868 0.152209 -0.988264 -0.0129145
-19.5562 36.4214 10.9041 0.165519 -0.98601 -0.0196879
-20.7729 36.1841 12.1525 0.178891 -0.983489 -0.0273306
-21.848 35.9588 13.2589 0.178546 -0.983655 -0.0233399
-22.997 35.7109 14.4462 0.195533 -0.980458 -0.0216578
-24.0055 35.4728 15.4923 0.206355 -0.978049 -0.0289264
-25.3462 35.1422 16.8861 0.209269 -0.97736 -0.031194
-26.6752 34.8026 18.2718 0.219892 -0.975013 -0.0315871
-27.662 34.5435 19.3034 0.23373 -0.971814 -0.0307831
-28.7125 34.2612 20.4069 0.237058 -0.971047 -0.0295205
-29.709 33.9785 21.4586 0.240749 -0.970004 -0.0336573
-30.6952 33.6902 22.5021 0.246783 -0.968404 -0.0359429
-31.8 33.3661 23.6712 0.252115 -0.967087 -0.0343562
-33.1839 32.9553 25.1372 0.253395 -0.966832 -0.0320464
-34.6215 32.524 26.6628 0.255009 -0.966442 -0.0309916
-35.9522 32.1257 28.0763 0.258215 -0.96562 -0.0300351
-37.0094 31.8091 29.2013 0.259078 -0.965424 -0.0289131
-38.2108 31.4479 30.4831 0.259178 -0.96545 -0.0270791
-39.5943 31.0366 31.9596 0.26177 -0.96488 -0.0219796
-40.932 30.643 33.3871 0.259801 -0.965453 -0.0201099
-41.9668 30.3427 34.4928 0.259905 -0.965443 -0.0192212
-43.352 29.9442 35.9728 0.259138 -0.965716 -0.0154799
-44.3717 29.654 37.0623 0.258321 -0.965955 -0.0142055
-45.8457 29.2394 38.6368 0.255087 -0.966808 -0.0146128
-46.2773 29.1376 37.7983 0.254644 -0.966937 -0.01377
-45.052 29.4805 36.4901 0.258506 -0.965896 -0.0148015
-43.7324 29.8564 35.0805 0.258914 -0.965777 -0.0154383
-42.7518 30.1404 34.0329 0.260161 -0.965373 -0.0192829
-41.4513 30.5193 32.6439 0.259953 -0.965392 -0.0210611
-40.0914 30.9192 31.1926 0.261888 -0.96477 -0.0251828
-38.7188 31.333 29.7269 0.258822 -0.96554 -0.0272819
-37.55 31.6852 28.4805 0.259237 -0.965307 -0.0312927
-36.4865 32.0067 27.3492 0.25624 -0.966065 -0.0325436
-35.215 32.3908 25.9978 0.25524 -0.966265 -0.0344263
-33.7194 32.8389 24.4111 0.253612 -0.966655 -0.0354693
-32.5359 33.1934 23.1564 0.249855 -0.967587 -0.0367213
-31.2915 33.5631 21.8373 0.24638 -0.968486 -0.0364953
-29.8848 33.9722 20.3505 0.242893 -0.969516 -0.0322635
-28.7927 34.2748 19.2003 0.233728 -0.971815 -0.0307859
-27.7475 34.5662 18.1029 0.226986 -0.973327 -0.0333409
-26.3343 34.9348 16.6267 0.22039 -0.974838 -0.0334567
-25.1523 35.2306 15.3964 0.208952 -0.977472 -0.0298109
-24.0318 35.5034 14.2319 0.202061 -0.97909 -0.0235436
-22.6333 35.8207 12.7838 0.19689 -0.980063 -0.0266662
-21.632 36.0382 11.7514 0.185106 -0.982438 -0.0234747
-20.1853 36.3287 10.2649 0.165526 -0.986006 -0.0198494
-18.9189 36.555 8.96962 0.152432 -0.988179 -0.0163506
-17.3166 36.8163 7.33769 0.136224 -0.990617 -0.010958
-19.1402 36.542 7.91291 0.152653 -0.988082 -0.0197849
-20.6423 36.2657 9.44999 0.170786 -0.985166 -0.0167052
-21.8579 36.0209 10.6997 0.185165 -0.98237 -0.0257652
-22.8403 35.8083 11.7124 0.196909 -0.980058 -0.026703
-24.1777 35.5019 13.0966 0.196872 -0.980068 -0.0266295
-25.4478 35.1977 14.4152 0.208398 -0.97757 -0.030446
-26.5171 34.9315 15.5283 0.219641 -0.974995 -0.0337932
-27.9873 34.5462 17.0644 0.225189 -0.973682 -0.0351201
-28.9874 34.2677 18.1144 0.231261 -0.972155 -0.0378604
-30.3507 33.8808 19.5485 0.242075 -0.969572 -0.0364702
-31.5826 33.5264 20.8482 0.245722 -0.968736 -0.0342263
-32.6145 33.2193 21.9434 0.250029 -0.967524 -0.0371976
-33.5945 32.9259 22.9826 0.25328 -0.966698 -0.0366604
-34.7495 32.5764 24.2084 0.253593 -0.966603 -0.0369943
-35.8421 32.2468 25.3685 0.256852 -0.96582 -0.0349071
-36.9661 31.9059 26.5631 0.257088 -0.965842 -0.0324635
-38.0209 31.5863 27.6852 0.258648 -0.965403 -0.0331554
-39.3138 31.1926 29.0636 0.259236 -0.965307 -0.0312928
-40.3089 30.8915 30.126 0.259295 -0.965311 -0.0306765
-41.3017 30.5917 31.1862 0.258025 -0.965823 -0.0246819
-42.319 30.2947 32.272 0.258543 -0.96575 -0.021955
-43.7239 29.8871 33.7718 0.256464 -0.966279 -0.0230272
-44.7065 29.602 34.8213 0.256189 -0.966456 -0.0181666
-45.9498 29.2485 36.149 0.253687 -0.967141 -0.016763
-46.7018 29.0387 36.9519 0.253244 -0.967277 -0.0156058
-47.386 28.8688 36.3819 0.253571 -0.96719 -0.0156347
-46.0955 29.2315 35.0044 0.254129 -0.967004 -0.0179197
-44.8774 29.5812 33.7038 0.257839 -0.965907 -0.0232737
-43.4757 29.9889 32.2075 0.25597 -0.966458 -0.0209434
-42.3943 30.3042 31.0536 0.257505 -0.965888 -0.0274086
-41.3541 30.6166 29.9424 0.259441 -0.965271 -0.0307068
-40.0159 31.0239 28.5136 0.258556 -0.965403 -0.0338509
-39.0606 31.3143 27.4963 0.258317 -0.965488 -0.0332551
-38.0309 31.627 26.3998 0.257222 -0.965726 -0.0347999
-36.8861 31.9771 25.1815 0.255056 -0.966242 -0.0363803
-35.738 32.3273 23.9612 0.253635 -0.966527 -0.0386709
-34.4274 32.724 22.5699 0.251813 -0.967023 -0.0381788
-33.279 33.0722 21.3511 0.246819 -0.96819 -0.0411017
-31.9925 33.4577 19.9871 0.242841 -0.969207 -0.0408192
-30.8379 33.7937 18.7688 0.239077 -0.970135 -0.0409786
-29.0357 34.3045 16.8743 0.231259 -0.972155 -0.0378602
-27.5127 34.7158 15.2788 0.219644 -0.974995 -0.0337925
-26.5427 34.9689 14.2652 0.213975 -0.976318 -0.031913
-25.0645 35.3295 12.7291 0.207874 -0.977743 -0.0284226
-23.7982 35.6238 11.4175 0.196908 -0.980058 -0.026703
-22.5749 35.9001 10.1532 0.182729 -0.982795 -0.0269086
-21.4257 36.138 8.97036 0.170537 -0.985094 -0.0225377
-20.4342 36.3388 7.95197 0.162512 -0.986428 -0.0234482
-20.3222 36.3585 7.83762 0.154729 -0.987783 -0.0185227
-22.3625 35.9837 8.64785 0.176701 -0.983821 -0.0295588
-23.5956 35.7196 9.91947 0.186066 -0.981967 -0.0334678
-24.6799 35.463 11.0424 0.194684 -0.980136 -0.0378422
-25.9032 35.1645 12.3126 0.204029 -0.978422 -0.0325999
-26.9509 34.9074 13.4015 0.216271 -0.975625 -0.0371813
-28.3749 34.5358 14.8895 0.220353 -0.974682 -0.0379372
-29.9106 34.1109 16.5019 0.230949 -0.972264 -0.0369437
-30.9852 33.8033 17.6323 0.238278 -0.970418 -0.0388835
-31.9523 33.524 18.6509 0.242843 -0.969206 -0.0408162
-32.9854 33.215 19.7428 0.246603 -0.968263 -0.0406562
-34.0354 32.8985 20.8563 0.251682 -0.966878 -0.0424627
-35.0762 32.579 21.9615 0.251748 -0.966953 -0.0403208
-36.2097 32.2348 23.165 0.255262 -0.966089 -0.0389098
-37.2445 31.917 24.2655 0.255157 -0.966167 -0.0376449
-38.3098 31.5915 25.3989 0.256505 -0.965826 -0.0372176
-39.7043 31.1635 26.8839 0.257172 -0.965678 -0.0364487
-40.955 30.7823 28.2168 0.259125 -0.965233 -0.0343463
-42.128 30.4245 29.4691 0.256858 -0.965843 -0.034237
-43.134 30.1236 30.543 0.253129 -0.967016 -0.0283859
-44.1564 29.8265 31.6334 0.251581 -0.967486 -0.0260341
-45.5757 29.4118 33.1485 0.254082 -0.966786 -0.0277043
-46.6221 29.1097 34.2655 0.250223 -0.967917 -0.0229106
-47.4801 28.8662 35.1814 0.25021 -0.967921 -0.0229099
-47.5607 28.8741 33.9654 0.25021 -0.96792 -0.0229089
-46.4907 29.1823 32.8234 0.251716 -0.967412 -0.0274218
-45.1304 29.5783 31.3719 0.253599 -0.966955 -0.0261818
-43.6414 30.0155 29.7836 0.252253 -0.967111 -0.0326239
-42.5662 30.3375 28.6359 0.257015 -0.96579 -0.0345491
-41.4388 30.6811 27.4335 0.256041 -0.965942 -0.0374001
-40.3997 31.0017 26.326 0.256356 -0.965773 -0.0395407
-39.4311 31.3002 25.294 0.254456 -0.966337 -0.0380276
-38.2307 31.6676 24.0161 0.253612 -0.966398 -0.0418969
-37.0682 32.0245 22.7798 0.252441 -0.966722 -0.0415079
-36.0669 32.3328 21.7153 0.250843 -0.966969 -0.0452649
-35.0417 32.6474 20.6267 0.249065 -0.967439 -0.0450461
-33.9609 32.9792 19.4797 0.243947 -0.968689 -0.0461731
-32.9083 33.2958 18.3666 0.242479 -0.96905 -0.0463268
-31.7367 33.6437 17.1298 0.233256 -0.971406 -0.0442886
-30.4634 34.0105 15.7897 0.231474 -0.97188 -0.0432217
-29.4336 34.2991 14.7075 0.225065 -0.973476 -0.0411221
-28.068 34.6644 13.2775 0.216271 -0.975625 -0.0371816
-26.2693 35.1184 11.4045 0.204029 -0.978422 -0.0325999
-24.8298 35.4753 9.90963 0.197543 -0.979604 -0.0367945
-23.5793 35.7626 8.61605 0.179552 -0.983222 -0.0321836
-23.2969 35.8237 8.3247 0.179552 -0.983222 -0.0321817
-24.802 35.5324 8.59172 0.187018 -0.981915 -0.0294357
-25.797 35.291 9.62409 0.197357 -0.979594 -0.0380114
-27.2865 34.914 11.1727 0.204803 -0.978099 -0.0371182
-28.2698 34.6614 12.1979 0.216323 -0.975594 -0.0376954
-29.2461 34.4027 13.2181 0.223108 -0.973916 -0.0413605
-30.2972 34.1143 14.321 0.229298 -0.97235 -0.044243
-31.3429 33.8161 15.4211 0.233235 -0.971415 -0.0441989
-32.5791 33.4552 16.7238 0.241698 -0.96931 -0.0449401
-33.8359 33.0788 18.0515 0.243947 -0.968689 -0.0461732
-34.8073 32.7822 19.0801 0.249591 -0.967105 -0.0491191
-36.2124 32.3486 20.5718 0.250845 -0.966968 -0.045263
-37.4608 31.9605 21.8983 0.252172 -0.96664 -0.0449058
-38.4956 31.6421 22.9988 0.253557 -0.966417 -0.0418023
-39.5759 31.3087 24.1494 0.253669 -0.966379 -0.0419917
-40.9734 30.8782 25.6379 0.254957 -0.966125 -0.0399856
-41.9796 30.5683 26.7099 0.254911 -0.966139 -0.0399394
-43.1931 30.1946 28.0047 0.253099 -0.966603 -0.0402518
-44.7091 29.7399 29.6216 0.255154 -0.9664 -0.0310908
-45.8258 29.4114 30.8129 0.253321 -0.967019 -0.0264972
-46.8184 29.1224 31.8715 0.253092 -0.967102 -0.0256584
-47.4178 28.9486 32.5111 0.253093 -0.967102 -0.0256584
-47.4836 28.9643 31.28 0.250717 -0.967612 -0.0294564
-46.3851 29.285 30.1084 0.248301 -0.968107 -0.0334094
-45.2299 29.6266 28.8764 0.251667 -0.967266 -0.0325531
-44.1988 29.9424 27.7754 0.252439 -0.966702 -0.0419652
-43.1713 30.2558 26.6805 0.251285 -0.967063 -0.0405659
-41.637 30.7276 25.0452 0.25493 -0.966128 -0.0400836
-40.3493 31.1265 23.673 0.254967 -0.966029 -0.0421803
-39.2156 31.4763 22.4657 0.253365 -0.966461 -0.0419409
-38.1784 31.7986 21.3626 0.248169 -0.967577 -0.0469852
-37.0183 32.1587 20.13 0.252621 -0.966496 -0.0454825
-35.7473 32.5548 18.7803 0.249593 -0.967104 -0.0491183
-34.5764 32.9154 17.5393 0.244242 -0.968508 -0.0483475
-33.3467 33.2891 16.2386 0.238292 -0.969918 -0.0497662
-32.1601 33.6426 14.9861 0.233698 -0.971161 -0.0472455
-31.0914 33.9482 13.8616 0.228626 -0.972501 -0.0444176
-30.0679 34.2335 12.787 0.222987 -0.973888 -0.0426401
-29.0436 34.5088 11.7154 0.216029 -0.975652 -0.0378707
-27.7504 34.8514 10.3651 0.207885 -0.977231 -0.0424691
-26.6639 35.1281 9.23507 0.2036 -0.978237 -0.0400021
-26.0316 35.284 8.57837 0.20216 -0.978626 -0.0377254
-27.8374 34.885 9.16528 0.207886 -0.977231 -0.0424663
-28.8755 34.6137 10.2477 0.212384 -0.976146 -0.0450671
-29.8705 34.3449 11.2877 0.215765 -0.975317 -0.0469215
-31.1414 33.9962 12.6194 0.221594 -0.974181 -0.0432038
-32.1579 33.7062 13.6882 0.228964 -0.972249 -0.048046
-33.4412 33.3273 15.0416 0.237535 -0.970165 -0.0485415
-34.6216 32.9693 16.2893 0.242534 -0.968862 -0.0498407
-35.9361 32.5643 17.6819 0.246806 -0.967717 -0.0510998
-37.2918 32.1405 19.121 0.248664 -0.967237 -0.051175
-38.4314 31.7844 20.3319 0.248369 -0.967345 -0.0505546
-39.3956 31.4844 21.3568 0.252498 -0.966331 -0.0494811
-40.3793 31.1739 22.4045 0.253439 -0.966438 -0.0420311
-41.5661 30.8035 23.6696 0.255664 -0.965887 -0.0412106
-42.8647 30.4049 25.0526 0.248012 -0.967788 -0.0433282
-43.8399 30.1068 26.0916 0.251285 -0.967063 -0.0405659
-45.1595 29.7036 27.4984 0.251852 -0.966856 -0.0419596
-46.5402 29.2856 28.9717 0.248936 -0.967905 -0.0345009
-47.3835 29.0371 29.8705 0.248302 -0.968106 -0.033408
-47.7646 28.9741 28.9739 0.24292 -0.969233 -0.0397204
-46.3048 29.4115 27.4174 0.246635 -0.968006 -0.046206
-45.2986 29.7195 26.3435 0.245927 -0.968115 -0.0476773
-44.1034 30.0867 25.0693 0.248595 -0.967506 -0.0461908
-43.1053 30.3901 24.0072 0.248013 -0.967787 -0.0433277
-42.0395 30.7175 22.8726 0.250265 -0.967027 -0.0471901
-40.8353 31.097 21.589 0.252315 -0.966339 -0.0502516
-39.7474 31.4402 20.4307 0.251807 -0.966386 -0.0518796
-38.2329 31.9144 18.8212 0.246929 -0.967559 -0.0534391
-36.9003 32.3329 17.4061 0.247835 -0.967433 -0.0514838
-35.7951 32.6765 16.2344 0.244553 -0.968163 -0.0534247
-34.8344 32.9726 15.2175 0.239173 -0.969419 -0.0549824
-33.7681 33.297 14.0904 0.235575 -0.970476 -0.051781
-32.3589 33.7117 12.605 0.230683 -0.971859 -0.0477094
-31.1984 34.0404 11.3861 0.220483 -0.974164 -0.0488966
-30.088 34.347 10.2231 0.217499 -0.974959 -0.0463694
-29.5402 34.4973 9.64994 0.212563 -0.975961 -0.0481409
-31.7753 33.9435 10.6976 0.223012 -0.973633 -0.0480094
-32.9869 33.5957 11.971 0.228823 -0.972005 -0.0533493
-34.2341 33.2261 13.286 0.236787 -0.970186 -0.0516728
-35.3038 32.9023 14.4161 0.239174 -0.969419 -0.0549842
-36.3621 32.5749 15.5363 0.242214 -0.968631 -0.0555538
-37.7831 32.1289 17.0437 0.246082 -0.96765 -0.05566
-38.7654 31.82 18.0869 0.247198 -0.967403 -0.0549943
-39.8532 31.4788 19.2425 0.249278 -0.966988 -0.0528636
-40.904 31.1425 20.3611 0.251808 -0.966386 -0.051879
-42.279 30.706 21.8264 0.252861 -0.966315 -0.0479354
-43.317 30.384 22.9312 0.249659 -0.96727 -0.0453802
-44.6057 29.9947 24.3012 0.242511 -0.968841 -0.050361
-45.7027 29.6598 25.4699 0.245136 -0.968338 -0.0472166
-47.2008 29.1998 27.0689 0.245036 -0.968444 -0.0455261
-47.7259 29.042 27.6285 0.243436 -0.96888 -0.0448474
-47.5994 29.142 26.189 0.242276 -0.968871 -0.0508983
-46.2092 29.5688 24.7054 0.245927 -0.968115 -0.0476772
-45.0442 29.9281 23.4641 0.245037 -0.968156 -0.0512861
-43.7738 30.315 22.1133 0.240607 -0.969162 -0.0532274
-42.4471 30.7226 20.7033 0.24754 -0.966926 -0.0614685
-41.1473 31.1403 19.3186 0.243971 -0.967923 -0.0600318
-40.1877 31.4457 18.2975 0.242435 -0.968251 -0.0609569
-38.7829 31.8884 16.8054 0.246483 -0.967597 -0.0547956
-37.3584 32.3396 15.2936 0.244365 -0.968048 -0.0562886
-36.3965 32.6383 14.2748 0.24209 -0.96868 -0.0552509
-35.3614 32.9567 13.1797 0.235839 -0.970276 -0.0542705
-34.189 33.3131 11.941 0.232824 -0.970966 -0.0549316
-33.5783 33.4932 11.2981 0.230749 -0.971569 -0.0529983
-36.5625 32.6651 13.1519 0.238213 -0.969353 -0.060073
