45.3552 36.2383 27.3572 0.477538 0.878158 0.0282076
44.3086 36.7745 27.7282 0.442727 0.896367 0.0227695
42.9054 37.4155 28.0327 0.393352 0.919261 0.0153073
41.7393 37.8734 28.3891 0.351023 0.935809 0.0323201
40.7033 38.2605 28.4316 0.345051 0.937731 0.0390341
39.6216 38.6156 28.8958 0.322502 0.945478 0.0453162
38.1845 39.0523 29.2595 0.295256 0.954478 0.0423754
37.1677 39.3055 29.5692 0.246478 0.968329 0.039852
35.8561 39.6103 29.9094 0.231019 0.971967 0.0437064
34.2714 39.9586 30.1533 0.20576 0.978241 0.0266071
32.9229 40.2224 30.1632 0.172201 0.984827 0.021495
31.666 40.4289 30.4439 0.166459 0.985755 0.0240543
30.202 40.664 30.5463 0.151161 0.988472 -0.00859381
29.085 40.8321 30.7269 0.138115 0.990392 -0.00690945
27.955 40.9879 30.6909 0.126848 0.991861 -0.010392
26.7867 41.1447 30.8843 0.131011 0.991133 -0.0221552
25.542 41.3042 30.8756 0.122653 0.99215 -0.0244008
26.5846 41.1663 30.6535 0.13101 0.991133 -0.0221551
27.5151 41.0375 30.1234 0.123553 0.992297 -0.00906178
28.7494 40.873 29.7744 0.133513 0.991046 0.00125958
29.7402 40.7392 29.4128 0.141604 0.98988 0.00456586
30.8494 40.5805 29.0403 0.141402 0.989871 0.0126803
32.2573 40.3648 28.8665 0.156363 0.987463 0.0215278
33.3294 40.1937 28.5453 0.171429 0.984742 0.0299186
35.2352 39.821 28.0803 0.217996 0.975406 0.0325566
36.2895 39.6208 27.5698 0.223331 0.973137 0.0558128
37.342 39.3835 27.4123 0.261207 0.960761 0.0933226
38.3606 39.1274 27.2071 0.287854 0.954619 0.0738509
39.6001 38.7707 26.6072 0.31146 0.947157 0.0767194
40.7612 38.3737 26.3232 0.360449 0.93019 0.0694473
41.7804 38.0085 25.9164 0.392926 0.915871 0.0823932
42.7235 37.632 25.3712 0.424014 0.901901 0.0823836
43.8817 37.1083 24.9159 0.457517 0.884691 0.0894434
44.7153 36.72 24.2964 0.4832 0.873811 0.0545146
45.6745 36.2395 23.2921 0.509157 0.858847 0.05548
46.3359 35.8925 22.4339 0.527704 0.847785 0.0500066
46.9344 35.5489 21.4325 0.577228 0.816152 0.00445727
46.9522 35.5295 20.2758 0.565972 0.82436 -0.0102983
47.0643 35.4187 18.7312 0.549364 0.834708 -0.036491
46.9337 35.4732 17.662 0.547312 0.836759 -0.0168323
46.9014 35.451 16.06 0.551566 0.833525 -0.031807
46.7027 35.5196 14.8221 0.511239 0.858673 -0.0362656
46.6332 35.5129 13.6942 0.506771 0.86153 -0.0294164
46.5399 35.5328 12.367 0.499815 0.865941 -0.0169253
46.4684 35.547 10.8863 0.487202 0.873133 -0.0147471
46.4599 35.5401 9.65908 0.482144 0.876044 -0.00884239
46.3935 35.5635 8.40238 0.48875 0.872359 -0.0106521
46.4181 35.5408 6.9021 0.484228 0.874865 -0.00923161
46.4624 35.5016 5.71477 0.472264 0.881413 0.00483296
46.2579 35.613 4.66087 0.476552 0.879138 0.00391538
46.2159 35.6294 3.52574 0.470466 0.882371 -0.00913397
46.2034 35.6622 1.84147 0.449808 0.892883 0.0113089
46.3619 35.5867 0.766493 0.438822 0.898088 0.0214724
45.9693 35.8008 -0.568998 0.42053 0.907059 -0.0199519
45.6112 35.9434 -1.87596 0.379969 0.924995 -0.00274498
44.9767 36.1974 -2.86025 0.368457 0.92964 -0.00302535
44.4921 36.3791 -4.07744 0.365771 0.930638 -0.0111222
44.091 36.5082 -5.43253 0.344472 0.938573 -0.0204899
43.1058 36.8054 -6.39288 0.296548 0.954267 -0.025071
42.3234 37.0405 -7.14525 0.276622 0.960739 -0.0214761
41.0185 37.3819 -7.90588 0.247058 0.968955 -0.0080278
39.9141 37.6617 -8.59002 0.235423 0.971811 -0.00299538
38.514 37.9921 -9.3753 0.222733 0.974555 0.0251381
37.4866 38.2082 -9.85509 0.198249 0.98009 0.0110365
36.449 38.4548 -10.4515 0.196923 0.976984 0.0797364
35.5033 38.6534 -10.9816 0.157634 0.98407 0.0822116
34.4115 38.8809 -11.6476 0.146061 0.985969 0.0795673
32.7001 39.2254 -12.5872 0.143356 0.984584 0.10011
31.6632 39.4199 -13.0514 0.117203 0.987257 0.107643
30.6515 39.6203 -13.7618 0.10924 0.987371 0.114206
29.7433 39.7934 -14.4337 0.109483 0.985315 0.131026
28.4223 40.0142 -15.0007 0.104623 0.984397 0.141478
27.1967 40.2143 -15.5099 0.100867 0.987017 0.122332
26.124 40.3915 -15.987 0.100525 0.982954 0.153763
25.1446 40.582 -16.5271 0.0910627 0.983866 0.153498
23.9272 40.7699 -17.14 0.0736861 0.985154 0.154963
22.9831 40.926 -17.6161 0.0761846 0.981569 0.174999
21.901 41.1027 -18.199 0.0732069 0.982431 0.171668
20.7877 41.2911 -18.7555 0.0875698 0.985919 0.141932
19.6442 41.4691 -19.3267 0.0754319 0.983007 0.167352
18.7077 41.6419 -19.829 0.0770862 0.976764 0.199973
17.6249 41.8367 -20.2717 0.0987186 0.969793 0.22306
16.5746 42.0285 -20.6914 0.0808063 0.977122 0.196732
14.8496 42.2993 -21.3846 0.0782203 0.974253 0.211313
13.7109 42.478 -21.7434 0.0607366 0.975011 0.212384
12.4243 42.7364 -22.605 0.0710743 0.977844 0.196898
11.1565 42.9703 -23.239 0.0644656 0.976015 0.20794
10.0973 43.1531 -23.7514 0.0687296 0.976714 0.203168
9.09126 43.3476 -24.3267 0.08014 0.979452 0.185071
8.16625 43.6192 -25.2308 0.0789519 0.975765 0.203982
6.4385 43.9285 -26.0121 0.103092 0.976375 0.189903
5.27143 44.1648 -26.7377 0.0796819 0.984146 0.158456
4.14358 44.3858 -27.4831 0.0941553 0.985589 0.140073
2.95877 44.557 -28.0896 0.0798753 0.990007 0.116213
1.95881 44.6813 -28.5798 0.0611324 0.991702 0.11196
0.775091 44.7617 -28.9647 0.0135242 0.99752 0.0690114
-0.657847 44.7818 -29.1324 -0.0150604 0.999009 0.0414714
-1.58913 44.7536 -28.607 -0.0625383 0.99748 0.033491
-2.10837 44.692 -27.6008 -0.0428687 0.998727 0.0255949
-2.49291 44.6514 -26.314 -0.0342539 0.998613 0.0370166
-2.49656 44.5924 -24.7331 -0.0156529 0.999575 0.0245502
-2.20197 44.5519 -23.4893 -0.00182489 0.998865 0.0463117
-1.85919 44.4959 -22.231 -0.0027471 0.999302 0.0346167
-1.31556 44.4375 -21.1235 0.0129861 0.998785 0.0475361
-0.815251 44.3797 -20.0713 0.013331 0.998641 0.0503858
0.00271491 44.2932 -18.9403 0.0394037 0.99726 0.0626049
0.898847 44.1871 -17.9997 0.0541642 0.995518 0.0775212
1.72829 44.069 -17.1031 0.0630168 0.994693 0.0811699
2.50182 43.9585 -16.357 0.0736308 0.9946 0.0731357
3.89594 43.7755 -15.5982 0.0895834 0.993579 0.0690659
5.01579 43.5901 -14.4835 0.103799 0.992164 0.0693537
5.99225 43.4378 -13.8357 0.11235 0.991496 0.0651109
7.11968 43.2678 -13.1481 0.117137 0.99136 0.0590214
8.047 43.1015 -12.0173 0.118113 0.99176 0.0496176
8.97952 42.9477 -11.2317 0.133439 0.989895 0.047964
9.96582 42.7913 -10.6843 0.133745 0.990306 0.0374933
10.9209 42.635 -9.82622 0.127873 0.991245 0.0328782
11.7177 42.5017 -8.90523 0.128322 0.991257 0.0307186
12.516 42.3741 -8.14441 0.127755 0.991508 0.0243031
13.2895 42.2483 -7.2302 0.130173 0.99109 0.0281512
13.9792 42.1384 -6.3826 0.127671 0.991637 0.0188108
14.5586 42.0442 -5.40253 0.128341 0.991593 0.0162066
14.9434 41.9812 -4.40183 0.125471 0.992029 0.0112271
15.505 41.8993 -3.09071 0.122956 0.992367 0.00944878
15.7648 41.8585 -1.74434 0.121971 0.992528 0.00341467
15.731 41.8615 -0.663079 0.117758 0.993029 -0.00077396
15.3588 41.9002 0.576734 0.110825 0.993835 0.00269535
14.8109 41.9653 1.77921 0.110914 0.993816 -0.00526233
14.1413 42.0357 2.66707 0.100222 0.994963 -0.000275753
13.3035 42.125 3.81442 0.0909358 0.995823 -0.00820735
12.6933 42.1817 4.76109 0.0822598 0.996594 -0.0049645
11.9504 42.2498 5.71202 0.0814862 0.996651 -0.00677612
11.0842 42.3223 6.91197 0.0721754 0.997302 -0.0134201
10.5117 42.3807 7.90238 0.0675855 0.997544 -0.0183752
9.89957 42.4423 9.11276 0.0606728 0.998007 -0.0172173
9.36567 42.491 10.0914 0.0624886 0.997922 -0.0157267
8.80736 42.5551 11.4913 0.0622567 0.99785 -0.0204893
8.37744 42.6196 12.7064 0.0557473 0.997867 -0.0326159
7.9631 42.6708 13.7747 0.0466704 0.998472 -0.029597
7.61306 42.7365 15.141 0.045409 0.998275 -0.0372132
7.18655 42.8068 16.4263 0.0389923 0.998486 -0.038734
6.97327 42.8619 17.5404 0.0406205 0.99797 -0.0490557
6.52278 42.9519 18.9925 0.0312678 0.998157 -0.0520147
6.1342 43.0109 19.9745 0.0179558 0.998886 -0.0435772
5.64712 43.0753 21.1427 0.0140447 0.998514 -0.0526624
5.05818 43.1522 22.4765 -0.00150327 0.998571 -0.0534286
4.72608 43.2096 23.6244 -0.00621514 0.998877 -0.0469741
4.33411 43.2608 24.744 -0.0060284 0.998808 -0.0484302
3.98115 43.3106 26.0021 -0.0180655 0.998659 -0.0485139
3.80468 43.3483 27.2468 -0.0283106 0.999036 -0.0334789
3.58229 43.3869 28.4716 -0.0347811 0.998331 -0.0461087
3.58813 43.4111 29.7524 -0.0495882 0.99859 -0.0188715
3.76106 43.433 31.0708 -0.0645335 0.997915 -0.00130537
4.20473 43.4391 32.1018 -0.043255 0.998912 0.0174242
4.71996 43.4316 33.2578 -0.0257172 0.998835 0.0407054
5.87404 43.4371 33.9126 -0.0286455 0.998705 0.0420413
6.83696 43.4214 34.4447 -0.000748885 0.996358 0.0852701
8.09566 43.3792 34.5463 0.0441091 0.997167 0.0609373
9.41417 43.3058 34.5947 0.0669975 0.995677 0.0639086
9.39858 43.2802 34.9748 0.0624944 0.995603 0.0697825
8.34679 43.3129 35.4492 0.0533003 0.996385 0.0653592
7.19508 43.3132 36.0707 0.0247539 0.998753 0.0433554
6.039 43.3016 36.6772 0.0113693 0.998751 0.0486455
5.0877 43.2819 37.2643 0.000337217 0.999112 0.0421351
4.1107 43.2595 37.7164 -0.00798841 0.999261 0.0375848
3.02902 43.2262 38.2877 -0.019218 0.99878 0.0454969
2.05542 43.1826 38.8297 -0.0232072 0.998789 0.0431439
1.09559 43.1383 39.3762 -0.0213219 0.999043 0.0381837
-0.011315 43.0858 39.9122 -0.0354927 0.998449 0.0428941
-1.07519 43.0162 40.6041 -0.0405865 0.998269 0.0425552
-2.15825 42.9315 41.4122 -0.0477802 0.997681 0.0484637
-3.19405 42.842 42.0861 -0.0654067 0.997211 0.0359533
-4.18538 42.754 42.643 -0.0720387 0.996475 0.0429831
-5.14273 42.6579 43.2409 -0.0732548 0.996379 0.0431482
-6.69293 42.5041 44.1074 -0.0839329 0.995762 0.0375992
-7.68838 42.3967 44.6407 -0.092704 0.994954 0.038371
-8.68412 42.277 45.2338 -0.0972457 0.994309 0.0435102
-9.98199 42.1085 45.8811 -0.11844 0.992034 0.0428992
-11.3124 41.9204 46.583 -0.117884 0.992127 0.0422725
-12.3716 41.7699 47.0315 -0.138644 0.988996 0.0468246
-14.036 41.4999 47.396 -0.158636 0.985872 0.0485692
-15.3317 41.2652 47.7619 -0.169455 0.985024 0.0318145
-16.4461 41.0768 47.6197 -0.181761 0.982984 0.0264221
-18.0072 40.7716 48.1161 -0.184419 0.982577 0.0230703
-19.3731 40.4962 48.1498 -0.204147 0.978719 0.0208071
-20.7887 40.183 48.2391 -0.219766 0.975316 0.0214763
-22.6541 39.7444 48.4392 -0.232128 0.972496 0.0192091
-23.9463 39.427 48.4566 -0.24689 0.968889 0.0172756
-25.0304 39.146 48.7014 -0.250022 0.96807 0.0181337
-26.6598 38.7221 48.8608 -0.253558 0.967204 0.0139299
-27.7552 38.4216 49.1291 -0.263919 0.964534 0.00452121
-28.7788 38.1397 49.3623 -0.269267 0.963047 0.00602099
-30.3217 37.7066 49.6489 -0.269704 0.962927 0.00551583
-31.3842 37.406 49.8191 -0.271898 0.962326 0.000916972
-32.4268 37.1107 49.8412 -0.278454 0.960447 0.0022998
-33.6802 36.7474 49.8323 -0.278409 0.96046 0.00232904
-34.835 36.4092 49.5414 -0.283901 0.958852 -0.0015394
-35.8601 36.1056 49.2085 -0.283374 0.959008 -0.00190469
-36.8381 35.8143 48.7613 -0.285836 0.95827 -0.0039815
-37.9157 35.4902 48.0862 -0.285481 0.958376 -0.0040999
-39.3396 35.0592 47.2613 -0.287364 0.957804 -0.00588344
-40.1795 34.8035 46.5585 -0.288768 0.957391 -0.00387197
-41.4414 34.4208 45.9143 -0.287547 0.957753 -0.00511794
-42.7527 34.0238 45.1909 -0.286962 0.957931 -0.00462934
-43.6547 33.7553 44.6344 -0.281643 0.959498 -0.00632452
-44.8226 33.4068 43.9384 -0.28209 0.959363 -0.00686992
-45.7794 33.1316 43.3164 -0.27518 0.961392 0.00133779
-46.7678 32.8494 42.5583 -0.275867 0.961195 0.00119261
-47.832 32.5453 41.7866 -0.275741 0.961231 0.00162298
-48.9084 32.2472 40.9387 -0.267892 0.96344 0.00417509
-49.9351 31.9705 39.9553 -0.268168 0.963307 0.0110919
-50.7277 31.7618 38.9584 -0.267002 0.963638 0.0105205
-51.4314 31.5844 37.4701 -0.268771 0.963112 0.013348
-51.4051 31.6155 36.0349 -0.26693 0.963494 0.0206621
-51.3791 31.6531 34.6023 -0.266106 0.963735 0.0200691
-51.3039 31.6989 33.4985 -0.26333 0.964162 0.0323883
-51.4536 31.7061 32.0674 -0.263379 0.964149 0.0323867
-51.4605 31.7401 30.9895 -0.257118 0.965744 0.0350024
-51.5523 31.7657 29.6766 -0.256338 0.96589 0.0367144
-51.4498 31.8395 28.4499 -0.256658 0.965786 0.0372035
-51.5498 31.8738 27.1475 -0.250524 0.96695 0.0473797
-51.5958 31.9185 25.991 -0.250546 0.966938 0.0475199
-51.4424 32.0229 24.8996 -0.252599 0.965869 0.0573565
-50.8502 32.2546 23.5433 -0.244315 0.967831 0.0593547
-50.1494 32.4848 22.722 -0.240102 0.968232 0.0697964
-49.1136 32.8349 21.6619 -0.251703 0.964824 0.0758971
-47.9477 33.2327 20.4628 -0.252158 0.964763 0.0751577
-46.8927 33.5667 19.7033 -0.251323 0.965253 0.0709756
-46.1116 33.825 19.0307 -0.248153 0.965532 0.0785326
-45.3905 34.0936 18.007 -0.255208 0.963784 0.0770382
-44.8503 34.3133 17.0894 -0.25879 0.962673 0.0792965
-44.0424 34.6221 15.9826 -0.259613 0.96241 0.0798026
-43.174 34.9409 14.8862 -0.249951 0.964112 0.0895106
-42.4678 35.2227 13.9247 -0.256182 0.962499 0.0891231
-41.615 35.5359 12.9018 -0.250239 0.964712 0.0819195
-40.6191 35.8769 11.9289 -0.253195 0.964025 0.0808607
-39.2336 36.33 10.8578 -0.252236 0.964213 0.0816749
-37.5747 36.8447 9.90692 -0.255239 0.963622 0.0792832
-36.2711 37.2467 9.11585 -0.250098 0.965326 0.0748078
-35.3189 37.5266 8.68808 -0.250076 0.965331 0.074817
-34.1172 37.87 8.1663 -0.24617 0.966829 0.0681245
-32.9316 38.2125 7.58897 -0.246275 0.9668 0.0681675
-31.6701 38.5475 7.24082 -0.239236 0.968959 0.0623298
-30.2575 38.9133 6.97609 -0.23746 0.969492 0.0607672
-28.9114 39.2588 6.56374 -0.229413 0.971438 0.0606468
-27.826 39.5285 6.36794 -0.221905 0.973959 0.0460903
-26.3536 39.8718 6.04331 -0.217339 0.974898 0.0483457
-25.0482 40.1668 5.72497 -0.209695 0.977041 0.0376804
-23.9116 40.4155 5.44689 -0.195547 0.980177 0.0318578
-22.4585 40.7114 5.19627 -0.187569 0.981781 0.0297766
-21.4063 40.9086 5.15062 -0.183143 0.982757 0.0254513
-20.1898 41.1189 5.03164 -0.164636 0.985963 0.0277817
-18.9662 41.3243 4.8642 -0.147386 0.988523 0.0331546
-17.2706 41.594 4.71838 -0.145119 0.989176 0.0188294
-15.8533 41.7879 4.61298 -0.134155 0.990798 0.0179515
-14.7301 41.9318 4.54074 -0.123694 0.992288 0.00802449
-13.5404 42.0766 4.53987 -0.103212 0.994652 0.00392718
-12.4384 42.1905 4.62469 -0.103137 0.994659 0.00390671
-11.373 42.2973 4.60566 -0.0867575 0.996173 0.00392451
-9.78597 42.4231 4.63915 -0.080975 0.996693 0.00673697
-8.20323 42.5332 4.75735 -0.0662082 0.997734 0.0119357
-6.63133 42.6242 4.84345 -0.0508088 0.998704 0.00306202
-5.56886 42.6779 4.97255 -0.0435549 0.999009 0.00500779
-4.42759 42.7183 5.02735 -0.0290813 0.999576 0.00161552
-3.31681 42.7508 4.83684 -0.02894 0.99958 0.00159829
-1.86288 42.7762 4.90886 -0.0106312 0.999936 0.00398162
-0.786409 42.7886 4.81332 -0.0110274 0.999928 0.00468884
0.380393 42.7895 4.43679 0.00766429 0.999962 0.00405892
1.51387 42.782 4.15909 0.00725651 0.999968 0.00337009
2.75662 42.7594 3.76718 0.0230203 0.999702 0.00813825
4.09827 42.7263 3.5729 0.0375439 0.999254 0.00819657
5.64261 42.668 3.12762 0.0404424 0.998973 0.0204126
6.62715 42.6234 2.67817 0.0582863 0.998161 0.0166514
7.65925 42.5704 2.23059 0.0669548 0.997699 0.0104747
8.94168 42.4957 1.37273 0.0714621 0.997221 0.0210416
9.79621 42.4476 0.333688 0.0794756 0.996694 0.0165215
10.1801 42.4352 -0.736425 0.0863412 0.996069 0.0197983
10.4237 42.4408 -1.91419 0.0924975 0.995359 0.0258252
10.4197 42.4711 -3.23802 0.0982758 0.994723 0.0287447
10.2493 42.5266 -4.3333 0.100553 0.994292 0.0356447
9.89635 42.6111 -5.52168 0.108662 0.99332 0.0378829
9.37412 42.7061 -6.55039 0.11527 0.99278 0.0331868
8.68109 42.8141 -7.47577 0.109728 0.992973 0.044317
7.83186 42.9339 -8.16128 0.105108 0.993594 0.0415116
6.68989 43.0941 -9.14428 0.094793 0.993726 0.0593567
5.45065 43.2653 -9.96194 0.0995578 0.993064 0.0625487
4.35258 43.4161 -10.751 0.0771592 0.99462 0.069118
3.41497 43.5412 -11.365 0.0881911 0.993858 0.0602477
2.09594 43.687 -12.2353 0.0549798 0.995399 0.0771739
1.04984 43.7976 -13.017 0.0403392 0.995455 0.0862227
-0.185391 43.927 -13.8899 0.0434065 0.995481 0.0843296
-1.1715 43.9871 -14.3716 0.0123112 0.99674 0.0797419
-2.58893 44.0483 -15.0085 -0.0141972 0.995443 0.0942997
-3.88057 44.0898 -15.6499 -0.0136788 0.995663 0.0920205
-4.99679 44.138 -16.3741 -0.0173179 0.995968 0.0880165
-5.96702 44.1667 -16.9631 -0.0272178 0.995766 0.0878028
-7.40751 44.1662 -17.7391 -0.0648337 0.99539 0.0706821
-8.39572 44.1403 -18.1907 -0.0509063 0.995142 0.082117
-9.69074 44.1029 -18.6838 -0.0785765 0.994265 0.0688608
-11.0463 44.0065 -19.2005 -0.106151 0.991239 0.0785968
-12.4483 43.8736 -19.7222 -0.118131 0.991597 0.0518583
-14.2141 43.6672 -20.3888 -0.141781 0.988636 0.049977
-15.5359 43.4885 -20.9503 -0.176595 0.981745 0.070639
-17.1474 43.2208 -21.4402 -0.175148 0.98317 0.0519657
-18.3642 43.0318 -21.9661 -0.178473 0.982985 0.0422073
-19.4465 42.841 -22.4863 -0.2032 0.978242 0.0418556
-20.6067 42.629 -23.1654 -0.203226 0.978238 0.0418212
-21.5827 42.424 -23.6569 -0.221935 0.974713 0.025901
-22.4873 42.2314 -24.2484 -0.22468 0.974073 0.0264716
-23.6945 41.9575 -24.7132 -0.226444 0.973818 0.0198696
-24.8065 41.7067 -24.9829 -0.224528 0.974276 0.0193445
-26.2991 41.3437 -25.7355 -0.240288 0.970699 -0.00245765
-27.4567 41.0553 -26.4696 -0.241176 0.970441 -0.0073778
-28.7424 40.7094 -27.3891 -0.254056 0.967119 -0.0116986
-29.6955 40.4498 -27.8822 -0.261091 0.965201 -0.0147941
-30.729 40.1633 -28.3341 -0.261664 0.96488 -0.0220276
-32.2126 39.7349 -28.999 -0.264552 0.963809 -0.0329234
-33.1354 39.4633 -29.535 -0.266149 0.963332 -0.0339414
-34.5721 39.0307 -30.4637 -0.267161 0.963013 -0.0350667
-35.6776 38.6912 -31.1522 -0.269433 0.962097 -0.0421277
-36.7565 38.3597 -31.7721 -0.271742 0.96138 -0.0436401
-37.6417 38.0777 -32.4346 -0.270922 0.961311 -0.0498251
-38.5274 37.785 -33.2466 -0.272466 0.960573 -0.0553325
-39.2153 37.5443 -34.0384 -0.272464 0.960573 -0.0553333
-39.9498 37.2696 -35.1682 -0.275229 0.95986 -0.0540271
-40.8035 36.9686 -36.159 -0.276026 0.959598 -0.0545989
-41.5772 36.7045 -36.8715 -0.27683 0.959201 -0.0574189
-42.2755 36.4528 -37.6819 -0.27787 0.958841 -0.0584098
-42.9968 36.2011 -38.4468 -0.271023 0.96052 -0.0627904
-44.103 35.8153 -39.5834 -0.273423 0.960192 -0.0571926
-44.9244 35.5185 -40.5725 -0.275806 0.959351 -0.0598088
-45.8003 35.2197 -41.3664 -0.272015 0.960109 -0.064795
-47.2223 34.7574 -42.2555 -0.2728 0.959964 -0.063626
-48.2612 34.4149 -42.9915 -0.270369 0.960616 -0.0641648
-49.6196 33.9572 -44.1383 -0.269769 0.96086 -0.063033
-50.1404 33.7477 -45.0956 -0.270755 0.960576 -0.0631287
-50.8503 33.4576 -46.5094 -0.271676 0.960597 -0.0587035
-50.9645 33.3598 -47.5838 -0.272717 0.960577 -0.0540137
-51.0122 33.2727 -49.0064 -0.281513 0.958309 -0.0489267
-50.8146 33.2551 -50.4835 -0.281506 0.9583 -0.0491476
-50.6325 33.2317 -52.3301 -0.2861 0.957642 -0.0326813
-50.5392 33.2152 -53.6309 -0.286202 0.957609 -0.0327684
-50.6444 33.1445 -55.4335 -0.287539 0.957544 -0.0207497
-50.6446 33.1234 -56.5399 -0.288874 0.957252 -0.0148135
-50.5646 33.1284 -57.7889 -0.289037 0.957205 -0.0147194
-50.4436 33.1522 -58.9361 -0.288356 0.957477 -0.00937414
-50.1347 33.2356 -60.0189 -0.289336 0.957198 -0.00750802
-49.5255 33.4123 -61.0521 -0.289068 0.957285 -0.00667603
-48.868 33.6121 -61.9138 -0.292691 0.956207 -0.000945713
-48.1497 33.8329 -62.6802 -0.29538 0.955379 -0.000806115
-47.2246 34.1196 -63.3979 -0.294695 0.955547 0.00918497
-46.0493 34.4921 -64.0021 -0.300135 0.953854 0.00859229
-45.0834 34.8004 -64.5137 -0.299353 0.954091 0.00994338
-44.099 35.11 -64.9463 -0.296566 0.954981 0.00777768
-43.1975 35.3959 -65.5222 -0.297476 0.954704 0.00674463
-42.0827 35.7449 -65.9916 -0.296668 0.954966 0.00536795
-40.8831 36.1163 -66.2739 -0.293576 0.955923 0.0049507
-39.8146 36.4444 -66.5291 -0.290679 0.956814 0.00321043
-38.5386 36.8313 -67.0401 -0.288962 0.957335 0.00325822
-37.5377 37.1288 -67.3197 -0.280097 0.959971 0.00129209
-36.148 37.5348 -67.6583 -0.278831 0.960337 -0.000762607
-34.9882 37.8622 -67.8912 -0.270585 0.962695 -0.00146795
-33.829 38.1898 -67.9906 -0.269841 0.962858 -0.00880611
-32.6739 38.5066 -68.1742 -0.265558 0.964052 -0.00906098
-31.5069 38.8267 -68.318 -0.262381 0.964925 -0.00800296
-30.3374 39.1353 -68.4 -0.250266 0.968084 -0.0134583
-28.8763 39.5122 -68.4566 -0.249074 0.968399 -0.0128108
-27.6888 39.8077 -68.5495 -0.239483 0.970746 -0.0173425
-26.5611 40.0865 -68.5197 -0.236515 0.971494 -0.0157319
-25.5106 40.3293 -68.5109 -0.22448 0.974351 -0.0152001
-24.4515 40.5728 -68.4822 -0.217929 0.975869 -0.0136452
-22.5842 40.9906 -68.4227 -0.217973 0.975862 -0.013498
-21.4549 41.2286 -68.4406 -0.206226 0.978278 -0.0210716
-20.1031 41.5163 -68.2339 -0.20123 0.979348 -0.019563
-18.6957 41.8074 -68.0707 -0.195949 0.980431 -0.0182989
-17.5598 42.0341 -67.8271 -0.191675 0.981303 -0.0174172
-16.2204 42.2953 -67.5179 -0.184167 0.982727 -0.0181492
-14.7757 42.5736 -67.109 -0.184104 0.982738 -0.0182335
-13.7115 42.7712 -66.8545 -0.176104 0.984138 -0.0214284
-12.4173 43.013 -66.3893 -0.175005 0.984332 -0.0215168
-11.2485 43.2254 -66.075 -0.172803 0.984743 -0.0204846
-10.2692 43.4057 -65.6696 -0.171156 0.985023 -0.0207741
-9.25614 43.5887 -65.2872 -0.170366 0.985132 -0.0221285
-7.94872 43.8271 -64.7358 -0.170201 0.985161 -0.0221132
-7.00349 44.0031 -64.2225 -0.170572 0.985139 -0.0201602
-5.24211 44.3276 -63.473 -0.171884 0.984803 -0.0248881
-4.31573 44.5002 -62.967 -0.168755 0.985354 -0.0244725
-3.12886 44.7172 -62.4972 -0.179119 0.983487 -0.0242649
-2.04338 44.9393 -61.8552 -0.19013 0.981492 -0.0228783
-0.635685 45.2304 -61.0646 -0.189815 0.981477 -0.0257705
0.204496 45.4231 -60.361 -0.200566 0.979242 -0.0293005
1.06912 45.6191 -59.7119 -0.195547 0.980356 -0.0257681
2.15215 45.8499 -59.1513 -0.19561 0.980341 -0.0258638
3.13156 46.0769 -58.5368 -0.217731 0.975589 -0.0286343
4.16112 46.3247 -57.8987 -0.222333 0.974509 -0.0295325
5.38492 46.6439 -56.9618 -0.239277 0.970636 -0.0247582
6.33089 46.9068 -56.2837 -0.250471 0.967767 -0.0262879
7.71989 47.2856 -55.4212 -0.244579 0.969336 -0.0238494
8.56249 47.5143 -54.7672 -0.24384 0.96959 -0.0206655
9.58832 47.7894 -53.9749 -0.248194 0.968539 -0.0182166
10.4554 48.0277 -53.118 -0.247824 0.968671 -0.0159519
11.5102 48.309 -52.012 -0.241683 0.970255 -0.013971
12.2728 48.5087 -51.1698 -0.240149 0.970709 -0.00728712
13.0867 48.6854 -50.4453 -0.219288 0.975565 0.0136179
14.0025 48.878 -49.4866 -0.219314 0.975577 0.012196
15.1642 49.0852 -48.3897 -0.185682 0.982299 0.0247099
15.9026 49.2013 -47.4235 -0.216329 0.975181 0.0471537
16.7283 49.2936 -46.5219 -0.174733 0.982511 0.0643451
17.5669 49.3947 -45.7896 -0.145188 0.982854 0.102795
18.3647 49.3482 -44.8082 -0.120052 0.98253 0.142207
19.2376 49.3298 -44.1098 -0.089311 0.986273 0.138887
20.1548 49.3546 -43.5377 -0.105161 0.986875 0.12255
21.1306 49.368 -42.9233 -0.0443833 0.987712 0.14985
22.2675 49.3357 -42.3733 -0.0444057 0.987723 0.14977
23.1939 49.2495 -41.8212 0.010272 0.985916 0.166928
24.4637 49.1391 -41.3035 0.0422249 0.970594 0.235313
25.6332 48.828 -40.6352 0.139662 0.965255 0.220854
26.6121 48.5064 -39.7739 0.120752 0.970849 0.207055
27.0893 48.0837 -38.4373 0.113488 0.94404 0.309693
27.2389 47.7133 -37.3688 0.11456 0.942514 0.313917
27.3407 47.3147 -36.2092 0.109987 0.941896 0.317334
27.3562 46.8148 -34.9329 0.0875862 0.920629 0.379891
27.2173 46.4088 -33.8985 0.0743999 0.91715 0.390963
27.4808 45.6005 -32.0378 0.0984648 0.919954 0.379459
27.6502 45.155 -31.0043 0.0938335 0.913991 0.394735
28.0427 44.6748 -29.9856 0.0938579 0.914007 0.394693
27.8009 43.9819 -28.3558 0.056647 0.920998 0.385426
27.4049 43.5957 -27.3748 0.0519207 0.919591 0.389379
27.8032 43.1769 -26.4236 0.0606415 0.922764 0.380563
28.3257 42.8092 -25.6152 0.0615135 0.927468 0.368581
12.7054 42.2331 -3.16461 0.111152 0.993652 0.01729
12.6407 42.2591 -4.16614 0.114749 0.993105 0.0239931
12.6061 42.2782 -4.82767 0.121646 0.992344 0.0211998
13.3575 42.1666 -3.69482 0.119776 0.992674 0.0158449
13.707 42.1084 -2.5475 0.115549 0.993163 0.0161102
13.8935 42.0716 -1.11116 0.107672 0.994141 0.00953211
13.5243 42.1012 0.255041 0.103484 0.994607 0.00677372
12.82 42.1643 1.41321 0.100807 0.994886 0.00275596
12.0591 42.2336 2.2675 0.0842133 0.996447 0.00103847
11.1442 42.3104 3.14161 0.0795709 0.996814 0.00130546
10.7976 42.3397 2.53094 0.0784821 0.996879 0.00842746
11.6934 42.2682 1.59154 0.0885203 0.996054 0.00644673
12.2059 42.2336 0.227563 0.0975494 0.995211 0.00626258
12.3829 42.2281 -0.860964 0.0973872 0.995167 0.0125555
12.6832 42.2215 -2.3985 0.110877 0.993666 0.0183031
12.6914 42.2262 -2.70805 0.110875 0.993666 0.0183047
3.46336 43.1031 21.312 0.00802258 0.999021 -0.0433092
3.74848 43.0561 20.2049 0.0108307 0.999074 -0.0416499
4.27171 43.0026 18.9761 0.0164441 0.999232 -0.0352258
4.79615 42.9477 17.8318 0.0246977 0.998767 -0.0427206
5.13067 42.8976 16.8004 0.031173 0.998802 -0.0377138
5.51894 42.8326 15.44 0.0369776 0.998751 -0.033612
5.82966 42.7804 14.2033 0.0383285 0.99876 -0.0314661
6.12456 42.7314 13.0524 0.0409628 0.998904 -0.0226275
6.62445 42.6787 11.7849 0.0497274 0.998478 -0.0234204
7.15872 42.6277 10.4943 0.0525471 0.998392 -0.0209682
7.842 42.5634 8.96247 0.0572455 0.99823 -0.0160813
8.48772 42.5083 7.54359 0.057669 0.998262 -0.0120592
9.02288 42.4615 6.40946 0.0643849 0.997895 -0.00618006
9.62273 42.4185 5.25277 0.0664002 0.99779 -0.00180323
10.5174 42.3542 4.37288 0.0750861 0.997176 0.00135865
10.275 42.3744 3.45769 0.0743972 0.997225 0.00261217
9.01394 42.4625 4.09365 0.06456 0.997903 0.00455365
7.82192 42.5353 4.60889 0.0617767 0.998058 0.00797427
6.30983 42.618 5.25436 0.0499328 0.998752 -0.000776412
4.78723 42.6879 5.66016 0.0421917 0.9991 0.0042665
3.55204 42.7291 5.93732 0.0292427 0.999569 0.00258591
2.48196 42.7596 6.18991 0.0181444 0.999824 -0.00325477
1.25254 42.7795 6.43395 0.0107286 0.999927 -0.00258311
-0.215465 42.7861 6.7065 -0.000240639 0.999995 -0.00121688
-1.40981 42.7828 6.91407 -0.00773813 0.999953 -0.00208232
-2.57907 42.7654 6.96722 -0.0161542 0.999868 -0.00190529
-3.82366 42.7361 6.95394 -0.0307495 0.999527 -0.000897944
-4.99526 42.6978 7.02945 -0.0379897 0.99927 -0.00413454
-6.18017 42.6523 7.01279 -0.0435999 0.999017 -0.00567821
-7.39476 42.5886 6.89381 -0.0584211 0.998266 -0.00536481
-8.68776 42.5051 6.75441 -0.0687147 0.997607 -0.00705511
-9.98658 42.4115 6.66803 -0.0707362 0.997476 -0.00518966
-11.2892 42.2951 6.69229 -0.092433 0.995707 0.0030476
-12.6264 42.1608 6.68544 -0.101941 0.994777 0.00525187
-14.2003 41.9828 6.62486 -0.122499 0.992443 0.00717852
-15.8452 41.7622 6.7728 -0.140957 0.989967 0.00981469
-17.3913 41.5362 6.95872 -0.154292 0.987931 0.0108734
-18.5763 41.3428 6.84362 -0.159465 0.987065 0.014784
-19.8076 41.1392 6.92115 -0.168708 0.98542 0.0220207
-21.1382 40.9031 7.2643 -0.178281 0.983612 0.025052
-23.101 40.5154 7.50026 -0.200284 0.979213 0.0304942
-24.71 40.1624 7.73223 -0.211069 0.9768 0.0362124
-25.9257 39.8831 7.99723 -0.218524 0.974907 0.0424768
-27.3777 39.5313 8.36635 -0.228953 0.972354 0.0459116
-29.2517 39.0565 8.79855 -0.238351 0.969656 0.0543741
-31.1822 38.5502 9.29768 -0.245654 0.967636 0.0575233
-32.4329 38.1944 9.82467 -0.249128 0.966535 0.0612043
-33.6534 37.8516 10.2762 -0.252124 0.965539 0.064388
-34.869 37.5047 10.631 -0.255504 0.964453 0.0674457
-36.053 37.1441 11.2972 -0.255586 0.964392 0.0679997
-37.315 36.748 12.0513 -0.259359 0.963152 0.0711965
-38.3097 36.4283 12.701 -0.26127 0.962295 0.0756733
-39.8294 35.9197 13.9888 -0.259754 0.963093 0.0705651
-40.5242 35.6742 14.7824 -0.261483 0.9624 0.0734934
-41.3047 35.3962 15.5894 -0.264941 0.961216 0.0766118
-41.9882 35.1389 16.4733 -0.263218 0.961828 0.074849
-42.8771 34.7931 17.8466 -0.267016 0.960999 0.0719952
-43.5643 34.5272 18.84 -0.269486 0.960571 0.0682436
-44.2627 34.2674 19.834 -0.266091 0.961961 0.0618642
-44.9751 34.016 20.7002 -0.263346 0.962896 0.0589939
-45.7561 33.754 21.4901 -0.263391 0.962896 0.0587914
-46.7252 33.4436 22.2195 -0.263694 0.962759 0.0596693
-47.5719 33.1667 22.9078 -0.270586 0.960426 0.0660631
-48.3764 32.8926 23.6032 -0.263963 0.963131 0.0512386
-49.1059 32.6427 24.7517 -0.256956 0.965175 0.0490526
-49.4669 32.4661 26.2582 -0.258275 0.964705 0.0513658
-49.4637 32.3975 27.7305 -0.260334 0.964588 0.0421675
-49.4984 32.3411 28.9038 -0.256977 0.965682 0.0376952
-49.502 32.2957 30.0481 -0.257118 0.965744 0.0350034
-49.4295 32.2434 32.1275 -0.257505 0.96573 0.0324983
-49.3069 32.2318 33.8141 -0.261445 0.964991 0.0202702
-49.2978 32.2158 34.996 -0.261014 0.965218 0.0150257
-49.2459 32.2115 36.1417 -0.266821 0.963531 0.0203559
-49.116 32.2298 37.5066 -0.269395 0.962954 0.0121019
-48.2638 32.4514 38.8101 -0.268685 0.963169 0.01053
-47.4383 32.6745 39.5541 -0.27087 0.962527 0.0130893
-46.4243 32.9554 40.4263 -0.276154 0.961103 0.00426748
-45.4784 33.2224 41.196 -0.276137 0.961113 0.00263517
-43.9415 33.6652 42.1566 -0.277642 0.960682 0.00222263
-42.6106 34.0601 42.9638 -0.284901 0.958557 0.000401771
-41.5487 34.379 43.5319 -0.28753 0.95777 -0.00171614
-39.9326 34.8688 44.3672 -0.289991 0.957029 -0.000470487
-38.6901 35.2466 45.0296 -0.288766 0.957391 -0.00387537
-37.7629 35.5277 45.7459 -0.287713 0.957711 -0.00332513
-36.7603 35.8312 46.4272 -0.287038 0.957915 -0.00246637
-35.1939 36.3006 47.2405 -0.286223 0.958162 -0.00165077
-33.456 36.8161 47.759 -0.283533 0.958963 -0.000239785
-32.1989 37.1813 47.836 -0.276231 0.961088 0.00264483
-31.0569 37.5102 47.699 -0.27593 0.961161 0.00553599
-29.5211 37.9457 47.3486 -0.27083 0.962593 0.0081195
-28.2481 38.3048 47.0545 -0.269578 0.962948 0.00765944
-27.2403 38.5885 46.8018 -0.261622 0.965099 0.0106569
-25.3869 39.0868 46.66 -0.25883 0.965821 0.0140446
-24.3358 39.3586 46.6545 -0.249606 0.968224 0.0153939
-23.1159 39.6757 46.5566 -0.240577 0.970364 0.0206926
-21.402 40.0832 46.2699 -0.227774 0.973561 0.0172533
-19.9243 40.4093 46.1569 -0.215487 0.976295 0.0201925
-18.6939 40.6741 46.1128 -0.206045 0.978216 0.0252838
-17.6409 40.9004 45.9383 -0.202221 0.979084 0.0217754
-16.5422 41.1065 45.7505 -0.179402 0.983432 0.0260163
-15.4319 41.3131 45.5949 -0.182797 0.982741 0.028093
-14.1005 41.5571 45.2985 -0.170297 0.984588 0.0398124
-12.9667 41.7674 44.9375 -0.151418 0.987145 0.0470998
-11.9478 41.9285 44.5027 -0.133121 0.989589 0.0547119
-10.9192 42.0965 44.0099 -0.116536 0.991054 0.0637967
-9.95398 42.2303 43.5294 -0.0950515 0.994164 0.0477061
-8.91339 42.3524 43.0127 -0.0921802 0.994645 0.0467265
-7.81949 42.4775 42.5079 -0.0918806 0.994699 0.0461691
-6.33527 42.6429 41.6295 -0.0771653 0.995953 0.0457916
-5.25448 42.7476 40.9822 -0.0712876 0.996588 0.0416089
-4.23029 42.8479 40.2838 -0.0691 0.996782 0.04063
-3.04212 42.9574 39.526 -0.0613451 0.997351 0.038165
-1.8945 43.0501 38.7526 -0.0527637 0.997787 0.0404516
-0.917543 43.1214 38.1186 -0.0462662 0.998361 0.0328938
0.219672 43.1852 37.4558 -0.0306574 0.998984 0.0330315
1.35375 43.2447 36.79 -0.0336614 0.998803 0.0355007
2.73202 43.3037 35.9941 -0.0156924 0.999427 0.0299197
3.67673 43.342 35.1955 -0.0180372 0.999397 0.0296525
3.18567 43.3613 34.2553 -0.0220584 0.999477 0.021851
2.54553 43.3655 33.0395 -0.0305696 0.99929 0.022
2.17338 43.3658 32.0115 -0.0350593 0.999345 0.00743675
1.88106 43.3565 30.9316 -0.034765 0.99936 -0.00560367
1.77535 43.3363 29.6254 -0.0356908 0.999237 -0.0156841
1.79614 43.3132 28.2944 -0.0362474 0.999123 -0.0207452
2.01009 43.2863 26.8463 -0.0272964 0.999258 -0.0271676
2.24477 43.2502 25.4194 -0.023333 0.99923 -0.0315442
2.65247 43.2034 23.9044 -0.0127872 0.999216 -0.0374682
3.08371 43.1558 22.5368 -0.000550715 0.999349 -0.0360665
3.25035 43.1353 21.9669 0.00282852 0.999112 -0.0415497
10.8424 44.0652 -28.0081 0.0363414 0.970864 0.23686
11.8453 44.1711 -28.5662 0.0068112 0.964471 0.262332
12.7304 44.4696 -29.5448 -0.0150936 0.955694 0.293626
12.8441 44.8537 -30.5871 -0.00444667 0.933657 0.35814
12.2727 45.248 -31.7299 -0.0412565 0.944656 0.325222
11.3674 45.4349 -32.3747 -0.0530055 0.942505 0.329801
10.1754 45.4738 -32.6663 -0.0424074 0.946711 0.31928
9.04615 45.359 -32.4116 -0.0206782 0.961483 0.273277
8.16183 45.1302 -31.6735 -0.0206786 0.961483 0.273278
7.79788 44.7986 -30.424 0.0336784 0.971369 0.235175
8.12797 44.5126 -29.2758 0.0429563 0.972374 0.229212
8.96582 44.1826 -28.1087 0.0561702 0.970373 0.234992
10.1057 44.0561 -27.8575 0.046171 0.970644 0.235841
10.0069 44.3068 -28.8699 0.0461659 0.970644 0.235842
11.2704 44.4242 -29.3366 0.0120161 0.950354 0.310938
11.9185 44.895 -30.7064 -0.0208748 0.941141 0.336168
10.6325 45.1831 -31.6896 -0.0240119 0.952878 0.302095
9.52898 45.1501 -31.7071 -0.019999 0.956572 0.290504
8.82943 44.8522 -30.6758 0.00325777 0.969398 0.245472
9.09525 44.5748 -29.68 0.0439081 0.95838 0.2821
9.79595 44.332 -28.924 0.0561672 0.970372 0.234994
10.2052 44.6025 -29.8809 -0.00601108 0.956601 0.29134
9.7439 44.8829 -30.8155 -0.00738175 0.95691 0.290291
10.918 44.7876 -30.471 -0.0113361 0.953356 0.301418
10.4238 44.6323 -29.9731 -0.00769584 0.956723 0.290897
68.4957 19.3006 14.0222 0.548424 0.835665 -0.0289788
68.5123 19.2498 12.6546 0.542514 0.839838 -0.0186719
68.5748 19.1595 10.8504 0.53638 0.843583 -0.0257763
68.3 19.3023 9.32102 0.530608 0.847252 -0.0232443
68.2376 19.3142 8.17819 0.517715 0.855494 -0.00518568
68.4011 19.1993 6.91434 0.512865 0.85839 -0.0116756
68.4407 19.1751 5.83966 0.500463 0.865611 -0.00552166
68.1571 19.3461 4.74474 0.494892 0.868925 0.00638826
68.1414 19.3595 3.52104 0.483045 0.875211 0.0173626
68.1995 19.4529 2.45152 0.485907 0.855352 0.178685
67.827 19.8182 1.77398 0.490682 0.851648 0.184166
68.5397 19.2732 2.41381 0.474967 0.864064 0.166732
69.2415 18.783 3.24812 0.46283 0.880678 0.100097
69.5055 18.59 4.38274 0.500799 0.864003 0.0519538
69.6338 18.48 5.60277 0.507225 0.861675 0.0151078
69.5442 18.5162 6.84737 0.515802 0.856367 0.0209355
69.6761 18.4319 8.04879 0.530814 0.847488 0.000423439
69.6146 18.4755 9.30313 0.537842 0.84292 -0.0127979
69.9198 18.2939 10.5177 0.54347 0.839356 -0.0110335
70.1633 18.163 11.8951 0.543347 0.839301 -0.0186311
70.0674 18.2572 13.2449 0.547997 0.836233 -0.0202871
70.3268 18.1266 14.7411 0.547707 0.836293 -0.0249618
70.4385 18.1006 16.1974 0.551248 0.833905 -0.0269496
70.2674 18.267 17.464 0.553068 0.832368 -0.0357725
69.6095 18.7882 18.9742 0.55004 0.83321 -0.0567193
68.7107 19.4384 19.7585 0.556694 0.827905 -0.0677861
67.816 20.1085 20.472 0.570401 0.817101 -0.0819887
67.4927 20.2962 20.0565 0.582517 0.808026 -0.088135
68.0104 19.8535 19.0156 0.555099 0.829637 -0.0597304
68.2918 19.5853 17.906 0.552569 0.831424 -0.0582248
68.5388 19.3379 16.0698 0.546164 0.837271 -0.0261071
68.5289 19.3086 14.9918 0.542682 0.839495 -0.0272379
22.2473 48.6934 -39.3314 -0.0115779 0.970638 0.240268
24.4009 48.0938 -37.3312 0.0295089 0.957243 0.287776
24.4159 48.0879 -37.3179 0.181327 0.929463 0.321277
24.3643 47.145 -35.0454 0.037368 0.914961 0.401808
22.5598 47.8665 -36.6247 -0.0540247 0.931606 0.359433
20.1673 48.4391 -38.854 -0.100225 0.958972 0.265194
18.0903 48.7021 -40.8714 -0.102296 0.974924 0.197633
15.9025 48.8414 -43.0357 -0.153125 0.981679 0.113396
14.0759 48.7643 -44.8957 -0.167421 0.98465 0.04934
12.1153 48.4403 -46.9493 -0.208467 0.977783 0.0219622
10.2372 48.0225 -48.9353 -0.226297 0.974047 -0.00470952
8.03398 47.4564 -51.276 -0.238241 0.97092 -0.0235568
6.21587 46.9673 -53.2057 -0.231344 0.972563 -0.0244998
53.701 31.9391 -7.74521 0.532354 0.842183 0.0856019
51.5189 33.4796 -10.7081 0.48236 0.874063 0.0578214
51.4466 33.5226 -10.7992 0.470374 0.881784 0.0347199
52.2175 32.8072 -6.98397 0.522491 0.850752 0.0567766
49.8971 34.2823 -10.0087 0.447421 0.892295 0.0602041
47.4478 35.5553 -12.9421 0.3684 0.9285 0.0465834
46.4809 35.9771 -14.0333 0.35416 0.933758 0.0516479
24.2847 46.1742 -32.8356 0.0213861 0.90905 0.416138
23.386 46.5429 -33.618 0.0152808 0.911678 0.410621
22.5992 46.8648 -34.3034 0.0117511 0.913679 0.406267
21.288 47.347 -35.4409 -0.0353394 0.926477 0.37469
20.5079 47.574 -36.1498 -0.0628106 0.93591 0.346593
18.9879 47.9124 -37.5656 -0.0958224 0.947963 0.303617
17.704 48.156 -38.7805 -0.104523 0.958135 0.266556
16.8844 48.2633 -39.5777 -0.0944325 0.966591 0.238294
15.6012 48.458 -40.8175 -0.0883778 0.971759 0.2188
14.4991 48.4596 -41.9329 -0.160831 0.975422 0.150617
13.6351 48.4323 -42.8135 -0.1797 0.974445 0.134778
12.4584 48.3499 -44.024 -0.200671 0.973628 0.108533
11.6447 48.2791 -44.8656 -0.194841 0.976074 0.0965263
10.7447 48.1291 -45.808 -0.205306 0.97834 0.026449
10.0005 47.9727 -46.5942 -0.226247 0.974063 0.00374082
9.23184 47.7946 -47.4092 -0.228 0.97365 -0.00463627
8.50113 47.6188 -48.184 -0.228872 0.973443 -0.00505946
7.71441 47.4332 -49.0178 -0.224571 0.974353 -0.0142917
6.5649 47.132 -50.2386 -0.22757 0.973342 -0.0285787
5.62901 46.8865 -51.2292 -0.226283 0.973589 -0.0303412
4.7143 46.6421 -52.1958 -0.220858 0.974676 -0.0350627
3.56426 46.3425 -53.4087 -0.220869 0.974852 -0.0296767
2.45883 46.0666 -54.5694 -0.213483 0.976609 -0.0256846
1.71958 45.8769 -55.3455 -0.207697 0.9775 -0.0368315
0.956335 45.6969 -56.1419 -0.189972 0.98122 -0.0334473
-0.0312025 45.4731 -57.1703 -0.188907 0.981591 -0.0281526
-0.547093 45.3564 -57.7069 -0.194828 0.980335 -0.0314015
42.0586 37.6847 -16.2447 0.275252 0.953068 0.126086
43.5781 37.046 -14.5987 0.306538 0.948494 0.0799622
45.0086 36.4594 -13.0258 0.328311 0.942792 0.0579192
46.5593 35.8075 -11.28 0.351506 0.93469 0.0529005
47.9699 35.1596 -9.63629 0.376346 0.925537 0.041786
49.2911 34.5037 -8.04152 0.434487 0.900227 0.028505
50.6855 33.6639 -6.25725 0.495411 0.867028 0.0532037
51.1103 33.3865 -5.69336 0.494287 0.867893 0.0494265
50.5334 33.6072 -3.68162 0.495619 0.867048 0.0508878
49.0492 34.4781 -5.5979 0.451416 0.891726 0.0323736
47.68 35.184 -7.27782 0.38289 0.923042 0.0372527
46.267 35.7931 -8.93336 0.337138 0.940813 0.0347672
44.8698 36.3525 -10.5222 0.313043 0.94805 0.0566241
43.4756 36.8717 -12.0642 0.278968 0.958303 0.0619006
42.0395 37.3964 -13.6223 0.266883 0.960804 0.0750302
40.3713 38.0473 -15.4119 0.247781 0.96211 0.113794
38.9642 38.6247 -16.892 0.258678 0.951836 0.164601
38.111 39.0024 -17.7726 0.213879 0.958288 0.189577
24.4084 45.0701 -30.441 0.0342247 0.910207 0.412738
23.4805 45.458 -31.2533 0.00693945 0.909667 0.41528
22.6098 45.8128 -32.0159 0.00891717 0.908383 0.418044
21.8344 46.1311 -32.6891 -0.0256102 0.907059 0.420224
20.9647 46.4606 -33.4533 -0.0289087 0.909941 0.413729
20.0207 46.7959 -34.2795 -0.0558554 0.91473 0.400186
18.6578 47.1694 -35.5149 -0.0896982 0.930952 0.353952
17.4661 47.4378 -36.6198 -0.109347 0.943854 0.311741
16.5927 47.6212 -37.4374 -0.0895695 0.95291 0.289725
15.1594 47.847 -38.8157 -0.13326 0.95391 0.268883
13.8969 47.9745 -40.0569 -0.175967 0.956743 0.231685
12.9302 48.0349 -41.0186 -0.180785 0.962244 0.203478
12.1496 48.0224 -41.8095 -0.185912 0.970205 0.15537
11.1924 47.9791 -42.7888 -0.182666 0.976234 0.116619
10.2207 47.8797 -43.7967 -0.204112 0.974591 0.0922586
9.41223 47.7974 -44.6357 -0.19856 0.977786 0.0671456
8.67269 47.6653 -45.4122 -0.201134 0.97954 0.00685276
7.84005 47.4874 -46.2917 -0.219608 0.97556 -0.00735826
6.9174 47.2723 -47.2692 -0.219477 0.975578 -0.00879446
5.89225 47.02 -48.3549 -0.215065 0.976343 -0.0223715
5.08264 46.8221 -49.2109 -0.217504 0.975719 -0.0257829
4.02481 46.5501 -50.3264 -0.212649 0.976661 -0.0302322
3.09415 46.3156 -51.305 -0.207817 0.977264 -0.0420353
2.29233 46.1099 -52.1486 -0.200212 0.97903 -0.0376224
1.1466 45.8304 -53.3478 -0.195995 0.979971 -0.0352408
0.323252 45.6391 -54.2074 -0.191777 0.980826 -0.0346619
-0.638196 45.4189 -55.2093 -0.190653 0.981119 -0.0325278
-1.53148 45.2192 -56.1403 -0.185425 0.982032 -0.0350924
-2.92772 44.8995 -57.5897 -0.183296 0.982572 -0.0308953
-4.25148 44.623 -58.9602 -0.173304 0.98444 -0.0290465
-5.12502 44.4435 -59.8631 -0.173225 0.984509 -0.0271026
-6.2611 44.2151 -61.0367 -0.169247 0.985244 -0.0254797
24.6944 43.9421 -27.8968 0.0328905 0.920148 0.390187
21.8574 45.0892 -30.3806 0.00111163 0.914605 0.404347
18.8851 46.1653 -33.0155 -0.0635946 0.921222 0.383805
16.2028 46.922 -35.4367 -0.0767906 0.938203 0.337459
12.9898 47.474 -38.5 -0.136356 0.964155 0.227622
10.1013 47.5899 -41.3879 -0.138164 0.978843 0.150918
7.45689 47.3439 -44.1202 -0.209177 0.976491 0.052054
5.01425 46.8562 -46.6899 -0.2147 0.976648 -0.00790396
2.30038 46.2149 -49.5423 -0.200369 0.979135 -0.0338796
-0.381702 45.5724 -52.3474 -0.186759 0.981554 -0.0408968
-2.95422 44.993 -55.0287 -0.175512 0.983662 -0.0400537
-5.5909 44.43 -57.7575 -0.163714 0.985849 -0.0360583
-8.08785 43.9259 -60.3382 -0.168725 0.985119 -0.0327324
-10.9564 43.346 -63.3089 -0.169965 0.98505 -0.028077
-10.9924 43.3387 -63.3462 -0.170546 0.984999 -0.0262701
-14.3795 42.7172 -64.2734 -0.181809 0.983018 -0.0249233
-11.7089 43.2709 -61.4996 -0.172151 0.984599 -0.0304625
-8.79789 43.8707 -58.4832 -0.166467 0.985394 -0.0358778
-6.25286 44.3924 -55.8516 -0.163408 0.98584 -0.0376512
-3.66335 44.9423 -53.1698 -0.171257 0.984379 -0.0408496
-0.742477 45.5888 -50.1306 -0.190443 0.98123 -0.0303141
1.84266 46.1815 -47.4293 -0.19855 0.979854 -0.0215298
4.79459 46.8122 -44.3369 -0.199246 0.979698 0.0222183
7.33807 47.1277 -41.6983 -0.186392 0.976943 0.104118
9.85307 47.1715 -39.1467 -0.148012 0.973249 0.175723
12.5154 46.8886 -36.5345 -0.126104 0.957533 0.259286
15.6739 46.1757 -33.6086 -0.0732996 0.929584 0.361248
18.6035 45.2718 -30.9729 -0.0411725 0.914304 0.402931
21.473 44.2194 -28.4258 -0.00141695 0.912533 0.409001
24.264 43.123 -25.9654 0.0106123 0.925754 0.377978
25.4875 42.6573 -24.8652 0.0367617 0.932498 0.359299
33.0328 40.5592 -20.2852 0.152132 0.956728 0.248048
33.8764 40.1925 -19.4667 0.161653 0.959584 0.230362
34.7529 39.8718 -18.5934 0.151527 0.967348 0.203167
35.6998 39.4865 -17.641 0.189401 0.962537 0.194037
36.4641 39.1995 -16.8656 0.185022 0.966927 0.175552
37.3029 38.8598 -16.0048 0.205539 0.968641 0.139603
38.0525 38.5946 -15.2304 0.198046 0.971125 0.133016
38.8031 38.319 -14.4456 0.226521 0.967717 0.110506
39.784 37.9568 -13.4081 0.240472 0.965712 0.0978452
40.5884 37.692 -12.551 0.243191 0.966492 0.0821697
41.6507 37.3359 -11.4077 0.242438 0.968542 0.0561222
42.4444 37.0731 -10.5467 0.264314 0.963404 0.04462
43.2716 36.7998 -9.64177 0.287008 0.957279 0.0352536
44.008 36.5504 -8.82835 0.288094 0.957334 0.0226527
44.2141 36.4854 -8.59992 0.300617 0.953596 0.0168578
45.9117 35.8658 -6.66749 0.34589 0.938096 0.0183304
47.3374 35.2362 -4.97321 0.3868 0.921873 0.0231623
48.6938 34.5702 -3.30545 0.436925 0.898876 0.0334593
49.9688 33.8154 -1.65299 0.473667 0.879886 0.0379614
50.1275 33.7168 -1.44242 0.488316 0.871729 0.0404486
48.4884 34.5479 -0.799589 0.460027 0.887252 0.0340345
49.6814 33.8618 0.745422 0.478938 0.876827 0.0423444
50.2743 33.4955 1.53156 0.484181 0.87414 0.0380475
48.8093 34.2716 2.37627 0.475236 0.879454 0.0266726
50.0384 33.5561 3.98875 0.487186 0.873012 0.022337
50.4064 33.3299 4.48147 0.495555 0.867378 0.0456152
48.7747 34.2382 5.08498 0.481503 0.876445 0.000289221
50.0188 33.5178 6.73218 0.50928 0.860358 0.0204479
50.448 33.2499 7.31478 0.509425 0.860331 0.0177945
48.9168 34.1397 8.02641 0.49371 0.8695 0.0148615
50.0665 33.4419 9.58186 0.514656 0.857396 0.00122053
50.4909 33.181 10.162 0.528248 0.848919 0.0170357
48.7293 34.2313 10.5413 0.508637 0.860946 -0.00773592
50.0699 33.4115 12.3768 0.534796 0.844842 0.0153302
50.6481 33.0217 13.2 0.539408 0.841824 0.0192583
48.9892 34.0795 13.6668 0.529686 0.848187 0.00342816
50.2482 33.2579 15.4522 0.555109 0.831775 0.00205733
50.9567 32.769 16.4854 0.575516 0.81765 0.0151466
49.2762 33.9058 16.8753 0.560823 0.82789 -0.00869454
50.5621 33.0087 18.7667 0.576621 0.816907 0.0130668
51.0553 32.6519 19.5031 0.584946 0.811029 0.00833469
49.261 33.9212 19.687 0.576115 0.817333 0.00758074
50.5399 33.0041 21.5842 0.585061 0.810963 0.00647709
50.6311 32.9363 21.7218 0.588993 0.808103 0.00754764
37.9449 38.3233 -12.7349 0.215651 0.972804 0.0845413
37.091 38.6089 -13.6277 0.192864 0.975166 0.108877
36.3388 38.8372 -14.4036 0.188087 0.972611 0.13657
35.467 39.1123 -15.2934 0.165557 0.977718 0.129065
34.7116 39.3883 -16.06 0.165631 0.970595 0.174675
33.9248 39.6479 -16.8535 0.146353 0.973891 0.173542
32.9836 39.9884 -17.79 0.157593 0.968009 0.195252
31.9529 40.3244 -18.807 0.113128 0.97056 0.212641
31.1011 40.62 -19.6323 0.108628 0.963734 0.243757
30.2869 40.9249 -20.4153 0.0966942 0.956901 0.273843
29.3253 41.2642 -21.3263 0.0788436 0.958672 0.273372
28.6818 41.4831 -21.9369 0.0450929 0.956172 0.289313
33.1373 39.4811 -15.0756 0.14587 0.977597 0.151745
31.0971 40.0737 -17.106 0.101823 0.977335 0.185605
29.1315 40.6757 -19.0174 0.0811032 0.971227 0.22392
27.183 41.2765 -20.8792 0.045457 0.965342 0.256999
25.0828 41.9404 -22.8452 0.0419022 0.953817 0.297452
22.9933 42.66 -24.7611 -0.00795261 0.929914 0.36769
20.923 43.428 -26.6283 0.00168 0.91731 0.398171
18.8728 44.2013 -28.4293 -0.00941969 0.916723 0.399413
16.802 44.9216 -30.2821 -0.0330777 0.926156 0.375686
14.7007 45.5471 -32.1792 -0.049327 0.934499 0.352531
12.7506 46.073 -33.9544 -0.0761196 0.94212 0.326522
10.6429 46.5009 -35.9333 -0.0997752 0.960578 0.259491
8.68835 46.7265 -37.8433 -0.130609 0.974295 0.183551
6.52927 46.7947 -40.0017 -0.15352 0.980995 0.118658
4.71984 46.6442 -41.8608 -0.194626 0.977477 0.0816104
2.61197 46.3722 -44.0394 -0.191229 0.981088 0.0299512
0.802567 45.9961 -45.9295 -0.197479 0.980228 -0.0124257
-1.39851 45.5188 -48.2259 -0.192441 0.981073 -0.021496
-3.37762 45.0978 -50.2809 -0.178687 0.983378 -0.0322171
-5.45781 44.6589 -52.4372 -0.170385 0.98475 -0.0351622
-8.05538 44.1213 -55.1249 -0.163762 0.985816 -0.0367207
-10.3772 43.6404 -57.5261 -0.165199 0.985481 -0.0392017
-12.2333 43.2535 -59.4511 -0.16721 0.98526 -0.0361126
-14.1044 42.8535 -61.3966 -0.178243 0.983427 -0.0331677
-16.3428 42.3683 -63.7299 -0.182349 0.982838 -0.0278966
-17.8077 42.0434 -65.2602 -0.190149 0.981429 -0.0253176
-20.7248 41.4435 -65.7278 -0.203111 0.978795 -0.0265914
-18.734 41.91 -63.6368 -0.193763 0.980603 -0.0295509
-16.8427 42.3384 -61.6585 -0.184419 0.982297 -0.0329096
-14.947 42.7613 -59.681 -0.178531 0.983259 -0.0364445
-13.0904 43.165 -57.7471 -0.172582 0.984197 -0.0396397
-11.1885 43.5713 -55.7734 -0.167329 0.985186 -0.0375354
-9.26251 43.9743 -53.7818 -0.163059 0.98586 -0.0386297
-7.4318 44.3419 -51.8905 -0.168777 0.985163 -0.031099
-5.62221 44.7075 -50.0188 -0.17216 0.984655 -0.0285541
-3.81326 45.0697 -48.1481 -0.178547 0.983766 -0.0180394
-1.71125 45.4943 -45.9662 -0.191115 0.981568 0.000611178
0.417368 45.9137 -43.7523 -0.211851 0.97719 0.0148234
2.35608 46.2197 -41.7426 -0.182072 0.982333 0.0432526
4.44494 46.3962 -39.6069 -0.155456 0.982807 0.0996175
6.61022 46.4252 -37.4258 -0.14026 0.978433 0.151644
8.71798 46.1701 -35.3736 -0.0680275 0.964003 0.25704
10.6148 45.8006 -33.577 -0.0568008 0.951834 0.301307
11.4322 45.5937 -32.8262 -0.0607963 0.944324 0.323351
8.78027 45.4848 -32.9178 -0.0396509 0.962022 0.270078
6.73198 45.903 -34.8559 -0.0705705 0.968957 0.236945
4.83595 46.059 -36.7111 -0.130594 0.979859 0.151066
2.89675 46.0612 -38.6537 -0.151885 0.982572 0.10716
1.06366 45.9117 -40.5225 -0.183955 0.980374 0.0709031
-1.11942 45.5808 -42.7786 -0.191901 0.98111 0.0244573
-3.00333 45.2393 -44.7302 -0.185539 0.982623 0.00515599
-4.9558 44.8782 -46.7488 -0.178548 0.983907 -0.00688477
-7.20146 44.4535 -49.0676 -0.171188 0.98515 -0.0131843
-9.03764 44.1014 -50.9631 -0.162891 0.986325 -0.0250731
-10.9989 43.7177 -52.9857 -0.164412 0.985434 -0.0434551
-12.959 43.2956 -55.0151 -0.171567 0.984372 -0.0397083
-14.7923 42.8929 -56.9216 -0.178003 0.983329 -0.0371282
-16.6313 42.481 -58.8435 -0.18352 0.982399 -0.0348357
-18.492 42.0527 -60.7877 -0.194385 0.98022 -0.0371802
-20.5968 41.5453 -62.9977 -0.202846 0.97871 -0.0313162
-22.8705 40.9919 -65.3955 -0.213783 0.976477 -0.0280957
-22.9306 40.9769 -65.4591 -0.213782 0.976477 -0.0280936
-25.8055 40.308 -65.9089 -0.233709 0.972173 -0.0161329
-24.0449 40.7657 -64.0395 -0.229813 0.97299 -0.0218429
-22.1676 41.2388 -62.0561 -0.21181 0.97678 -0.0321954
-19.8214 41.8269 -59.5848 -0.210373 0.977103 -0.0318311
-18.0016 42.2593 -57.6793 -0.188596 0.981477 -0.0336736
-16.2037 42.6713 -55.7981 -0.189511 0.981242 -0.0353585
-14.4266 43.0754 -53.9451 -0.184623 0.981804 -0.0444419
-12.2693 43.5457 -51.7107 -0.167275 0.985566 -0.0260443
-10.2587 43.926 -49.6387 -0.160767 0.986844 -0.0171301
-8.41151 44.2585 -47.7357 -0.165781 0.986127 -0.00841526
-6.46854 44.6079 -45.7329 -0.176337 0.98433 -0.000510405
-4.54776 44.946 -43.7518 -0.176511 0.984258 0.00896095
-2.41642 45.2946 -41.5551 -0.178862 0.983497 0.0272337
-0.611466 45.5504 -39.6974 -0.178943 0.982172 0.0576064
1.38453 45.7294 -37.6622 -0.150603 0.983457 0.10065
3.44893 45.7305 -35.6005 -0.106571 0.981235 0.160689
5.45507 45.535 -33.648 -0.0533352 0.976625 0.208229
