4.57388 36.5536 20.1228 -0.0271478 -0.977726 -0.208123
4.0069 36.8211 19.0485 -0.0296697 -0.974234 -0.223491
3.42786 37.0375 18.1557 -0.0243296 -0.975488 -0.218705
2.96731 37.2551 17.2486 -0.0403931 -0.969036 -0.243592
2.69435 37.5598 16.0816 -0.0336729 -0.969907 -0.241028
2.40754 37.8116 15.0378 -0.0366266 -0.97418 -0.222783
2.07863 38.1472 13.7381 -0.0435047 -0.967905 -0.247523
1.78771 38.439 12.6406 -0.0408301 -0.969777 -0.240492
1.6794 38.7058 11.561 -0.0429026 -0.9709 -0.235613
1.30963 39.1303 10.0195 -0.0559783 -0.962508 -0.265415
1.15456 39.4162 8.98031 -0.0686638 -0.966441 -0.247542
0.978933 39.8592 7.36048 -0.0799921 -0.962807 -0.258078
0.803941 40.1759 6.23808 -0.0798561 -0.962383 -0.259697
0.671887 40.4886 5.12741 -0.0844277 -0.961363 -0.262013
0.479591 40.797 4.05286 -0.0847453 -0.961667 -0.260795
0.315753 41.0949 3.01553 -0.0883558 -0.960465 -0.264007
0.169388 41.3985 2.00915 -0.0892254 -0.957047 -0.275862
0.118979 41.7085 0.911033 -0.103548 -0.957507 -0.269154
0.200159 42.0021 -0.150694 -0.104726 -0.956442 -0.272491
0.140016 42.2964 -1.16542 -0.120718 -0.955856 -0.267738
0.371969 42.5668 -2.20394 -0.123894 -0.953176 -0.275874
0.395569 42.9814 -3.64989 -0.119298 -0.952162 -0.281239
0.722156 43.2745 -4.82352 -0.142992 -0.950786 -0.274882
0.861823 43.5927 -5.99672 -0.142989 -0.950789 -0.274872
1.13354 43.9088 -7.25868 -0.152076 -0.950414 -0.271267
1.52326 44.2674 -8.71266 -0.152434 -0.94823 -0.278611
1.74527 44.5316 -9.79189 -0.169204 -0.949052 -0.26584
2.16339 44.9254 -11.415 -0.171859 -0.945009 -0.27825
2.53388 45.227 -12.744 -0.185102 -0.946298 -0.265059
2.83823 45.4463 -13.7165 -0.187317 -0.943449 -0.273527
3.11303 45.6777 -14.7669 -0.197775 -0.945198 -0.259781
3.28849 45.9357 -15.8222 -0.206667 -0.942354 -0.263047
3.62823 46.3224 -17.5245 -0.211081 -0.942877 -0.257733
3.91209 46.6988 -19.1492 -0.220603 -0.941388 -0.255192
4.12578 46.9069 -20.157 -0.230249 -0.941066 -0.247597
4.70815 47.1733 -21.6694 -0.238561 -0.939556 -0.245358
5.03868 47.3836 -22.8512 -0.243557 -0.940853 -0.235534
5.41764 47.6359 -24.2438 -0.257243 -0.937761 -0.233296
5.70059 47.8225 -25.3106 -0.258985 -0.937451 -0.232621
6.19497 47.9696 -26.4996 -0.261905 -0.94005 -0.218429
6.64001 48.2023 -28.0347 -0.26333 -0.939804 -0.217767
7.21214 48.3626 -29.5034 -0.283575 -0.93501 -0.212934
7.73968 48.5049 -30.831 -0.283863 -0.936752 -0.204559
7.95917 48.6524 -31.8631 -0.288912 -0.937977 -0.191646
8.50472 48.7803 -33.3117 -0.289777 -0.937256 -0.193844
8.91812 48.9003 -34.539 -0.295848 -0.936221 -0.189641
9.18474 49.0293 -35.5916 -0.295018 -0.936981 -0.187143
9.43568 49.1451 -36.6067 -0.304057 -0.937639 -0.168469
9.87167 49.2322 -37.8826 -0.304296 -0.93764 -0.168036
10.3106 49.3325 -39.2226 -0.281494 -0.944736 -0.168031
10.962 49.2862 -40.1505 -0.286724 -0.946039 -0.150994
11.5719 49.249 -41.0757 -0.286707 -0.946043 -0.151003
12.5898 49.1415 -42.4142 -0.293367 -0.945935 -0.138354
13.4031 49.0177 -43.2231 -0.278684 -0.949836 -0.141941
14.4481 48.8014 -43.8275 -0.279454 -0.950643 -0.134645
15.8188 48.4825 -44.3432 -0.264413 -0.955997 -0.127104
16.8076 48.2498 -44.6496 -0.264329 -0.956016 -0.127136
17.9039 47.9989 -44.9757 -0.25504 -0.958296 -0.128901
18.9854 47.7211 -45.0205 -0.248288 -0.959867 -0.130418
19.9994 47.4589 -45.0209 -0.245366 -0.960812 -0.128931
21.158 47.1317 -44.7556 -0.242411 -0.961767 -0.127444
22.4794 46.7871 -44.6379 -0.233927 -0.963711 -0.128505
23.5976 46.5149 -44.589 -0.229386 -0.96505 -0.12673
24.7041 46.2507 -44.5885 -0.232497 -0.96301 -0.136225
25.5682 46.127 -45.162 -0.223715 -0.965999 -0.129593
25.918 46.2045 -46.3572 -0.222783 -0.966442 -0.127899
25.6456 46.4526 -47.8316 -0.226297 -0.966427 -0.121671
25.3005 46.6791 -49.046 -0.226653 -0.967301 -0.113833
24.7349 46.9126 -49.9036 -0.226643 -0.967306 -0.113802
23.0811 47.3593 -50.412 -0.232753 -0.966751 -0.105915
21.6881 47.688 -50.3597 -0.237191 -0.965429 -0.107971
20.6005 47.921 -50.0035 -0.242307 -0.964037 -0.109177
19.123 48.2875 -49.9631 -0.249714 -0.962008 -0.110092
18.0801 48.5476 -49.8059 -0.251701 -0.962195 -0.104058
17.0245 48.8032 -49.6156 -0.251671 -0.962206 -0.104023
15.8946 49.1302 -49.7696 -0.273027 -0.95661 -0.101757
14.8332 49.4367 -49.8021 -0.273117 -0.956591 -0.101689
12.9357 50.0024 -49.8639 -0.286068 -0.952245 -0.106747
11.8784 50.3122 -49.7942 -0.287422 -0.951863 -0.106508
10.6959 50.6864 -49.7723 -0.303323 -0.947137 -0.104529
9.64715 51.0177 -49.7157 -0.322818 -0.941242 -0.0992602
8.22536 51.4941 -49.6081 -0.322916 -0.941214 -0.0992011
7.11593 51.8548 -49.3662 -0.345963 -0.933176 -0.0973995
5.14542 52.5893 -49.371 -0.34745 -0.932783 -0.0958923
4.01896 53.0228 -49.2844 -0.374943 -0.921911 -0.0974611
2.78702 53.5418 -49.4545 -0.374896 -0.921924 -0.0975198
0.749725 54.4839 -49.775 -0.416814 -0.904378 -0.0914692
-0.309501 55.0076 -49.93 -0.45387 -0.885567 -0.0988577
-2.01512 55.9585 -50.6971 -0.472384 -0.872887 -0.117106
-2.96983 56.5436 -50.871 -0.498512 -0.860468 -0.103406
-4.23919 57.2979 -51.1602 -0.495137 -0.864671 -0.0847525
-5.45178 58.2223 -52.2128 -0.547748 -0.830613 -0.100265
-6.20652 58.7771 -52.6855 -0.547788 -0.830657 -0.0996841
-7.2615 59.6097 -53.5311 -0.59666 -0.800118 -0.0617168
-8.17938 60.3456 -54.1981 -0.596606 -0.800161 -0.0616714
-9.2259 61.2334 -54.8244 -0.619054 -0.781486 -0.0777986
-10.1087 61.9946 -55.3306 -0.658162 -0.749955 -0.0651487
-11.2397 63.0371 -55.8768 -0.666228 -0.745285 -0.026263
-12.1074 63.8196 -56.0749 -0.666231 -0.745285 -0.0262247
-13.1789 64.8895 -56.8126 -0.700983 -0.712325 -0.0348697
-14.4437 66.1857 -57.1903 -0.727049 -0.686511 0.0101645
-15.1872 66.9761 -56.9943 -0.725524 -0.685961 -0.0337636
-15.6185 67.2504 -55.8 -0.689178 -0.714112 -0.122796
-15.7377 67.1082 -54.2044 -0.682729 -0.727129 -0.0707987
-15.5386 66.7857 -52.7927 -0.688808 -0.721109 -0.0744627
-15.3473 66.4753 -51.481 -0.686997 -0.723648 -0.0649132
-15.1496 66.1662 -50.2333 -0.696134 -0.714391 -0.07089
-14.9905 65.8899 -49.1447 -0.702679 -0.707759 -0.0722656
-14.7229 65.5157 -47.9916 -0.710396 -0.700137 -0.0712315
-14.8027 65.4513 -46.6888 -0.728204 -0.682055 -0.0620041
-14.9652 65.5129 -45.6284 -0.751033 -0.654659 -0.0858482
-15.204 65.5675 -44.3437 -0.765927 -0.625782 -0.146571
-15.6895 65.8395 -43.3014 -0.792283 -0.581041 -0.186223
-16.0305 65.9728 -42.2668 -0.772272 -0.587731 -0.23521
-16.8189 66.4505 -41.2498 -0.753275 -0.577923 -0.31361
-17.7139 66.9108 -40.0913 -0.710673 -0.576204 -0.403189
-18.5291 67.2954 -39.2342 -0.680643 -0.586637 -0.438842
-19.6749 67.927 -38.2692 -0.671979 -0.554411 -0.490987
-20.6055 68.4669 -37.627 -0.627425 -0.559771 -0.539004
-22.0911 69.0564 -36.6429 -0.584963 -0.551068 -0.594556
-23.0961 69.3519 -35.9918 -0.530948 -0.581502 -0.6164
-24.3454 69.5188 -35.094 -0.514492 -0.571221 -0.639535
-24.9825 68.837 -34.0005 -0.477729 -0.595044 -0.646119
-25.3878 68.2832 -33.1731 -0.471 -0.625991 -0.621526
-25.4892 67.4704 -32.1853 -0.456573 -0.708249 -0.536261
-25.7814 66.8931 -30.9601 -0.47072 -0.757964 -0.451566
-25.9768 66.2459 -29.8842 -0.591346 -0.616556 -0.51681
-26.5379 65.9852 -28.8359 -0.770273 -0.508734 -0.384537
-27.301 65.9823 -27.7119 -0.669786 -0.423617 -0.609059
-28.0913 66.1367 -26.931 -0.5978 -0.312447 -0.738249
-29.1856 66.4549 -26.5862 -0.0789057 -0.345888 -0.934952
-29.3955 65.4433 -26.1942 -0.0789936 -0.345936 -0.934927
-29.4402 63.7703 -25.4867 -0.18785 -0.372634 -0.908767
-29.2871 62.6084 -25.0033 -0.24794 -0.4769 -0.843263
-29.8498 61.8844 -24.4283 -0.247972 -0.476888 -0.84326
-30.1864 60.8145 -23.6471 -0.208012 -0.538632 -0.81646
-30.3642 59.9484 -22.9912 -0.227709 -0.563507 -0.794109
-30.4951 59.1005 -22.352 -0.210681 -0.595091 -0.774471
-30.2838 58.2434 -21.6946 -0.193532 -0.626579 -0.754946
-29.9284 57.4625 -21.1184 -0.206732 -0.640504 -0.739606
-29.9641 56.6314 -20.3049 -0.17797 -0.704423 -0.687106
-29.6968 55.8222 -19.5446 -0.177976 -0.704418 -0.68711
-29.3741 55.2466 -19.0377 -0.153596 -0.761157 -0.630118
-0.355589 32.6223 35.5471 0.187315 -0.948768 -0.254441
-1.07819 32.1671 36.627 0.21371 -0.932459 -0.290763
-1.92359 31.6203 37.6805 0.228766 -0.926886 -0.297571
-2.82314 31.1113 38.5965 0.25168 -0.922714 -0.290806
-3.76018 30.5489 39.4492 0.2735 -0.913281 -0.301854
-4.73763 29.979 40.2966 0.28516 -0.905316 -0.31404
-5.70603 29.4025 40.9833 0.303412 -0.895309 -0.326133
-6.36836 28.934 41.6532 0.303412 -0.895309 -0.326133
-7.07439 28.3772 42.3857 0.350791 -0.869975 -0.346538
-8.00374 27.6022 43.4082 0.364193 -0.864065 -0.347044
-8.61867 27.0574 44.0666 0.37701 -0.855243 -0.355559
-9.27064 26.468 44.8018 0.377365 -0.846469 -0.374955
-9.93698 25.8878 45.3816 0.394573 -0.837228 -0.378631
-10.8905 25.1384 46.0282 0.398522 -0.829647 -0.39094
-11.7541 24.4683 46.5808 0.393511 -0.831129 -0.392904
-12.5713 23.7926 47.1346 0.408338 -0.815968 -0.409215
-13.2775 23.1364 47.7574 0.395195 -0.823852 -0.406292
-13.9072 22.5043 48.4357 0.400807 -0.82264 -0.403204
-14.4591 21.8894 49.1283 0.4062 -0.82031 -0.402605
-15.3003 20.9499 50.1991 0.40574 -0.821031 -0.401601
-15.915 20.2805 50.9466 0.400902 -0.823075 -0.402241
-16.6749 19.5997 51.5418 0.413164 -0.811549 -0.413018
-17.8382 18.6192 52.3201 0.397765 -0.826208 -0.398313
-18.6021 17.8982 53.1208 0.379264 -0.837862 -0.392615
-19.2417 17.1776 54.0537 0.380926 -0.840078 -0.386213
-19.7415 16.4121 55.2204 0.382333 -0.839161 -0.386821
-20.3631 15.5995 56.3806 0.376157 -0.845767 -0.378328
-21.0683 14.8937 57.2785 0.365676 -0.854574 -0.3686
-22.0397 13.9934 58.4595 0.33852 -0.863713 -0.373356
-22.8588 13.3039 59.3418 0.349232 -0.868873 -0.350851
-23.5923 12.6879 60.1373 0.347818 -0.871961 -0.344461
-24.2576 12.0951 61.0169 0.333099 -0.881699 -0.334143
-24.5424 11.5905 62.0643 0.33326 -0.88424 -0.327113
-23.8902 11.408 63.2493 0.33342 -0.88678 -0.320083
-22.9833 11.4714 64.0981 0.35312 -0.883449 -0.307935
-22.0006 11.5999 64.9308 0.375884 -0.88469 -0.275048
-20.9067 11.7854 65.9283 0.393374 -0.879476 -0.267915
-19.7219 12.14 66.494 0.40639 -0.874575 -0.263991
-18.703 12.5875 66.6473 0.42084 -0.869828 -0.257475
-17.59 13.1314 66.6001 0.415642 -0.873056 -0.254981
-16.5295 13.6359 66.6319 0.434187 -0.867391 -0.243079
-15.5551 14.0637 66.8662 0.438491 -0.864882 -0.244346
-14.4593 14.5062 67.2585 0.444828 -0.859471 -0.251572
-12.9811 15.1153 67.8517 0.454306 -0.853251 -0.256065
-11.7789 15.566 68.5395 0.463935 -0.849751 -0.250376
-10.8086 15.9151 69.1331 0.457538 -0.856138 -0.240034
-9.88468 16.1801 69.9795 0.463642 -0.852752 -0.24052
-8.83219 16.4044 71.2128 0.466827 -0.851067 -0.240302
-7.59206 17.0139 71.4626 0.458012 -0.851089 -0.256657
-6.40087 17.831 70.8786 0.456043 -0.852151 -0.256629
-5.17525 18.6757 70.3055 0.463111 -0.84484 -0.267904
-3.87143 19.5009 69.957 0.458935 -0.846929 -0.268454
-2.7417 20.1495 69.8293 0.456399 -0.847675 -0.270457
-1.71481 20.7581 69.6672 0.451136 -0.846158 -0.283668
-0.695584 21.3116 69.5671 0.431355 -0.853849 -0.291331
0.323943 21.8755 69.4237 0.427531 -0.856581 -0.288893
1.29175 22.4636 69.0912 0.408681 -0.864499 -0.292124
2.41854 23.16 68.5467 0.391359 -0.871211 -0.296345
3.41669 23.733 68.168 0.389063 -0.872735 -0.294897
4.4313 24.3171 67.7932 0.370975 -0.874644 -0.311066
5.46488 24.7941 67.5339 0.346275 -0.895449 -0.279758
6.44961 25.2686 67.2339 0.327608 -0.90397 -0.273965
6.14717 25.4754 66.2836 0.327293 -0.89415 -0.305574
5.36362 25.7006 64.7763 0.328839 -0.89446 -0.302995
4.6165 25.9392 63.1169 0.317715 -0.909668 -0.267509
4.27405 26.1794 61.8936 0.322051 -0.903463 -0.282416
4.03756 26.5343 60.5864 0.320525 -0.896793 -0.305002
3.98629 26.9437 59.3288 0.31306 -0.905782 -0.284606
4.32629 27.5068 57.7281 0.316733 -0.91471 -0.250971
4.62632 28.0782 56.1683 0.319916 -0.906638 -0.275067
5.04479 28.5567 54.9956 0.266275 -0.929817 -0.253734
5.71912 29.0223 53.9383 0.259701 -0.93344 -0.247477
6.45903 29.5627 52.6766 0.249247 -0.938856 -0.237016
7.06813 29.978 51.5878 0.238793 -0.944273 -0.226555
7.88488 30.5159 50.3167 0.207305 -0.949385 -0.233101
8.56262 30.8655 49.3159 0.176679 -0.960317 -0.215815
9.13533 31.2054 48.3408 0.161825 -0.960457 -0.225719
9.3595 31.5474 46.9537 0.146642 -0.965673 -0.214409
8.59477 31.7419 45.8612 0.120899 -0.962564 -0.241636
7.77743 31.8058 45.0842 0.1352 -0.967973 -0.211539
6.94731 31.8263 44.4094 0.195118 -0.954624 -0.224911
6.01583 31.7913 43.7394 0.193646 -0.95626 -0.219242
4.71254 31.7682 42.8341 0.196549 -0.94778 -0.249858
3.71215 31.7626 41.9986 0.226507 -0.940957 -0.251435
3.00969 31.8348 41.056 0.232936 -0.94094 -0.245709
2.09432 31.9832 39.584 0.206121 -0.947872 -0.242659
1.51839 32.1975 38.2997 0.193529 -0.949935 -0.245296
1.08326 32.4349 37.1827 0.176064 -0.9398 -0.292879
0.578389 32.6631 36.0729 0.176436 -0.948927 -0.261327
-0.201914 32.6347 35.6128 0.186496 -0.948071 -0.257643
5.42924 25.1996 66.3219 0.328505 -0.893106 -0.307321
4.76871 24.717 67.01 0.340668 -0.889294 -0.305125
4.90093 25.2618 65.5695 0.340439 -0.889466 -0.30488
3.91284 24.5162 66.6018 0.351569 -0.886407 -0.301135
3.02528 23.7683 67.5587 0.390381 -0.862883 -0.320992
2.93607 23.692 67.6553 0.389759 -0.867894 -0.307974
1.01065 22.5424 68.4388 0.423706 -0.859312 -0.286455
1.78352 23.2023 67.5837 0.39136 -0.871215 -0.296346
2.55575 23.8578 66.7469 0.390381 -0.862883 -0.320992
3.3369 24.5258 65.9012 0.371089 -0.874913 -0.311159
4.2165 25.1931 64.9822 0.351981 -0.884327 -0.306717
4.62962 25.5072 64.5505 0.340438 -0.889466 -0.304881
3.91191 25.4075 63.995 0.357509 -0.888413 -0.28794
3.01703 24.7267 64.9298 0.387718 -0.870467 -0.303252
1.84486 23.7162 66.1987 0.41272 -0.860186 -0.29957
0.582349 22.6167 67.5824 0.421398 -0.857566 -0.294964
-0.2623 21.8883 68.5182 0.427536 -0.856593 -0.288897
-0.645962 21.5469 68.9508 0.431356 -0.853849 -0.291331
-1.99093 20.7907 69.1308 0.451142 -0.846168 -0.283672
-0.791299 21.8734 67.7743 0.449214 -0.842662 -0.296861
0.317225 22.8577 66.5368 0.419054 -0.855753 -0.303448
1.0966 23.5324 65.691 0.4165 -0.858325 -0.299676
2.08445 24.3841 64.6222 0.415616 -0.856298 -0.306623
2.93185 25.1049 63.7118 0.357511 -0.888413 -0.287938
3.77804 25.7155 62.8272 0.355523 -0.892909 -0.276255
3.68238 26.0526 61.621 0.361982 -0.879399 -0.309237
2.58649 25.2381 62.7707 0.383895 -0.886656 -0.25781
1.66843 24.4857 63.7541 0.423288 -0.856893 -0.294213
0.647975 23.6053 64.8587 0.419339 -0.858505 -0.295168
-0.260109 22.8222 65.8395 0.417779 -0.857042 -0.301563
-1.23431 21.9461 66.932 0.433553 -0.849726 -0.299997
-2.06502 21.168 67.8772 0.447324 -0.848796 -0.281865
-3.12251 20.1967 69.0828 0.454952 -0.84352 -0.28547
-4.341 19.5096 69.1239 0.467064 -0.84086 -0.273506
-3.58101 20.2231 68.2614 0.471579 -0.837177 -0.277032
-2.86131 20.8935 67.4402 0.451143 -0.846168 -0.283671
-1.98167 21.7304 66.4362 0.458057 -0.836499 -0.300753
-1.04293 22.5827 65.3751 0.445975 -0.847896 -0.286668
-0.303395 23.237 64.5648 0.422166 -0.85866 -0.290652
0.723463 24.1211 63.4544 0.424319 -0.85646 -0.29399
1.66379 24.9353 62.438 0.403782 -0.872185 -0.276141
2.67739 25.7171 61.3769 0.368617 -0.874172 -0.31614
3.51631 26.367 60.5059 0.355303 -0.884521 -0.302296
3.49631 26.7916 59.2399 0.362619 -0.886877 -0.28628
2.42 25.9792 60.352 0.361982 -0.879399 -0.309235
1.55502 25.2877 61.2555 0.391128 -0.867496 -0.307359
0.57759 24.4484 62.2903 0.42246 -0.855667 -0.298933
-0.351452 23.6439 63.293 0.423242 -0.857563 -0.292323
-1.59337 22.5392 64.6566 0.447279 -0.845561 -0.291494
-2.67134 21.5415 65.8745 0.465055 -0.836547 -0.289677
-3.69274 20.565 67.0379 0.471239 -0.835624 -0.282253
-4.81221 19.514 68.3084 0.471579 -0.837178 -0.277032
-5.68129 18.7144 69.3151 0.462529 -0.844503 -0.269968
-6.48498 17.9761 70.2475 0.462821 -0.844672 -0.268936
-6.48721 17.9741 70.2501 0.456044 -0.852153 -0.256629
-7.6875 17.2991 70.2885 0.470011 -0.849382 -0.240084
-6.94728 17.9705 69.415 0.479895 -0.837666 -0.260802
-6.21633 18.6589 68.5721 0.462529 -0.844503 -0.269968
-5.41108 19.3986 67.6378 0.467064 -0.84086 -0.273506
-4.63595 20.1284 66.7598 0.470885 -0.834045 -0.287465
-3.79439 20.9295 65.8138 0.470697 -0.834189 -0.287356
-2.81049 21.8733 64.6842 0.470439 -0.832866 -0.291585
-1.94151 22.6789 63.7143 0.450876 -0.844726 -0.288356
-1.0651 23.4785 62.7422 0.450719 -0.841525 -0.297807
-0.250724 24.1898 61.8712 0.420589 -0.854851 -0.303868
0.546773 24.8852 61.0187 0.420589 -0.85485 -0.303868
1.65897 25.8238 59.854 0.413735 -0.860745 -0.296549
2.77942 26.6616 58.6866 0.367846 -0.891113 -0.265718
3.34714 27.0674 58.0942 0.341426 -0.904315 -0.256209
4.10488 27.9301 56.0498 0.319916 -0.906638 -0.275067
3.27178 27.3839 56.8814 0.320798 -0.906514 -0.274448
2.24193 26.6627 57.9449 0.357667 -0.895011 -0.266515
1.44258 26.0876 58.776 0.360977 -0.891297 -0.27438
0.355428 25.1723 59.9263 0.413733 -0.860746 -0.296548
-0.48667 24.4478 60.8189 0.427889 -0.852399 -0.300543
-1.56106 23.4983 61.9611 0.442863 -0.844114 -0.302231
-2.9452 22.2161 63.5006 0.450876 -0.844725 -0.288357
-3.65765 21.5275 64.3092 0.470359 -0.831382 -0.295916
-4.84414 20.3914 65.6554 0.470885 -0.834045 -0.287464
-5.89161 19.3942 66.8329 0.471238 -0.835624 -0.282252
-6.6806 18.6523 67.7421 0.483868 -0.834684 -0.263009
-7.40789 17.9665 68.5806 0.479895 -0.837666 -0.260802
-8.88765 16.6242 70.3267 0.46683 -0.851072 -0.240304
-9.53789 16.4446 69.7101 0.463644 -0.852751 -0.240521
-8.40655 17.461 68.3859 0.475906 -0.840623 -0.258585
-7.61437 18.202 67.4531 0.481622 -0.834344 -0.26816
-6.6881 19.0812 66.395 0.481876 -0.830482 -0.279456
-5.85595 19.8848 65.4554 0.475826 -0.832539 -0.283668
-4.85878 20.8368 64.3339 0.476531 -0.829638 -0.290894
-4.05914 21.6141 63.4275 0.470359 -0.831382 -0.295916
-3.17757 22.4571 62.4314 0.45072 -0.841524 -0.297807
-2.1755 23.4058 61.3123 0.450517 -0.83824 -0.307228
-1.29203 24.1933 60.3674 0.435158 -0.849889 -0.297198
-0.481878 24.912 59.5075 0.425076 -0.854632 -0.298185
0.280823 25.5562 58.6987 0.415682 -0.860806 -0.293633
1.13401 26.2639 57.7973 0.359325 -0.893164 -0.270451
2.21995 27.0559 56.6728 0.348715 -0.88993 -0.293976
3.42554 27.869 55.4561 0.321683 -0.906388 -0.273827
4.31023 28.4517 54.5689 0.307259 -0.915846 -0.258493
5.33738 29.0179 53.5545 0.259701 -0.93344 -0.247477
6.61402 30.0007 51.0401 0.237931 -0.938454 -0.250385
5.70936 29.5539 51.9229 0.249279 -0.938973 -0.237045
4.82702 29.0777 52.7935 0.276475 -0.929475 -0.244207
3.62327 28.3861 53.9848 0.307259 -0.915846 -0.258493
2.50321 27.6465 55.1092 0.321428 -0.906154 -0.274898
1.3117 26.8155 56.3232 0.362636 -0.886148 -0.288509
0.0591613 25.8138 57.6298 0.415147 -0.85849 -0.301077
-0.787243 25.0989 58.5273 0.415682 -0.860807 -0.293633
-1.77203 24.2287 59.5711 0.434406 -0.848333 -0.302693
-2.57677 23.5152 60.4254 0.442863 -0.844114 -0.302231
-3.82054 22.3311 61.8161 0.465894 -0.830291 -0.305875
-4.95605 21.2207 63.1075 0.470309 -0.831397 -0.295953
-5.80554 20.3885 64.0615 0.476531 -0.829638 -0.290894
-6.60585 19.6244 64.9615 0.480101 -0.82975 -0.284636
-7.38598 18.8619 65.8462 0.484365 -0.826938 -0.285595
-8.24771 18.0422 66.83 0.485266 -0.829947 -0.275146
-9.18516 17.1469 67.9344 0.479443 -0.841323 -0.249622
-10.1317 16.3125 69.0303 0.464779 -0.853127 -0.236972
-10.8192 16.1001 68.4595 0.450298 -0.859149 -0.243096
-9.88201 16.9197 67.3787 0.47397 -0.844575 -0.249088
-9.01795 17.7379 66.3714 0.491144 -0.825871 -0.276974
-8.21631 18.5133 65.4476 0.481876 -0.830482 -0.279457
-6.9253 19.7751 63.9836 0.480101 -0.82975 -0.284636
-6.18288 20.499 63.1509 0.477207 -0.826686 -0.298101
-5.45393 21.2144 62.334 0.473762 -0.829049 -0.29703
-4.61376 22.0417 61.3777 0.471899 -0.825844 -0.308694
-3.84285 22.794 60.5073 0.460161 -0.834696 -0.302545
-3.04121 23.5634 59.6141 0.448008 -0.839547 -0.307326
-2.25401 24.2648 58.7781 0.434491 -0.848311 -0.302631
-1.37531 25.0471 57.8469 0.425076 -0.854632 -0.298185
-0.272403 25.9947 56.6822 0.414587 -0.856122 -0.308502
0.71302 26.7741 55.6558 0.37647 -0.882154 -0.282974
1.68312 27.493 54.6587 0.330721 -0.90315 -0.273758
2.54896 28.0647 53.7895 0.321173 -0.905919 -0.27597
4.00762 28.936 52.3404 0.293163 -0.925225 -0.240861
5.00592 29.5095 51.3524 0.276475 -0.929475 -0.244207
6.13606 30.0903 50.2499 0.237931 -0.938454 -0.250385
7.21083 30.6423 49.2023 0.207446 -0.95003 -0.233258
8.32164 31.1083 48.1243 0.177008 -0.955241 -0.23703
8.68847 31.2646 47.7683 0.161856 -0.960642 -0.225763
8.31311 31.4256 46.8821 0.14762 -0.954103 -0.260567
7.27337 30.9814 47.8893 0.16147 -0.954769 -0.249687
5.82049 30.2834 49.305 0.21433 -0.938578 -0.270434
4.78101 29.7538 50.319 0.238092 -0.931477 -0.275067
3.45489 28.9639 51.625 0.267563 -0.918052 -0.292559
2.24936 28.2549 52.8165 0.307259 -0.915846 -0.258492
0.713386 27.2137 54.3695 0.340236 -0.900287 -0.271519
-0.400611 26.3488 55.5218 0.383735 -0.871149 -0.306345
-1.30984 25.5712 56.4798 0.403703 -0.858209 -0.317021
-2.1745 24.7993 57.3938 0.434892 -0.844101 -0.313628
-3.24263 23.8475 58.5281 0.434576 -0.848289 -0.30257
-4.14272 22.9911 59.5088 0.461315 -0.83057 -0.311996
-4.87139 22.2877 60.3264 0.471764 -0.825842 -0.308907
-5.63317 21.5272 61.196 0.47255 -0.825504 -0.308608
-6.58326 20.5895 62.263 0.475157 -0.827247 -0.299813
-7.32619 19.8616 63.0942 0.474578 -0.827674 -0.299552
-8.3172 18.8844 64.2207 0.474357 -0.82721 -0.30118
-9.03219 18.18 65.0333 0.468587 -0.833512 -0.292718
-9.91245 17.3346 66.0457 0.473527 -0.833609 -0.284373
-11.0271 16.3097 67.3336 0.453397 -0.853947 -0.255354
-11.6535 15.7804 68.0443 0.457136 -0.854484 -0.246746
-12.1071 15.7823 67.1971 0.457136 -0.854484 -0.246746
-11.3167 16.4816 66.2945 0.450854 -0.848068 -0.278407
-10.3865 17.3555 65.2299 0.463599 -0.833341 -0.301031
-9.34165 18.3652 64.0387 0.467701 -0.831163 -0.300706
-8.55448 19.1397 63.1459 0.473257 -0.827671 -0.301644
-7.75808 19.9236 62.2384 0.474577 -0.827674 -0.299553
-7.02532 20.6424 61.4191 0.474748 -0.823974 -0.309323
-5.80729 21.8562 60.0481 0.473338 -0.825165 -0.308307
-4.53232 23.1076 58.6226 0.461315 -0.83057 -0.311996
-3.20778 24.3422 57.1912 0.434893 -0.844101 -0.313628
-2.19062 25.2857 56.114 0.435146 -0.839795 -0.324642
-1.40782 25.9655 55.2877 0.401737 -0.861481 -0.310576
-0.402935 26.7997 54.2367 0.383734 -0.871149 -0.306346
0.698482 27.5871 53.1127 0.333573 -0.898642 -0.284906
1.87732 28.4087 51.9244 0.296317 -0.908895 -0.29344
3.31911 29.2822 50.5019 0.267563 -0.918052 -0.292559
4.33916 29.8766 49.4997 0.261703 -0.923784 -0.279527
5.45266 30.4566 48.4123 0.21325 -0.940062 -0.266097
6.39194 30.9232 47.4951 0.212166 -0.941525 -0.261755
7.2801 31.3129 46.6327 0.166566 -0.951104 -0.260108
7.71064 31.5016 46.2183 0.166565 -0.951105 -0.260106
6.97745 31.514 45.677 0.171609 -0.954598 -0.243501
5.40905 30.7831 47.2024 0.212166 -0.941525 -0.261755
4.46976 30.3165 48.1196 0.21325 -0.940062 -0.266097
3.49747 29.7672 49.0731 0.261703 -0.923784 -0.279527
2.56689 29.2271 49.987 0.264641 -0.920945 -0.286051
1.60827 28.6352 50.9348 0.324801 -0.898909 -0.294053
0.700033 28.0095 51.8442 0.32582 -0.897854 -0.296142
-0.464417 27.1936 53.0216 0.354187 -0.886403 -0.298063
-1.46224 26.375 54.0572 0.391887 -0.863632 -0.317119
-2.26408 25.7076 54.8957 0.401737 -0.861481 -0.310577
-3.2239 24.8286 55.9115 0.435146 -0.839795 -0.324642
-3.97728 24.1298 56.7093 0.433064 -0.840163 -0.326467
-4.91429 23.2366 57.7243 0.454129 -0.832693 -0.316842
-5.98154 22.1906 58.9021 0.471044 -0.822317 -0.319238
-6.73047 21.4362 59.7549 0.471666 -0.824636 -0.31226
-7.48828 20.6822 60.6025 0.474748 -0.823974 -0.309322
-8.23483 19.9415 61.4338 0.472816 -0.82861 -0.29975
-9.24082 18.9546 62.5791 0.471633 -0.829119 -0.300207
-10.0308 18.1853 63.4734 0.463228 -0.834172 -0.299294
-11.1056 17.149 64.6943 0.463599 -0.833341 -0.30103
-11.9418 16.3736 65.6488 0.445228 -0.847426 -0.289206
-12.95 15.4516 66.7861 0.452658 -0.850367 -0.268283
-13.3078 15.1386 67.1943 0.454306 -0.853251 -0.256065
-14.1691 14.7993 66.7966 0.45266 -0.850366 -0.268284
-13.3637 15.5298 65.8847 0.450938 -0.847348 -0.280458
-12.517 16.3085 64.9383 0.455851 -0.842686 -0.286496
-11.6033 17.1578 63.9034 0.463414 -0.833757 -0.300161
-10.6251 18.0965 62.801 0.467133 -0.834194 -0.293098
-9.57633 19.1194 61.6085 0.46771 -0.829014 -0.306568
-8.42432 20.2608 60.3107 0.46983 -0.824576 -0.315172
-7.60762 21.0715 59.4031 0.469181 -0.824736 -0.315719
-6.77343 21.9082 58.4611 0.471044 -0.822318 -0.319236
-5.99226 22.7031 57.5815 0.46314 -0.826665 -0.319573
-5.18001 23.4925 56.6969 0.449143 -0.829457 -0.332073
-4.43361 24.213 55.8973 0.439352 -0.835954 -0.328864
-3.56568 25.0171 54.9779 0.430978 -0.840526 -0.328289
-2.46005 26.0114 53.8142 0.403338 -0.859342 -0.314403
-1.52716 26.7928 52.839 0.386592 -0.869511 -0.307406
-0.585389 27.5301 51.8771 0.354188 -0.886402 -0.298065
0.515509 28.2943 50.7699 0.324801 -0.898909 -0.294053
1.60577 29.0453 49.6782 0.296317 -0.908895 -0.293439
2.64631 29.6573 48.6541 0.251439 -0.921501 -0.295998
3.56143 30.1966 47.7526 0.243861 -0.929381 -0.277098
4.4225 30.6349 46.9105 0.218617 -0.942029 -0.254535
5.36135 31.1005 45.9934 0.216641 -0.944614 -0.246516
6.47218 31.6065 44.913 0.196586 -0.952988 -0.23058
5.46343 31.465 44.6379 0.205628 -0.950109 -0.234541
4.3739 30.9502 45.7016 0.216641 -0.944615 -0.246516
3.48015 30.5004 46.5752 0.236168 -0.936818 -0.258064
2.15707 29.7744 47.8739 0.25144 -0.9215 -0.295998
1.08169 29.1185 48.9357 0.296334 -0.906595 -0.300454
-0.13599 28.2739 50.1582 0.306388 -0.896912 -0.318866
-0.969863 27.6743 50.9991 0.350304 -0.870684 -0.345249
-1.99087 26.861 52.0446 0.365699 -0.874763 -0.31789
-2.894 26.1045 52.9813 0.414726 -0.854918 -0.311636
-4.04226 25.0797 54.1879 0.431202 -0.841387 -0.32578
-5.11385 24.0735 55.3247 0.447685 -0.831305 -0.329408
-6.14775 23.0729 56.436 0.449143 -0.829457 -0.332073
-7.18767 22.019 57.5919 0.46567 -0.821559 -0.328925
-7.90244 21.2926 58.3925 0.466119 -0.821242 -0.329081
-8.6461 20.5494 59.2249 0.469829 -0.824577 -0.31517
-9.44844 19.7508 60.1142 0.470785 -0.824015 -0.315217
-10.2608 18.9465 61.0318 0.47379 -0.825477 -0.306774
-11.0502 18.1543 61.9352 0.471014 -0.834172 -0.286886
-11.9872 17.2617 62.9923 0.4597 -0.839267 -0.290356
-13.047 16.2829 64.1704 0.454871 -0.842569 -0.288393
-13.9602 15.4422 65.1903 0.453399 -0.845025 -0.283481
-14.9783 14.5205 66.3458 0.444852 -0.850273 -0.281324
-15.9505 14.0998 66.0847 0.443659 -0.851151 -0.280552
-15.0981 14.8666 65.114 0.446623 -0.849481 -0.280909
-14.0373 15.8344 63.9235 0.45389 -0.842447 -0.290289
-12.7988 16.9843 62.5506 0.451963 -0.841489 -0.296017
-11.7985 17.9041 61.434 0.4597 -0.839267 -0.290356
-10.5758 19.1385 60.0331 0.469425 -0.819889 -0.327754
-9.85989 19.8572 59.2374 0.457048 -0.825337 -0.33155
-9.14104 20.5756 58.44 0.457465 -0.823965 -0.334376
-8.38004 21.3442 57.5926 0.456124 -0.823771 -0.336677
-7.66946 22.0638 56.7979 0.465896 -0.8214 -0.329003
-6.4223 23.3293 55.4222 0.455283 -0.822449 -0.341022
-5.52614 24.2001 54.466 0.440666 -0.830636 -0.340378
-4.63428 25.0354 53.5203 0.429289 -0.842016 -0.326679
-3.85511 25.7412 52.6989 0.409126 -0.852025 -0.326604
-2.91769 26.5808 51.7193 0.399735 -0.852234 -0.337504
-2.02671 27.3276 50.8011 0.350307 -0.870683 -0.345248
-1.05554 28.0788 49.8122 0.321397 -0.891478 -0.31933
-0.0723635 28.7657 48.8233 0.305479 -0.900823 -0.308546
0.797287 29.3432 47.9552 0.287134 -0.912201 -0.292306
1.62614 29.867 47.1348 0.269334 -0.917008 -0.294203
2.5759 30.3748 46.2037 0.236167 -0.936818 -0.258064
3.46356 30.8363 45.3344 0.227341 -0.943339 -0.241716
5.00626 31.5652 43.8283 0.217399 -0.944102 -0.247808
5.05723 31.5906 43.7789 0.196613 -0.948089 -0.24994
4.04656 31.4283 43.5079 0.217399 -0.944102 -0.247808
3.16115 31.01 44.3723 0.227341 -0.943339 -0.241716
1.65611 30.2345 45.8436 0.241733 -0.93729 -0.251102
0.684499 29.6649 46.8019 0.298206 -0.914574 -0.273181
-0.2053 29.1029 47.6862 0.332557 -0.899752 -0.28258
-1.13508 28.461 48.6186 0.341645 -0.894075 -0.289672
-2.16608 27.7262 49.6644 0.365454 -0.885333 -0.287453
-3.16329 26.8699 50.693 0.391596 -0.850866 -0.350256
-4.09344 26.0427 51.6612 0.415011 -0.845139 -0.336907
-5.25032 24.9706 52.8779 0.427277 -0.839683 -0.335212
-6.35363 23.9322 54.0485 0.447639 -0.827219 -0.339599
-7.23857 23.0516 55.0023 0.455283 -0.822449 -0.341022
-7.96024 22.3183 55.7979 0.456466 -0.820846 -0.343294
-8.68157 21.5858 56.593 0.456125 -0.823771 -0.336678
-9.43307 20.8266 57.4312 0.457877 -0.822585 -0.337199
-10.3513 19.9033 58.4452 0.457048 -0.825338 -0.33155
-11.4738 18.7564 59.7026 0.469425 -0.819889 -0.327754
-12.7266 17.5197 61.1223 0.448081 -0.840559 -0.304441
-13.5845 16.726 62.077 0.455604 -0.838733 -0.298248
-14.659 15.7256 63.2673 0.452245 -0.843363 -0.290196
-15.433 15.0176 64.1257 0.4506 -0.844276 -0.290101
-16.1717 14.3513 64.966 0.445231 -0.851015 -0.278464
-17.1332 13.5101 66.048 0.418085 -0.867894 -0.268263
-18.0861 13.1487 65.7323 0.418085 -0.867894 -0.268265
-17.1834 13.915 64.7324 0.420439 -0.862551 -0.281491
-16.3403 14.6501 63.7858 0.448907 -0.846937 -0.284921
-15.0372 15.853 62.339 0.439316 -0.8428 -0.310949
-13.7954 17.0061 60.9676 0.439364 -0.842332 -0.312149
-13.0646 17.7048 60.1504 0.447797 -0.836787 -0.315063
-11.8243 18.9425 58.7546 0.470449 -0.816672 -0.334253
-10.9759 19.8163 57.8008 0.457464 -0.823966 -0.334376
-10.223 20.5755 56.9711 0.457877 -0.822585 -0.337199
-9.46679 21.3386 56.1341 0.45654 -0.822168 -0.340017
-8.74219 22.0752 55.3381 0.45695 -0.820553 -0.343351
-7.37165 23.4537 53.846 0.454585 -0.823752 -0.3388
-6.53096 24.2928 52.9396 0.44161 -0.824761 -0.3532
-5.69389 25.0831 52.0551 0.425229 -0.83728 -0.343719
-4.752 25.9574 51.0641 0.414201 -0.844483 -0.339538
-3.82833 26.7972 50.1009 0.408433 -0.847302 -0.339502
-2.96616 27.5345 49.2009 0.391431 -0.873114 -0.290609
-2.09868 28.1824 48.3124 0.350246 -0.889698 -0.292858
-1.24183 28.7927 47.4542 0.332557 -0.899752 -0.28258
-0.312862 29.4231 46.5229 0.315207 -0.908006 -0.275987
0.747333 30.0635 45.4754 0.2931 -0.920454 -0.258566
2.05749 30.7753 44.1914 0.239941 -0.939373 -0.244961
3.08686 31.2914 43.1875 0.217399 -0.944102 -0.247808
3.62713 31.5607 42.6646 0.220076 -0.940975 -0.257162
2.96894 31.5645 42.0524 0.232937 -0.94094 -0.245708
2.0712 31.1122 42.9221 0.237109 -0.939485 -0.247279
0.99396 30.5631 43.9724 0.261019 -0.931901 -0.251854
-0.166749 29.8782 45.1151 0.287411 -0.920367 -0.265177
-1.27684 29.1676 46.2187 0.323898 -0.901645 -0.286578
-2.33301 28.438 47.2821 0.339433 -0.892469 -0.297128
-3.74169 27.3472 48.7191 0.389542 -0.869028 -0.305038
-4.55871 26.6561 49.5745 0.410911 -0.845567 -0.340835
-5.87182 25.4503 50.9526 0.418775 -0.840235 -0.344431
-6.6495 24.7203 51.7738 0.41952 -0.838402 -0.347973
-7.40988 23.9742 52.5845 0.44161 -0.824761 -0.3532
-8.16113 23.2217 53.3948 0.442015 -0.823703 -0.355156
-8.9152 22.46 54.2078 0.449443 -0.82027 -0.353777
-9.64131 21.7214 55.0056 0.449047 -0.821359 -0.351747
-10.3944 20.9552 55.83 0.450319 -0.82206 -0.348468
-11.148 20.196 56.6606 0.449859 -0.823824 -0.344878
-11.9244 19.3963 57.5204 0.465173 -0.815468 -0.344421
-12.8876 18.3973 58.6066 0.456449 -0.823518 -0.336858
-14.0817 17.2401 59.9402 0.447421 -0.836864 -0.315393
-15.0232 16.3628 60.9768 0.439274 -0.842837 -0.310908
-15.8492 15.5953 61.8903 0.439358 -0.842763 -0.310991
-16.7917 14.7174 62.9377 0.429362 -0.847568 -0.311893
-18.0274 13.6475 64.2972 0.412197 -0.862426 -0.293796
-19.039 12.7872 65.4166 0.418085 -0.867894 -0.268265
-19.2101 12.6507 65.6051 0.418243 -0.871446 -0.256231
-19.922 12.5016 65.0229 0.392531 -0.880535 -0.265665
-19.1576 13.1454 64.1854 0.426304 -0.85717 -0.289005
-17.9987 14.1351 62.9061 0.415815 -0.85738 -0.303311
-17.1917 14.8555 62.0252 0.419312 -0.852268 -0.312757
-16.2545 15.7163 60.9898 0.439316 -0.8428 -0.310949
-15.0799 16.8086 59.6969 0.439451 -0.841826 -0.313388
-13.8852 17.9517 58.3749 0.447987 -0.829336 -0.333931
-12.8858 18.9594 57.2563 0.465171 -0.815469 -0.344421
-12.0886 19.7962 56.3697 0.465473 -0.81331 -0.349088
-11.3236 20.5757 55.5244 0.450319 -0.82206 -0.348468
-10.5382 21.3748 54.6682 0.450772 -0.820283 -0.352051
-9.7984 22.1274 53.8569 0.449443 -0.82027 -0.353777
-9.04195 22.8969 53.0416 0.449836 -0.819176 -0.355806
-8.28879 23.6557 52.2294 0.441608 -0.824762 -0.3532
-7.53129 24.4045 51.4204 0.4412 -0.825816 -0.351241
-6.76625 25.1463 50.6068 0.418775 -0.840235 -0.344429
-5.88498 25.959 49.6799 0.418024 -0.842055 -0.340882
-5.09185 26.6904 48.8457 0.415706 -0.842941 -0.341525
-4.25133 27.3948 47.9719 0.387566 -0.864742 -0.319398
-3.45991 28.0531 47.15 0.36737 -0.87898 -0.304029
-2.31489 28.8676 45.9893 0.331688 -0.897875 -0.289488
-1.13872 29.6443 44.816 0.322027 -0.906964 -0.271507
-0.0475749 30.3069 43.7385 0.284676 -0.923876 -0.255759
1.02578 30.9105 42.6859 0.237111 -0.939485 -0.247278
2.01696 31.4129 41.725 0.237024 -0.93964 -0.246771
2.25197 31.532 41.4972 0.234981 -0.940292 -0.246241
1.98732 31.725 40.5038 0.228951 -0.948541 -0.218747
1.07431 31.2628 41.3902 0.237648 -0.939588 -0.24637
0.192072 30.8152 42.2464 0.250896 -0.931109 -0.26474
-1.06338 30.0773 43.4798 0.2804 -0.91692 -0.283959
-1.91202 29.5291 44.3248 0.298082 -0.908193 -0.293825
-3.098 28.7189 45.5151 0.34766 -0.889108 -0.297691
-3.90549 28.1395 46.3374 0.348939 -0.892386 -0.286162
-4.85094 27.3713 47.316 0.385491 -0.864838 -0.32164
-5.65069 26.716 48.1452 0.389626 -0.855723 -0.340485
-6.93251 25.5272 49.4943 0.40567 -0.841857 -0.355962
-8.17997 24.3239 50.8181 0.426343 -0.826013 -0.368692
-9.02417 23.4855 51.7202 0.428602 -0.824759 -0.368881
-9.84955 22.6452 52.6086 0.43228 -0.819723 -0.375749
-10.677 21.7997 53.5011 0.435435 -0.817964 -0.37594
-11.4639 20.999 54.3589 0.436661 -0.821667 -0.36632
-12.2503 20.1988 55.2162 0.444637 -0.816778 -0.367657
-12.9804 19.435 56.0281 0.45222 -0.8157 -0.360737
-13.7101 18.6717 56.8394 0.448223 -0.818673 -0.358985
-14.7034 17.685 57.9409 0.447344 -0.8295 -0.334386
-15.5085 16.9164 58.8281 0.432439 -0.840957 -0.325252
-16.5104 15.9761 59.9272 0.435955 -0.841411 -0.319328
-17.7303 14.8698 61.2638 0.419409 -0.852236 -0.312715
-18.8094 13.9065 62.442 0.419394 -0.85223 -0.312751
-19.5973 13.2094 63.312 0.440305 -0.851702 -0.28414
-20.6661 12.3338 64.4779 0.391686 -0.881587 -0.263413
-21.1372 11.9671 64.9931 0.393374 -0.879476 -0.267915
-21.8579 11.8192 64.4206 0.375956 -0.88486 -0.275101
-20.7729 12.6651 63.2451 0.383246 -0.879404 -0.282437
-19.9814 13.346 62.3769 0.424615 -0.852281 -0.305481
-19.0706 14.1729 61.3838 0.414622 -0.85293 -0.317174
-18.0253 15.1056 60.242 0.413158 -0.85088 -0.324505
-17.2039 15.8675 59.3428 0.410467 -0.845066 -0.342608
-16.4131 16.5876 58.4819 0.401803 -0.849627 -0.341598
-15.4764 17.464 57.455 0.439915 -0.835274 -0.329837
-14.4565 18.4894 56.3304 0.444214 -0.821623 -0.357224
-13.4324 19.5523 55.1961 0.45222 -0.8157 -0.360737
-12.5721 20.4593 54.2484 0.444637 -0.816778 -0.367657
-11.7858 21.2594 53.3911 0.436661 -0.821667 -0.36632
-10.9303 22.1405 52.4663 0.435435 -0.817964 -0.37594
-10.1028 22.9859 51.5738 0.43228 -0.819723 -0.375749
-9.28652 23.804 50.7032 0.428602 -0.824759 -0.368881
-8.50121 24.5839 49.864 0.42488 -0.829266 -0.363037
-7.57625 25.4752 48.8836 0.414556 -0.83721 -0.356682
-6.37222 26.5929 47.6158 0.405606 -0.841446 -0.357006
-5.46987 27.3396 46.6791 0.37336 -0.869374 -0.323715
-4.67387 27.9942 45.8535 0.367372 -0.87898 -0.304027
-3.22319 29.0677 44.3758 0.346331 -0.8857 -0.309178
-2.35269 29.6496 43.5051 0.297404 -0.909848 -0.289356
-1.26795 30.3403 42.4251 0.29672 -0.911483 -0.284879
0.0462226 31.0683 41.1404 0.237648 -0.939588 -0.24637
1.33217 31.7493 39.8887 0.211991 -0.941354 -0.262513
0.92537 31.8875 39.0322 0.193529 -0.949935 -0.245296
-0.286387 31.2523 40.2124 0.230302 -0.932103 -0.279545
-1.26034 30.7325 41.1609 0.250896 -0.931109 -0.26474
-2.28317 30.0872 42.1776 0.29672 -0.911483 -0.284879
-3.36792 29.3965 43.2576 0.297404 -0.909848 -0.289356
-4.29299 28.719 44.1975 0.313146 -0.889158 -0.333674
-5.16171 28.0816 45.0807 0.329482 -0.881482 -0.338278
-6.06466 27.3308 46.0167 0.362708 -0.866545 -0.342844
-6.89899 26.6506 46.8812 0.389626 -0.855723 -0.340486
-8.0662 25.5691 48.1102 0.407599 -0.836382 -0.366509
-8.93333 24.7213 49.0321 0.418501 -0.83127 -0.365851
-10.1419 23.529 50.3182 0.43086 -0.823498 -0.369068
-10.9309 22.7393 51.159 0.431574 -0.821616 -0.372411
-11.6931 21.9543 51.9807 0.438584 -0.816193 -0.376128
-12.458 21.1633 52.8053 0.437629 -0.818944 -0.37123
-13.2991 20.2917 53.7256 0.452573 -0.811816 -0.368962
-14.2095 19.3295 54.7257 0.4524 -0.813767 -0.364854
-15.1489 18.3621 55.7621 0.444214 -0.821623 -0.357224
-15.94 17.5627 56.6262 0.418829 -0.834219 -0.358692
-16.6879 16.8781 57.4362 0.401803 -0.849627 -0.341598
-17.4787 16.158 58.2972 0.410467 -0.845066 -0.342608
-18.2895 15.3906 59.185 0.415394 -0.84463 -0.337711
-19.3238 14.4465 60.317 0.413158 -0.850881 -0.324504
-20.243 13.6163 61.3195 0.423843 -0.846517 -0.322128
-21.0255 12.9043 62.1704 0.353547 -0.867301 -0.350418
-21.9359 12.2172 63.1427 0.34553 -0.888367 -0.302345
-22.2356 11.9917 63.4629 0.34933 -0.885921 -0.305144
-22.8068 12.0238 62.7158 0.34933 -0.885921 -0.305145
-21.6039 12.9656 61.4382 0.340777 -0.875517 -0.342551
-20.691 13.7626 60.4542 0.367808 -0.860383 -0.352787
-19.7002 14.6291 59.3829 0.411669 -0.84878 -0.331815
-18.6184 15.6298 58.1987 0.419092 -0.840424 -0.343585
-17.7534 16.4484 57.2515 0.410466 -0.845067 -0.342607
-16.9837 17.1512 56.4155 0.404077 -0.843302 -0.354349
-15.8009 18.2892 55.1412 0.433446 -0.824871 -0.362921
-15.0302 19.0757 54.3046 0.418026 -0.814263 -0.402778
-14.2552 19.8946 53.4533 0.418 -0.814277 -0.402776
-13.3448 20.8567 52.4533 0.416633 -0.818057 -0.396485
-12.5401 21.6906 51.5822 0.427181 -0.815875 -0.389698
-11.757 22.5047 50.7362 0.425 -0.819445 -0.384558
-10.6062 23.6574 49.5122 0.421014 -0.823922 -0.379342
-9.45938 24.7918 48.2943 0.410893 -0.830891 -0.375216
-8.30354 25.8987 47.0702 0.401578 -0.842671 -0.358665
-7.54707 26.6079 46.2738 0.384891 -0.846292 -0.368305
-6.57326 27.4401 45.2614 0.35188 -0.863294 -0.361807
-5.52878 28.2892 44.1814 0.345707 -0.873499 -0.342763
-4.65039 28.9343 43.2882 0.313146 -0.889158 -0.333674
-3.80066 29.5427 42.4281 0.293261 -0.903319 -0.31307
-2.75686 30.2053 41.3891 0.273688 -0.911697 -0.306436
-1.77723 30.8232 40.416 0.251767 -0.923032 -0.290905
-0.883955 31.3058 39.5419 0.229861 -0.932148 -0.279757
0.0874431 31.8299 38.5943 0.21199 -0.941353 -0.262515
0.694109 32.1056 38.0053 0.184857 -0.945183 -0.269179
0.151824 32.2275 37.2883 0.187371 -0.938987 -0.288436
-0.867997 31.6895 38.2763 0.229324 -0.929557 -0.288677
-2.17873 30.9814 39.559 0.22986 -0.932148 -0.279757
-3.16599 30.3673 40.5369 0.2735 -0.913281 -0.301854
-4.17882 29.7263 41.5441 0.293261 -0.903319 -0.313069
-5.02309 29.1263 42.3976 0.312688 -0.894492 -0.319546
-5.87649 28.5123 43.2622 0.329483 -0.881481 -0.338277
-7.1374 27.5025 44.5637 0.348815 -0.868451 -0.352307
-8.13149 26.6326 45.5997 0.37628 -0.85473 -0.35756
-9.23112 25.5986 46.7565 0.393987 -0.837432 -0.37879
-9.99697 24.8571 47.5666 0.408217 -0.831796 -0.37613
-10.7569 24.1133 48.3725 0.420636 -0.820996 -0.386045
-11.6533 23.2084 49.3253 0.421907 -0.823451 -0.379372
-12.4703 22.3903 50.1895 0.4228 -0.822979 -0.379401
-13.329 21.5005 51.1154 0.427181 -0.815875 -0.389698
-14.2271 20.5805 52.0958 0.416633 -0.818057 -0.396485
-15.1376 19.6185 53.0959 0.418 -0.814277 -0.402776
-16.018 18.6959 54.0473 0.418051 -0.814248 -0.402782
-17.057 17.6567 55.1692 0.385271 -0.839667 -0.382786
-18.0112 16.7546 56.1876 0.394732 -0.841609 -0.368621
-18.8818 15.9311 57.1406 0.419091 -0.840424 -0.343584
-19.7387 15.1202 58.0789 0.415394 -0.844629 -0.337711
-21.0361 14.0109 59.4709 0.367171 -0.863862 -0.34486
-22.0666 13.1212 60.5829 0.35933 -0.865439 -0.349137
-23.3203 12.1111 61.909 0.339763 -0.8784 -0.336116
-23.5579 11.9251 62.1628 0.333269 -0.884264 -0.327122
-23.0898 12.8168 60.3185 0.346405 -0.87505 -0.33807
-22.0264 13.7023 59.1839 0.359331 -0.86544 -0.349135
-21.102 14.4962 58.1939 0.361535 -0.859996 -0.360138
-20.0961 15.3811 57.1344 0.376168 -0.845789 -0.378337
-19.2323 16.1995 56.1887 0.3825 -0.84238 -0.379591
-18.4955 16.9087 55.3745 0.380927 -0.84008 -0.386213
-17.3034 18.0268 54.1095 0.382396 -0.840336 -0.384197
-16.3726 18.9781 53.1088 0.41805 -0.814248 -0.402783
-15.6243 19.7604 52.304 0.418025 -0.814263 -0.402779
-14.6328 20.7924 51.2179 0.415244 -0.82179 -0.390172
-13.5352 21.9161 50.0192 0.421221 -0.81885 -0.389945
-12.7805 22.6815 49.2169 0.418767 -0.820919 -0.388234
-12.0339 23.435 48.428 0.417825 -0.821788 -0.387411
-11.249 24.2261 47.5964 0.419232 -0.821392 -0.386728
-10.1097 25.3491 46.3895 0.403534 -0.828167 -0.388972
-9.0854 26.3202 45.3128 0.393987 -0.837431 -0.378792
-5.41759 29.3018 41.528 0.303412 -0.895309 -0.326133
-6.27988 28.6929 42.3974 0.327237 -0.883007 -0.336474
-7.00924 28.1034 43.1483 0.351378 -0.872888 -0.338527
-7.68527 27.5611 43.8449 0.364251 -0.864201 -0.347098
-8.30573 27.017 44.4956 0.37701 -0.855243 -0.355559
-8.68293 26.6863 44.8913 0.376646 -0.854987 -0.35656
0.47363 34.5885 28.2778 0.0990192 -0.967603 -0.232247
1.46275 34.9036 27.3422 0.0472904 -0.977168 -0.207138
-0.222423 34.6583 27.6986 0.0927206 -0.96768 -0.234519
0.898801 35.0251 26.6401 0.0731848 -0.972799 -0.219785
2.06403 35.3118 25.5382 0.0466371 -0.977945 -0.20359
2.02237 35.5787 24.3484 0.0170294 -0.971556 -0.236195
0.626873 35.234 25.6657 0.0402149 -0.970738 -0.236752
-0.650849 34.8195 26.8642 0.0927209 -0.96768 -0.234517
-1.23202 34.6311 27.4117 0.0927196 -0.96768 -0.234518
-1.35367 34.9041 26.2923 0.0834045 -0.960956 -0.263831
-0.400058 35.2318 25.4 0.0734035 -0.965319 -0.250541
0.588274 35.5224 24.4767 0.0402139 -0.970738 -0.236751
1.61475 35.7759 23.5077 0.0172723 -0.971075 -0.23815
2.63485 36.0272 22.5499 0.00138195 -0.974007 -0.226515
1.90891 36.1512 22.0123 0.00945142 -0.972353 -0.233323
0.543757 35.8097 23.2935 0.0299873 -0.969784 -0.242116
-0.479271 35.5083 24.2488 0.0633787 -0.969397 -0.237178
-1.94568 35.0373 25.62 0.0818187 -0.960919 -0.264461
-2.23443 34.9388 25.8894 0.080231 -0.960879 -0.265094
-3.05743 34.9973 25.4285 0.104048 -0.956645 -0.272036
-1.90783 35.3864 24.3571 0.0807699 -0.963253 -0.256163
-0.377838 35.8577 22.9323 0.0513271 -0.96522 -0.256351
0.932402 36.21 21.7075 0.0175951 -0.969388 -0.244904
1.58509 36.3791 21.0983 0.00360843 -0.969558 -0.244836
1.45999 36.648 19.9983 0.0016799 -0.97435 -0.225032
0.509616 36.4116 20.8855 0.0221112 -0.968983 -0.246135
-0.518692 36.1277 21.8435 0.0379359 -0.9663 -0.254607
-1.91179 35.706 23.1389 0.0788583 -0.964196 -0.253196
-3.18355 35.2868 24.3198 0.0826771 -0.962297 -0.259131
-3.32645 35.2331 24.4521 0.131808 -0.955892 -0.262484
-4.54933 35.1096 24.3583 0.0938368 -0.951418 -0.293254
-3.50615 35.5095 23.3944 0.0880702 -0.955372 -0.281971
-2.26824 35.923 22.2503 0.067093 -0.96005 -0.271667
-1.071 36.2897 21.1409 0.0510381 -0.966627 -0.251052
0.0936362 36.6127 20.0564 0.0189357 -0.972031 -0.234087
0.477416 36.7005 19.6978 0.0157563 -0.97492 -0.221997
0.562638 37.0143 18.4035 -0.00546468 -0.968497 -0.248964
-0.665199 36.7267 19.5492 0.0145461 -0.967641 -0.251913
-1.7217 36.4149 20.5264 0.0510371 -0.966627 -0.251051
-3.23339 35.947 21.9269 0.0746955 -0.959632 -0.271158
-4.36833 35.5553 22.9701 0.0880702 -0.955372 -0.281971
-5.16442 35.2501 23.7057 0.0938369 -0.951418 -0.293254
-5.56636 35.4723 22.8561 0.109139 -0.949161 -0.295266
-4.42877 35.8778 21.8089 0.0822936 -0.959158 -0.270634
-3.39854 36.2374 20.8631 0.068055 -0.954208 -0.2913
-1.90078 36.6947 19.4813 0.0432484 -0.962281 -0.268599
-0.840935 36.9964 18.5022 0.0345502 -0.966388 -0.254757
0.221605 37.2457 17.5108 -0.00622739 -0.969118 -0.24652
0.372191 37.2798 17.3709 -0.00699288 -0.969731 -0.244077
0.0948698 37.5208 16.4213 -0.00699288 -0.969731 -0.244077
-0.999383 37.271 17.4392 0.0145461 -0.967641 -0.25191
-2.43079 36.8712 18.7617 0.0258139 -0.964792 -0.261745
-3.67549 36.5047 19.9095 0.0325738 -0.961721 -0.272088
-5.21425 35.9674 21.3188 0.067156 -0.953721 -0.293098
-6.16033 35.6226 22.1812 0.0977022 -0.945198 -0.311538
-6.15264 36.0073 20.9662 0.0941374 -0.949313 -0.299904
-5.00226 36.4129 19.9151 0.0646143 -0.954441 -0.291319
-4.03948 36.7398 19.0352 0.0323792 -0.96142 -0.273172
-2.87333 37.0847 17.9633 0.0321883 -0.961118 -0.274254
-1.89617 37.3553 17.0604 0.0167702 -0.963943 -0.265581
-0.812305 37.6249 16.0557 -0.0136479 -0.968127 -0.250087
-0.245632 37.753 15.5291 -0.0136478 -0.968128 -0.250085
-0.624933 37.9809 14.6751 -0.0135758 -0.966557 -0.256091
-1.69712 37.7374 15.6685 0.00144507 -0.966583 -0.256351
-2.63514 37.4853 16.5361 0.0164194 -0.964778 -0.262552
-3.92603 37.1188 17.7251 0.0281792 -0.960723 -0.276074
-5.04087 36.7727 18.7457 0.0617535 -0.951968 -0.299907
-6.18179 36.3733 19.7832 0.065277 -0.954046 -0.292463
-7.14874 36.0051 20.6602 0.0941374 -0.949313 -0.299904
-7.33379 35.9338 20.8278 0.0941374 -0.949313 -0.299904
-8.16267 36.0117 20.3732 0.0783008 -0.945398 -0.316372
-7.15956 36.3987 19.4648 0.0794382 -0.943926 -0.320458
-5.9937 36.8195 18.4111 0.0400683 -0.950474 -0.30821
-4.78707 37.2129 17.3099 0.0268684 -0.959298 -0.281115
-3.73272 37.5296 16.3439 0.0152226 -0.960576 -0.2776
-2.22327 37.9273 14.9474 0.00491932 -0.963009 -0.269426
-1.00494 38.2108 13.8274 -0.0135758 -0.966557 -0.256091
-1.40457 38.4383 12.9976 -0.0185336 -0.965859 -0.258403
-2.50644 38.1883 14.0109 -0.0067946 -0.964457 -0.264151
-3.45084 37.9411 14.8756 0.00491932 -0.963009 -0.269426
-4.63157 37.6188 15.9652 0.0255523 -0.957844 -0.286151
-5.8996 37.2363 17.1254 0.0359841 -0.955448 -0.292959
-7.0623 36.8482 18.1836 0.0603356 -0.946688 -0.316452
-8.17949 36.4082 19.1842 0.0794386 -0.943926 -0.320458
-8.69036 36.211 19.6468 0.0923189 -0.943657 -0.317787
-9.13405 36.4444 18.8441 0.0834277 -0.938979 -0.333703
-8.00874 36.8853 17.8374 0.0819137 -0.942887 -0.322884
-6.94874 37.2671 16.8799 0.0511288 -0.953172 -0.298074
-5.74046 37.6432 15.7774 0.0296899 -0.95787 -0.285662
-4.67841 37.955 14.8038 0.00491949 -0.963008 -0.269426
-3.53773 38.2535 13.7594 0.0049457 -0.962889 -0.269854
-1.89212 38.648 12.2485 -0.022603 -0.962459 -0.270486
-1.80813 38.6683 12.1717 -0.0266678 -0.958889 -0.282525
-1.77739 39.0254 10.9561 -0.0317306 -0.961045 -0.274565
-3.19431 38.6832 12.252 -0.0180981 -0.959155 -0.282301
-4.21278 38.4198 13.1822 -0.00950364 -0.959337 -0.282102
-5.19117 38.166 14.0782 0.00549586 -0.959093 -0.283037
-6.27364 37.8381 15.0609 0.0322853 -0.958524 -0.283177
-7.74448 37.3662 16.3997 0.0598202 -0.953039 -0.29688
-8.82872 36.9714 17.3781 0.0798176 -0.943067 -0.322882
-9.80901 36.5912 18.2529 0.0777236 -0.943244 -0.322878
-9.99544 36.5189 18.4193 0.0834297 -0.93898 -0.3337
-10.8594 36.5921 17.9967 0.0904744 -0.935172 -0.342443
-9.8858 36.9724 17.1281 0.0704275 -0.940568 -0.332223
-8.95476 37.3279 16.2961 0.0546374 -0.949547 -0.308828
-7.67596 37.7638 15.137 0.0529649 -0.951902 -0.301791
-6.33903 38.1866 13.9232 0.0307372 -0.9546 -0.296302
-5.2667 38.4977 12.9527 0.0054956 -0.959093 -0.283039
-4.27889 38.7538 12.0487 -0.00952856 -0.959349 -0.282062
-3.15153 39.0434 11.0253 -0.0180982 -0.959154 -0.282304
-2.07869 39.2958 10.0445 -0.0317306 -0.961045 -0.274565
-1.23774 39.4876 9.27607 -0.0449728 -0.961701 -0.270386
-1.74882 39.7171 8.55993 -0.0476386 -0.960004 -0.275903
-3.10111 39.4053 9.79381 -0.0311644 -0.95845 -0.283553
-4.24012 39.114 10.8259 -0.0174324 -0.955815 -0.293452
-5.20273 38.8656 11.6994 -0.00951743 -0.959343 -0.282083
-6.40987 38.5205 12.7933 0.0204941 -0.958633 -0.283908
-7.55328 38.1765 13.8296 0.0362012 -0.954465 -0.296119
-8.48416 37.8754 14.6697 0.0438876 -0.952516 -0.301309
-10.1261 37.2979 16.1497 0.0631656 -0.948326 -0.310947
-11.0686 36.9323 16.9909 0.0790079 -0.939304 -0.333864
-11.9488 36.9967 16.5812 0.0875816 -0.937968 -0.335477
-10.4039 37.5903 15.2016 0.0631656 -0.948326 -0.310947
-9.41175 37.9462 14.3106 0.0438848 -0.952515 -0.301312
-7.77898 38.4809 12.8385 0.0233341 -0.950143 -0.310941
-6.48321 38.8667 11.6697 0.00682968 -0.952601 -0.304147
-5.3655 39.1847 10.6624 -0.00857247 -0.9559 -0.293567
-4.25194 39.4745 9.65258 -0.0174324 -0.955815 -0.293452
-3.13303 39.7467 8.64092 -0.0243007 -0.958732 -0.28327
-1.90018 40.0179 7.51261 -0.0572432 -0.961734 -0.26794
-1.57905 40.0813 7.21644 -0.0572432 -0.961734 -0.26794
-2.09885 40.3185 6.50926 -0.0586904 -0.957663 -0.281845
-3.91096 39.9079 8.16233 -0.0243007 -0.958732 -0.28327
-4.93223 39.661 9.08545 -0.0208669 -0.957293 -0.288367
-5.86969 39.409 9.93206 0.000288093 -0.95591 -0.29366
-6.82364 39.145 10.7903 0.00356126 -0.954275 -0.298908
