-24.448 67.1222 -31.8898 -0.501101 -0.693336 -0.51616
-24.0947 68.1485 -33.3278 -0.502148 -0.60992 -0.612092
-23.616 68.7348 -34.2537 -0.502313 -0.589124 -0.632941
-22.2898 68.8471 -35.5043 -0.552706 -0.594284 -0.584246
-20.8399 68.2203 -36.3162 -0.598535 -0.562995 -0.569904
-19.443 67.5688 -37.2646 -0.651621 -0.557802 -0.513477
-18.4353 67.0281 -37.9103 -0.665254 -0.574794 -0.47423
-17.5688 66.6951 -38.874 -0.712355 -0.557296 -0.426581
-16.8573 66.4301 -39.7213 -0.745761 -0.549659 -0.37251
-16.2408 66.2046 -40.6227 -0.692023 -0.641881 -0.330291
-15.3604 65.8103 -41.6463 -0.703328 -0.645412 -0.295157
-14.7838 65.478 -42.5065 -0.739204 -0.658194 -0.142681
-14.2785 65.1938 -43.813 -0.733435 -0.662625 -0.151245
-13.9451 65.0074 -44.7761 -0.717995 -0.686527 -0.114734
-13.7946 65.0119 -45.8431 -0.717767 -0.690826 -0.0870056
-13.6256 64.9797 -46.9206 -0.701139 -0.706288 -0.0972341
-13.5996 65.1344 -48.3963 -0.697147 -0.712709 -0.0771073
-13.7333 65.3906 -49.5373 -0.690299 -0.718854 -0.0820786
-13.9071 65.6834 -50.7335 -0.69041 -0.720241 -0.0677325
-14.1022 65.9604 -51.7118 -0.684991 -0.7253 -0.0681471
-14.3498 66.3577 -53.2474 -0.687045 -0.722048 -0.0811481
-14.4398 66.5544 -54.2583 -0.694249 -0.715587 -0.0771602
-14.2018 66.4482 -55.4884 -0.697469 -0.713518 -0.0665211
-13.4553 65.7335 -55.6204 -0.693415 -0.71797 -0.0603238
-12.6497 64.9505 -55.433 -0.681306 -0.729761 -0.0571969
-11.9055 64.2376 -55.106 -0.672071 -0.738958 -0.0475496
-10.9602 63.3503 -54.6771 -0.659654 -0.749524 -0.0527046
-9.95833 62.464 -54.1804 -0.644636 -0.762636 -0.0532061
-8.94214 61.5445 -53.3128 -0.6277 -0.775967 -0.0581336
-7.74932 60.5775 -52.5375 -0.59067 -0.799164 -0.111556
-6.73483 59.7484 -51.9697 -0.578358 -0.809197 -0.101752
-5.25676 58.6671 -51.1128 -0.541509 -0.835106 -0.096775
-4.40501 58.0529 -50.5786 -0.543883 -0.833869 -0.0940114
-3.24708 57.3082 -50.1292 -0.503909 -0.855855 -0.116564
-2.36852 56.7365 -49.7297 -0.50391 -0.855855 -0.116564
-1.05962 56.0215 -49.3939 -0.44521 -0.889247 -0.105016
0.0115067 55.4531 -49.1219 -0.448009 -0.885788 -0.120085
1.18206 54.8674 -48.7647 -0.40989 -0.902374 -0.133086
2.44375 54.268 -48.5865 -0.397776 -0.908831 -0.124667
3.56481 53.7877 -48.4243 -0.375558 -0.918741 -0.121945
4.70866 53.3038 -48.3015 -0.370772 -0.921071 -0.118817
6.02677 52.8014 -48.3182 -0.352614 -0.927582 -0.123515
7.26783 52.3187 -48.2367 -0.340898 -0.932523 -0.118321
8.7478 51.8275 -48.4017 -0.320651 -0.939779 -0.118317
10.3503 51.3065 -48.6063 -0.314955 -0.942096 -0.114932
11.6366 50.8941 -48.5746 -0.299539 -0.946968 -0.116307
12.8789 50.4979 -48.5559 -0.301597 -0.948102 -0.100709
14.0886 50.1361 -48.5044 -0.280624 -0.954194 -0.103754
15.239 49.805 -48.5711 -0.280845 -0.954143 -0.103624
16.3682 49.4929 -48.5801 -0.264508 -0.958869 -0.102987
17.5366 49.1686 -48.5615 -0.264495 -0.958871 -0.102996
18.5886 48.8953 -48.6011 -0.253721 -0.960953 -0.11043
20.101 48.5133 -48.6884 -0.241381 -0.964158 -0.110156
21.5337 48.1924 -49.0186 -0.241924 -0.964106 -0.109419
22.613 47.9498 -49.2012 -0.234264 -0.965769 -0.111299
24.075 47.5559 -48.9 -0.231799 -0.965901 -0.115264
24.6211 47.2983 -47.8124 -0.228905 -0.966209 -0.11844
24.8078 47.0979 -46.6018 -0.227742 -0.965334 -0.127532
24.3831 47.0618 -45.5699 -0.232512 -0.964362 -0.126171
23.1152 47.3492 -45.3777 -0.235733 -0.963143 -0.129469
21.6391 47.7242 -45.4925 -0.234165 -0.962899 -0.134135
20.2899 48.076 -45.5328 -0.247712 -0.959708 -0.132664
18.799 48.4807 -45.6767 -0.247391 -0.960687 -0.125815
17.7173 48.7715 -45.6913 -0.256128 -0.957842 -0.130146
16.6949 49.0421 -45.6709 -0.261413 -0.956701 -0.127873
15.6012 49.2861 -45.1933 -0.272222 -0.953422 -0.129928
14.5218 49.5176 -44.6308 -0.276935 -0.952359 -0.127636
13.5056 49.7399 -44.0347 -0.281649 -0.951296 -0.125341
12.4877 49.9499 -43.398 -0.28012 -0.949304 -0.142673
11.3787 50.1429 -42.3312 -0.296535 -0.94519 -0.136686
10.7134 50.1909 -41.2928 -0.288576 -0.944601 -0.156375
10.1535 50.1998 -40.298 -0.312823 -0.936858 -0.156328
9.46245 50.2366 -39.1359 -0.309387 -0.937323 -0.160242
8.94759 50.1005 -37.4755 -0.307613 -0.934473 -0.179258
8.5286 49.8968 -35.6945 -0.299954 -0.937755 -0.174795
8.06352 49.7561 -34.2623 -0.291005 -0.937634 -0.190154
7.69443 49.6291 -33.0715 -0.291094 -0.936877 -0.193683
7.14682 49.5458 -31.8807 -0.297836 -0.933473 -0.199803
6.75392 49.4526 -30.8596 -0.292654 -0.932999 -0.209169
6.50091 49.2969 -29.8573 -0.285927 -0.933907 -0.214626
6.19625 49.1621 -28.8648 -0.285929 -0.933906 -0.214625
5.69654 48.9802 -27.4818 -0.275673 -0.933435 -0.229572
5.05251 48.7973 -25.9647 -0.276216 -0.933315 -0.229407
4.62355 48.6266 -24.8105 -0.257351 -0.937498 -0.234238
4.13799 48.4853 -23.7116 -0.254727 -0.936017 -0.242706
3.90134 48.1637 -22.2775 -0.252103 -0.934535 -0.251175
3.51617 47.8913 -20.887 -0.242269 -0.934287 -0.261428
3.21643 47.5699 -19.4824 -0.236883 -0.935188 -0.263267
2.86722 47.366 -18.4438 -0.228389 -0.938109 -0.260192
2.51954 47.1213 -17.2867 -0.209281 -0.940161 -0.268871
1.99431 46.591 -15.0228 -0.204933 -0.938717 -0.276955
1.75204 46.293 -13.8324 -0.192579 -0.942154 -0.274329
1.5698 45.8995 -12.3521 -0.191055 -0.942585 -0.273918
1.27104 45.5929 -11.1137 -0.175142 -0.9441 -0.279284
0.919884 45.287 -9.8593 -0.175166 -0.944079 -0.279343
0.685551 44.9624 -8.60907 -0.155135 -0.947004 -0.281275
0.428835 44.6632 -7.46004 -0.154615 -0.948522 -0.276359
0.308932 44.3944 -6.45123 -0.154094 -0.95004 -0.271439
-0.00789954 44.0568 -5.15187 -0.135786 -0.950746 -0.278557
-0.312749 43.7361 -3.88132 -0.132838 -0.952958 -0.272442
-0.404602 43.3631 -2.60035 -0.119161 -0.952943 -0.278612
-0.542894 43.0128 -1.30906 -0.114857 -0.955565 -0.271485
-0.640147 42.6132 0.122351 -0.113427 -0.954879 -0.27448
-0.719787 42.3236 1.17787 -0.103212 -0.95783 -0.268149
-0.603478 41.9742 2.36161 -0.10216 -0.956554 -0.273072
-0.449825 41.5234 3.8833 -0.10212 -0.956569 -0.273032
-0.285091 41.1585 5.13428 -0.0886681 -0.958865 -0.269657
-0.137696 40.7951 6.37788 -0.0843422 -0.960465 -0.265242
0.095964 40.3766 7.8416 -0.0794357 -0.961485 -0.263127
0.418417 39.9843 9.17788 -0.0731439 -0.963934 -0.255698
0.495106 39.6554 10.3615 -0.050052 -0.962087 -0.26811
0.539089 39.3592 11.4162 -0.0500515 -0.962088 -0.268109
0.75771 39.0649 12.5723 -0.0408766 -0.970535 -0.237467
1.02724 38.7062 13.9391 -0.0274252 -0.968508 -0.247376
1.44208 38.3434 15.3512 -0.0239486 -0.970663 -0.239224
1.77397 37.9779 16.832 -0.0214279 -0.971892 -0.234449
2.25595 37.7539 17.7452 -0.019022 -0.973496 -0.227912
2.73078 37.5279 18.6581 -0.0103384 -0.972307 -0.233414
3.1127 37.2938 19.6401 -0.00692309 -0.97333 -0.229305
3.89258 36.9589 21.0382 -0.00452039 -0.971932 -0.235131
4.37804 36.6166 22.5277 0.00395023 -0.974501 -0.224349
4.36689 36.3143 23.8406 0.00394921 -0.974501 -0.224348
4.19401 36.0514 25.1848 0.0162153 -0.980889 -0.193592
3.43786 35.6957 26.823 0.0198407 -0.97867 -0.204448
2.85779 35.4312 27.9407 0.0474515 -0.976573 -0.209888
2.36883 35.195 28.9292 0.0523904 -0.973409 -0.222565
1.89906 34.9287 29.9155 0.0571026 -0.970384 -0.23472
1.6178 34.6563 30.9966 0.0851085 -0.971468 -0.220398
1.34715 34.3674 32.0666 0.09714 -0.966777 -0.236444
1.15994 34.0575 33.2552 0.139353 -0.959914 -0.242798
1.13214 33.8082 34.2688 0.117105 -0.965078 -0.234331
1.59109 33.4326 36.0553 0.117848 -0.965619 -0.231716
1.94245 33.1488 37.3677 0.167767 -0.94579 -0.277583
2.50187 32.8991 38.7841 0.218791 -0.946364 -0.237752
3.07119 32.7355 39.9595 0.230591 -0.950269 -0.206622
4.14218 32.6749 41.1634 0.151902 -0.962539 -0.224387
5.06117 32.5984 42.0654 0.1494 -0.960775 -0.233647
5.89694 32.5876 42.684 0.161393 -0.959915 -0.229164
6.98242 32.5748 43.5019 0.160045 -0.962804 -0.217359
7.78974 32.5739 44.1615 0.167292 -0.967283 -0.190684
8.80153 32.5737 44.8772 0.105902 -0.978641 -0.176198
9.67381 32.4998 45.8123 0.105901 -0.978641 -0.176199
10.3396 32.3886 46.7791 0.100124 -0.977906 -0.183506
10.3654 32.186 47.8193 0.118761 -0.975147 -0.185875
9.7527 31.8874 48.9339 0.158547 -0.967366 -0.19765
9.14024 31.5658 49.9554 0.127675 -0.96981 -0.207771
8.40264 31.1863 50.9267 0.18938 -0.954552 -0.230144
7.80612 30.8487 51.8361 0.18938 -0.954547 -0.230164
7.34339 30.4992 52.781 0.258801 -0.937705 -0.2318
6.5633 29.9522 54.1304 0.257319 -0.93864 -0.229654
5.85535 29.448 55.3735 0.251233 -0.937013 -0.24267
5.44419 29.0157 56.3701 0.285113 -0.914446 -0.287227
5.08668 28.5176 57.5643 0.331314 -0.902126 -0.276352
4.81317 28.0642 58.7174 0.324851 -0.903454 -0.27972
4.63727 27.6134 59.9691 0.337557 -0.893447 -0.295463
4.94308 27.114 61.89 0.339206 -0.896926 -0.282451
5.29261 26.7941 63.2539 0.318549 -0.904169 -0.284481
5.7729 26.684 64.1733 0.321358 -0.905722 -0.276401
6.26577 26.5583 65.1249 0.339605 -0.888 -0.310008
7.32732 26.399 66.6184 0.311883 -0.894277 -0.320933
7.88277 26.2678 67.6334 0.304725 -0.908126 -0.286753
8.73559 26.4337 67.9628 0.282938 -0.912832 -0.294421
7.73415 25.9998 68.3113 0.292679 -0.909427 -0.295435
6.79929 25.5816 68.637 0.335593 -0.898184 -0.283174
5.71359 25.0606 68.9007 0.356285 -0.887007 -0.293735
4.64494 24.52 69.2372 0.356285 -0.887006 -0.293736
3.49331 23.862 69.6052 0.400482 -0.865746 -0.300163
2.47408 23.2848 69.9135 0.398619 -0.869545 -0.291537
1.26149 22.598 70.258 0.412631 -0.865665 -0.283477
0.106755 21.9695 70.4962 0.42508 -0.858464 -0.286582
-0.971181 21.3247 70.7629 0.437528 -0.851265 -0.289686
-2.00388 20.7563 70.8736 0.436528 -0.854679 -0.280848
-3.18626 20.0725 71.0219 0.459637 -0.847492 -0.265501
-4.17986 19.4252 71.3678 0.459932 -0.847292 -0.26563
-5.16115 18.7756 71.739 0.460227 -0.847091 -0.265759
-6.09468 18.1459 72.1215 0.464078 -0.846497 -0.260906
-7.12652 17.4242 72.6595 0.462039 -0.851635 -0.247464
-8.02688 16.8196 73.0592 0.462039 -0.851635 -0.247464
-9.12389 16.3438 72.688 0.452376 -0.859187 -0.23907
-9.6801 16.2886 71.773 0.474742 -0.852284 -0.219617
-10.4809 16.0994 70.8559 0.472812 -0.848351 -0.238219
-11.4449 15.8318 69.8979 0.472485 -0.846505 -0.245295
-12.4341 15.4927 69.2397 0.457317 -0.853445 -0.249986
-13.5427 15.0735 68.6428 0.459367 -0.853409 -0.246286
-14.4911 14.6863 68.2122 0.453515 -0.859078 -0.237135
-16.0582 14.0563 67.5214 0.435361 -0.868459 -0.236642
-17.1696 13.5517 67.4083 0.42142 -0.873855 -0.24245
-18.2776 12.9752 67.5533 0.425412 -0.870856 -0.246242
-19.2878 12.4708 67.6034 0.422729 -0.871755 -0.247676
-20.7664 11.8035 67.4285 0.423046 -0.8721 -0.245907
-21.7281 11.594 66.7105 0.388972 -0.882432 -0.264602
-22.6253 11.437 65.9155 0.372924 -0.885637 -0.276001
-23.5506 11.3481 65.0411 0.356876 -0.888842 -0.287402
-24.4885 11.2638 64.1738 0.34549 -0.883484 -0.316122
-25.2757 11.2672 63.3477 0.33509 -0.88507 -0.323057
-25.5067 11.6132 62.1602 0.33527 -0.883179 -0.327966
-25.2038 12.1322 61.0914 0.335451 -0.881287 -0.332875
-24.5065 12.7743 60.0942 0.341153 -0.878405 -0.334627
-23.6699 13.4114 59.3529 0.333867 -0.867328 -0.369155
-23.0034 14.0143 58.5393 0.333598 -0.867747 -0.36841
-22.1751 14.7203 57.6353 0.340115 -0.865132 -0.368602
-21.6295 15.3327 56.7455 0.348944 -0.854718 -0.384311
-20.7572 16.3382 55.406 0.385919 -0.83094 -0.400737
-20.2017 17.2268 54.0993 0.383517 -0.834038 -0.396535
-19.7341 17.9699 52.9799 0.366548 -0.837819 -0.4046
-18.9536 18.7445 52.083 0.365242 -0.840186 -0.400829
-18.0393 19.5029 51.3979 0.402167 -0.823052 -0.400994
-17.319 20.1411 50.8173 0.412825 -0.818296 -0.399905
-16.4665 20.9856 50 0.414622 -0.811868 -0.411046
-15.6628 21.7303 49.3399 0.414636 -0.811847 -0.411074
-15.1377 22.404 48.5224 0.411563 -0.815615 -0.406679
-14.707 23.0703 47.6114 0.400573 -0.818995 -0.410817
-13.7753 24.0331 46.6152 0.400942 -0.816962 -0.41451
-12.5447 25.0944 45.7047 0.396782 -0.82738 -0.397499
-11.2263 26.1517 44.7945 0.396782 -0.831547 -0.388707
-10.3911 26.8094 44.2394 0.396544 -0.831652 -0.388726
-9.36511 27.5996 43.4286 0.369094 -0.857535 -0.358335
-8.62279 28.1803 42.8126 0.362873 -0.847867 -0.386581
-7.82986 28.8584 41.9273 0.336287 -0.872045 -0.355277
-6.8978 29.6836 40.8008 0.326712 -0.883518 -0.334311
-6.0569 30.2801 39.9322 0.303877 -0.896526 -0.322337
-5.2528 30.8031 39.2356 0.303876 -0.896526 -0.322337
-4.28143 31.3934 38.3394 0.268488 -0.914274 -0.303343
-3.42945 31.8831 37.6466 0.267821 -0.909012 -0.319327
-2.51807 32.4061 36.7187 0.226344 -0.9277 -0.296884
-1.73713 32.8753 35.8478 0.226299 -0.9276 -0.297233
-1.18546 33.2298 34.937 0.162199 -0.95062 -0.264598
-0.88457 33.7488 33.2338 0.161093 -0.952835 -0.257204
-0.904318 34.05 32.1001 0.139355 -0.959913 -0.242797
-1.18281 34.3369 30.8341 0.137172 -0.95901 -0.247959
-1.73385 34.532 29.7747 0.132439 -0.956804 -0.258549
-2.63161 34.7118 28.711 0.127705 -0.954597 -0.269139
-3.50344 34.8288 27.8197 0.144362 -0.948857 -0.2802
-4.41053 34.9558 26.9992 0.13382 -0.946277 -0.294367
-5.32059 35.0991 26.1049 0.122219 -0.947945 -0.293758
-6.05704 35.2736 25.2762 0.134871 -0.942746 -0.305024
-6.86283 35.4522 24.368 0.13068 -0.941235 -0.311352
-7.84131 35.6176 23.4889 0.126519 -0.939739 -0.317622
-8.5101 35.7897 22.7153 0.122098 -0.940117 -0.318234
-9.19545 35.9671 21.9516 0.11242 -0.94179 -0.316639
-10.3069 36.2557 20.6787 0.0964622 -0.940566 -0.324956
-11.1446 36.4306 19.9737 0.0985756 -0.935131 -0.340312
-12.0533 36.6359 19.1463 0.0981585 -0.934689 -0.341643
-13.1291 36.9461 17.9577 0.110715 -0.933231 -0.341793
-13.9919 37.3279 16.7108 0.102398 -0.928353 -0.357318
-14.5353 37.6247 15.784 0.106129 -0.927982 -0.357173
-14.9257 38.026 14.6516 0.0760181 -0.931518 -0.355408
-15.3371 38.4667 13.4022 0.0636659 -0.9339 -0.351819
-15.7264 38.8771 12.263 0.0563291 -0.932667 -0.356314
-16.1217 39.3723 10.9222 0.0545352 -0.930116 -0.363194
-16.231 39.7789 9.86455 0.0486872 -0.93266 -0.357352
-16.4784 40.2948 8.53617 0.0252338 -0.929492 -0.367978
-16.5912 40.7822 7.29708 0.0244693 -0.930702 -0.364943
-16.871 41.3275 5.92374 0.0110243 -0.92648 -0.376182
-17.1366 41.9399 4.4078 0.00624987 -0.929677 -0.368191
-17.6554 42.4824 3.0867 -0.0125458 -0.925307 -0.379011
-17.93 42.9528 1.94738 -0.0125446 -0.925307 -0.379012
-18.4147 43.4385 0.790375 -0.0221943 -0.920329 -0.390309
-19.1524 44.0229 -0.49777 -0.0317899 -0.916571 -0.398606
-19.5553 44.4213 -1.37546 -0.0376363 -0.915232 -0.401165
-20.0673 44.845 -2.28575 -0.0422054 -0.908339 -0.416099
-20.7136 45.2136 -3.02474 -0.042207 -0.908339 -0.4161
-21.4818 45.5933 -3.75613 -0.0511517 -0.906541 -0.419007
-22.5285 46.1454 -4.7785 -0.0595303 -0.89726 -0.43743
-23.4017 46.5471 -5.46841 -0.0651582 -0.895996 -0.439255
-24.2938 47.0124 -6.25077 -0.0725711 -0.885283 -0.459345
-25.1181 47.616 -7.2764 -0.0754337 -0.884694 -0.460029
-25.6627 48.094 -8.07523 -0.0796411 -0.875326 -0.47693
-26.4176 48.6812 -8.95579 -0.104279 -0.865621 -0.48972
-27.0661 49.306 -9.93707 -0.088564 -0.859638 -0.502911
-27.6201 49.9823 -10.9319 -0.103924 -0.847163 -0.521071
-28.1839 50.6656 -11.9304 -0.113029 -0.842926 -0.525905
-28.4695 51.5332 -13.1949 -0.124176 -0.818297 -0.561222
-28.3004 52.4537 -14.5745 -0.14404 -0.820056 -0.553446
-27.9953 53.3381 -15.9089 -0.173846 -0.792849 -0.584095
-27.8543 54.1013 -16.9868 -0.171536 -0.790841 -0.587474
-28.0251 54.8307 -17.8483 -0.203243 -0.75944 -0.618015
-28.1393 55.5082 -18.6433 -0.200725 -0.754605 -0.624665
-29.1629 55.6956 -18.5489 -0.171075 -0.75415 -0.634025
-29.5747 56.6837 -19.4604 -0.189464 -0.698173 -0.690404
-29.6532 57.6248 -20.3905 -0.189464 -0.698172 -0.690405
-30.1092 58.4954 -21.0361 -0.220846 -0.642712 -0.733586
-30.1076 59.6622 -22.0174 -0.203101 -0.624787 -0.753917
-29.9061 60.4788 -22.6825 -0.237 -0.56425 -0.790856
-29.8828 61.3574 -23.3069 -0.219784 -0.544624 -0.80937
-29.7079 62.3963 -24.0535 -0.219523 -0.545042 -0.809159
-29.3783 63.285 -24.6739 -0.258587 -0.485269 -0.835253
-29.3396 64.5704 -25.266 -0.199199 -0.387919 -0.89991
-29.1972 65.5145 -25.7044 -0.199141 -0.387953 -0.899909
-28.9595 66.4966 -26.0837 -0.330489 -0.266741 -0.905332
-27.7798 66.3355 -26.6263 -0.607537 -0.288135 -0.740187
-27.0767 66.1903 -27.3504 -0.693647 -0.390743 -0.605123
-26.3483 66.1661 -28.1865 -0.723235 -0.513308 -0.450942
-25.8805 66.1942 -29.1081 -0.582853 -0.635458 -0.506434
-25.5107 66.6019 -30.0571 -0.586411 -0.639102 -0.497665
-25.5271 67.1633 -30.9619 -0.504165 -0.721634 -0.471215
-25.3363 67.6985 -31.894 -0.468064 -0.731051 -0.496468
-25.1915 68.3094 -32.6671 -0.470832 -0.612445 -0.634653
-24.4668 69.0946 -33.9242 -0.481811 -0.588695 -0.649003
-23.9207 69.6358 -34.8289 -0.510562 -0.569804 -0.643933
-22.8457 69.7715 -35.8343 -0.530746 -0.572795 -0.624672
-21.8201 69.4299 -36.4534 -0.568333 -0.536408 -0.623911
-20.9434 69.019 -36.9984 -0.615958 -0.54021 -0.572645
-19.737 68.5213 -37.8794 -0.666173 -0.538564 -0.515909
-18.8936 67.9285 -38.3536 -0.672183 -0.553036 -0.49226
-18.0697 67.5588 -39.152 -0.712983 -0.544641 -0.440438
-17.3865 67.2452 -39.929 -0.71286 -0.567673 -0.411799
-16.5208 66.8263 -41.14 -0.778668 -0.531639 -0.33322
-15.9461 66.5847 -41.9665 -0.675834 -0.656383 -0.335136
-15.3479 66.1958 -42.8955 -0.739621 -0.657448 -0.143945
-14.7462 65.7753 -44.0598 -0.740035 -0.656704 -0.145215
-14.4572 65.6414 -45.2176 -0.737131 -0.671151 -0.0779887
-14.3059 65.6628 -46.8303 -0.714613 -0.694228 -0.0858763
-14.2997 65.7868 -48.0971 -0.697151 -0.712704 -0.0771077
-14.5498 66.1868 -49.6432 -0.689821 -0.719543 -0.0800029
-14.7238 66.4801 -50.8795 -0.688016 -0.722901 -0.0633761
-14.9506 66.8409 -52.4607 -0.687043 -0.722049 -0.0811518
-15.1736 67.2175 -53.8288 -0.689853 -0.718862 -0.0856796
-15.1981 67.3671 -54.8601 -0.698272 -0.708983 -0.0946406
-14.814 67.2337 -56.61 -0.731339 -0.669946 -0.127734
-14.1745 66.5357 -56.9671 -0.723511 -0.688899 -0.0270417
-13.0776 65.4442 -56.6936 -0.701849 -0.711458 -0.0351391
-12.3271 64.7256 -56.5525 -0.676839 -0.735737 -0.0240685
-11.5812 64.0127 -56.195 -0.676687 -0.734361 -0.0523738
-10.64 63.1606 -55.7677 -0.647237 -0.76009 -0.0578595
-9.60963 62.2444 -55.2581 -0.645937 -0.761363 -0.0555325
-8.92783 61.6459 -54.72 -0.610696 -0.789349 -0.0630701
-8.24227 61.0578 -53.9976 -0.610645 -0.789388 -0.063083
-6.97961 60.0829 -53.3802 -0.594934 -0.802357 -0.0477133
-6.2692 59.5242 -52.8427 -0.586575 -0.807856 -0.0559548
-5.20239 58.761 -52.2657 -0.546255 -0.832634 -0.0912473
-4.15792 58.0111 -51.6761 -0.546191 -0.832677 -0.0912402
-2.99655 57.2924 -51.2205 -0.497772 -0.864001 -0.0756626
-1.9389 56.6175 -50.7129 -0.47456 -0.872551 -0.11079
-0.63698 55.923 -50.4047 -0.45457 -0.8857 -0.0943465
0.636012 55.2562 -50.0516 -0.425427 -0.899913 -0.0957555
1.86401 54.6475 -49.6864 -0.419536 -0.903369 -0.0889598
2.94888 54.1618 -49.5316 -0.38775 -0.915893 -0.103873
4.08456 53.6752 -49.3409 -0.377568 -0.920867 -0.0971892
5.05701 53.2671 -49.1931 -0.359629 -0.927697 -0.0995896
6.85751 52.6138 -49.406 -0.349567 -0.931958 -0.0962085
7.88911 52.231 -49.353 -0.324475 -0.940782 -0.0981787
9.61548 51.6607 -49.5651 -0.322897 -0.941476 -0.0967476
10.6666 51.3114 -49.5751 -0.305919 -0.946385 -0.103773
12.3487 50.7844 -49.6649 -0.301604 -0.948099 -0.100709
13.3507 50.4676 -49.5474 -0.2835 -0.953102 -0.10595
14.683 50.0838 -49.631 -0.280846 -0.954142 -0.103624
15.7785 49.7673 -49.6055 -0.27302 -0.955966 -0.107654
16.7985 49.491 -49.6684 -0.264491 -0.958872 -0.102999
17.8076 49.217 -49.6334 -0.251061 -0.961982 -0.107512
18.9961 48.9267 -49.8101 -0.252373 -0.961473 -0.108969
20.4467 48.559 -49.8457 -0.241934 -0.964104 -0.10941
21.41 48.3424 -50.0731 -0.242397 -0.964069 -0.108694
22.8396 48.0105 -50.2423 -0.232422 -0.966721 -0.106915
23.8582 47.764 -50.2282 -0.233553 -0.966618 -0.105366
25.0046 47.4227 -49.6235 -0.228501 -0.966893 -0.1136
25.6697 47.1054 -48.2652 -0.228903 -0.966209 -0.118444
26.0341 46.8258 -46.7249 -0.227283 -0.966282 -0.121004
25.9379 46.7001 -45.5879 -0.22675 -0.965305 -0.129457
24.9868 46.7943 -44.6352 -0.226148 -0.964668 -0.135133
23.9301 47.0202 -44.4387 -0.235309 -0.962407 -0.135643
22.0605 47.4766 -44.4507 -0.234166 -0.962899 -0.134132
20.9639 47.7618 -44.5094 -0.245791 -0.960413 -0.131126
19.4914 48.1545 -44.6098 -0.247679 -0.959713 -0.132688
18.4897 48.4382 -44.7538 -0.254574 -0.9584 -0.129081
17.1666 48.7467 -44.4252 -0.261419 -0.956699 -0.127875
16.0225 49.0152 -44.0442 -0.266117 -0.955692 -0.125835
14.9795 49.2568 -43.6734 -0.266119 -0.955678 -0.125936
13.909 49.4843 -43.0908 -0.280084 -0.949313 -0.142682
13.0564 49.6418 -42.4649 -0.28008 -0.949312 -0.142694
11.9638 49.8109 -41.3047 -0.292516 -0.944893 -0.146616
11.3665 49.8106 -40.2006 -0.288576 -0.944601 -0.156375
10.8079 49.8264 -39.2651 -0.288596 -0.944597 -0.156361
10.1915 49.8675 -38.3861 -0.287373 -0.942146 -0.172471
9.88797 49.7314 -37.1135 -0.29229 -0.941039 -0.170328
9.54221 49.587 -35.7224 -0.2923 -0.941025 -0.170392
9.17235 49.4383 -34.3877 -0.288377 -0.938179 -0.191463
8.79917 49.306 -33.1687 -0.291091 -0.936878 -0.193681
8.29371 49.2344 -32.0827 -0.289537 -0.936245 -0.199015
7.70334 49.1304 -30.7435 -0.279816 -0.939989 -0.195252
7.44584 48.9582 -29.612 -0.268781 -0.93997 -0.210271
6.97227 48.7889 -28.2499 -0.26877 -0.939976 -0.210255
6.644 48.6543 -27.2609 -0.263619 -0.939076 -0.220546
6.25278 48.5416 -26.3137 -0.26362 -0.939075 -0.22055
5.72549 48.4386 -25.2761 -0.26092 -0.936846 -0.232895
5.5725 48.238 -24.2979 -0.259108 -0.937177 -0.233579
4.87342 47.8391 -22.0454 -0.252104 -0.934535 -0.251174
4.39736 47.6731 -20.9171 -0.235143 -0.942473 -0.237596
4.31627 47.4272 -19.9073 -0.21985 -0.941033 -0.257143
3.9622 47.1473 -18.5798 -0.219908 -0.941018 -0.257147
3.59852 46.8992 -17.3579 -0.219759 -0.941316 -0.256185
3.12524 46.5299 -15.6804 -0.206637 -0.940858 -0.268491
2.90944 46.2006 -14.3287 -0.203969 -0.943659 -0.260585
2.68417 45.8187 -12.8513 -0.191054 -0.942586 -0.273916
2.51415 45.572 -11.8574 -0.188269 -0.945326 -0.266297
2.16173 45.211 -10.3812 -0.175166 -0.944079 -0.279343
1.89835 44.9367 -9.25347 -0.172393 -0.947695 -0.268617
1.68356 44.6719 -8.18149 -0.163763 -0.94735 -0.274946
1.43167 44.2684 -6.64763 -0.150054 -0.95129 -0.269275
1.14455 43.9723 -5.4349 -0.14524 -0.951902 -0.269778
0.763091 43.7067 -4.305 -0.144492 -0.951265 -0.272426
0.620123 43.431 -3.26908 -0.128151 -0.95164 -0.279089
0.579398 43.0768 -2.00907 -0.114858 -0.955564 -0.271486
0.465078 42.7448 -0.792146 -0.114142 -0.955222 -0.272982
0.387819 42.4241 0.387855 -0.102783 -0.958485 -0.265974
0.443553 42.0554 1.68165 -0.103643 -0.957174 -0.270324
0.477256 41.6973 2.92722 -0.102128 -0.956566 -0.27304
0.682725 41.2788 4.37438 -0.0934084 -0.960674 -0.261497
0.803484 40.9514 5.51247 -0.084341 -0.960465 -0.26524
0.99754 40.6605 6.52612 -0.0800131 -0.962064 -0.260827
1.14285 40.3623 7.57792 -0.0794363 -0.961486 -0.263126
1.33001 40.0633 8.62489 -0.066852 -0.966382 -0.248269
1.56469 39.7586 9.74633 -0.0670038 -0.966306 -0.248522
1.72278 39.3757 11.1362 -0.0454656 -0.966311 -0.252789
1.7823 39.1259 12.1469 -0.0408771 -0.970535 -0.237468
1.85769 38.8432 13.2791 -0.053546 -0.969086 -0.240843
2.25741 38.4774 14.6885 -0.0434856 -0.969532 -0.241074
2.68254 38.1328 16.0812 -0.0367919 -0.974355 -0.221988
3.14999 37.8453 17.246 -0.0416628 -0.973422 -0.225199
3.57423 37.5962 18.2637 -0.0306928 -0.976315 -0.214164
4.02794 37.366 19.2312 -0.0292392 -0.974901 -0.22071
4.45813 37.0886 20.3868 -0.0416882 -0.97353 -0.224723
5.17747 36.8938 21.1795 -0.0282302 -0.978917 -0.202271
5.58779 36.6105 22.5125 -0.0284863 -0.979511 -0.199366
5.61356 36.3168 23.8518 0.00699229 -0.978599 -0.204646
5.3171 36.085 25.0555 0.00255013 -0.981518 -0.191355
4.91643 35.8799 26.0748 0.0172866 -0.978261 -0.206656
4.39556 35.6749 27.0039 0.0173893 -0.979383 -0.201263
4.044 35.4181 28.2227 0.0173964 -0.979371 -0.201319
3.47898 35.1579 29.3527 0.052395 -0.973408 -0.222569
2.97968 34.9101 30.2699 0.0730464 -0.976232 -0.204045
2.64948 34.6401 31.4423 0.0729545 -0.9762 -0.204232
2.33365 34.3068 32.7197 0.0972345 -0.966813 -0.236258
2.22972 34.0685 33.7144 0.104047 -0.97005 -0.219493
2.44056 33.8028 34.9449 0.117477 -0.965348 -0.233023
2.73328 33.5949 35.9598 0.117386 -0.965644 -0.231844
2.84077 33.314 37.1846 0.128454 -0.968344 -0.212899
3.66172 33.0888 38.878 0.140802 -0.969907 -0.198631
4.30756 32.987 39.8531 0.145733 -0.970127 -0.193946
5.29938 32.9196 40.8972 0.151902 -0.962538 -0.224389
6.8111 32.8752 42.1229 0.129816 -0.968967 -0.206541
7.85356 32.803 43.064 0.098219 -0.978027 -0.183891
8.8586 32.7923 43.6528 0.0974805 -0.982385 -0.159425
9.81103 32.7739 44.3488 0.0974822 -0.982385 -0.159428
10.6956 32.7005 45.3115 0.103014 -0.978274 -0.179852
11.4547 32.5337 46.546 0.0784602 -0.979711 -0.184421
11.5261 32.354 47.5359 0.080259 -0.980493 -0.17942
11.4034 32.151 48.5903 0.084161 -0.979779 -0.181469
10.7827 31.8949 49.4711 0.131964 -0.958944 -0.251022
10.1922 31.6137 50.3774 0.127575 -0.969829 -0.207743
9.63185 31.3601 51.2175 0.15857 -0.962171 -0.218974
8.79281 30.9732 52.1317 0.18938 -0.954542 -0.230186
8.33638 30.6534 53.0597 0.191092 -0.952991 -0.235144
7.80758 30.2883 54.1096 0.191037 -0.952981 -0.235226
7.27936 29.9215 55.0195 0.25123 -0.937014 -0.242668
6.85485 29.5615 55.9702 0.251232 -0.937012 -0.242674
6.25595 29.0631 57.025 0.285113 -0.914445 -0.287228
5.93458 28.6544 58.0288 0.29006 -0.9159 -0.277474
5.671 28.0951 59.5707 0.292792 -0.913712 -0.281786
5.48961 27.714 60.6123 0.281391 -0.913402 -0.294134
5.9099 27.4904 61.7719 0.315741 -0.902616 -0.292561
6.25564 27.2133 62.9999 0.31855 -0.904169 -0.28448
6.91767 26.9716 64.4873 0.271969 -0.919092 -0.285136
7.45078 26.869 65.3361 0.273813 -0.91963 -0.281615
8.17524 26.8275 66.1761 0.273813 -0.919631 -0.281612
8.91103 26.8077 66.9203 0.255602 -0.931377 -0.259239
10.1663 26.912 67.7834 0.255601 -0.931381 -0.259226
10.9905 26.9213 68.5131 0.230345 -0.935699 -0.267224
9.94244 26.4724 69.0159 0.285051 -0.915239 -0.284752
8.85657 26.0826 69.1819 0.289962 -0.913457 -0.285465
7.70106 25.6422 69.3944 0.294798 -0.911668 -0.28628
6.53578 25.1455 69.6329 0.346546 -0.887057 -0.305017
4.86886 24.2684 70.2685 0.378384 -0.876377 -0.296948
3.9532 23.7483 70.5537 0.398635 -0.869532 -0.291554
3.05029 23.2693 70.7478 0.39861 -0.869552 -0.291528
2.08883 22.7117 71.0808 0.404394 -0.866496 -0.292659
0.546969 21.8566 71.4818 0.408512 -0.866081 -0.28807
-0.495689 21.2415 71.7579 0.435529 -0.858094 -0.272009
-1.52544 20.6889 71.8522 0.435486 -0.858123 -0.271987
-2.52248 20.1805 71.8133 0.447275 -0.85074 -0.276018
-3.69645 19.3688 72.3848 0.459932 -0.847292 -0.26563
-4.65533 18.7873 72.5778 0.460227 -0.847091 -0.265759
-5.60643 18.1896 72.85 0.46018 -0.850437 -0.254933
-6.60905 17.4088 73.6746 0.455404 -0.853576 -0.253012
-8.14607 16.3132 74.6485 0.452421 -0.859164 -0.239065
-9.13333 15.8713 74.368 0.452376 -0.859187 -0.239071
-9.96692 15.7424 73.2141 0.461684 -0.854656 -0.237509
-10.497 15.6964 72.3062 0.47479 -0.852358 -0.219228
-11.5532 15.467 70.9797 0.472859 -0.848328 -0.238211
-12.5695 15.1322 70.1745 0.461717 -0.846718 -0.26436
-13.4593 14.8063 69.6643 0.450769 -0.853911 -0.259709
-14.9217 14.2405 69.0373 0.443381 -0.860021 -0.25254
-16.3239 13.6445 68.5441 0.435361 -0.868459 -0.236642
-17.2284 13.2271 68.4751 0.425468 -0.870815 -0.246288
-18.3783 12.6261 68.614 0.425412 -0.870856 -0.246241
-19.6588 11.9543 68.788 0.417808 -0.875357 -0.243167
-20.5992 11.5468 68.662 0.412779 -0.879013 -0.23864
-21.5939 11.2224 68.1245 0.402334 -0.879013 -0.254898
-22.6414 11.0036 67.337 0.388696 -0.881259 -0.268861
-23.9646 10.8927 65.9356 0.356876 -0.888842 -0.287402
-24.762 10.8424 65.1238 0.337705 -0.898724 -0.279732
-25.7454 10.736 64.3645 0.320194 -0.893716 -0.31424
-26.6623 10.8505 63.1043 0.320212 -0.893733 -0.314173
-26.6231 11.214 62.1109 0.319398 -0.893924 -0.314461
-26.1237 11.9386 60.7113 0.323841 -0.881206 -0.344388
-25.3422 12.6046 59.7423 0.323818 -0.8812 -0.344423
-24.738 13.166 58.9635 0.332848 -0.867744 -0.369092
-24.065 13.817 58.0427 0.333598 -0.867747 -0.36841
-23.4357 14.3318 57.3977 0.333327 -0.868168 -0.367666
-22.6786 14.9709 56.5977 0.350845 -0.856464 -0.378601
-22.1729 15.6347 55.5482 0.352784 -0.858166 -0.372954
-21.3906 16.4486 54.5758 0.382545 -0.831697 -0.402417
-21.1498 17.1016 53.4751 0.378764 -0.828587 -0.412287
-20.698 17.8075 52.4374 0.373235 -0.835134 -0.404038
-20.0122 18.5252 51.5781 0.36524 -0.840188 -0.400827
-19.1088 19.2741 50.817 0.380064 -0.833327 -0.400945
-18.3246 19.8384 50.4501 0.385213 -0.815333 -0.432254
-17.6251 20.5008 49.8056 0.38068 -0.822267 -0.423037
-16.7083 21.5433 48.6546 0.414637 -0.811847 -0.411073
-16.0059 22.251 47.9507 0.411563 -0.815615 -0.406679
-15.4274 23.0198 47.0123 0.404614 -0.814582 -0.415608
-14.6621 23.9393 45.9409 0.401996 -0.816795 -0.413818
-13.9442 24.5214 45.4892 0.401469 -0.816878 -0.414164
-12.5968 25.6174 44.5375 0.39702 -0.831443 -0.388688
-11.3477 26.6334 43.6402 0.396782 -0.831547 -0.388708
-10.5013 27.2757 43.0335 0.366015 -0.852764 -0.37229
-9.7509 27.894 42.3817 0.362875 -0.847863 -0.386587
-8.94505 28.4384 41.944 0.362906 -0.847845 -0.386598
-8.19443 29.1859 40.8122 0.323195 -0.8742 -0.362382
-7.42496 29.8085 39.9961 0.300412 -0.886807 -0.350002
-6.42919 30.5608 38.8123 0.277718 -0.899252 -0.337962
-5.71694 31.0178 38.2008 0.286182 -0.9054 -0.31284
-4.94229 31.5181 37.416 0.267992 -0.90892 -0.319443
-4.1666 32.0084 36.6718 0.267821 -0.909012 -0.319326
-3.32051 32.4608 35.9358 0.226298 -0.9276 -0.297233
-2.5902 32.8363 35.311 0.226709 -0.928933 -0.292723
-2.01711 33.4019 33.8058 0.206148 -0.94058 -0.269837
-1.8837 33.8117 32.3681 0.163676 -0.952794 -0.255724
-2.1405 34.0529 31.3724 0.158537 -0.948895 -0.272881
-2.7623 34.2796 30.1818 0.132439 -0.956803 -0.258549
-3.60318 34.4062 29.2732 0.154906 -0.951436 -0.266033
-4.45072 34.4945 28.4637 0.144362 -0.948857 -0.2802
-5.23995 34.6631 27.5631 0.13382 -0.946277 -0.294367
-5.95812 34.8137 26.7237 0.170655 -0.938929 -0.298812
-6.95423 34.9759 25.7997 0.134871 -0.942746 -0.305024
-7.90323 35.1069 24.9751 0.130689 -0.941238 -0.311339
-8.72923 35.2781 24.1427 0.122098 -0.940115 -0.318238
-9.28736 35.4907 23.3003 0.122102 -0.940117 -0.318231
-10.128 35.7157 22.3368 0.118252 -0.938011 -0.325811
-10.924 35.9467 21.3685 0.154081 -0.931725 -0.328858
-11.7009 36.0883 20.7109 0.119439 -0.927376 -0.354554
-12.7581 36.2774 19.86 0.11769 -0.927167 -0.355677
-13.633 36.4814 19.0468 0.115773 -0.926869 -0.357086
-14.5367 36.8471 17.804 0.106129 -0.927982 -0.357172
-15.2502 37.1673 16.7525 0.109866 -0.927611 -0.357026
-15.6032 37.5519 15.6776 0.0935691 -0.920892 -0.378422
-16.0844 37.9115 14.6629 0.0882415 -0.928681 -0.360229
-16.3764 38.2682 13.6871 0.0755596 -0.923287 -0.376605
-16.7952 38.758 12.3727 0.0706849 -0.929586 -0.361765
-17.1936 39.0946 11.4487 0.06454 -0.92868 -0.365217
-17.203 39.6551 10.0327 0.0529861 -0.927176 -0.370859
-17.4924 40.2573 8.51826 0.0451248 -0.926769 -0.372911
-17.5124 40.7045 7.41434 0.0304211 -0.923959 -0.38128
-17.8791 41.3179 5.89731 0.0225673 -0.925968 -0.376926
-17.973 41.7217 4.89976 0.0152319 -0.923345 -0.38353
-18.5061 42.174 3.82702 0.0078609 -0.919056 -0.394049
-18.8488 42.5786 2.87659 0.0078569 -0.91906 -0.394039
-19.0554 42.9927 1.88707 -0.012564 -0.92452 -0.38092
-19.6082 43.4522 0.851151 -0.0198781 -0.916895 -0.398633
-20.0012 43.9528 -0.28086 -0.0241505 -0.913812 -0.405329
-20.6021 44.3662 -1.15259 -0.0285921 -0.910684 -0.412113
-21.2598 44.8193 -2.10863 -0.0466784 -0.907439 -0.417555
-21.9992 45.1809 -2.80067 -0.0511519 -0.906541 -0.419008
-22.8616 45.7005 -3.81958 -0.0525266 -0.902533 -0.427304
-23.6493 46.0352 -4.39559 -0.0456817 -0.890203 -0.453269
-24.6571 46.5232 -5.25235 -0.0488128 -0.889554 -0.454203
-25.7275 47.1787 -6.35094 -0.0576894 -0.87827 -0.474673
-26.2807 47.7042 -7.25601 -0.0573557 -0.878235 -0.474778
-27.1078 48.2504 -8.08593 -0.0756425 -0.865474 -0.49521
-27.8418 48.8339 -8.99365 -0.0885614 -0.859637 -0.502912
-28.2709 49.3764 -9.81535 -0.101506 -0.853762 -0.510673
-28.6857 49.997 -10.7479 -0.101416 -0.845865 -0.523666
-29.3617 50.8405 -11.9358 -0.120145 -0.837707 -0.532731
-29.5998 51.8064 -13.3431 -0.129917 -0.815683 -0.563682
-29.2664 52.7237 -14.7404 -0.135661 -0.813069 -0.566141
-28.9893 53.4169 -15.7365 -0.159795 -0.796085 -0.583707
-28.7956 54.1591 -16.8018 -0.159838 -0.796093 -0.583685
-29.1263 55.2889 -18.0741 -0.16914 -0.754967 -0.633574
-0.504786 33.1594 35.7104 0.187088 -0.949134 -0.253266
-1.17115 32.7437 36.6976 0.214041 -0.933079 -0.288555
-1.96878 32.2357 37.6753 0.22845 -0.927602 -0.295575
-2.80148 31.7705 38.5144 0.249598 -0.923476 -0.290257
-3.61865 31.2973 39.2155 0.269095 -0.914216 -0.30298
-4.58291 30.7369 40.0512 0.286182 -0.9054 -0.312839
-5.47875 30.154 40.8304 0.304041 -0.897146 -0.32045
-6.29253 29.5876 41.6439 0.304042 -0.897146 -0.32045
-7.08314 28.902 42.5677 0.349382 -0.86989 -0.348172
-7.85907 28.2651 43.4087 0.366544 -0.864978 -0.342078
-8.63813 27.6419 44.0761 0.375195 -0.856018 -0.35555
-9.51714 26.9361 44.8599 0.382819 -0.844594 -0.37353
-10.2441 26.3454 45.3819 0.396544 -0.831652 -0.388725
-11.0493 25.7466 45.8446 0.406471 -0.828886 -0.384227
-11.9877 24.937 46.5884 0.396783 -0.827381 -0.397498
-12.7022 24.3275 47.1096 0.414629 -0.81053 -0.413672
-13.5078 23.5878 47.7515 0.407785 -0.813746 -0.414092
-14.1068 22.85 48.6458 0.400205 -0.821027 -0.407125
-14.6643 22.0167 49.7781 0.405884 -0.818321 -0.406901
-15.7651 20.9877 50.7156 0.417505 -0.814589 -0.402659
-16.6201 20.1732 51.4769 0.417506 -0.814588 -0.402659
-17.4593 19.401 52.2048 0.408145 -0.822004 -0.397149
-18.2406 18.6872 52.8709 0.392699 -0.828977 -0.397813
-19.0328 17.8421 53.911 0.377716 -0.838192 -0.393401
-19.5783 16.9996 55.1802 0.383517 -0.834038 -0.396535
-20.0818 16.2896 56.1662 0.389293 -0.830184 -0.399056
-20.6903 15.5513 57.1604 0.380052 -0.845725 -0.374426
-21.1644 14.9799 58.0081 0.362902 -0.86229 -0.353212
-21.7768 14.4403 58.696 0.365171 -0.864104 -0.346292
-22.3984 13.903 59.3849 0.360257 -0.866624 -0.34503
-23.4466 13.0728 60.4133 0.349564 -0.870509 -0.346437
-24.0524 12.5366 61.1811 0.341153 -0.878405 -0.334627
-24.3389 11.9871 62.3473 0.33527 -0.883179 -0.327966
-23.7333 11.783 63.562 0.35589 -0.881899 -0.309186
-22.4093 11.8974 64.7598 0.356383 -0.88537 -0.298295
-21.1995 12.1061 65.7832 0.391217 -0.881179 -0.265466
-20.2598 12.3324 66.4168 0.40729 -0.876812 -0.254802
-19.163 12.8 66.6478 0.423364 -0.872445 -0.244138
-18.043 13.3646 66.5909 0.423754 -0.870516 -0.25021
-16.8953 13.9391 66.5114 0.419086 -0.872151 -0.252429
-15.8604 14.3988 66.6536 0.441107 -0.859369 -0.258284
-14.8333 14.8221 67.09 0.458181 -0.854929 -0.24324
-13.9519 15.1708 67.5248 0.458182 -0.854929 -0.24324
-12.7554 15.6566 68.089 0.461415 -0.853375 -0.242586
-11.6019 16.0781 68.7634 0.46381 -0.850051 -0.249479
-10.7573 16.3523 69.4265 0.470301 -0.846658 -0.248973
-9.70807 16.6418 70.4725 0.47467 -0.846351 -0.241617
-8.94921 16.8409 71.2771 0.475059 -0.84476 -0.246273
-7.69798 17.4039 71.6858 0.462906 -0.847243 -0.260572
-6.82015 17.9966 71.318 0.462906 -0.847243 -0.260572
-5.51305 18.865 70.8292 0.465252 -0.845752 -0.261235
-4.62092 19.4719 70.4552 0.46846 -0.841242 -0.269872
-3.63452 20.1202 70.1276 0.459213 -0.842604 -0.281322
-2.57837 20.7574 69.9434 0.45561 -0.845119 -0.279591
-1.40992 21.4412 69.7581 0.444767 -0.849449 -0.283773
-0.24054 22.1347 69.4863 0.42508 -0.858465 -0.286581
0.700778 22.6491 69.2856 0.412631 -0.865665 -0.283477
2.10734 23.4494 68.9664 0.407349 -0.859536 -0.308307
2.96999 23.9407 68.6885 0.394635 -0.866272 -0.306326
4.35577 24.7276 68.2594 0.378383 -0.876376 -0.29695
5.42436 25.2553 67.9535 0.354417 -0.889541 -0.28828
6.32204 25.827 67.293 0.335593 -0.898184 -0.283174
5.89811 26.0558 66.1501 0.337629 -0.887397 -0.313899
5.22221 26.1851 65.0437 0.341582 -0.888601 -0.30612
4.44944 26.3834 63.606 0.349723 -0.885172 -0.306735
4.06076 26.6521 62.2265 0.362671 -0.891235 -0.272342
3.81035 26.9419 60.9447 0.356465 -0.887339 -0.291774
3.74434 27.3461 59.7229 0.350261 -0.883441 -0.311206
3.92791 27.8814 58.2796 0.326644 -0.903932 -0.276031
4.26619 28.4062 56.9449 0.328436 -0.904411 -0.272343
4.58913 28.8662 55.8523 0.334194 -0.899841 -0.280359
4.98127 29.3255 54.862 0.307706 -0.915006 -0.25756
5.46659 29.6975 53.9425 0.271729 -0.934935 -0.227672
6.0288 30.0831 52.9966 0.25806 -0.938173 -0.230727
6.5153 30.4289 52.15 0.251629 -0.935501 -0.248036
7.02765 30.8188 51.1993 0.234716 -0.943823 -0.231234
7.77979 31.2333 50.1224 0.217803 -0.952145 -0.214433
8.52554 31.6496 49.0981 0.195349 -0.952826 -0.231236
9.13921 32.0683 47.6874 0.129709 -0.967663 -0.216341
8.89315 32.2567 46.6929 0.103011 -0.978274 -0.179852
8.22281 32.3237 45.791 0.163382 -0.9677 -0.191998
7.24068 32.3219 44.9517 0.171201 -0.966866 -0.189368
6.39164 32.3173 44.2555 0.158697 -0.965692 -0.205557
5.0187 32.2922 43.3136 0.185462 -0.956977 -0.220844
4.10687 32.3196 42.5061 0.209969 -0.938408 -0.274414
3.31523 32.3722 41.7203 0.226483 -0.937368 -0.263939
2.61605 32.4137 40.8968 0.243 -0.936326 -0.253465
1.81471 32.5281 39.6286 0.203643 -0.948611 -0.241697
1.21297 32.798 38.122 0.18849 -0.950858 -0.245642
0.834814 33.0741 36.9528 0.167771 -0.945789 -0.277585
0.464983 33.2595 36.0516 0.187089 -0.949134 -0.253263
22.8547 47.7717 -48.2086 -0.236107 -0.964816 -0.115685
21.7146 48.0361 -48.111 -0.239884 -0.963362 -0.119797
20.5718 48.2513 -47.4956 -0.245882 -0.961806 -0.120294
19.2985 48.5313 -47.1234 -0.250529 -0.960606 -0.120235
18.2429 48.8644 -47.5704 -0.251498 -0.960872 -0.11608
17.4605 48.9598 -46.632 -0.25738 -0.959241 -0.116644
18.6409 48.6768 -46.8973 -0.253999 -0.959542 -0.121504
20.3381 48.1724 -46.3807 -0.247064 -0.961668 -0.118968
21.5407 47.8795 -46.5033 -0.239884 -0.963361 -0.119799
22.8038 47.5379 -46.2426 -0.23728 -0.96339 -0.124812
23.4578 47.5019 -47.2074 -0.235581 -0.964154 -0.122057
22.9799 47.7258 -48.0817 -0.234994 -0.964868 -0.11749
-23.1883 12.5506 62.0356 0.345105 -0.875685 -0.337754
-21.1363 12.6306 64.1551 0.378853 -0.879498 -0.288016
-19.827 12.7758 65.5828 0.40737 -0.876984 -0.254852
-17.275 13.8917 66.0447 0.419086 -0.872151 -0.252429
-19.0361 13.6599 64.0912 0.417306 -0.857639 -0.300519
-20.9538 13.4622 62.0071 0.395573 -0.853908 -0.338175
-22.385 13.442 60.5569 0.360281 -0.866681 -0.345052
-21.338 14.3697 59.3513 0.367438 -0.865918 -0.339374
-19.3746 14.4728 61.4041 0.415238 -0.85227 -0.318141
-17.1577 14.6821 63.799 0.41807 -0.856186 -0.303584
-15.4649 14.9001 65.6766 0.453623 -0.854068 -0.254548
-14.766 15.0299 66.4866 0.455911 -0.854514 -0.248898
-10.3645 16.6303 69.2231 0.472489 -0.846513 -0.245296
-11.7218 16.348 67.6227 0.45937 -0.853418 -0.246288
-13.2479 16.0498 65.8404 0.469836 -0.839289 -0.273584
-14.7046 15.7977 64.1651 0.457846 -0.837132 -0.299312
-16.2929 15.6217 62.4225 0.435355 -0.844293 -0.312466
-18.1601 15.4399 60.3985 0.413926 -0.850934 -0.323383
-19.9522 15.3068 58.4925 0.416626 -0.844097 -0.337525
-20.2147 15.2957 58.2205 0.380074 -0.845774 -0.374446
-19.6656 16.289 56.5734 0.389172 -0.835398 -0.388143
-17.8887 16.3716 58.4203 0.413985 -0.842761 -0.344051
-16.1456 16.4975 60.2732 0.437725 -0.840757 -0.318629
-14.6719 16.6547 61.8844 0.437793 -0.844671 -0.308007
-12.7582 16.9284 64.0409 0.470762 -0.829479 -0.30058
-11.056 17.2316 66.0066 0.469677 -0.841341 -0.267487
-9.4694 17.5439 67.8636 0.478429 -0.840469 -0.254397
-7.82081 17.896 69.8166 0.469228 -0.847112 -0.249451
-7.13755 18.0376 70.6209 0.466076 -0.847195 -0.255018
-5.50299 19.092 70.1214 0.464772 -0.843979 -0.267743
-6.9239 18.8155 68.4651 0.475415 -0.837108 -0.270609
-8.46237 18.505 66.6577 0.488963 -0.831529 -0.263582
-10.2024 18.1703 64.6261 0.47843 -0.833076 -0.277651
-11.6791 17.9331 62.9397 0.461022 -0.83571 -0.298408
-13.2418 17.7061 61.1749 0.462366 -0.832434 -0.305402
-14.7592 17.5167 59.4875 0.437773 -0.840852 -0.318312
-16.3521 17.3742 57.7671 0.417148 -0.843881 -0.337421
-18.1716 17.3011 55.8876 0.391639 -0.83583 -0.384717
-18.4679 17.305 55.5954 0.377743 -0.837892 -0.394015
-17.5933 18.3136 54.2884 0.392764 -0.829113 -0.397879
-15.9762 18.355 55.9387 0.412776 -0.828596 -0.378212
-14.3194 18.4653 57.6934 0.44108 -0.829469 -0.342681
-12.7191 18.6235 59.4383 0.449917 -0.834681 -0.31762
-11.2307 18.8471 61.1307 0.469319 -0.830221 -0.300787
-9.47845 19.1124 63.1163 0.483528 -0.82464 -0.293546
-7.96791 19.3889 64.871 0.490607 -0.825513 -0.278987
-6.35628 19.7 66.7533 0.482871 -0.830819 -0.276723
-4.98537 19.9525 68.3409 0.47123 -0.837061 -0.277977
-3.92258 20.1493 69.5704 0.459213 -0.842604 -0.281322
-2.37186 21.1865 68.9702 0.452007 -0.847634 -0.27786
-4.00163 20.9225 67.1186 0.473557 -0.833013 -0.286066
-5.81014 20.5999 65.0331 0.480812 -0.829589 -0.283904
-7.48828 20.294 63.087 0.486083 -0.823562 -0.29235
-9.14191 20.0187 61.1898 0.48136 -0.818042 -0.3148
-10.6073 19.8051 59.5341 0.473552 -0.819422 -0.32295
-12.2607 19.6119 57.7031 0.467161 -0.812609 -0.348463
-13.738 19.476 56.1002 0.45341 -0.811763 -0.368049
-15.7353 19.3777 54.0163 0.411485 -0.819271 -0.399344
-16.5388 19.3682 53.2078 0.409586 -0.819518 -0.400786
-15.7242 20.4267 51.8932 0.42118 -0.813992 -0.400031
-14.0353 20.4634 53.6103 0.438828 -0.808873 -0.39135
-12.5602 20.5545 55.1685 0.44589 -0.815595 -0.368764
-10.5801 20.7302 57.3111 0.46029 -0.816792 -0.347828
-8.88972 20.941 59.1933 0.478074 -0.817404 -0.321396
-7.09222 21.2106 61.2298 0.482173 -0.817711 -0.314416
-5.26152 21.5192 63.3323 0.482676 -0.82362 -0.297781
-3.50206 21.8216 65.3508 0.471897 -0.830212 -0.296751
-1.88686 22.0695 67.175 0.44997 -0.841068 -0.300219
-0.505745 22.2608 68.7152 0.425126 -0.858558 -0.286612
0.916223 23.2397 67.9303 0.420064 -0.8528 -0.310287
-0.901858 23.0374 65.9489 0.451236 -0.839997 -0.301316
-2.82128 22.7543 63.7927 0.46332 -0.836541 -0.292463
-4.58664 22.4794 61.7925 0.485627 -0.819606 -0.303994
-6.31702 22.2032 59.8196 0.478346 -0.820908 -0.311921
-7.94755 21.9782 57.9897 0.476425 -0.815584 -0.328394
-9.3653 21.8039 56.4135 0.464411 -0.814387 -0.347988
-10.8272 21.67 54.8267 0.45407 -0.814432 -0.361277
-12.3032 21.573 53.2618 0.439367 -0.810734 -0.386869
-13.9512 21.5147 51.5631 0.428609 -0.811078 -0.398053
-14.1417 21.5096 51.3683 0.426729 -0.81223 -0.397724
-13.6585 22.5599 49.7193 0.423965 -0.817924 -0.388914
-12.0054 22.6136 51.4192 0.434002 -0.81093 -0.392473
-10.4523 22.6811 53.0322 0.445855 -0.812367 -0.375864
-8.81131 22.8159 54.7984 0.463025 -0.814217 -0.350225
-7.23854 22.9797 56.5231 0.471874 -0.813387 -0.340199
-5.73417 23.1783 58.2041 0.477211 -0.816846 -0.324086
-3.48788 23.5002 60.7281 0.464929 -0.831122 -0.305086
-1.97991 23.7207 62.423 0.464378 -0.831184 -0.305756
-0.488042 23.9121 64.0726 0.431772 -0.851129 -0.298584
0.932851 24.0784 65.6285 0.420367 -0.854087 -0.306313
2.4746 24.2142 67.2768 0.396073 -0.862186 -0.315849
3.0298 24.2588 67.8659 0.394635 -0.866272 -0.306326
4.90444 25.1962 67.4967 0.346962 -0.887858 -0.302202
3.16805 25.129 65.7114 0.377818 -0.86993 -0.31698
1.58646 24.9832 64.0152 0.419127 -0.852295 -0.312931
0.0326709 24.8011 62.3175 0.432793 -0.849518 -0.301677
-1.86162 24.5782 60.2381 0.451039 -0.840363 -0.300589
-3.73086 24.3157 58.1467 0.455819 -0.833368 -0.312612
-5.64418 24.0871 56.0365 0.453739 -0.826285 -0.333727
-7.09112 23.9388 54.4545 0.453589 -0.818342 -0.35295
-8.62959 23.8063 52.7924 0.451268 -0.81439 -0.364864
-10.1241 23.7127 51.2117 0.434897 -0.817768 -0.376989
-11.8707 23.6402 49.4 0.426436 -0.816942 -0.388275
-12.8359 23.613 48.41 0.423174 -0.816837 -0.392048
-11.683 24.6741 47.4397 0.40475 -0.825393 -0.393577
-10.0053 24.7194 49.1584 0.420818 -0.824009 -0.37937
-8.16626 24.8193 51.0891 0.444609 -0.815903 -0.369629
-6.62466 24.9275 52.7307 0.439747 -0.825158 -0.354593
-5.09678 25.0577 54.3775 0.45374 -0.826284 -0.333728
-3.25651 25.241 56.3765 0.432191 -0.839606 -0.329048
-1.50759 25.4517 58.302 0.43437 -0.849526 -0.299379
-0.044013 25.6277 59.9108 0.423966 -0.852655 -0.30534
1.51728 25.7507 61.5721 0.386153 -0.867006 -0.314938
3.2119 25.9344 63.4087 0.368747 -0.883752 -0.288111
4.51581 26.0058 64.7664 0.357867 -0.881741 -0.30735
3.26079 26.6806 61.0678 0.356541 -0.88753 -0.291837
1.76377 26.5986 59.5048 0.375867 -0.875464 -0.303788
0.212488 26.4689 57.851 0.389308 -0.876465 -0.283282
-1.75213 26.2661 55.7194 0.428264 -0.840768 -0.331207
-3.34909 26.1215 53.9986 0.436165 -0.837445 -0.329311
-5.04787 25.9898 52.1834 0.429944 -0.834451 -0.344732
-6.50653 25.887 50.6312 0.431257 -0.830882 -0.351643
-8.14262 25.7947 48.9115 0.416554 -0.835016 -0.359487
-10.2621 25.7237 46.7267 0.406491 -0.828928 -0.384245
-10.3688 25.7216 46.6181 0.412683 -0.823338 -0.389625
-9.13046 26.7367 45.691 0.404624 -0.833174 -0.376962
-7.43544 26.7853 47.4315 0.410156 -0.833998 -0.36908
-5.73494 26.8543 49.1957 0.400923 -0.852496 -0.335427
-4.23963 26.9557 50.7808 0.416132 -0.843784 -0.338913
-2.25835 27.0912 52.88 0.400344 -0.857695 -0.32262
-0.526998 27.2134 54.7156 0.373883 -0.872368 -0.314937
0.936083 27.3126 56.2597 0.390812 -0.872408 -0.293549
3.09843 27.495 58.5625 0.344532 -0.899331 -0.269262
3.14447 27.4973 58.6103 0.326646 -0.90394 -0.276034
3.2891 28.2286 56.3563 0.344531 -0.899331 -0.269263
1.60249 28.1436 54.6025 0.336966 -0.893683 -0.296283
0.124136 28.071 53.0629 0.367857 -0.879349 -0.302367
-1.73794 27.984 51.124 0.394232 -0.860042 -0.323896
-3.20188 27.8953 49.5862 0.388552 -0.865849 -0.315171
-4.79782 27.8011 47.9094 0.400924 -0.852495 -0.335428
-6.72605 27.7339 45.9173 0.385487 -0.853074 -0.351659
-7.64573 27.7128 44.9771 0.381296 -0.8545 -0.352764
-7.05034 28.625 43.3164 0.351793 -0.875455 -0.331392
-5.1769 28.6433 45.215 0.342924 -0.880366 -0.327656
-3.34009 28.7025 47.1068 0.363224 -0.87876 -0.309595
-1.87497 28.7818 48.6379 0.346683 -0.888991 -0.299176
-0.194806 28.8565 50.3811 0.340312 -0.897374 -0.280905
1.37434 28.9234 52.0096 0.293405 -0.917606 -0.268166
3.08578 28.9795 53.7681 0.336964 -0.893684 -0.296282
4.34833 29.0275 55.0675 0.329273 -0.898782 -0.289431
4.72709 29.6948 53.0163 0.278541 -0.929591 -0.241402
2.96893 29.6624 51.2253 0.293405 -0.917606 -0.268167
1.36043 29.662 49.6012 0.279493 -0.920466 -0.273177
-0.559038 29.6314 47.6485 0.342295 -0.888898 -0.304458
-2.5655 29.5241 45.557 0.328423 -0.900417 -0.285284
-4.06993 29.5001 44.0258 0.301108 -0.902207 -0.308798
-5.40015 29.5141 42.6965 0.301795 -0.897453 -0.32171
-4.63435 30.3323 41.1322 0.301794 -0.897453 -0.32171
-2.90158 30.2922 42.851 0.300336 -0.900006 -0.315893
-0.812493 30.3318 44.9819 0.28483 -0.920335 -0.26806
1.03777 30.3772 46.8709 0.288185 -0.919385 -0.267731
2.77576 30.3621 48.6134 0.270365 -0.923856 -0.27091
4.65842 30.3509 50.5068 0.253606 -0.929777 -0.266831
5.705 30.3649 51.5693 0.257184 -0.934287 -0.246908
6.52703 30.9877 49.9408 0.213472 -0.949273 -0.230888
4.90223 31.0163 48.317 0.234895 -0.941474 -0.241767
2.99771 31.031 46.4064 0.245051 -0.938261 -0.244164
1.3469 31.0605 44.7604 0.261791 -0.930169 -0.257394
-0.583302 31.0356 42.803 0.285712 -0.916097 -0.28131
-2.84513 31.0826 40.5535 0.269602 -0.913802 -0.303777
-2.90872 31.0846 40.4908 0.269653 -0.91398 -0.303197
-2.06458 31.8222 38.9495 0.229494 -0.932795 -0.277897
-0.50319 31.7483 40.4812 0.228603 -0.935234 -0.270329
1.55277 31.6987 42.5225 0.241898 -0.936701 -0.253134
3.06186 31.6814 44.031 0.221101 -0.944316 -0.243681
5.0048 31.6422 45.966 0.21605 -0.951453 -0.219225
7.42861 31.594 48.383 0.209077 -0.94612 -0.247274
7.60226 31.5875 48.5549 0.209077 -0.94612 -0.247274
7.95624 32.1434 46.423 0.18078 -0.958955 -0.218458
6.35714 32.1879 44.8369 0.16496 -0.966329 -0.197474
-0.291793 35.0421 28.5178 0.101144 -0.9662 -0.237122
-1.40076 35.1899 27.4503 0.0998562 -0.966222 -0.237578
-2.40123 35.3474 26.4957 0.0892699 -0.958946 -0.269172
-3.16986 35.4817 25.7681 0.0879406 -0.95888 -0.269842
-3.99471 35.6174 24.9841 0.122227 -0.948025 -0.293785
-4.74818 35.748 24.2707 0.101291 -0.956598 -0.273239
-6.01853 35.9789 23.0704 0.0985417 -0.949959 -0.296426
-7.09265 36.1721 22.0455 0.110559 -0.949154 -0.29476
-7.13143 36.179 22.0085 0.107695 -0.947454 -0.301219
-13.2638 38.4131 13.9223 0.0732891 -0.93623 -0.34366
-10.8638 37.8186 16.1457 0.0734555 -0.938731 -0.336732
-8.69416 37.3001 18.1462 0.0790086 -0.943705 -0.321213
-6.27048 36.7674 20.4082 0.0749914 -0.958359 -0.275543
-4.03909 36.3204 22.5075 0.0747511 -0.958492 -0.275146
-1.44614 35.8554 24.9607 0.0654449 -0.966361 -0.248723
1.19552 35.4426 27.4827 0.0511682 -0.977074 -0.206659
1.63021 35.903 25.4157 0.0512093 -0.977008 -0.206962
-0.792982 36.3786 23.1279 0.0570394 -0.966684 -0.249538
-3.1201 36.8309 20.9365 0.044281 -0.96523 -0.257623
-5.9283 37.4415 18.312 0.0642416 -0.94465 -0.321728
