-11.4799 42.3867 4.77193 -0.0182502 -0.939671 -0.341594
-13.059 41.8853 6.15931 -0.0079991 -0.937554 -0.347748
-13.9884 41.5718 6.97181 0.0146845 -0.932797 -0.360103
-14.6973 41.3129 7.59047 0.0189255 -0.929824 -0.367518
-14.8335 41.7219 6.54862 0.0146845 -0.932797 -0.360103
-13.4651 42.1876 5.35346 0.00122293 -0.936666 -0.350221
-12.0237 42.6453 4.08914 -0.0080391 -0.937209 -0.348674
-10.6356 43.0396 2.8611 -0.0293697 -0.939652 -0.340869
-9.4792 43.35 1.83893 -0.0396394 -0.944088 -0.327303
-8.0861 43.7053 0.600713 -0.0659604 -0.947475 -0.312954
-7.0875 43.9169 -0.289238 -0.0705306 -0.949754 -0.304948
-6.0191 44.1518 -1.2385 -0.0865785 -0.943284 -0.320498
-4.56147 44.4435 -2.55234 -0.092724 -0.945234 -0.312944
-3.47285 44.6369 -3.54292 -0.105784 -0.947303 -0.302369
-2.55057 44.7799 -4.38269 -0.124756 -0.947096 -0.295711
-1.56306 44.9275 -5.28242 -0.144144 -0.945838 -0.290885
-1.20278 45.3295 -6.76171 -0.147708 -0.94474 -0.292658
-2.907 45.0861 -5.21322 -0.124199 -0.94599 -0.299463
-3.80918 44.9484 -4.39142 -0.115496 -0.946761 -0.300506
-5.0408 44.7265 -3.27514 -0.105784 -0.947303 -0.302369
-6.5953 44.4198 -1.87558 -0.0934811 -0.945118 -0.313072
-7.79702 44.1525 -0.808618 -0.0796667 -0.941351 -0.327889
-8.86079 43.9139 0.134895 -0.0813221 -0.941018 -0.328437
-9.93612 43.6368 1.08605 -0.0502578 -0.941855 -0.332239
-10.9666 43.3702 1.9978 -0.0402729 -0.939642 -0.33978
-12.1894 43.0117 3.07184 -0.0293697 -0.939652 -0.340869
-13.278 42.6797 4.02866 -0.0140643 -0.936354 -0.350775
-14.5254 42.2744 5.11904 0.000545972 -0.930013 -0.367526
-15.4839 41.9431 5.9558 0.00675524 -0.929923 -0.367691
-15.5783 42.3682 4.87812 0.0129668 -0.929796 -0.367846
-14.3289 42.7859 3.78721 -0.0140643 -0.936354 -0.350775
-13.0959 43.1789 2.71338 -0.0277663 -0.933123 -0.358484
-12.1575 43.4486 1.88988 -0.0345874 -0.936477 -0.349018
-10.9283 43.7884 0.806391 -0.0528639 -0.938775 -0.34045
-9.84267 44.0799 -0.148709 -0.0564836 -0.936437 -0.34626
-8.62276 44.3682 -1.22409 -0.0829773 -0.940683 -0.328985
-7.35001 44.6523 -2.35215 -0.0865785 -0.943284 -0.320497
-6.4014 44.8431 -3.20355 -0.0955854 -0.941574 -0.322957
-5.2633 45.0622 -4.22702 -0.113664 -0.944555 -0.308052
-4.22297 45.2459 -5.1697 -0.115496 -0.946761 -0.300506
-2.67123 45.4899 -6.56768 -0.12364 -0.944869 -0.30321
-1.56075 45.6395 -7.58201 -0.147708 -0.94474 -0.292658
-0.660129 45.753 -8.41428 -0.163947 -0.944945 -0.283198
-0.599305 46.1107 -9.6308 -0.165674 -0.942288 -0.29094
-1.82238 45.962 -8.49484 -0.148056 -0.945124 -0.29124
-2.77516 45.8401 -7.61653 -0.135686 -0.944886 -0.29796
-3.71453 45.6931 -6.77137 -0.131433 -0.942657 -0.306796
-4.73253 45.5369 -5.85533 -0.123247 -0.941689 -0.3131
-6.31499 45.2542 -4.42771 -0.104632 -0.94313 -0.315529
-7.45579 45.0201 -3.40746 -0.0984024 -0.940957 -0.323909
-8.88832 44.711 -2.13732 -0.0829773 -0.940683 -0.328985
-9.84024 44.5002 -1.2947 -0.0702483 -0.93907 -0.33647
-10.7666 44.2594 -0.483449 -0.0564836 -0.936437 -0.34626
-12.1032 43.9005 0.691221 -0.0471144 -0.933883 -0.354462
-13.2127 43.5782 1.66124 -0.0388921 -0.935654 -0.350769
-14.567 43.1552 2.8405 -0.0166353 -0.930415 -0.366131
-15.4813 42.8605 3.63452 -0.00675968 -0.933246 -0.359175
-15.5578 42.834 3.70127 0.00675676 -0.929922 -0.367694
-15.9461 43.1714 2.88628 -0.0154911 -0.925753 -0.377811
-14.3001 43.6938 1.45961 -0.0222159 -0.929169 -0.368986
-13.0238 44.0724 0.348427 -0.0398565 -0.931928 -0.360447
-11.8956 44.3838 -0.639237 -0.0550217 -0.933792 -0.353559
-10.9241 44.6382 -1.48937 -0.0575037 -0.937251 -0.343881
-9.70722 44.9313 -2.56075 -0.0831641 -0.939017 -0.333664
-8.65419 45.172 -3.48716 -0.0833498 -0.937328 -0.338332
-7.69803 45.368 -4.33908 -0.101219 -0.94033 -0.324861
-6.73854 45.5581 -5.19537 -0.117383 -0.940086 -0.320093
-5.53305 45.7782 -6.27765 -0.115044 -0.940622 -0.319366
-4.25405 45.982 -7.42801 -0.131433 -0.942657 -0.306796
-3.32289 46.1307 -8.26387 -0.140849 -0.939152 -0.313299
-2.20451 46.2802 -9.29416 -0.156846 -0.939854 -0.303438
-1.11447 46.4102 -10.3076 -0.164021 -0.942557 -0.291005
0.112378 46.5307 -11.4532 -0.174709 -0.94402 -0.279827
0.133042 46.5326 -11.4725 -0.174707 -0.94402 -0.279827
0.331121 46.9102 -12.8011 -0.188242 -0.939973 -0.284631
-1.06276 46.7734 -11.5079 -0.180082 -0.938732 -0.293858
-2.03151 46.665 -10.6097 -0.166911 -0.941154 -0.293886
-3.03757 46.5438 -9.67475 -0.152887 -0.940096 -0.304705
-4.0156 46.4065 -8.77909 -0.140849 -0.939152 -0.313299
-5.55162 46.1546 -7.40252 -0.132831 -0.940068 -0.314051
-6.63866 45.9661 -6.42733 -0.11972 -0.939544 -0.320818
-7.92261 45.7238 -5.28202 -0.102514 -0.936329 -0.335826
-9.05953 45.4911 -4.2713 -0.0922908 -0.938889 -0.331618
-10.1221 45.2482 -3.33648 -0.088084 -0.936028 -0.340724
-11.4101 44.939 -2.20667 -0.0702969 -0.933096 -0.352691
-12.5914 44.6308 -1.17282 -0.0556765 -0.931806 -0.358662
-13.9322 44.2523 -0.00577533 -0.0477869 -0.930052 -0.364308
-15.3208 43.8309 1.19373 -0.0276495 -0.927418 -0.373003
-16.3794 43.495 2.11127 -0.0154921 -0.925752 -0.377813
-16.5316 43.4413 2.24174 -0.00318847 -0.923441 -0.383727
-16.5149 43.913 1.07821 -0.0276468 -0.927418 -0.373004
-15.5535 44.2176 0.252982 -0.0275032 -0.926948 -0.374181
-14.5865 44.5117 -0.582058 -0.0476097 -0.92945 -0.365863
-13.5014 44.8232 -1.5203 -0.0601589 -0.930732 -0.360719
-12.3988 45.1208 -2.4803 -0.072246 -0.931082 -0.357584
-11.1735 45.4288 -3.5496 -0.0756246 -0.933669 -0.350061
-9.98961 45.6959 -4.59204 -0.0929374 -0.933487 -0.34636
-8.84592 45.9394 -5.60107 -0.102514 -0.936329 -0.335826
-7.29875 46.2385 -6.97876 -0.11972 -0.939544 -0.320818
-5.59515 46.5368 -8.49951 -0.135743 -0.937086 -0.321626
-4.15126 46.7605 -9.80444 -0.147464 -0.940777 -0.305275
-2.97262 46.9234 -10.8828 -0.168885 -0.93732 -0.30481
-2.0634 47.0326 -11.7245 -0.174672 -0.938003 -0.2994
-0.964118 47.1415 -12.7441 -0.18008 -0.938733 -0.293856
0.52244 47.2617 -14.1388 -0.195882 -0.941176 -0.27535
0.671192 47.2719 -14.2795 -0.197768 -0.938991 -0.281395
0.917601 47.643 -15.66 -0.207373 -0.937616 -0.279058
-0.0466814 47.5699 -14.7522 -0.199648 -0.936763 -0.287428
-0.971126 47.501 -13.8811 -0.199192 -0.93445 -0.295172
-1.91436 47.4071 -13.0065 -0.188975 -0.93353 -0.304647
-3.30786 47.2549 -11.7177 -0.168018 -0.937518 -0.304681
-4.64021 47.0733 -10.4987 -0.151769 -0.935148 -0.3201
-5.61164 46.9245 -9.62034 -0.138835 -0.933556 -0.330452
-6.80934 46.7307 -8.54593 -0.137265 -0.93675 -0.321959
-7.84331 46.5413 -7.62622 -0.122192 -0.933749 -0.336426
-8.7808 46.3616 -6.79572 -0.108737 -0.932174 -0.345294
-10.1671 46.0787 -5.56987 -0.107218 -0.935326 -0.33715
-11.3837 45.8015 -4.50246 -0.0929376 -0.933486 -0.346362
-12.7592 45.4649 -3.3033 -0.0739347 -0.932385 -0.353825
-13.8957 45.1576 -2.31614 -0.0639922 -0.928983 -0.364548
-14.9407 44.8619 -1.41283 -0.0572718 -0.925451 -0.374514
-16.1893 44.4842 -0.340871 -0.0395677 -0.922182 -0.384726
-17.0535 44.2118 0.401081 -0.0360623 -0.922163 -0.385117
-17.5275 44.536 -0.334311 -0.0325545 -0.922134 -0.385498
-16.4099 44.8865 -1.28756 -0.0408956 -0.92401 -0.380174
-15.149 45.2612 -2.36777 -0.0580463 -0.926174 -0.372601
-14.1636 45.5344 -3.21885 -0.0688481 -0.926023 -0.371136
-13.1554 45.8032 -4.08971 -0.0807512 -0.928149 -0.363343
-12.1849 46.0445 -4.93432 -0.0896579 -0.930038 -0.356358
-11.1527 46.2793 -5.83806 -0.0936818 -0.932157 -0.349725
-10.0521 46.5163 -6.80585 -0.110245 -0.92895 -0.35341
-8.8581 46.7599 -7.85642 -0.126521 -0.932793 -0.337476
-7.64419 46.9859 -8.93264 -0.129735 -0.935301 -0.329212
-6.37084 47.2023 -10.0685 -0.140393 -0.930283 -0.338916
-5.25007 47.3737 -11.0801 -0.158389 -0.933671 -0.321204
-4.20156 47.5188 -12.0371 -0.168437 -0.935737 -0.309878
-3.09863 47.6596 -13.0455 -0.178928 -0.933789 -0.309876
-2.11579 47.7579 -13.9564 -0.189479 -0.934078 -0.302647
-1.1493 47.844 -14.8592 -0.208378 -0.93417 -0.289664
-0.235163 47.9081 -15.7233 -0.204015 -0.935478 -0.288548
1.03798 47.9832 -16.9352 -0.217876 -0.935766 -0.27726
1.48505 48.355 -18.5171 -0.230375 -0.935723 -0.267115
0.462374 48.3024 -17.5373 -0.220668 -0.933132 -0.28385
-1.03464 48.2076 -16.114 -0.211771 -0.929675 -0.301425
-2.32532 48.1045 -14.9015 -0.189985 -0.934622 -0.300645
-3.49191 47.9912 -13.8176 -0.178929 -0.933788 -0.309879
-5.08133 47.7951 -12.3627 -0.170899 -0.929025 -0.328185
-5.99913 47.6572 -11.5348 -0.158388 -0.933671 -0.321204
-7.30374 47.45 -10.362 -0.140393 -0.930283 -0.338916
-8.26783 47.2868 -9.50349 -0.138867 -0.926773 -0.34901
-9.26616 47.0933 -8.62519 -0.12652 -0.932793 -0.337476
-10.5265 46.8422 -7.5143 -0.110244 -0.928949 -0.353411
-11.4742 46.6412 -6.68468 -0.107296 -0.926178 -0.361499
-12.9476 46.2965 -5.40006 -0.0896607 -0.930037 -0.35636
-14.1371 45.9941 -4.37062 -0.0764954 -0.928323 -0.363819
-15.4529 45.6317 -3.23705 -0.0614183 -0.923699 -0.378163
-16.8086 45.2342 -2.07903 -0.053568 -0.920058 -0.388103
-17.5375 45.0151 -1.45899 -0.0454972 -0.917938 -0.394105
-18.102 45.3223 -2.10946 -0.0454971 -0.917938 -0.394105
-16.5669 45.7889 -3.41095 -0.0632969 -0.918895 -0.389392
-15.3414 46.1287 -4.46101 -0.0727301 -0.9195 -0.386304
-14.3074 46.4021 -5.35027 -0.0909771 -0.919098 -0.383382
-13.2307 46.6702 -6.27859 -0.100507 -0.924011 -0.368921
-12.1513 46.9274 -7.21701 -0.107294 -0.926178 -0.361501
-10.6122 47.2519 -8.56359 -0.116404 -0.924318 -0.363436
-8.9247 47.5875 -10.0422 -0.130217 -0.924776 -0.357538
-7.33285 47.8554 -11.4597 -0.148693 -0.925643 -0.347958
-5.79055 48.0933 -12.8453 -0.160841 -0.927716 -0.336859
-4.80606 48.2163 -13.7449 -0.180929 -0.930168 -0.319455
-3.70194 48.3468 -14.7579 -0.202011 -0.927629 -0.314159
-2.44913 48.4669 -15.9231 -0.206341 -0.928788 -0.307857
-1.0704 48.5748 -17.2213 -0.211773 -0.929675 -0.301424
0.381417 48.6486 -18.6123 -0.222991 -0.932507 -0.284089
1.35137 48.6855 -19.5516 -0.23322 -0.932962 -0.274208
2.15632 48.711 -20.3346 -0.240211 -0.932308 -0.270369
2.40357 49.0431 -21.745 -0.245864 -0.935299 -0.254493
1.4669 49.0309 -20.825 -0.236716 -0.932643 -0.272292
-0.0737359 48.9837 -19.3235 -0.236919 -0.928443 -0.286118
-1.09881 48.9252 -18.3457 -0.226897 -0.929829 -0.289716
-2.09325 48.8652 -17.3985 -0.210631 -0.929906 -0.301512
-3.28462 48.7705 -16.2788 -0.206341 -0.928788 -0.307857
-4.46461 48.6551 -15.1808 -0.200846 -0.927861 -0.31422
-5.39887 48.5378 -14.3284 -0.182397 -0.925167 -0.332861
-6.61655 48.3736 -13.2228 -0.164612 -0.926711 -0.3378
-7.83041 48.1945 -12.1301 -0.159146 -0.924216 -0.347127
-8.94609 47.9967 -11.1461 -0.148696 -0.925644 -0.347956
-10.1139 47.7828 -10.1142 -0.131242 -0.924556 -0.357732
-11.224 47.5663 -9.14481 -0.125517 -0.922358 -0.365377
-12.4448 47.2945 -8.08487 -0.116401 -0.924319 -0.363436
-13.6572 47.0178 -7.03305 -0.100477 -0.924014 -0.36892
-14.5964 46.795 -6.22371 -0.0909771 -0.919098 -0.383382
-15.9726 46.4257 -5.0446 -0.0722785 -0.918308 -0.389213
-17.0576 46.1232 -4.12008 -0.0632986 -0.918895 -0.389391
-18.4053 45.7102 -2.98028 -0.0624309 -0.914615 -0.399477
-18.6637 45.6338 -2.76174 -0.0595768 -0.90928 -0.411899
-19.2095 45.9698 -3.42452 -0.0595768 -0.90928 -0.411899
-17.7078 46.414 -4.69436 -0.071182 -0.910817 -0.406627
-16.6213 46.7178 -5.61329 -0.0722798 -0.918307 -0.389214
-15.3231 47.0738 -6.71961 -0.0957293 -0.921594 -0.376165
-14.3696 47.2981 -7.54122 -0.103286 -0.919852 -0.378423
-13.4482 47.5241 -8.32666 -0.114684 -0.91764 -0.380505
-12.3479 47.7667 -9.28139 -0.118752 -0.920284 -0.372794
-11.0325 48.0357 -10.4278 -0.132267 -0.924335 -0.357926
-9.66989 48.2957 -11.6169 -0.15588 -0.921023 -0.356957
-8.41861 48.5176 -12.7205 -0.159146 -0.924216 -0.347127
-7.38389 48.6702 -13.652 -0.169396 -0.92213 -0.347822
-6.06641 48.8539 -14.841 -0.188607 -0.923339 -0.334472
-4.66972 49.0184 -16.1226 -0.200844 -0.927862 -0.31422
-3.41066 49.1388 -17.2949 -0.223857 -0.922166 -0.315432
-2.30377 49.2236 -18.3372 -0.233006 -0.924126 -0.302818
-1.22806 49.2815 -19.3661 -0.22847 -0.927751 -0.295093
-0.208793 49.3254 -20.3495 -0.245336 -0.928991 -0.277103
0.953448 49.3593 -21.4838 -0.25309 -0.926518 -0.278405
2.04025 49.3634 -22.5575 -0.263381 -0.926447 -0.268935
2.1711 49.3638 -22.6868 -0.263382 -0.926446 -0.268936
3.3159 49.682 -25.0057 -0.268573 -0.930465 -0.249206
2.17502 49.7012 -23.853 -0.264896 -0.928117 -0.261589
1.00262 49.6983 -22.6949 -0.263381 -0.926447 -0.268935
-0.563207 49.6656 -21.1582 -0.248347 -0.92535 -0.286448
-2.01959 49.6058 -19.7503 -0.240375 -0.923744 -0.298189
-3.54366 49.5136 -18.2992 -0.225619 -0.924439 -0.307423
-4.55485 49.4284 -17.3513 -0.203066 -0.922504 -0.328253
-5.50438 49.3254 -16.4744 -0.21071 -0.920097 -0.330187
-6.57446 49.1995 -15.4943 -0.194809 -0.921471 -0.336068
-8.17382 48.9727 -14.0533 -0.170393 -0.91848 -0.356875
-9.13969 48.8171 -13.1938 -0.155879 -0.921022 -0.35696
-10.5122 48.5857 -11.9805 -0.161866 -0.919413 -0.358439
-11.6771 48.3515 -10.9726 -0.136989 -0.913583 -0.382884
-12.7946 48.1178 -10.006 -0.12101 -0.919931 -0.372939
-13.83 47.8924 -9.1081 -0.123267 -0.919575 -0.373078
-15.0607 47.5963 -8.05593 -0.106082 -0.915585 -0.387879
-16.0335 47.3605 -7.22642 -0.112268 -0.909695 -0.399815
-17.0252 47.0913 -6.38802 -0.0911168 -0.912552 -0.398682
-17.972 46.8349 -5.58478 -0.0911155 -0.912552 -0.398682
-18.9254 46.5514 -4.78863 -0.07091 -0.909472 -0.409675
-19.7553 46.3058 -4.0873 -0.0595754 -0.909281 -0.411897
-20.3965 46.6102 -4.6711 -0.0521446 -0.905503 -0.421124
-19.3792 46.9164 -5.52046 -0.07091 -0.909472 -0.409675
-18.4482 47.1939 -6.29758 -0.0810189 -0.911073 -0.404205
-17.212 47.5364 -7.33741 -0.0949998 -0.905352 -0.413899
-15.976 47.8529 -8.37871 -0.124282 -0.910175 -0.395139
-14.7991 48.1281 -9.38279 -0.115187 -0.912927 -0.391531
-13.6015 48.4018 -10.4136 -0.131287 -0.910094 -0.393055
-12.4239 48.6524 -11.4235 -0.140613 -0.912706 -0.383661
-11.3964 48.8687 -12.3071 -0.14945 -0.916641 -0.370721
-10.4757 49.0239 -13.1209 -0.163395 -0.914879 -0.369186
-8.88391 49.2916 -14.5236 -0.186445 -0.913592 -0.361371
-7.89619 49.4462 -15.4044 -0.182623 -0.920095 -0.346517
-6.51057 49.6267 -16.6626 -0.195644 -0.915347 -0.351943
-5.56727 49.7242 -17.5349 -0.218343 -0.917627 -0.332095
-3.9793 49.8601 -19.0214 -0.225619 -0.924439 -0.307423
-2.97587 49.9265 -19.9729 -0.241313 -0.92191 -0.303067
-1.8888 49.9885 -21.0133 -0.252017 -0.920569 -0.298396
-0.87541 50.0115 -22.0049 -0.255047 -0.923157 -0.287631
0.0263315 50.0274 -22.8921 -0.257811 -0.927605 -0.270337
1.13738 50.0361 -23.9904 -0.264893 -0.928118 -0.261591
2.09933 50.025 -24.9577 -0.269459 -0.929606 -0.251443
3.04989 50.0043 -25.9222 -0.270545 -0.929968 -0.248928
3.95398 49.9767 -26.8449 -0.275454 -0.932796 -0.232414
4.10154 49.9709 -26.9964 -0.275454 -0.932796 -0.232414
4.77321 50.2427 -28.8858 -0.291023 -0.928464 -0.230784
3.45989 50.3017 -27.5332 -0.280874 -0.929073 -0.240694
2.139 50.3486 -26.1807 -0.283204 -0.923055 -0.260318
1.0153 50.368 -25.0452 -0.279566 -0.922857 -0.264912
-0.0129339 50.3753 -24.0116 -0.270231 -0.921279 -0.279679
-1.00455 50.3666 -23.0303 -0.266019 -0.921504 -0.282955
-2.04822 50.3451 -22.0059 -0.261735 -0.920917 -0.288801
-3.10277 50.2995 -20.9875 -0.242249 -0.920049 -0.307937
-4.04855 50.2478 -20.0806 -0.240587 -0.915471 -0.322538
-5.42094 50.1535 -18.781 -0.234037 -0.912275 -0.336127
-6.37515 50.05 -17.9041 -0.220663 -0.91378 -0.341049
-7.66931 49.8963 -16.7196 -0.205538 -0.911554 -0.356123
-8.85988 49.7306 -15.6458 -0.186962 -0.909757 -0.370659
-9.91242 49.5726 -14.7035 -0.186445 -0.913591 -0.361372
-11.0791 49.3675 -13.6824 -0.1649 -0.910219 -0.379881
-12.0183 49.1972 -12.8646 -0.169246 -0.900975 -0.3995
-13.0176 48.9927 -12.0078 -0.144236 -0.911814 -0.384436
-14.0103 48.7904 -11.1557 -0.136218 -0.908624 -0.394775
-15.758 48.3828 -9.66785 -0.123919 -0.909124 -0.397666
-16.7024 48.1619 -8.86212 -0.112269 -0.909694 -0.399816
-17.8604 47.8584 -7.89291 -0.0976206 -0.907221 -0.409171
-19.1922 47.4886 -6.7804 -0.0902706 -0.903389 -0.419214
-20.1384 47.2075 -5.99019 -0.0867267 -0.901252 -0.424526
-21.0369 46.942 -5.24911 -0.0742542 -0.897045 -0.435656
-21.6501 47.2806 -5.84795 -0.0829024 -0.901482 -0.424803
-20.4414 47.6368 -6.8397 -0.0848163 -0.901368 -0.424666
-19.4512 47.9198 -7.66503 -0.0938065 -0.905484 -0.413882
-17.8966 48.3409 -8.95942 -0.121672 -0.899856 -0.418874
-16.9486 48.5833 -9.7552 -0.123919 -0.909124 -0.397666
-16.0184 48.8027 -10.5403 -0.123556 -0.908066 -0.400189
-14.9812 49.0474 -11.4158 -0.132207 -0.90755 -0.39859
-13.7007 49.3213 -12.5088 -0.153598 -0.897567 -0.413258
-12.6012 49.5607 -13.4375 -0.169246 -0.900975 -0.3995
-11.6493 49.7216 -14.2709 -0.184819 -0.90398 -0.385566
-10.7061 49.8889 -15.0936 -0.175691 -0.911998 -0.370665
-9.25062 50.1212 -16.3844 -0.18746 -0.90583 -0.379909
-8.17711 50.2687 -17.3541 -0.215406 -0.907644 -0.360255
-7.20319 50.3842 -18.2455 -0.220331 -0.91036 -0.350284
-6.14665 50.4988 -19.2165 -0.22296 -0.909843 -0.349964
-4.84875 50.5871 -20.4469 -0.242817 -0.914944 -0.322362
-3.89876 50.6379 -21.3589 -0.247698 -0.918674 -0.307708
-2.94297 50.6851 -22.279 -0.261792 -0.921538 -0.286763
-1.31163 50.717 -23.8827 -0.266019 -0.921505 -0.282955
-0.154748 50.7248 -25.0317 -0.27028 -0.921719 -0.278177
0.717721 50.7124 -25.9141 -0.287139 -0.921035 -0.263145
1.75119 50.6886 -26.9642 -0.283206 -0.923054 -0.260318
2.82866 50.6401 -28.0754 -0.296777 -0.923946 -0.241345
3.97188 50.5858 -29.2556 -0.291212 -0.929754 -0.225285
5.12042 50.5093 -30.4543 -0.291394 -0.931013 -0.21978
5.23776 50.5015 -30.5768 -0.289839 -0.931399 -0.220202
5.91025 50.7244 -32.5004 -0.301977 -0.930206 -0.208632
5.05623 50.7991 -31.5965 -0.293598 -0.932335 -0.211074
4.1309 50.8648 -30.6281 -0.310377 -0.921545 -0.233283
3.2207 50.9301 -29.675 -0.312285 -0.921061 -0.232647
2.24154 50.9837 -28.6579 -0.304447 -0.918225 -0.25333
1.26793 51.0306 -27.6512 -0.290013 -0.923562 -0.250849
0.288753 51.0545 -26.6532 -0.287716 -0.921821 -0.259739
-0.779664 51.071 -25.5719 -0.280433 -0.917863 -0.280866
-1.68447 51.0764 -24.6618 -0.290552 -0.913891 -0.283519
-2.84062 51.0599 -23.5197 -0.277282 -0.912275 -0.301445
-4.21825 51.019 -22.1741 -0.265321 -0.907444 -0.325807
-5.1267 50.9726 -21.3003 -0.265329 -0.908038 -0.32414
-6.10157 50.9004 -20.3799 -0.246331 -0.909247 -0.335546
-7.24866 50.8033 -19.3061 -0.220331 -0.910361 -0.350281
-8.55109 50.6549 -18.1118 -0.217701 -0.910872 -0.350596
-10.0533 50.4444 -16.7591 -0.18746 -0.90583 -0.379909
-11.2565 50.2529 -15.6936 -0.193093 -0.900232 -0.390252
-12.2322 50.0851 -14.8438 -0.184819 -0.90398 -0.385566
-13.184 49.9242 -14.0104 -0.169247 -0.900974 -0.399502
-14.2835 49.6848 -13.0817 -0.153598 -0.897567 -0.413258
-15.3682 49.4545 -12.1674 -0.152166 -0.892551 -0.424497
-16.3414 49.2237 -11.3528 -0.142625 -0.898141 -0.415934
-17.4153 48.9737 -10.4447 -0.131642 -0.897414 -0.421092
-18.3498 48.7337 -9.67174 -0.121672 -0.899856 -0.418874
-19.9207 48.3081 -8.36448 -0.100879 -0.895384 -0.433716
-21.5957 47.8159 -6.99447 -0.0885935 -0.894995 -0.437189
-21.6959 47.7864 -6.91231 -0.0829024 -0.901482 -0.424803
-22.8075 47.9939 -7.0922 -0.0941355 -0.888325 -0.449462
-21.4671 48.4036 -8.18291 -0.0942617 -0.888305 -0.449476
-20.5344 48.6622 -8.94644 -0.107994 -0.894113 -0.434625
-19.3616 48.9841 -9.9156 -0.121158 -0.898213 -0.422533
-18.1503 49.2956 -10.9139 -0.120639 -0.896555 -0.426187
-16.9444 49.5849 -11.926 -0.141369 -0.894075 -0.425024
-15.9256 49.8338 -12.7652 -0.152166 -0.892551 -0.424497
-14.8566 50.0544 -13.6641 -0.164192 -0.894968 -0.414817
-13.7669 50.2877 -14.5832 -0.169247 -0.900974 -0.399502
-12.7986 50.4534 -15.428 -0.185202 -0.89914 -0.396545
-11.8309 50.6234 -16.2655 -0.185203 -0.89914 -0.396545
-10.8325 50.7791 -17.1508 -0.200964 -0.901232 -0.38392
-9.87577 50.928 -17.9996 -0.201462 -0.90687 -0.370136
-8.68107 51.0674 -19.0922 -0.243261 -0.891832 -0.381392
-7.50861 51.2055 -20.1631 -0.247713 -0.895406 -0.369981
-6.52831 51.2792 -21.0892 -0.269865 -0.895982 -0.352689
-5.5004 51.3534 -22.0613 -0.265323 -0.907443 -0.325808
-4.31154 51.4167 -23.1996 -0.265314 -0.906846 -0.327474
-2.89457 51.4347 -24.6042 -0.283776 -0.910237 -0.301563
-1.89704 51.4372 -25.6004 -0.294723 -0.909157 -0.294232
-0.717162 51.4241 -26.7939 -0.304032 -0.912444 -0.27388
0.173475 51.4032 -27.7012 -0.301085 -0.913228 -0.274522
1.11269 51.3624 -28.6742 -0.307733 -0.917268 -0.252823
1.98267 51.3219 -29.5728 -0.304448 -0.918224 -0.25333
2.98477 51.2502 -30.6256 -0.312285 -0.921061 -0.232647
3.87024 51.1862 -31.5532 -0.310294 -0.924668 -0.220695
5.18723 51.0613 -32.9562 -0.311359 -0.927003 -0.209095
6.18087 50.9746 -34.0078 -0.306603 -0.929756 -0.203833
6.72807 50.9163 -34.5912 -0.311217 -0.929264 -0.199027
7.25375 51.0984 -36.3969 -0.309976 -0.933541 -0.180043
5.83381 51.2741 -34.8634 -0.310611 -0.931447 -0.189544
4.72927 51.3855 -33.6842 -0.320708 -0.923711 -0.209536
3.86459 51.4755 -32.7574 -0.315512 -0.924216 -0.215122
2.87738 51.5577 -31.7138 -0.319493 -0.920985 -0.222958
1.97957 51.6286 -30.7657 -0.314192 -0.920573 -0.232009
1.03822 51.6921 -29.7795 -0.307733 -0.917268 -0.252823
0.0761952 51.7422 -28.7758 -0.311014 -0.916301 -0.252314
-0.847555 51.7767 -27.8238 -0.30403 -0.912445 -0.27388
-1.92342 51.8078 -26.7191 -0.30087 -0.910472 -0.283755
-3.24529 51.8151 -25.3879 -0.302154 -0.903189 -0.304882
-4.82176 51.7921 -23.826 -0.277831 -0.907647 -0.314621
-6.34615 51.7218 -22.353 -0.276474 -0.898328 -0.341422
-7.29063 51.6541 -21.4582 -0.269865 -0.895982 -0.352689
-8.41469 51.5568 -20.4065 -0.247713 -0.895406 -0.369981
-9.58715 51.4186 -19.3356 -0.243261 -0.891832 -0.381392
-10.6588 51.2834 -18.369 -0.217738 -0.890329 -0.39988
-11.7456 51.0979 -17.4211 -0.205334 -0.893707 -0.398906
-13.2369 50.8478 -16.1176 -0.185203 -0.89914 -0.396545
-14.2801 50.6692 -15.2122 -0.203796 -0.885733 -0.417067
-15.4139 50.4337 -14.2619 -0.164192 -0.894968 -0.414817
-16.4829 50.2131 -13.3629 -0.152165 -0.892551 -0.424498
-18.1465 49.8066 -11.9926 -0.141369 -0.894075 -0.425024
-19.1262 49.5616 -11.1817 -0.146867 -0.883899 -0.44402
-20.0632 49.3277 -10.4062 -0.132556 -0.884164 -0.447977
-21.1978 49.0077 -9.48967 -0.116785 -0.88326 -0.454106
-22.1612 48.7398 -8.70189 -0.101133 -0.891258 -0.442076
-23.0468 48.4703 -7.98367 -0.0940113 -0.888344 -0.449451
-23.7709 48.7996 -8.4832 -0.0940113 -0.888344 -0.449451
-22.8177 49.0973 -9.24405 -0.110514 -0.879371 -0.463135
-21.4694 49.4798 -10.3379 -0.116785 -0.88326 -0.454106
-20.3725 49.7831 -11.2166 -0.118218 -0.884231 -0.45184
-19.3586 50.038 -12.0533 -0.146867 -0.883899 -0.44402
-18.3229 50.2933 -12.8988 -0.16346 -0.881447 -0.443093
-17.2408 50.5434 -13.7954 -0.151792 -0.885759 -0.438623
-16.1188 50.7954 -14.7244 -0.176835 -0.874333 -0.451963
-14.4949 51.1279 -16.0812 -0.203796 -0.885733 -0.417067
-13.0949 51.3623 -17.2993 -0.212681 -0.885135 -0.413887
-11.6888 51.5983 -18.5214 -0.209643 -0.885913 -0.413772
-10.4552 51.771 -19.6184 -0.225775 -0.894495 -0.38588
-9.32077 51.908 -20.6499 -0.247713 -0.895406 -0.369981
-8.12484 52.0171 -21.7644 -0.252124 -0.898835 -0.358509
-7.10847 52.0967 -22.7221 -0.276474 -0.898328 -0.341422
-5.87369 52.1483 -23.9217 -0.284747 -0.897453 -0.336893
-4.96208 52.1753 -24.8183 -0.30344 -0.899018 -0.315738
-3.81414 52.1962 -25.9533 -0.302151 -0.90319 -0.30488
-2.90915 52.1855 -26.87 -0.310933 -0.902577 -0.297785
-2.01246 52.1667 -27.7858 -0.325472 -0.899603 -0.291176
-1.00027 52.1317 -28.8302 -0.328027 -0.904643 -0.272064
-0.0587102 52.0865 -29.8097 -0.326852 -0.904958 -0.272431
1.07697 52.0046 -31.012 -0.330912 -0.91313 -0.238097
1.99257 51.9374 -31.9758 -0.317991 -0.917698 -0.238142
3.1627 51.826 -33.2232 -0.328149 -0.918191 -0.221909
4.0104 51.7406 -34.1309 -0.326995 -0.919309 -0.218964
5.18015 51.6074 -35.3939 -0.333896 -0.923302 -0.189807
6.09193 51.4849 -36.3842 -0.331446 -0.923953 -0.190929
7.05284 51.3631 -37.4237 -0.309555 -0.933624 -0.180338
7.37838 51.323 -37.7735 -0.308352 -0.935411 -0.172992
9.07988 51.3003 -40.8747 -0.313878 -0.936159 -0.158392
7.47461 51.5313 -39.1327 -0.307551 -0.937056 -0.165342
6.55007 51.6721 -38.1218 -0.332828 -0.926606 -0.175008
5.17139 51.8637 -36.6192 -0.331446 -0.923953 -0.190929
4.04028 52.0202 -35.3808 -0.336344 -0.922644 -0.188684
3.10021 52.1213 -34.37 -0.326995 -0.919309 -0.218964
2.13361 52.219 -33.3332 -0.32764 -0.919162 -0.218616
1.1798 52.3075 -32.3164 -0.330909 -0.913131 -0.238097
-0.251387 52.4452 -30.7749 -0.343767 -0.908392 -0.238008
-1.12328 52.4882 -29.867 -0.326852 -0.904958 -0.272431
-2.14302 52.539 -28.8012 -0.329199 -0.904328 -0.271696
-3.10908 52.5662 -27.8092 -0.311121 -0.901994 -0.299351
-4.35046 52.577 -26.5516 -0.310933 -0.902577 -0.297783
-5.80344 52.5675 -25.0929 -0.313328 -0.894843 -0.317932
-6.93462 52.5167 -23.9959 -0.286442 -0.894339 -0.343671
-7.87078 52.4716 -23.0911 -0.276474 -0.898328 -0.341422
-9.03092 52.3684 -22.0079 -0.252124 -0.898835 -0.358509
-10.2268 52.2593 -20.8933 -0.247713 -0.895406 -0.369981
-11.2548 52.1253 -19.9718 -0.225775 -0.894495 -0.38588
-12.2579 51.9919 -19.0758 -0.217739 -0.890328 -0.399883
-13.7529 51.7455 -17.781 -0.212923 -0.885362 -0.413276
-14.7097 51.5865 -16.9503 -0.203795 -0.885733 -0.417067
-15.7509 51.3979 -16.0675 -0.195142 -0.886484 -0.419602
-16.757 51.1859 -15.23 -0.176836 -0.874332 -0.451964
-17.7458 50.9663 -14.417 -0.172061 -0.871527 -0.459169
-19.0188 50.6613 -13.374 -0.153892 -0.880569 -0.448237
-20.3059 50.3361 -12.3334 -0.145589 -0.881753 -0.448682
-21.3545 50.0543 -11.4903 -0.118216 -0.884231 -0.451841
-22.7661 49.6618 -10.3547 -0.120537 -0.882692 -0.45423
-23.7638 49.3711 -9.55063 -0.100468 -0.875881 -0.471951
-24.3317 49.1926 -9.09857 -0.100468 -0.875881 -0.471951
-24.8858 49.6008 -9.71659 -0.121784 -0.869946 -0.477874
-23.9057 49.8921 -10.4998 -0.12526 -0.874623 -0.468343
-22.8688 50.1949 -11.323 -0.129945 -0.866304 -0.482319
-21.5627 50.5617 -12.3596 -0.14771 -0.864222 -0.480939
-20.4137 50.8652 -13.2777 -0.168661 -0.864019 -0.474368
-19.096 51.1875 -14.3461 -0.173367 -0.866881 -0.467398
-17.938 51.4576 -15.2917 -0.177764 -0.874171 -0.451913
-16.9044 51.6864 -16.1407 -0.186025 -0.880576 -0.435867
-15.9657 51.8565 -16.9366 -0.195142 -0.886484 -0.419602
-14.9569 52.0413 -17.7903 -0.231836 -0.856892 -0.460421
-14.02 52.2022 -18.5921 -0.243534 -0.856113 -0.455809
-13.0866 52.3623 -19.3916 -0.252092 -0.862828 -0.438153
-12.1682 52.4864 -20.2068 -0.254305 -0.870233 -0.421928
-11.1942 52.6215 -21.0725 -0.255409 -0.87164 -0.418342
-10.0043 52.7484 -22.1592 -0.291581 -0.869992 -0.397611
-8.80765 52.8572 -23.2747 -0.294312 -0.873729 -0.38727
-7.50579 52.911 -24.5415 -0.329112 -0.874157 -0.35712
-6.49585 52.9606 -25.517 -0.299937 -0.894746 -0.330858
-5.53184 52.9702 -26.4834 -0.315184 -0.889516 -0.330786
-4.48246 52.9728 -27.5426 -0.338698 -0.887967 -0.311122
-3.30641 52.9474 -28.7503 -0.338717 -0.887812 -0.311546
-2.34416 52.8993 -29.7567 -0.329199 -0.904328 -0.271696
-1.40255 52.8523 -30.7412 -0.328025 -0.904644 -0.272063
-0.246279 52.7574 -31.9741 -0.345635 -0.906529 -0.242366
0.814162 52.6609 -33.1137 -0.35481 -0.904061 -0.238293
1.72045 52.5497 -34.1042 -0.34493 -0.911442 -0.22427
2.56308 52.4644 -35.0085 -0.327316 -0.919236 -0.218789
3.5308 52.3448 -36.06 -0.336344 -0.922644 -0.188684
4.5312 52.2048 -37.1587 -0.333896 -0.923302 -0.189807
6.00055 51.9914 -38.7675 -0.33097 -0.926963 -0.176629
6.87103 51.8556 -39.7213 -0.334684 -0.926242 -0.173385
7.70718 51.7223 -40.639 -0.33216 -0.930772 -0.152752
8.54414 51.5868 -41.5526 -0.30993 -0.939151 -0.148118
9.39672 51.4519 -42.4816 -0.312689 -0.938818 -0.14438
10.3622 51.2852 -43.5346 -0.307866 -0.940908 -0.141103
11.6125 51.0765 -44.8909 -0.303428 -0.944021 -0.129441
12.6143 50.9153 -45.9709 -0.293462 -0.947928 -0.123744
13.1155 50.825 -46.514 -0.294106 -0.948993 -0.113638
12.3353 51.118 -46.9417 -0.294106 -0.948993 -0.113638
11.4658 51.2763 -45.9987 -0.310241 -0.942437 -0.124752
10.5733 51.4325 -45.0289 -0.310281 -0.941162 -0.133938
9.36659 51.6465 -43.7124 -0.314098 -0.939547 -0.136362
8.15581 51.8474 -42.3924 -0.321604 -0.934936 -0.149887
7.12088 52.0324 -41.2537 -0.33216 -0.930772 -0.152752
6.05657 52.2164 -40.0768 -0.332905 -0.928654 -0.163637
4.84612 52.4002 -38.7496 -0.344679 -0.921199 -0.180522
3.991 52.5436 -37.7998 -0.351902 -0.916009 -0.192596
3.05898 52.6709 -36.7776 -0.345458 -0.9167 -0.200799
2.11891 52.8053 -35.7409 -0.369651 -0.904688 -0.21189
1.17656 52.9216 -34.7092 -0.362086 -0.903365 -0.229839
0.343571 53.0238 -33.7988 -0.362085 -0.903365 -0.22984
-0.776604 53.1299 -32.5926 -0.347493 -0.904643 -0.246719
-1.73432 53.2283 -31.5529 -0.373964 -0.888927 -0.264498
-2.71077 53.2916 -30.5168 -0.363256 -0.883985 -0.294306
-3.72171 53.3519 -29.4504 -0.351037 -0.885923 -0.303173
-4.6093 53.3698 -28.5376 -0.338717 -0.887812 -0.311546
-5.88068 53.3776 -27.2464 -0.315184 -0.889516 -0.330786
-7.03648 53.3671 -26.0837 -0.342507 -0.869718 -0.355357
-8.54745 53.3254 -24.5958 -0.329112 -0.874157 -0.35712
-9.65495 53.2566 -23.5368 -0.297005 -0.877354 -0.37688
-10.999 53.1376 -22.2813 -0.291581 -0.869992 -0.397611
-12.1801 52.987 -21.2322 -0.255409 -0.87164 -0.418342
-13.1191 52.8589 -20.3983 -0.260544 -0.86917 -0.42031
-14.8837 52.5919 -18.8626 -0.243534 -0.856113 -0.455809
-15.8984 52.4128 -18.0077 -0.231836 -0.856892 -0.460421
-16.8634 52.2333 -17.1933 -0.231035 -0.85603 -0.462424
-17.8936 52.0243 -16.3437 -0.200487 -0.856296 -0.475985
-18.9862 51.7767 -15.4515 -0.187524 -0.853856 -0.485555
-20.0668 51.511 -14.5859 -0.173368 -0.866882 -0.467397
-21.3321 51.1926 -13.5663 -0.147915 -0.864621 -0.480158
-22.504 50.8768 -12.6366 -0.14781 -0.864422 -0.480549
-23.643 50.5494 -11.739 -0.148336 -0.856886 -0.493703
-25.3558 50.0427 -10.4012 -0.121254 -0.863947 -0.488768
-25.4398 50.0177 -10.3343 -0.121784 -0.869946 -0.477874
-25.6607 50.5434 -11.1873 -0.120705 -0.857814 -0.499585
-24.6218 50.8623 -11.9859 -0.135706 -0.85818 -0.495087
-23.1701 51.2787 -13.1291 -0.146337 -0.853774 -0.499656
-22.1157 51.5582 -13.9658 -0.164878 -0.856602 -0.488925
-20.9831 51.8515 -14.8647 -0.183235 -0.849473 -0.494793
-19.9341 52.1142 -15.6988 -0.176084 -0.853538 -0.490374
-18.9132 52.3605 -16.5191 -0.200489 -0.856295 -0.475986
-17.845 52.5867 -17.3891 -0.20203 -0.858527 -0.471291
-16.8399 52.7844 -18.2251 -0.231837 -0.856893 -0.460419
-15.8066 52.9678 -19.0927 -0.232636 -0.857751 -0.458414
-14.8139 53.1417 -19.9325 -0.252093 -0.862827 -0.438153
-13.459 53.3159 -21.1326 -0.273591 -0.853763 -0.442987
-12.2129 53.4745 -22.2379 -0.256507 -0.873034 -0.414748
-10.7971 53.6356 -23.5189 -0.294311 -0.873729 -0.38727
-9.83049 53.7028 -24.4372 -0.297005 -0.877353 -0.37688
-8.69161 53.7632 -25.5346 -0.329512 -0.871981 -0.362036
-7.55465 53.8025 -26.6499 -0.342507 -0.869718 -0.355357
-5.92052 53.7934 -28.3151 -0.355405 -0.86795 -0.346914
-5.00554 53.774 -29.2573 -0.338736 -0.887656 -0.31197
-3.31112 53.7065 -31.0221 -0.362951 -0.887253 -0.284691
-2.24865 53.6264 -32.1636 -0.373964 -0.888927 -0.264498
-1.33547 53.5176 -33.1688 -0.385231 -0.887208 -0.253889
-0.382048 53.4181 -34.2052 -0.354811 -0.90406 -0.238294
0.550634 53.3026 -35.2272 -0.360703 -0.905154 -0.224919
1.44868 53.1901 -36.2147 -0.369651 -0.904688 -0.21189
2.32058 53.0415 -37.1992 -0.362037 -0.910492 -0.199834
3.35275 52.9005 -38.3313 -0.351902 -0.916009 -0.192596
4.58856 52.6932 -39.7039 -0.356716 -0.917811 -0.174287
5.43927 52.5319 -40.6572 -0.344708 -0.925372 -0.157679
6.53459 52.3425 -41.8684 -0.33216 -0.930772 -0.152753
7.6059 52.151 -43.0471 -0.331539 -0.932104 -0.145823
8.59028 51.9636 -44.1327 -0.322298 -0.93696 -0.135021
9.59284 51.7843 -45.2295 -0.311516 -0.940886 -0.13301
10.5313 51.6145 -46.2515 -0.310178 -0.94363 -0.115554
11.1361 51.4967 -46.9137 -0.306599 -0.944562 -0.117472
9.92749 51.8882 -46.8665 -0.310179 -0.943629 -0.115555
9.00718 52.0703 -45.8571 -0.330477 -0.935092 -0.128017
7.6735 52.3277 -44.3903 -0.33181 -0.933206 -0.137946
6.72118 52.5072 -43.3382 -0.329836 -0.933599 -0.140007
5.89749 52.6639 -42.4256 -0.356546 -0.921858 -0.151832
4.50429 52.9334 -40.8697 -0.358244 -0.919562 -0.161451
3.55451 53.1096 -39.8015 -0.355085 -0.920304 -0.164182
2.7145 53.2575 -38.8627 -0.351902 -0.916009 -0.192596
1.75532 53.4085 -37.7916 -0.378501 -0.903998 -0.198807
0.778446 53.5749 -36.6885 -0.369649 -0.904689 -0.211889
-0.119596 53.6874 -35.7011 -0.360703 -0.905154 -0.224919
-0.969797 53.8105 -34.7525 -0.39389 -0.887199 -0.240266
-1.84979 53.9157 -33.7795 -0.385231 -0.887208 -0.253889
-2.76298 54.0245 -32.7744 -0.373966 -0.888926 -0.264499
-3.67348 54.0931 -31.7961 -0.362608 -0.89043 -0.275045
-4.57521 54.1611 -30.8273 -0.362951 -0.887253 -0.284691
-5.46686 54.1973 -29.8931 -0.379972 -0.864577 -0.328829
-6.34943 54.2334 -28.9681 -0.36793 -0.865646 -0.339537
-7.22284 54.2338 -28.0817 -0.355791 -0.866489 -0.350157
-8.73778 54.2149 -26.5638 -0.3299 -0.869781 -0.366943
-9.67656 54.1914 -25.6325 -0.337006 -0.856348 -0.391274
-10.7035 54.1135 -24.6629 -0.32313 -0.852581 -0.410721
-11.7273 54.0367 -23.6958 -0.318208 -0.847766 -0.424307
-12.7528 53.9273 -22.7677 -0.307439 -0.844079 -0.43933
-13.7792 53.8173 -21.8382 -0.296955 -0.840946 -0.452359
-15.252 53.6083 -20.5554 -0.279844 -0.839336 -0.466049
-16.4917 53.3974 -19.5125 -0.261201 -0.829375 -0.493874
-17.6345 53.1892 -18.5586 -0.244791 -0.831452 -0.498764
-18.6686 52.974 -17.7168 -0.230557 -0.837489 -0.495435
-19.6627 52.767 -16.9044 -0.208774 -0.836268 -0.507021
-21.2308 52.3793 -15.6641 -0.19037 -0.845335 -0.499168
-22.3208 52.1024 -14.8075 -0.173126 -0.838084 -0.517343
-23.4096 51.8025 -13.9573 -0.169026 -0.847471 -0.503212
-24.4032 51.5263 -13.1748 -0.167614 -0.843222 -0.510767
-25.4259 51.2268 -12.3818 -0.140244 -0.844078 -0.517556
-25.8686 51.0929 -12.0408 -0.140918 -0.845516 -0.51502
-26.5526 51.5024 -12.5259 -0.14024 -0.844078 -0.517557
-25.4574 51.8377 -13.3631 -0.139566 -0.842633 -0.520088
-24.4662 52.1215 -14.1368 -0.166246 -0.841308 -0.514357
-23.4646 52.399 -14.9053 -0.169001 -0.838739 -0.517643
-22.4455 52.6679 -15.703 -0.183935 -0.845732 -0.500905
-21.1925 52.9772 -16.6913 -0.188631 -0.839987 -0.508764
-20.2067 53.2281 -17.4507 -0.186864 -0.834536 -0.518296
-19.0528 53.4758 -18.3863 -0.230557 -0.837489 -0.495435
-17.8105 53.734 -19.3804 -0.244791 -0.831452 -0.498764
-16.6677 53.9422 -20.3344 -0.261201 -0.829375 -0.493874
-15.3684 54.1377 -21.4411 -0.273292 -0.841066 -0.466818
-14.4319 54.2716 -22.2542 -0.296955 -0.840946 -0.452359
-13.4162 54.3804 -23.174 -0.307385 -0.844352 -0.438845
-12.3854 54.4881 -24.1042 -0.318208 -0.847766 -0.424307
-11.3779 54.5592 -25.0576 -0.32313 -0.852581 -0.410721
-10.3716 54.6356 -26.0078 -0.323131 -0.852581 -0.410722
-9.48817 54.6563 -26.8859 -0.350684 -0.859613 -0.371599
-8.58622 54.6817 -27.7778 -0.37937 -0.841358 -0.38496
-7.71098 54.6739 -28.6746 -0.355791 -0.866489 -0.350157
-6.83758 54.6734 -29.561 -0.367928 -0.865647 -0.339536
-5.955 54.6374 -30.486 -0.379972 -0.864577 -0.328829
-5.06153 54.5985 -31.4309 -0.396304 -0.864794 -0.308341
-4.1738 54.506 -32.4077 -0.412908 -0.86217 -0.293548
-3.27731 54.4226 -33.3851 -0.373966 -0.888926 -0.264499
-2.40511 54.3184 -34.3504 -0.384586 -0.888335 -0.250909
-1.54798 54.2158 -35.3011 -0.39389 -0.887199 -0.240266
-0.736212 54.0842 -36.2185 -0.403116 -0.885885 -0.229574
0.108215 53.9598 -37.1624 -0.369649 -0.904689 -0.211889
0.972877 53.8124 -38.1387 -0.379198 -0.903455 -0.199946
1.98412 53.6416 -39.2819 -0.385563 -0.90386 -0.185414
2.97944 53.441 -40.4154 -0.366691 -0.91469 -0.16994
3.94808 53.2617 -41.5052 -0.356664 -0.919936 -0.162816
5.10929 53.0254 -42.8083 -0.354812 -0.92406 -0.142198
6.13146 52.81 -43.9544 -0.35444 -0.924136 -0.142635
7.60614 52.5278 -45.5822 -0.330477 -0.935092 -0.128017
8.68793 52.2993 -46.784 -0.325441 -0.937881 -0.12028
7.30479 52.753 -46.5289 -0.32911 -0.936881 -0.118074
6.34607 52.9587 -45.4625 -0.358032 -0.925053 -0.126848
5.52074 53.1342 -44.5369 -0.35444 -0.924136 -0.142635
4.17815 53.417 -43.03 -0.362583 -0.920526 -0.145481
3.16606 53.646 -41.8779 -0.380032 -0.911258 -0.158695
1.99634 53.8768 -40.5536 -0.378223 -0.908894 -0.175666
1.13971 54.0592 -39.5621 -0.385563 -0.90386 -0.185414
0.232657 54.2125 -38.5367 -0.379892 -0.90291 -0.201087
-0.576589 54.3647 -37.6082 -0.406155 -0.890119 -0.206704
-2.12616 54.6211 -35.8498 -0.393889 -0.8872 -0.240265
-2.9468 54.7193 -34.9395 -0.407431 -0.876469 -0.256521
-3.77565 54.8456 -33.9957 -0.420795 -0.865831 -0.270681
-4.65091 54.9432 -33.0208 -0.412908 -0.86217 -0.293548
-5.53863 55.0358 -32.0441 -0.396304 -0.864794 -0.308341
-6.4326 55.0747 -31.0982 -0.379501 -0.866985 -0.322979
-7.32572 55.1135 -30.1539 -0.367928 -0.865647 -0.339536
-8.2039 55.1332 -29.2407 -0.401258 -0.840425 -0.364248
-9.08271 55.1554 -28.3239 -0.37937 -0.841358 -0.38496
-10.1096 55.1104 -27.3257 -0.357137 -0.841527 -0.405323
-11.0253 55.0829 -26.422 -0.337005 -0.856348 -0.391275
-12.0394 55.0094 -25.4631 -0.328982 -0.850632 -0.410117
-13.0434 54.9394 -24.5126 -0.318208 -0.847766 -0.424307
-14.0635 54.8329 -23.592 -0.307331 -0.844623 -0.438359
-15.0846 54.7258 -22.6702 -0.296955 -0.840946 -0.452359
-16.2637 54.5515 -21.6625 -0.273292 -0.841066 -0.466818
-17.4834 54.3705 -20.6223 -0.267282 -0.835326 -0.480407
-18.6523 54.1405 -19.6713 -0.228307 -0.833281 -0.503507
-19.9422 53.8724 -18.6428 -0.229435 -0.835394 -0.499476
-21.1186 53.5956 -17.7136 -0.186865 -0.834536 -0.518296
-22.1143 53.3572 -16.9435 -0.207186 -0.824108 -0.527182
-23.4335 53.0224 -15.9139 -0.20341 -0.823106 -0.530209
-24.4437 52.7467 -15.1413 -0.190779 -0.813343 -0.549615
-25.4288 52.4689 -14.3882 -0.180067 -0.814799 -0.55107
-26.3885 52.1832 -13.6543 -0.17246 -0.820961 -0.544317
-26.5646 52.1307 -13.5194 -0.17246 -0.82096 -0.544318
-26.5288 52.8016 -14.5427 -0.170899 -0.818571 -0.548393
-25.4729 53.11 -15.3218 -0.169334 -0.81616 -0.552456
-24.473 53.3883 -16.0862 -0.201865 -0.823409 -0.530329
-23.3865 53.6579 -16.9184 -0.20341 -0.823107 -0.530206
-22.1634 53.9571 -17.8684 -0.209417 -0.825404 -0.524264
-20.9612 54.2526 -18.7877 -0.235184 -0.790002 -0.566203
-19.7015 54.5188 -19.7816 -0.273537 -0.789557 -0.549343
-18.4112 54.7874 -20.8101 -0.272256 -0.787466 -0.552968
-17.1428 55.0041 -21.857 -0.324588 -0.777629 -0.538457
-15.9155 55.2034 -22.8846 -0.339328 -0.792612 -0.506579
-14.9008 55.2935 -23.8148 -0.366886 -0.804094 -0.46779
-13.7285 55.388 -24.8965 -0.337364 -0.824984 -0.453418
-12.7621 55.467 -25.8003 -0.374779 -0.798809 -0.470579
-11.8268 55.5435 -26.6751 -0.37746 -0.804013 -0.459442
-10.606 55.5841 -27.8717 -0.357137 -0.841527 -0.405323
-9.5792 55.6291 -28.8699 -0.37937 -0.841358 -0.38496
-8.70752 55.607 -29.7792 -0.401258 -0.840425 -0.364249
-7.81949 55.5928 -30.7024 -0.419144 -0.83415 -0.358486
-6.91496 55.5259 -31.6904 -0.435462 -0.832588 -0.342302
-6.01574 55.473 -32.6572 -0.396304 -0.864794 -0.308341
-5.13987 55.3757 -33.6321 -0.41153 -0.867524 -0.279366
-4.26907 55.2763 -34.6062 -0.420796 -0.86583 -0.270683
-2.94822 55.075 -36.1104 -0.427949 -0.869047 -0.248229
-2.00397 54.9052 -37.2009 -0.399377 -0.890497 -0.217975
-1.06129 54.7375 -38.281 -0.412859 -0.889589 -0.195395
-0.26237 54.5711 -39.2118 -0.396439 -0.896395 -0.198274
0.751224 54.379 -40.3713 -0.391124 -0.90456 -0.169686
1.59501 54.1979 -41.3504 -0.384683 -0.906753 -0.172682
2.91933 53.9026 -42.8674 -0.381728 -0.913352 -0.141677
3.78366 53.7092 -43.8488 -0.370502 -0.917307 -0.145864
5.18566 53.407 -45.4276 -0.358294 -0.921765 -0.148236
6.3336 53.1399 -46.7229 -0.353005 -0.926582 -0.129743
5.19326 53.5802 -46.7169 -0.363048 -0.923489 -0.123951
4.29481 53.7964 -45.6959 -0.3607 -0.922698 -0.136105
3.34242 54.0073 -44.6182 -0.370679 -0.91769 -0.142979
1.98838 54.3255 -43.0663 -0.396738 -0.905095 -0.152979
1.12339 54.5425 -42.0604 -0.414495 -0.89504 -0.164613
0.291484 54.7206 -41.0953 -0.406459 -0.894691 -0.185257
-0.565544 54.9102 -40.094 -0.42699 -0.88364 -0.191992
-1.94882 55.1947 -38.4843 -0.428975 -0.879812 -0.204723
-3.01825 55.4071 -37.236 -0.435332 -0.871637 -0.225243
-3.9714 55.5779 -36.1267 -0.425809 -0.873911 -0.234449
-5.46278 55.7869 -34.4334 -0.439118 -0.850458 -0.289649
-6.45692 55.9321 -33.2898 -0.450482 -0.8362 -0.312786
-7.40919 56.0084 -32.2353 -0.435462 -0.832588 -0.342302
-8.31372 56.0753 -31.2473 -0.419145 -0.834149 -0.358488
-9.19463 56.0893 -30.3316 -0.402604 -0.835269 -0.374481
-10.0741 56.1057 -29.4151 -0.433724 -0.807668 -0.399444
-10.9915 56.0943 -28.4971 -0.415441 -0.803893 -0.425634
-11.9173 56.0825 -27.5712 -0.39785 -0.806671 -0.437032
-12.8399 56.029 -26.6922 -0.37746 -0.804013 -0.459442
-13.7753 55.9524 -25.8174 -0.374779 -0.798809 -0.470579
-14.7905 55.8645 -24.8827 -0.36622 -0.802215 -0.471523
-15.9011 55.7708 -23.8609 -0.353572 -0.80644 -0.473962
-16.9181 55.6635 -22.9448 -0.324588 -0.777628 -0.538458
-18.0094 55.4863 -22.031 -0.324588 -0.777629 -0.538457
-19.4145 55.2115 -20.9201 -0.272256 -0.787466 -0.552968
-20.7049 54.9429 -19.8915 -0.273537 -0.789557 -0.549343
-21.8568 54.685 -19.019 -0.235184 -0.790002 -0.566203
-23.3732 54.2978 -17.8759 -0.233249 -0.785709 -0.572936
-24.4101 54.0353 -17.0955 -0.233561 -0.783796 -0.575424
-25.4629 53.7664 -16.2966 -0.196338 -0.818437 -0.540012
-25.508 53.7537 -16.2621 -0.180069 -0.814801 -0.551067
-26.2189 54.235 -16.6736 -0.200213 -0.788102 -0.582074
-24.577 54.6668 -17.8879 -0.234313 -0.784604 -0.574016
-23.4237 54.9461 -18.7444 -0.233248 -0.785709 -0.572937
-22.1943 55.2441 -19.6688 -0.238918 -0.793935 -0.559093
-21.0417 55.5057 -20.5328 -0.256269 -0.791875 -0.55431
-19.7629 55.7701 -21.5388 -0.27097 -0.785361 -0.556582
-18.5009 56.0294 -22.5191 -0.2979 -0.781813 -0.547744
-17.1499 56.2161 -23.6868 -0.353573 -0.80644 -0.473962
-15.8928 56.3377 -24.8316 -0.360239 -0.805289 -0.470889
-14.8474 56.4294 -25.7903 -0.365548 -0.800321 -0.475249
-13.8531 56.5144 -26.7093 -0.377462 -0.804011 -0.459444
-12.7205 56.5801 -27.7884 -0.380084 -0.809088 -0.448232
-11.3624 56.6183 -29.1247 -0.415534 -0.80627 -0.421022
-10.0884 56.5999 -30.4406 -0.451568 -0.80621 -0.382246
-8.80796 56.5578 -31.7922 -0.419145 -0.834149 -0.358488
-7.86747 56.4838 -32.8302 -0.434573 -0.839629 -0.325837
-6.91557 56.4037 -33.8935 -0.434572 -0.839629 -0.325836
-6.05054 56.2795 -34.8875 -0.466197 -0.832407 -0.299598
-5.22847 56.1479 -35.8484 -0.474726 -0.841097 -0.259212
-4.35951 55.9696 -36.8818 -0.425809 -0.873911 -0.234451
-3.15413 55.7462 -38.2857 -0.435123 -0.874688 -0.213514
-2.25677 55.5473 -39.3546 -0.428975 -0.879812 -0.204723
-0.62396 55.1757 -41.2844 -0.418664 -0.889968 -0.180768
0.221612 54.9946 -42.2654 -0.406458 -0.894691 -0.185258
1.06177 54.7649 -43.2628 -0.409577 -0.900116 -0.148451
1.95038 54.5417 -44.294 -0.39896 -0.907068 -0.134381
2.95779 54.2989 -45.45 -0.377572 -0.914121 -0.147725
4.16026 54.0059 -46.8238 -0.373717 -0.918238 -0.131051
3.23702 54.4143 -47.0529 -0.376214 -0.917436 -0.129516
2.12598 54.6946 -45.7726 -0.378162 -0.915417 -0.13786
1.31845 54.9 -44.8366 -0.398959 -0.907068 -0.134383
0.317411 55.1788 -43.6524 -0.421152 -0.895923 -0.141257
-0.500989 55.4084 -42.6782 -0.414493 -0.895041 -0.164612
-1.40926 55.6214 -41.6034 -0.43079 -0.885075 -0.176246
-2.37617 55.8612 -40.4443 -0.42699 -0.883639 -0.191992
-3.31013 56.0652 -39.337 -0.434853 -0.87761 -0.201753
-4.14762 56.2573 -38.3348 -0.477546 -0.852378 -0.213077
-4.92428 56.4346 -37.3945 -0.484285 -0.838219 -0.250713
-5.74642 56.611 -36.4083 -0.465083 -0.843831 -0.267667
-6.83474 56.8008 -35.1156 -0.465709 -0.838239 -0.283674
-8.18275 56.9434 -33.5941 -0.434572 -0.839629 -0.325836
-9.2441 57.0517 -32.3887 -0.48362 -0.796249 -0.363454
-10.1567 57.0968 -31.4081 -0.451568 -0.80621 -0.382245
-11.0188 57.1411 -30.483 -0.433725 -0.807668 -0.399443
-12.6007 57.1312 -28.8848 -0.415534 -0.80627 -0.421022
-13.5609 57.0868 -27.9574 -0.430351 -0.763155 -0.482071
-14.5198 57.0425 -27.0312 -0.424384 -0.764296 -0.485541
-15.4881 56.9738 -26.1176 -0.415663 -0.756218 -0.505329
-17.0839 56.8186 -24.6693 -0.377958 -0.752561 -0.539259
-18.1907 56.6815 -23.7023 -0.36612 -0.780258 -0.507103
-19.8111 56.3905 -22.3907 -0.301913 -0.757274 -0.579124
-21.2291 56.1148 -21.272 -0.313432 -0.727792 -0.609982
-22.3491 55.8615 -20.439 -0.295061 -0.728828 -0.617858
-23.5007 55.5979 -19.5781 -0.273976 -0.730828 -0.625162
-24.6189 55.3262 -18.7567 -0.263051 -0.756338 -0.598964
-25.8729 55.0006 -17.8479 -0.213086 -0.770575 -0.600673
-26.3893 54.8622 -17.4741 -0.205131 -0.791151 -0.576196
-25.876 55.7173 -18.7067 -0.220812 -0.749161 -0.624499
-24.8941 55.9575 -19.433 -0.263051 -0.756337 -0.598964
-23.6799 56.2634 -20.2775 -0.273976 -0.730828 -0.625162
-22.5283 56.5271 -21.1385 -0.295061 -0.728828 -0.617858
-21.5249 56.7421 -21.8685 -0.313432 -0.727792 -0.609982
-20.2318 56.9935 -22.8886 -0.332176 -0.72748 -0.60036
-19.0906 57.2249 -23.7649 -0.379155 -0.713045 -0.589753
-17.9567 57.3394 -24.7845 -0.377958 -0.75256 -0.539259
-16.8369 57.4781 -25.7629 -0.396939 -0.754634 -0.522463
-15.4929 57.5738 -27.0303 -0.418397 -0.765401 -0.488984
-13.8373 57.6629 -28.6227 -0.430351 -0.763155 -0.482071
-12.8294 57.6857 -29.6287 -0.446078 -0.777784 -0.442793
-11.6628 57.6779 -30.8228 -0.460656 -0.781512 -0.420755
-10.4367 57.6272 -32.1303 -0.461499 -0.789706 -0.404207
-9.57179 57.5671 -33.0817 -0.48362 -0.796249 -0.363454
-8.63281 57.4619 -34.1578 -0.495685 -0.792616 -0.355043
-7.68923 57.341 -35.2571 -0.507215 -0.808769 -0.297701
-6.86555 57.1789 -36.2541 -0.489677 -0.825493 -0.280673
-5.78731 56.9765 -37.539 -0.482379 -0.84244 -0.240011
-4.94691 56.778 -38.5669 -0.486004 -0.846475 -0.217441
-3.65425 56.4556 -40.1432 -0.463445 -0.858249 -0.220518
-2.34624 56.1205 -41.7319 -0.451986 -0.870907 -0.19295
-1.3699 55.8736 -42.9048 -0.455818 -0.87396 -0.168597
-0.502469 55.61 -43.9582 -0.419972 -0.896888 -0.138623
0.433467 55.3462 -45.0721 -0.415901 -0.898148 -0.142678
1.4276 55.0702 -46.2437 -0.412091 -0.899959 -0.142319
2.12782 54.8834 -47.0554 -0.408482 -0.901173 -0.145016
0.976861 55.3953 -46.9944 -0.412091 -0.899959 -0.142322
-0.316946 55.7562 -45.4652 -0.415795 -0.898438 -0.141152
-1.55009 56.1431 -43.9663 -0.455248 -0.878115 -0.147183
-2.33525 56.3939 -42.9915 -0.455818 -0.87396 -0.168597
-3.26885 56.6299 -41.8699 -0.458486 -0.868386 -0.188933
-4.47602 56.959 -40.3754 -0.464277 -0.862172 -0.202744
-5.26804 57.1663 -39.3979 -0.505852 -0.836116 -0.212188
-6.18616 57.4131 -38.2506 -0.508037 -0.826189 -0.243536
-7.23835 57.6651 -36.9375 -0.513727 -0.806238 -0.293368
-8.68427 57.9292 -35.1875 -0.500669 -0.811245 -0.302014
-9.89948 58.0824 -33.7746 -0.48362 -0.796251 -0.363451
-11.1687 58.1776 -32.3699 -0.466545 -0.794827 -0.388053
-12.2746 58.2263 -31.1855 -0.466956 -0.787243 -0.402741
-13.4861 58.2335 -29.9411 -0.437949 -0.780028 -0.446942
-14.6187 58.2156 -28.8001 -0.434238 -0.771742 -0.464599
-15.8249 58.1463 -27.6424 -0.418396 -0.765401 -0.488985
-17.0809 58.0657 -26.4415 -0.417048 -0.760845 -0.497179
-18.4426 57.9316 -25.2116 -0.427841 -0.721666 -0.544197
-19.582 57.8264 -24.1763 -0.379155 -0.713045 -0.589753
-20.6274 57.6076 -23.3905 -0.328757 -0.701201 -0.632642
-21.8206 57.3693 -22.4649 -0.313433 -0.727791 -0.609983
-22.8202 57.1556 -21.7383 -0.29455 -0.727781 -0.619334
-23.8592 56.9289 -20.977 -0.273975 -0.730827 -0.625163
-25.1001 56.6154 -20.1176 -0.252751 -0.732461 -0.632154
-26.2346 56.3322 -19.3174 -0.242006 -0.752984 -0.611921
-26.4085 57.0339 -19.9958 -0.270302 -0.672461 -0.689009
-25.1604 57.3517 -20.8576 -0.301808 -0.665641 -0.68252
-24.0004 57.625 -21.6634 -0.329346 -0.68108 -0.653959
-22.367 57.9576 -22.8659 -0.339566 -0.675031 -0.655003
-21.1188 58.2091 -23.8018 -0.328757 -0.701201 -0.632642
-20.0734 58.4279 -24.5876 -0.379156 -0.713045 -0.589753
-18.934 58.5331 -25.6229 -0.427841 -0.721666 -0.544197
-17.9064 58.6278 -26.5597 -0.431856 -0.72681 -0.534085
-16.8673 58.6952 -27.5476 -0.456293 -0.72243 -0.519511
-15.6228 58.7697 -28.7443 -0.458766 -0.728113 -0.509298
-14.4625 58.7903 -29.915 -0.487118 -0.726011 -0.485412
-13.3488 58.7997 -31.0467 -0.493221 -0.734093 -0.466734
-12.123 58.7613 -32.3433 -0.483457 -0.758796 -0.436461
-11.2987 58.7006 -33.255 -0.522086 -0.760579 -0.385936
-10.2272 58.5978 -34.4676 -0.48362 -0.796251 -0.363451
-9.27579 58.4501 -35.6062 -0.50067 -0.811244 -0.302014
-8.32108 58.291 -36.7616 -0.507215 -0.808769 -0.297701
-7.52671 58.1107 -37.7483 -0.51985 -0.820632 -0.237317
-6.69655 57.8922 -38.811 -0.513958 -0.823432 -0.24043
-5.81819 57.6494 -39.9134 -0.520011 -0.825678 -0.218732
-4.41932 57.2182 -41.7005 -0.52075 -0.828807 -0.20469
-3.62919 56.9971 -42.6835 -0.458486 -0.868386 -0.188933
-2.80547 56.7558 -43.6937 -0.459368 -0.876473 -0.144138
