18.8747 61.3096 -40.7309 0.297096 0.939978 0.167853
17.6685 61.4728 -39.4465 0.309078 0.934213 0.178094
19.6232 60.9924 -40.2794 0.299395 0.938412 0.172468
20.8088 60.8385 -41.5369 0.292406 0.942427 0.162263
21.9667 60.6999 -42.7578 0.284867 0.944616 0.162947
22.2115 60.6706 -43.016 0.285839 0.944695 0.160773
23.8998 60.2589 -43.5462 0.273304 0.948564 0.159787
22.6525 60.4028 -42.234 0.28745 0.943114 0.167056
21.2613 60.565 -40.7689 0.28873 0.941488 0.173883
22.0818 60.2435 -40.3907 0.28873 0.941488 0.173883
23.3343 60.0974 -41.7097 0.282783 0.943473 0.172896
24.2739 60.0016 -42.6924 0.278065 0.945914 0.167113
24.7744 59.9473 -43.2175 0.278064 0.945914 0.167113
25.6421 59.6357 -42.8815 0.268702 0.94852 0.167656
24.398 59.7634 -41.5798 0.275524 0.945301 0.174621
23.5206 59.8499 -40.6635 0.282782 0.943473 0.172896
24.6886 59.5056 -40.6425 0.275318 0.94539 0.174466
25.6592 59.41 -41.6559 0.274161 0.945485 0.175765
26.4295 59.3379 -42.4588 0.270858 0.947063 0.172361
27.0494 59.0478 -41.8651 0.273006 0.945577 0.177063
26.2293 59.1248 -41.0101 0.275318 0.94539 0.174466
-15.4292 73.4451 -27.3293 0.343707 0.63632 0.690625
-14.5138 73.5459 -28.1174 0.446591 0.676027 0.586126
-13.5642 73.6432 -28.9531 0.463735 0.690093 0.555627
-12.2163 73.6555 -30.3262 0.535844 0.685566 0.492819
-11.1212 73.5493 -31.6017 0.565094 0.730466 0.38352
-10.3439 73.4565 -32.5249 0.555249 0.74869 0.362163
-9.51692 73.2973 -33.5531 0.553978 0.760147 0.339537
-8.76752 73.1085 -34.5239 0.600494 0.768135 0.222207
-8.00868 72.8091 -35.6113 0.589488 0.778341 0.216075
-7.17541 72.5263 -36.7369 0.570385 0.790335 0.223676
-7.03112 72.4773 -36.9318 0.574784 0.794658 0.195301
-21.2545 58.1856 -3.04226 0.0924214 0.873029 0.47883
-20.1693 58.5521 -3.91995 0.0945187 0.875426 0.47402
-19.1665 58.8535 -4.72779 0.119209 0.879528 0.460673
-17.9145 59.2257 -5.7418 0.103707 0.892927 0.438093
-16.7533 59.539 -6.70397 0.118092 0.892867 0.434561
-15.5855 59.8542 -7.66886 0.12049 0.893133 0.433355
-14.5659 60.1269 -8.51111 0.122719 0.885366 0.448404
-13.5828 60.3959 -9.31308 0.133992 0.887676 0.440543
-12.1681 60.7617 -10.4804 0.134451 0.881881 0.451894
-11.0894 61.0293 -11.3695 0.14674 0.884116 0.443628
-10.0092 61.2933 -12.2623 0.151244 0.882418 0.445492
-8.94177 61.5566 -13.1367 0.161898 0.880975 0.444603
-7.64719 61.8431 -14.2197 0.17248 0.878766 0.444995
-6.65342 62.0494 -15.0582 0.201439 0.876281 0.437669
-5.24624 62.314 -16.263 0.210361 0.880516 0.424783
-4.21868 62.494 -17.1494 0.241797 0.878038 0.413017
-3.10235 62.6364 -18.1485 0.242313 0.883019 0.401948
-2.08464 62.7528 -19.07 0.263171 0.883463 0.3876
-0.901496 62.854 -20.1685 0.284008 0.886657 0.364937
0.153029 62.9094 -21.1775 0.303013 0.884104 0.35573
1.0884 62.9463 -22.079 0.317352 0.885375 0.339703
2.0846 62.9413 -23.0706 0.331185 0.884647 0.328202
3.12318 62.9517 -24.0926 0.317283 0.89493 0.313739
4.69582 62.8969 -25.6976 0.329921 0.899448 0.286611
6.0107 62.8276 -27.0548 0.340293 0.902577 0.263733
6.95974 62.7599 -28.0474 0.338449 0.903119 0.26425
7.93191 62.6808 -29.0678 0.341211 0.907471 0.245093
8.89251 62.594 -30.0839 0.336392 0.908876 0.246546
10.3628 62.4258 -31.6498 0.345852 0.912683 0.217708
11.3363 62.3049 -32.6909 0.3373 0.917677 0.209992
12.0301 62.2181 -33.4314 0.338596 0.917475 0.208788
10.6537 62.0979 -30.7511 0.340157 0.913556 0.222955
9.64577 62.2079 -29.6801 0.336812 0.909822 0.24245
8.34352 62.3208 -28.308 0.338926 0.905612 0.254944
7.3963 62.3856 -27.3251 0.336605 0.903657 0.264765
6.49819 62.449 -26.3879 0.337005 0.900573 0.274584
5.28862 62.5048 -25.1493 0.3318 0.898949 0.286006
4.39582 62.5342 -24.2404 0.32865 0.894541 0.302961
2.6166 62.5384 -22.4748 0.305837 0.8951 0.324439
1.58383 62.5301 -21.457 0.317352 0.885375 0.339703
0.57042 62.4827 -20.4831 0.302601 0.882369 0.360356
-0.572674 62.4266 -19.3858 0.293319 0.884556 0.362664
-1.53474 62.3403 -18.4966 0.263476 0.887848 0.377234
-3.15279 62.155 -17.0326 0.229744 0.889835 0.394223
-4.44044 61.9589 -15.8994 0.202469 0.888454 0.411892
-5.41138 61.7926 -15.0589 0.19381 0.886375 0.420448
-6.92885 61.4908 -13.7675 0.166548 0.891772 0.420718
-8.1601 61.2069 -12.7436 0.16205 0.886071 0.434302
-9.47258 60.8977 -11.6548 0.151783 0.884188 0.441784
-10.9757 60.5302 -10.4125 0.146567 0.883583 0.444747
-12.3769 60.1769 -9.24503 0.149566 0.883487 0.443938
-13.5038 59.8811 -8.31649 0.122806 0.889417 0.440292
-15.0142 59.4818 -7.06147 0.122885 0.893392 0.432145
-16.1145 59.1857 -6.15163 0.118092 0.892867 0.434561
-17.4785 58.8179 -5.01375 0.103707 0.892927 0.438093
-19.1474 58.3106 -3.66715 0.0889219 0.890784 0.445642
-20.2412 57.9491 -2.77683 0.0653773 0.889945 0.451357
-20.5535 57.8439 -2.52409 0.0653769 0.889945 0.451358
-20.2984 57.3724 -1.63236 0.0638937 0.887427 0.456498
-19.2098 57.74 -2.51392 0.0771661 0.890452 0.448488
-18.0293 58.1101 -3.48952 0.0889219 0.890784 0.445642
-17.0425 58.41 -4.2857 0.103707 0.892928 0.438093
-15.9018 58.7176 -5.23936 0.118486 0.894863 0.430327
-14.7531 59.0274 -6.19635 0.120489 0.893132 0.433355
-13.6906 59.31 -7.07862 0.0938773 0.904513 0.415985
-12.6057 59.61 -7.97581 0.110123 0.907043 0.40638
-11.6056 59.8502 -8.82235 0.124821 0.903128 0.410829
-10.5699 60.1089 -9.68631 0.117445 0.901236 0.41711
-9.18484 60.4563 -10.8346 0.123737 0.898006 0.422226
-7.52976 60.8446 -12.2127 0.151388 0.894437 0.42079
-6.53463 61.074 -13.0401 0.166549 0.891771 0.42072
-4.97935 61.3727 -14.372 0.175276 0.895059 0.410058
-3.43321 61.6456 -15.7116 0.199945 0.889279 0.411345
-2.10715 61.8229 -16.8922 0.229835 0.891108 0.391283
-1.13079 61.9221 -17.7848 0.240699 0.90065 0.361793
-0.116774 62.0155 -18.7207 0.271302 0.898843 0.344205
1.1382 62.0819 -19.9228 0.273702 0.901377 0.335569
2.24914 62.1344 -20.9892 0.293985 0.900445 0.320579
3.16014 62.1397 -21.8872 0.305837 0.8951 0.324439
4.21027 62.1543 -22.9174 0.317283 0.894931 0.313736
5.77254 62.121 -24.4848 0.319019 0.903264 0.286951
7.29902 62.0468 -26.0503 0.324268 0.904981 0.275425
8.29572 61.981 -27.0825 0.328317 0.909277 0.255781
9.28603 61.9126 -28.1104 0.326144 0.909904 0.25633
10.1028 61.8441 -28.9672 0.338371 0.90722 0.249914
9.32399 61.5778 -26.9691 0.328317 0.909277 0.255781
8.3746 61.6434 -25.9837 0.325427 0.907438 0.265806
7.41602 61.6869 -25.0056 0.324268 0.904981 0.275425
6.518 61.7306 -24.0847 0.319021 0.903263 0.286953
5.04271 61.7537 -22.6145 0.311116 0.903231 0.295601
3.90755 61.7547 -21.4934 0.300588 0.902246 0.309191
2.90154 61.7465 -20.5037 0.28733 0.898487 0.331909
1.13792 61.6675 -18.8093 0.273702 0.901377 0.33557
-0.18671 61.5786 -17.5575 0.254816 0.898541 0.357342
-1.3248 61.4641 -16.5155 0.23174 0.897868 0.374338
-2.42656 61.3139 -15.5336 0.226328 0.893626 0.387567
-3.62424 61.127 -14.481 0.196583 0.900305 0.388337
-4.76902 60.93 -13.4837 0.168501 0.897588 0.407361
-6.0132 60.6817 -12.4217 0.175277 0.89506 0.410055
-7.0882 60.4496 -11.516 0.151755 0.898015 0.412964
-8.04648 60.2407 -10.7096 0.13776 0.898109 0.41764
-9.84672 59.792 -9.21216 0.125675 0.900141 0.417076
-10.9699 59.5125 -8.27323 0.125581 0.906213 0.403742
-12.042 59.261 -7.35527 0.126327 0.909245 0.396629
-13.2192 58.9394 -6.37901 0.0938773 0.904513 0.415985
-14.2875 58.6517 -5.48902 0.0848517 0.911611 0.4022
-15.3861 58.3356 -4.57667 0.0765238 0.91002 0.40744
-16.6065 58.0022 -3.55765 0.103707 0.892928 0.438093
-17.7443 57.6484 -2.62332 0.0889446 0.890828 0.445549
-18.9695 57.2643 -1.61086 0.0771661 0.890452 0.448488
-20.0388 56.8929 -0.736419 0.0638937 0.887427 0.456498
-20.0377 56.3534 0.376247 0.0320394 0.898669 0.437455
-18.7816 56.7925 -0.653124 0.0454029 0.902377 0.428548
-17.7535 57.1253 -1.50561 0.0600514 0.909043 0.412353
-16.4856 57.5175 -2.55481 0.0578742 0.90925 0.412206
-14.9618 57.9642 -3.8268 0.0765238 0.91002 0.40744
-13.8604 58.2811 -4.74154 0.0765238 0.91002 0.40744
-12.7347 58.5785 -5.68511 0.0931722 0.913112 0.396919
-11.6629 58.8687 -6.57659 0.110123 0.907043 0.40638
-10.6744 59.1006 -7.42299 0.120764 0.910991 0.39435
-9.03037 59.4999 -8.81757 0.108931 0.913765 0.391367
-7.90187 59.7768 -9.7653 0.124706 0.899078 0.419651
-6.74468 60.0386 -10.7348 0.135137 0.904436 0.404641
-5.68406 60.2781 -11.6243 0.150481 0.906172 0.395231
-4.67012 60.4651 -12.5002 0.16715 0.902666 0.396554
-3.16964 60.7342 -13.8005 0.196583 0.900306 0.388336
-1.67615 60.952 -15.1283 0.221364 0.899661 0.376309
-0.605169 61.098 -16.0828 0.231741 0.897869 0.374337
0.455758 61.192 -17.0653 0.268874 0.896232 0.35281
1.85632 61.2911 -18.3842 0.2713 0.898843 0.344205
2.86264 61.3334 -19.352 0.287331 0.898486 0.33191
4.09512 61.3679 -20.547 0.297683 0.903386 0.308671
5.01555 61.3753 -21.4491 0.294777 0.904517 0.30815
6.33743 61.3571 -22.7615 0.310287 0.904558 0.2924
7.26346 61.3402 -23.6845 0.319021 0.903263 0.286953
8.2488 61.2946 -24.6913 0.322503 0.905497 0.275802
8.57445 61.2798 -25.0236 0.322503 0.905497 0.275803
7.90018 60.962 -23.1686 0.302137 0.911336 0.279606
6.91504 60.9754 -22.1937 0.310287 0.904558 0.2924
5.91702 60.9962 -21.1987 0.30255 0.904592 0.300293
4.25707 60.986 -19.5733 0.282918 0.907229 0.311275
2.88712 60.934 -18.2544 0.270877 0.90768 0.320535
1.52463 60.8401 -16.9707 0.244567 0.908871 0.337846
0.250894 60.7456 -15.775 0.254815 0.898541 0.357342
-0.849006 60.6109 -14.7825 0.219977 0.904332 0.365778
-1.88234 60.4847 -13.8489 0.204697 0.903755 0.375933
-3.01308 60.2977 -12.8569 0.186894 0.907699 0.375704
-4.34816 60.0638 -11.6941 0.165776 0.907613 0.385691
-6.07035 59.711 -10.2278 0.135137 0.904436 0.404641
-7.27647 59.4556 -9.20349 0.120388 0.915658 0.383506
-9.1162 59.0112 -7.65269 0.107958 0.913236 0.392869
-10.2901 58.7198 -6.64948 0.110553 0.916922 0.383447
-11.8599 58.3273 -5.31243 0.0859 0.915416 0.393235
-13.2887 57.9521 -4.11407 0.0848505 0.911612 0.402198
-14.4123 57.6316 -3.17706 0.0753551 0.915688 0.394763
-15.4464 57.3419 -2.30759 0.0655319 0.912653 0.403448
-16.6189 56.9709 -1.33034 0.0578739 0.909249 0.412209
-17.6943 56.6263 -0.439044 0.0538304 0.902579 0.427145
-19.2067 56.1125 0.810205 0.0320394 0.898669 0.437455
-18.4967 55.8289 1.34606 0.0119365 0.907983 0.418837
-17.4326 56.1918 0.461249 0.0343922 0.910399 0.412299
-16.4584 56.521 -0.347041 0.0439787 0.912474 0.406764
-15.4275 56.8434 -1.20993 0.0556962 0.909452 0.412062
-14.103 57.2363 -2.31919 0.0753562 0.915687 0.394764
-12.7864 57.6103 -3.4264 0.0663896 0.922803 0.37951
-11.714 57.8972 -4.32864 0.0786208 0.917654 0.389524
-10.646 58.186 -5.22459 0.0926191 0.920421 0.379798
-9.50384 58.4502 -6.209 0.103682 0.920848 0.375883
-8.37726 58.7244 -7.17948 0.100518 0.923283 0.370736
-6.98829 59.0574 -8.35533 0.109771 0.913587 0.391547
-5.74696 59.3227 -9.41236 0.130985 0.917564 0.375393
-4.7592 59.5272 -10.2548 0.150481 0.906172 0.395231
-2.99007 59.8577 -11.7815 0.161834 0.908896 0.384341
-1.54721 60.0822 -13.0586 0.188583 0.911315 0.365979
-0.578673 60.2091 -13.9292 0.201486 0.913713 0.352891
0.810642 60.376 -15.185 0.232576 0.912054 0.337736
1.74514 60.4438 -16.0641 0.244567 0.908871 0.337847
2.89544 60.5341 -17.1397 0.25748 0.907959 0.330628
3.95162 60.5808 -18.154 0.270875 0.90768 0.320537
5.03491 60.6086 -19.203 0.294375 0.905794 0.304764
6.3986 60.6142 -20.537 0.28639 0.909618 0.300957
6.53765 60.6146 -20.6727 0.293857 0.911871 0.286599
6.47987 60.2444 -19.4763 0.278382 0.913358 0.297121
5.0393 60.228 -18.076 0.286393 0.909618 0.300955
4.06121 60.1854 -17.1365 0.270338 0.906847 0.323335
2.9782 60.1269 -16.1043 0.243659 0.911537 0.331257
1.76977 60.0429 -14.9641 0.242738 0.914156 0.324651
0.504039 59.918 -13.8027 0.222349 0.909698 0.350729
-0.548522 59.787 -12.8536 0.201486 0.913713 0.352891
-1.51388 59.6455 -11.9918 0.192749 0.91021 0.366559
-2.97221 59.4023 -10.712 0.158411 0.915377 0.370122
-4.23542 59.189 -9.60947 0.142215 0.919951 0.365328
-5.20895 58.9862 -8.77634 0.129443 0.918043 0.374755
-6.1879 58.7831 -7.93967 0.12039 0.915658 0.383505
-7.85359 58.3989 -6.51287 0.105749 0.923795 0.367994
-9.49493 58.0024 -5.09842 0.101411 0.923693 0.369469
-10.9863 57.6244 -3.83289 0.0777803 0.921262 0.381085
-12.2759 57.2906 -2.73819 0.0663896 0.922803 0.37951
-13.2421 57.0081 -1.92546 0.0558349 0.920663 0.386344
-14.2078 56.7261 -1.11264 0.0422121 0.922916 0.382681
-15.7419 56.2498 0.175403 0.0535597 0.914433 0.401177
-16.9183 55.8587 1.15381 0.0343922 0.910399 0.412299
-17.8664 55.5454 1.95334 0.020503 0.912564 0.408419
-18.7189 55.2231 2.66848 0.00664606 0.908683 0.417434
-18.547 54.7662 3.6602 0.00514419 0.913143 0.407607
-17.3304 55.2261 2.63973 0.020503 0.912564 0.408419
-15.5741 55.8061 1.15778 0.034374 0.913314 0.405803
-14.588 56.1247 0.33168 0.029579 0.919974 0.390863
-12.8384 56.6584 -1.14586 0.0548339 0.925642 0.374407
-11.7655 56.9708 -2.04998 0.0663896 0.922803 0.37951
-10.6804 57.2517 -2.9711 0.0769334 0.924792 0.372614
-9.61082 57.5304 -3.87926 0.076314 0.929858 0.359916
-8.57227 57.7783 -4.77539 0.0877945 0.929008 0.359495
-7.60506 58.0097 -5.60956 0.0920135 0.926748 0.364241
-6.6381 58.2326 -6.44247 0.103564 0.92457 0.366668
-5.01627 58.5797 -7.84727 0.128963 0.922103 0.364821
-3.70969 58.852 -8.96542 0.142214 0.919951 0.365328
-2.74394 59.015 -9.80833 0.154947 0.921625 0.355807
-1.71098 59.187 -10.7131 0.170605 0.921532 0.348816
-0.753244 59.3186 -11.5727 0.178357 0.923358 0.339998
0.39274 59.4808 -12.5982 0.211928 0.911758 0.351831
1.75199 59.6257 -13.8358 0.222348 0.909698 0.350728
2.75051 59.7112 -14.7636 0.242738 0.914156 0.324649
3.89078 59.7871 -15.837 0.250755 0.913773 0.319595
4.94673 59.8387 -16.8488 0.256402 0.915439 0.310209
5.52757 59.8636 -17.4059 0.268273 0.914675 0.302322
5.6355 59.4823 -16.3711 0.258325 0.914913 0.310167
4.57322 59.4301 -15.3516 0.250755 0.913773 0.319594
3.1989 59.3426 -14.0608 0.244764 0.913615 0.324651
2.14205 59.242 -13.0878 0.21644 0.916249 0.337107
0.895657 59.1251 -11.943 0.204022 0.921013 0.331829
-0.0895695 58.9999 -11.0556 0.178357 0.923358 0.339998
-1.0473 58.8684 -10.196 0.170605 0.921532 0.348816
-2.14631 58.6876 -9.23045 0.162833 0.919574 0.357589
-3.18395 58.5149 -8.32138 0.142214 0.919951 0.365328
-4.24321 58.3027 -7.40422 0.128467 0.926058 0.354842
-5.36282 58.0839 -6.4279 0.116026 0.925402 0.360789
-7.20726 57.6708 -4.83084 0.096047 0.929322 0.356562
-8.25659 57.4198 -3.92586 0.0877945 0.929008 0.359495
-9.2154 57.1945 -3.09524 0.076314 0.929858 0.359916
-10.2397 56.9221 -2.22479 0.0638613 0.928562 0.365641
-11.2575 56.6521 -1.359 0.0514964 0.931565 0.35991
-12.2117 56.379 -0.546947 0.0548339 0.925642 0.374407
-13.1691 56.1062 0.267722 0.0422119 0.922917 0.382678
-14.1172 55.799 1.06255 0.0290601 0.923115 0.383424
-15.5458 55.3334 2.27297 0.00923695 0.921852 0.387433
-16.5426 54.99 3.11366 0.0217989 0.919109 0.393399
-17.5963 54.614 4.00262 0.00364349 0.917494 0.397734
-18.5943 54.2456 4.84392 -0.0150401 0.910619 0.412973
-18.3965 53.8122 5.82399 -0.0195965 0.917005 0.398394
-17.0771 54.3137 4.71085 -0.0163059 0.921639 0.387706
-15.5148 54.8653 3.38597 0.00906555 0.924058 0.382144
-14.4912 55.2178 2.52274 0.0188912 0.924084 0.381723
-12.6512 55.7958 0.959164 0.0290626 0.923115 0.383424
-11.1828 56.2271 -0.290744 0.0394029 0.929389 0.366993
-9.93207 56.564 -1.36456 0.0635782 0.933554 0.352752
-8.81998 56.8585 -2.31123 0.0763117 0.929859 0.359915
-7.87275 57.0806 -3.13232 0.0887501 0.930979 0.354121
-6.89157 57.3122 -3.98131 0.096046 0.929323 0.356559
-5.93199 57.5222 -4.81626 0.104293 0.929565 0.3536
-4.97728 57.7311 -5.64697 0.103933 0.92709 0.360142
-3.90943 57.9431 -6.57659 0.11631 0.931041 0.345881
-2.84712 58.1539 -7.50141 0.133052 0.930128 0.342285
-1.67894 58.3367 -8.54087 0.158058 0.925093 0.345284
-0.383627 58.5498 -9.67887 0.170607 0.921531 0.348817
0.591829 58.6772 -10.5564 0.197547 0.919359 0.340226
1.59845 58.7974 -11.4655 0.204025 0.921012 0.33183
2.58391 58.8898 -12.3707 0.210477 0.922559 0.323395
3.91233 58.995 -13.6019 0.237656 0.920345 0.310621
5.13474 59.0737 -14.7497 0.244924 0.91856 0.310259
4.26528 58.6385 -12.8 0.237771 0.922123 0.305213
3.11489 58.5452 -11.7353 0.211741 0.922166 0.323691
2.01736 58.4358 -10.7317 0.191807 0.923123 0.333247
0.349433 58.2396 -9.22306 0.186238 0.926988 0.325589
-0.703033 58.0843 -8.28482 0.153251 0.930423 0.332907
-1.71292 57.9296 -7.38741 0.151503 0.929687 0.335752
-2.66164 57.7738 -6.54049 0.13305 0.930128 0.342286
-3.72395 57.5629 -5.61568 0.11631 0.931041 0.345881
-4.91566 57.326 -4.57421 0.0953887 0.933096 0.346747
-6.06302 57.0726 -3.57645 0.0960904 0.935425 0.340217
-7.21593 56.8115 -2.57289 0.0736104 0.936236 0.343574
-8.41478 56.5251 -1.53562 0.0737617 0.937508 0.340055
-9.36137 56.2814 -0.719496 0.063577 0.933555 0.352751
-11.1848 55.7796 0.842751 0.0388748 0.932159 0.359957
-12.1392 55.5084 1.66505 0.0257292 0.932236 0.360935
-13.7826 54.9767 3.06294 0.0208261 0.927824 0.372437
-14.972 54.5798 4.07485 0.00888889 0.926235 0.376841
-15.9616 54.2463 4.91791 -0.00370893 0.924026 0.382311
-17.1893 53.7812 5.95578 -0.0202092 0.91702 0.398328
-17.9666 53.4773 6.61601 -0.0199029 0.917013 0.398361
-17.9721 52.9794 7.77853 -0.0507402 0.920127 0.388319
-16.7678 53.4448 6.75153 -0.0280853 0.922127 0.385867
-15.7754 53.8328 5.90866 -0.018258 0.919347 0.393025
-14.5352 54.2635 4.85426 -0.0118101 0.930109 0.367095
-13.4703 54.6348 3.94775 -0.000268035 0.933113 0.359583
-12.4736 54.9472 3.09087 0.0131064 0.929383 0.368884
-11.138 55.3599 1.94949 0.0383446 0.934875 0.352901
-9.99018 55.6862 0.96058 0.0318331 0.936264 0.349852
-8.902 55.9758 0.020969 0.0537061 0.936185 0.34738
-7.12615 56.4177 -1.51901 0.0737617 0.937508 0.340055
-6.17746 56.6443 -2.33984 0.0852043 0.937047 0.338649
-4.85439 56.921 -3.50114 0.0960876 0.935425 0.340218
-3.73528 57.1508 -4.47793 0.117344 0.93353 0.33875
-2.63924 57.3613 -5.4376 0.116825 0.932293 0.342317
-1.01336 57.6338 -6.8854 0.145239 0.931092 0.334625
0.299174 57.8316 -8.05429 0.159517 0.928509 0.335298
1.35435 57.9619 -9.00745 0.186238 0.926988 0.325589
2.32521 58.0761 -9.88557 0.186047 0.9268 0.326234
3.49318 58.1861 -10.9597 0.211967 0.923014 0.321114
3.73915 58.2089 -11.1856 0.211741 0.922165 0.323692
3.86213 57.8296 -10.1715 0.212191 0.923856 0.318536
2.77447 57.7331 -9.16737 0.199138 0.925415 0.322415
1.77809 57.6165 -8.2649 0.186429 0.927176 0.324945
0.82426 57.5052 -7.40009 0.172993 0.927939 0.330156
-0.572104 57.3022 -6.14534 0.161285 0.932019 0.324543
-2.14868 57.0487 -4.73799 0.127854 0.935006 0.330784
-3.68148 56.7533 -3.39626 0.115546 0.936729 0.330435
-4.72185 56.5453 -2.48118 0.0935974 0.938869 0.331307
-5.68632 56.3428 -1.63477 0.0951913 0.938291 0.332488
-6.6742 56.1146 -0.772692 0.073912 0.938767 0.336532
-8.30134 55.712 0.639106 0.0532618 0.939412 0.338627
-9.32446 55.4567 1.53235 0.0390714 0.940206 0.338359
-11.0899 54.9412 3.05495 0.0244739 0.940404 0.339178
-12.0301 54.6486 3.86493 0.0112729 0.935932 0.352001
-13.448 54.1878 5.08095 -0.0118101 0.930109 0.367095
-15.0086 53.6498 6.41456 -0.0263515 0.931563 0.362625
-15.9778 53.2779 7.24216 -0.0359545 0.927009 0.373312
-16.954 52.905 8.07401 -0.0359545 0.927009 0.373312
-17.7192 52.5923 8.72876 -0.0507402 0.920127 0.388319
-17.7985 52.0703 9.96627 -0.0564763 0.923 0.380634
-16.8637 52.4532 9.16315 -0.0483715 0.922288 0.383465
-15.764 52.8909 8.22367 -0.0370688 0.927035 0.373138
-14.6 53.3393 7.22823 -0.038183 0.92706 0.372963
-13.4105 53.7528 6.20679 -0.0145131 0.935816 0.352189
-12.4146 54.0934 5.3534 -0.000268106 0.933113 0.359583
-11.0729 54.5195 4.19564 0.000186726 0.937651 0.347579
-9.94461 54.8558 3.21636 0.0236269 0.94314 0.331555
-8.83056 55.1771 2.2523 0.0390727 0.940206 0.338358
-7.48601 55.5125 1.07843 0.0509509 0.942989 0.328901
-6.22937 55.8131 -0.0207231 0.0687734 0.94023 0.333524
-4.84277 56.1219 -1.23652 0.0939244 0.94287 0.319648
-3.77304 56.3434 -2.17722 0.105143 0.938859 0.327855
-2.73987 56.5304 -3.08981 0.11667 0.938712 0.324359
-1.79296 56.7107 -3.92013 0.127854 0.935007 0.330781
-0.650673 56.8922 -4.93898 0.143889 0.934384 0.325919
0.306554 57.0333 -5.80148 0.15314 0.936115 0.316602
1.30094 57.1692 -6.70313 0.176188 0.932763 0.314502
2.31411 57.2886 -7.62089 0.175825 0.932524 0.315413
3.33285 57.3989 -8.54939 0.201651 0.929288 0.309452
3.241 57.0117 -7.32701 0.201647 0.929285 0.309465
2.22653 56.8945 -6.40674 0.17619 0.932762 0.314503
1.27473 56.7823 -5.53725 0.17655 0.933001 0.313591
0.29649 56.6435 -4.65298 0.146517 0.933651 0.326846
-1.42635 56.3744 -3.11202 0.141062 0.938431 0.315355
-2.42266 56.1968 -2.23134 0.105111 0.944923 0.309954
-3.40935 56.0205 -1.35933 0.0999168 0.943815 0.315007
-4.92024 55.7183 -0.023302 0.0813582 0.941648 0.326619
-6.38001 55.3854 1.25889 0.067874 0.946163 0.316493
-7.4701 55.117 2.21375 0.0490888 0.943417 0.327956
-8.72998 54.7899 3.31738 0.0224165 0.943349 0.331045
-10.0487 54.419 4.46626 0.0119081 0.940494 0.339603
-11.0602 54.0954 5.33987 -0.00114809 0.940158 0.340737
-12.6352 53.5769 6.70615 -0.0182205 0.936145 0.351141
-13.7473 53.1999 7.66201 -0.0263501 0.931562 0.362626
-14.9612 52.7323 8.70018 -0.0406526 0.930382 0.364332
-16.3509 52.1801 9.89541 -0.0575966 0.924848 0.375951
-17.5899 51.6733 10.9599 -0.0646578 0.918836 0.389308
-17.1828 51.3522 11.7885 -0.0872444 0.9206 0.380637
-15.9628 51.8698 10.7349 -0.0655283 0.925711 0.372512
-15.0077 52.2677 9.91411 -0.0543293 0.929764 0.364126
-14.0627 52.6213 9.10044 -0.0431157 0.933617 0.355668
-13.1165 52.9756 8.28565 -0.0409753 0.939154 0.341044
-12.1716 53.3027 7.46867 -0.0219268 0.936459 0.35009
-11.2258 53.6304 6.65123 -0.0122094 0.939616 0.342014
-9.62976 54.127 5.26134 -0.00372369 0.942734 0.333525
-8.66162 54.4043 4.41354 0.021204 0.943554 0.330539
-7.62734 54.6901 3.5077 0.0476227 0.948651 0.312718
-6.57759 54.9424 2.58252 0.0483567 0.946065 0.320349
-5.29374 55.2422 1.45383 0.067874 0.946163 0.316493
-4.02285 55.5097 0.326693 0.0942019 0.944877 0.313583
-2.87579 55.7392 -0.688584 0.0947166 0.942656 0.320044
-1.79508 55.9343 -1.64381 0.105111 0.944923 0.309954
-0.650671 56.1185 -2.66396 0.132979 0.942082 0.307892
0.298728 56.257 -3.51746 0.135577 0.943037 0.303809
1.24568 56.3951 -4.36875 0.149093 0.940924 0.304029
2.20032 56.5076 -5.24086 0.17655 0.933001 0.313591
2.30304 56.5197 -5.3347 0.176551 0.933 0.313592
2.4287 56.1669 -4.30488 0.165127 0.939681 0.299556
1.16638 56.0146 -3.15208 0.149093 0.940924 0.304029
0.133885 55.864 -2.22389 0.132979 0.942082 0.307893
-1.04858 55.6778 -1.16798 0.130374 0.941106 0.311966
-2.15419 55.4954 -0.184278 0.0999168 0.943815 0.315007
-3.73971 55.19 1.22625 0.0936779 0.947052 0.307109
-4.85071 54.9531 2.211 0.0721765 0.945115 0.318667
-6.42825 54.5961 3.61022 0.0481899 0.948537 0.312978
-7.81406 54.24 4.82818 0.0199557 0.94636 0.322498
-8.92887 53.9359 5.81254 0.00687397 0.946087 0.323841
-10.1481 53.5523 6.87983 -0.00372295 0.942733 0.333528
-11.1723 53.2141 7.76819 -0.0250413 0.940192 0.339723
-12.4782 52.7784 8.90549 -0.0409753 0.939154 0.341044
-13.4708 52.3971 9.76415 -0.0537904 0.934203 0.352663
-14.4231 52.0392 10.5847 -0.0543292 0.929764 0.364126
-15.3826 51.6418 11.4115 -0.0674125 0.930955 0.358857
-16.3552 51.2457 12.2564 -0.0814149 0.925986 0.368675
-17.0374 50.9309 12.8504 -0.0953941 0.920724 0.378374
-16.8032 50.5505 13.8351 -0.0953942 0.920724 0.378374
-15.7879 51.019 12.951 -0.0814177 0.925986 0.368674
-14.8154 51.4151 12.1061 -0.0674125 0.930955 0.358857
-13.8442 51.8144 11.2611 -0.0698463 0.936062 0.344833
-12.8325 52.1998 10.384 -0.0537904 0.934203 0.352663
-11.8399 52.5811 9.52533 -0.0409767 0.939154 0.341043
-10.4823 53.0341 8.34302 -0.0238366 0.943708 0.32992
-9.20552 53.4373 7.21948 -0.00734308 0.945344 0.325993
-7.59119 53.9135 5.80056 0.0187062 0.949095 0.314435
-6.28783 54.2481 4.64322 0.0472253 0.952097 0.302129
-5.20132 54.5097 3.68327 0.0481899 0.948537 0.312978
-3.73148 54.8186 2.37242 0.0735423 0.951573 0.298498
-2.73428 55.0124 1.4828 0.0802943 0.951721 0.296277
-1.38769 55.2559 0.279543 0.11731 0.949058 0.292452
-0.393091 55.4067 -0.611044 0.117514 0.949174 0.291993
0.91844 55.6094 -1.78381 0.132979 0.942082 0.307893
1.904 55.7342 -2.68125 0.162584 0.938633 0.304194
1.79681 55.3583 -1.43117 0.155085 0.943997 0.291237
0.653913 55.2114 -0.397729 0.117514 0.949174 0.291992
-0.427622 55.0474 0.570704 0.117514 0.949174 0.291993
-1.69172 54.8526 1.70766 0.117106 0.948941 0.29291
-2.6608 54.6673 2.5713 0.0802943 0.951721 0.296277
-3.66886 54.4657 3.47607 0.0782444 0.950858 0.299578
-4.81955 54.2198 4.50303 0.0472229 0.952096 0.30213
-6.05379 53.9436 5.60535 0.0462521 0.955531 0.291241
-7.05094 53.6798 6.48989 0.0122453 0.95006 0.311827
-8.09193 53.3834 7.4136 -0.008248 0.947712 0.31902
-9.22799 53.0354 8.41343 -0.0146231 0.945715 0.324668
-10.2403 52.7025 9.30403 -0.0195228 0.943597 0.330521
-11.2016 52.3839 10.1452 -0.0409767 0.939154 0.341043
-12.2184 51.9974 11.0272 -0.0574506 0.940094 0.33604
-13.2825 51.6007 11.955 -0.0698463 0.936062 0.344833
-14.2507 51.1945 12.8004 -0.0822247 0.931799 0.35354
-15.2206 50.7923 13.6456 -0.0814177 0.925986 0.368674
-16.196 50.351 14.4971 -0.101846 0.928448 0.357228
-16.6935 50.1289 14.9324 -0.101845 0.928448 0.357229
-16.4935 49.758 15.9534 -0.114688 0.922347 0.368948
-15.5444 50.1816 15.1231 -0.101846 0.928448 0.357228
-13.9952 50.8524 13.7616 -0.0831236 0.934131 0.347117
-12.7209 51.387 12.6488 -0.069845 0.936061 0.344834
-11.6567 51.7837 11.721 -0.0574506 0.940094 0.33604
-10.628 52.1715 10.8216 -0.0528716 0.944761 0.323467
-9.58094 52.5109 9.89853 -0.0352097 0.950938 0.307372
-8.50723 52.8612 8.95329 -0.0146231 0.945715 0.324668
-7.43376 53.189 8.0045 -0.00676944 0.947646 0.319251
-6.47272 53.4606 7.14965 0.0110094 0.952808 0.303373
-4.9495 53.8331 5.79 0.0485744 0.954957 0.292741
-3.70646 54.0976 4.67404 0.0741653 0.955418 0.285789
-2.6574 54.3033 3.72745 0.0756646 0.952812 0.293981
-1.66244 54.5007 2.83593 0.0987179 0.950494 0.294644
-0.361111 54.7015 1.66522 0.117106 0.948941 0.29291
1.00928 54.9113 0.434896 0.136268 0.946724 0.291796
1.55448 54.9748 -0.0605773 0.154974 0.943936 0.291494
1.30985 54.595 1.31222 0.147776 0.947857 0.282363
0.146819 54.427 2.36451 0.111285 0.951739 0.286024
-1.04739 54.2437 3.43924 0.111715 0.952076 0.28473
-2.0755 54.063 4.37237 0.079028 0.953385 0.291226
-3.21698 53.8426 5.40494 0.0752502 0.956104 0.283202
-4.52949 53.5679 6.58526 0.0485742 0.954957 0.292742
-5.4685 53.3591 7.43006 0.0303496 0.954376 0.29706
-6.61813 53.0465 8.45664 -0.000534848 0.952218 0.305418
-7.66807 52.7305 9.38603 -0.0122167 0.95149 0.307438
-8.74974 52.3969 10.3464 -0.0352083 0.950938 0.307372
-9.75307 52.0696 11.2312 -0.0369385 0.948414 0.314875
-11.1441 51.5578 12.4541 -0.0687878 0.940786 0.33195
-12.1592 51.1733 13.3427 -0.069845 0.936061 0.344834
-13.1306 50.7727 14.1938 -0.0840161 0.936418 0.340679
-14.1036 50.3748 15.0475 -0.0951941 0.9325 0.348398
-15.7166 49.6446 16.4697 -0.1041 0.928424 0.356641
-15.9565 49.5317 16.678 -0.129191 0.919241 0.371894
-16.0923 48.995 17.9964 -0.14183 0.922364 0.359346
-14.9255 49.5576 16.9682 -0.115262 0.933331 0.34001
-13.8833 50.0169 16.0465 -0.110209 0.93157 0.346456
-12.6235 50.5501 14.9388 -0.0975715 0.937917 0.332854
-11.4046 51.0491 13.8663 -0.0769845 0.943966 0.320939
-9.69086 51.6979 12.3581 -0.0528718 0.944761 0.323467
-8.25155 52.1757 11.0878 -0.036072 0.949684 0.311125
-7.20204 52.49 10.1514 -0.0115085 0.951942 0.306061
-6.08627 52.8175 9.15875 0.0118604 0.953244 0.30197
-5.1005 53.0832 8.2773 0.0373055 0.953697 0.298445
-3.48905 53.4411 6.82623 0.0487475 0.955329 0.291495
-2.05015 53.7117 5.51915 0.0817196 0.954782 0.285856
-1.04279 53.8959 4.606 0.112146 0.952411 0.283436
-0.0661845 54.0462 3.71453 0.111713 0.952076 0.284729
1.07283 54.2211 2.68946 0.129471 0.949916 0.284422
1.12283 54.227 2.64354 0.147615 0.947773 0.282729
1.13577 53.8827 3.79115 0.129471 0.949916 0.284422
0.0171973 53.7106 4.80937 0.112145 0.952411 0.283436
-1.04348 53.5476 5.77755 0.104325 0.954242 0.280248
-2.3023 53.3157 6.92142 0.080231 0.955843 0.282713
-3.51103 53.0829 8.02148 0.0611153 0.955614 0.288214
-5.17644 52.6813 9.51865 0.0282018 0.950496 0.309454
-6.15019 52.4282 10.3955 -0.0182364 0.955983 0.292856
-7.28025 52.0968 11.4069 -0.0182398 0.955983 0.292856
-8.39343 51.7381 12.3938 -0.039515 0.948748 0.313554
-9.48689 51.3654 13.3616 -0.0692996 0.946096 0.316386
-10.5562 50.9685 14.307 -0.0769875 0.943966 0.320937
-11.9849 50.3944 15.5647 -0.0975699 0.937917 0.332855
-13.1463 49.91 16.5894 -0.104795 0.936284 0.335246
-14.3736 49.3644 17.6802 -0.116467 0.932016 0.343193
-15.5548 48.7953 18.7211 -0.14183 0.922364 0.359346
-15.833 48.6574 18.9655 -0.14304 0.924273 0.35392
-14.9685 48.6251 19.4092 -0.144245 0.92615 0.348481
-13.6378 49.2548 18.2247 -0.114603 0.932131 0.343508
-12.2019 49.881 16.9479 -0.0975708 0.937933 0.33281
-11.15 50.3203 16.0181 -0.0975677 0.937925 0.332833
-9.68959 50.8909 14.7292 -0.0686627 0.943079 0.325405
-8.17182 51.4244 13.3821 -0.0402783 0.950832 0.307076
-6.94401 51.8314 12.2941 -0.0288824 0.952476 0.30324
-5.85197 52.1534 11.3113 -0.0182314 0.955983 0.292857
-4.52243 52.4933 10.1091 0.0140407 0.964329 0.264336
-2.81238 52.8646 8.55929 0.0758124 0.954325 0.288992
-1.19477 53.1735 7.08762 0.0912057 0.954657 0.283392
-0.219554 53.3349 6.1953 0.104325 0.954242 0.280248
0.778601 53.4873 5.28431 0.106474 0.955112 0.276449
0.604376 53.1221 6.61304 0.104323 0.954242 0.280247
-0.952955 52.8645 8.038 0.096884 0.957444 0.271871
-2.05168 52.6735 9.04648 0.0587276 0.964505 0.257451
-3.89279 52.3154 10.7246 0.0317394 0.963008 0.267599
-5.26066 51.9655 11.9615 -0.0182313 0.955983 0.292857
-6.23184 51.6884 12.8467 -0.0570112 0.961806 0.26773
-7.37361 51.3034 13.8614 -0.0402798 0.950832 0.307076
-8.39064 50.9684 14.7654 -0.0527731 0.948365 0.31276
-9.50505 50.5439 15.7509 -0.0738265 0.942988 0.324534
-10.6859 50.0987 16.7984 -0.0899448 0.942385 0.322211
-12.0914 49.5087 18.0418 -0.104436 0.938774 0.328324
-13.0618 49.0852 18.912 -0.122916 0.936135 0.329458
-14.339 48.4775 20.0591 -0.137652 0.926614 0.349912
-14.5059 48.3961 20.2091 -0.140949 0.926388 0.349198
-14.4556 47.974 21.373 -0.165087 0.92843 0.332811
-13.5132 48.425 20.5231 -0.14767 0.930418 0.335434
-12.5925 48.8711 19.6957 -0.122915 0.936138 0.329451
-11.2225 49.4569 18.466 -0.104587 0.938538 0.32895
-10.3007 49.8449 17.6482 -0.089946 0.942386 0.322208
-9.13782 50.2833 16.6167 -0.0755886 0.94553 0.316639
-8.193 50.6395 15.7786 -0.0824404 0.94622 0.312844
-6.82885 51.1113 14.5659 -0.0577943 0.952847 0.297898
-5.70778 51.4908 13.5693 -0.0692892 0.949039 0.307449
-4.62109 51.8064 12.5758 -0.0230815 0.966771 0.254598
-3.15517 52.1329 11.2379 0.0494273 0.961374 0.270771
-2.15273 52.3376 10.3281 0.0540781 0.962973 0.264119
-0.546419 52.6069 8.84833 0.0918007 0.96141 0.259353
0.486169 52.7653 7.89774 0.0915787 0.961351 0.259649
1.09487 52.5307 8.51897 0.117422 0.955823 0.269472
-0.544812 52.2867 10.0349 0.0918017 0.961409 0.259354
-1.54586 52.1293 10.9621 0.0589042 0.962117 0.266196
-2.99393 51.8361 12.2822 0.0458265 0.963377 0.264206
-3.92575 51.6496 13.143 0.0348018 0.960382 0.276505
-5.10613 51.316 14.2197 -0.0069498 0.954403 0.298441
-6.77165 50.7602 15.7001 -0.0578375 0.952867 0.297823
-8.27971 50.2179 17.0453 -0.0892871 0.946852 0.30903
-9.68029 49.6798 18.2893 -0.0824404 0.94622 0.312844
-10.9237 49.1705 19.4039 -0.121152 0.946174 0.300129
-11.8799 48.7749 20.2649 -0.127552 0.942112 0.31009
-13.4791 48.023 21.71 -0.15764 0.93392 0.320848
-13.8611 47.8301 22.0556 -0.172497 0.922729 0.344696
-13.313 47.6619 22.7803 -0.172499 0.922729 0.344696
-12.2911 48.1732 21.8564 -0.1458 0.935979 0.320446
-11.3948 48.5787 21.043 -0.133936 0.937903 0.319999
-10.1468 49.1072 19.9169 -0.11658 0.946412 0.301188
-8.69564 49.6699 18.6044 -0.0896062 0.950207 0.298458
-7.60355 50.0894 17.6344 -0.0892869 0.946852 0.30903
-6.44465 50.5012 16.5985 -0.0569185 0.953777 0.295077
-5.50071 50.8199 15.7558 -0.0356751 0.952944 0.30104
-4.50396 51.1202 14.8596 -0.0134938 0.952541 0.304111
-3.32436 51.4361 13.7877 0.0489326 0.956643 0.287122
-2.13356 51.6825 12.693 0.0460835 0.963592 0.263376
-1.10978 51.8762 11.7517 0.0719714 0.960688 0.268139
0.300251 52.0962 10.4415 0.0919007 0.961366 0.25948
0.536043 52.1325 10.2231 0.105647 0.960535 0.257315
1.23482 51.9027 10.7607 0.115808 0.961196 0.250383
0.172828 51.7591 11.7535 0.0931178 0.963054 0.252696
-0.923543 51.5775 12.7718 0.0720079 0.960666 0.268207
-1.9266 51.3834 13.6947 0.0547428 0.95883 0.278656
-3.24303 51.0883 14.899 0.0431186 0.954351 0.295559
-4.25607 50.8177 15.818 -0.0168079 0.955207 0.295461
-5.19945 50.5425 16.6709 -0.0290161 0.95522 0.29447
-6.75225 50.0282 18.0679 -0.0731134 0.950468 0.302102
-7.85344 49.6138 19.0532 -0.0899142 0.953445 0.28785
-8.87551 49.2389 19.9758 -0.10097 0.950125 0.295072
-10.1875 48.704 21.1647 -0.11228 0.948299 0.296855
-11.101 48.2997 21.9946 -0.14754 0.940623 0.305712
-12.1224 47.837 22.9229 -0.167681 0.933387 0.317289
-12.5753 47.6008 23.3367 -0.181602 0.927123 0.327817
-11.9687 47.4878 24.0089 -0.186979 0.927178 0.324622
-10.8863 48.0009 23.0178 -0.147922 0.939895 0.307761
-9.94243 48.4273 22.1612 -0.130069 0.94546 0.298643
-8.83232 48.8699 21.1475 -0.11228 0.948299 0.296855
-7.41971 49.4079 19.8707 -0.0899143 0.953445 0.287851
-6.38177 49.7894 18.9319 -0.0688364 0.957173 0.281215
-5.4334 50.0888 18.0722 -0.0379039 0.952518 0.302114
-4.13631 50.4958 16.9015 -0.011363 0.957175 0.289288
-2.76904 50.8474 15.6549 0.0295966 0.963952 0.264424
-1.78251 51.0682 14.7508 0.0489342 0.956642 0.287125
-0.66878 51.2849 13.7265 0.0696062 0.95827 0.277263
0.489905 51.4919 12.6552 0.100659 0.962115 0.253381
0.814921 51.536 12.35 0.108193 0.961122 0.254046
1.54301 51.3201 12.8615 0.105555 0.962472 0.250012
0.459759 51.1671 13.8759 0.0811386 0.960826 0.265009
-0.580063 50.9685 14.8321 0.0616315 0.961772 0.266825
-1.82173 50.7289 15.9808 0.0455262 0.962944 0.265829
-3.01285 50.4474 17.0704 -0.00260597 0.956484 0.291774
-4.21456 50.1231 18.1675 -0.0261167 0.960805 0.275991
-5.20393 49.8103 19.0623 -0.0494376 0.958591 0.280462
-6.13746 49.5163 19.9152 -0.0907144 0.95351 0.287385
-7.51033 49.0111 21.1582 -0.0906328 0.955178 0.281816
-8.69572 48.55 22.243 -0.115267 0.9501 0.289869
-9.80351 48.0942 23.2532 -0.147925 0.939895 0.307759
-10.9519 47.5658 24.3054 -0.148306 0.939162 0.309807
-11.3247 47.3942 24.647 -0.167681 0.933387 0.317289
-10.998 47.1352 25.5749 -0.187976 0.926018 0.327345
-10.0249 47.5895 24.6826 -0.155613 0.939497 0.305173
-9.11995 48.0092 23.8519 -0.135298 0.945516 0.296133
-7.54919 48.6385 22.4088 -0.115267 0.9501 0.289869
-6.60854 48.9835 21.5492 -0.0905488 0.956815 0.276236
-5.21597 49.4605 20.28 -0.0469195 0.960328 0.274898
-3.99594 49.8417 19.1676 -0.0261168 0.960805 0.275991
-3.01306 50.0986 18.2665 -0.0027828 0.962475 0.271356
-1.96083 50.3705 17.3029 0.0455266 0.962944 0.265829
-0.606194 50.633 16.0466 0.0614452 0.961691 0.267162
0.547393 50.8547 14.9819 0.0811373 0.960825 0.265012
1.69291 51.0283 13.9105 0.100615 0.959509 0.263094
1.88252 51.0565 13.7331 0.105555 0.962472 0.250012
1.98464 50.7468 14.8257 0.100613 0.959509 0.263094
1.03695 50.6031 15.7121 0.0895226 0.965265 0.245458
-0.272395 50.3761 16.9331 0.0468161 0.968542 0.244407
-1.27067 50.1902 17.861 0.0446167 0.96742 0.249216
-2.31392 49.9499 18.8258 -0.0113522 0.964339 0.264427
-3.43707 49.6543 19.8556 -0.0105409 0.965048 0.261861
-4.37812 49.3803 20.721 -0.0545177 0.962236 0.266703
-5.90398 48.8853 22.1204 -0.0783921 0.956794 0.279999
-6.88276 48.5346 23.0143 -0.102918 0.953557 0.283084
-8.42989 47.915 24.4405 -0.114915 0.951033 0.286935
-9.57722 47.3995 25.4958 -0.155613 0.939497 0.305171
-10.2801 47.0822 26.1474 -0.171132 0.937419 0.303249
-9.79587 46.909 26.9362 -0.184345 0.930208 0.317379
-8.91436 47.3192 26.1189 -0.157844 0.944229 0.288994
-7.36213 47.9738 24.6793 -0.132367 0.954232 0.268179
-6.41546 48.3516 23.8024 -0.116913 0.956235 0.268229
-5.42429 48.6901 22.8906 -0.0662192 0.956619 0.283717
-4.48505 49.0112 22.027 -0.06622 0.956618 0.283718
-3.52487 49.3066 21.1473 -0.00972865 0.96575 0.259291
-2.59932 49.5463 20.2893 -0.00972849 0.96575 0.259291
-1.61628 49.8044 19.3864 0.0155399 0.965666 0.259321
-0.587345 50.0112 18.4276 0.0424191 0.966269 0.254019
0.488321 50.2146 17.4273 0.0468153 0.968542 0.244406
1.55213 50.3927 16.4315 0.0740616 0.969012 0.235649
1.86479 50.4364 16.1377 0.0783883 0.97057 0.227704
2.38484 50.2267 16.8526 0.0740596 0.969013 0.235647
1.4525 50.0739 17.7264 0.0697256 0.967374 0.243571
0.508621 49.9153 18.6097 0.0446167 0.96742 0.249216
-0.472374 49.718 19.5238 0.0424206 0.966269 0.254019
-1.41057 49.5294 20.398 0.0155399 0.965666 0.259321
-2.40694 49.2712 21.3212 -0.00972849 0.96575 0.259291
-3.40414 49.0129 22.2456 -0.0321301 0.964243 0.263066
-4.66814 48.5986 23.4086 -0.0812292 0.966386 0.243926
-5.6874 48.2751 24.3509 -0.0913414 0.962324 0.256103
-7.32324 47.6442 25.8713 -0.132367 0.954232 0.268179
-8.56131 47.0995 27.0295 -0.152317 0.944817 0.290035
-8.91213 46.9413 27.3548 -0.17113 0.937419 0.30325
-8.1703 46.9119 27.9037 -0.17626 0.945646 0.273286
-7.21631 47.3155 27.0063 -0.15534 0.949432 0.272852
-5.78534 47.8952 25.6708 -0.101429 0.958005 0.268215
-4.56535 48.3229 24.5353 -0.081228 0.966386 0.243926
-3.48957 48.6643 23.5407 -0.0675319 0.966664 0.246984
-2.14732 49.0243 22.2925 -0.0235156 0.968375 0.248387
-1.13138 49.2904 21.3511 6.45342e-05 0.970323 0.241812
0.479238 49.6136 19.846 0.0241241 0.972002 0.233732
1.83771 49.849 18.5714 0.0546117 0.97357 0.221762
2.30975 49.9235 18.1281 0.0546118 0.97357 0.221762
3.17647 49.7764 18.5218 0.0990463 0.970238 0.220972
1.89863 49.578 19.7247 0.0504061 0.971721 0.23069
0.911489 49.4087 20.6532 0.037269 0.971946 0.232233
-0.0107032 49.2233 21.5157 0.0236484 0.971684 0.235096
-1.28826 48.9383 22.7089 -0.0237252 0.971257 0.236849
-2.41271 48.668 23.7582 -0.0388817 0.970565 0.237681
-3.8225 48.2503 25.0702 -0.0675305 0.966664 0.246984
-4.92156 47.8686 26.0925 -0.108352 0.961509 0.252509
-5.8698 47.5371 26.9816 -0.122947 0.961254 0.246727
-7.13685 47.0163 28.1779 -0.16383 0.95309 0.254516
-7.54119 46.8341 28.56 -0.188591 0.937671 0.291901
-6.61344 46.9049 28.9319 -0.17626 0.945647 0.273286
-5.30754 47.423 27.6934 -0.130632 0.957626 0.256685
-4.33771 47.7691 26.7819 -0.115241 0.964718 0.236725
-3.06687 48.1588 25.5867 -0.0560818 0.970024 0.236449
-1.82352 48.5272 24.4295 -0.0388832 0.970564 0.237682
-0.830311 48.766 23.5028 -0.00678656 0.973769 0.227439
0.193982 48.978 22.5412 0.0133558 0.974559 0.223733
1.39196 49.2119 21.4148 0.0355602 0.975358 0.217741
2.99662 49.4823 19.9041 0.0629222 0.97506 0.212834
3.14143 49.4992 19.7657 0.0895108 0.973686 0.209579
3.995 49.3343 20.1674 0.0895108 0.973686 0.209579
3.04873 49.2241 21.0719 0.0629204 0.975061 0.212831
2.07322 49.0573 21.9911 0.0339561 0.974622 0.221268
0.620452 48.7841 23.3604 0.0118547 0.973908 0.226632
-0.34573 48.5804 24.2678 0.010359 0.973246 0.229534
-1.51543 48.3031 25.3625 -0.0560821 0.970024 0.236449
-2.75788 47.9615 26.5291 -0.0583325 0.973104 0.222858
-3.69075 47.6747 27.4086 -0.0799639 0.967021 0.241819
-4.68661 47.3319 28.3495 -0.138526 0.960815 0.240095
-5.77248 46.9274 29.3828 -0.15449 0.958312 0.240356
-6.52756 46.5863 30.1043 -0.208449 0.941741 0.263958
-6.34428 46.3244 31.1834 -0.2076 0.943967 0.256571
-5.31643 46.7843 30.2009 -0.162552 0.95259 0.257195
-4.4261 47.1392 29.3512 -0.129437 0.965481 0.226036
-3.27925 47.5128 28.2589 -0.0938121 0.97367 0.207765
-2.24706 47.8197 27.282 -0.0606285 0.973267 0.221531
-0.873996 48.2005 25.9908 -0.0301696 0.976799 0.212021
0.238527 48.4248 24.9408 -0.00114899 0.976887 0.213753
1.33865 48.6523 23.9069 0.0143683 0.977736 0.209348
2.34571 48.8307 22.954 0.027333 0.976508 0.213741
3.46353 49.008 21.893 0.0840637 0.9752 0.204742
4.13072 49.0857 21.2553 0.0886337 0.973391 0.211314
4.13501 48.8357 22.4735 0.0794881 0.976942 0.198155
3.21227 48.7182 23.3571 0.0506355 0.976082 0.211423
1.94777 48.498 24.555 0.0298801 0.97833 0.204885
0.73589 48.2599 25.6971 -0.00114781 0.976887 0.213753
-0.41348 48.0339 26.7862 0.00262162 0.979051 0.203597
-1.35534 47.7887 27.6736 -0.0629241 0.973423 0.220202
-2.26668 47.5497 28.5432 -0.0761473 0.975428 0.206741
-3.2639 47.2415 29.4903 -0.112458 0.967009 0.228578
-4.32511 46.8788 30.5044 -0.142225 0.960924 0.237482
-5.20199 46.5034 31.3439 -0.171709 0.954029 0.245651
-5.65201 46.3114 31.7778 -0.183332 0.950629 0.250387
-5.19132 46.1857 32.5926 -0.183335 0.950629 0.250386
-4.04769 46.6736 31.4899 -0.171713 0.954029 0.245651
-3.1144 46.9977 30.5973 -0.112475 0.9672 0.227758
-2.17588 47.3113 29.7014 -0.0761476 0.975428 0.206741
-1.24726 47.5537 28.8142 -0.0584586 0.976877 0.205653
-0.342248 47.7915 27.951 -0.0301684 0.976799 0.212021
0.786996 48.0113 26.8793 0.00262114 0.979051 0.203598
1.90544 48.234 25.8217 0.0143672 0.977736 0.209346
2.96931 48.4131 24.8114 0.0334485 0.977819 0.206765
4.01517 48.5599 23.8118 0.0665241 0.97827 0.196374
5.17388 48.7047 22.7023 0.0938261 0.97571 0.197956
5.09303 48.4582 24.0082 0.0747825 0.979903 0.184924
4.15936 48.3466 24.9046 0.0591216 0.9812 0.183715
3.23422 48.1953 25.7845 0.0370152 0.97729 0.208648
2.01748 48.0063 26.9464 -0.00295615 0.983431 0.181258
0.784759 47.7738 28.1177 -0.0146045 0.983574 0.179914
-0.12789 47.5979 28.9902 -0.0166901 0.982941 0.18316
-1.10323 47.3449 29.9222 -0.0738727 0.977163 0.199236
-2.20493 47.033 30.9755 -0.102584 0.972158 0.210679
-3.11592 46.7245 31.8464 -0.128903 0.969469 0.208602
-4.02366 46.3609 32.7212 -0.169037 0.954443 0.245896
-5.19057 45.8701 33.8632 -0.199231 0.954292 0.222785
-5.36614 45.7929 34.0368 -0.199233 0.954292 0.222786
-5.05897 45.6298 35.0085 -0.199427 0.953987 0.223913
-4.06268 46.0521 34.0243 -0.168924 0.962583 0.211895
-3.17884 46.3979 33.1581 -0.169003 0.95866 0.228931
-2.27896 46.7396 32.2933 -0.102584 0.972157 0.210681
-0.840431 47.1531 30.9144 -0.0761936 0.974162 0.212609
0.432916 47.4755 29.6981 -0.0153483 0.982041 0.188044
1.85386 47.749 28.3402 -0.00295455 0.983431 0.181258
3.02958 47.9476 27.2144 0.0166983 0.984709 0.173408
4.58069 48.1561 25.7292 0.0308659 0.981973 0.186483
5.64659 48.2749 24.703 0.090428 0.978363 0.186085
5.58622 48.055 25.9957 0.0729415 0.983822 0.163628
4.604 47.9532 26.944 0.0246998 0.986115 0.164214
3.30388 47.7642 28.1888 0.00869391 0.983154 0.182574
2.20862 47.5792 29.2376 0.00515257 0.985625 0.16887
1.04463 47.355 30.3554 -0.0140094 0.981113 0.192926
-0.0676 47.1031 31.4203 -0.0745592 0.974801 0.210246
-1.07793 46.8127 32.3888 -0.0761942 0.974162 0.212609
-2.09304 46.5333 33.3629 -0.107608 0.977047 0.183845
-3.2189 46.1087 34.4648 -0.18016 0.963072 0.200087
-4.11537 45.7525 35.3453 -0.193968 0.957453 0.213683
-5.21867 45.2676 36.4431 -0.22361 0.943931 0.242886
-5.21774 44.8995 37.7212 -0.254902 0.941384 0.220953
-3.953 45.5378 36.4545 -0.193969 0.957453 0.213683
-2.69722 46.0501 35.2163 -0.181169 0.961576 0.206274
-1.68052 46.409 34.2231 -0.116834 0.973479 0.196695
-0.326124 46.7882 32.9178 -0.098349 0.98036 0.170942
0.65986 47.0437 31.9698 -0.0488194 0.984755 0.166958
1.57484 47.231 31.0912 -0.0313954 0.982398 0.184141
2.50062 47.4271 30.2031 -0.0148967 0.985387 0.169678
3.46865 47.5719 29.2709 0.00161016 0.987893 0.155131
4.40219 47.7201 28.3743 0.0166981 0.984709 0.173407
5.37187 47.8242 27.4391 0.0705345 0.98331 0.167707
4.1952 47.4848 29.8179 0.00325366 0.987786 0.155785
3.1036 47.3215 30.8691 -0.0148951 0.985387 0.16968
2.18767 47.1334 31.7486 -0.0356762 0.987425 0.154012
0.798515 46.8479 33.0866 -0.0619455 0.981743 0.179845
-0.595338 46.4978 34.4281 -0.107603 0.977048 0.183845
-1.90987 46.0925 35.7057 -0.154549 0.968976 0.192875
-2.82202 45.7197 36.6062 -0.184345 0.960018 0.210671
-3.72886 45.3523 37.5025 -0.214426 0.954862 0.205571
-4.63949 44.8935 38.4139 -0.254902 0.941384 0.220953
-5.55445 44.4306 39.3304 -0.288377 0.925495 0.245555
-6.3755 43.8834 40.1942 -0.321282 0.907775 0.269672
-7.25095 43.3407 41.0957 -0.367379 0.896044 0.249274
-8.01963 42.7136 41.9591 -0.405626 0.872458 0.272554
-8.79447 42.0863 42.8271 -0.421253 0.855847 0.30012
-9.53231 41.3721 43.7123 -0.454011 0.841148 0.293843
-10.2788 40.6583 44.6022 -0.486197 0.815878 0.312979
-10.988 39.8134 45.5201 -0.519377 0.795367 0.312473
-11.6748 39.0207 46.3962 -0.519377 0.795367 0.312472
-12.4173 37.9542 47.4297 -0.575102 0.739259 0.350363
-13.0399 36.9978 48.3286 -0.607391 0.704711 0.366686
-13.6364 36.0304 49.1998 -0.607265 0.704298 0.367686
-14.1524 35.1191 49.9916 -0.604447 0.689037 0.39984
-14.8158 33.9693 50.9952 -0.593439 0.684561 0.423327
-15.43 32.7849 51.9569 -0.607853 0.665326 0.433423
-16.0589 31.5642 52.9489 -0.597912 0.675184 0.432005
-16.6788 30.4186 53.8693 -0.587436 0.674597 0.447032
-17.2875 29.2874 54.7764 -0.584549 0.677735 0.446069
-17.7922 28.33 55.4961 -0.570961 0.624224 0.533243
-18.3868 27.2549 56.3083 -0.536766 0.702613 0.467137
-19.1966 26.0149 57.3667 -0.538505 0.734868 0.412288
-19.4135 25.6959 57.6518 -0.529759 0.742462 0.410006
-19.3776 24.9611 59.0746 -0.566764 0.73186 0.378364
-18.5801 26.1125 58.0435 -0.5672 0.731217 0.378955
-17.859 27.1974 57.0833 -0.642606 0.663761 0.382725
-17.3159 28.2057 56.3403 -0.649775 0.645619 0.401209
-16.7711 29.2156 55.5934 -0.636457 0.667011 0.387323
-16.218 30.2507 54.7602 -0.612992 0.664519 0.427381
-15.6198 31.3824 53.8585 -0.619708 0.657004 0.429311
-15.0614 32.4791 52.9871 -0.625937 0.661048 0.413785
-14.4275 33.706 51.986 -0.63166 0.655435 0.414019
-13.8173 34.8604 51.0072 -0.629407 0.677673 0.380271
-13.2731 35.8343 50.1723 -0.618374 0.690892 0.374542
-12.7493 36.7078 49.3673 -0.607263 0.704299 0.367687
-12.1411 37.6702 48.4838 -0.57516 0.739426 0.349914
-11.491 38.6151 47.5556 -0.575102 0.739259 0.350362
-10.6884 39.6251 46.4974 -0.519377 0.795367 0.312472
-9.84587 40.5975 45.4227 -0.51841 0.792195 0.321991
-9.05393 41.3782 44.4769 -0.491674 0.828297 0.268665
-8.29807 42.1182 43.5787 -0.450903 0.859768 0.239759
-7.53948 42.696 42.7301 -0.405626 0.872458 0.272554
-6.7708 43.3231 41.8666 -0.367377 0.896045 0.249275
-5.88221 43.8647 40.9561 -0.328189 0.917336 0.225357
-5.00974 44.4076 40.0567 -0.288377 0.925495 0.245555
-4.10636 44.8599 39.1538 -0.244338 0.943125 0.225422
-3.20923 45.3064 38.2582 -0.214426 0.954862 0.205571
-2.33304 45.6425 37.3861 -0.184345 0.960018 0.210671
-1.42089 46.0152 36.4856 -0.154549 0.968976 0.192875
-0.374373 46.3304 35.4703 -0.113381 0.977609 0.17727
0.625729 46.5774 34.5036 -0.0660871 0.984426 0.162906
1.93931 46.8922 33.2376 -0.0488194 0.984755 0.166958
2.82739 47.0577 32.3825 -0.0356762 0.987425 0.154012
2.32488 46.7556 34.1164 -0.0660871 0.984426 0.162906
0.972327 46.4663 35.422 -0.070208 0.986803 0.145916
-0.106748 46.1755 36.4661 -0.10219 0.978403 0.179682
-1.15591 45.8465 37.4866 -0.184295 0.962708 0.198063
-2.26313 45.4233 38.5892 -0.184213 0.965238 0.185423
-3.45171 44.8811 39.7747 -0.244337 0.943125 0.225421
-4.45391 44.4227 40.7698 -0.294239 0.935481 0.1957
-5.39561 43.851 41.7207 -0.329903 0.916911 0.224585
-6.29065 43.3055 42.6376 -0.367377 0.896045 0.249275
-7.05248 42.7119 43.491 -0.408561 0.888241 0.210014
-7.94474 42.0302 44.4965 -0.491674 0.828297 0.268664
-8.75753 41.2345 45.4624 -0.49364 0.832619 0.251128
-9.77289 40.2035 46.6748 -0.569116 0.775479 0.273385
-10.5822 39.2433 47.7137 -0.569199 0.773609 0.278464
-11.2285 38.326 48.6234 -0.626555 0.716891 0.305772
-11.8323 37.4336 49.4913 -0.591461 0.722297 0.358413
-12.5059 36.3118 50.5242 -0.607137 0.703885 0.368687
-13.1695 35.1614 51.543 -0.627926 0.674607 0.388091
-13.6522 34.2469 52.3303 -0.631946 0.660712 0.405098
-14.5352 32.4869 53.7706 -0.626182 0.655269 0.422514
-15.1744 31.2152 54.7575 -0.619708 0.657004 0.429311
-15.7092 30.2192 55.5629 -0.631398 0.679413 0.373811
-16.4891 28.8205 56.6899 -0.645543 0.650005 0.400959
-17.0477 27.7835 57.454 -0.649775 0.645619 0.401209
-17.7229 26.6255 58.3913 -0.634974 0.681424 0.363965
-18.6522 25.2455 59.611 -0.577321 0.740578 0.343866
-19.3171 24.3611 60.4898 -0.579813 0.756609 0.302257
-19.9715 23.5357 61.3582 -0.572443 0.764818 0.295571
-19.6779 28.1422 53.4775 -0.547071 0.696756 0.463944
-18.7618 29.719 52.1895 -0.564488 0.688964 0.454623
-18.0309 31.0191 51.1362 -0.540074 0.691153 0.480238
-17.2686 32.3753 50.0431 -0.540694 0.688956 0.48269
-15.9348 33.8601 49.5752 -0.607804 0.669186 0.42751
-16.8627 32.0957 51.0057 -0.597912 0.675183 0.432006
-17.5925 30.8093 52.0557 -0.587851 0.684906 0.430505
-18.6137 28.9574 53.5482 -0.581651 0.68086 0.445097
