-11.348 41.6885 42.3385 -0.489101 0.819652 0.298245
-11.9255 40.987 43.2875 -0.511963 0.789696 0.336038
-12.3816 40.3446 43.991 -0.535155 0.767195 0.353582
-13.1794 39.2203 45.2231 -0.541141 0.772558 0.331302
-13.9354 38.1742 46.0919 -0.584898 0.723312 0.367035
-14.7529 37.1023 46.9014 -0.586784 0.713188 0.382996
-15.5014 36.1634 47.4503 -0.564915 0.703104 0.431876
-16.2494 35.3115 47.8587 -0.546081 0.714236 0.437213
-17.1033 34.4005 48.2325 -0.552435 0.686104 0.473205
-18.0697 33.3387 48.6287 -0.54887 0.681519 0.484017
-18.7928 32.4818 49.0176 -0.548158 0.68215 0.483937
-19.518 31.5512 49.5094 -0.544154 0.686629 0.482096
-19.9999 30.7572 50.1038 -0.540411 0.689246 0.482593
-20.4464 29.8394 50.9147 -0.54261 0.684941 0.486204
-21.0746 28.8176 51.6358 -0.544809 0.680636 0.489814
-21.2504 28.0898 52.4517 -0.550098 0.685278 0.477047
-21.4639 27.1156 53.6944 -0.544261 0.70584 0.453398
-21.5112 26.2996 54.908 -0.54199 0.702944 0.460491
-21.3876 25.8283 55.8123 -0.516619 0.730386 0.446811
-21.2173 25.3926 56.7213 -0.524095 0.736738 0.426662
-21.146 24.6546 58.1778 -0.524342 0.747874 0.407092
-21.1252 24.1409 59.1369 -0.524218 0.741325 0.418971
-21.3648 23.2946 60.3006 -0.458852 0.782811 0.411857
-21.6002 22.804 61.5241 -0.457493 0.85272 0.252128
-22.1638 22.1257 62.4603 -0.486848 0.816605 0.310057
-22.7308 21.5335 63.1297 -0.467318 0.826516 0.313045
-23.4967 20.8196 63.9044 -0.450009 0.832419 0.323374
-24.2664 20.1459 64.5676 -0.435811 0.841191 0.319648
-25.4947 19.4102 64.9129 -0.420721 0.850495 0.315677
-26.5307 18.5933 65.7346 -0.424956 0.848205 0.316126
-26.4879 18.0231 67.3135 -0.426483 0.852653 0.301319
-25.1719 18.2666 68.5093 -0.41469 0.864131 0.285149
-23.4156 19.0729 68.6201 -0.43168 0.861878 0.264784
-22.5094 19.5489 68.6676 -0.459838 0.846822 0.267287
-21.3775 20.2132 68.685 -0.524037 0.808019 0.269242
-20.4422 20.7867 68.8161 -0.543077 0.803488 0.243872
-19.3897 21.4098 69.1517 -0.550449 0.798494 0.24375
-18.1175 22.1223 69.6907 -0.550487 0.798486 0.243687
-17.0191 22.6426 70.5314 -0.573371 0.780198 0.250072
-16.057 23.0392 71.5002 -0.573347 0.7802 0.250123
-15.4676 23.2299 72.3496 -0.604625 0.762079 0.230648
-14.5567 23.4769 73.8642 -0.604231 0.750893 0.266581
-14.0248 23.611 74.745 -0.576574 0.783883 0.230229
-13.3961 23.8514 75.5282 -0.597808 0.766335 0.235281
-12.345 24.4481 76.2554 -0.595005 0.765668 0.2442
-10.9519 25.398 76.6717 -0.60176 0.747569 0.281115
-9.87111 26.3148 76.5574 -0.611712 0.734543 0.29337
-8.99622 27.0881 76.4719 -0.596986 0.729995 0.332738
-7.87578 28.0961 76.2309 -0.580613 0.736988 0.345867
-6.14386 29.4964 76.2584 -0.569868 0.731225 0.373887
-5.27927 30.1225 76.2756 -0.547078 0.745004 0.381673
-4.34283 30.8332 76.2842 -0.536349 0.73004 0.421815
-3.22423 31.5585 76.3416 -0.504834 0.743911 0.43788
-1.91801 32.4486 76.2975 -0.466534 0.763604 0.445433
-0.52162 33.4266 76.0076 -0.442754 0.768877 0.461299
0.951809 34.3649 75.8511 -0.42698 0.772157 0.470278
1.90246 34.9374 75.6518 -0.380427 0.806644 0.452329
2.83903 35.4513 75.4958 -0.337979 0.825867 0.451275
3.8271 35.9494 75.3116 -0.335557 0.830297 0.444982
5.318 36.5143 75.2802 -0.3007 0.84186 0.448165
6.46145 37.047 75.0641 -0.279733 0.844106 0.456549
7.703 37.4402 75.0177 -0.23878 0.848085 0.472578
8.8914 37.9153 74.6588 -0.185715 0.868942 0.458748
8.69024 38.2328 73.9349 -0.200488 0.879798 0.430999
7.57268 38.2909 73.2347 -0.229318 0.888388 0.397718
6.05813 38.5345 71.8991 -0.213571 0.884915 0.413899
5.31482 38.7081 71.1634 -0.219576 0.865403 0.450404
4.25405 38.9297 70.1806 -0.273371 0.849179 0.451298
2.89753 39.228 68.7624 -0.305559 0.844072 0.440138
2.14792 39.4558 67.7428 -0.318271 0.848146 0.4235
1.38825 39.7563 66.5659 -0.305936 0.842335 0.442977
0.876233 40.0482 65.7164 -0.351401 0.818938 0.449643
0.342915 40.4074 64.5523 -0.41218 0.812512 0.411441
-0.135473 40.6958 63.4286 -0.416416 0.822114 0.388234
-0.565587 40.9508 62.4273 -0.410723 0.824013 0.390217
-0.77155 41.4983 61.1816 -0.281724 0.860657 0.424148
-0.889631 42.0015 60.0822 -0.281739 0.860614 0.424225
-0.811173 42.5864 59.1465 -0.254559 0.825721 0.503374
-0.820911 43.1172 58.1395 -0.179408 0.928203 0.315446
-0.711866 43.3888 57.0416 -0.21115 0.968739 0.130229
-0.443833 43.6538 55.963 -0.268489 0.938907 0.21533
-0.155548 44.0101 54.5358 -0.283488 0.946519 0.153112
0.12869 44.2771 53.3556 -0.237939 0.963008 0.117999
0.671131 44.5432 52.1638 -0.195848 0.965626 0.17091
1.25204 44.8992 50.8178 -0.195604 0.965708 0.170723
1.70039 45.1742 49.5588 -0.17269 0.973838 0.14771
2.0336 45.481 47.9259 -0.187477 0.972459 0.137283
2.23711 45.7321 46.3757 -0.153304 0.979182 0.133043
2.10404 45.8824 45.1165 -0.152923 0.977883 0.142375
2.26751 46.1638 43.2217 -0.124129 0.984661 0.122615
2.3187 46.3372 42.0809 -0.0957764 0.98682 0.130434
2.44066 46.5369 40.7679 -0.107467 0.984171 0.140922
2.61253 46.7485 39.5509 -0.108631 0.979529 0.169176
2.98952 46.9728 38.0524 -0.0769922 0.991681 0.10316
3.35412 47.0797 37.0589 -0.0392542 0.99391 0.10155
3.75625 47.2136 36.0595 -0.0330284 0.992933 0.113843
4.21404 47.3677 34.7843 -0.0295483 0.993556 0.109422
4.5677 47.5296 33.5401 -0.0138567 0.991615 0.128346
5.10508 47.6763 32.4064 -0.0108987 0.992318 0.12323
5.64435 47.816 31.2044 0.0474861 0.990963 0.125347
6.25482 47.9253 30.1572 0.0528658 0.988687 0.140223
6.81401 48.0599 29.0217 0.0593145 0.988265 0.140673
7.1129 48.1815 28.0035 0.0616573 0.988754 0.136249
7.39808 48.3036 27.0064 0.0722676 0.985297 0.154783
7.58274 48.4715 25.8403 0.107742 0.982165 0.15409
7.5087 48.6793 24.5676 0.107712 0.982161 0.154139
7.0736 48.9476 23.3147 0.0867 0.980088 0.178635
6.66233 49.1752 22.2654 0.0956068 0.97665 0.191708
6.29329 49.4406 21.1826 0.108748 0.974344 0.197048
5.82057 49.6935 20.1927 0.114937 0.971494 0.206987
5.49775 49.9674 19.1502 0.121125 0.968645 0.216925
5.01604 50.2378 18.2037 0.0939541 0.970005 0.223996
4.55542 50.6021 16.8292 0.10501 0.969551 0.22123
4.1533 50.919 15.688 0.111976 0.965139 0.236574
3.86622 51.1946 14.6996 0.118616 0.965671 0.230941
3.4784 51.6522 13.0466 0.132135 0.96119 0.242187
3.21208 51.9829 11.8796 0.132135 0.961169 0.24227
3.04237 52.2762 10.8351 0.132776 0.959559 0.248226
2.97376 52.5876 9.65969 0.121759 0.960128 0.251563
2.90173 52.9726 8.28936 0.142013 0.955307 0.259271
2.76443 53.3329 7.03701 0.141615 0.954611 0.262022
2.91162 53.6179 5.9318 0.144609 0.952419 0.268253
3.03434 53.9847 4.58124 0.147683 0.950727 0.272594
3.21144 54.3022 3.38244 0.147369 0.950529 0.273453
3.30369 54.6515 2.13722 0.153361 0.947248 0.281426
3.47335 55.0287 0.777728 0.153153 0.94713 0.281937
3.71849 55.3257 -0.353075 0.156381 0.945341 0.286084
3.98666 55.6685 -1.61829 0.187873 0.938416 0.289963
4.16148 55.942 -2.61668 0.187888 0.938417 0.289952
4.6062 56.3147 -4.10001 0.192968 0.935775 0.295108
4.78905 56.6605 -5.31613 0.192968 0.935775 0.295108
5.11327 57.0021 -6.60732 0.192622 0.935573 0.295972
5.32576 57.3482 -7.81885 0.205202 0.928831 0.308487
5.52389 57.7423 -9.13875 0.214339 0.927299 0.306741
5.78625 58.0905 -10.3865 0.228225 0.926661 0.298565
6.04485 58.4793 -11.7832 0.236694 0.92256 0.304729
6.44804 58.8291 -13.1554 0.236768 0.922566 0.304653
6.79447 59.0795 -14.1944 0.246662 0.919652 0.305612
7.11095 59.3495 -15.2624 0.254941 0.920124 0.297045
7.44789 59.67 -16.5796 0.263553 0.919196 0.292606
7.88199 59.9596 -17.8804 0.268472 0.917035 0.29485
8.33212 60.2238 -19.152 0.288567 0.912255 0.290723
8.85451 60.4437 -20.3606 0.288652 0.911974 0.291518
9.23526 60.681 -21.5161 0.305302 0.910469 0.278994
9.49034 60.908 -22.5362 0.306431 0.91198 0.272671
10.001 61.0721 -23.6887 0.307554 0.913493 0.266348
10.4244 61.2381 -24.7455 0.302662 0.915107 0.266412
10.9518 61.4409 -26.1297 0.325358 0.909766 0.257813
11.5082 61.6053 -27.412 0.327875 0.911154 0.249433
11.8341 61.7525 -28.4147 0.327204 0.913287 0.242577
12.1234 61.9314 -29.4786 0.327204 0.913285 0.242586
12.5857 62.0514 -30.6618 0.330074 0.917863 0.220407
13.043 62.1234 -31.6456 0.328481 0.918153 0.221574
13.559 62.1833 -32.7133 0.326773 0.922092 0.207281
14.1463 62.2241 -33.8208 0.326768 0.922094 0.207281
14.8642 62.1351 -34.5521 0.324618 0.924515 0.199541
15.9302 62.0044 -35.7206 0.321077 0.927178 0.192987
16.9573 61.8143 -36.4976 0.319003 0.927514 0.194819
17.8829 61.6339 -37.1393 0.310431 0.931263 0.190742
19.1677 61.3447 -37.7762 0.304471 0.934299 0.185173
20.6633 60.9341 -38.1701 0.302755 0.936571 0.176558
22.1434 60.5127 -38.3794 0.2934 0.937372 0.187749
23.4052 60.1629 -38.6044 0.2934 0.937373 0.187747
24.6197 59.7414 -38.3278 0.283652 0.940852 0.185308
26.0878 59.2991 -38.2982 0.276243 0.942427 0.18845
27.6998 58.8017 -38.1526 0.274147 0.943309 0.187115
29.334 58.4709 -38.8298 0.266459 0.944544 0.191929
29.5348 58.6946 -40.2096 0.266984 0.945685 0.185348
29.3562 59.0704 -41.9324 0.266542 0.947332 0.177525
28.7128 59.4717 -43.1301 0.266819 0.947917 0.173957
27.873 59.8944 -44.2111 0.262583 0.950835 0.164203
26.844 60.3033 -44.8693 0.269232 0.949651 0.160135
25.6518 60.7006 -45.2559 0.271669 0.949774 0.155236
24.5176 61.0405 -45.311 0.276696 0.94832 0.15533
23.4197 61.3525 -45.2601 0.273425 0.950187 0.149446
22.2044 61.711 -45.2549 0.280691 0.948355 0.147765
21.0335 62.0545 -45.2355 0.288121 0.946149 0.147406
20.0258 62.3952 -45.3969 0.295552 0.943942 0.147046
18.7232 62.8179 -45.5805 0.29359 0.946442 0.134148
17.4626 63.2483 -45.7923 0.298268 0.945619 0.129736
15.9519 63.7594 -46.0781 0.296087 0.946552 0.127953
14.4571 64.2992 -46.3451 0.318195 0.940818 0.11661
13.5202 64.6478 -46.6338 0.315318 0.942078 0.1143
12.539 65.0153 -46.9302 0.32675 0.939474 0.102844
11.2689 65.4717 -47.1309 0.322888 0.941384 0.0976738
10.0743 65.9452 -47.5887 0.336298 0.937523 0.0884701
9.0352 66.3419 -47.9533 0.331339 0.940228 0.0786542
7.99772 66.7532 -48.3028 0.345583 0.934846 0.0814609
6.80063 67.2184 -48.6005 0.355463 0.932639 0.0615815
5.66227 67.6845 -49.0273 0.359802 0.931269 0.0572848
4.41355 68.2122 -49.4142 0.377353 0.923989 0.06204
3.28529 68.6792 -49.7336 0.37927 0.924144 0.0445117
2.2948 69.1199 -50.1459 0.402645 0.914314 0.0399657
1.25033 69.6194 -50.5839 0.422248 0.906013 0.0291008
-0.368661 70.4047 -51.0067 0.43639 0.899251 0.0301954
-1.49286 70.9585 -51.023 0.464183 0.885464 0.0213643
-2.33625 71.3822 -50.4849 0.462261 0.886345 0.0265921
-2.63467 71.4853 -49.1058 0.465553 0.884147 0.0374118
-2.74957 71.5105 -48.0757 0.475331 0.87886 0.0399239
-2.80888 71.4857 -47.0192 0.470626 0.881373 0.041081
-2.89664 71.4839 -45.8635 0.480326 0.876317 0.0368179
-3.23741 71.6301 -44.5348 0.481183 0.876221 0.0264337
-3.57024 71.7729 -43.5038 0.508912 0.859354 0.0484976
-4.42009 72.193 -41.9378 0.518354 0.853479 0.053697
-4.99863 72.4888 -41.0688 0.524928 0.844891 0.0984574
-5.57444 72.7528 -40.0889 0.557864 0.823319 0.104563
-6.23371 73.0407 -39.0839 0.558766 0.814101 0.155554
-7.04062 73.483 -38.3014 0.578481 0.801248 0.15273
-8.11859 74.015 -37.0758 0.5676 0.800625 0.189032
-8.78111 74.3111 -36.2637 0.587726 0.786457 0.189906
-9.75177 74.7286 -35.0562 0.586929 0.773174 0.240047
-10.5229 74.9866 -34.1282 0.57906 0.756851 0.300993
-11.4192 75.3818 -33.258 0.594207 0.739598 0.314863
-12.2957 75.6956 -32.3756 0.613143 0.713729 0.338595
-13.3703 76.18 -31.6819 0.566631 0.713441 0.410914
-14.21 76.5195 -31.1629 0.570098 0.668638 0.477401
-15.3119 77.0292 -30.6465 0.460937 0.680923 0.568737
-16.2754 77.5983 -30.4802 0.509666 0.585185 0.630713
-17.618 78.3123 -30.2462 0.398809 0.623937 0.672052
-18.5248 78.9703 -30.2952 0.404451 0.604564 0.685727
-18.9257 78.4431 -29.6251 0.372548 0.588896 0.717123
-18.3277 77.5062 -29.0782 0.358765 0.629124 0.688224
-17.7845 76.2157 -28.204 0.369686 0.645927 0.666894
-17.4417 75.2628 -27.4146 0.306455 0.656728 0.689053
-17.2048 74.2121 -26.5186 0.320618 0.64604 0.692466
-17.3215 73.1005 -25.3352 0.280286 0.690599 0.664923
-17.6019 72.0203 -24.1446 0.234924 0.691879 0.682726
-18.1809 71.5152 -23.3897 0.242926 0.710894 0.660013
-18.9258 71.0772 -22.6361 0.200657 0.74793 0.632619
-19.9047 70.7449 -21.9704 0.158104 0.767644 0.621068
-20.4969 69.8061 -20.5408 0.181747 0.81227 0.554244
-20.7725 69.2614 -19.5815 0.248411 0.835338 0.48514
-21.4154 68.7123 -18.4643 0.264056 0.796778 0.543525
-22.0946 68.523 -17.6777 0.344408 0.784117 0.513287
-23.2223 68.4416 -16.8508 0.367229 0.739612 0.563664
-24.2963 68.4096 -16.1751 0.32984 0.734499 0.593057
-24.5008 67.8071 -15.3114 0.330878 0.741077 0.58423
-24.3676 66.8493 -14.1719 0.315536 0.750427 0.580482
-24.314 65.9983 -13.1132 0.316485 0.746993 0.58467
-24.3676 65.0327 -11.7778 0.242881 0.784103 0.570778
-24.4395 64.4178 -10.9139 0.223956 0.785129 0.577422
-24.4289 63.808 -10.0888 0.223957 0.78513 0.57742
-24.5012 63.1295 -9.10679 0.191198 0.813339 0.549476
-24.3571 62.3107 -7.94486 0.186489 0.808066 0.558674
-24.0453 61.3029 -6.5325 0.16479 0.82804 0.535902
-23.622 60.5148 -5.44262 0.151781 0.844309 0.513041
-23.3643 59.7529 -4.20898 0.125922 0.846473 0.517326
-22.9064 58.9805 -3.05664 0.114904 0.859753 0.496898
-22.6871 58.4366 -2.10786 0.103887 0.873032 0.47647
-22.2783 57.6098 -0.673056 0.0701309 0.884325 0.461398
-21.9048 56.999 0.463489 0.0576963 0.888945 0.454349
-21.4484 56.4974 1.3963 0.0571107 0.890696 0.450997
-21.0129 56.0409 2.26749 0.0190485 0.901642 0.431844
-20.7495 55.5181 3.3656 0.000785959 0.900385 0.435094
-20.4442 54.9806 4.47721 0.000785976 0.900385 0.435094
-20.2308 54.4749 5.59319 -0.0123856 0.907947 0.418865
-20.068 54.0253 6.56078 -0.0255543 0.909001 0.415788
-19.9057 53.5809 7.56831 -0.0362547 0.914363 0.403232
-19.7261 53.129 8.62452 -0.036189 0.916532 0.39832
-19.5404 52.7027 9.6023 -0.056571 0.909159 0.412589
-19.3326 52.1664 10.8491 -0.0675844 0.914211 0.39948
-19.1486 51.7104 11.9321 -0.0786377 0.917315 0.390221
-19.0515 51.2441 13.0401 -0.0993772 0.910072 0.40236
-18.8608 50.7549 14.1936 -0.0993771 0.910072 0.40236
-18.7015 50.3333 15.2669 -0.119813 0.914725 0.38579
-18.5979 49.9397 16.2091 -0.122298 0.910933 0.39401
-18.3913 49.4815 17.3777 -0.144758 0.912773 0.381723
-18.0855 49.061 18.47 -0.157267 0.9109 0.381282
-17.6015 48.6824 19.6163 -0.165136 0.910387 0.379252
-16.9386 48.3716 20.667 -0.18264 0.90879 0.375123
-16.3425 48.0128 21.8453 -0.186887 0.906423 0.378667
-15.6873 47.8117 22.6869 -0.19814 0.91049 0.362712
-14.6469 47.502 24.0052 -0.197745 0.917076 0.345643
-14.0234 47.3396 24.8542 -0.213207 0.915662 0.340558
-13.1335 47.1352 25.9604 -0.230358 0.913053 0.336555
-12.44 46.9812 26.8528 -0.216637 0.917481 0.333284
-11.2265 46.8591 27.9726 -0.228423 0.912035 0.340567
-10.387 46.6969 28.9768 -0.226124 0.913986 0.336894
-9.47065 46.5549 29.977 -0.229246 0.919358 0.319179
-8.36486 46.4138 31.4014 -0.261193 0.922884 0.282954
-7.78895 46.3035 32.2926 -0.225708 0.935554 0.268646
-7.30517 46.1702 33.1873 -0.215968 0.950779 0.220914
-7.00987 45.8908 34.5964 -0.233184 0.943391 0.235877
-7.00527 45.675 35.5593 -0.238018 0.953282 0.186012
-7.90831 45.4756 35.2613 -0.287162 0.929497 0.231458
-8.1754 45.1275 36.3282 -0.287237 0.929466 0.231489
-8.96662 44.437 37.6356 -0.342604 0.898512 0.274407
-9.72151 43.8625 38.4114 -0.384385 0.868779 0.312205
-10.4963 43.2441 39.2309 -0.400179 0.871155 0.284269
-11.0906 42.5801 40.3397 -0.434039 0.852346 0.291747
-11.8316 41.8993 41.1295 -0.446717 0.82678 0.341876
-12.3399 41.263 42.0045 -0.446736 0.826808 0.341784
-12.8491 40.5973 42.7987 -0.505204 0.779081 0.371204
-13.3897 39.8232 43.6798 -0.504692 0.778098 0.373964
-13.7762 39.2186 44.4161 -0.52031 0.762533 0.383716
-14.2676 38.528 45.0449 -0.535897 0.731289 0.421936
-15.2675 37.3538 45.8103 -0.53585 0.731365 0.421865
-15.8613 36.518 46.4027 -0.56493 0.701964 0.433705
-16.6832 35.6485 46.7896 -0.527248 0.725369 0.442548
-17.3992 34.8809 47.1586 -0.5553 0.691309 0.462313
-18.0813 34.093 47.5176 -0.555292 0.691316 0.462312
-18.7604 33.354 47.8537 -0.529833 0.682356 0.503654
-19.588 32.3646 48.3225 -0.529914 0.682029 0.504011
-20.1243 31.6333 48.7666 -0.515457 0.691741 0.505765
-20.9641 30.4116 49.5514 -0.518058 0.684126 0.513408
-21.2696 29.6789 50.2221 -0.54261 0.684941 0.486204
-21.8437 28.8667 50.786 -0.486142 0.705103 0.516231
-22.2341 28.0162 51.58 -0.486157 0.70509 0.516236
-22.2595 27.3699 52.4927 -0.46549 0.733658 0.49504
-22.5348 26.2309 53.9774 -0.467075 0.74957 0.468785
-22.3118 25.7779 54.9463 -0.459149 0.759544 0.460733
-22.2137 25.0921 56.1679 -0.457055 0.758993 0.463714
-22.0761 24.2968 57.6782 -0.453632 0.774005 0.44174
-21.9423 23.8394 58.6481 -0.524218 0.741325 0.418971
-22.1642 23.2551 59.5959 -0.391174 0.830161 0.397259
-22.4033 22.6212 60.6854 -0.424333 0.841441 0.324693
-22.9598 21.9597 61.6773 -0.447788 0.836427 0.316031
-23.7307 21.2169 62.5508 -0.447795 0.836422 0.316036
-24.7093 20.3633 63.3917 -0.43579 0.841203 0.319643
-25.8207 19.6099 63.9403 -0.420721 0.850495 0.315676
-26.7412 18.9773 64.4178 -0.421497 0.850344 0.315048
-27.6413 18.29 65.0656 -0.411361 0.84838 0.333217
-27.979 17.7462 66.0332 -0.420303 0.847051 0.325119
-27.7805 17.3764 67.3423 -0.423717 0.859585 0.285617
-27.1818 17.376 68.2314 -0.423703 0.859582 0.285646
-26.4075 17.5378 68.8923 -0.42341 0.859624 0.285955
-25.6468 17.6918 69.5553 -0.423149 0.859733 0.286015
-24.6406 18.1127 69.7483 -0.43168 0.861877 0.264786
-23.6905 18.6741 69.5265 -0.451858 0.858941 0.240923
-22.4404 19.2717 69.7205 -0.446712 0.86179 0.240347
-21.0286 20.1026 69.7604 -0.543991 0.80288 0.243839
-20.1653 20.6263 69.9669 -0.550258 0.798646 0.243682
-19.0465 21.2936 70.3072 -0.550484 0.798488 0.243689
-18.0128 21.8054 70.9342 -0.545429 0.799932 0.250231
-16.9472 22.2568 71.9001 -0.573358 0.780198 0.250104
-16.2028 22.5586 72.7356 -0.587922 0.775696 0.229443
-15.4832 22.7982 73.7927 -0.587514 0.779054 0.218865
-14.859 22.8709 75.1758 -0.576574 0.783883 0.230229
-13.7378 23.2828 76.512 -0.585199 0.775331 0.236986
-12.7679 23.8139 77.1827 -0.592202 0.765003 0.253115
-11.8565 24.3284 77.6812 -0.571296 0.775938 0.267471
-11.0121 24.9022 77.8614 -0.601793 0.747533 0.281141
-10.1505 25.6723 77.6578 -0.585747 0.75474 0.294583
-9.39426 26.3196 77.4554 -0.583238 0.747558 0.317044
-8.39957 27.1157 77.4859 -0.584175 0.740935 0.330925
-7.37551 27.9561 77.369 -0.580611 0.736989 0.345866
-6.5499 28.6805 77.2453 -0.586708 0.730246 0.350013
-5.73677 29.2853 77.2411 -0.544529 0.742225 0.390628
-4.87608 29.936 77.2045 -0.544555 0.742223 0.390597
-3.70573 30.7394 77.2351 -0.512763 0.762585 0.394383
-2.60714 31.4329 77.3224 -0.512766 0.762578 0.394394
-1.55995 32.0626 77.3132 -0.445884 0.785674 0.42884
-0.615086 32.6931 77.1404 -0.444316 0.777278 0.445069
0.391585 33.4022 76.923 -0.42698 0.772157 0.470278
1.25944 33.9578 76.7727 -0.412624 0.774335 0.479737
2.47427 34.6626 76.6227 -0.380455 0.806634 0.452323
3.43694 35.1925 76.4053 -0.340401 0.821437 0.457569
4.42386 35.6833 76.2359 -0.294495 0.831956 0.470236
5.82205 36.1946 76.207 -0.294505 0.831937 0.470264
6.86457 36.6521 75.9976 -0.224722 0.846671 0.482333
7.85848 36.9367 75.9631 -0.224876 0.844192 0.48659
9.06587 37.326 75.8457 -0.205262 0.856588 0.472642
10.117 37.6892 75.5834 -0.185887 0.86892 0.458719
10.8959 38.1163 75.0901 -0.177656 0.874557 0.451032
10.727 38.4719 74.3194 -0.169419 0.880196 0.443343
9.70601 38.6389 73.5321 -0.192022 0.89558 0.401329
8.82537 38.7413 72.882 -0.192638 0.895272 0.401718
7.84459 38.8108 72.2303 -0.221445 0.886651 0.40581
6.97506 38.9986 71.4146 -0.219583 0.865427 0.450355
6.1109 39.2208 70.5664 -0.219565 0.865381 0.450452
5.31211 39.3978 69.8503 -0.213302 0.863718 0.456611
4.31963 39.6146 68.8993 -0.253898 0.858357 0.445823
3.50563 39.7812 68.0999 -0.238526 0.86877 0.433986
2.78075 40.0339 67.0539 -0.317015 0.849701 0.42132
1.86633 40.4537 65.6161 -0.294857 0.834971 0.464632
1.3508 40.7537 64.7499 -0.276588 0.860524 0.424765
0.812747 41.0513 63.5233 -0.316867 0.889466 0.329312
0.3108 41.2267 62.5667 -0.316869 0.889472 0.329293
0.275534 41.6961 61.4838 -0.323611 0.862846 0.388295
0.17941 42.2263 60.3359 -0.281735 0.860612 0.424232
0.173958 42.7349 59.4399 -0.279157 0.827893 0.486481
0.257849 43.2421 58.2468 -0.171398 0.913642 0.36862
0.33724 43.6001 57.171 -0.239819 0.953823 0.172782
0.630691 43.976 55.9133 -0.275311 0.936441 0.217447
0.891183 44.251 54.8709 -0.261476 0.951239 0.163074
1.31394 44.4972 53.7413 -0.208552 0.974306 0.0850553
1.7642 44.685 52.6953 -0.20858 0.974288 0.0851944
2.40033 45.0506 51.1639 -0.172651 0.973291 0.151316
2.79734 45.2961 50.0378 -0.172668 0.973565 0.149514
3.00834 45.4934 48.8516 -0.114176 0.985321 0.126907
3.13307 45.6733 47.6425 -0.124488 0.981543 0.145179
3.34666 45.9139 46.1644 -0.125634 0.982003 0.141016
3.13241 46.0276 45.1411 -0.0933521 0.990042 0.10537
3.26768 46.165 44.1298 -0.087427 0.988351 0.124571
3.34631 46.3203 42.9527 -0.081073 0.989867 0.116088
3.32359 46.4518 41.9427 -0.0609665 0.987779 0.143443
3.46832 46.6167 40.8683 -0.0610171 0.987772 0.143469
3.61168 46.7689 39.7611 -0.0137303 0.987512 0.156943
3.85663 46.9332 38.7488 -0.00514972 0.990242 0.137628
4.33663 47.0667 37.6133 0.00341113 0.992985 0.118191
4.81644 47.2186 36.3002 -0.00851563 0.99346 0.111874
5.31706 47.3789 34.853 0.0125119 0.993364 0.114329
5.64399 47.4755 33.8638 0.0368472 0.993557 0.10626
6.34814 47.6636 32.142 0.0474863 0.990963 0.125347
6.99237 47.7474 31.1925 0.0501359 0.990368 0.12889
7.40354 47.8634 30.1965 0.0487615 0.989598 0.135346
7.80377 47.9627 29.1645 0.0915962 0.987474 0.127965
8.28328 48.1246 27.6931 0.0940803 0.98579 0.139162
8.51836 48.2413 26.6894 0.0958457 0.985952 0.136795
8.69849 48.45 25.1971 0.107706 0.982159 0.15415
8.60491 48.6205 24.2228 0.104158 0.980708 0.165418
8.15982 48.8694 23.078 0.113812 0.977636 0.176848
7.66023 49.1205 22.0108 0.114182 0.977724 0.176122
7.38693 49.3867 20.8332 0.126238 0.972153 0.197441
6.84718 49.7074 19.5575 0.114937 0.971494 0.206987
6.50456 49.963 18.6009 0.123879 0.96947 0.211618
5.85496 50.238 17.7211 0.123873 0.969474 0.211602
5.55638 50.5892 16.3524 0.130063 0.966716 0.220327
5.19247 50.8631 15.3841 0.12526 0.966201 0.225311
4.88424 51.1544 14.3061 0.125266 0.966205 0.225291
4.72369 51.4537 13.1713 0.124935 0.963345 0.237396
4.47794 51.8192 11.8386 0.132132 0.961173 0.242257
4.09417 52.1565 10.7351 0.132776 0.959559 0.248226
3.86774 52.5084 9.4774 0.138572 0.960377 0.241814
4.01692 52.7538 8.48525 0.141592 0.955433 0.259037
4.0118 53.1136 7.16192 0.141617 0.95461 0.262023
4.12759 53.4088 6.03678 0.141217 0.953914 0.264774
4.0909 53.6991 5.00827 0.159375 0.952357 0.260029
4.24976 54.0338 3.73134 0.168707 0.947699 0.270934
4.30944 54.3723 2.51016 0.168877 0.947775 0.27056
4.4547 54.6968 1.30403 0.178603 0.942849 0.281312
4.70556 55.0262 0.0409305 0.180027 0.943162 0.279339
4.99314 55.2594 -0.940462 0.181455 0.943471 0.277376
5.13794 55.5443 -1.96242 0.1879 0.938415 0.289949
5.43083 55.8388 -3.10534 0.187901 0.938446 0.289848
5.79493 56.2409 -4.64337 0.190434 0.937111 0.292478
6.00431 56.5635 -5.80073 0.203117 0.934062 0.293519
6.15585 56.9577 -7.17497 0.213655 0.932545 0.291053
6.36498 57.2229 -8.17285 0.212938 0.932005 0.2933
6.8027 57.6256 -9.72059 0.228225 0.926661 0.298565
7.03786 57.9285 -10.871 0.233075 0.927619 0.291889
7.36772 58.3112 -12.3018 0.236768 0.922566 0.304653
7.7559 58.6088 -13.5404 0.243036 0.923544 0.296647
8.20475 58.9638 -15.0295 0.263217 0.920595 0.288482
8.55883 59.4525 -16.8969 0.263499 0.919201 0.292641
8.97374 59.6679 -17.997 0.276906 0.91852 0.282212
9.47865 59.957 -19.4203 0.276958 0.917704 0.284805
9.92811 60.1235 -20.4197 0.290631 0.917003 0.273171
10.444 60.4015 -21.9056 0.294843 0.914962 0.27552
10.8874 60.6147 -23.13 0.302689 0.915103 0.266395
11.215 60.7865 -24.0955 0.314128 0.914672 0.25436
11.7342 60.9879 -25.4704 0.313845 0.916233 0.249037
12.2469 61.1293 -26.6367 0.313931 0.916206 0.249025
12.7168 61.2627 -27.7607 0.319157 0.918292 0.234263
13.3505 61.4429 -29.2944 0.327207 0.913287 0.242573
13.6153 61.6041 -30.3411 0.33003 0.917871 0.220437
14.0175 61.7174 -31.4082 0.328449 0.918153 0.22162
14.808 61.7751 -32.8668 0.326767 0.922094 0.207282
15.6915 61.7271 -34.0403 0.326086 0.922189 0.207932
16.4881 61.6347 -34.8795 0.32005 0.924757 0.205778
17.3505 61.4757 -35.5007 0.310427 0.931264 0.190744
18.311 61.2824 -36.1201 0.310432 0.931262 0.190742
19.7142 60.9817 -36.8953 0.305534 0.932089 0.194572
20.8544 60.6709 -37.1767 0.299893 0.934626 0.191148
22.0936 60.3096 -37.3015 0.290799 0.936668 0.195164
23.1851 60.0266 -37.5802 0.288526 0.939112 0.186529
24.1935 59.6636 -37.2917 0.284078 0.93797 0.198777
25.3451 59.3199 -37.3154 0.284062 0.937979 0.198758
26.5791 58.9267 -37.1693 0.272922 0.940745 0.201278
27.8949 58.5152 -37.0302 0.272921 0.940745 0.201279
28.9662 58.237 -37.1803 0.271267 0.941542 0.199784
29.9524 58.0794 -37.7419 0.262405 0.946164 0.189518
30.643 58.154 -39.0705 0.262425 0.946142 0.1896
30.5656 58.3964 -40.1726 0.264442 0.945343 0.190765
30.5466 58.6042 -41.2265 0.262387 0.947618 0.182138
30.3215 58.8553 -42.2088 0.262432 0.947593 0.182201
30.0096 59.1128 -43.1539 0.260632 0.949897 0.172529
28.9899 59.6723 -44.711 0.262581 0.950836 0.164203
27.9758 60.0811 -45.4568 0.267201 0.949456 0.164663
26.8543 60.4814 -45.979 0.266643 0.951226 0.155145
25.712 60.8465 -46.2541 0.27167 0.949773 0.155237
24.3563 61.2348 -46.2416 0.270155 0.952054 0.143561
23.0816 61.6112 -46.3033 0.282763 0.948313 0.144041
22.0317 61.9314 -46.3508 0.282728 0.948321 0.144055
21.0316 62.2214 -46.3029 0.288121 0.946149 0.147406
19.6807 62.6848 -46.665 0.286731 0.948196 0.136783
18.354 63.095 -46.7275 0.29359 0.946441 0.134151
16.9114 63.6099 -47.1918 0.297942 0.94695 0.120217
15.4143 64.0952 -47.318 0.308579 0.943055 0.123436
14.4571 64.4433 -47.5704 0.312397 0.945397 0.0929087
13.0731 64.9166 -47.7321 0.312412 0.945389 0.0929424
11.5569 65.4741 -48.1178 0.324182 0.941198 0.095143
10.6226 65.8274 -48.4991 0.332379 0.940031 0.0765919
9.17773 66.378 -48.9875 0.332328 0.940048 0.0766071
7.95068 66.8512 -49.4316 0.340481 0.938224 0.0617086
6.81276 67.296 -49.7652 0.351124 0.934009 0.0658783
5.83123 67.6917 -50.1439 0.34771 0.935966 0.0538426
4.93727 68.0547 -50.5143 0.367784 0.928926 0.0426451
3.78654 68.5281 -50.8665 0.379271 0.924144 0.0445057
2.46471 69.1044 -51.2886 0.386546 0.921396 0.0401324
1.32303 69.6335 -51.7221 0.412006 0.909979 0.0467933
0.0365724 70.2347 -52.1109 0.430613 0.90235 0.018376
-1.24312 70.85 -52.2871 0.448981 0.893195 0.0158482
-2.32264 71.4064 -52.5008 0.447515 0.891808 -0.0664005
-3.10382 71.8208 -51.7605 0.464183 0.885464 0.0213644
-3.36666 71.9267 -50.5949 0.478883 0.877645 0.0202196
-3.51856 71.9585 -48.9887 0.478804 0.87723 0.0344414
-3.6388 71.9648 -47.5796 0.478494 0.876981 0.0437793
-3.73667 71.9615 -46.2724 0.480326 0.876317 0.0368175
-3.9936 72.0621 -45.1246 0.496497 0.867646 0.014385
-4.2907 72.2358 -43.9653 0.512518 0.858672 0.00271107
-5.0843 72.6383 -42.6034 0.54735 0.834626 0.0510194
-5.54999 72.9072 -41.5893 0.574099 0.81714 0.0517058
-6.19145 73.293 -40.8105 0.574388 0.809041 0.124622
-6.73632 73.5515 -39.9589 0.574899 0.808014 0.128734
-7.82852 74.1723 -38.8504 0.593719 0.790821 0.147126
-8.56999 74.5123 -37.8322 0.597289 0.785195 0.163443
-9.5445 75.0168 -36.8238 0.606433 0.774063 0.180186
-10.3396 75.3376 -35.617 0.584509 0.777583 0.231762
-10.9426 75.5712 -34.744 0.622127 0.741011 0.249228
-12.2283 76.1808 -33.4699 0.633235 0.701496 0.323788
-13.1221 76.5657 -32.7221 0.597111 0.691851 0.405957
-14.0873 77.1039 -32.0882 0.638633 0.654381 0.404886
-15.052 77.5275 -31.5225 0.616413 0.59119 0.515192
-15.9048 78.1657 -31.3061 0.542139 0.598248 0.587441
-16.7384 78.8031 -31.224 0.454237 0.60456 0.651383
-17.8706 79.4377 -31.1227 0.428605 0.598433 0.676887
-18.5928 80.1718 -31.3144 0.40445 0.604565 0.685727
-19.3868 80.8243 -31.4838 0.352696 0.633968 0.688243
-20.3327 81.5436 -31.6816 0.342764 0.644111 0.683838
-20.8981 82.0452 -31.8754 0.311442 0.669535 0.672507
-21.3051 82.1283 -31.7924 0.267886 0.707552 0.653917
-21.0011 81.2507 -31.0836 0.323206 0.650211 0.687578
-20.8555 80.4737 -30.4291 0.321286 0.63191 0.705302
-20.5367 79.5113 -29.7171 0.331216 0.616787 0.713856
-20.2223 78.6585 -29.1477 0.332714 0.607329 0.721424
-19.7571 77.8549 -28.7216 0.37628 0.579122 0.723209
-18.9718 76.5352 -27.91 0.319169 0.634822 0.703656
-18.5122 75.6293 -27.3165 0.294963 0.64142 0.707645
-18.2162 74.4693 -26.3409 0.273963 0.659016 0.700458
-18.3854 73.3151 -25.1867 0.254462 0.675871 0.691189
-18.7063 72.4907 -24.2413 0.234927 0.691876 0.682727
-19.5113 71.9105 -23.3776 0.1491 0.712706 0.685434
-20.6163 71.4378 -22.6457 0.1536 0.740175 0.653251
-21.4246 70.9242 -21.91 0.0693307 0.751117 0.656519
-21.4332 70.2377 -21.0359 0.059673 0.921273 0.38431
-21.6569 69.7133 -20.0245 0.207255 0.843089 0.490492
-22.1026 69.1809 -18.8173 0.309133 0.803863 0.504624
-23.0346 69.0043 -17.7177 0.433494 0.728422 0.526651
-24.7964 69.5865 -17.2198 0.378967 0.693102 0.612981
-25.6101 69.2623 -16.3811 0.369936 0.687667 0.624709
-25.5858 68.4023 -15.4488 0.349888 0.711083 0.608883
-25.5723 67.6472 -14.5334 0.301149 0.733859 0.608901
-25.4791 66.9479 -13.7367 0.301166 0.733796 0.608969
-25.2916 66.2221 -12.9042 0.293411 0.754007 0.587694
-25.2609 65.4772 -12.0039 0.262609 0.760437 0.593946
-25.6214 64.2068 -10.1685 0.223959 0.785137 0.577411
-25.6335 63.4475 -9.12604 0.224327 0.78676 0.575053
-25.4663 62.775 -8.24623 0.186489 0.808066 0.558675
-25.2338 61.8862 -7.06412 0.17405 0.815184 0.552011
-25.062 61.1831 -6.03219 0.166317 0.827576 0.536149
-24.6715 60.4824 -5.07436 0.144519 0.820429 0.553046
-24.2984 59.4535 -3.50335 0.108747 0.845187 0.523291
-23.8722 58.8959 -2.69128 0.107189 0.853629 0.509481
-23.6825 58.2453 -1.58632 0.0881945 0.866451 0.49141
-23.3804 57.629 -0.515064 0.0819863 0.881457 0.465093
-23.0681 57.1337 0.368536 0.0818926 0.88143 0.465161
-22.5817 56.5282 1.45525 0.0321554 0.883511 0.467306
-22.1121 56.0548 2.31787 0.0327922 0.885707 0.463061
-21.8336 55.5949 3.2211 0.0156593 0.899694 0.436239
-21.5755 55.0276 4.38196 0.00815609 0.900053 0.435642
-21.1871 54.1918 6.16551 -0.0147846 0.905808 0.423431
-21.0027 53.6096 7.41688 -0.0177162 0.905457 0.424069
-20.8706 53.1457 8.44393 -0.0565796 0.909141 0.412628
-20.7259 52.7354 9.3677 -0.0565712 0.909159 0.412588
-20.374 52.0918 10.8645 -0.0595965 0.914074 0.401145
-20.1506 51.6312 11.9232 -0.0833445 0.902327 0.422918
-20.1365 51.1623 12.9655 -0.091354 0.910375 0.403575
-20.0581 50.7426 13.93 -0.0913702 0.910377 0.403566
-19.863 50.33 14.914 -0.119813 0.914725 0.38579
-19.6162 49.7017 16.4243 -0.141518 0.905133 0.400883
-19.3807 49.3276 17.3583 -0.142589 0.907861 0.394281
-19.065 48.7234 18.8728 -0.157267 0.9109 0.381282
-18.4033 48.2438 20.2953 -0.167502 0.906427 0.387728
-17.8427 47.8942 21.3888 -0.186887 0.906423 0.378666
-17.2472 47.6003 22.3659 -0.189012 0.902623 0.386712
-16.3327 47.366 23.4212 -0.21125 0.906856 0.364672
-15.5822 47.1585 24.372 -0.211916 0.905302 0.368109
-14.8967 46.9389 25.3578 -0.223693 0.908515 0.352831
-14.1911 46.7318 26.3309 -0.223155 0.912174 0.343567
-13.2355 46.5268 27.5231 -0.230898 0.910413 0.34327
-12.4296 46.4537 28.253 -0.229689 0.913566 0.335618
-11.6429 46.3536 29.0642 -0.229805 0.913607 0.335429
-10.8325 46.1722 30.1012 -0.229246 0.919358 0.319178
-10.1461 46.091 30.8791 -0.232341 0.924708 0.301552
-8.85675 45.9396 32.4939 -0.261199 0.922877 0.282972
-8.2974 45.8518 33.3361 -0.259259 0.930159 0.259978
-8.01607 45.5957 34.6463 -0.287169 0.929424 0.231741
-7.90953 45.5201 35.0812 -0.287172 0.929462 0.231585
24.4879 60.7627 -43.5912 0.274625 0.948237 0.159459
26.4864 59.8036 -41.4942 0.274863 0.945092 0.17678
27.6612 59.2345 -40.2653 0.266992 0.945706 0.185354
25.4984 59.7961 -39.9 0.278338 0.941547 0.189785
23.4935 60.7733 -42.002 0.283644 0.94332 0.172318
22.2138 61.3976 -43.349 0.287276 0.944601 0.158747
19.3376 62.3515 -43.7515 0.2938 0.943924 0.150625
21.0474 61.5091 -41.947 0.29264 0.942311 0.162515
22.5504 60.7672 -40.3654 0.289102 0.941391 0.173791
20.5574 61.2843 -39.8395 0.302106 0.936633 0.177343
18.439 62.3622 -42.0688 0.298548 0.939984 0.165226
17.3598 62.8937 -43.2111 0.302106 0.941016 0.152381
18.6772 61.7706 -39.1988 0.306889 0.935026 0.177611
17.1256 62.5805 -40.8279 0.311121 0.936085 0.164161
15.4915 63.416 -42.5537 0.323621 0.934706 0.146946
13.43 64.444 -44.7431 0.324763 0.936131 0.134859
13.3249 64.4974 -44.8549 0.329931 0.935028 0.129875
9.94787 65.8081 -45.8458 0.34184 0.9347 0.0973754
11.4983 65.0421 -44.1631 0.327232 0.936397 0.126807
13.4215 64.0673 -42.1106 0.332986 0.931313 0.147569
15.2788 63.0919 -40.1483 0.323352 0.932903 0.158541
16.7885 62.2816 -38.5689 0.31852 0.931725 0.17445
17.0014 62.1671 -38.3463 0.31852 0.931725 0.17445
15.0939 62.7061 -37.7418 0.3194 0.931287 0.175181
13.4445 63.6155 -39.4623 0.334899 0.927261 0.167422
11.7433 64.5288 -41.2528 0.338961 0.930137 0.141244
10.1926 65.3533 -42.9105 0.342971 0.929993 0.132229
8.67881 66.14 -44.5568 0.346406 0.931764 0.108718
6.61222 67.1516 -46.8333 0.351843 0.933101 0.0743619
6.55379 67.1789 -46.8977 0.363818 0.928139 0.0787054
3.31748 68.5593 -47.8242 0.380502 0.923095 0.055802
4.88066 67.7913 -46.0699 0.38762 0.9195 0.065357
6.33435 67.0265 -44.4585 0.362613 0.925685 0.10779
8.05358 66.1252 -42.57 0.36552 0.922263 0.1258
9.67163 65.233 -40.8194 0.351974 0.924015 0.149369
11.2681 64.353 -39.1387 0.350983 0.92254 0.160409
12.816 63.4805 -37.5242 0.332986 0.925299 0.181497
13.6082 63.0339 -36.7007 0.335748 0.922944 0.188277
12.8566 62.9326 -34.9204 0.336881 0.920705 0.19701
11.2534 63.8703 -36.5639 0.350369 0.918981 0.180873
9.76607 64.7315 -38.1099 0.359157 0.917969 0.168344
8.30946 65.5815 -39.6345 0.369592 0.918463 0.140809
6.7484 66.4577 -41.3164 0.364762 0.921116 0.135993
5.27493 67.3066 -42.9243 0.394793 0.912214 0.109565
3.51894 68.2574 -44.8653 0.383412 0.920031 0.0808579
2.00684 69.0724 -46.6063 0.410017 0.910431 0.0547775
0.414177 69.9183 -48.5127 0.436927 0.898173 0.0487822
-0.08374 70.1962 -49.1332 0.441121 0.89657 0.0396867
-1.3878 70.7892 -47.9644 0.455841 0.888765 0.0480152
0.273005 69.8247 -45.8825 0.428109 0.901796 0.059046
1.88678 68.9314 -43.9877 0.414331 0.905655 0.0901021
3.55776 67.9381 -42.0819 0.410569 0.904626 0.114388
5.36611 66.874 -40.1169 0.40328 0.905234 0.133851
7.27955 65.7221 -38.0967 0.369154 0.912894 0.174212
8.97535 64.7035 -36.3358 0.360595 0.913227 0.189706
10.6151 63.7142 -34.6531 0.351058 0.914779 0.199842
11.6692 63.0819 -33.5875 0.338633 0.918424 0.204513
11.1816 62.7874 -31.5469 0.339155 0.914559 0.220354
9.2944 63.948 -33.4454 0.355802 0.911538 0.206164
7.5396 65.0364 -35.2174 0.371478 0.907982 0.193837
5.70484 66.1881 -37.1025 0.392279 0.903674 0.17173
4.27038 67.115 -38.6023 0.396321 0.906235 0.147198
2.39059 68.311 -40.6475 0.424583 0.897203 0.121476
0.503449 69.483 -42.8149 0.469229 0.879823 0.0757362
-0.95881 70.3991 -44.6059 0.460625 0.886544 0.043174
-1.58301 70.7512 -45.389 0.477338 0.878128 0.0322502
-2.25464 71.0134 -43.3879 0.488314 0.870456 0.0620906
-0.824754 70.0576 -41.6029 0.459069 0.881663 0.109207
0.608732 69.0861 -39.9106 0.46502 0.877304 0.118714
2.13102 68.0575 -38.217 0.431007 0.888092 0.15977
3.78489 66.9327 -36.464 0.404293 0.896731 0.180057
5.50241 65.7845 -34.6933 0.381223 0.902771 0.19918
7.3407 64.5846 -32.8485 0.356966 0.908454 0.217456
8.84546 63.6295 -31.3658 0.360089 0.905463 0.224662
10.3229 62.7 -29.8932 0.344006 0.911489 0.225494
10.4455 62.6233 -29.77 0.341309 0.909901 0.235774
9.90332 62.2841 -27.7818 0.327888 0.91119 0.249443
8.34332 63.3001 -29.3542 0.346858 0.90421 0.249187
6.77169 64.3326 -30.8759 0.35455 0.904138 0.238389
4.80189 65.6531 -32.8127 0.384316 0.895124 0.22595
2.85994 67.0151 -34.7977 0.408384 0.892054 0.193549
1.24255 68.1747 -36.472 0.435685 0.883404 0.172556
-0.151696 69.1982 -38.0163 0.470472 0.867509 0.161508
-1.80203 70.4028 -39.945 0.487181 0.862686 0.135748
-3.06742 71.3188 -41.5197 0.496844 0.862652 0.0947491
-3.9284 71.6183 -39.6426 0.517766 0.845919 0.127826
-1.90633 70.0055 -37.2323 0.489861 0.853367 0.178326
-0.480936 68.8942 -35.6332 0.460727 0.865941 0.19462
1.16561 67.6315 -33.9 0.432011 0.876788 0.211208
3.02661 66.2469 -32.0427 0.407399 0.880796 0.241298
4.5321 65.1797 -30.5501 0.382094 0.885572 0.264132
6.13464 64.0677 -29.0046 0.362812 0.898411 0.247436
7.72147 63.0055 -27.4659 0.339422 0.901236 0.26938
8.56516 62.445 -26.6468 0.327807 0.909122 0.256983
8.14709 62.0115 -24.6622 0.319019 0.904834 0.28196
6.46249 63.1188 -26.2374 0.345351 0.899496 0.267655
4.91707 64.1725 -27.7091 0.355775 0.891894 0.279193
3.42219 65.2332 -29.127 0.380821 0.885872 0.264964
1.96141 66.3376 -30.5769 0.405581 0.871587 0.27539
0.415322 67.5116 -32.095 0.437057 0.865985 0.243004
-1.11587 68.7454 -33.6061 0.456253 0.858508 0.234088
-2.87924 70.2142 -35.5481 0.482912 0.85337 0.196356
-4.55218 71.634 -37.441 0.534481 0.829631 0.161376
-5.07693 72.0964 -38.0764 0.535202 0.828961 0.162429
-6.48455 72.7957 -36.8183 0.567908 0.801067 0.189136
-4.9304 71.3085 -35.0223 0.508331 0.831055 0.225714
-3.27328 69.8027 -33.1966 0.499648 0.830653 0.245699
-1.92871 68.6249 -31.7925 0.460869 0.849134 0.258013
0.272549 66.8377 -29.7223 0.422287 0.853818 0.304414
2.30178 65.2586 -27.729 0.37359 0.879695 0.294222
3.83472 64.1569 -26.2909 0.349454 0.884348 0.309532
5.79743 62.7876 -24.4518 0.33055 0.898514 0.288805
7.64628 61.5936 -22.7546 0.322147 0.903894 0.281418
7.70593 61.5562 -22.699 0.306435 0.912001 0.272677
6.96442 61.2568 -21.0295 0.296719 0.908282 0.294928
5.43452 62.2452 -22.4344 0.309097 0.898899 0.310547
3.62442 63.4682 -24.0796 0.323407 0.888885 0.324485
2.00557 64.6205 -25.5774 0.341521 0.886253 0.312919
0.0855549 66.1083 -27.3934 0.371084 0.869175 0.326849
-1.45442 67.3563 -28.8476 0.401694 0.857962 0.320223
-3.15699 68.8236 -30.4303 0.451495 0.831995 0.322393
-4.50042 70.0729 -31.7875 0.480674 0.825686 0.295286
-6.01118 71.5026 -33.3315 0.522003 0.800768 0.293741
-7.84954 73.357 -35.3845 0.581937 0.785215 0.211628
-9.12949 73.9199 -33.9523 0.556247 0.781717 0.28197
-7.3699 71.8664 -31.9632 0.507206 0.806065 0.304961
-5.76767 70.2758 -30.4543 0.437869 0.824578 0.358248
-3.95438 68.5659 -28.7168 0.40627 0.83074 0.380546
-2.10924 66.9476 -26.998 0.362295 0.854577 0.372077
-0.26316 65.4514 -25.2744 0.33831 0.865128 0.370269
1.62237 64.0233 -23.5387 0.312807 0.880838 0.355353
3.41629 62.7674 -21.9191 0.30151 0.892561 0.3353
4.96339 61.749 -20.5169 0.290116 0.904137 0.313639
6.21086 60.9538 -19.3716 0.281739 0.909467 0.305767
5.66309 60.5071 -17.5244 0.273666 0.913983 0.299569
3.93752 61.577 -19.0962 0.274689 0.904018 0.327562
2.35098 62.6116 -20.5464 0.3032 0.891976 0.335334
0.161821 64.1364 -22.5334 0.3245 0.875583 0.357847
-1.75778 65.6107 -24.281 0.350496 0.859406 0.372254
-3.51025 67.055 -25.8805 0.384239 0.843452 0.375432
-4.98978 68.3857 -27.2179 0.406102 0.831275 0.379556
-6.66369 70.0184 -28.7666 0.441078 0.816578 0.372358
-8.00987 71.3903 -30.004 0.495624 0.786502 0.368472
-9.42313 72.921 -31.2931 0.538822 0.741003 0.400732
-10.4467 74.292 -32.5575 0.562197 0.732131 0.384601
-11.8572 74.6779 -31.1783 0.538734 0.72237 0.43353
-10.5528 72.9248 -29.8439 0.540745 0.729045 0.419628
-9.21094 71.3844 -28.5968 0.444238 0.779969 0.440796
-7.79847 69.8521 -27.3534 0.38802 0.80753 0.444226
-5.98122 68.078 -25.7127 0.393359 0.810983 0.4331
-4.18005 66.5036 -24.1059 0.350285 0.843669 0.406845
-2.47503 65.1162 -22.576 0.313577 0.862411 0.397388
-1.00017 64.0183 -21.2484 0.296316 0.870653 0.392633
1.12591 62.5319 -19.3332 0.290015 0.885964 0.361883
2.66946 61.527 -17.8948 0.27469 0.904019 0.327559
4.25606 60.5339 -16.4426 0.257193 0.911208 0.321794
5.38105 59.8707 -15.4039 0.254248 0.914647 0.314292
4.56071 59.5298 -13.7787 0.237367 0.918299 0.316834
2.77686 60.5885 -15.4243 0.245216 0.90689 0.342665
1.24412 61.5395 -16.8538 0.263001 0.896962 0.355372
-0.246112 62.5314 -18.2511 0.258895 0.889619 0.376234
-1.77794 63.543 -19.6146 0.279531 0.881471 0.380619
-3.32615 64.6903 -21.0022 0.27417 0.86399 0.422318
-5.22692 66.1942 -22.6733 0.304405 0.844147 0.441308
-7.02386 67.7274 -24.2615 0.333943 0.820652 0.463695
-8.72579 69.3888 -25.7668 0.375387 0.785251 0.492408
-10.2233 70.9815 -27.0898 0.40398 0.768233 0.496606
-11.6164 72.6364 -28.3399 0.450808 0.718204 0.530052
-12.8661 74.2974 -29.491 0.468585 0.705769 0.531336
-13.5862 75.3046 -30.1046 0.516306 0.687309 0.510915
-15.5671 76.0295 -29.2595 0.376506 0.687121 0.621376
-14.3285 74.3332 -28.3346 0.46341 0.657545 0.594042
-12.9395 72.5253 -27.1312 0.407259 0.731047 0.547458
-11.4536 70.7338 -25.801 0.383178 0.741673 0.550541
-9.82969 69.0027 -24.3802 0.332415 0.793459 0.509827
-8.03274 67.3162 -22.7946 0.28772 0.817283 0.499265
-6.38209 65.9023 -21.3439 0.273047 0.840274 0.468385
-4.47552 64.4092 -19.6811 0.274169 0.863987 0.422324
-2.27992 62.879 -17.7141 0.223082 0.891167 0.395038
-0.664158 61.8247 -16.2409 0.225607 0.89646 0.381394
0.998714 60.798 -14.7261 0.243476 0.905153 0.348451
2.7142 59.766 -13.1377 0.220283 0.918053 0.329627
4.1366 58.9726 -11.8309 0.215459 0.923213 0.318205
4.05711 58.2197 -9.59167 0.215491 0.923283 0.317982
1.83515 59.4406 -11.6193 0.200536 0.919444 0.338243
0.284455 60.3157 -13.0412 0.204628 0.908854 0.363471
-1.25166 61.2192 -14.4486 0.217283 0.904141 0.367855
-2.8365 62.1881 -15.8717 0.209475 0.894756 0.394375
-4.61053 63.384 -17.4758 0.237348 0.872553 0.426986
-6.4843 64.7187 -19.1073 0.249418 0.851903 0.460491
-7.97243 65.8921 -20.4037 0.27086 0.840923 0.46849
-9.59084 67.2689 -21.824 0.283336 0.818621 0.49958
-11.2055 68.803 -23.2389 0.319202 0.77753 0.541809
-12.7394 70.3929 -24.5421 0.33049 0.753416 0.568455
-14.3099 72.2993 -25.9452 0.37852 0.703009 0.60208
-15.2821 73.5373 -26.8275 0.330479 0.66286 0.671863
-15.6207 71.6538 -24.5835 0.28799 0.715422 0.636579
-14.243 70.2019 -23.4705 0.299823 0.746287 0.594274
-12.6386 68.5639 -22.1289 0.280233 0.786321 0.550608
-11.0687 67.1085 -20.7836 0.262569 0.803366 0.534472
-9.47338 65.7427 -19.3966 0.236974 0.83278 0.500321
-7.93226 64.5412 -18.0531 0.224954 0.856324 0.464871
-6.39076 63.4398 -16.6962 0.216656 0.871027 0.440877
-4.83668 62.4217 -15.338 0.190952 0.890337 0.413325
-3.03172 61.3167 -13.7265 0.192704 0.898863 0.393587
-1.41427 60.378 -12.2649 0.201832 0.907307 0.36886
0.248722 59.4577 -10.7472 0.182544 0.923727 0.336758
2.08324 58.4745 -9.07411 0.190484 0.926771 0.323745
3.25337 57.8698 -8.01129 0.192541 0.930539 0.311487
2.79676 57.3141 -6.10055 0.18022 0.932315 0.313543
0.861042 58.3017 -7.86114 0.176896 0.927674 0.328828
-0.934393 59.2172 -9.49105 0.166898 0.919778 0.35518
-3.09327 60.3824 -11.4527 0.165208 0.908582 0.383648
-4.86261 61.3836 -13.0318 0.164683 0.902867 0.397128
-6.99585 62.6534 -14.8917 0.178514 0.881183 0.437778
-8.55204 63.709 -16.2673 0.207642 0.862905 0.460739
-10.1757 64.8846 -17.6942 0.204808 0.839764 0.502842
-11.6916 66.1333 -19.0068 0.216843 0.823174 0.524751
-13.3553 67.5723 -20.4137 0.259518 0.792424 0.55201
-15.1504 69.2474 -21.888 0.253992 0.756265 0.602953
-16.6892 70.8066 -23.0957 0.264999 0.73477 0.624411
-17.3898 69.5793 -21.3543 0.237433 0.743152 0.62558
-15.7772 68.0609 -20.0476 0.24601 0.780535 0.574669
-14.2248 66.7223 -18.8085 0.227941 0.797332 0.558842
-12.5481 65.3387 -17.4143 0.210979 0.824582 0.524931
-10.7959 64.0177 -15.9091 0.185991 0.855897 0.482543
-9.11893 62.8734 -14.4367 0.16053 0.87315 0.46026
-7.27666 61.7212 -12.822 0.163417 0.890357 0.424923
-5.64547 60.7936 -11.3866 0.155681 0.906605 0.392213
-3.47516 59.6424 -9.44987 0.151401 0.923363 0.352815
-1.55916 58.6644 -7.70913 0.157361 0.930284 0.331375
0.417102 57.6872 -5.9059 0.165297 0.931653 0.323573
2.64613 56.6203 -3.88528 0.169144 0.939137 0.299019
2.20393 56.0657 -1.9235 0.162938 0.940768 0.297331
0.345239 56.9075 -3.60302 0.144783 0.938051 0.3148
-1.3136 57.6932 -5.10622 0.144667 0.934903 0.324081
-3.1406 58.5647 -6.77954 0.118211 0.931305 0.344525
-4.97773 59.4677 -8.4456 0.12918 0.920598 0.368527
-6.63936 60.3125 -9.92483 0.138324 0.907037 0.397681
-8.30228 61.2183 -11.3889 0.140109 0.892341 0.429065
-10.3906 62.4742 -13.2191 0.163191 0.878052 0.449881
-12.0169 63.55 -14.6375 0.163325 0.856289 0.489993
-13.6779 64.7128 -16.0626 0.184831 0.831115 0.524485
-15.2352 65.9443 -17.3138 0.219722 0.790759 0.571334
-16.7853 67.2436 -18.5123 0.230065 0.78638 0.573303
-18.2927 68.5806 -19.7004 0.229776 0.774642 0.589179
-18.9964 69.2208 -20.2622 0.232502 0.773263 0.589922
-19.79 68.1916 -18.4993 0.268559 0.794989 0.543938
-18.0818 66.688 -17.227 0.228168 0.788574 0.571043
-16.3705 65.3046 -15.9398 0.223581 0.812432 0.538485
-14.6876 64.0478 -14.5778 0.173712 0.847217 0.502043
-13.1483 63.0078 -13.2763 0.166301 0.866379 0.470884
-11.5768 62.0044 -11.9157 0.144315 0.878178 0.456044
-10.0041 61.084 -10.5476 0.140578 0.893325 0.426859
-8.31703 60.1622 -9.06415 0.117243 0.908068 0.402079
-6.14807 59.09 -7.13834 0.118099 0.918301 0.377856
-3.84399 58.0159 -5.04413 0.119653 0.933245 0.338728
-2.1911 57.2646 -3.53874 0.115688 0.934832 0.335717
-0.328587 56.4395 -1.85132 0.13521 0.941112 0.309881
1.30793 55.7382 -0.368507 0.140695 0.946257 0.291208
1.54597 55.6311 -0.151182 0.159606 0.943553 0.290232
1.37848 54.9867 2.05902 0.13806 0.949155 0.282922
-0.778876 55.863 0.0958016 0.128478 0.94493 0.300999
-2.6879 56.6598 -1.62366 0.112148 0.942042 0.316196
-4.71995 57.5373 -3.46874 0.0965276 0.935471 0.339967
-6.38066 58.2788 -4.97731 0.107329 0.928424 0.355681
-7.97324 59.0022 -6.41188 0.0931629 0.920518 0.379431
-9.72716 59.8486 -7.96136 0.104748 0.907861 0.405976
-11.6303 60.877 -9.62794 0.130081 0.894826 0.427043
-13.4972 61.9604 -11.2471 0.126067 0.878888 0.460069
-15.1178 62.9631 -12.6206 0.153328 0.85505 0.495358
-16.7519 64.0986 -13.9494 0.211007 0.830207 0.515977
-18.52 65.5316 -15.3368 0.255225 0.807384 0.53197
-20.5187 67.2124 -16.768 0.287238 0.779956 0.556024
-20.783 67.4439 -16.9562 0.294626 0.779034 0.553446
-22.162 67.1101 -15.7345 0.314059 0.768186 0.557905
-20.4616 65.6331 -14.5089 0.277085 0.795853 0.53837
-18.3563 63.901 -12.909 0.241039 0.815263 0.526542
-16.5309 62.572 -11.4769 0.180438 0.843535 0.505857
-14.7672 61.4982 -10.0103 0.123892 0.873011 0.471702
-13.0485 60.5233 -8.52523 0.111831 0.892189 0.437599
-10.9371 59.421 -6.67306 0.0911234 0.910742 0.402797
-9.2734 58.6418 -5.20203 0.0823558 0.926554 0.367036
-7.5889 57.8999 -3.69123 0.0860504 0.930039 0.357243
-5.35409 56.9593 -1.66347 0.0949802 0.938374 0.332314
-3.41754 56.1719 0.0820486 0.0968584 0.943079 0.318151
-1.24255 55.3306 2.04344 0.0874688 0.951828 0.293893
0.511715 54.6237 3.64346 0.122513 0.950709 0.284857
1.28033 54.3137 4.34925 0.119959 0.952672 0.279331
0.986593 53.736 6.4749 0.114247 0.953258 0.279727
-0.809718 54.4342 4.8347 0.0937271 0.952461 0.289883
-2.79631 55.1717 3.0219 0.0805566 0.95435 0.287623
-4.46153 55.7962 1.51363 0.0933402 0.947244 0.30662
-6.40818 56.5425 -0.240678 0.0663822 0.940569 0.333053
-8.37855 57.3332 -2.02561 0.0779686 0.933638 0.34963
-10.4125 58.1944 -3.8497 0.0743505 0.92814 0.364731
-12.3533 59.074 -5.5682 0.0899449 0.916879 0.388898
-14.1495 59.9827 -7.14281 0.0981409 0.897518 0.429919
-15.7776 60.8777 -8.54272 0.112324 0.887257 0.447391
-17.7436 62.0576 -10.1866 0.183526 0.850392 0.493104
-19.5379 63.3575 -11.5805 0.22494 0.819146 0.527638
-21.2448 64.7641 -12.8767 0.265827 0.791168 0.550807
-22.3063 65.6835 -13.647 0.270104 0.784752 0.557861
-22.3662 64.1549 -11.4882 0.242898 0.798601 0.550669
-20.609 62.7749 -10.1649 0.243717 0.818755 0.519849
-18.6817 61.3972 -8.64246 0.203848 0.853062 0.480344
-17.0646 60.4305 -7.29937 0.131122 0.885518 0.445718
-15.2421 59.4342 -5.7482 0.0981423 0.897518 0.429918
-13.6241 58.6545 -4.32882 0.0849836 0.913759 0.397269
-11.4028 57.674 -2.3647 0.063492 0.926269 0.371476
-9.31016 56.8177 -0.488831 0.048965 0.935424 0.350122
-7.44445 56.1048 1.19835 0.0433437 0.940049 0.338274
-5.73327 55.4753 2.75247 0.0576915 0.949595 0.308124
-4.07648 54.8905 4.26379 0.0776139 0.952237 0.295332
-2.28948 54.2567 5.89941 0.0935842 0.95281 0.288781
-0.248363 53.5015 7.7467 0.107065 0.95624 0.272291
1.4417 52.8868 9.29194 0.124348 0.956808 0.262785
1.44587 52.243 11.7192 0.112904 0.960222 0.255393
-0.387342 52.8938 10.0296 0.100581 0.960048 0.261135
-2.02746 53.4407 8.52722 0.0792309 0.958448 0.274045
-3.78127 54.0425 6.9361 0.0557663 0.954896 0.291656
-5.54078 54.6349 5.33029 0.0409498 0.952382 0.302145
-7.41321 55.2715 3.61787 0.0338489 0.948064 0.316274
