-21.3273 66.7891 -13.1227 0.258795 0.793652 0.550583
-22.3195 66.5711 -12.3217 0.269122 0.794046 0.545036
-22.0666 65.971 -11.5539 0.270852 0.800546 0.53457
-20.4065 66.3544 -12.9072 0.227478 0.812034 0.537452
-19.2098 66.6468 -13.8756 0.242491 0.816078 0.52461
-18.0606 66.9201 -14.8319 0.222543 0.823362 0.522063
-16.7595 67.284 -15.8518 0.186728 0.823768 0.535294
-15.2887 67.713 -16.9983 0.188565 0.815089 0.54779
-14.1397 68.0503 -17.8957 0.185389 0.807489 0.559993
-13.0473 68.3618 -18.7303 0.224055 0.800255 0.55623
-11.7199 68.7142 -19.7562 0.211261 0.805897 0.553081
-10.5618 68.9983 -20.6609 0.246933 0.806651 0.536971
-9.27252 69.2934 -21.681 0.27583 0.7983 0.535384
-7.96705 69.5209 -22.7763 0.287032 0.812165 0.507937
-6.90898 69.679 -23.6896 0.359153 0.809661 0.464174
-5.26363 69.8185 -25.206 0.35902 0.808113 0.466967
-4.06804 69.8352 -26.3961 0.375014 0.843456 0.384639
-3.07 69.8466 -27.3942 0.400245 0.840452 0.365299
-2.06545 69.7791 -28.4664 0.425417 0.839545 0.337911
-0.836145 69.6445 -29.8276 0.462004 0.834582 0.300042
0.248263 69.4996 -31.0484 0.41388 0.864281 0.285869
1.15863 69.349 -32.0829 0.426516 0.873161 0.235953
2.53704 69.0825 -33.6715 0.41989 0.884487 0.203407
3.72225 68.8428 -35.03 0.411196 0.891587 0.189713
4.73194 68.6015 -36.2041 0.405258 0.897408 0.174429
6.10756 68.3021 -37.766 0.397542 0.902972 0.163098
7.29339 68.027 -39.113 0.37218 0.91577 0.151153
8.83195 67.6998 -40.8336 0.362794 0.918018 0.160073
9.74608 67.4957 -41.8556 0.358219 0.92409 0.133176
11.0042 67.2226 -43.2529 0.343022 0.930276 0.130083
12.2616 66.9476 -44.6446 0.331962 0.93416 0.130943
13.6536 66.5081 -44.8878 0.32259 0.938076 0.126288
12.5033 66.72 -43.634 0.331962 0.93416 0.130943
11.0975 67.0203 -42.0779 0.34185 0.930292 0.133027
10.1689 67.2095 -41.052 0.356673 0.920709 0.158366
9.05684 67.4343 -39.8209 0.362794 0.918018 0.160073
7.83915 67.6967 -38.4555 0.37218 0.91577 0.151153
6.12767 68.0495 -36.5332 0.384659 0.906734 0.172834
5.20948 68.2474 -35.4916 0.405258 0.897408 0.174429
3.84107 68.5279 -33.9309 0.411003 0.887167 0.20979
2.92415 68.7158 -32.8758 0.417607 0.881008 0.222326
1.34641 68.9872 -31.0835 0.426517 0.873162 0.235949
-0.174896 69.1622 -29.4075 0.415679 0.863784 0.284761
-1.79347 69.3047 -27.6525 0.425068 0.836592 0.345588
-3.41476 69.3525 -25.9744 0.375012 0.843456 0.384641
-4.39745 69.3449 -24.9902 0.359902 0.842114 0.40164
-5.6075 69.2268 -23.8844 0.309255 0.840977 0.443981
-6.79056 69.1171 -22.8011 0.325038 0.813203 0.482754
-7.88856 68.9226 -21.8804 0.283612 0.808761 0.515238
-9.58536 68.5834 -20.4866 0.23669 0.812485 0.532772
-10.785 68.3135 -19.5295 0.229141 0.806426 0.545135
-12.1427 67.9509 -18.4809 0.211601 0.806268 0.552411
-13.4187 67.6118 -17.4825 0.186127 0.82198 0.538243
-14.7198 67.2319 -16.466 0.180508 0.822978 0.538631
-15.9894 66.8621 -15.4711 0.1844 0.824196 0.535442
-17.2956 66.4948 -14.4501 0.194595 0.827113 0.527274
-18.5065 66.1759 -13.468 0.22254 0.823363 0.522062
-19.5918 65.9123 -12.5841 0.227735 0.810305 0.539947
-20.6917 65.6313 -11.7029 0.238428 0.810515 0.534993
-22.2328 65.28 -10.4348 0.259855 0.806502 0.531065
-21.9655 64.7071 -9.65295 0.238607 0.823819 0.514188
-20.1848 65.1042 -11.1302 0.238428 0.810515 0.534993
-18.4934 65.5482 -12.4782 0.200631 0.823304 0.53096
-17.2402 65.8826 -13.4928 0.202491 0.830273 0.519273
-15.9833 66.2253 -14.4929 0.1844 0.824196 0.535442
-14.7549 66.582 -15.4597 0.182133 0.824543 0.535683
-13.4647 66.9584 -16.4687 0.186127 0.821981 0.538242
-12.2037 67.3094 -17.461 0.20035 0.825798 0.527179
-10.6376 67.7131 -18.6885 0.196435 0.8269 0.526924
-9.36359 68.0168 -19.7044 0.226415 0.818192 0.528487
-8.15277 68.2915 -20.6744 0.272735 0.827007 0.491605
-6.8015 68.523 -21.8136 0.267366 0.828984 0.491225
-5.43994 68.7056 -23.014 0.309253 0.840977 0.443982
-4.40876 68.8182 -23.9456 0.32737 0.838904 0.434821
-3.30114 68.8697 -25.0106 0.374163 0.847063 0.377475
-2.20248 68.8761 -26.1117 0.400245 0.840452 0.3653
-0.971454 68.8144 -27.4049 0.390493 0.857947 0.33383
0.0250478 68.7438 -28.4672 0.417874 0.854551 0.308423
0.966085 68.6436 -29.4999 0.413885 0.864278 0.285872
2.2435 68.4988 -30.8977 0.419453 0.869279 0.261561
3.24976 68.33 -32.0334 0.415161 0.877202 0.241159
4.20988 68.1641 -33.1154 0.404244 0.891223 0.205691
5.64592 67.8923 -34.7398 0.391064 0.897078 0.205717
6.58512 67.714 -35.7912 0.384657 0.906734 0.172836
7.65384 67.4936 -36.9961 0.377076 0.908581 0.179707
9.00596 67.2295 -38.4977 0.374667 0.912278 0.165451
10.1017 67.008 -39.7138 0.350535 0.923355 0.156652
11.3069 66.7751 -41.0417 0.35119 0.923245 0.155834
12.6063 66.5219 -42.47 0.346548 0.926844 0.144442
13.6213 66.331 -43.5786 0.319673 0.937901 0.134725
14.546 66.1606 -44.5865 0.32259 0.938076 0.126288
15.2751 65.8379 -44.1086 0.321697 0.936015 0.142781
13.9652 66.0749 -42.6833 0.327731 0.932777 0.150064
12.5466 66.3227 -41.1414 0.33202 0.930908 0.152225
11.5991 66.5052 -40.1011 0.350862 0.923301 0.156243
9.85979 66.8286 -38.19 0.356591 0.917714 0.175054
8.89051 67.005 -37.1207 0.377074 0.908581 0.179709
7.30106 67.3245 -35.3415 0.384728 0.902972 0.191378
6.08224 67.5312 -33.9927 0.384659 0.898888 0.209854
5.04813 67.7263 -32.8237 0.395527 0.89158 0.220551
4.07008 67.8738 -31.7414 0.405232 0.883928 0.233362
2.71815 68.0668 -30.2442 0.398092 0.874129 0.278245
1.57564 68.1951 -28.9948 0.394743 0.87081 0.293032
0.302749 68.3047 -27.6265 0.417874 0.854552 0.30842
-0.828563 68.3706 -26.4315 0.390494 0.857948 0.333827
-1.90669 68.3945 -25.3273 0.382189 0.845013 0.374013
-2.92068 68.3905 -24.3126 0.360204 0.841925 0.401765
-4.09373 68.3132 -23.2084 0.32737 0.838904 0.434821
-5.80298 68.1206 -21.6702 0.309181 0.837534 0.450494
-7.12666 67.8824 -20.5555 0.267366 0.828984 0.491224
-8.5887 67.5808 -19.3614 0.225694 0.827385 0.514292
-9.82832 67.3094 -18.3498 0.20876 0.832356 0.513422
-10.9099 67.0206 -17.5003 0.196435 0.8269 0.526925
-12.2961 66.648 -16.4114 0.19174 0.820955 0.537837
-13.5106 66.305 -15.4549 0.186127 0.821981 0.538242
-14.7488 65.9452 -14.4816 0.182133 0.824543 0.535683
-15.9772 65.5885 -13.5148 0.1844 0.824196 0.535442
-17.8025 65.0957 -12.0397 0.20447 0.824085 0.528277
-19.3908 64.6617 -10.7809 0.195519 0.829258 0.523548
-20.8759 64.3206 -9.54893 0.244914 0.826783 0.506406
-22.169 64.0143 -8.47282 0.232274 0.820765 0.521913
-21.861 63.4466 -7.71727 0.21186 0.839248 0.500777
-20.5165 63.7758 -8.83319 0.238607 0.823819 0.514188
-19.1672 64.1003 -9.94691 0.209457 0.839921 0.50066
-17.7185 64.4783 -11.1149 0.195514 0.829259 0.523549
-16.5313 64.813 -12.0614 0.158392 0.844866 0.510993
-14.8958 65.2741 -13.3756 0.177596 0.839278 0.513879
-13.7643 65.6018 -14.2667 0.173935 0.832018 0.526776
-12.3479 66.0149 -15.3793 0.170403 0.845999 0.505221
-11.1302 66.3468 -16.3457 0.169925 0.846082 0.505244
-10.0005 66.6437 -17.2402 0.192518 0.827989 0.526661
-8.42655 67.0236 -18.5021 0.224907 0.836342 0.499949
-7.34421 67.2647 -19.383 0.220244 0.848481 0.481219
-6.28898 67.4527 -20.2752 0.261989 0.830933 0.490827
-4.54235 67.7184 -21.7877 0.302842 0.841135 0.448082
-3.15248 67.8481 -23.0582 0.344912 0.839193 0.420465
-1.62939 67.9134 -24.5237 0.382191 0.84501 0.374016
-0.481808 67.8959 -25.6917 0.389723 0.843194 0.370325
0.553121 67.8681 -26.7562 0.404255 0.856401 0.321179
2.09023 67.7507 -28.3927 0.388298 0.868222 0.308894
3.22669 67.6381 -29.6205 0.395111 0.875112 0.279404
4.67006 67.4561 -31.2009 0.399351 0.885793 0.236409
6.129 67.2425 -32.8065 0.395523 0.891582 0.220553
7.28782 67.0396 -34.0969 0.384659 0.898888 0.209854
8.47167 66.8389 -35.407 0.379048 0.902221 0.205716
9.48329 66.6578 -36.5217 0.35707 0.917632 0.174507
10.4264 66.4885 -37.5608 0.357071 0.917631 0.174509
12.0639 66.1959 -39.353 0.348275 0.921005 0.174513
13.1421 66.0095 -40.5248 0.33202 0.930908 0.152224
14.2317 65.8167 -41.7108 0.328104 0.931447 0.157334
15.3487 65.6305 -42.919 0.322649 0.934453 0.150648
15.9764 65.5194 -43.6006 0.321692 0.936017 0.142779
16.8678 65.1724 -43.2965 0.309152 0.938824 0.151775
15.8803 65.3296 -42.2324 0.322954 0.933241 0.157357
14.8812 65.4938 -41.1532 0.326011 0.932124 0.157677
13.8004 65.6768 -39.9812 0.339291 0.924289 0.174849
12.4641 65.895 -38.5353 0.340413 0.924146 0.173416
11.0685 66.1348 -37.0148 0.356593 0.917714 0.175052
10.1105 66.3051 -35.9602 0.363154 0.910593 0.197331
8.83608 66.503 -34.573 0.365505 0.907836 0.205524
7.82959 66.6705 -33.4609 0.373415 0.905501 0.201566
6.8098 66.8246 -32.3451 0.375233 0.897042 0.233486
5.14473 67.0645 -30.5146 0.378816 0.891886 0.247061
4.19727 67.1642 -29.4936 0.377331 0.887946 0.263008
3.17495 67.2691 -28.3926 0.371776 0.881791 0.290219
2.04667 67.3537 -27.1959 0.373272 0.881344 0.289656
0.954909 67.4193 -26.0523 0.353138 0.872226 0.338402
-0.0880671 67.4209 -25.0009 0.346 0.873734 0.341866
-1.3521 67.4322 -23.7201 0.382191 0.84501 0.374016
-2.35944 67.3786 -22.764 0.344332 0.841959 0.41538
-3.42275 67.3129 -21.7639 0.29649 0.844688 0.44564
-4.96897 67.1268 -20.3846 0.270998 0.848285 0.454942
-6.07111 66.9365 -19.4485 0.245553 0.852023 0.462343
-7.14731 66.7356 -18.5402 0.220244 0.848481 0.481219
-8.53396 66.4198 -17.4157 0.199827 0.848776 0.489538
-10.0532 66.0406 -16.1977 0.177473 0.85107 0.494149
-11.1872 65.7321 -15.2971 0.169925 0.846082 0.505244
-12.346 65.4044 -14.3826 0.154777 0.833978 0.529646
-13.8067 64.9621 -13.2424 0.177591 0.839278 0.513881
-15.0803 64.6195 -12.2027 0.181212 0.846345 0.500862
-16.174 64.3041 -11.3308 0.158392 0.844866 0.510993
-17.3539 63.9691 -10.387 0.14762 0.853069 0.500481
-18.5001 63.6517 -9.47338 0.201842 0.83795 0.50705
-20.0568 63.2932 -8.16287 0.198467 0.857387 0.474867
-21.2792 62.9972 -7.14564 0.185555 0.847033 0.498101
-21.489 62.2941 -5.9343 0.179829 0.836932 0.51692
-20.1953 62.6693 -6.99184 0.185553 0.847033 0.498102
-18.9955 62.9496 -8.0005 0.20573 0.857994 0.47066
-17.7809 63.2486 -9.01856 0.151808 0.867498 0.47371
-16.6076 63.5853 -9.95291 0.154973 0.854018 0.496625
-15.2974 63.9471 -11.0123 0.160361 0.849935 0.501892
-14.0987 64.2786 -11.9818 0.154817 0.858024 0.489721
-12.9435 64.6179 -12.9083 0.126317 0.867981 0.480264
-11.2411 65.1197 -14.2491 0.142271 0.864902 0.481356
-10.1047 65.4293 -15.153 0.169448 0.846164 0.505266
-8.98637 65.7277 -16.042 0.188029 0.849306 0.493279
-7.87504 65.9929 -16.9467 0.198565 0.847446 0.492348
-6.49003 66.2943 -18.0852 0.239326 0.846517 0.475533
-5.41489 66.4991 -18.991 0.242445 0.849296 0.468953
-3.82489 66.7242 -20.3828 0.296248 0.84394 0.447216
-2.27498 66.8687 -21.8005 0.3222 0.854992 0.406419
-0.999857 66.9703 -22.9849 0.320782 0.865376 0.384997
0.100193 66.9844 -24.0759 0.345998 0.873735 0.341867
1.25622 66.9826 -25.2412 0.353138 0.872226 0.338402
2.27388 66.9554 -26.2769 0.373272 0.881344 0.289656
3.40216 66.8709 -27.4736 0.371776 0.881791 0.290219
4.35581 66.7961 -28.4784 0.377329 0.887947 0.263008
6.14959 66.6075 -30.4056 0.378816 0.891886 0.247061
7.11967 66.4677 -31.472 0.375235 0.897041 0.233485
8.16192 66.3361 -32.594 0.368383 0.899029 0.23673
9.17161 66.1718 -33.707 0.365505 0.907836 0.205524
10.1183 66.0359 -34.7324 0.360366 0.910366 0.203398
11.0602 65.8831 -35.7607 0.360773 0.911856 0.19586
12.2219 65.7001 -37.0208 0.343308 0.922132 0.17836
13.5456 65.4819 -38.4566 0.339852 0.924218 0.174133
14.4916 65.3289 -39.4786 0.330564 0.928048 0.17162
15.7386 65.1412 -40.8184 0.32183 0.931926 0.16715
16.8697 64.9562 -42.0401 0.321998 0.933683 0.156694
18.1579 64.7644 -43.4207 0.311789 0.935805 0.16449
19.1587 64.3984 -43.2353 0.308244 0.93726 0.16288
17.6216 64.6216 -41.5914 0.316901 0.934764 0.160596
16.6662 64.7716 -40.5625 0.321619 0.930066 0.177592
15.704 64.9078 -39.5331 0.321621 0.930065 0.177591
14.4572 65.1028 -38.1896 0.330407 0.926497 0.180099
13.4563 65.254 -37.1129 0.346189 0.920084 0.183298
11.7765 65.5045 -35.3033 0.349346 0.916064 0.196936
10.4572 65.7064 -33.8689 0.352483 0.912479 0.207698
9.50714 65.8407 -32.841 0.365505 0.907836 0.205524
8.47179 65.9792 -31.7209 0.368383 0.899029 0.23673
7.42954 66.1109 -30.5989 0.375235 0.897041 0.233485
6.48737 66.2206 -29.5832 0.375458 0.888498 0.263822
5.53119 66.3211 -28.5608 0.376394 0.888223 0.263415
4.15682 66.4336 -27.1081 0.370283 0.882233 0.290783
3.14817 66.5087 -26.0442 0.36687 0.876258 0.312377
2.00178 66.5355 -24.8809 0.360254 0.870661 0.334914
0.677234 66.5473 -23.5427 0.343814 0.868411 0.357286
-0.463578 66.5176 -22.4283 0.341538 0.862851 0.372612
-1.59618 66.4362 -21.3684 0.299834 0.867391 0.397156
-3.33757 66.2591 -19.784 0.257089 0.870855 0.418948
-4.50266 66.1065 -18.7518 0.255277 0.868105 0.425709
-5.59723 65.9027 -17.8261 0.209347 0.870328 0.445761
-6.67236 65.6975 -16.9205 0.205899 0.867385 0.453044
-7.87169 65.4207 -15.9375 0.177234 0.868206 0.463473
-9.05117 65.131 -14.9781 0.159073 0.85961 0.485557
-10.2069 64.8214 -14.0562 0.157027 0.859986 0.485558
-11.3726 64.5075 -13.1148 0.124352 0.867073 0.482411
-13.3111 63.9372 -11.5726 0.128274 0.868883 0.478109
-14.4216 63.6199 -10.6745 0.113948 0.879616 0.461835
-16.0862 63.1409 -9.3306 0.155387 0.861795 0.482872
-17.1583 62.8426 -8.46549 0.161078 0.873334 0.459718
-18.9835 62.378 -6.9432 0.159601 0.875621 0.455869
-20.4094 61.9722 -5.77244 0.131275 0.873216 0.46932
-20.5193 61.9404 -5.68255 0.131276 0.873216 0.469319
-20.6565 61.321 -4.49162 0.127762 0.868154 0.479569
-19.3623 61.6954 -5.55025 0.131275 0.873216 0.46932
-18.3147 61.9889 -6.42161 0.153382 0.874929 0.459318
-17.2329 62.261 -7.32837 0.158123 0.877886 0.45201
-16.1488 62.5351 -8.23501 0.15181 0.867497 0.473712
-14.9469 62.8925 -9.19987 0.104751 0.876582 0.469715
-13.8121 63.2435 -10.1079 0.113948 0.879616 0.461835
-12.6621 63.5646 -11.0442 0.123131 0.882512 0.453885
-11.5482 63.8822 -11.9456 0.126314 0.867982 0.480262
-10.2291 64.2416 -13.0093 0.16014 0.862448 0.480144
-9.16609 64.5251 -13.8679 0.159072 0.859607 0.485563
-7.89168 64.8665 -14.8949 0.16112 0.859226 0.485563
-6.72818 65.1383 -15.8459 0.189849 0.866363 0.461922
-5.48004 65.3976 -16.895 0.20935 0.870328 0.44576
-4.41087 65.6017 -17.7956 0.231461 0.86805 0.439221
-3.3087 65.7592 -18.7627 0.257089 0.870855 0.418948
-1.24935 65.9767 -20.629 0.299414 0.866161 0.400144
0.427262 66.0742 -22.2181 0.341538 0.862851 0.372612
1.77852 66.1094 -23.5381 0.343814 0.868411 0.357286
2.87143 66.0884 -24.644 0.335733 0.887197 0.316487
3.88553 66.07 -25.6683 0.341782 0.885942 0.313515
5.14025 65.9876 -26.9765 0.354813 0.892982 0.276931
6.15627 65.9131 -28.0392 0.358312 0.895588 0.263692
7.15498 65.8093 -29.1063 0.361184 0.898181 0.250635
8.12422 65.7129 -30.1369 0.356004 0.902792 0.241305
9.20677 65.577 -31.3019 0.359492 0.904745 0.228477
10.1969 65.4596 -32.3596 0.350653 0.909556 0.223049
11.2527 65.3147 -33.4979 0.353722 0.911343 0.210557
12.6106 65.1217 -34.9627 0.340268 0.918929 0.199466
14.2452 64.8794 -36.7229 0.338219 0.922516 0.185933
15.239 64.741 -37.7845 0.330225 0.924876 0.188564
16.9165 64.4978 -39.5819 0.321621 0.930065 0.177591
17.9068 64.3576 -40.6413 0.319964 0.930845 0.176494
19.0538 64.1971 -41.8652 0.304694 0.938698 0.161267
20.0005 64.0633 -42.8757 0.300393 0.939723 0.163353
21.2009 63.6885 -42.8926 0.296088 0.940725 0.165435
19.6888 63.8912 -41.2849 0.306149 0.936676 0.170031
18.4465 64.0462 -39.9666 0.312399 0.933099 0.178137
17.4806 64.1819 -38.9344 0.318312 0.93162 0.175393
15.5939 64.439 -36.923 0.328382 0.925793 0.187279
14.4842 64.5933 -35.738 0.338219 0.922516 0.185933
13.4524 64.7363 -34.6318 0.344376 0.915767 0.206822
12.5104 64.863 -33.6242 0.341578 0.915788 0.211323
11.2451 65.0288 -32.2656 0.354957 0.910197 0.213416
10.1205 65.1588 -31.0708 0.346315 0.908812 0.232652
9.07102 65.2881 -29.9442 0.356005 0.902792 0.241305
7.96975 65.3908 -28.781 0.356822 0.899438 0.25237
7.01563 65.4861 -27.7651 0.355374 0.892831 0.276698
5.13148 65.625 -25.7962 0.351371 0.888951 0.293777
4.08014 65.6606 -24.727 0.335731 0.887198 0.316488
2.89563 65.682 -23.5306 0.334689 0.884599 0.324758
1.56577 65.6585 -22.2288 0.303531 0.886036 0.350441
0.183582 65.6049 -20.896 0.302965 0.883951 0.356149
-0.952518 65.5119 -19.8451 0.299414 0.866161 0.400144
-2.01549 65.425 -18.8614 0.278327 0.868744 0.409655
-3.08536 65.2757 -17.9201 0.253451 0.865306 0.432445
-4.20734 65.1131 -16.9372 0.231461 0.86805 0.43922
-5.36686 64.8812 -15.9617 0.202429 0.864378 0.460296
-6.68492 64.6003 -14.8546 0.18985 0.866363 0.461922
-7.81055 64.3131 -13.9426 0.155037 0.871558 0.465134
-8.8816 64.0494 -13.0597 0.140731 0.882177 0.449398
-10.5232 63.61 -11.7286 0.133689 0.885952 0.44409
-11.8541 63.2435 -10.6392 0.116107 0.884855 0.451165
-13.2026 62.867 -9.54125 0.113949 0.879615 0.461836
-14.3374 62.516 -8.63323 0.104751 0.876582 0.469715
-15.6638 62.1036 -7.56414 0.113225 0.878465 0.464197
-17.4914 61.6387 -6.02946 0.153382 0.874929 0.459317
-18.9828 61.2254 -4.78191 0.139959 0.87259 0.467972
-20.1858 60.8611 -3.8007 0.124233 0.862966 0.489751
-20.7665 60.6767 -3.32847 0.124233 0.862966 0.48975
-21.0134 59.9984 -2.04657 0.0854148 0.889609 0.448665
-19.9294 60.3432 -2.9316 0.0942667 0.881323 0.463017
-18.8244 60.6966 -3.82915 0.104715 0.881604 0.460227
-17.7744 60.9894 -4.70863 0.123305 0.891523 0.43587
-16.6954 61.2826 -5.61372 0.117723 0.89176 0.436927
-15.3381 61.6362 -6.7589 0.113227 0.878465 0.464196
-13.5639 62.2032 -8.18539 0.0977326 0.888643 0.448064
-12.4313 62.5393 -9.1056 0.108309 0.890443 0.442019
-10.5785 63.0724 -10.611 0.109075 0.887144 0.448418
-9.46729 63.3546 -11.5322 0.134773 0.890875 0.433795
-8.41189 63.6342 -12.3916 0.140732 0.882178 0.449395
-7.01188 63.9788 -13.5457 0.145492 0.88448 0.443314
-5.375 64.3425 -14.9182 0.171636 0.891282 0.41971
-4.00802 64.624 -16.0749 0.182123 0.888932 0.420274
-2.8726 64.7958 -17.0642 0.220863 0.886251 0.40716
-1.74183 64.9666 -18.0494 0.242981 0.883924 0.399548
-0.621896 65.0727 -19.0749 0.268036 0.885612 0.379273
0.455302 65.1704 -20.0642 0.285264 0.883888 0.370629
1.54664 65.2194 -21.1021 0.303531 0.886036 0.350441
2.60137 65.2604 -22.1191 0.318622 0.884121 0.341775
4.0145 65.2558 -23.5229 0.334684 0.8846 0.32476
5.11373 65.2254 -24.6378 0.347817 0.884644 0.310529
6.14981 65.1882 -25.6924 0.351371 0.888951 0.293777
7.15141 65.1135 -26.7371 0.355374 0.892831 0.2767
8.14738 65.0387 -27.7749 0.358312 0.895589 0.263692
9.19501 64.94 -28.8824 0.352453 0.900675 0.254089
10.1704 64.844 -29.9158 0.352912 0.906802 0.230571
11.1308 64.7383 -30.9322 0.346314 0.908812 0.232652
12.1499 64.6176 -32.017 0.346876 0.913025 0.214621
13.2345 64.4886 -33.1722 0.341577 0.915788 0.211322
11.8377 64.3511 -30.4718 0.346232 0.908868 0.232556
10.7403 64.4673 -29.3121 0.341263 0.906437 0.248822
9.44273 64.5852 -27.9446 0.347692 0.903951 0.248964
8.12003 64.6876 -26.569 0.346267 0.898935 0.268356
7.12628 64.7615 -25.5343 0.342961 0.89648 0.280537
5.69986 64.8147 -24.0848 0.329389 0.896404 0.296585
4.0955 64.833 -22.4841 0.320741 0.889167 0.326354
2.97633 64.8366 -21.3724 0.318622 0.884121 0.341775
1.89564 64.7899 -20.3406 0.302389 0.881832 0.361848
0.796462 64.7391 -19.2983 0.285268 0.883886 0.370631
-0.280736 64.6414 -18.3089 0.268036 0.885612 0.379273
-1.48126 64.5179 -17.2164 0.264966 0.881108 0.391716
-2.62824 64.3454 -16.2164 0.220863 0.886251 0.40716
-3.97281 64.1253 -15.0405 0.192592 0.886478 0.420792
-5.17487 63.8813 -14.0207 0.170684 0.889963 0.422886
-6.97859 63.4597 -12.5167 0.142124 0.885584 0.442202
-9.01252 62.9473 -10.8371 0.134773 0.890875 0.433795
-10.0843 62.6765 -9.94792 0.121939 0.889108 0.441156
-11.4975 62.2747 -8.79328 0.107538 0.893695 0.435596
-12.8692 61.8707 -7.67363 0.093269 0.889733 0.446851
-14.1095 61.4818 -6.67227 0.0694994 0.888207 0.454157
-15.1861 61.1528 -5.78916 0.125966 0.905593 0.405011
-16.5339 60.7893 -4.65032 0.117723 0.89176 0.436927
-17.5764 60.5059 -3.77583 0.119236 0.886722 0.446661
-18.963 60.0805 -2.62829 0.0942654 0.881323 0.463017
-20.6583 59.5496 -1.22429 0.0854148 0.889609 0.448665
-20.3032 59.1008 -0.402011 0.0854147 0.889609 0.448665
-18.577 59.6322 -1.85348 0.0965122 0.886111 0.453313
-17.3594 60.0042 -2.86311 0.115152 0.881782 0.457384
-15.654 60.5016 -4.28978 0.112138 0.891969 0.437969
-14.3668 60.8743 -5.36458 0.0624013 0.900416 0.430531
-13.1612 61.2609 -6.34756 0.074885 0.903774 0.421409
-11.4419 61.7639 -7.75892 0.100409 0.891753 0.441242
-10.1338 62.1307 -8.83441 0.0965314 0.897094 0.431166
-8.73255 62.5062 -9.99285 0.117983 0.898875 0.422024
-7.15486 62.9076 -11.3017 0.12867 0.900251 0.415922
-5.9132 63.199 -12.337 0.136802 0.893896 0.42689
-4.24506 63.5719 -13.7386 0.17106 0.897388 0.406734
-2.99966 63.8047 -14.8105 0.207274 0.888095 0.410275
-1.62891 64.0091 -16.0265 0.221376 0.887844 0.403393
-0.440904 64.15 -17.0926 0.264966 0.881108 0.391716
0.690271 64.2673 -18.1215 0.266508 0.88338 0.385505
2.15876 64.355 -19.5007 0.302391 0.881831 0.361847
3.39428 64.4226 -20.6626 0.291628 0.89571 0.335644
5.20824 64.4361 -22.4429 0.307786 0.896166 0.319615
6.35629 64.4113 -23.5948 0.329134 0.895135 0.300672
7.81905 64.3506 -25.0832 0.339597 0.893878 0.292669
9.1375 64.2602 -26.4475 0.344849 0.899305 0.268943
10.3083 64.1734 -27.6583 0.346289 0.901677 0.258966
10.9406 64.1177 -28.323 0.339936 0.905777 0.253007
10.322 63.8257 -26.4925 0.332011 0.906665 0.260245
9.05375 63.9147 -25.1844 0.332387 0.905399 0.264145
7.95027 63.9685 -24.0584 0.334046 0.898623 0.284412
6.57157 64.0154 -22.6658 0.324514 0.89592 0.303344
5.18611 64.0309 -21.2855 0.307892 0.895438 0.321548
3.86411 64.0203 -19.9975 0.291628 0.89571 0.335644
2.69462 63.9537 -18.9001 0.275143 0.896339 0.347669
1.56704 63.8911 -17.8396 0.264054 0.899013 0.349359
0.52252 63.7896 -16.8841 0.238244 0.901965 0.360137
-0.627825 63.6742 -15.8342 0.232944 0.898631 0.371751
-1.84921 63.4982 -14.7464 0.206824 0.898333 0.387584
-3.11904 63.2909 -13.6292 0.185902 0.899122 0.396257
-4.4078 63.0352 -12.5255 0.156162 0.895355 0.417076
-5.5105 62.8006 -11.5924 0.144675 0.900062 0.411045
-6.63937 62.5312 -10.6514 0.125898 0.898562 0.420401
-8.00296 62.1875 -9.51811 0.118327 0.90273 0.413615
-9.08685 61.9218 -8.60615 0.11866 0.906507 0.405172
-10.6684 61.4603 -7.31261 0.0834456 0.907062 0.412644
-11.7405 61.1579 -6.42291 0.0875894 0.906834 0.412287
-13.2268 60.7161 -5.19831 0.0621634 0.900482 0.430427
-14.2711 60.4074 -4.32856 0.0627396 0.918046 0.391478
-15.5642 60.0344 -3.24461 0.0604613 0.914853 0.399236
-17.128 59.5564 -1.94078 0.0619176 0.91168 0.406208
-18.5229 59.1198 -0.770559 0.0475555 0.910525 0.41071
-19.8512 58.688 0.340415 0.0476044 0.910172 0.411485
-19.9733 58.6465 0.44171 0.0253834 0.902268 0.430429
-19.9106 58.1339 1.51241 0.0253834 0.902268 0.430429
-18.6297 58.5736 0.45178 0.0476512 0.909819 0.412261
-17.4592 58.9545 -0.527242 0.0550462 0.911893 0.406719
-16.2359 59.3267 -1.56118 0.0622258 0.912438 0.404455
-14.8545 59.7525 -2.71405 0.0576927 0.911534 0.407157
-13.4826 60.1551 -3.86263 0.0622523 0.917998 0.391668
-12.092 60.5575 -5.02689 0.0566395 0.919592 0.388771
-10.5421 61.0078 -6.31108 0.0714206 0.911102 0.405947
-9.46578 61.3062 -7.20505 0.08136 0.913548 0.39851
-8.07424 61.6799 -8.36136 0.112018 0.908474 0.40265
-6.61179 62.0439 -9.58823 0.111193 0.912212 0.394342
-5.55728 62.2975 -10.4722 0.11966 0.91067 0.395425
-4.24081 62.5753 -11.5879 0.157889 0.89805 0.410582
-2.86948 62.8548 -12.7568 0.194501 0.897181 0.39653
-1.82209 63.0268 -13.681 0.203084 0.895172 0.396767
-0.570656 63.2139 -14.7932 0.227606 0.895139 0.383303
1.20366 63.4173 -16.4022 0.245688 0.899986 0.360088
2.9784 63.5422 -18.0584 0.274927 0.899861 0.338623
4.33395 63.6181 -19.3324 0.291629 0.895709 0.335646
5.80639 63.6299 -20.7669 0.303132 0.896862 0.322103
7.11556 63.6179 -22.0604 0.320146 0.897968 0.301928
8.81593 63.5584 -23.7792 0.326765 0.901447 0.283933
9.67134 63.5266 -24.6419 0.326127 0.904213 0.275754
8.58561 63.2017 -22.3816 0.326765 0.901447 0.283933
7.04519 63.2377 -20.8436 0.319271 0.899334 0.298772
5.81819 63.2278 -19.6508 0.298261 0.898988 0.320719
4.80378 63.2159 -18.6672 0.291629 0.895709 0.335646
3.75595 63.1611 -17.6768 0.274927 0.899861 0.338623
2.73945 63.1093 -16.714 0.264053 0.899013 0.349359
1.20344 62.9751 -15.2993 0.249181 0.902437 0.351448
0.0888602 62.8393 -14.2892 0.209029 0.910133 0.35772
-1.35392 62.6344 -12.9972 0.177774 0.911733 0.370323
-2.68213 62.4199 -11.824 0.16626 0.912957 0.372649
-4.4279 62.0687 -10.3352 0.139497 0.91344 0.382319
-5.6466 61.7992 -9.30086 0.12812 0.90906 0.396478
-7.18738 61.4214 -8.00689 0.105368 0.910391 0.400106
-8.90192 60.9775 -6.56657 0.0798117 0.91392 0.39797
-10.4142 60.5524 -5.31148 0.0691203 0.918127 0.390212
-11.5072 60.2581 -4.3895 0.0589118 0.923057 0.380126
-13.5269 59.6621 -2.69947 0.049862 0.924569 0.377737
-14.799 59.2791 -1.63227 0.0438325 0.922511 0.383474
-15.9331 58.9309 -0.678444 0.0382221 0.920679 0.388445
-16.9923 58.5968 0.215471 0.0334608 0.915563 0.400781
-18.0255 58.2575 1.07966 0.0476512 0.909819 0.412261
-19.0858 57.8948 1.95816 0.0290873 0.902261 0.430209
-19.7443 57.6601 2.50349 0.0244853 0.905621 0.42338
-19.4322 57.2406 3.38273 0.0244852 0.905621 0.42338
-17.9163 57.7868 2.12472 0.0168953 0.915727 0.401445
-16.4996 58.2623 0.938277 0.0290326 0.914557 0.403414
-14.804 58.8053 -0.491846 0.0410269 0.921603 0.38596
-12.8616 59.3974 -2.12256 0.0424859 0.925652 0.375984
-10.9517 59.9501 -3.72763 0.0589131 0.923057 0.380125
-9.70884 60.2847 -4.776 0.0651148 0.925247 0.373734
-8.32182 60.6565 -5.94561 0.079812 0.913919 0.397972
-7.11448 60.9773 -6.95711 0.1008 0.919119 0.380868
-5.80921 61.2925 -8.06277 0.108612 0.921376 0.373189
-4.6844 61.5415 -9.02087 0.128121 0.90906 0.396479
-3.29968 61.8388 -10.1974 0.146973 0.911936 0.383107
-2.06753 62.0758 -11.2553 0.16626 0.912957 0.372649
-0.539573 62.3169 -12.6065 0.192671 0.910487 0.365912
0.973112 62.5122 -13.9737 0.22142 0.90716 0.357818
2.12438 62.6251 -15.0322 0.245222 0.906822 0.342841
3.17503 62.7097 -16.0076 0.251444 0.905289 0.342387
4.52106 62.786 -17.2765 0.262 0.907148 0.3293
6.40667 62.8335 -19.0926 0.29259 0.906853 0.30333
7.4537 62.8475 -20.1057 0.308802 0.899265 0.309781
7.1785 62.4537 -18.7018 0.292591 0.906852 0.30333
6.17457 62.4471 -17.7238 0.279858 0.903352 0.325016
4.36814 62.3678 -16.0028 0.259832 0.905455 0.335618
3.34472 62.297 -15.0445 0.257654 0.903718 0.341919
2.04535 62.183 -13.8426 0.233777 0.904039 0.357857
0.683608 62.0382 -12.5957 0.201482 0.912933 0.354906
-0.573605 61.868 -11.4649 0.18775 0.912901 0.362439
-2.07294 61.6125 -10.1543 0.154436 0.91038 0.383873
-3.36477 61.3682 -9.04243 0.13885 0.921321 0.363164
-5.10195 61.0011 -7.55287 0.116802 0.923425 0.365573
-6.80432 60.5913 -6.10762 0.100605 0.919163 0.380813
-8.57205 60.139 -4.60862 0.072957 0.927979 0.365422
-10.2695 59.6771 -3.17321 0.0616325 0.929024 0.364851
-11.7222 59.2672 -1.94588 0.0486958 0.927919 0.369586
-13.1811 58.8284 -0.718181 0.0362724 0.923306 0.382349
-14.2543 58.4974 0.183743 0.0380566 0.918624 0.393296
-15.9899 57.9335 1.647 0.0334635 0.915563 0.400779
-17.2538 57.5152 2.71486 0.0277963 0.919543 0.392005
-18.5059 57.0567 3.75362 0.00484182 0.916535 0.399924
-18.9488 56.8999 4.12917 -0.011086 0.91543 0.402324
-18.5466 56.5345 4.95391 -0.0258595 0.909235 0.415479
-17.4768 56.9275 4.0499 0.00369079 0.921233 0.388994
-16.2967 57.3409 3.05583 0.0174952 0.920779 0.389691
-15.201 57.7222 2.12796 0.0111345 0.924427 0.381196
-14.0368 58.1004 1.14641 0.0177121 0.926908 0.374871
-12.6946 58.5179 0.0112976 0.0267265 0.931278 0.363329
-11.5808 58.852 -0.927093 0.0315014 0.927351 0.372864
-10.2446 59.2362 -2.05601 0.0453681 0.928614 0.368263
-8.90523 59.5979 -3.19502 0.0598274 0.932352 0.356567
-7.48841 59.9708 -4.3978 0.0771191 0.927107 0.366776
-6.30173 60.2699 -5.41236 0.0880551 0.927775 0.362601
-5.14264 60.5337 -6.40689 0.0976241 0.924315 0.368932
-4.04902 60.7833 -7.33908 0.124856 0.92164 0.36741
-2.7181 61.0521 -8.4877 0.13885 0.921321 0.363164
-0.846173 61.3865 -10.111 0.157673 0.920145 0.358431
0.495519 61.5749 -11.3116 0.197443 0.910427 0.363509
1.83388 61.7367 -12.5259 0.231047 0.91057 0.342753
2.90094 61.8364 -13.5101 0.224482 0.913484 0.339344
4.25025 61.9363 -14.7698 0.244058 0.913221 0.326286
5.32001 62.0092 -15.7722 0.259832 0.905455 0.335618
6.32584 62.0454 -16.7373 0.279858 0.903352 0.325016
6.26156 61.6524 -15.5268 0.263559 0.912032 0.31422
4.4044 61.5413 -13.7795 0.244058 0.913221 0.326286
3.29268 61.4618 -12.7423 0.217903 0.916341 0.335912
1.89693 61.3231 -11.4588 0.217881 0.917017 0.334078
0.832461 61.192 -10.4962 0.185042 0.922002 0.340106
-1.08219 60.9127 -8.79085 0.157673 0.920145 0.358431
-2.66975 60.6151 -7.4166 0.1329 0.919789 0.369222
-3.98437 60.3613 -6.27399 0.114092 0.929812 0.349904
-5.71953 59.969 -4.78388 0.0880544 0.927776 0.362598
-7.37101 59.5619 -3.36536 0.0703611 0.933405 0.351858
-8.71195 59.2118 -2.21798 0.0598272 0.932353 0.356566
-9.84188 58.9004 -1.25905 0.0453682 0.928615 0.368262
-11.2626 58.5019 -0.0530242 0.0361098 0.931756 0.361285
-12.4679 58.1403 0.962445 0.0267265 0.931278 0.363329
-13.9649 57.6596 2.23289 0.0177121 0.926908 0.374871
-15.0602 57.288 3.15886 0.00366898 0.926163 0.377106
-16.6231 56.7361 4.49503 -0.00619297 0.921931 0.387306
-18.4085 56.0607 5.99942 -0.0258597 0.909236 0.415478
-18.5781 55.9911 6.14113 -0.0265645 0.912317 0.408621
-18.4455 55.527 7.20756 -0.0272634 0.915347 0.401741
-17.053 56.0863 6.02767 -0.0265624 0.912318 0.408621
-15.4939 56.6715 4.69666 -0.0160788 0.922535 0.385579
-14.4092 57.0472 3.76935 0.000145484 0.930288 0.366831
-12.879 57.5445 2.4588 0.01507 0.932306 0.361356
-11.6055 57.9534 1.37808 0.0235422 0.929122 0.369024
-10.4318 58.2927 0.384627 0.0454899 0.93215 0.359204
-8.82245 58.7413 -0.983359 0.0454308 0.930393 0.363737
-7.67314 59.0459 -1.96614 0.0648132 0.931628 0.357587
-6.23584 59.4097 -3.203 0.0759052 0.93512 0.346105
-5.15495 59.6675 -4.13832 0.0886192 0.935818 0.34116
-3.53183 60.026 -5.53659 0.101541 0.927643 0.3594
-2.42402 60.2336 -6.50504 0.126613 0.931748 0.340317
-1.31821 60.4389 -7.47065 0.157673 0.920145 0.358431
0.282394 60.695 -8.88256 0.170534 0.917342 0.359725
1.45772 60.8591 -9.93389 0.185042 0.922002 0.340106
2.48257 60.9697 -10.8666 0.217857 0.917688 0.332245
3.85207 61.1038 -12.1288 0.231295 0.915229 0.329938
5.37443 61.2015 -13.5541 0.24435 0.91357 0.325091
5.65159 61.2202 -13.8139 0.252364 0.911646 0.324368
5.48651 60.8111 -12.5196 0.237083 0.918087 0.317659
4.12284 60.7213 -11.2456 0.223418 0.919504 0.323414
3.00717 60.6112 -10.2174 0.207716 0.920716 0.330358
1.58222 60.4605 -8.92104 0.19837 0.919491 0.339389
0.400932 60.2833 -7.87035 0.158316 0.930188 0.331188
-0.968099 60.0781 -6.64641 0.147594 0.928761 0.340027
-2.27934 59.8456 -5.49657 0.13237 0.930047 0.34277
-3.7589 59.5471 -4.21016 0.0980543 0.937133 0.334913
-5.35768 59.1951 -2.82139 0.0791725 0.934382 0.347364
-6.80772 58.8403 -1.56705 0.0544914 0.938132 0.341962
-8.19233 58.489 -0.375753 0.043216 0.938236 0.343287
-9.49276 58.121 0.729942 0.0310237 0.936868 0.348303
-10.6957 57.7806 1.75277 0.0316866 0.940909 0.337173
-11.8518 57.4286 2.74215 0.00978381 0.937472 0.347924
-12.9427 57.094 3.67447 0.00110721 0.934219 0.356698
-14.3625 56.6027 4.89638 -0.00371328 0.930558 0.366127
-15.7178 56.1114 6.05827 -0.0253333 0.930858 0.364501
-17.0182 55.6029 7.1716 -0.0550646 0.920162 0.387648
-18.1883 55.1129 8.16844 -0.0411691 0.917869 0.394743
-18.3211 55.0578 8.28136 -0.0466673 0.912153 0.407185
-18.4527 54.4952 9.57518 -0.0709026 0.917805 0.390649
-17.0016 55.1159 8.33 -0.0549757 0.921319 0.3849
-15.8637 55.5843 7.35899 -0.0302414 0.926044 0.376203
-14.518 56.0872 6.20345 -0.0262349 0.930868 0.364411
-13.1996 56.5508 5.06234 -0.0108782 0.937181 0.348675
-11.453 57.12 3.56251 0.00594653 0.937927 0.346781
-10.258 57.495 2.53706 0.0172309 0.94175 0.335871
-9.11786 57.8021 1.55428 0.0310237 0.936868 0.348303
-7.82778 58.1672 0.457387 0.0310237 0.936868 0.348303
-6.58266 58.4799 -0.614037 0.0549452 0.938788 0.340087
-4.9217 58.8793 -2.05529 0.0788855 0.939558 0.333179
-3.44128 59.2043 -3.34412 0.106629 0.934742 0.338951
-2.35473 59.4196 -4.29437 0.125228 0.933537 0.335896
-1.2895 59.5995 -5.23084 0.138121 0.928305 0.345214
-0.0268793 59.8114 -6.34775 0.157055 0.929108 0.334802
1.06653 59.9738 -7.32693 0.16694 0.927026 0.335788
2.83336 60.1827 -8.93055 0.203042 0.923952 0.324171
4.30374 60.3355 -10.2737 0.223416 0.919504 0.323414
4.53514 60.3511 -10.4896 0.236639 0.917354 0.320098
4.57001 59.9565 -9.38124 0.227986 0.922374 0.311848
3.22051 59.8319 -8.14193 0.200786 0.92786 0.314262
2.10379 59.7053 -7.12395 0.186996 0.924342 0.332604
1.00485 59.5521 -6.13452 0.165932 0.926543 0.337616
-0.0700295 59.3943 -5.16733 0.153979 0.932432 0.326897
-1.81802 59.1074 -3.62757 0.135238 0.934672 0.328783
-3.13953 58.8461 -2.47173 0.115325 0.935285 0.334576
-4.30076 58.6085 -1.44919 0.0885746 0.93652 0.339242
-5.44352 58.353 -0.447383 0.0666941 0.938924 0.337599
-6.74063 58.0273 0.668875 0.0553985 0.939438 0.338211
-8.13313 57.6558 1.86011 0.0316866 0.940909 0.337173
-9.6134 57.2641 3.14225 0.0323451 0.944818 0.325996
-10.6919 56.9318 4.06877 0.00211094 0.938367 0.345634
-12.1065 56.4788 5.29008 -0.017436 0.938033 0.346108
-13.163 56.126 6.20523 -0.0190086 0.934093 0.356523
-14.307 55.7094 7.19662 -0.0375286 0.932159 0.360098
-15.4853 55.2511 8.20957 -0.0381666 0.92764 0.37152
-16.8299 54.6978 9.36381 -0.0548864 0.922469 0.38215
-17.8961 54.2388 10.2786 -0.0712419 0.916224 0.394282
-17.9843 54.199 10.3544 -0.0715798 0.914628 0.397909
-17.7027 53.8137 11.295 -0.0923193 0.920262 0.380256
-16.6757 54.277 10.4124 -0.0727986 0.924844 0.373316
-15.5827 54.7405 9.47316 -0.0726588 0.925372 0.372032
-14.4991 55.173 8.53788 -0.0468601 0.93357 0.355319
-13.3055 55.6233 7.50655 -0.0289668 0.935044 0.353347
-11.8609 56.1336 6.25059 -0.023993 0.938837 0.343524
-10.6386 56.5306 5.18974 0.00134324 0.944329 0.328999
-9.21862 56.9671 3.96378 0.017231 0.94175 0.335871
-8.1259 57.2563 3.01731 0.0323451 0.944818 0.325996
-7.05213 57.5423 2.08656 0.0420861 0.948642 0.313539
-5.99244 57.8022 1.1687 0.0570837 0.938933 0.339332
-4.9488 58.064 0.268631 0.0722622 0.941418 0.329408
-3.28935 58.4188 -1.1897 0.102024 0.937483 0.332742
-1.80141 58.6933 -2.5057 0.115328 0.935285 0.334577
-0.715142 58.8886 -3.45907 0.142501 0.932977 0.330527
0.646332 59.1011 -4.66838 0.153979 0.932432 0.326897
1.81926 59.2664 -5.72545 0.17098 0.931445 0.321211
2.86082 59.3921 -6.67319 0.181678 0.92808 0.325054
4.19882 59.5316 -7.89874 0.212796 0.923548 0.319025
3.75379 59.0989 -6.34371 0.213004 0.924079 0.317345
2.16436 58.9116 -4.89565 0.183738 0.929141 0.320838
0.413969 58.6598 -3.32675 0.149758 0.931227 0.332249
-0.656314 58.5008 -2.37211 0.136893 0.940738 0.310279
-1.71864 58.3139 -1.42886 0.103805 0.943247 0.315451
-2.7783 58.1172 -0.491786 0.101972 0.942293 0.318882
-4.21037 57.8259 0.769951 0.0874154 0.943589 0.319373
-5.48497 57.5166 1.87337 0.0570837 0.938933 0.339332
-6.61212 57.2652 2.86593 0.0420861 0.948642 0.313539
-7.66431 56.9828 3.77881 0.0254396 0.946355 0.322125
-8.70591 56.7061 4.68452 0.00804233 0.949487 0.313703
-10.0529 56.298 5.85511 0.00134324 0.944329 0.328999
-11.2813 55.903 6.92141 -0.0239393 0.938926 0.343285
-12.5706 55.4475 8.04632 -0.0368991 0.935749 0.350732
-13.8478 54.9699 9.15759 -0.0468586 0.93357 0.355318
-15.201 54.4278 10.3253 -0.0726586 0.925372 0.37203
-16.4984 53.8713 11.4481 -0.0826336 0.922336 0.37745
-17.5393 53.3978 12.3413 -0.092995 0.91914 0.382797
-17.4705 52.9275 13.4785 -0.0936696 0.91801 0.385335
-16.4803 53.3892 12.6191 -0.0929948 0.91914 0.382797
-15.4058 53.8594 11.6903 -0.072938 0.924313 0.374599
-14.2682 54.3488 10.704 -0.0727984 0.924844 0.373316
-13.1647 54.7804 9.74689 -0.0480995 0.933603 0.355066
-12.0723 55.1961 8.79456 -0.0401051 0.938911 0.341814
-10.9191 55.5985 7.78632 -0.0267296 0.941019 0.337296
-9.20624 56.1508 6.29186 -0.00938016 0.946035 0.32393
-7.32224 56.6818 4.64482 0.0254613 0.952541 0.303344
-6.1721 56.9881 3.64529 0.0420861 0.948642 0.313539
-5.03836 57.2387 2.64544 0.0587177 0.950591 0.304842
-3.93386 57.493 1.67796 0.0722612 0.941419 0.329406
-2.02592 57.8709 -0.00619144 0.100136 0.941323 0.322309
-0.896637 58.0816 -1.00473 0.119891 0.941881 0.313826
0.205881 58.2503 -1.99292 0.136893 0.940738 0.310279
1.76304 58.4779 -3.3836 0.154871 0.938836 0.307575
2.8506 58.602 -4.37585 0.172453 0.936475 0.305407
3.93148 58.7223 -5.36162 0.198432 0.932392 0.302109
3.01175 58.2461 -3.37552 0.172453 0.936475 0.305407
1.76852 58.1021 -2.23928 0.15487 0.938837 0.307573
0.445277 57.9045 -1.05551 0.135945 0.940266 0.312119
-0.818831 57.7111 0.077511 0.119891 0.941881 0.313826
-1.84614 57.5123 0.985202 0.0932617 0.946108 0.310132
-3.23795 57.2524 2.21805 0.0869081 0.95094 0.296916
-4.39273 57.0084 3.24274 0.0553245 0.951562 0.30244
-5.73208 56.711 4.42466 0.0420861 0.948642 0.313539
-7.34948 56.3005 5.84433 0.0254613 0.95254 0.303345
-8.45076 55.9822 6.80598 -0.00937896 0.946034 0.32393
-9.6179 55.6302 7.83346 -0.0241344 0.946785 0.320959
-11.133 55.1009 9.15765 -0.0328634 0.941744 0.334721
-12.3227 54.6599 10.1972 -0.0646092 0.942564 0.327718
-13.7105 54.1269 11.4126 -0.0867055 0.932712 0.350043
-14.813 53.6514 12.3684 -0.0970391 0.931205 0.35134
-15.9226 53.1629 13.334 -0.107047 0.925169 0.364148
-16.9813 52.6714 14.2532 -0.112497 0.924299 0.364714
-17.4506 52.4535 14.6607 -0.115037 0.921082 0.371987
-17.4446 51.9584 15.8606 -0.117573 0.917801 0.379234
-16.4596 52.4398 15.0009 -0.115039 0.921082 0.371986
-15.4702 52.8961 14.14 -0.101591 0.926009 0.363574
-13.5263 53.756 12.4468 -0.0867053 0.932712 0.350043
-12.4257 54.2069 11.4799 -0.0704909 0.938417 0.338239
-11.0349 54.7252 10.2634 -0.0510169 0.944387 0.324853
-9.89583 55.1155 9.26148 -0.0389955 0.942427 0.33213
-8.15655 55.6778 7.73114 -0.0092623 0.950798 0.309672
-6.70065 56.0903 6.45004 0.0255115 0.952531 0.30337
-5.24233 56.4595 5.16796 0.0406681 0.954913 0.294087
-3.40578 56.8575 3.53688 0.0713977 0.951504 0.299236
-2.21697 57.0801 2.47202 0.0863682 0.950687 0.297885
-0.771596 57.35 1.19172 0.105806 0.949058 0.296806
0.518734 57.5419 0.0327989 0.124862 0.946862 0.296414
1.78535 57.7307 -1.10373 0.146713 0.944394 0.294271
2.90046 57.8568 -2.12449 0.171853 0.936189 0.306622
3.0182 57.8704 -2.2321 0.171854 0.936189 0.306622
2.93181 57.491 -0.992382 0.167478 0.940702 0.29501
1.85308 57.3785 -0.00742563 0.146713 0.944394 0.294271
0.747102 57.2137 0.98496 0.125035 0.946965 0.296014
-0.444263 57.0369 2.05618 0.125206 0.947067 0.295613
-1.55775 56.8402 3.04643 0.0869092 0.95094 0.296918
-3.17492 56.5373 4.49788 0.0821061 0.955439 0.28354
-4.50415 56.2613 5.68948 0.0557593 0.956997 0.284688
-5.74815 55.9573 6.7873 0.0255628 0.952523 0.303392
-6.99736 55.6385 7.89496 -0.00736011 0.95195 0.306166
-8.46602 55.1974 9.19697 -0.0241323 0.946785 0.32096
-10.519 54.4939 11.0028 -0.0374144 0.946026 0.321923
-11.5677 54.1119 11.9221 -0.0704922 0.938417 0.338237
-13.342 53.385 13.4809 -0.0867053 0.932712 0.350043
-14.4592 52.8825 14.4571 -0.101591 0.926009 0.363574
-15.4768 52.4242 15.3479 -0.119163 0.928408 0.351935
-16.4641 51.947 16.2111 -0.134019 0.923651 0.359036
-16.7278 51.8192 16.4413 -0.134019 0.923651 0.359038
-16.6353 51.3902 17.5715 -0.139488 0.917312 0.372938
-15.5972 51.8971 16.663 -0.134019 0.923651 0.359038
-14.546 52.396 15.7374 -0.119163 0.928408 0.351935
-13.25 52.9782 14.6028 -0.110958 0.931985 0.345097
-11.9882 53.5032 13.4899 -0.090095 0.942536 0.321727
-10.7098 54.017 12.3643 -0.0704922 0.938417 0.338237
-9.36248 54.4804 11.1772 -0.0374144 0.946026 0.321923
-7.93068 54.9668 9.91421 -0.0382034 0.944241 0.327032
-6.54807 55.3841 8.68341 0.00256977 0.949884 0.312591
-5.21892 55.7231 7.50155 0.024246 0.956539 0.290596
-3.89204 56.0369 6.324 0.0588188 0.956512 0.285701
-2.59279 56.3025 5.15812 0.0618777 0.956016 0.286713
-0.741067 56.6297 3.48163 0.0821061 0.955439 0.28354
0.472591 56.8113 2.39057 0.125206 0.947067 0.295613
1.66396 56.9881 1.31935 0.125035 0.946965 0.296014
2.77835 57.1158 0.305883 0.168491 0.941465 0.291985
2.05358 56.6919 2.13091 0.142211 0.948811 0.282017
0.753447 56.5005 3.30058 0.117768 0.950809 0.286519
-0.343664 56.3502 4.3044 0.1094 0.955689 0.273293
-1.75893 56.1151 5.59133 0.0860346 0.957529 0.275202
-2.89853 55.8871 6.61546 0.0593481 0.957585 0.281972
-3.95295 55.6703 7.56051 0.0424258 0.955943 0.290471
-5.48635 55.2967 8.92194 0.0281854 0.955845 0.292517
-6.68296 54.9589 9.99095 -0.0109575 0.953795 0.300259
-7.74615 54.6502 10.9455 -0.0396934 0.953342 0.299271
-9.06662 54.1985 12.1104 -0.0601749 0.951766 0.300866
-10.1057 53.8387 13.0325 -0.0750779 0.946505 0.313834
-11.8781 53.1358 14.5971 -0.0978961 0.937684 0.333413
-13.1852 52.561 15.7505 -0.11096 0.931986 0.345095
-14.2994 52.0438 16.73 -0.122083 0.925437 0.358694
-15.3984 51.5234 17.6986 -0.128053 0.92456 0.358874
-16.5597 50.9323 18.7261 -0.139488 0.917312 0.372938
-16.7545 50.8324 18.8989 -0.149566 0.920416 0.361199
-15.5545 50.9803 19.0563 -0.159605 0.923292 0.349367
-14.5681 51.4656 18.1766 -0.137463 0.92862 0.344629
-13.092 52.159 16.8757 -0.128348 0.931348 0.340761
-12.0902 52.6026 15.9898 -0.11654 0.936664 0.330271
-11.0436 53.0557 15.0652 -0.0894045 0.941812 0.324032
-9.79693 53.5502 13.9623 -0.0890356 0.942539 0.322013
-8.56707 53.9919 12.8638 -0.0606372 0.950991 0.303216
-7.40026 54.3813 11.8304 -0.019195 0.954514 0.297549
-6.20309 54.7293 10.7536 -0.0071227 0.957614 0.287965
-4.63258 55.1424 9.34445 0.0285826 0.956128 0.29155
-3.53392 55.4029 8.36673 0.0570565 0.956111 0.287397
-2.05418 55.7092 7.04164 0.0593489 0.957585 0.281973
-0.73191 55.9396 5.84138 0.0956685 0.956172 0.276737
0.362471 56.109 4.84061 0.123463 0.955692 0.267225
2.21456 56.3651 3.14942 0.14221 0.948812 0.282015
1.41463 55.9127 5.05642 0.124107 0.95541 0.267936
0.39348 55.7798 6.0018 0.115653 0.953079 0.279758
-1.42731 55.4874 7.66313 0.0776998 0.957398 0.278123
-2.47882 55.2686 8.60413 0.0570559 0.95611 0.287399
-3.52906 55.049 9.54335 0.0424272 0.955943 0.290471
-5.11404 54.6743 10.9693 0.00182733 0.960949 0.27672
-6.13981 54.3873 11.8926 -0.0131587 0.956094 0.292764
-7.15852 54.0811 12.809 -0.0251059 0.95675 0.289826
-8.29829 53.698 13.8314 -0.0611003 0.950209 0.305564
-9.73297 53.1646 15.1088 -0.0890352 0.94254 0.322012
-10.8426 52.7181 16.0948 -0.0897732 0.94108 0.326051
-11.8949 52.2591 17.025 -0.120438 0.932565 0.34032
-12.9708 51.7722 17.9788 -0.128347 0.931349 0.340759
-14.0552 51.2556 18.9404 -0.13867 0.927154 0.348076
-15.126 50.736 19.8977 -0.149147 0.925275 0.348742
-15.5559 50.5175 20.2788 -0.161193 0.920824 0.355107
-15.4655 50.0858 21.4255 -0.171306 0.919022 0.35504
-14.4638 50.6063 20.5251 -0.1476 0.930395 0.335528
-12.8682 51.3774 19.0997 -0.140604 0.930769 0.337491
-11.7703 51.8754 18.1248 -0.12927 0.935413 0.329079
-10.767 52.328 17.2356 -0.118491 0.93463 0.335301
-9.59883 52.8014 16.197 -0.0897731 0.94108 0.326051
-8.5942 53.2053 15.3044 -0.0750787 0.946505 0.313832
-7.24707 53.6895 14.0959 -0.0742981 0.950704 0.301067
-5.95702 54.0846 12.9292 -0.0310142 0.958891 0.282075
-4.58431 54.466 11.6873 -0.0111889 0.958104 0.286202
-3.57037 54.7046 10.7742 0.035809 0.96271 0.268156
-2.25274 54.9686 9.58267 0.0509244 0.958496 0.28052
-1.20354 55.1875 8.6444 0.0811009 0.958467 0.273429
-0.122983 55.3454 7.65589 0.107671 0.952806 0.283844
1.22451 55.5503 6.42277 0.123626 0.953275 0.275651
1.57949 55.5987 6.09627 0.124185 0.954207 0.272153
2.1099 55.3282 6.79373 0.136704 0.950533 0.278923
0.572301 55.1037 8.20357 0.109439 0.955204 0.27497
-0.804406 54.9132 9.46447 0.111199 0.957518 0.266071
-1.85959 54.7051 10.4118 0.0538412 0.959998 0.274783
-3.02765 54.4766 11.4747 0.0567557 0.961457 0.269034
-4.25789 54.2007 12.5884 -0.00978378 0.959325 0.282136
-5.26409 53.9269 13.5038 -0.0113226 0.962164 0.272235
-6.55801 53.5488 14.6818 -0.0320285 0.956331 0.290527
-7.57331 53.1874 15.5957 -0.0723446 0.952682 0.295235
-8.77761 52.7267 16.6773 -0.101394 0.94461 0.312139
-9.77942 52.3245 17.5688 -0.103868 0.941864 0.319537
-10.8114 51.8819 18.4829 -0.129271 0.935412 0.329079
-11.9756 51.3542 19.5165 -0.133365 0.931818 0.337533
-13.3115 50.7219 20.7116 -0.1476 0.930395 0.335529
-14.8429 49.9513 22.0917 -0.178257 0.918827 0.35211
-15.0377 49.8466 22.2663 -0.178257 0.918827 0.35211
-14.4382 49.7047 22.9555 -0.180976 0.920779 0.345562
-13.1628 50.3592 21.8038 -0.15623 0.932317 0.326156
-11.6429 51.0692 20.4346 -0.136932 0.934549 0.328431
-10.3865 51.6482 19.3142 -0.11781 0.937297 0.328018
-8.78874 52.3218 17.899 -0.10387 0.941864 0.319536
-7.71463 52.7634 16.9375 -0.0963827 0.947648 0.304425
-6.56191 53.1738 15.896 -0.0627939 0.956006 0.286548
-5.47015 53.5166 14.904 -0.0302882 0.960045 0.278201
-4.39502 53.8233 13.9252 -0.01427 0.96376 0.266389
-3.29451 54.0974 12.9157 0.0435131 0.966697 0.252198
-2.17656 54.3093 11.8949 0.0445413 0.967314 0.24964
-0.987374 54.5415 10.8124 0.0538412 0.959998 0.274783
0.301433 54.7368 9.63728 0.111199 0.957518 0.266071
1.41135 54.8904 8.62072 0.107769 0.958691 0.263245
1.79684 54.9396 8.26531 0.141186 0.952752 0.268942
1.9111 54.6387 9.34791 0.119283 0.959288 0.256005
0.709171 54.4707 10.4489 0.104337 0.959843 0.260413
-0.314692 54.3368 11.3944 0.095636 0.965103 0.243783
-2.3445 53.9662 13.2545 0.0445413 0.967314 0.24964
-3.36487 53.756 14.1968 0.0176003 0.964255 0.264389
-4.70978 53.3898 15.426 -0.0116735 0.95824 0.285727
-5.88057 53.0335 16.4911 -0.0530013 0.956475 0.286962
-7.02429 52.63 17.5262 -0.077024 0.947569 0.310131
-8.07886 52.21 18.4731 -0.107971 0.943273 0.313971
-9.07945 51.7858 19.3606 -0.115275 0.94054 0.319526
-10.1074 51.355 20.2756 -0.130319 0.942081 0.309033
-11.1278 50.8877 21.194 -0.140486 0.937184 0.319296
-12.1227 50.4341 22.0876 -0.148363 0.934788 0.322739
-13.1911 49.8956 23.0558 -0.1625 0.923389 0.347775
-13.9187 49.5258 23.7181 -0.195811 0.925048 0.325492
-13.0898 49.5211 24.2026 -0.178318 0.932526 0.314002
-12.0328 50.0482 23.2373 -0.174171 0.932657 0.315935
-10.6382 50.6991 21.972 -0.144373 0.937312 0.317179
-9.60315 51.1742 21.0393 -0.130319 0.942081 0.309033
-8.50396 51.6228 20.0523 -0.116228 0.94658 0.300795
-7.49695 52.0485 19.1584 -0.10797 0.943274 0.313968
-6.44343 52.4671 18.2142 -0.0978523 0.947406 0.304708
-5.44109 52.8136 17.305 -0.0528135 0.956633 0.286467
-4.29718 53.1464 16.2592 -0.0106251 0.959628 0.281072
-2.88838 53.5327 14.9728 -0.00198029 0.959087 0.283104
-1.41106 53.8318 13.6085 0.0435139 0.966697 0.252196
0.123422 54.0894 12.1917 0.0829383 0.963776 0.253489
1.20369 54.2183 11.1809 0.106336 0.963102 0.247239
2.17794 54.3546 10.2885 0.119284 0.959287 0.256007
1.60215 53.9713 12.0163 0.108313 0.966181 0.234016
0.27102 53.7961 13.2586 0.0787278 0.96686 0.242867
-0.925702 53.6083 14.375 0.0521501 0.965921 0.253529
-1.95951 53.4021 15.3295 0.0387841 0.964001 0.263055
-3.0642 53.1281 16.3431 -0.00106979 0.959088 0.283105
-4.22977 52.8161 17.4125 -0.0106043 0.961252 0.275466
-5.34985 52.4726 18.4336 -0.0416902 0.953484 0.298548
-6.60436 52.0103 19.5652 -0.0787118 0.944949 0.317609
-7.99976 51.442 20.816 -0.116228 0.94658 0.300795
-9.09896 50.9934 21.803 -0.130318 0.942081 0.309032
-10.1269 50.5231 22.7306 -0.146079 0.942212 0.301492
-11.1055 50.0858 23.6231 -0.15807 0.937599 0.309712
-12.721 49.286 25.1061 -0.171063 0.935396 0.30947
-11.8557 49.3002 25.5565 -0.17209 0.937951 0.301054
-10.5503 49.9391 24.3505 -0.158069 0.9376 0.309711
-9.57171 50.3764 23.458 -0.146079 0.942212 0.301492
-8.59404 50.8135 22.566 -0.130662 0.948078 0.289956
-7.57235 51.2296 21.6455 -0.113135 0.946299 0.302852
-6.54405 51.6489 20.7193 -0.0877235 0.951357 0.295338
-5.37692 52.0601 19.6621 -0.0692281 0.950105 0.30415
-4.09889 52.4891 18.5038 -0.0169561 0.95566 0.293985
-2.88837 52.8271 17.3957 0.00277228 0.962357 0.271775
-1.66104 53.1269 16.2666 0.0350479 0.96186 0.271289
-0.383359 53.3882 15.0848 0.0617796 0.96569 0.25224
0.763698 53.577 14.0155 0.0745041 0.969808 0.232211
1.8948 53.7083 12.9491 0.112757 0.964731 0.237866
2.38897 53.7647 12.4861 0.112757 0.964731 0.237866
2.39508 53.4679 13.6869 0.114341 0.965276 0.234881
1.25757 53.3452 14.7664 0.114184 0.96704 0.227585
0.124183 53.1636 15.8271 0.0598463 0.966671 0.248929
-1.30626 52.8658 17.1503 0.0341405 0.962203 0.270186
-2.4535 52.5845 18.2061 0.0138569 0.959072 0.282823
-3.64211 52.251 19.2936 -0.0127481 0.957053 0.289633
-4.92958 51.836 20.464 -0.0692282 0.950105 0.30415
-5.97934 51.4754 21.4181 -0.0622484 0.955723 0.287609
-7.2374 50.979 22.5536 -0.113462 0.949964 0.291022
