-9.93046 46.715 37.5052 -0.336953 0.909035 0.24477
-10.6636 46.1407 38.4189 -0.393505 0.881243 0.261847
-11.1059 45.6642 39.3578 -0.393727 0.88022 0.264919
-12.0506 44.8774 40.2057 -0.457545 0.838399 0.296209
-12.6012 44.2477 41.1374 -0.457333 0.839386 0.293718
-13.219 43.5371 41.9496 -0.487753 0.804128 0.338081
-13.8816 42.5728 43.2978 -0.51383 0.794342 0.323958
-14.4601 41.6879 44.2298 -0.521317 0.755934 0.39597
-14.9363 40.9398 45.0311 -0.521367 0.755907 0.395955
-15.5352 39.9973 45.9148 -0.573317 0.699644 0.426376
-16.7963 38.5166 46.6385 -0.572985 0.697932 0.429626
-17.7405 37.3348 47.1978 -0.595511 0.674789 0.43592
-18.5661 36.2384 47.7221 -0.592264 0.655654 0.468317
-19.3158 35.4832 47.857 -0.545249 0.665702 0.509455
-19.8953 34.6492 48.3266 -0.545261 0.665699 0.509446
-20.7479 33.5402 48.8531 -0.542255 0.651344 0.530764
-21.5594 32.3151 49.5274 -0.542251 0.651334 0.530781
-22.168 31.1051 50.3909 -0.507439 0.63069 0.587142
-22.6661 29.908 51.2898 -0.533491 0.656843 0.532333
-22.9414 29.1602 52.0069 -0.460819 0.724824 0.51213
-23.0911 28.2866 53.0743 -0.468459 0.704636 0.532948
-23.2161 27.2882 54.4133 -0.492144 0.720033 0.48923
-22.9954 26.6504 55.5991 -0.497509 0.729798 0.468913
-22.8465 25.9825 56.7966 -0.497522 0.72977 0.468942
-22.6136 25.2323 58.2705 -0.509838 0.731906 0.452082
-22.5701 24.77 59.2304 -0.497295 0.776373 0.387224
-22.7396 24.2321 60.1594 -0.52292 0.775654 0.353435
-22.9273 23.6696 61.253 -0.512161 0.798787 0.315643
-23.2496 23.1319 62.1157 -0.493184 0.811952 0.312246
-24.0353 22.3728 62.8575 -0.492617 0.813089 0.310185
-25.0004 21.5082 63.7346 -0.453785 0.840074 0.297244
-25.9385 20.8327 64.2638 -0.419681 0.863433 0.279912
-26.8313 20.2598 64.6921 -0.419728 0.863375 0.280021
-27.7326 19.6778 65.1244 -0.429734 0.852592 0.297152
-28.5059 19.0143 65.8682 -0.438658 0.847196 0.299731
-28.593 18.5495 67.0546 -0.435155 0.85432 0.283647
-27.9075 18.5734 68.0834 -0.431647 0.861414 0.267668
-27.1354 18.6535 69.0572 -0.427776 0.861985 0.272011
-26.1023 18.9112 69.8653 -0.432323 0.859421 0.272882
-25.1212 19.3352 70.1058 -0.445393 0.85562 0.263368
-24.0563 19.9495 69.9392 -0.4535 0.854644 0.252828
-23.1824 20.4713 69.8427 -0.490215 0.835163 0.249382
-21.9437 21.166 70.0445 -0.508465 0.817414 0.270735
-20.7471 21.8924 70.2669 -0.554299 0.792656 0.253869
-19.757 22.4756 70.6076 -0.553491 0.793499 0.252991
-18.733 23.0371 71.3877 -0.615404 0.745939 0.254662
-17.9058 23.4696 72.1201 -0.620514 0.74252 0.252154
-17.109 23.8252 73.0967 -0.631281 0.742142 0.225186
-16.6187 23.943 74.0834 -0.631391 0.742081 0.225081
-16.0664 24.1069 75.0393 -0.615111 0.752898 0.234059
-15.2969 24.3944 76.0636 -0.610483 0.751507 0.250095
-14.4087 24.8111 77.0031 -0.616755 0.746973 0.248276
-13.6708 25.2025 77.6537 -0.616446 0.746678 0.249932
-12.8386 25.6753 78.2377 -0.619351 0.739968 0.261761
-11.9949 26.2557 78.5988 -0.602884 0.741502 0.294458
-10.8328 27.189 78.6727 -0.61845 0.727711 0.296576
-10.0574 27.936 78.4534 -0.601138 0.730271 0.324556
-8.95137 28.918 78.3295 -0.597044 0.716251 0.361279
-7.90453 29.8545 78.248 -0.60908 0.705238 0.362851
-6.82591 30.6981 78.2768 -0.553932 0.722833 0.412934
-5.82093 31.5353 78.1968 -0.561717 0.714154 0.417682
-4.85898 32.2813 78.1682 -0.519276 0.73293 0.439507
-3.19988 33.3989 78.3089 -0.52671 0.724271 0.444981
-2.29373 33.9745 78.2811 -0.449882 0.751348 0.482717
-1.33019 34.6613 78.1277 -0.451469 0.747548 0.487174
-0.268464 35.2486 78.2028 -0.448821 0.749152 0.487166
0.899803 35.9317 78.0347 -0.360133 0.77299 0.522293
2.17887 36.6783 77.8114 -0.360092 0.773109 0.522147
3.58866 37.2957 77.7036 -0.27174 0.803582 0.529541
5.12292 37.9196 77.5335 -0.249149 0.819902 0.51491
6.12872 38.2498 77.4456 -0.226066 0.827434 0.514049
7.06432 38.688 77.1517 -0.225943 0.827462 0.514059
8.21517 39.0319 77.0309 -0.186296 0.857446 0.479667
9.57053 39.4403 76.8272 -0.175015 0.859741 0.47967
10.4361 39.9383 76.2278 -0.163763 0.862007 0.479713
10.2557 40.353 75.4049 -0.149529 0.87252 0.465134
9.09535 40.7189 74.3107 -0.150677 0.88083 0.448814
8.0129 40.9118 73.5217 -0.178918 0.871246 0.457077
6.99834 41.1728 72.6884 -0.145681 0.863538 0.482783
6.12783 41.4644 71.9018 -0.14496 0.867204 0.476385
4.96507 41.8812 70.6654 -0.188994 0.866741 0.461564
4.24945 42.1606 69.8644 -0.183898 0.864045 0.468624
3.25422 42.5855 68.6903 -0.178857 0.879269 0.440267
2.36045 42.9704 67.5064 -0.165871 0.893831 0.416598
1.25872 43.3848 66.1785 -0.165942 0.893756 0.41673
0.756122 43.7294 65.051 -0.221708 0.904196 0.36507
0.214222 44.0097 64.0276 -0.221709 0.904194 0.365072
-0.366126 44.2522 63.0745 -0.220367 0.907296 0.358039
-0.52384 44.7922 61.6181 -0.209293 0.908398 0.361951
-0.796671 45.1725 60.4768 -0.277432 0.890284 0.361091
-0.758618 45.6544 59.0638 -0.206685 0.930609 0.302074
-0.705088 45.9709 58.0276 -0.248284 0.936929 0.246005
-0.565516 46.3946 56.4284 -0.289032 0.925224 0.245807
-0.451897 46.6919 55.4186 -0.283813 0.937275 0.202401
-0.0395665 47.0305 54.4279 -0.264088 0.944325 0.194975
0.295665 47.2711 53.3819 -0.176029 0.981996 0.0685404
1.0868 47.6132 51.9053 -0.163169 0.975351 0.148546
1.58521 47.857 50.6591 -0.111755 0.984839 0.13103
1.96945 48.0585 49.6279 -0.108661 0.982469 0.151485
2.5302 48.3606 47.7473 -0.0927388 0.990181 0.104598
2.73891 48.4889 46.7152 -0.0838533 0.993498 0.0770066
3.17931 48.6013 45.7487 -0.0839481 0.993464 0.077344
3.36663 48.7078 44.5838 -0.0839608 0.993465 0.0773135
3.41758 48.7902 43.5053 -0.0398986 0.997258 0.06133
3.82202 48.9577 41.7876 -0.00880466 0.995259 0.0968579
4.00084 49.0616 40.7355 -0.00891068 0.99524 0.0970441
4.41866 49.1869 39.5905 -0.011707 0.994315 0.105833
4.7367 49.2946 38.5755 0.0298991 0.995256 0.0925855
5.21276 49.3823 37.4399 0.0107024 0.996773 0.0795612
5.53947 49.4682 36.3195 0.0107458 0.994828 0.0990836
5.80716 49.5826 35.279 0.0590887 0.993664 0.0956094
6.27183 49.6695 34.083 0.0596562 0.993683 0.0950575
6.82406 49.7993 32.7084 0.0567641 0.990925 0.121841
7.21015 49.9058 31.6496 0.0839142 0.990274 0.110979
7.98449 49.9841 30.5709 0.0923141 0.985812 0.140185
8.49396 50.0806 29.557 0.0922792 0.984896 0.146373
9.05408 50.2228 28.1044 0.123457 0.983153 0.134789
9.46637 50.3472 26.8684 0.121502 0.982336 0.142301
9.49541 50.5519 25.4503 0.12586 0.980388 0.1514
9.29794 50.7685 24.2847 0.12953 0.978476 0.160642
8.91642 50.9989 23.2179 0.140655 0.973591 0.179822
8.47148 51.2393 22.2646 0.140661 0.973589 0.179831
7.81699 51.5755 21.0317 0.144842 0.968521 0.20225
7.23088 51.9981 19.397 0.145093 0.964261 0.220644
6.72091 52.3053 18.4322 0.155514 0.964092 0.21527
6.33212 52.6114 17.3505 0.170181 0.958606 0.228282
6.07465 52.9954 15.9298 0.170182 0.9586 0.228308
5.7729 53.2858 14.9244 0.14548 0.963093 0.226413
5.52791 53.6115 13.7032 0.140449 0.96316 0.22934
5.26626 53.9343 12.5078 0.142914 0.961994 0.232649
5.22491 54.3603 10.8808 0.138154 0.958352 0.24995
4.97567 54.7798 9.41023 0.141505 0.956325 0.255678
4.99385 55.1124 8.1453 0.151496 0.955706 0.252339
4.839 55.4456 6.9764 0.15833 0.95056 0.266627
5.04316 55.7009 5.94252 0.183513 0.947149 0.262994
4.95078 56.062 4.70645 0.183507 0.94715 0.262995
5.07941 56.3459 3.61518 0.190336 0.94426 0.2686
5.13902 56.6336 2.56158 0.190094 0.944167 0.269097
5.35075 56.9308 1.39517 0.19703 0.939133 0.281438
5.59749 57.1882 0.363605 0.197067 0.93914 0.281389
5.77799 57.5414 -0.900455 0.192389 0.936783 0.292273
6.07093 57.9665 -2.43719 0.198278 0.933119 0.299958
6.38515 58.4051 -4.00821 0.203948 0.932372 0.298474
6.76155 58.637 -4.99098 0.203969 0.932478 0.298131
7.01602 58.9678 -6.16102 0.216793 0.924633 0.313125
7.31031 59.296 -7.34295 0.230442 0.922445 0.309581
7.53851 59.5797 -8.38367 0.241881 0.921536 0.30375
7.74319 59.8647 -9.41958 0.250479 0.920133 0.301023
7.91615 60.2287 -10.6801 0.24851 0.921002 0.299998
8.19451 60.5721 -11.9451 0.248613 0.918439 0.30767
8.59817 60.8052 -13.0023 0.257049 0.91864 0.300043
8.98102 61.1574 -14.3909 0.26885 0.914135 0.303442
9.28253 61.4654 -15.6141 0.283262 0.914054 0.29029
9.63738 61.7999 -17.0131 0.284835 0.91176 0.295856
10.2209 62.0197 -18.2968 0.299927 0.909013 0.289377
10.6973 62.2627 -19.5539 0.300266 0.908041 0.29205
11.3948 62.5194 -21.139 0.316389 0.906668 0.279018
11.7 62.7222 -22.1412 0.310279 0.908831 0.278844
12.1245 62.9052 -23.2496 0.319429 0.908942 0.267936
12.4523 63.1605 -24.5064 0.322156 0.909521 0.262583
13.0218 63.2626 -25.5881 0.324995 0.910129 0.256988
13.6358 63.4297 -26.9811 0.328265 0.910951 0.249821
13.9985 63.6258 -28.1727 0.328177 0.910961 0.249902
14.5395 63.7021 -29.2124 0.332696 0.91315 0.235479
14.9043 63.8439 -30.2945 0.32991 0.915211 0.231405
15.4109 63.9363 -31.4018 0.32793 0.918856 0.219465
16.0025 63.9477 -32.3333 0.327993 0.918842 0.219432
16.6796 63.8955 -33.1452 0.331924 0.918762 0.213782
17.6635 63.7734 -34.1483 0.324391 0.921347 0.214074
18.5589 63.597 -34.7079 0.31743 0.924143 0.212599
19.8025 63.296 -35.2562 0.317425 0.924141 0.212614
20.9179 63.0333 -35.7794 0.313397 0.92587 0.211012
22.1509 62.6722 -35.9716 0.301954 0.929059 0.21371
23.8913 62.1338 -36.1006 0.298232 0.932656 0.202897
25.5092 61.6255 -36.1131 0.295359 0.931592 0.211896
26.5117 61.3322 -36.2067 0.287217 0.934661 0.209561
27.5479 60.954 -35.9282 0.280198 0.935867 0.213642
29.089 60.4674 -35.8179 0.281058 0.93539 0.214594
30.0993 60.2371 -36.1413 0.275128 0.936779 0.21609
31.0657 60.1635 -37.0343 0.270439 0.938882 0.212987
31.4955 60.2668 -38.0795 0.268034 0.941737 0.203199
31.4445 60.5498 -39.3239 0.270423 0.940797 0.204364
31.2461 60.9148 -40.7929 0.270115 0.94283 0.19517
30.8814 61.2564 -41.9369 0.26619 0.943582 0.196968
30.4429 61.6045 -43.0607 0.276442 0.943185 0.184341
29.3158 62.1704 -44.3121 0.269448 0.946896 0.17546
28.2962 62.5669 -44.8862 0.27565 0.945213 0.17478
27.3181 62.9073 -45.1787 0.276325 0.946715 0.165454
26.2545 63.2367 -45.2867 0.276879 0.946548 0.165486
25.1139 63.6095 -45.4347 0.287488 0.94352 0.164686
23.6429 64.0747 -45.5665 0.288567 0.945116 0.153247
22.1463 64.5703 -45.8248 0.285397 0.945196 0.158596
21.0548 64.9084 -45.7667 0.292865 0.945127 0.144792
19.9972 65.2785 -46.0438 0.292884 0.945123 0.144778
18.484 65.8392 -46.5454 0.301565 0.944205 0.131726
17.1036 66.2967 -46.7372 0.305354 0.945149 0.115561
15.6952 66.8065 -47.0653 0.314539 0.942405 0.113745
14.6556 67.1832 -47.344 0.313271 0.944598 0.0974056
13.4736 67.6219 -47.6625 0.321363 0.941507 0.101354
12.2601 68.0637 -47.9304 0.329195 0.938313 0.105337
11.023 68.5475 -48.5427 0.327816 0.94268 0.0623848
9.93724 68.9416 -48.7296 0.332644 0.940992 0.062301
8.7133 69.4012 -49.2059 0.330992 0.941772 0.0592493
7.59915 69.7961 -49.4182 0.32866 0.943581 0.0404686
6.39379 70.2418 -49.9906 0.333412 0.942404 0.0266887
5.10475 70.7188 -50.3071 0.348681 0.936783 0.0292989
3.89817 71.1681 -50.5935 0.360939 0.932532 0.0103656
2.83847 71.5817 -50.9084 0.363258 0.931654 0.00664389
1.21067 72.2487 -51.116 0.382025 0.923621 -0.031327
0.22062 72.726 -51.0533 0.438647 0.898288 -0.0258171
-0.358796 73.008 -50.2095 0.423397 0.905886 0.0102543
-0.666488 73.1428 -49.1987 0.439913 0.897278 0.0359158
-1.01444 73.2803 -48.1428 0.437662 0.898712 0.0277167
-1.32063 73.3889 -47.0162 0.440504 0.896735 0.0426899
-1.61074 73.4708 -45.5073 0.443328 0.895663 0.034867
-2.20934 73.7191 -43.9646 0.456275 0.889555 0.0224873
-2.94766 74.0406 -42.6425 0.496165 0.866803 0.0273199
-3.50673 74.3827 -41.7819 0.516317 0.854024 0.0463139
-4.1156 74.6686 -40.9431 0.519847 0.850304 0.0818731
-4.92612 75.0382 -39.5062 0.541632 0.835501 0.0920022
-5.7295 75.4115 -38.5308 0.534191 0.83682 0.119885
-6.3392 75.6463 -37.3373 0.575207 0.805135 0.143207
-6.90883 75.8545 -36.3932 0.559544 0.814143 0.155184
-7.48327 76.0758 -35.4828 0.554853 0.814716 0.167904
-8.01048 76.1395 -34.1365 0.561293 0.806788 0.184371
-8.62482 76.2716 -33.1223 0.550041 0.797293 0.248553
-9.47757 76.6683 -32.3513 0.57509 0.777158 0.254493
-10.2927 76.9423 -31.6156 0.531729 0.757503 0.376245
-11.3082 77.3171 -30.7786 0.620734 0.677989 0.393726
-12.4774 77.8473 -30.2537 0.498283 0.662233 0.557904
-13.5503 78.3876 -29.8285 0.569887 0.538623 0.62028
-14.471 78.9435 -29.6064 0.45701 0.553873 0.695964
-15.5325 79.7499 -29.6269 0.402408 0.597157 0.693738
-16.642 80.5449 -29.7026 0.384557 0.608822 0.693867
-17.5136 81.1673 -29.798 0.343539 0.66047 0.667652
-18.2236 82.0211 -30.2406 0.363876 0.63921 0.677499
-19.206 82.7873 -30.5041 0.300808 0.689693 0.658663
-19.8781 83.268 -30.6837 0.307697 0.700616 0.643248
-19.6388 82.4421 -29.9451 0.307067 0.685813 0.659784
-19.3937 81.3077 -28.98 0.339857 0.646756 0.682791
-19.0312 80.3872 -28.3081 0.352976 0.629888 0.691845
-18.5858 79.5756 -27.7804 0.32236 0.64705 0.690949
-18.2294 78.6737 -27.1954 0.435819 0.565201 0.700435
-17.6118 77.529 -26.545 0.340249 0.635298 0.692883
-17.2512 76.409 -25.7343 0.333033 0.620871 0.709654
-16.9188 75.0917 -24.6603 0.271164 0.676601 0.684602
-16.9033 74.3105 -23.8736 0.272801 0.687207 0.673294
-17.2342 73.1436 -22.5484 0.272668 0.687226 0.67333
-18.1852 72.5859 -21.7118 0.152764 0.737258 0.658114
-19.091 72.0416 -20.8918 0.152765 0.737256 0.658116
-19.9346 71.5855 -20.3114 -0.0176209 0.714883 0.699022
-20.4901 70.8673 -19.2729 -0.0553042 0.886212 0.459967
-20.657 70.0939 -17.9975 0.0963041 0.86842 0.477298
-21.3414 69.7916 -16.9695 0.209797 0.886238 0.412998
-22.3703 69.6658 -16.0328 0.371795 0.766929 0.523057
-23.3093 69.7869 -15.5312 0.373703 0.757838 0.53429
-24.3941 70.1477 -15.3005 0.396454 0.741119 0.541818
-25.0092 69.5604 -14.1525 0.33645 0.738315 0.584544
-25.0138 68.803 -13.156 0.330405 0.754941 0.566478
-24.9789 68.0765 -12.2125 0.297313 0.765012 0.571271
-25.0162 67.2704 -11.1155 0.298339 0.770541 0.563153
-25.069 66.6219 -10.1973 0.278881 0.772857 0.570015
-24.991 65.9406 -9.29843 0.26901 0.78612 0.556253
-24.9047 65.1834 -8.2339 0.258728 0.797679 0.544765
-24.7809 64.5608 -7.38116 0.241193 0.798882 0.550699
-24.6357 63.7954 -6.2923 0.186772 0.816947 0.545631
-24.3219 62.9617 -5.15155 0.186777 0.816952 0.545622
-24.1815 62.0076 -3.68081 0.146232 0.837892 0.525883
-23.8219 61.3761 -2.77464 0.144781 0.83599 0.529284
-23.6938 60.6723 -1.57869 0.104532 0.863839 0.492803
-23.2672 59.7362 -0.0282973 0.104583 0.863859 0.492758
-23.1258 59.0729 1.14746 0.0417706 0.873954 0.48421
-22.7848 58.5432 2.07395 0.0417706 0.873954 0.48421
-22.3992 58.0484 2.95221 0.0158697 0.891141 0.453123
-22.1159 57.508 4.03536 0.00051696 0.894853 0.446361
-21.5961 56.7487 5.57279 -0.014398 0.897964 0.439832
-21.5825 56.2243 6.65305 -0.0150697 0.903868 0.427545
-21.4184 55.7376 7.68761 -0.0150308 0.90385 0.427586
-21.2489 55.2879 8.64422 -0.0299446 0.905963 0.42199
-21.1427 54.5047 10.3818 -0.0613482 0.90813 0.414169
-20.914 53.8849 11.7748 -0.0709011 0.91151 0.404887
-20.689 53.155 13.4587 -0.100981 0.907471 0.407799
-20.5974 52.6128 14.6964 -0.10094 0.909175 0.403995
-20.4334 52.199 15.7115 -0.122352 0.912211 0.391025
-20.234 51.8089 16.6914 -0.122657 0.913303 0.388373
-19.8571 51.4454 17.6709 -0.153551 0.913491 0.376421
-19.6647 51.0173 18.754 -0.163461 0.90719 0.387669
-19.3662 50.5964 19.8648 -0.167548 0.910732 0.377303
-18.7993 50.2555 20.9797 -0.171677 0.9143 0.366855
-18.3228 49.951 21.9456 -0.189501 0.89738 0.398494
-17.6192 49.5144 23.3994 -0.213703 0.9026 0.373691
-16.9541 49.3362 24.2101 -0.213674 0.901985 0.375189
-16.4408 49.0799 25.1867 -0.21706 0.910112 0.35296
-15.7734 48.9231 26.0016 -0.21972 0.910431 0.350465
-14.8089 48.7102 27.1596 -0.223426 0.907363 0.356053
-13.866 48.5202 28.3057 -0.236956 0.909014 0.342848
-13.0088 48.4167 29.2054 -0.261886 0.907671 0.327947
-11.8161 48.1991 30.7278 -0.239213 0.920594 0.30851
-11.1132 48.0552 31.8239 -0.246966 0.929875 0.272655
-10.367 47.943 32.8824 -0.252242 0.929506 0.268981
-9.88321 47.6785 34.3489 -0.257512 0.933822 0.248323
-9.53033 47.4543 35.4782 -0.309745 0.90935 0.277735
-9.52561 47.4038 35.6502 -0.30981 0.909958 0.27567
27.8748 61.7852 -40.2042 0.282441 0.939257 0.194997
26.019 62.7274 -42.1438 0.282877 0.9418 0.181642
25.8904 62.7929 -42.279 0.287791 0.940231 0.18205
22.9273 63.7956 -42.7311 0.292433 0.940392 0.173624
24.5772 62.956 -40.9944 0.294115 0.937849 0.184215
26.3017 62.0409 -39.1913 0.280873 0.938837 0.199239
26.5324 61.9209 -38.951 0.280873 0.938837 0.199239
24.0159 62.7068 -38.9282 0.294385 0.935791 0.193992
22.4275 63.5559 -40.5933 0.302878 0.934715 0.185936
20.3319 64.6377 -42.8035 0.299911 0.939294 0.166675
20.1603 64.7245 -42.9837 0.299914 0.939293 0.166674
16.7073 66.0307 -43.958 0.317365 0.937727 0.141234
18.5623 65.0762 -42.0078 0.311081 0.935958 0.164956
20.3783 64.1215 -40.0948 0.307979 0.934096 0.180593
21.8955 63.3004 -38.5011 0.301633 0.932617 0.198099
19.3226 64.1658 -38.55 0.30931 0.931701 0.190423
17.678 65.0619 -40.2858 0.32304 0.929139 0.179851
16.0124 65.9562 -42.0291 0.325191 0.932117 0.159403
14.2055 66.9045 -43.9602 0.326157 0.93476 0.14087
13.3897 67.3136 -44.8357 0.322471 0.936587 0.137176
9.96215 68.6642 -45.8546 0.341363 0.934093 0.104601
12.2082 67.5244 -43.4123 0.347843 0.928638 0.128985
13.8778 66.6415 -41.6282 0.334927 0.929331 0.155462
15.7411 65.6191 -39.6674 0.324858 0.928268 0.181069
17.4783 64.6538 -37.8539 0.321489 0.92581 0.198796
15.9838 64.9602 -36.7992 0.333438 0.92301 0.19202
14.0886 66.0417 -38.7627 0.338374 0.924194 0.177114
12.3791 67.0023 -40.5565 0.344858 0.925332 0.157586
10.761 67.9007 -42.2767 0.345025 0.928549 0.136948
9.05838 68.8047 -44.1372 0.35609 0.927376 0.114773
7.26571 69.6979 -46.121 0.35223 0.931945 0.0860969
6.44913 70.0736 -47.0364 0.344632 0.936507 0.0646852
3.47239 71.2614 -47.6796 0.381514 0.923397 0.0422395
5.04538 70.5263 -45.8832 0.370994 0.926753 0.0591021
6.81676 69.6407 -43.8922 0.363209 0.926533 0.0980598
8.52362 68.7296 -42.0073 0.355514 0.925543 0.130306
10.0832 67.8437 -40.3193 0.359071 0.918997 0.162828
11.8761 66.8049 -38.4464 0.351734 0.918901 0.178616
13.6936 65.7463 -36.5634 0.35012 0.917665 0.187903
14.786 65.1097 -35.4378 0.332311 0.921194 0.202413
13.7608 65.1336 -33.907 0.342756 0.915468 0.210799
12.1293 66.1283 -35.5706 0.344056 0.916793 0.202769
10.3905 67.175 -37.3608 0.360913 0.915381 0.178381
8.48977 68.3073 -39.3464 0.37526 0.913889 0.15488
6.61634 69.3999 -41.3757 0.379227 0.91754 0.119616
4.69579 70.4581 -43.5166 0.387618 0.917293 0.0912502
2.81 71.4266 -45.6781 0.391347 0.917853 0.0662802
1.52482 72.0682 -47.197 0.405865 0.913265 0.0349336
0.994299 72.1921 -45.0355 0.418734 0.906234 0.058329
3.01098 71.0931 -42.6442 0.414536 0.905514 0.0905839
5.04723 69.9141 -40.3454 0.390895 0.912222 0.122691
6.86659 68.8084 -38.3703 0.38196 0.910701 0.157256
8.7704 67.6272 -36.4037 0.370592 0.910944 0.181225
10.7826 66.3827 -34.3437 0.360381 0.909963 0.205168
12.4512 65.3392 -32.6577 0.34488 0.91297 0.218046
12.772 65.141 -32.3353 0.346638 0.911374 0.221901
12.2139 64.8489 -30.3177 0.345616 0.908888 0.233392
10.5325 65.9294 -32.0144 0.357033 0.906294 0.226183
8.7647 67.0585 -33.79 0.379368 0.902148 0.20545
7.05336 68.1812 -35.5155 0.388985 0.904193 0.176424
5.2596 69.3377 -37.3752 0.402272 0.897141 0.182525
3.55848 70.4301 -39.2424 0.416807 0.895576 0.155612
1.77826 71.5407 -41.2787 0.42755 0.898507 0.0994301
0.174947 72.4612 -43.2062 0.428318 0.90102 0.0686054
0.156899 72.4712 -43.2279 0.436669 0.897891 0.0557746
-0.820465 72.8449 -41.5637 0.471758 0.880065 0.054125
0.655673 71.8811 -39.7658 0.436255 0.892552 0.114161
2.13797 70.8968 -38.0553 0.435985 0.887521 0.149074
3.87403 69.7228 -36.1424 0.415312 0.893242 0.172149
5.99616 68.2786 -33.9465 0.396409 0.89418 0.208091
7.68145 67.1505 -32.2593 0.37535 0.895736 0.238264
9.72483 65.7921 -30.2627 0.359631 0.903762 0.232119
11.4009 64.6949 -28.5652 0.341343 0.906685 0.247805
10.3973 64.6447 -27.0304 0.339038 0.904118 0.260045
8.7832 65.7226 -28.6336 0.35791 0.899105 0.252012
7.15502 66.8294 -30.2055 0.386458 0.888193 0.248524
5.04884 68.3078 -32.2721 0.400591 0.884127 0.240515
3.47863 69.4199 -33.8725 0.414371 0.885537 0.210048
1.93114 70.5382 -35.5058 0.444237 0.880135 0.167382
0.113974 71.8282 -37.5439 0.4598 0.873407 0.160451
-1.53729 73.0124 -39.5159 0.477935 0.870056 0.120752
-1.60021 73.0596 -39.5996 0.491224 0.865011 0.102251
-2.70872 73.4492 -37.9912 0.505774 0.854787 0.116323
-1.23626 72.3367 -36.2361 0.464847 0.866922 0.179898
0.833039 70.7391 -33.9492 0.442004 0.873241 0.205143
2.52101 69.4729 -32.1864 0.422338 0.873301 0.242848
4.37958 68.0906 -30.3321 0.406556 0.876013 0.259449
6.21194 66.7506 -28.5745 0.375386 0.89021 0.258092
8.00465 65.5151 -26.8541 0.350569 0.897417 0.26785
9.60028 64.44 -25.3117 0.340626 0.900917 0.268928
9.7566 64.3366 -25.1633 0.340625 0.900918 0.268926
8.81828 64.204 -23.6053 0.332232 0.899128 0.284938
6.69953 65.6501 -25.6057 0.341 0.893925 0.290891
5.10923 66.7592 -27.1121 0.367191 0.88536 0.285146
3.07457 68.271 -29.0317 0.403403 0.87009 0.283214
1.39689 69.597 -30.6708 0.423644 0.872905 0.241998
-0.407039 71.0345 -32.4799 0.445725 0.865844 0.22725
-2.13723 72.419 -34.3048 0.46847 0.86169 0.195003
-3.53221 73.6325 -36.0693 0.526884 0.832786 0.169882
-4.05097 74.0833 -36.7607 0.512842 0.846773 0.14131
-5.00335 74.3088 -34.9678 0.539672 0.819536 0.192652
-3.58283 72.9892 -33.1946 0.51269 0.828719 0.22444
-1.86534 71.4593 -31.2643 0.472076 0.842725 0.258763
-0.0465489 69.9093 -29.4908 0.429803 0.851023 0.301711
1.69051 68.4895 -27.818 0.393434 0.863833 0.314646
3.90973 66.82 -25.7499 0.369179 0.874107 0.315665
5.64604 65.5573 -24.1505 0.342765 0.888989 0.303663
7.2803 64.4418 -22.6333 0.324253 0.897009 0.300392
8.46095 63.663 -21.5343 0.317142 0.900198 0.298437
7.49816 63.5157 -20.0708 0.317254 0.899873 0.299298
5.59134 64.7703 -21.7976 0.307311 0.896227 0.319902
3.91919 65.9334 -23.3223 0.336148 0.883192 0.327073
1.95674 67.389 -25.1135 0.363228 0.868029 0.338513
0.0584365 68.9069 -26.8619 0.389628 0.856404 0.338765
-1.74792 70.4328 -28.539 0.42038 0.846629 0.326344
-3.24943 71.8013 -30.017 0.460287 0.819545 0.341294
-4.71665 73.1929 -31.5792 0.495095 0.816934 0.295803
-5.90981 74.3962 -33.0143 0.537325 0.805755 0.249079
-6.88334 74.4437 -31.2189 0.525902 0.7983 0.293503
-5.52706 72.9892 -29.6504 0.494074 0.804707 0.329147
-3.83753 71.2662 -27.9663 0.446195 0.806485 0.387933
-1.70713 69.3966 -26.0692 0.403668 0.847767 0.344011
-0.0766776 67.985 -24.5598 0.367035 0.856992 0.361732
1.87267 66.4949 -22.808 0.321918 0.873377 0.365488
3.77455 65.1384 -21.0835 0.321402 0.888616 0.327204
5.52784 63.9725 -19.5165 0.307393 0.895136 0.322865
6.73412 63.1912 -18.4344 0.291158 0.907696 0.302184
6.78712 62.3483 -16.0283 0.270525 0.909735 0.314959
4.95208 63.5004 -17.7063 0.264701 0.905128 0.332682
3.21187 64.6235 -19.2559 0.27168 0.897456 0.347509
0.85998 66.2629 -21.3615 0.321918 0.873377 0.365489
-0.755421 67.5307 -22.7945 0.319765 0.86365 0.389691
-2.60034 69.078 -24.4511 0.373288 0.845331 0.382193
-4.29749 70.5138 -25.9721 0.409974 0.822586 0.394047
-5.98261 72.2093 -27.4596 0.446195 0.806485 0.387934
-7.35688 73.7292 -28.8883 0.438662 0.802537 0.404364
-8.29406 74.747 -29.8328 0.484424 0.795129 0.364832
-10.1411 75.2294 -28.8471 0.463791 0.72955 0.502648
-8.51163 73.4942 -27.3811 0.394671 0.769544 0.502033
-6.88374 71.6909 -25.844 0.384585 0.793483 0.471678
-5.15669 70.0597 -24.3438 0.334921 0.824442 0.456205
-3.53674 68.686 -22.8985 0.342708 0.835219 0.430071
-1.22091 66.7938 -20.8627 0.298036 0.865748 0.402063
0.63694 65.4515 -19.2213 0.263849 0.885579 0.382273
2.86986 63.9498 -17.23 0.271795 0.901013 0.338088
4.58001 62.8735 -15.6717 0.25758 0.909156 0.327243
5.99714 62.0071 -14.3624 0.257179 0.911178 0.321892
5.49584 61.4587 -12.4271 0.237758 0.917494 0.318866
3.41662 62.7017 -14.3498 0.245996 0.90711 0.341521
1.4355 63.9366 -16.161 0.240737 0.90106 0.360743
-0.327988 65.0931 -17.7347 0.260502 0.881018 0.3949
-2.07903 66.3473 -19.2816 0.276212 0.866793 0.415182
-3.69728 67.5783 -20.6964 0.295166 0.842567 0.450508
-5.28367 68.8999 -22.0808 0.309274 0.834397 0.456214
-6.81952 70.2654 -23.4178 0.325535 0.812338 0.483873
-8.62308 71.9502 -24.953 0.340036 0.783528 0.520057
-10.1768 73.5898 -26.3239 0.382322 0.754112 0.53399
-11.6269 75.1821 -27.5134 0.392691 0.717723 0.575036
-12.5361 76.2408 -28.2439 0.393889 0.726642 0.562888
-14.3069 76.3455 -27.1431 0.360339 0.658026 0.661178
-12.2854 74.0066 -25.6553 0.354494 0.736964 0.575516
-10.7451 72.4057 -24.3848 0.286037 0.77128 0.568603
-8.99002 70.7437 -22.8859 0.310141 0.800386 0.513025
-7.41896 69.3355 -21.5857 0.273189 0.823051 0.49795
-5.78431 67.9595 -20.1689 0.250742 0.839231 0.482513
-3.81023 66.4513 -18.4541 0.252909 0.866153 0.431064
-2.142 65.2541 -16.987 0.216406 0.886134 0.409799
-0.0930789 63.9273 -15.1658 0.222259 0.896015 0.384393
2.11769 62.5704 -13.1482 0.226242 0.90895 0.350177
4.31113 61.3044 -11.1246 0.212016 0.919351 0.331424
5.15435 60.8318 -10.3511 0.235254 0.919549 0.314777
4.86313 60.1668 -8.23076 0.211289 0.926487 0.311414
3.01185 61.1781 -9.92627 0.211789 0.921085 0.326722
1.16363 62.2177 -11.6194 0.195376 0.914459 0.354391
-0.673725 63.2794 -13.2978 0.186958 0.911464 0.366443
-2.51752 64.4161 -14.958 0.217518 0.889355 0.40216
-4.64852 65.8486 -16.8406 0.205225 0.868778 0.450675
-6.48542 67.1938 -18.4419 0.235806 0.843946 0.48182
-8.23923 68.5835 -19.9462 0.222236 0.814802 0.535452
-9.82283 69.9137 -21.2634 0.240716 0.796213 0.555068
-11.7148 71.6199 -22.8127 0.25873 0.787584 0.559258
-13.3804 73.2724 -24.1775 0.2762 0.743058 0.609573
-14.1038 74.0128 -24.7084 0.294218 0.72987 0.61703
-14.6061 72.6255 -22.8279 0.252891 0.731922 0.632722
-13.0843 71.1326 -21.6104 0.258432 0.757431 0.599592
-11.0818 69.4127 -19.9893 0.201644 0.804278 0.558996
-9.28922 67.9516 -18.507 0.220876 0.833409 0.5066
-7.47248 66.5839 -16.9546 0.193968 0.846485 0.495822
-5.29239 65.0433 -15.0471 0.197625 0.862347 0.466158
-3.51569 63.9516 -13.467 0.180416 0.899422 0.398107
-1.66048 62.8541 -11.7933 0.17224 0.91457 0.365917
0.171033 61.8329 -10.1226 0.184815 0.91817 0.350439
2.22833 60.733 -8.25281 0.193714 0.92408 0.329471
4.16637 59.717 -6.47126 0.201517 0.927821 0.31391
3.96678 58.9942 -4.22772 0.184945 0.929283 0.319731
2.11027 59.9546 -5.9444 0.18617 0.928024 0.322666
0.38002 60.8212 -7.53644 0.151712 0.926155 0.345282
-1.70569 61.9012 -9.43824 0.141213 0.917601 0.371573
-3.76994 63.0145 -11.3176 0.14129 0.906038 0.398914
-5.77517 64.197 -13.1023 0.162952 0.888134 0.429726
-7.66509 65.4005 -14.7641 0.169845 0.86674 0.46895
-9.9292 66.9603 -16.6953 0.169536 0.848853 0.500705
-11.7438 68.3615 -18.2331 0.190178 0.823668 0.534232
-14.0479 70.2544 -20.077 0.193024 0.799081 0.569396
-15.39 71.4465 -21.1566 0.183446 0.763463 0.619251
-16.8004 70.8386 -19.97 0.162487 0.777376 0.607688
-15.102 69.421 -18.6066 0.171804 0.799123 0.576095
-13.2751 68.0116 -17.159 0.177245 0.820755 0.543089
-11.0879 66.3739 -15.338 0.161475 0.844116 0.511266
-9.1305 65.0541 -13.6941 0.150888 0.858005 0.49098
-6.94727 63.7073 -11.7634 0.128673 0.893489 0.430256
-4.537 62.4121 -9.61988 0.132235 0.913821 0.383985
-2.67244 61.4512 -7.91505 0.122984 0.920234 0.371543
-0.739407 60.4905 -6.12243 0.12981 0.92822 0.348652
1.36975 59.4539 -4.18707 0.156173 0.929461 0.334235
3.03313 58.6454 -2.6644 0.177629 0.935844 0.304374
2.83801 57.9676 -0.467501 0.163804 0.941155 0.295626
0.851738 58.8646 -2.267 0.14146 0.944559 0.296307
-1.44062 59.9403 -4.36792 0.125573 0.93517 0.331192
-3.20664 60.7721 -5.99943 0.117982 0.93159 0.343831
-5.03365 61.6525 -7.67362 0.109697 0.923193 0.36835
-7.1286 62.696 -9.54694 0.110357 0.905322 0.410138
-9.30958 63.9019 -11.469 0.124715 0.885765 0.447064
-11.0252 64.9699 -12.9566 0.152188 0.861408 0.484577
-13.4381 66.5794 -14.9394 0.157233 0.831089 0.53345
-15.1151 67.8361 -16.3128 0.174857 0.818677 0.546985
-17.1407 69.3582 -17.8956 0.179562 0.803215 0.567982
-17.9244 69.9755 -18.513 0.182825 0.806593 0.562123
-18.1226 68.4833 -16.3077 0.220681 0.8208 0.526865
-15.9372 66.9189 -14.652 0.177527 0.824073 0.537947
-14.2548 65.6952 -13.302 0.168144 0.829892 0.531984
-12.499 64.5602 -11.8586 0.119637 0.869238 0.479701
-10.767 63.5592 -10.3628 0.101205 0.887349 0.449855
-8.94817 62.5651 -8.763 0.110444 0.906829 0.406773
-6.83483 61.5242 -6.89806 0.0933982 0.919435 0.38199
-5.0313 60.6954 -5.26571 0.0890825 0.930702 0.354764
-3.20457 59.878 -3.59165 0.103026 0.934533 0.340638
-1.26128 59.0018 -1.80664 0.101524 0.942774 0.317601
0.738605 58.1495 0.0148269 0.123223 0.944839 0.303474
2.30645 57.4887 1.42925 0.165691 0.943855 0.285805
1.91715 56.9425 3.47018 0.127903 0.949917 0.285128
0.168913 57.6412 1.88761 0.121631 0.952129 0.280457
-1.70319 58.3976 0.183844 0.0932375 0.946784 0.308069
-3.79906 59.274 -1.73586 0.0934752 0.938042 0.333676
-5.73149 60.0883 -3.49165 0.0751622 0.935395 0.345525
-8.11952 61.1046 -5.65146 0.0692208 0.921761 0.381531
-9.94874 61.9588 -7.27309 0.0755327 0.907259 0.413734
-11.9078 62.98 -8.96354 0.100313 0.890676 0.443434
-14.0622 64.2027 -10.8208 0.116615 0.876404 0.467244
-16.2762 65.6721 -12.6098 0.17683 0.834543 0.521794
-18.1989 67.0788 -14.1154 0.217349 0.82371 0.5237
-20.0389 68.4529 -15.4614 0.244103 0.820852 0.516349
-21.2209 67.9591 -14.0571 0.277593 0.807943 0.519779
-19.5092 66.6077 -12.7934 0.237603 0.816345 0.526428
-17.2051 64.8863 -11.0383 0.176826 0.834542 0.521797
-15.4181 63.7378 -9.60794 0.149558 0.863138 0.482312
-13.4122 62.6087 -7.90395 0.0900174 0.889768 0.447447
-11.4078 61.5889 -6.18179 0.0731584 0.910194 0.407671
-9.40503 60.6957 -4.39687 0.0575519 0.926944 0.370759
-7.31334 59.8367 -2.50818 0.0534277 0.933092 0.355647
-5.35683 59.0427 -0.745607 0.07868 0.936627 0.341379
-3.60214 58.3465 0.858483 0.0839464 0.9439 0.319384
-1.7374 57.6354 2.56737 0.0813012 0.951865 0.295538
0.052838 56.9726 4.19989 0.0962822 0.95559 0.278529
1.78906 56.2818 5.80264 0.135492 0.951523 0.276126
2.30957 56.0678 6.27987 0.135806 0.950599 0.279139
1.73137 55.5871 8.18336 0.130553 0.953905 0.270226
-0.327834 56.39 6.29266 0.109616 0.954055 0.278862
-2.51332 57.17 4.27821 0.0832333 0.955067 0.284461
-4.51796 57.8903 2.44345 0.0502657 0.950363 0.307055
-6.39992 58.5858 0.721031 0.0476095 0.941062 0.334866
-8.31304 59.3211 -0.997327 0.0445123 0.933876 0.354816
-10.3907 60.1473 -2.87042 0.0434742 0.929609 0.365974
-12.2275 60.9187 -4.52277 0.0510143 0.921628 0.384707
-14.245 61.8541 -6.27493 0.0546803 0.902478 0.427251
-16.0191 62.818 -7.76768 0.155528 0.879097 0.450556
-17.9921 64.0459 -9.38231 0.166687 0.846301 0.505955
-19.9577 65.4667 -10.8982 0.21953 0.81209 0.540662
-21.6945 66.8318 -12.1784 0.25415 0.795682 0.549816
-22.3772 67.392 -12.6738 0.272489 0.790163 0.548992
-22.0486 65.6154 -10.2301 0.252629 0.803504 0.539037
-20.2656 64.2902 -8.87705 0.215957 0.841039 0.496
-17.9297 62.7624 -6.99962 0.155527 0.879096 0.450558
-15.7478 61.5142 -5.19174 0.11549 0.90213 0.41572
-13.9373 60.649 -3.63517 0.0577879 0.920775 0.385791
-12.0325 59.8549 -1.9365 0.0424828 0.929725 0.365797
-9.93775 59.0309 -0.0556915 0.0379412 0.933033 0.357786
-7.45303 58.1179 2.18534 0.0359044 0.939824 0.339766
-5.37883 57.4051 4.08606 0.0502657 0.950363 0.307055
-3.50965 56.7856 5.80378 0.0505093 0.959258 0.277982
-1.6099 56.1631 7.55283 0.0591034 0.96282 0.263601
0.773041 55.2828 9.73399 0.110745 0.955734 0.272594
2.51302 54.6422 11.3213 0.130672 0.962101 0.239346
2.65257 53.9766 13.8964 0.117979 0.96387 0.238822
0.625119 54.6836 12.0314 0.109275 0.965072 0.238109
-1.23886 55.3406 10.3263 0.0741583 0.9574 0.279079
-3.39939 56.037 8.34712 0.0428799 0.957214 0.286186
-5.7663 56.7638 6.17048 0.0183077 0.953869 0.299664
-8.09733 57.4991 4.01774 0.0156442 0.946441 0.322499
-10.0955 58.1789 2.20661 0.0250041 0.941333 0.336553
-12.343 59.0092 0.185302 0.0215327 0.933161 0.358813
-14.5329 59.8836 -1.76482 0.0386013 0.924211 0.379926
-17.0115 61.0513 -3.89734 0.120229 0.894644 0.430298
-18.7467 62.0416 -5.33645 0.145731 0.875519 0.460683
-20.5159 63.1631 -6.76493 0.184751 0.860135 0.475432
-21.729 63.9846 -7.72634 0.218996 0.833932 0.506556
-21.7639 62.6469 -5.47164 0.171273 0.842078 0.511439
-19.2772 61.1084 -3.45132 0.107686 0.875529 0.471013
-16.9065 59.885 -1.45116 0.0580704 0.914237 0.400998
-15.1214 59.1315 0.111037 0.0323742 0.922246 0.385245
-13.1995 58.387 1.81414 0.0133744 0.927941 0.372487
-11.2017 57.6755 3.61343 -0.00488649 0.938805 0.344415
-9.27317 57.0559 5.36345 -0.0200479 0.944704 0.327311
-6.86758 56.335 7.60258 0.0157571 0.954202 0.298749
-4.75408 55.7183 9.54154 0.0238356 0.956701 0.290094
-2.29269 54.97 11.8021 0.0542832 0.961016 0.271112
-0.342456 54.3682 13.5949 0.0821202 0.965493 0.247143
1.63447 53.7363 15.4292 0.116197 0.967095 0.226332
3.70537 52.9991 17.3711 0.129756 0.959385 0.250489
3.94477 52.9065 17.5959 0.134862 0.958469 0.251297
4.62543 52.0426 20.7365 0.10948 0.968503 0.223644
2.54619 52.7752 18.7703 0.112759 0.96128 0.251449
0.657259 53.4312 16.9997 0.0565277 0.965303 0.254942
-1.22595 54.0006 15.2473 0.042166 0.965357 0.257504
-3.66491 54.7121 12.9914 0.0433415 0.965296 0.257537
-6.08385 55.3416 10.7603 -0.0160708 0.955454 0.294703
-8.57845 56.015 8.44336 -0.0306666 0.952142 0.304115
-10.8829 56.698 6.31166 -0.0166965 0.944475 0.328159
-12.8136 57.3207 4.55929 -0.00303575 0.936837 0.349753
-14.7161 57.9864 2.85231 0.00786799 0.927899 0.372748
-17.1336 58.9342 0.730464 0.0332164 0.911792 0.409307
-19.1936 59.8667 -1.04143 0.0974435 0.890782 0.44386
-21.0148 60.8597 -2.56975 0.122135 0.866553 0.48391
-20.1671 59.2004 0.497941 0.0726568 0.883294 0.463155
-18.1381 58.3028 2.2185 0.0332164 0.911792 0.409307
-16.1392 57.5163 3.96094 -0.00483908 0.924276 0.381694
-13.9382 56.7546 5.93781 -0.0290048 0.93082 0.364324
-11.531 56.0239 8.13502 -0.0456987 0.936665 0.347233
-9.40214 55.4366 10.1108 -0.0417548 0.946128 0.321089
-7.61859 54.9766 11.7819 -0.0627167 0.953256 0.295584
-5.60601 54.4898 13.6518 -0.0258941 0.959511 0.28048
-3.78144 54.0371 15.3423 -0.00485562 0.959494 0.281689
-1.95484 53.5347 17.037 0.0330487 0.963018 0.267401
0.0785273 52.9542 18.9383 0.045583 0.967552 0.248525
2.04455 52.3297 20.7828 0.103175 0.966689 0.234238
3.85885 51.7371 22.4993 0.0902916 0.96848 0.23215
5.6404 51.2178 24.2044 0.107292 0.977377 0.182271
6.60491 50.9439 25.1307 0.0928961 0.982504 0.161416
5.71163 50.7625 26.8112 0.0738179 0.984845 0.156944
3.92506 51.1705 25.0712 0.0594509 0.98078 0.185837
1.47472 51.8648 22.7291 0.0579292 0.971605 0.229409
-0.309616 52.435 21.0564 0.00721557 0.967891 0.251268
-2.19851 52.907 19.2763 -0.0110669 0.962336 0.271636
-4.29169 53.4541 17.3221 -0.0187901 0.961903 0.272745
-6.08014 53.8713 15.6575 -0.0570027 0.958729 0.27855
-8.27184 54.3608 13.6115 -0.0651373 0.95052 0.303758
-10.8329 54.9787 11.2045 -0.0696153 0.944138 0.322113
-12.8146 55.5045 9.36178 -0.0459021 0.936088 0.348757
-14.7272 56.0731 7.61959 -0.048735 0.927044 0.371772
-16.5301 56.6652 5.99513 -0.0287012 0.921532 0.387241
-18.3724 57.3361 4.36246 -0.00116979 0.91502 0.403407
-19.2316 57.67 3.61318 0.0115466 0.906955 0.421069
-18.044 56.1663 7.0186 -0.0287164 0.915617 0.401025
-15.4341 55.3342 9.36868 -0.0578971 0.9239 0.378229
-13.5083 54.7888 11.1212 -0.0818193 0.93188 0.353419
-11.4482 54.2738 13.0524 -0.0807024 0.937231 0.339243
-9.44468 53.8357 14.9417 -0.093372 0.944294 0.315579
-7.66065 53.4639 16.6235 -0.0879835 0.951538 0.294675
-5.75113 53.0836 18.4109 -0.053472 0.957377 0.283849
-3.5694 52.5488 20.4507 -0.0307916 0.959239 0.280913
-1.64406 52.0908 22.2714 -0.0298885 0.959013 0.281783
0.342305 51.56 24.1412 0.0250865 0.964001 0.264712
2.59909 51.0115 26.3193 0.0182393 0.980936 0.193473
4.42287 50.6251 28.1038 0.053072 0.988182 0.143807
5.6477 50.3667 29.3093 0.0684594 0.985117 0.157661
4.73112 50.1684 30.9673 0.0411103 0.986749 0.15696
2.97111 50.4751 29.2309 0.0155774 0.985931 0.166427
1.09681 50.8296 27.3832 0.0163428 0.981162 0.192495
-0.927122 51.2442 25.4117 0.0197818 0.973395 0.22828
-2.90327 51.6751 23.5271 -0.0444467 0.966565 0.252542
-4.98303 52.1556 21.5671 -0.0771917 0.952891 0.293325
-7.26525 52.6193 19.415 -0.110064 0.948005 0.298618
-9.07258 52.9574 17.709 -0.106837 0.946052 0.305894
-10.9576 53.3505 15.9286 -0.106728 0.940608 0.322282
-12.963 53.7826 14.0485 -0.111915 0.934746 0.337231
-15.1649 54.3141 11.9894 -0.081821 0.93188 0.35342
-17.0367 54.8403 10.2956 -0.0666878 0.924016 0.376493
-18.1186 55.169 9.32578 -0.0727459 0.918928 0.387659
-18.1455 54.1757 11.6544 -0.081981 0.917947 0.38814
-16.0757 53.6249 13.5406 -0.112345 0.926974 0.357907
-14.2031 53.1835 15.2855 -0.115357 0.934439 0.336923
-12.2742 52.7805 17.0926 -0.124409 0.934425 0.333725
-9.89472 52.3137 19.332 -0.117719 0.938984 0.323188
-7.93158 51.967 21.1935 -0.117257 0.945974 0.302297
-5.74306 51.5653 23.2768 -0.0815332 0.950968 0.298348
-3.93411 51.2366 25.0039 -0.0470813 0.965432 0.256368
-1.85047 50.8566 27.0134 -0.0464487 0.973038 0.225919
0.396938 50.4866 29.2329 -0.0238958 0.984382 0.174415
2.3989 50.172 31.2204 -0.019463 0.989735 0.14158
3.69724 49.9725 32.5067 0.0170574 0.990495 0.136485
2.74506 49.7487 34.125 0.00771219 0.991488 0.129966
0.773879 50.001 32.1566 -0.0232101 0.988345 0.150448
-1.34652 50.2592 30.0333 -0.0952819 0.973743 0.206749
-3.53597 50.5497 27.862 -0.0841973 0.965682 0.2457
-5.60145 50.86 25.8542 -0.104648 0.962908 0.248709
-7.85542 51.2123 23.6889 -0.132892 0.946612 0.293709
-10.2032 51.5798 21.4386 -0.1442 0.936294 0.32025
-12.1351 51.9172 19.6114 -0.140178 0.932766 0.33211
-14.2166 52.3051 17.659 -0.136398 0.932981 0.333081
-16.2363 52.7303 15.7711 -0.124385 0.924385 0.360612
-17.7959 53.1094 14.3367 -0.108336 0.917046 0.383783
-16.9007 51.9602 17.5291 -0.139508 0.920267 0.365576
-14.5064 51.4899 19.772 -0.144993 0.930331 0.336839
-12.6291 51.1755 21.5263 -0.144971 0.936286 0.319926
-10.542 50.8455 23.5132 -0.148799 0.941774 0.301532
-8.24159 50.5258 25.7355 -0.148328 0.95033 0.273626
-5.97392 50.2836 27.9587 -0.111591 0.965054 0.237104
-4.21072 50.0573 29.6886 -0.0915557 0.973748 0.208404
-2.1814 49.8437 31.7249 -0.0982309 0.983154 0.154141
-0.347455 49.7091 33.5908 -0.0797944 0.982956 0.165622
1.56264 49.5404 35.5178 -0.0683467 0.985197 0.157213
2.38102 49.4651 36.3459 -0.0700349 0.989695 0.124893
2.0263 49.2265 38.6008 -0.0672027 0.993176 0.0953143
-0.0608911 49.2794 36.4477 -0.0700352 0.989695 0.124893
-2.20541 49.414 34.2671 -0.166978 0.969089 0.181617
-4.15431 49.4709 32.238 -0.16335 0.964208 0.208854
-6.00245 49.6349 30.3863 -0.150529 0.956485 0.249955
-8.23689 49.8574 28.1895 -0.168705 0.951325 0.257912
-10.0498 50.0253 26.4039 -0.186725 0.938113 0.29168
-11.8372 50.2406 24.67 -0.16692 0.934161 0.315407
-13.6709 50.4934 22.9156 -0.164215 0.923643 0.346291
-15.5305 50.7972 21.1768 -0.175897 0.921821 0.345406
-16.1003 50.8961 20.6489 -0.16297 0.921449 0.352664
1.38447 48.9391 40.5616 -0.0956015 0.986591 0.13228
0.454558 48.9567 39.5991 -0.114625 0.983036 0.143184
-0.328665 48.9952 38.79 -0.106062 0.985273 0.134118
-1.12889 48.9827 37.95 -0.189298 0.975623 0.111023
-2.07198 48.9455 36.9455 -0.154754 0.977162 0.145622
-3.37882 48.9655 35.5815 -0.166979 0.969089 0.181616
-4.2575 48.973 34.6643 -0.174378 0.969007 0.174982
-5.1249 48.9731 33.7565 -0.210503 0.95542 0.207029
-6.01189 49.0172 32.8539 -0.199275 0.948386 0.246686
-6.9055 49.0656 31.9461 -0.205244 0.94813 0.242744
-7.7605 49.1033 31.0842 -0.210557 0.935001 0.285376
-8.59247 49.1683 30.2573 -0.210558 0.935 0.285377
-9.44317 49.231 29.415 -0.212504 0.93496 0.284065
-10.2533 49.2883 28.6104 -0.199576 0.936661 0.287812
0.781658 48.6556 42.5767 -0.101725 0.990229 0.0953906
-0.799392 48.6195 40.9103 -0.192747 0.973289 0.124725
-2.77398 48.5661 38.8061 -0.188215 0.973313 0.13129
-4.5365 48.4775 36.9043 -0.233975 0.958071 0.165396
-6.16257 48.435 35.1847 -0.210503 0.95542 0.207031
-7.01228 48.4553 34.3111 -0.198876 0.955994 0.215693
-7.12678 47.8649 36.671 -0.261035 0.94312 0.205878
-5.59132 47.9499 38.3227 -0.25696 0.946623 0.194618
-3.63701 48.0826 40.4556 -0.268242 0.951294 0.151939
-1.73015 48.2114 42.54 -0.21627 0.969038 0.119133
-0.272249 48.2948 44.1077 -0.174858 0.977415 0.11868
0.442119 48.3489 44.8749 -0.163818 0.983058 0.0822197
-0.176957 48.0475 46.9075 -0.16966 0.979375 0.109725
-1.84851 47.8827 45.0845 -0.220211 0.969242 0.109891
-3.6524 47.6508 43.039 -0.257907 0.952058 0.16453
-5.31435 47.4582 41.1694 -0.301319 0.93065 0.207601
-7.07329 47.3153 39.2351 -0.327791 0.914568 0.236895
-7.41433 47.2896 38.8623 -0.327792 0.914567 0.236895
-8.03745 46.6111 40.6452 -0.327617 0.91657 0.229273
-6.55867 46.7546 42.2942 -0.347172 0.913542 0.211924
-5.11458 46.9733 43.9509 -0.370737 0.910493 0.183185
-3.46373 47.2849 45.9011 -0.356964 0.920574 0.158494
-2.0466 47.5323 47.5598 -0.248461 0.958585 0.13922
-1.15238 47.6204 48.5486 -0.259242 0.960032 0.105508
-1.48505 47.3399 50.9683 -0.230026 0.959113 0.164897
-3.08081 47.0347 49.1402 -0.259242 0.960032 0.105508
-4.94766 46.5549 46.7985 -0.362861 0.923147 0.127007
-6.68965 46.1884 44.6648 -0.373595 0.912588 0.166162
-8.12809 45.9403 43.0018 -0.406642 0.884071 0.230349
-8.987 45.8189 42.003 -0.39994 0.882033 0.249131
-10.2955 44.9133 42.8832 -0.478004 0.834328 0.274606
-8.66976 45.2093 44.8424 -0.456784 0.853371 0.25121
-6.98478 45.5085 46.8325 -0.452407 0.874122 0.176745
-5.66317 45.914 48.5814 -0.444115 0.884034 0.145762
-4.33887 46.3459 50.3157 -0.438816 0.89467 0.0836951
-2.82201 46.7879 52.1871 -0.272569 0.94651 0.1727
-2.12164 46.8031 52.9207 -0.256079 0.923798 0.284642
-3.13329 46.0676 54.3645 -0.387869 0.886169 0.2535
-4.55451 45.8433 52.7187 -0.43744 0.877769 0.195366
-6.22996 45.27 50.5133 -0.52012 0.842206 0.141999
-7.81438 44.7292 48.3597 -0.511517 0.836584 0.196158
-9.25477 44.3307 46.4814 -0.498416 0.824731 0.267208
-10.6106 44.0749 44.8422 -0.478697 0.830317 0.285348
-11.055 44.001 44.3117 -0.506774 0.807698 0.301337
-12.027 42.9235 45.3388 -0.52386 0.787879 0.323756
-10.6459 43.2577 47.1051 -0.547544 0.797801 0.252407
-9.29143 43.644 48.8931 -0.541291 0.819618 0.187696
-7.82323 44.1522 50.9371 -0.561343 0.804814 0.192792
-6.17936 44.7648 53.2313 -0.550792 0.820253 0.154315
-4.89879 45.1279 54.8968 -0.401973 0.884904 0.235293
-3.41008 45.2913 56.6361 -0.394427 0.897345 0.197987
-3.53972 44.7091 59.1755 -0.377685 0.857781 0.348662
-5.39949 44.1932 56.7751 -0.487757 0.843613 0.22452
-6.97844 43.8702 54.7812 -0.581194 0.75682 0.29906
-8.30359 43.3452 52.8609 -0.576231 0.794757 0.190577
-9.52712 42.9077 51.1017 -0.563617 0.80164 0.199269
-10.7226 42.429 49.3232 -0.651142 0.722974 0.230919
-12.2525 41.976 47.2409 -0.603608 0.733028 0.313573
-12.4977 41.9108 46.9212 -0.591199 0.740044 0.320652
-13.124 40.8379 48.2607 -0.60346 0.714326 0.354364
-11.5381 41.3034 50.457 -0.660771 0.693125 0.288026
-10.2753 41.8017 52.3962 -0.677528 0.680379 0.279356
-9.09391 42.28 54.2072 -0.663742 0.714956 0.219737
-7.8389 42.7348 56.0534 -0.600159 0.751016 0.27529
-6.35785 43.1565 58.0696 -0.588773 0.766389 0.256893
-4.89891 43.5619 60.0219 -0.536171 0.799904 0.26958
-2.97556 43.6795 62.1158 -0.376654 0.83947 0.391692
-1.22936 42.5544 66.0534 -0.343439 0.82267 0.45306
-3.38113 42.6749 64.0408 -0.348126 0.842976 0.410122
-5.18427 42.6378 62.1776 -0.475737 0.823109 0.310105
-6.73929 42.2394 60.132 -0.64196 0.725667 0.247576
-8.06626 41.7312 58.1308 -0.651474 0.719842 0.2396
-9.54767 41.1859 55.885 -0.685782 0.662495 0.301336
-10.8106 40.6641 53.8797 -0.693573 0.675274 0.250923
-12.2099 40.1296 51.7098 -0.688125 0.655294 0.311565
-13.649 39.6422 49.569 -0.65542 0.675237 0.338347
-14.6692 39.4051 48.2761 -0.62843 0.681312 0.375354
-15.3399 38.1491 49.385 -0.652346 0.632223 0.418018
-13.8526 38.5125 51.3568 -0.710602 0.607985 0.354117
-12.3957 39.0012 53.5505 -0.738406 0.595144 0.31711
-11.0355 39.5653 55.767 -0.729146 0.619486 0.290832
-9.79288 40.0998 57.7988 -0.740857 0.611751 0.277293
-8.48451 40.6532 59.9188 -0.69363 0.657286 0.294707
-6.94489 41.2445 62.2805 -0.688804 0.654468 0.311802
-5.29384 41.5434 64.3063 -0.581902 0.663855 0.469774
-3.35442 41.5202 66.1788 -0.481114 0.726831 0.490148
-1.44865 41.4243 67.9551 -0.359084 0.823304 0.439578
0.630893 41.2483 69.8588 -0.217406 0.83697 0.502211
2.76546 40.8248 71.5902 -0.229561 0.854499 0.465975
4.31712 39.3321 74.8832 -0.220529 0.833777 0.506145
2.24252 39.7128 73.1625 -0.283393 0.826879 0.485757
0.252067 40.0318 71.4825 -0.293352 0.818383 0.494161
-2.01737 40.1965 69.3895 -0.485872 0.718027 0.498362
-4.19333 40.2234 67.2784 -0.481117 0.726828 0.490151
-6.09374 40.1296 65.3052 -0.61384 0.619794 0.488934
-7.60857 39.7898 63.3251 -0.715261 0.579664 0.390373
-9.07486 39.3251 61.214 -0.731202 0.597041 0.329978
-10.2828 38.8129 59.1607 -0.775878 0.559335 0.291817
-11.5542 38.2359 56.9937 -0.777758 0.537362 0.326089
-13.1541 37.5868 54.3816 -0.746412 0.563307 0.354336
-14.774 37.0785 51.9988 -0.681897 0.616523 0.393595
-16.2392 36.7611 50.1201 -0.634121 0.648698 0.42081
-17.6802 35.2784 50.2045 -0.635999 0.62377 0.45433
-16.1123 35.5423 52.09 -0.664615 0.623094 0.41236
-14.6002 35.9063 54.1132 -0.71417 0.575657 0.398221
-13.1842 36.344 56.2292 -0.784129 0.515001 0.346288
-11.7907 36.9473 58.5629 -0.796973 0.512189 0.320149
-10.6037 37.4844 60.683 -0.79078 0.51002 0.338448
-9.17699 38.0287 63.0193 -0.747936 0.544969 0.378947
-7.8129 38.4741 65.0619 -0.717899 0.581664 0.382475
-5.83496 38.7273 67.3394 -0.594675 0.649909 0.473266
-3.88855 38.8857 69.4445 -0.494665 0.703949 0.50967
-1.56283 38.8925 71.7428 -0.485384 0.724345 0.489619
0.715411 38.7028 73.8189 -0.384294 0.766859 0.514048
2.47264 38.4737 75.3545 -0.306512 0.791747 0.528382
0.330754 37.4584 75.3874 -0.404446 0.760425 0.508111
-1.8516 37.5982 73.3533 -0.460204 0.726215 0.510709
-4.05384 37.5643 71.1265 -0.50135 0.706856 0.499003
-6.42224 37.345 68.5248 -0.626154 0.631205 0.457724
-8.35533 37.0063 66.2198 -0.688185 0.56564 0.454371
-9.66957 36.5985 64.2044 -0.772859 0.519341 0.364655
-11.0024 36.0473 61.9154 -0.796846 0.50857 0.32618
-12.3111 35.473 59.6096 -0.797441 0.508042 0.325547
-13.6592 34.8979 57.3192 -0.780976 0.519621 0.346512
-15.0009 34.487 55.3281 -0.722166 0.553603 0.41473
-16.7556 34.1124 53.0219 -0.685892 0.568309 0.454507
-18.5277 33.8477 50.9881 -0.61268 0.630743 0.476221
-18.7958 33.8264 50.6978 -0.589746 0.635917 0.497805
-19.3585 32.4331 51.8229 -0.585483 0.640545 0.496902
-17.7063 32.6458 53.6588 -0.617051 0.628736 0.473223
-16.0709 32.8589 55.567 -0.724313 0.563978 0.39661
-14.5749 33.3171 57.7973 -0.761817 0.540343 0.357302
-13.2215 33.8228 59.9753 -0.77129 0.535648 0.343793
-11.9397 34.3833 62.197 -0.800836 0.502881 0.325227
-10.5888 34.961 64.578 -0.791039 0.508402 0.340271
-9.10202 35.4277 66.8694 -0.737778 0.539901 0.405205
-7.56255 35.8071 68.9348 -0.652619 0.633786 0.415216
-5.97777 36.1289 70.9045 -0.609587 0.666558 0.429074
-3.75236 36.3118 73.3457 -0.522286 0.710801 0.471146
-1.99905 36.297 75.0708 -0.460202 0.726215 0.510711
-1.44637 36.261 75.5852 -0.441968 0.740846 0.505778
-3.04387 35.0242 75.9107 -0.492618 0.735334 0.465416
-5.14598 34.9733 73.7524 -0.540709 0.704104 0.460296
-6.81917 34.7191 71.7374 -0.644118 0.640794 0.417726
-8.43395 34.3572 69.6514 -0.701097 0.58493 0.407823
-9.93644 33.9198 67.523 -0.732567 0.578072 0.359413
-11.592 33.2841 64.79 -0.789096 0.515594 0.333901
-12.8559 32.7382 62.5613 -0.789858 0.520842 0.323803
-14.2182 32.2055 60.2935 -0.73668 0.57851 0.350184
-15.7807 31.6643 57.894 -0.69621 0.6245 0.353965
-17.2746 31.3166 55.8666 -0.614099 0.64257 0.458242
-19.0728 31.1505 53.8979 -0.597572 0.644973 0.476359
-20.3636 31.003 52.4822 -0.585485 0.640543 0.496903
-20.6898 29.6494 53.9272 -0.580813 0.658355 0.478775
-18.7724 29.8289 56.0163 -0.58345 0.652641 0.483369
-17.0864 30.1014 58.0763 -0.676118 0.636239 0.37157
-15.6523 30.5283 60.131 -0.710159 0.601003 0.366702
-14.308 30.9533 62.147 -0.749681 0.547467 0.37183
-13.0184 31.4401 64.3058 -0.834287 0.484451 0.263197
-11.6686 32.0402 66.6684 -0.776709 0.554871 0.298062
-10.1999 32.6274 69.0606 -0.740222 0.594006 0.315006
-8.38901 33.1641 71.612 -0.695553 0.614366 0.372506
-6.7807 33.4986 73.6902 -0.627256 0.66064 0.412437
-4.8787 33.7445 75.9279 -0.554882 0.693107 0.460117
-6.92321 32.2738 75.4495 -0.59237 0.698199 0.402015
-8.7405 31.8956 73.092 -0.645978 0.670886 0.364177
-10.1331 31.5015 71.1404 -0.687485 0.623836 0.371742
-11.8405 30.8807 68.4993 -0.740223 0.594005 0.315004
-13.3141 30.2287 66.0035 -0.731425 0.634952 0.248703
-14.559 29.6255 63.7391 -0.728692 0.636049 0.253869
