5.49393 53.403 19.6484 0.133134 0.966307 0.220286
5.84537 53.0975 20.7765 0.13349 0.966437 0.219499
6.1801 52.8603 21.6799 0.131132 0.971144 0.198955
6.9514 52.4285 23.2167 0.140543 0.969293 0.201787
7.33479 52.1302 24.6233 0.132209 0.976783 0.168567
7.50261 51.84 26.122 0.114384 0.979716 0.163476
7.38143 51.6823 27.2633 0.106079 0.98341 0.147147
6.84874 51.5577 28.5124 0.108799 0.984151 0.140035
6.38297 51.4357 29.7318 0.0926317 0.984558 0.147469
5.73946 51.288 31.1895 0.0762466 0.989085 0.126083
5.10707 51.1506 32.65 0.0579998 0.988963 0.13483
4.70217 51.0301 33.8814 0.0339123 0.993624 0.10752
4.24742 50.9233 35.0125 0.0277436 0.993453 0.110604
3.66554 50.772 36.3223 0.0400876 0.988429 0.146291
3.06424 50.6089 37.6165 0.00843728 0.992708 0.120191
2.70175 50.4556 38.7343 -0.0406412 0.991024 0.12736
2.33581 50.3008 39.8217 -0.0418979 0.990629 0.129965
2.06655 50.1678 40.7278 -0.0431506 0.990234 0.132571
1.70087 49.9953 42.2488 -0.0615631 0.993534 0.0952821
1.341 49.8082 43.6872 -0.0755667 0.988421 0.13158
1.10534 49.7043 44.6027 -0.100574 0.992032 0.0758778
0.743765 49.5146 46.0397 -0.155651 0.982062 0.106041
0.272123 49.3231 47.2243 -0.155281 0.983089 0.0970729
-0.117427 49.1598 48.2552 -0.177996 0.977957 0.106257
-0.557887 48.8831 49.648 -0.164332 0.975355 0.147232
-1.09073 48.6079 50.8762 -0.164235 0.975628 0.145515
-1.55766 48.3785 51.9004 -0.209491 0.964518 0.153424
-2.22052 47.9484 53.3782 -0.254845 0.953136 0.163052
-2.4758 47.6699 54.3142 -0.28429 0.943405 0.16605
-3.05664 47.3066 55.6946 -0.291257 0.948174 0.127027
-3.43309 47.0743 56.6321 -0.279577 0.950623 0.131886
-3.45592 46.8732 57.675 -0.301352 0.937322 0.174635
-3.55033 46.5923 59.071 -0.309355 0.936093 0.167422
-4.25151 46.5417 58.1022 -0.293352 0.93855 0.181847
-4.68687 46.6619 56.7795 -0.292728 0.941113 0.168624
-5.27608 46.5985 55.7917 -0.349521 0.931658 0.0992417
-6.19474 46.2743 54.4922 -0.40258 0.915187 -0.019012
-7.10041 45.9614 53.8774 -0.433772 0.88642 0.158608
-7.94802 45.4969 53.3758 -0.588252 0.801945 0.104131
-8.92123 44.85 52.9143 -0.622731 0.775109 0.0880057
-9.64505 44.2404 52.7131 -0.652467 0.750446 0.105442
-10.5235 43.4781 52.6259 -0.693019 0.693892 0.195267
-11.4058 42.5451 52.6788 -0.72871 0.654551 0.201355
-12.0233 41.8277 52.7614 -0.749822 0.619511 0.232024
-12.9167 40.5802 53.1986 -0.735001 0.61618 0.282808
-13.3465 39.8008 53.6077 -0.762635 0.570484 0.304854
-13.7847 38.8494 54.2343 -0.779654 0.535506 0.324613
-14.054 38.0604 54.8892 -0.779604 0.535437 0.324845
-14.1069 37.2908 55.9292 -0.768305 0.533241 0.354064
-14.0637 36.7222 56.789 -0.774471 0.49809 0.390001
-13.9587 36.1337 57.8564 -0.797493 0.495284 0.344527
-13.7096 35.8816 58.8105 -0.794649 0.507694 0.332543
-13.1851 35.8495 60.1162 -0.819204 0.468174 0.331235
-12.74 35.9939 61.0128 -0.818979 0.468034 0.331989
-12.1486 36.1763 62.2384 -0.827362 0.46052 0.321548
-11.5628 36.5224 63.2455 -0.830033 0.450012 0.329445
-11.5006 36.5704 63.3365 -0.830033 0.450012 0.329445
-11.2851 37.3238 62.8647 -0.83853 0.43411 0.329266
-11.7603 37.0094 62.0752 -0.837457 0.444257 0.31828
-12.1945 36.8529 61.1511 -0.83241 0.452387 0.319915
-12.7199 36.6794 60.0836 -0.815691 0.4798 0.323172
-13.1181 36.6616 59.1049 -0.819668 0.479897 0.312594
-13.4514 36.8785 57.9615 -0.808487 0.480625 0.339511
-13.5309 37.5168 56.8867 -0.804333 0.490152 0.335513
-13.5153 38.1706 55.9497 -0.786972 0.50737 0.351071
-13.3696 38.8555 55.2209 -0.779557 0.535367 0.325074
-12.9674 39.7666 54.62 -0.779169 0.553901 0.292198
-12.5008 40.708 54.139 -0.77688 0.572295 0.258698
-11.8728 41.6348 53.7627 -0.749821 0.619513 0.232023
-11.1637 42.5243 53.6225 -0.735485 0.641498 0.216983
-10.1369 43.6648 53.563 -0.734819 0.662059 0.147372
-9.36261 44.3554 53.7019 -0.66997 0.737222 0.087435
-8.27057 45.1733 54.1735 -0.573377 0.816872 0.0472516
-7.15889 45.8588 54.9085 -0.421746 0.906345 -0.00484707
-6.43635 46.1898 55.5415 -0.37605 0.923423 0.0401121
-5.74156 46.361 56.7201 -0.260549 0.965326 -0.00873703
-5.34592 46.2729 57.8311 -0.193741 0.967447 0.162821
-5.21938 46.101 59.0027 -0.201487 0.964053 0.172731
-5.21872 45.5522 60.3859 -0.25202 0.887695 0.385336
-5.30802 45.0008 61.5977 -0.270587 0.860434 0.428365
-5.6367 44.4515 62.3085 -0.294373 0.816759 0.496235
-6.13403 43.8934 62.9322 -0.384478 0.755571 0.518581
-6.80812 42.9805 63.5943 -0.474429 0.729596 0.492551
-7.45409 42.0565 64.1192 -0.560238 0.636677 0.529883
-8.34081 40.8445 64.4698 -0.679373 0.566375 0.464744
-8.94843 40.0401 64.5638 -0.695688 0.576734 0.428246
-9.55269 39.1973 64.4115 -0.788934 0.49723 0.361034
-10.139 38.4687 64.1305 -0.811596 0.462717 0.356123
-10.8173 37.7224 63.491 -0.822618 0.450576 0.346815
-11.197 37.3941 62.9963 -0.838532 0.434107 0.329265
-10.9913 38.1948 62.4644 -0.830575 0.442342 0.338039
-10.417 38.7606 63.1504 -0.827848 0.426983 0.363805
-9.51615 39.9164 63.6804 -0.778602 0.450954 0.436097
-8.97318 40.77 63.7161 -0.662665 0.556747 0.500908
-8.2166 41.9479 63.3818 -0.659543 0.567437 0.492969
-7.67479 42.7691 63.0223 -0.578711 0.603747 0.546834
-7.22685 43.4818 62.5192 -0.463905 0.710313 0.529384
-6.80268 44.2101 61.9389 -0.474587 0.694382 0.540926
-6.37983 44.7896 61.3112 -0.293874 0.818767 0.493213
-6.30926 45.274 60.3135 -0.237771 0.883468 0.403008
-6.13928 45.7476 59.4138 -0.223523 0.879239 0.420685
-6.28417 45.9944 58.3436 -0.209234 0.960658 0.182642
-6.65645 46.1121 57.2267 -0.22684 0.96653 0.0838108
-7.02073 46.0047 56.2836 -0.261159 0.965038 -0.0222854
-8.08296 45.3997 55.4088 -0.531003 0.837297 -0.0462589
-9.01363 44.6509 54.8978 -0.623014 0.779176 -0.00958247
-9.82214 43.8637 54.4569 -0.758123 0.649944 0.0444134
-10.6718 42.8881 54.5037 -0.733612 0.668773 0.120646
-11.5147 41.7595 54.6784 -0.756021 0.625176 0.193874
-11.9881 40.9847 55.0663 -0.77688 0.572294 0.258698
-12.5757 39.8659 55.5074 -0.791463 0.527027 0.309563
-12.8602 39.1114 56.0561 -0.797974 0.51974 0.305135
-12.9007 38.429 57.0279 -0.800395 0.502458 0.326962
-12.8865 37.6874 58.1649 -0.807941 0.477288 0.345576
-12.3454 37.5823 59.6883 -0.818831 0.475642 0.321326
-11.9456 37.63 60.6464 -0.831794 0.465783 0.301155
-11.5628 37.8144 61.4861 -0.840433 0.449364 0.302078
-11.1967 37.9962 62.2032 -0.841689 0.434464 0.32049
-9.27892 38.5549 65.8945 -0.794574 0.485776 0.364009
-8.41498 39.9177 65.5956 -0.695251 0.577479 0.427953
-7.13458 41.1125 65.7049 -0.560402 0.667385 0.490455
-5.32076 42.0522 66.239 -0.465185 0.70718 0.532447
-3.33193 42.3885 67.686 -0.440839 0.757904 0.480876
-2.25722 42.1446 69.0004 -0.380805 0.799147 0.465121
-1.53648 41.8369 70.0812 -0.380099 0.78835 0.483765
-1.51077 40.9455 71.5007 -0.439157 0.739042 0.51073
-1.75338 40.1721 72.3831 -0.386199 0.732126 0.561107
-2.21889 39.2995 73.2013 -0.386249 0.732885 0.560081
-2.98537 38.2608 73.8769 -0.448119 0.687645 0.571256
-3.84883 37.3866 74.2418 -0.484691 0.66916 0.562489
-4.91893 36.7753 73.9836 -0.507817 0.650114 0.565219
-6.09325 36.3833 73.3794 -0.515868 0.651241 0.556437
-7.48365 36.1133 72.1242 -0.637791 0.586466 0.497787
-8.25464 35.9143 71.2598 -0.70423 0.54199 0.457437
-8.91194 35.9839 70.0889 -0.725842 0.52871 0.440022
-9.32506 36.4636 68.5817 -0.796337 0.480407 0.367295
-9.35958 37.2094 67.5709 -0.804636 0.471104 0.361111
-9.11223 38.4595 66.3813 -0.802797 0.479543 0.354054
-8.43567 38.8236 67.2166 -0.731255 0.579334 0.359549
-7.58645 40.0495 66.717 -0.591118 0.690447 0.416717
-6.49342 40.8848 66.8411 -0.550555 0.714422 0.430075
-5.01664 41.5297 67.4502 -0.500691 0.7436 0.443135
-3.69384 41.6173 68.5697 -0.440839 0.757905 0.480875
-2.86574 41.4869 69.5113 -0.439128 0.745032 0.502089
-2.37893 40.6015 71.2515 -0.439325 0.745017 0.501939
-2.70999 39.7785 72.1342 -0.438988 0.733068 0.51952
-3.30791 38.8595 72.8771 -0.461624 0.701592 0.542394
-4.10809 37.944 73.3428 -0.461566 0.688207 0.559757
-5.52323 37.1924 72.9609 -0.515867 0.65124 0.556438
-6.63136 37.0276 72.0971 -0.568695 0.619927 0.537699
-7.46301 36.7902 71.3063 -0.657053 0.572915 0.489292
-8.38279 36.7511 70.0308 -0.715014 0.541744 0.441891
-8.73529 37.1687 68.9413 -0.771441 0.500981 0.391185
-8.71515 37.949 67.9753 -0.790604 0.490481 0.366423
-8.47398 38.7283 67.2858 -0.738154 0.564544 0.369349
-7.78541 38.9794 68.1935 -0.642651 0.647088 0.405493
-6.88895 39.9788 67.8236 -0.591121 0.690446 0.416715
-5.91133 40.5945 67.9861 -0.51875 0.727967 0.448289
-4.74232 40.88 68.7705 -0.439991 0.751469 0.491475
-3.53004 40.7495 70.0246 -0.439112 0.745032 0.502103
-3.28106 40.2138 71.0374 -0.439154 0.739043 0.510731
-3.74917 39.3485 71.8231 -0.461679 0.714977 0.525034
-4.38402 38.4141 72.5373 -0.461624 0.701591 0.542396
-5.5942 37.9068 72.042 -0.524023 0.651061 0.549105
-6.59085 37.6957 71.3423 -0.543643 0.650461 0.529655
-7.40695 37.5557 70.5139 -0.624689 0.60943 0.48822
-8.05081 37.6865 69.4303 -0.711342 0.530053 0.461204
-7.95322 38.582 68.4883 -0.679697 0.600045 0.42185
-7.85744 38.8183 68.3065 -0.679696 0.600047 0.42185
-14.3235 50.2395 26.8261 -0.232557 0.914412 0.331199
-13.505 50.0521 27.9231 -0.227254 0.919645 0.320325
-12.8308 49.8934 28.8571 -0.233181 0.919011 0.31781
-11.9783 49.8006 29.8037 -0.239127 0.923997 0.298407
-11.1921 49.7017 30.7398 -0.244002 0.923654 0.295455
-10.4703 49.5073 31.996 -0.247935 0.929716 0.272316
-9.84754 49.2641 33.3934 -0.256765 0.928887 0.266702
-9.56064 48.9532 34.9068 -0.289766 0.924629 0.244572
-9.49082 48.6344 36.071 -0.312974 0.911102 0.268218
-9.55998 48.3149 37.1798 -0.343406 0.901915 0.259595
-9.72342 47.8867 38.3596 -0.369543 0.895104 0.249453
-10.2026 47.4225 39.3153 -0.392532 0.879974 0.265607
-10.8589 46.8769 40.0254 -0.415992 0.869963 0.264793
-11.5455 46.2625 40.9657 -0.447878 0.848204 0.279718
-12.2065 45.5702 41.8309 -0.479765 0.826445 0.294642
-12.7994 44.8671 42.8898 -0.511052 0.806068 0.295424
-13.2502 44.1542 43.8997 -0.542545 0.781073 0.309144
-13.9073 43.2051 45.1245 -0.573312 0.748099 0.330811
-14.6619 42.1463 45.9958 -0.60434 0.716854 0.347696
-15.3158 41.1569 46.9325 -0.636477 0.689629 0.341702
-16.1274 39.9527 47.6396 -0.62709 0.670024 0.395288
-16.969 38.8011 48.301 -0.599405 0.680299 0.42179
-17.8586 37.7046 48.6487 -0.622419 0.631713 0.462097
-18.7835 36.5336 49.0036 -0.622419 0.631713 0.462097
-19.5645 35.6083 49.2438 -0.614642 0.638949 0.462557
-20.1165 34.7728 49.6428 -0.614864 0.612525 0.496745
-20.8638 33.6569 50.1608 -0.593754 0.633393 0.496255
-21.512 32.4586 50.9146 -0.593245 0.62303 0.50952
-22.0394 31.4484 51.4732 -0.610074 0.594855 0.52341
-22.3573 30.6023 52.0926 -0.540325 0.638602 0.547486
-22.6453 29.5006 53.1558 -0.509282 0.680463 0.525267
-22.8424 28.6655 54.055 -0.546028 0.677764 0.492432
-22.8002 28.0172 54.994 -0.536288 0.695465 0.477593
-22.6508 27.4711 56.0211 -0.532547 0.715633 0.451954
-22.4534 26.899 57.244 -0.583119 0.708426 0.397624
-22.291 26.4702 58.2272 -0.569125 0.723698 0.389032
-22.2492 25.8341 59.6024 -0.570907 0.738621 0.358475
-22.174 25.1671 61.1198 -0.505767 0.783017 0.362057
-22.6431 24.3953 62.2075 -0.542033 0.781322 0.309413
-23.0648 23.7558 63.0837 -0.542034 0.781321 0.309413
-23.6819 23.0442 63.868 -0.526674 0.800982 0.284185
-24.4414 22.3618 64.4517 -0.514503 0.810987 0.278542
-25.2289 21.7009 64.9214 -0.512797 0.815427 0.26831
-26.2675 20.9898 65.4958 -0.443812 0.858876 0.255664
-27.2829 20.2919 66.0775 -0.448415 0.852383 0.268582
-27.7801 19.6895 67.0816 -0.455593 0.844341 0.281999
-26.9709 19.7523 68.2013 -0.454307 0.845116 0.281749
-25.665 20.1649 69.0033 -0.441581 0.846404 0.297669
-24.558 20.7142 69.0837 -0.469661 0.830189 0.298584
-23.5122 21.3706 69.0378 -0.49774 0.813975 0.2995
-22.5869 21.9471 69.0088 -0.504177 0.814155 0.287707
-21.4224 22.6644 69.236 -0.545309 0.797793 0.257226
-20.3718 23.2793 69.5562 -0.545309 0.797793 0.257226
-19.4165 23.9139 70.0799 -0.624269 0.744589 0.236379
-18.6089 24.4042 70.6478 -0.617119 0.742897 0.25936
-17.7958 24.8077 71.5029 -0.63364 0.730973 0.253336
-17.035 25.0829 72.6119 -0.633641 0.73097 0.253343
-16.2966 25.3356 73.846 -0.63031 0.741939 0.228554
-15.6043 25.5609 75.0239 -0.630294 0.741925 0.228642
-14.8283 25.8676 76.087 -0.633107 0.734339 0.244789
-14.0061 26.3474 76.7745 -0.651991 0.711653 0.259554
-13.0021 26.9755 77.5406 -0.648002 0.710216 0.275111
-12.1614 27.6176 77.8631 -0.630666 0.718694 0.291703
-11.3332 28.3104 77.9412 -0.635454 0.69889 0.327733
-10.3086 29.3242 77.8096 -0.638387 0.688918 0.343299
-9.17736 30.3631 77.8309 -0.62289 0.690554 0.36653
-8.17908 31.2872 77.779 -0.616284 0.682537 0.392857
-7.35641 32.0197 77.7968 -0.583753 0.698121 0.412518
-6.50521 32.7224 77.7978 -0.569345 0.684266 0.45566
-5.67489 33.5111 77.651 -0.569345 0.684268 0.455658
-4.711 34.1664 77.7334 -0.520306 0.686867 0.50744
-3.15266 35.2693 77.7972 -0.476352 0.707349 0.52123
-2.13631 35.9668 77.7256 -0.430853 0.725059 0.536734
-1.17433 36.4528 77.7948 -0.411697 0.738944 0.533356
-0.267151 37.0123 77.7195 -0.391827 0.751582 0.530164
1.0339 37.6701 77.6301 -0.340889 0.759846 0.55356
1.97758 38.2014 77.482 -0.340889 0.759846 0.55356
3.57381 38.9035 77.2674 -0.260545 0.805239 0.532641
4.58497 39.3613 77.0733 -0.264192 0.80581 0.529974
5.76731 39.74 77.003 -0.224125 0.825084 0.518657
7.2341 40.222 76.8455 -0.19713 0.851166 0.485886
8.45042 40.6031 76.6087 -0.177218 0.859505 0.479421
8.25766 41.3313 75.2415 -0.17498 0.857848 0.483194
7.16691 41.5365 74.4832 -0.17529 0.85725 0.484144
6.11541 41.9256 73.4945 -0.165552 0.84503 0.508305
4.90227 42.4292 72.2442 -0.167903 0.839046 0.517376
4.046 42.9368 71.1489 -0.152133 0.861475 0.483208
3.06719 43.2646 70.2126 -0.140942 0.879187 0.455154
2.23113 43.5118 69.537 -0.115826 0.8751 0.469876
1.53743 43.8952 68.6017 -0.191509 0.89252 0.40307
0.706984 44.1675 67.455 -0.251906 0.875573 0.411778
-0.103987 44.3993 66.5161 -0.248291 0.868571 0.428878
-0.885569 44.6998 65.3627 -0.279417 0.859119 0.428384
-1.48309 45.1439 64.1379 -0.278906 0.851176 0.444647
-2.04917 45.5265 63.0208 -0.339796 0.831386 0.43951
-2.17331 45.9947 61.9857 -0.273002 0.871324 0.407754
-2.44577 46.4571 60.801 -0.253273 0.899318 0.353614
-2.48917 46.7946 59.8031 -0.269327 0.922743 0.26751
-2.44094 47.0957 58.3063 -0.289696 0.943119 0.16166
-2.43327 47.2711 57.2504 -0.262992 0.953882 0.14401
-1.89053 47.6671 55.6412 -0.255427 0.954757 0.152302
-1.52888 47.9784 54.1829 -0.28429 0.943405 0.16605
-0.64192 48.4399 52.5288 -0.164141 0.9759 0.143795
-0.209174 48.6532 51.575 -0.164141 0.9759 0.143795
0.562161 49.0442 49.8306 -0.140198 0.980218 0.137144
0.96907 49.2666 48.4784 -0.115998 0.985275 0.1256
1.42891 49.47 47.2929 -0.11593 0.985469 0.124141
1.81755 49.6349 46.2152 -0.04355 0.995283 0.0866929
2.05958 49.7767 44.8319 -0.0431894 0.994517 0.0952381
2.43489 49.9299 43.4021 -0.0427642 0.994572 0.094856
2.80943 50.0854 41.9715 -0.0576332 0.994013 0.0928213
3.18737 50.2393 40.5584 -0.0503945 0.992123 0.112697
3.76103 50.4272 39.1098 0.00921964 0.993141 0.116561
4.08439 50.5741 37.8321 0.00843728 0.992708 0.120191
4.62436 50.7092 36.7162 0.0076553 0.992275 0.12382
5.04454 50.8162 35.6363 0.0575995 0.993314 0.0999044
5.86191 50.9819 33.6338 0.0702113 0.990795 0.11574
6.25061 51.0653 32.5697 0.0819949 0.989587 0.117663
6.87033 51.1804 31.297 0.0830295 0.988058 0.129795
7.39156 51.2743 30.0629 0.111464 0.98536 0.128258
8.00012 51.4332 28.4815 0.11285 0.983522 0.141236
8.59097 51.6103 26.763 0.129794 0.98009 0.150257
8.54125 51.7924 25.5755 0.148423 0.975763 0.160427
8.35966 52.0435 24.3012 0.153395 0.973444 0.169932
8.02295 52.3119 23.0302 0.136376 0.973038 0.185177
7.49979 52.5777 22.1179 0.14885 0.969636 0.193686
6.92003 52.8876 20.9894 0.157157 0.969985 0.185557
6.3921 53.3689 19.1697 0.163688 0.964038 0.209375
5.86769 53.7533 17.8555 0.165001 0.961394 0.220219
5.5646 54.0374 16.8424 0.164171 0.960912 0.222905
5.2001 54.3626 15.6952 0.15301 0.964135 0.216866
4.89684 54.647 14.6447 0.15217 0.963142 0.221756
4.75975 54.9256 13.5559 0.155652 0.960118 0.232262
4.58296 55.2865 12.1824 0.152687 0.958725 0.239721
4.47103 55.6477 10.8513 0.149723 0.957332 0.247182
4.30527 56.0432 9.4208 0.149308 0.957081 0.248399
4.33204 56.3696 8.15305 0.148801 0.956877 0.249488
4.32796 56.7677 6.79044 0.17111 0.946348 0.27399
4.34799 57.1181 5.53117 0.1753 0.947769 0.266464
4.39883 57.4231 4.43339 0.176819 0.944971 0.275227
4.59388 57.7044 3.35769 0.175351 0.944212 0.278776
4.58413 58.0094 2.31854 0.166203 0.944659 0.282605
4.82643 58.3233 1.17554 0.181145 0.939323 0.290829
5.08372 58.6589 -0.0919681 0.197388 0.937018 0.288159
5.34149 58.9543 -1.19099 0.205637 0.929061 0.307504
5.5761 59.2807 -2.36926 0.199039 0.936193 0.289699
5.88469 59.6379 -3.6385 0.204989 0.930253 0.304145
6.14788 59.9169 -4.67319 0.217243 0.924811 0.312297
6.36639 60.2275 -5.74505 0.223408 0.92473 0.308069
6.53513 60.5177 -6.74657 0.228193 0.92198 0.312859
6.97155 61.1497 -8.91905 0.229843 0.921014 0.314492
7.25657 61.494 -10.1426 0.230406 0.921419 0.31289
7.4455 61.8562 -11.3484 0.237279 0.918168 0.317159
7.69937 62.2538 -12.7078 0.27487 0.907887 0.316526
8.06228 62.5837 -13.9692 0.274794 0.907872 0.316632
8.4506 62.8027 -14.9561 0.282717 0.906083 0.314779
8.79115 63.0627 -16.0104 0.282716 0.906083 0.314778
9.17858 63.2984 -17.1097 0.298511 0.904812 0.303602
9.58993 63.5954 -18.378 0.306217 0.902746 0.301986
10.0982 63.7808 -19.4828 0.312572 0.902818 0.295326
10.5648 63.9708 -20.5462 0.320457 0.900908 0.292523
10.9665 64.1531 -21.5848 0.326789 0.901219 0.284629
11.4118 64.3182 -22.6162 0.324481 0.904041 0.278148
11.6744 64.5282 -23.6278 0.329089 0.903906 0.273231
12.3969 64.7304 -25.1949 0.333851 0.905025 0.263579
12.8854 64.8866 -26.3435 0.340648 0.903015 0.261671
13.2792 65.0226 -27.3461 0.335788 0.906308 0.256618
13.7993 65.2439 -28.8345 0.341236 0.907366 0.245448
14.1843 65.3673 -29.8515 0.340243 0.909596 0.238472
14.7159 65.4285 -30.8405 0.344249 0.90921 0.234013
15.4688 65.4268 -31.9531 0.330713 0.916601 0.224661
16.2305 65.3976 -32.9552 0.332058 0.916618 0.222583
17.2031 65.3004 -34.0225 0.333445 0.916636 0.220438
18.1346 65.1156 -34.6563 0.318819 0.921518 0.221717
19.7695 64.7834 -35.6469 0.320625 0.92156 0.218921
21.5207 64.3051 -36.1985 0.320519 0.921611 0.21886
22.8735 63.8971 -36.3827 0.308509 0.927971 0.209028
24.1856 63.4742 -36.4417 0.303368 0.929556 0.209438
25.198 63.1439 -36.4147 0.298227 0.931142 0.209848
26.463 62.7402 -36.4312 0.300814 0.928261 0.21873
28.2106 62.1666 -36.3024 0.287364 0.932115 0.220417
29.9681 61.6292 -36.3315 0.285501 0.934847 0.211006
30.7087 61.6818 -37.5376 0.280842 0.935763 0.213248
30.8206 61.9703 -38.9507 0.281177 0.936747 0.208373
30.3957 62.462 -40.6289 0.279394 0.938046 0.204943
29.7012 62.9803 -42.0912 0.283154 0.938454 0.197806
28.867 63.414 -43.0183 0.282018 0.940668 0.188676
27.1279 64.0653 -43.6313 0.288371 0.939003 0.18735
25.9947 64.4373 -43.7711 0.287569 0.942951 0.167771
24.9316 64.7919 -43.9417 0.293093 0.94095 0.169328
23.6916 65.2467 -44.2716 0.299008 0.938825 0.170883
22.6382 65.6054 -44.3983 0.304295 0.937125 0.170806
21.5718 65.9803 -44.5899 0.300499 0.941465 0.152785
20.4884 66.3393 -44.6718 0.304877 0.939962 0.153295
19.1011 66.8354 -44.9093 0.305527 0.941383 0.14248
17.5818 67.3907 -45.2793 0.316658 0.938995 0.134227
16.5133 67.8063 -45.6701 0.314647 0.93909 0.138227
15.4845 68.1724 -45.8902 0.307033 0.943199 0.126912
14.4636 68.5313 -46.0879 0.31696 0.939748 0.127669
13.4384 68.9319 -46.4218 0.315086 0.943914 0.0987293
12.0882 69.4322 -46.8203 0.3295 0.938586 0.102401
10.8463 69.9182 -47.279 0.32946 0.938609 0.102316
9.32893 70.4898 -47.8074 0.330272 0.941117 0.0722431
8.21016 70.9069 -48.2248 0.334973 0.939805 0.0667099
7.02691 71.3402 -48.4537 0.336561 0.940252 0.05143
5.83462 71.7753 -48.6439 0.33566 0.941155 0.0394872
4.60454 72.2477 -49.0005 0.345231 0.938212 0.0239604
3.40501 72.719 -49.1722 0.369565 0.928865 0.0251188
2.14257 73.2241 -48.7912 0.393388 0.919044 0.0245939
1.4559 73.4953 -47.9364 0.39364 0.918946 0.0242234
0.987371 73.6684 -46.8911 0.397123 0.917068 0.034141
0.271622 73.9185 -45.3403 0.414833 0.909164 0.0357762
-0.148359 74.0572 -44.0549 0.424009 0.9046 0.0437634
-0.671061 74.2722 -43.0926 0.441698 0.896261 0.0402291
-1.29295 74.5221 -41.8958 0.452865 0.889106 0.0657347
-1.9616 74.8062 -40.7969 0.476376 0.877232 0.0594143
-2.79958 75.1363 -39.388 0.494008 0.864242 0.0936901
-3.49837 75.4329 -38.3209 0.504556 0.856733 0.106239
-4.06735 75.5878 -37.0582 0.500938 0.854836 0.135022
-4.69484 75.6976 -35.5378 0.500393 0.85202 0.153441
-5.18298 75.7379 -34.3692 0.522619 0.831365 0.18895
-5.79818 75.8467 -33.3083 0.507232 0.830114 0.231215
-6.6155 76.0116 -32.123 0.539398 0.805435 0.245551
-7.50329 76.1377 -30.84 0.549702 0.780484 0.296882
-8.26095 76.3223 -30.1159 0.521165 0.774482 0.358559
-9.44377 76.6828 -29.2779 0.506253 0.733251 0.453236
-10.3482 77.0321 -28.8153 0.521754 0.712653 0.468888
-11.7993 77.6376 -28.2786 0.447085 0.688712 0.570633
-13.1442 78.2363 -27.9535 0.466108 0.627036 0.623928
-14.0754 78.7384 -27.9049 0.360597 0.648266 0.670612
-14.9899 79.3494 -28.0038 0.369281 0.633403 0.679744
-16.0921 80.1111 -28.0953 0.354273 0.609249 0.709441
-17.4506 81.0342 -28.2402 0.332536 0.624185 0.706974
-17.0941 80.1216 -27.6124 0.366885 0.58753 0.720921
-16.4842 79.1225 -27.0777 0.348054 0.598633 0.721455
-16.0876 78.0614 -26.2633 0.308603 0.656436 0.688372
-15.6188 77.2481 -25.7243 0.292673 0.618943 0.72887
-15.1646 76.3523 -25.0281 0.225713 0.679189 0.698395
-14.93 75.3512 -24.1303 0.225256 0.675741 0.701862
-14.9921 74.3664 -23.1301 0.171749 0.723162 0.668984
-15.2766 73.4424 -22.0582 0.173338 0.731458 0.659362
-15.9331 72.6177 -20.9425 0.174928 0.739754 0.649742
-16.5579 72.0828 -20.1781 0.0829134 0.738983 0.668602
-17.5648 71.6046 -19.4635 0.0924642 0.788535 0.607447
-18.5841 71.2454 -18.8216 0.102421 0.81441 0.570815
-19.0737 70.7277 -17.9606 0.119904 0.816563 0.564643
-19.3534 69.9538 -16.7318 0.110529 0.832039 0.543594
-20.2501 69.4683 -15.491 0.193124 0.867991 0.457487
-21.0137 69.3008 -14.7309 0.316597 0.830154 0.456322
-22.4451 69.2046 -13.712 0.378069 0.789716 0.475745
-23.3966 69.0157 -12.8578 0.333296 0.756609 0.562545
-23.6993 68.3647 -11.7917 0.326816 0.766487 0.552891
-23.6783 67.4865 -10.5671 0.284218 0.783108 0.553138
-23.7194 66.8471 -9.62033 0.285056 0.804929 0.519796
-23.6165 65.6863 -7.94459 0.246019 0.817575 0.519554
-23.3375 64.9345 -6.81832 0.22381 0.835289 0.502197
-23.1251 64.1632 -5.70873 0.194854 0.830871 0.520636
-23.0102 63.5936 -4.80052 0.17865 0.843545 0.506474
-22.8593 62.7083 -3.40141 0.176058 0.839457 0.514116
-22.6037 62.0263 -2.25016 0.128306 0.868416 0.478922
-22.5397 61.2745 -0.919478 0.127017 0.866213 0.483261
-22.2186 60.5443 0.409213 0.0722336 0.886344 0.45701
-21.8418 59.8326 1.67644 0.0692653 0.878463 0.472764
-21.316 59.2197 2.80375 0.0155647 0.905724 0.42358
-21.2086 58.7448 3.79841 0.00783314 0.900303 0.435193
-20.9504 58.2255 4.86814 0.00496524 0.90401 0.427384
-20.7984 57.6922 6.00851 -0.0137715 0.902178 0.431144
-20.5532 56.8656 7.79092 -0.0298749 0.910989 0.410959
-20.3216 56.3748 8.92747 -0.0472547 0.916284 0.397671
-20.303 55.934 9.95052 -0.0607293 0.911543 0.406696
-20.1705 55.4659 11.0193 -0.0607303 0.911542 0.406697
-19.97 55.0359 12.0596 -0.0782933 0.916194 0.392955
-19.8071 54.5473 13.2114 -0.0799443 0.91352 0.398861
-19.7497 54.0736 14.3286 -0.110932 0.919759 0.376447
-19.6448 53.5615 15.583 -0.123868 0.914305 0.385619
-19.2633 52.8347 17.4399 -0.123948 0.915704 0.38226
-18.9451 52.3937 18.6156 -0.149189 0.918798 0.365047
-18.4287 51.9198 20.0399 -0.16572 0.914049 0.370204
-17.8515 51.4591 21.4359 -0.175101 0.917929 0.355569
-17.3597 51.2029 22.3797 -0.185058 0.919034 0.348037
-16.7621 50.9018 23.4655 -0.212395 0.906872 0.363904
-15.9873 50.6722 24.5354 -0.226439 0.906851 0.355453
-15.1838 50.4836 25.5283 -0.226338 0.906804 0.355637
-14.6072 50.3188 26.4004 -0.241005 0.912517 0.330499
-15.4269 49.9123 26.9251 -0.244176 0.908288 0.339529
-16.2194 50.0126 26.0702 -0.233626 0.90964 0.343149
-16.8402 50.2206 25.1498 -0.214288 0.908926 0.357678
-17.3943 50.4568 24.2175 -0.214274 0.90892 0.357702
-18.0758 50.7799 23.0163 -0.210517 0.904823 0.370106
-18.9226 51.1901 21.5749 -0.188806 0.906047 0.37872
-19.6235 51.8092 19.7355 -0.188835 0.906695 0.377155
-19.8321 52.1885 18.7685 -0.153036 0.902136 0.403392
-20.1964 52.5716 17.7677 -0.138416 0.909395 0.391801
-20.6766 53.1155 16.3091 -0.123907 0.914995 0.383963
-20.712 53.5216 15.3347 -0.109703 0.912245 0.394327
-20.7262 54.0484 14.1418 -0.0955264 0.910163 0.403086
-20.9549 54.7072 12.5999 -0.095551 0.910166 0.403073
-21.0615 55.1499 11.5913 -0.0684433 0.910732 0.407286
-21.278 55.5689 10.6179 -0.068368 0.910749 0.407262
-21.4107 56.1914 9.20344 -0.0559674 0.904954 0.421356
-21.5863 56.8452 7.80157 -0.0136265 0.908367 0.417953
-21.876 57.4112 6.56196 -0.0137012 0.905272 0.424548
-21.811 57.9274 5.48396 -0.00837206 0.900292 0.435147
-22.0706 58.372 4.57192 -0.00218969 0.899189 0.437556
-22.3016 58.9429 3.39744 0.016212 0.894288 0.446699
-22.6015 59.4718 2.43494 0.043933 0.875334 0.481519
-23.0885 60.1847 1.18326 0.043954 0.875343 0.481501
-23.3073 60.7493 0.218144 0.107541 0.858459 0.501119
-23.63 61.6244 -1.26548 0.11569 0.866344 0.485864
-23.61 62.1518 -2.21072 0.121354 0.866279 0.484562
-23.9919 63.0187 -3.52199 0.161585 0.839936 0.518071
-24.0733 63.7665 -4.71341 0.177355 0.8415 0.510296
-24.2803 64.514 -5.78942 0.211061 0.818197 0.534796
-24.4665 65.2649 -6.86474 0.217435 0.826743 0.518497
-24.7695 65.9845 -7.81279 0.268229 0.799862 0.536912
-24.6608 66.5647 -8.73133 0.268178 0.799558 0.537389
-24.8289 67.3119 -9.71529 0.291802 0.775521 0.559795
-24.7055 68.0286 -10.7705 0.306624 0.769341 0.56034
-24.701 68.8752 -11.9087 0.305646 0.764022 0.568188
-24.5523 69.5811 -12.9369 0.332314 0.754523 0.565917
-24.4158 70.1951 -13.7942 0.336238 0.735432 0.588289
-23.5185 70.0663 -14.248 0.364957 0.752585 0.54697
-22.5383 69.7787 -14.5911 0.37807 0.789716 0.475745
-21.7014 69.8288 -15.2599 0.332601 0.847525 0.413617
-20.9465 69.9225 -16.0588 0.262863 0.857759 0.43555
-20.3698 70.2361 -16.9571 0.161181 0.859172 0.477704
-20.3177 70.9701 -18.05 0.074198 0.853703 0.509804
-20.0017 71.4863 -19.0686 0.0290626 0.887937 0.459045
-19.0703 71.961 -19.6833 0.00534784 0.766829 0.641829
-18.2347 72.3183 -20.2301 0.0848134 0.742154 0.664841
-17.3323 72.8256 -20.903 0.0829525 0.738988 0.668592
-16.4738 73.7023 -22.0318 0.173334 0.73146 0.659361
-16.2655 74.5851 -22.9744 0.224817 0.672292 0.705323
-16.216 75.4208 -23.7868 0.224798 0.672293 0.705328
-16.3296 76.3681 -24.6669 0.225705 0.679194 0.698393
-16.8843 77.4639 -25.3994 0.292659 0.618971 0.728852
-17.5238 78.6767 -26.2063 0.328328 0.627534 0.704914
-17.878 79.6138 -26.7864 0.385716 0.576426 0.720386
-18.2723 80.626 -27.4807 0.338216 0.633404 0.695924
-18.7009 81.54 -28.0895 0.337489 0.626542 0.702528
-18.8381 82.4544 -28.8785 0.328007 0.647751 0.687626
-19.1227 83.4586 -29.7627 0.320801 0.692786 0.645815
-18.2973 83.067 -29.742 0.314123 0.696244 0.645423
-17.5573 82.3662 -29.4094 0.355731 0.63346 0.687156
-16.6594 81.6021 -29.1248 0.331376 0.652512 0.681482
-15.8318 80.9446 -28.9326 0.367396 0.590592 0.718485
-14.8278 79.9867 -28.6595 0.415333 0.592979 0.689837
-13.365 79.1543 -28.6889 0.419714 0.632204 0.647992
-12.1926 78.431 -28.8461 0.453389 0.637938 0.622474
-11.2914 78.0202 -29.2314 0.518401 0.666331 0.535969
-10.3141 77.5528 -29.6553 0.523917 0.729085 0.440394
-8.85141 76.9802 -30.6605 0.569662 0.738768 0.360149
-8.00841 76.7329 -31.4232 0.568983 0.768803 0.29189
-7.29343 76.5742 -32.4411 0.568948 0.777776 0.267136
-6.69749 76.4276 -33.3661 0.526579 0.822522 0.214877
-6.12703 76.3741 -34.5571 0.514315 0.832804 0.204009
-5.42091 76.241 -36.0747 0.517122 0.84179 0.154838
-4.7546 76.0643 -37.4646 0.527159 0.841512 0.117065
-4.41252 76.0092 -38.6267 0.504557 0.856733 0.106234
-3.78645 75.73 -39.4613 0.504212 0.859178 0.0865703
-3.14844 75.4324 -40.2594 0.503709 0.861556 0.0605582
-2.73351 75.2538 -41.2249 0.475853 0.877549 0.0589226
-2.1833 75.0158 -42.1249 0.484842 0.873394 0.0176562
-1.67883 74.783 -43.1286 0.459548 0.88752 0.0304069
-1.0964 74.5157 -44.071 0.430805 0.902134 0.0236835
-0.676514 74.3596 -45.4097 0.419765 0.907111 0.0307709
-0.100978 74.1464 -46.6879 0.409706 0.911388 0.0388456
0.445585 73.9422 -47.9595 0.413819 0.909952 0.0272312
0.997406 73.7106 -49.0674 0.395707 0.917966 0.00245363
1.67593 73.4339 -49.8246 0.383801 0.9234 0.00548852
2.75562 72.9883 -50.3946 0.377134 0.926151 0.0036636
4.12316 72.4575 -50.288 0.358908 0.933367 -0.0020424
5.29167 72.0181 -49.9925 0.347898 0.937348 0.0186161
6.39486 71.6113 -49.598 0.339093 0.940167 0.0331962
7.61842 71.1766 -49.4263 0.320016 0.946878 0.0318125
8.67957 70.7971 -49.1541 0.318878 0.946565 0.0482954
9.64757 70.4522 -48.786 0.322053 0.944847 0.058548
10.7109 70.074 -48.5811 0.31853 0.944541 0.0798843
11.8364 69.6556 -48.0918 0.315752 0.945553 0.0789328
12.8252 69.2909 -47.8968 0.322295 0.941249 0.100564
14.0111 68.8424 -47.3935 0.31498 0.943937 0.0988434
15.1598 68.4245 -47.0393 0.314735 0.942558 0.111923
16.3162 68.0012 -46.7268 0.314754 0.942544 0.111983
17.3087 67.6641 -46.5954 0.304171 0.945947 0.112536
18.4878 67.2225 -46.2401 0.316654 0.938996 0.134227
19.8183 66.7478 -45.9288 0.301806 0.944305 0.131157
21.1273 66.2946 -45.6642 0.302599 0.941522 0.148223
22.2689 65.9034 -45.5102 0.302609 0.941517 0.148235
23.6693 65.4536 -45.4105 0.28932 0.945504 0.149386
24.7814 65.0582 -45.1425 0.298819 0.938885 0.170889
26.136 64.5741 -44.7825 0.287624 0.942944 0.167717
27.5338 64.1062 -44.4966 0.278877 0.944475 0.173763
28.8395 63.661 -44.2288 0.284719 0.941848 0.178484
29.9497 63.2039 -43.5767 0.280201 0.941755 0.18597
30.6172 62.846 -42.7697 0.279592 0.941762 0.186848
31.1109 62.5192 -41.8962 0.275057 0.941063 0.196837
31.4417 62.2203 -40.935 0.277271 0.938362 0.206392
31.6836 61.8899 -39.7578 0.277196 0.938389 0.206369
31.8889 61.532 -38.4167 0.274561 0.937833 0.212323
31.637 61.1892 -36.5638 0.277031 0.936278 0.215893
30.7081 61.2459 -35.6339 0.277151 0.934849 0.221906
29.7183 61.4426 -35.2154 0.289323 0.930852 0.223172
28.6734 61.7329 -35.0717 0.28834 0.931485 0.221793
27.5388 62.1285 -35.2654 0.28752 0.93209 0.220321
26.2673 62.564 -35.4092 0.295066 0.930685 0.216243
24.9685 62.9824 -35.4037 0.3008 0.928268 0.218717
23.804 63.3703 -35.4399 0.306087 0.926402 0.219295
22.4887 63.7768 -35.3209 0.30614 0.926366 0.219371
21.1402 64.1236 -34.8698 0.311866 0.925333 0.215633
19.4381 64.5666 -34.2488 0.319738 0.921541 0.220288
18.3623 64.7476 -33.4541 0.318807 0.921523 0.221714
17.2236 64.9059 -32.4127 0.333424 0.916636 0.220471
16.2793 65.0115 -31.4517 0.33071 0.916604 0.224652
15.4884 65.0167 -30.3547 0.333525 0.911979 0.238863
14.9911 64.9149 -29.2703 0.333712 0.911949 0.238714
14.6117 64.6832 -27.8912 0.338516 0.906836 0.251032
14.1341 64.5751 -26.8817 0.333638 0.907937 0.253646
13.7214 64.4593 -25.9318 0.329654 0.906317 0.264419
13.275 64.2569 -24.6813 0.331759 0.905674 0.26398
12.7427 64.1387 -23.626 0.328645 0.904294 0.272476
12.3882 63.9001 -22.4032 0.328207 0.904686 0.271704
11.7758 63.7135 -21.1067 0.320755 0.903394 0.284596
11.3513 63.5071 -19.9653 0.312769 0.905339 0.287142
10.9096 63.2642 -18.7584 0.307382 0.904821 0.294645
10.3468 63.0989 -17.6612 0.306217 0.902746 0.301986
10.1284 62.8157 -16.588 0.293026 0.908696 0.297333
9.56449 62.605 -15.3875 0.289934 0.906517 0.30667
9.23862 62.2512 -14.0521 0.279153 0.909265 0.308725
8.63346 61.813 -12.2547 0.268648 0.912581 0.308044
8.37351 61.5025 -11.0753 0.26224 0.91742 0.299284
8.20653 61.0801 -9.66155 0.259634 0.916351 0.30478
7.96352 60.7929 -8.59894 0.229039 0.921479 0.313714
7.83946 60.431 -7.44248 0.228206 0.921972 0.312873
7.60157 60.1341 -6.39402 0.22889 0.923303 0.30838
7.15241 59.6521 -4.58776 0.223406 0.92473 0.308071
6.8822 59.3774 -3.54059 0.213591 0.930156 0.298643
6.5822 59.1247 -2.5388 0.204987 0.930253 0.304146
6.41145 58.8053 -1.4317 0.194562 0.935158 0.296015
6.21849 58.512 -0.378214 0.194559 0.935165 0.295995
5.76882 58.0178 1.52342 0.197395 0.93702 0.288146
5.58172 57.6646 2.82632 0.198422 0.941161 0.273578
5.55513 57.3716 3.85358 0.198435 0.941163 0.273562
5.40346 56.8133 5.92061 0.186417 0.94572 0.265958
5.30594 56.4506 7.27507 0.17111 0.946348 0.27399
5.38282 56.0915 8.59306 0.148801 0.956877 0.249488
5.32713 55.7727 9.84871 0.149308 0.957081 0.248399
5.62985 55.3614 11.2583 0.149723 0.957332 0.247182
5.63184 55.0274 12.5509 0.152687 0.958725 0.239721
5.95579 54.6956 13.7315 0.151334 0.962148 0.226646
6.05 54.4295 14.798 0.152172 0.963142 0.221756
6.4082 54.1032 15.9512 0.163345 0.96043 0.225593
6.65355 53.7842 17.1319 0.164174 0.960911 0.222908
7.05686 53.4865 18.1434 0.161636 0.962673 0.217102
7.4234 53.2045 19.12 0.173134 0.962878 0.206946
7.72335 52.9293 20.1625 0.161543 0.964631 0.208303
8.49522 52.4604 21.8883 0.157157 0.969979 0.185585
9.07996 52.176 22.8651 0.158795 0.973677 0.163512
9.42145 51.953 23.8615 0.156095 0.973561 0.166722
9.68977 51.7194 24.957 0.148422 0.975763 0.160425
9.74138 51.4858 26.4223 0.145581 0.97862 0.145161
9.47918 51.3625 27.5747 0.142646 0.980431 0.13567
9.19108 51.2605 28.66 0.123391 0.983733 0.130553
8.71267 51.1351 29.9846 0.111461 0.985361 0.128257
8.11859 51.0593 31.2121 0.110845 0.987211 0.114574
7.40267 50.9827 32.461 0.0819979 0.989586 0.117665
6.78131 50.8567 34.121 0.0807341 0.991147 0.105398
6.29297 50.779 35.2458 0.0592711 0.993736 0.0947447
5.82295 50.6728 36.5775 0.0559444 0.992897 0.105001
5.32707 50.5879 37.6447 0.0318012 0.992586 0.114412
4.94681 50.4514 38.8099 0.00157737 0.993863 0.110153
4.37886 50.3008 40.2204 -0.00606741 0.994586 0.103744
4.07553 50.2121 41.2392 -0.0392894 0.994204 0.100071
3.77795 50.0596 42.6391 -0.0392481 0.994214 0.0999943
3.42858 49.9092 44.058 -0.0404078 0.994879 0.0926448
3.12117 49.7658 45.4272 -0.0431975 0.994518 0.0952234
2.96008 49.6599 46.5021 -0.0435643 0.995279 0.0867252
2.63293 49.5555 47.5366 -0.0435355 0.995286 0.0866608
2.26325 49.4091 48.5555 -0.115995 0.985275 0.1256
1.86154 49.2301 49.5767 -0.116061 0.985082 0.127059
1.39174 49.0386 50.6322 -0.111063 0.985172 0.130628
0.765124 48.7415 52.1078 -0.171103 0.975421 0.138844
0.110219 48.4529 53.3282 -0.171103 0.975421 0.138844
-0.612449 48.2243 54.2614 -0.199342 0.97986 0.0116931
-0.839371 47.8856 56.0341 -0.255422 0.954757 0.15231
-1.29178 47.6126 56.9869 -0.255682 0.956209 0.142069
-1.21517 47.4877 58.0405 -0.262991 0.953882 0.144011
-1.43985 47.2233 59.1299 -0.21055 0.956125 0.203699
-1.39953 46.9184 60.1507 -0.195527 0.925224 0.325161
-1.10595 46.2487 61.9664 -0.191389 0.893915 0.405323
-1.05447 45.8314 62.9631 -0.217528 0.897729 0.383097
-0.102549 45.3262 64.5992 -0.218972 0.888528 0.403199
0.354022 44.9924 65.58 -0.2168 0.884327 0.411613
1.38488 44.7024 66.7265 -0.185308 0.900084 0.394347
2.05125 44.4532 67.543 -0.141562 0.889445 0.434567
2.87235 44.0818 68.6059 -0.127411 0.902372 0.411692
3.57634 43.8207 69.2961 -0.140919 0.879183 0.455169
4.47194 43.4451 70.2989 -0.140945 0.87919 0.455148
5.34324 42.9981 71.4321 -0.148165 0.876654 0.457668
6.42389 42.6006 72.457 -0.154368 0.848506 0.50617
7.32014 42.2472 73.3227 -0.154351 0.848507 0.506174
8.23242 42.0221 74.0092 -0.175286 0.857242 0.484161
9.19681 41.7595 74.8234 -0.175299 0.857257 0.48413
10.0229 41.5206 75.5033 -0.148144 0.875276 0.460374
10.8363 41.1541 76.4219 -0.146032 0.86542 0.479294
10.0711 40.5355 77.2983 -0.148488 0.863801 0.481455
8.53901 40.0991 77.5451 -0.177218 0.859505 0.479422
7.50926 39.8303 77.6202 -0.209083 0.835119 0.508171
6.55329 39.4317 77.833 -0.224047 0.825059 0.518729
5.36052 38.9935 78.0147 -0.224595 0.824862 0.518806
4.15803 38.5265 78.1299 -0.264214 0.805806 0.529969
3.00453 38.0424 78.2907 -0.262381 0.805522 0.531305
1.90823 37.4473 78.4822 -0.341358 0.770243 0.538702
0.949722 36.9753 78.5496 -0.341342 0.770277 0.538665
-0.0887626 36.5116 78.5295 -0.375528 0.745938 0.55005
-0.995931 35.8994 78.7153 -0.416514 0.7432 0.523613
-2.04465 35.3021 78.6906 -0.455465 0.716578 0.528268
-2.92116 34.6996 78.7522 -0.447638 0.735838 0.507236
-3.98786 33.9887 78.7877 -0.508223 0.718728 0.474336
-4.98051 33.349 78.6762 -0.515841 0.719366 0.465211
-6.20248 32.264 78.8644 -0.560198 0.69903 0.443956
-7.14749 31.6257 78.7137 -0.551029 0.713806 0.43226
-8.13998 30.7134 78.8371 -0.616239 0.6826 0.392818
-9.24693 29.7553 78.8025 -0.606969 0.692567 0.389795
-10.1117 28.9671 78.8925 -0.603595 0.716523 0.349591
-11.5209 27.668 79.0186 -0.623137 0.717829 0.310217
-12.6659 26.7892 78.8135 -0.630666 0.718695 0.291703
-13.903 26.0639 77.8549 -0.618694 0.740589 0.262192
-14.6922 25.5554 77.3694 -0.631468 0.733014 0.252862
-15.797 24.9923 76.2377 -0.624161 0.740415 0.249417
-16.4465 24.7555 75.3153 -0.62722 0.741161 0.239078
-16.984 24.5812 74.394 -0.641746 0.733788 0.222976
-17.5594 24.3786 73.4061 -0.641524 0.733943 0.223102
-18.5581 24.0267 71.8499 -0.62536 0.736944 0.256368
-19.3543 23.5973 71.1855 -0.617154 0.742881 0.259325
-20.4049 22.9226 70.5924 -0.584789 0.77119 0.246803
-21.6693 22.1711 70.2086 -0.554036 0.787193 0.270872
-22.7996 21.4381 70.1173 -0.510571 0.814355 0.275942
-24.2483 20.549 70.0605 -0.510628 0.814314 0.275957
-25.3383 19.9625 70.1041 -0.436028 0.855156 0.280336
-26.3682 19.532 69.8154 -0.436029 0.855155 0.280336
-27.2961 19.2724 69.1691 -0.441767 0.855553 0.269632
-28.1805 19.0249 68.4517 -0.449418 0.854922 0.259098
-29.1111 19.0587 66.9566 -0.411991 0.854886 0.315329
-28.8613 19.5307 66.0036 -0.408814 0.85148 0.328127
-28.0883 20.1198 65.4579 -0.385423 0.865236 0.318785
-26.3986 21.2419 64.4767 -0.436793 0.857694 0.271243
-25.3754 22.0258 63.8224 -0.470023 0.826769 0.30908
-24.689 22.6112 63.3008 -0.470082 0.826728 0.309103
-23.8983 23.4156 62.4824 -0.524246 0.781498 0.336699
-23.2485 24.4346 61.1982 -0.506458 0.781675 0.363984
-23.1115 25.0352 60.0952 -0.50579 0.782992 0.362077
-23.0999 25.6756 58.7264 -0.505604 0.783066 0.362176
-23.1152 26.1505 57.7713 -0.474245 0.779178 0.409846
-23.3866 26.4958 56.8 -0.474041 0.779479 0.40951
-23.5329 26.9908 55.7421 -0.529548 0.714399 0.457354
-23.7351 27.7936 54.2862 -0.4341 0.755443 0.490778
-23.7321 28.8413 53.0522 -0.478383 0.686199 0.546887
-23.3838 30.0419 51.7385 -0.509284 0.680462 0.525267
-23.0628 30.9158 51.0868 -0.515035 0.618362 0.593605
-22.6621 31.7464 50.5694 -0.515045 0.618393 0.593564
-22.1356 32.5457 50.1128 -0.560664 0.633015 0.533806
-21.2838 34.0914 49.1746 -0.56072 0.632974 0.533795
-20.6532 34.908 48.8407 -0.55644 0.656944 0.508723
-19.8184 36.1791 48.1509 -0.567103 0.6476 0.508929
-19.1319 36.9634 47.9467 -0.618531 0.635331 0.462326
-18.4934 37.7866 47.6401 -0.622453 0.65567 0.427375
-17.8211 38.6508 47.2932 -0.622435 0.655699 0.427356
-16.7581 39.9278 46.7835 -0.599409 0.680294 0.421793
-16.0956 40.7724 46.3605 -0.600103 0.683838 0.41502
-15.6131 41.5831 45.5956 -0.545645 0.742403 0.388727
-15.103 42.3717 44.8039 -0.544786 0.742921 0.388943
-14.4691 43.2194 44.1187 -0.573312 0.748099 0.330811
-13.98 44.0795 42.8075 -0.542547 0.781072 0.309144
-13.3341 44.9335 41.7836 -0.511052 0.806068 0.295424
-12.8503 45.5669 40.8066 -0.438928 0.836192 0.328824
-12.0815 46.3263 39.9136 -0.447878 0.848204 0.279718
-11.5571 46.8716 39.009 -0.415519 0.864844 0.28176
-10.8574 47.4141 38.3756 -0.39253 0.879974 0.26561
-10.6053 47.8484 37.2879 -0.366784 0.886854 0.280998
-10.3647 48.2618 36.3028 -0.342225 0.901167 0.266045
-10.4816 48.6389 34.8754 -0.342354 0.901108 0.266078
-10.8737 48.9583 33.4523 -0.301913 0.906519 0.295081
-11.548 49.2092 31.9915 -0.30186 0.906537 0.295079
-12.2855 49.3285 30.9749 -0.271095 0.909497 0.315156
-12.9583 49.425 30.1177 -0.271211 0.909466 0.315144
-13.7832 49.5233 29.1561 -0.259579 0.906974 0.331528
-14.384 49.6982 28.236 -0.259528 0.903461 0.34118
-15.1302 49.8148 27.3879 -0.247465 0.903881 0.348941
-15.3975 49.8821 27.0241 -0.247464 0.903884 0.348935
29.1521 62.4741 -38.964 0.281181 0.936759 0.208375
27.6258 63.2878 -40.5589 0.291632 0.935389 0.199997
26.2771 64.0029 -41.974 0.291153 0.938653 0.184827
23.3128 65.0361 -42.446 0.302641 0.93633 0.17803
25.3162 63.9662 -40.3368 0.297762 0.934075 0.197086
26.9756 63.0637 -38.5978 0.289202 0.934444 0.207792
27.6458 62.7006 -37.8975 0.2892 0.934444 0.207791
24.6522 63.7622 -38.3941 0.298447 0.932642 0.20275
23.1264 64.6035 -39.9964 0.305183 0.932171 0.194732
21.5813 65.4418 -41.6252 0.307598 0.933527 0.184146
20.2278 66.1546 -43.0565 0.309455 0.934075 0.178162
17.3138 67.2042 -43.5005 0.323771 0.932373 0.160787
18.9046 66.3603 -41.8071 0.313835 0.932483 0.17884
20.6408 65.417 -39.9735 0.311599 0.931292 0.188685
22.3252 64.4803 -38.2035 0.305095 0.930337 0.203447
20.4003 64.997 -37.5959 0.31687 0.926298 0.203877
18.8365 65.8804 -39.2403 0.323223 0.926883 0.190828
17.1852 66.795 -40.9832 0.324316 0.929632 0.174936
15.5497 67.6725 -42.7207 0.311097 0.937228 0.157553
14.2454 68.3366 -44.1125 0.31698 0.9398 0.127671
10.8053 69.7072 -45.1555 0.336486 0.934996 0.112065
12.3705 68.9156 -43.4534 0.335327 0.932265 0.135784
14.1272 67.9829 -41.5713 0.330906 0.93234 0.145752
15.8916 67.0085 -39.7059 0.325896 0.929386 0.173299
17.7425 65.958 -37.7642 0.324723 0.924687 0.198771
18.6641 65.4176 -36.8069 0.321596 0.924373 0.205211
16.9833 65.827 -35.9569 0.334726 0.920681 0.200762
15.1724 66.8834 -37.837 0.329746 0.923656 0.195261
13.4083 67.8934 -39.6832 0.348751 0.922368 0.166162
11.8169 68.7953 -41.3751 0.348789 0.926577 0.140718
9.73655 69.9042 -43.6309 0.3479 0.930369 0.115665
8.00399 70.7677 -45.542 0.349644 0.932377 0.0917731
6.92451 71.2777 -46.7448 0.344483 0.936534 0.0650732
4.0238 72.4067 -47.3106 0.37057 0.92788 0.0414237
5.49596 71.7408 -45.6313 0.37576 0.92397 0.0712932
6.99299 70.9978 -43.9551 0.360511 0.928104 0.0930351
8.71759 70.0893 -42.0503 0.35388 0.926564 0.127464
10.2577 69.2213 -40.3797 0.360835 0.918148 0.163712
12.2088 68.0863 -38.313 0.345509 0.920597 0.182003
13.8427 67.1182 -36.6202 0.352377 0.916058 0.191488
15.6679 66.0264 -34.7346 0.331981 0.917612 0.218581
14.4747 66.1476 -33.3817 0.33997 0.91592 0.213331
12.9457 67.0968 -34.9543 0.346415 0.914961 0.206985
11.4586 68.0083 -36.4824 0.368025 0.909719 0.192275
9.55853 69.1546 -38.4636 0.359761 0.917018 0.172192
7.75014 70.2273 -40.4051 0.385269 0.909589 0.155615
5.79769 71.3189 -42.557 0.391875 0.912476 0.117562
4.03905 72.2491 -44.54 0.375766 0.923968 0.0712937
2.43451 73.0176 -46.4104 0.379935 0.924152 0.0399015
1.67087 73.2469 -44.5381 0.402281 0.914013 0.0524483
3.15954 72.4612 -42.7743 0.413686 0.906422 0.0852234
4.81344 71.5349 -40.8987 0.402525 0.907412 0.120735
6.60045 70.4701 -38.9431 0.39235 0.906129 0.158087
8.50509 69.2883 -36.929 0.383473 0.905169 0.183349
10.3378 68.1384 -35.043 0.370454 0.905585 0.206592
11.9025 67.1412 -33.4356 0.356234 0.908179 0.219789
13.5118 66.1212 -31.7962 0.344768 0.911084 0.225968
12.6149 66.0393 -30.1463 0.349255 0.905557 0.240805
11.1161 67.0101 -31.6497 0.35943 0.903148 0.234804
9.32288 68.2046 -33.4962 0.376702 0.901343 0.21372
7.45314 69.4271 -35.3705 0.3915 0.899609 0.193472
5.5668 70.6574 -37.3383 0.406341 0.898579 0.165657
3.79314 71.7901 -39.2597 0.418905 0.898552 0.130855
2.27775 72.7042 -41.0098 0.422471 0.901243 0.0963316
0.760507 73.5629 -42.8419 0.425376 0.903036 0.0598394
0.746027 73.5709 -42.8597 0.42538 0.903035 0.059839
-0.193465 73.9038 -41.181 0.448982 0.890552 0.0730212
1.34623 72.9364 -39.2726 0.448296 0.888205 0.100615
2.89169 71.9192 -37.5023 0.433412 0.889862 0.142476
4.50617 70.8227 -35.7697 0.413789 0.892388 0.180064
6.46986 69.4874 -33.7689 0.395934 0.894607 0.207157
8.15655 68.3445 -32.0926 0.374149 0.897782 0.232377
9.70958 67.2824 -30.5024 0.376376 0.896493 0.233755
11.5595 66.052 -28.6644 0.347822 0.901304 0.258209
11.9624 65.7828 -28.2701 0.34814 0.900402 0.260914
10.8792 65.7836 -26.8283 0.337908 0.902022 0.268652
9.30099 66.8511 -28.3899 0.360597 0.894776 0.263336
7.53302 68.0914 -30.1114 0.374551 0.89718 0.234052
5.36899 69.6183 -32.23 0.397772 0.890238 0.221934
3.37061 71.0425 -34.2493 0.416257 0.887656 0.196971
1.58403 72.3435 -36.1746 0.437227 0.884125 0.16479
0.0405363 73.4438 -38.0334 0.455022 0.881999 0.122611
-1.16807 74.2591 -39.5457 0.477026 0.873567 0.0965751
-2.15753 74.6105 -37.9006 0.486114 0.866301 0.114964
-0.804706 73.5984 -36.1977 0.463875 0.872828 0.151629
0.706456 72.409 -34.3931 0.463703 0.865717 0.188451
2.17395 71.2825 -32.8131 0.442141 0.869612 0.219742
4.05378 69.8666 -30.9397 0.421518 0.870483 0.25413
6.3139 68.2187 -28.7877 0.387925 0.880796 0.2715
8.20429 66.8792 -26.9836 0.360598 0.894775 0.263337
9.83163 65.7615 -25.4196 0.353396 0.893729 0.276332
10.2929 65.451 -24.9765 0.337435 0.902137 0.268862
9.77487 65.0504 -23.0426 0.328196 0.899721 0.287733
7.64879 66.5075 -25.0832 0.3433 0.895427 0.283473
6.08719 67.6209 -26.5272 0.366831 0.881633 0.296914
4.37811 68.8843 -28.1167 0.378937 0.876468 0.297004
2.45126 70.3456 -29.9239 0.420922 0.870659 0.254516
0.81971 71.6443 -31.5427 0.439812 0.856725 0.269421
-0.587522 72.7792 -33.0676 0.468052 0.856846 0.216199
-2.21672 74.1483 -35.0129 0.481595 0.858721 0.175113
-2.85107 74.6575 -35.8207 0.490669 0.855393 0.165971
-3.83525 74.859 -34.0363 0.49102 0.847683 0.200829
-2.4792 73.6803 -32.4271 0.46905 0.8524 0.2311
-0.996185 72.3823 -30.7886 0.468393 0.84553 0.256296
0.418653 71.1361 -29.312 0.429398 0.849383 0.306863
1.90644 69.9555 -27.9366 0.411468 0.861635 0.297118
3.67396 68.5726 -26.2985 0.378613 0.876856 0.29627
5.28664 67.3846 -24.8364 0.372567 0.879455 0.296231
6.88718 66.2553 -23.3799 0.338831 0.890008 0.305089
8.39726 65.2025 -21.9123 0.330631 0.893919 0.302642
9.17005 64.6686 -21.1799 0.322419 0.897247 0.30165
7.92285 64.7043 -19.9345 0.310738 0.894841 0.320471
6.13562 65.9403 -21.6077 0.333924 0.89295 0.301885
4.30123 67.2472 -23.3146 0.352906 0.883046 0.309334
2.30764 68.7308 -25.1224 0.377163 0.863582 0.334625
0.602093 70.117 -26.6751 0.40446 0.855828 0.322446
-1.00648 71.4648 -28.1862 0.423513 0.844904 0.326763
-2.5116 72.8483 -29.7195 0.451573 0.838094 0.306073
-3.92662 74.1465 -31.2493 0.469388 0.842722 0.26362
-4.72305 74.8676 -32.1597 0.484699 0.840218 0.243105
-5.87604 74.9982 -30.5737 0.485154 0.826777 0.28472
-4.3916 73.5565 -28.9972 0.440165 0.833722 0.333411
-3.02894 72.2433 -27.6137 0.434364 0.821121 0.370254
-1.49276 70.8701 -26.1568 0.405118 0.844969 0.349152
-0.0165621 69.6499 -24.8112 0.376548 0.858325 0.348555
1.98597 68.0738 -23.0278 0.358449 0.866579 0.347209
3.77273 66.7428 -21.4092 0.327765 0.882854 0.33636
5.4811 65.5341 -19.838 0.308358 0.891772 0.331146
7.20255 64.3597 -18.2523 0.309024 0.899083 0.310087
7.70929 64.0271 -17.793 0.309026 0.899083 0.310086
6.98346 63.6632 -16.1236 0.284474 0.902547 0.323238
5.08907 64.8963 -17.8347 0.289929 0.89322 0.343657
2.95107 66.413 -19.7962 0.299284 0.881342 0.365604
1.41573 67.5413 -21.1901 0.322472 0.869873 0.373274
-0.308752 68.8483 -22.732 0.336675 0.866148 0.369374
-1.99208 70.199 -24.2259 0.347222 0.853555 0.388434
-3.44554 71.4391 -25.5422 0.378776 0.827159 0.415134
-4.86058 72.8032 -26.8393 0.401841 0.815736 0.416051
-6.64058 74.603 -28.5502 0.42315 0.801296 0.42293
-7.25572 75.2134 -29.1538 0.478545 0.80316 0.354864
-9.08832 75.7912 -28.1527 0.484284 0.755974 0.440422
-7.63168 74.2474 -26.9011 0.3954 0.772502 0.49689
-5.93785 72.5327 -25.3655 0.350651 0.808841 0.472039
-4.1068 70.8502 -23.765 0.370473 0.815219 0.445159
-2.59789 69.5885 -22.422 0.320776 0.843181 0.43145
-0.655323 68.0589 -20.6868 0.305237 0.867173 0.393498
1.1024 66.7654 -19.1042 0.310955 0.876954 0.366414
2.66662 65.6513 -17.6925 0.295562 0.886694 0.355553
4.54439 64.3856 -15.9998 0.26552 0.896295 0.355183
6.18667 63.3343 -14.5086 0.266699 0.904161 0.333713
5.58029 62.8501 -12.7189 0.247927 0.91064 0.330557
3.42573 64.1961 -14.6853 0.260424 0.897737 0.355313
1.23693 65.645 -16.6689 0.269917 0.882238 0.385747
-0.507419 66.8682 -18.2191 0.281558 0.870704 0.403237
-2.19528 68.106 -19.7095 0.278712 0.852578 0.442076
-4.30689 69.7754 -21.585 0.281287 0.850303 0.444817
-5.85509 71.09 -22.9323 0.33781 0.812395 0.475288
-7.31286 72.4615 -24.191 0.363123 0.802299 0.473769
-8.822 73.9581 -25.4896 0.394022 0.776655 0.491481
-10.5388 75.7857 -26.8759 0.429971 0.741801 0.514642
-11.0083 76.3301 -27.2482 0.426981 0.733124 0.529355
-13.2766 77.0213 -26.5395 0.353412 0.689605 0.632095
-11.7232 75.3306 -25.4317 0.324898 0.74332 0.584736
