-6.14507 51.2971 57.0319 -0.30377 0.939288 0.15957
-5.88168 51.1178 58.271 -0.26515 0.942931 0.201434
-5.67114 50.7947 59.771 -0.229778 0.933634 0.274827
-5.67904 50.4067 61.0261 -0.242701 0.918653 0.311621
-5.80792 49.8429 62.5519 -0.236419 0.917513 0.319794
-6.31883 49.2559 63.5069 -0.283065 0.866902 0.410311
-6.64572 48.6776 64.5033 -0.270612 0.872429 0.406742
-5.88036 48.3568 65.6682 -0.284459 0.859732 0.424197
-4.55624 48.5645 66.1352 -0.284459 0.859732 0.424197
-3.35443 48.624 66.9701 -0.317926 0.862199 0.394381
-2.28886 48.7173 67.6251 -0.298144 0.871988 0.387575
-1.31727 48.4694 68.6801 -0.219842 0.879985 0.421064
-0.719253 48.066 69.783 -0.313155 0.799099 0.512236
-0.523912 47.2305 71.0245 -0.249803 0.780117 0.5736
-0.47461 46.2649 72.4245 -0.246269 0.798934 0.548686
-0.679579 45.5332 73.4385 -0.278345 0.79223 0.542101
-1.00099 44.7169 74.348 -0.345257 0.737383 0.580572
-1.26541 43.8185 75.3318 -0.345099 0.739353 0.578146
-1.80898 42.9316 76.1481 -0.344942 0.741325 0.57572
-2.66799 41.9692 76.8073 -0.372081 0.72263 0.582548
-3.52926 41.0962 77.3374 -0.395351 0.702247 0.591258
-4.42283 40.4059 77.5002 -0.41862 0.683077 0.598467
-5.5527 39.506 77.6944 -0.456411 0.682505 0.570855
-6.7183 38.8009 77.4049 -0.530573 0.620917 0.577022
-8.20736 38.3893 76.4786 -0.530568 0.620912 0.577032
-9.2343 38.3308 75.3804 -0.640876 0.551998 0.533457
-10.119 38.3388 74.3094 -0.653 0.553318 0.516721
-10.6952 38.593 73.2608 -0.665124 0.554638 0.499987
-11.4142 38.6567 72.1189 -0.793371 0.427579 0.433248
-12.1801 38.0418 71.309 -0.789441 0.384983 0.473899
-12.9095 36.9556 70.9197 -0.865684 0.359143 0.348493
-13.6859 35.6605 70.2652 -0.876622 0.348354 0.33194
-14.4974 34.41 69.4604 -0.872423 0.424371 0.24246
-15.2745 33.4479 68.4274 -0.858442 0.448262 0.249238
-15.9472 32.9003 67.099 -0.85056 0.464338 0.246784
-16.4981 32.4602 65.9994 -0.846015 0.473028 0.245703
-17.0345 32.1667 64.8893 -0.83046 0.479266 0.283974
-17.6919 32.0444 63.3158 -0.781154 0.538209 0.316432
-18.1591 32.0096 62.2604 -0.767607 0.538086 0.3482
-18.8002 32.3067 60.4809 -0.733791 0.562581 0.380858
-19.177 32.6123 59.3212 -0.721127 0.554421 0.415025
-19.4278 33.1782 58.1703 -0.715302 0.554065 0.425858
-19.5854 34.269 56.6522 -0.689202 0.539063 0.4833
-19.7879 35.0263 55.5764 -0.679079 0.533777 0.503919
-19.8392 36.2168 54.2299 -0.678717 0.539879 0.497857
-19.3749 37.6744 53.3372 -0.712221 0.515143 0.476606
-19.0786 38.7172 52.6139 -0.724801 0.503607 0.469438
-18.6317 39.8055 52.0532 -0.716852 0.541144 0.439303
-18.1837 40.7971 51.5688 -0.732198 0.531733 0.425613
-17.7135 41.6526 51.22 -0.734857 0.558229 0.383569
-17.2503 41.6768 52.119 -0.754294 0.528612 0.38934
-16.5478 42.8672 51.8504 -0.739489 0.573681 0.348658
-15.703 44.066 51.4913 -0.748184 0.598443 0.282544
-15.0751 45.0214 51.2181 -0.759491 0.602663 0.243319
-13.5946 46.6372 51.4356 -0.738811 0.639289 0.21323
-12.6766 47.4806 51.7036 -0.648266 0.745413 0.155099
-11.6456 48.3545 52.0533 -0.670919 0.735624 0.0934078
-10.7574 49.1099 52.2626 -0.64657 0.761154 0.0492075
-9.84407 49.7885 52.9299 -0.562763 0.823543 0.0530422
-8.7102 50.4551 53.7127 -0.518745 0.85469 0.0128585
-8.11308 50.718 54.7472 -0.454668 0.889237 0.0503479
-7.62043 50.9268 55.7741 -0.366917 0.928179 0.0620908
-7.04803 50.9802 57.141 -0.315269 0.934865 0.163197
-6.87137 50.8375 58.3324 -0.283471 0.941902 0.176716
-6.74829 50.4789 59.9433 -0.238021 0.926879 0.289667
-6.77923 50.0977 61.0702 -0.246263 0.920125 0.304508
-6.81003 49.7015 62.207 -0.265003 0.891046 0.363893
-7.23553 49.1285 63.1437 -0.270612 0.872428 0.406743
-7.36138 48.6111 64.1898 -0.258159 0.877956 0.403172
-7.84367 47.9393 65.1868 -0.262274 0.848102 0.460365
-8.23284 47.1855 66.2149 -0.31945 0.823712 0.468456
-7.05017 47.4067 66.658 -0.335705 0.821584 0.460763
-5.76845 47.8602 66.7497 -0.297256 0.853855 0.42704
-4.31756 48.045 67.4595 -0.31833 0.838498 0.439323
-2.89686 48.171 68.1825 -0.318734 0.814799 0.484263
-1.91439 47.6458 69.7079 -0.313157 0.799097 0.512238
-1.3921 46.8478 71.1668 -0.279559 0.781727 0.556386
-1.42328 46.1776 72.1179 -0.318061 0.779678 0.539388
-1.60132 45.3745 73.1477 -0.359698 0.737981 0.570964
-1.96353 44.5588 73.9764 -0.352586 0.738075 0.575191
-2.3081 43.5533 75.0486 -0.345099 0.739353 0.578146
-3.10866 42.5421 75.8152 -0.37208 0.72263 0.582548
-3.92441 41.6744 76.3705 -0.372438 0.722652 0.582292
-4.95862 40.7701 76.6579 -0.456383 0.682522 0.570858
-5.95519 40.0242 76.753 -0.456447 0.682483 0.570853
-7.2112 39.3457 76.3655 -0.530568 0.620912 0.577032
-8.17088 39.2619 75.5363 -0.551296 0.624462 0.553281
-8.97751 39.3363 74.6485 -0.5961 0.588224 0.543361
-9.9479 39.5656 73.176 -0.673126 0.510131 0.532509
-10.6182 39.6898 72.2657 -0.681124 0.465631 0.565029
-11.4233 40.0724 71.122 -0.695938 0.403053 0.580817
-12.1509 39.2569 70.5534 -0.783737 0.339763 0.519914
-12.9112 37.6308 70.3365 -0.862814 0.298321 0.408108
-13.5793 36.4484 69.6548 -0.899091 0.319985 0.295805
-14.282 35.2605 68.8337 -0.908773 0.333073 0.251386
-14.8211 34.4997 68.1668 -0.88081 0.40873 0.238545
-15.4277 33.9019 67.0823 -0.861836 0.440308 0.251728
-16.0557 33.3438 65.785 -0.843866 0.486554 0.226177
-16.7441 32.958 64.3043 -0.819675 0.509025 0.262655
-17.2626 32.8691 63.0023 -0.792328 0.523712 0.312956
-17.7458 32.8055 61.8738 -0.753104 0.578322 0.313654
-18.1632 33.112 60.5094 -0.731706 0.564517 0.382002
-18.5816 33.3411 59.3715 -0.721382 0.560541 0.40588
-18.7719 33.9136 58.3125 -0.707422 0.563659 0.426366
-18.863 34.6308 57.3209 -0.700478 0.542411 0.463811
-18.9637 35.3413 56.3797 -0.697512 0.527413 0.485091
-19.1588 36.1155 55.2689 -0.696969 0.521758 0.491937
-18.8709 37.3426 54.419 -0.707563 0.503419 0.495797
-18.5592 38.5436 53.6021 -0.724801 0.503604 0.46944
-18.2526 39.5067 53.0221 -0.736428 0.513538 0.439971
-17.6638 40.8415 52.4333 -0.742772 0.532376 0.406037
-17.4882 41.2179 52.286 -0.765093 0.514585 0.386575
0.243347 45.6274 73.7748 -0.27834 0.79223 0.542102
-0.186627 44.3759 75.2654 -0.315291 0.755178 0.573616
-0.703064 43.243 76.4098 -0.344942 0.741324 0.575721
-1.38573 42.2901 77.2268 -0.292679 0.754929 0.585859
-2.54857 41.1498 77.8959 -0.372081 0.721418 0.584048
-3.67466 40.1808 78.2804 -0.41862 0.683078 0.598467
-4.78134 39.3549 78.4491 -0.420057 0.690051 0.589276
-3.54483 39.675 78.9628 -0.421494 0.697026 0.580084
-2.30365 40.304 79.0935 -0.382804 0.706846 0.594734
-1.26411 41.033 78.8678 -0.376608 0.721438 0.581114
0.140605 41.7082 78.8272 -0.265044 0.769651 0.579894
1.47808 42.2344 78.6932 -0.236557 0.763879 0.600431
3.07597 42.8707 78.5031 -0.232906 0.766011 0.599149
4.47541 43.2905 78.384 -0.157816 0.805101 0.570708
6.13082 43.777 78.1974 -0.166972 0.819945 0.547418
7.226 44.7623 76.9629 -0.128865 0.83058 0.541407
6.17199 45.4566 75.713 -0.116076 0.822592 0.556654
4.97268 46.1644 74.4443 -0.108314 0.817492 0.565663
4.08724 46.7154 73.4635 -0.104914 0.849868 0.515288
3.21079 47.091 72.56 -0.1336 0.864066 0.485326
2.08497 47.4171 71.6695 -0.13132 0.860759 0.491724
0.535289 47.7039 70.7895 -0.12229 0.857013 0.500573
0.601951 47.0943 71.7001 -0.248036 0.789526 0.561141
0.287495 45.7689 73.576 -0.271354 0.811492 0.51754
-3.11798 49.4795 65.2538 -0.27779 0.88266 0.379132
-3.67625 49.8799 63.8354 -0.226981 0.9059 0.357525
-3.9928 50.2893 62.5971 -0.23034 0.911872 0.339191
-4.04499 50.9341 60.755 -0.242146 0.911786 0.331679
-4.80292 50.158 62.3826 -0.2337 0.917843 0.320857
-5.41939 49.411 63.8013 -0.283723 0.866836 0.409995
-5.00107 48.9805 64.9938 -0.284459 0.859732 0.424197
-3.74047 49.2333 65.3268 -0.301192 0.860966 0.409289
-3.12051 49.1993 65.9009 -0.298144 0.871988 0.387575
3.89758 58.8481 15.281 0.21104 0.949474 0.232105
4.43298 58.4149 16.5135 0.219295 0.944496 0.244615
4.68928 57.971 18.0043 0.212798 0.945997 0.244553
4.99942 57.5695 19.2999 0.207017 0.947857 0.242304
4.32883 57.3253 20.7632 0.192729 0.947789 0.254069
3.15542 57.0878 22.3468 0.133072 0.960035 0.246222
2.3788 56.9422 23.3908 0.101801 0.970945 0.215464
1.37725 56.8435 24.1895 0.0841524 0.970945 0.223977
-0.144029 56.7262 25.1156 0.0348005 0.976498 0.211837
-1.83116 56.6032 25.8182 0.0148322 0.977757 0.209213
-3.73615 56.4842 26.1018 -0.0452406 0.970036 0.237762
-4.98863 56.3784 26.095 -0.0896414 0.965722 0.243611
-6.44995 56.3055 25.7691 -0.125376 0.960631 0.24793
-7.85562 56.3235 24.9899 -0.125052 0.960597 0.248223
-9.26601 56.4282 23.8162 -0.158288 0.948419 0.274676
-9.98483 56.6267 22.7202 -0.160709 0.946841 0.278685
-10.4007 56.8896 21.5869 -0.1577 0.946007 0.283145
-10.4019 57.3191 20.1674 -0.153565 0.946053 0.28531
-10.1875 57.7477 18.9027 -0.143188 0.943067 0.300204
-9.81735 58.2419 17.5434 -0.129496 0.940742 0.313425
-9.09576 58.6808 16.4898 -0.119091 0.94516 0.304121
-8.11206 59.1602 15.3709 -0.0901212 0.94528 0.313565
-7.35205 59.5368 14.4527 -0.0825453 0.946693 0.311301
-6.23576 59.9658 13.4111 -0.0637929 0.950797 0.302904
-5.07032 60.2455 12.7202 -0.0518531 0.95381 0.295897
-4.0554 60.4819 12.0906 -0.0214204 0.960519 0.276332
-2.24752 60.5358 11.8393 0.0206519 0.968959 0.246359
-0.934618 60.4989 11.7402 0.0668415 0.970382 0.232145
0.448288 60.2637 12.1048 0.145718 0.958684 0.244319
1.50596 59.9276 12.7542 0.153513 0.954967 0.253912
2.96248 59.436 13.6776 0.191588 0.955926 0.222484
3.76526 58.9663 14.9265 0.20567 0.948782 0.239817
3.93354 58.9211 14.9612 0.20567 0.948782 0.239817
2.82654 59.0596 15.418 0.203961 0.953268 0.222513
3.3177 58.6673 16.5463 0.231531 0.938108 0.25758
3.6641 58.1562 18.1672 0.217576 0.942506 0.253661
3.66893 57.7878 19.5732 0.197045 0.945105 0.259946
3.04701 57.5784 20.6987 0.106235 0.945342 0.308291
2.17297 57.297 22.0617 0.116034 0.961479 0.248587
1.37074 57.1195 23.0428 0.0940711 0.960762 0.260936
0.0960791 57.006 23.7989 0.0442539 0.968125 0.246003
-1.14267 56.8912 24.4205 0.0158619 0.977728 0.209277
-2.47546 56.8062 24.9114 0.0138121 0.977789 0.209138
-3.76477 56.7347 25.0401 -0.0653162 0.970817 0.230755
-5.31519 56.6331 24.9648 -0.0956018 0.965842 0.240763
-6.4386 56.6104 24.6269 -0.119229 0.951171 0.284332
-7.72346 56.6219 23.9832 -0.132414 0.94876 0.286917
-8.56995 56.7381 23.1548 -0.153737 0.948767 0.276055
-9.32751 56.9871 21.8753 -0.162994 0.945984 0.280264
-9.47347 57.3379 20.565 -0.128278 0.950067 0.28446
-9.21266 57.8233 19.0925 -0.132414 0.946195 0.295266
-8.68484 58.2756 17.9101 -0.124294 0.942951 0.308773
-7.72357 58.8651 16.3923 -0.093917 0.948628 0.302135
-6.69156 59.3872 15.1164 -0.0969895 0.948941 0.299984
-5.75546 59.7691 14.1554 -0.0692912 0.956785 0.282022
-4.5898 60.0197 13.5474 -0.0577852 0.954547 0.292405
-3.58529 60.2577 12.93 -0.0343412 0.962508 0.268752
-1.86341 60.2734 12.8357 0.0180988 0.967521 0.252065
-0.355047 60.156 13.0067 0.10628 0.964533 0.238232
0.75258 59.8413 13.5345 0.147883 0.963339 0.221219
1.94535 59.5302 14.168 0.197012 0.95546 0.219733
2.59525 59.2417 14.8295 0.194019 0.954316 0.227124
7.2246 75.6799 -43.2677 0.333635 0.937595 0.0980021
6.17696 75.9372 -42.0867 0.361549 0.926333 0.105784
4.88228 76.2884 -40.6032 0.381056 0.91766 0.112677
4.36095 76.4347 -39.9974 0.389583 0.914397 0.110016
3.88403 76.393 -38.1352 0.400168 0.907006 0.131174
4.97504 76.1023 -39.4 0.386655 0.912908 0.130756
5.92292 75.8459 -40.493 0.370929 0.921366 0.116171
7.03059 75.5613 -41.7552 0.366098 0.924315 0.107768
8.45684 75.2437 -43.3462 0.342727 0.931278 0.123529
8.72884 75.1897 -43.6469 0.319337 0.938327 0.132537
9.97121 74.775 -43.7282 0.3218 0.935897 0.143321
8.70831 75.0177 -42.3365 0.341996 0.931573 0.123334
7.55718 75.2707 -41.0518 0.354814 0.927743 0.115756
6.07457 75.6305 -39.3697 0.382768 0.913566 0.137424
4.99605 75.9091 -38.1263 0.394442 0.90737 0.145241
3.98312 76.1583 -36.9585 0.405816 0.901464 0.150588
3.21977 76.3453 -36.0724 0.402119 0.901489 0.160058
3.02907 76.1447 -34.5739 0.416045 0.891272 0.180392
4.02692 75.9179 -35.7268 0.410701 0.894654 0.175837
4.98986 75.6947 -36.8347 0.39631 0.903961 0.160602
6.12389 75.429 -38.1325 0.385281 0.911214 0.145768
7.25978 75.1538 -39.4254 0.375159 0.915932 0.142561
8.69179 74.8505 -41.0275 0.345431 0.928111 0.138877
9.74993 74.6185 -42.2092 0.331931 0.933832 0.133338
10.7889 74.4352 -43.3451 0.325617 0.934456 0.144101
11.3867 74.326 -44.0012 0.32343 0.933915 0.152301
12.1145 73.9972 -43.5231 0.317405 0.934745 0.159708
10.3904 74.3099 -41.6323 0.325614 0.934457 0.1441
8.71517 74.6334 -39.7802 0.348777 0.924403 0.154379
7.10961 74.9918 -37.9705 0.36747 0.916839 0.156114
5.82241 75.2694 -36.5136 0.396074 0.902175 0.170895
4.77546 75.5012 -35.3161 0.395399 0.901648 0.175189
3.70938 75.7361 -34.0883 0.409956 0.893364 0.183947
3.05584 75.8768 -33.3354 0.411273 0.887522 0.207748
2.71786 75.6516 -31.6972 0.422392 0.8777 0.226335
3.79415 75.449 -32.9236 0.406354 0.891456 0.200457
4.77091 75.241 -34.0463 0.399727 0.896378 0.191636
5.81877 75.0286 -35.2384 0.397579 0.899049 0.183419
6.81728 74.8167 -36.3707 0.376056 0.911332 0.1675
8.07429 74.5631 -37.7814 0.371397 0.912228 0.172929
9.25305 74.3171 -39.1018 0.356118 0.922835 0.14682
10.3268 74.1096 -40.2899 0.350658 0.923607 0.154886
11.8138 73.8519 -41.9191 0.331819 0.93024 0.156683
13.0712 73.6328 -43.292 0.309613 0.936926 0.162203
13.4239 73.5858 -43.6703 0.301799 0.93904 0.164688
14.5716 73.2078 -43.6383 0.310586 0.936191 0.164565
13.4549 73.3599 -42.4415 0.31166 0.933994 0.174709
12.3403 73.5369 -41.2298 0.334163 0.927338 0.168462
11.3522 73.6975 -40.1534 0.342431 0.925527 0.161684
9.84908 73.9798 -38.4932 0.359768 0.916713 0.173795
8.75053 74.1911 -37.271 0.371394 0.912229 0.172928
7.56545 74.4293 -35.9422 0.376056 0.911332 0.167499
6.58531 74.6085 -34.8498 0.387951 0.900832 0.194922
5.05416 74.9142 -33.1086 0.397126 0.897812 0.190325
3.79622 75.1468 -31.6836 0.408421 0.885439 0.221789
2.75786 75.3153 -30.5133 0.412654 0.880502 0.233309
1.9337 75.4537 -29.5727 0.413489 0.871755 0.26281
-9.78145 77.3352 -22.1297 0.241688 0.716115 0.654802
-10.7915 77.0324 -21.4257 0.231695 0.720001 0.654153
-10.5502 76.3852 -20.7461 0.179404 0.773377 0.608032
-9.08423 76.8165 -21.7776 0.221078 0.778642 0.587232
-8.85096 76.8735 -21.9559 0.268195 0.780318 0.564956
-7.35788 76.5252 -22.2297 0.307487 0.781181 0.543331
-8.38914 76.308 -21.4122 0.257388 0.770638 0.582983
-9.86288 75.8934 -20.3392 0.174278 0.760825 0.625118
-10.501 75.6808 -19.9025 0.142304 0.755675 0.639301
-10.3149 75.02 -19.154 0.105328 0.764127 0.636408
-9.1202 75.449 -19.9465 0.166158 0.788388 0.592315
-7.79342 75.8039 -20.9402 0.222724 0.811096 0.540849
-6.53421 76.046 -21.9722 0.286127 0.806596 0.517237
-5.9263 76.1491 -22.4848 0.326123 0.810511 0.486534
-4.08965 75.758 -23.176 0.350527 0.817194 0.457521
-5.17135 75.6588 -22.1742 0.326127 0.810507 0.486539
-6.29828 75.4748 -21.212 0.297205 0.803567 0.515703
-7.56596 75.2256 -20.171 0.239641 0.80729 0.53931
-8.83289 74.8571 -19.2428 0.166475 0.781025 0.601902
-10.0486 74.4014 -18.4466 0.101395 0.770594 0.629208
-10.8286 74.0863 -17.9461 0.099163 0.77777 0.620677
-10.9062 73.3254 -16.9802 0.0991631 0.77777 0.620677
-9.70715 73.8141 -17.7841 0.0960155 0.77309 0.626987
-8.50624 74.2545 -18.5872 0.147604 0.763691 0.628482
-7.36361 74.6163 -19.4023 0.221951 0.791747 0.5691
-6.28492 74.8735 -20.2494 0.262869 0.820367 0.507836
-4.95468 75.1054 -21.374 0.299094 0.825582 0.478494
-3.85536 75.2214 -22.3793 0.341509 0.831638 0.437893
-2.89274 75.2832 -23.3025 0.368123 0.839843 0.398936
-1.76694 75.3236 -24.4174 0.390486 0.836395 0.384661
-0.72699 75.2915 -25.5072 0.387359 0.853022 0.349724
0.398234 75.2291 -26.7012 0.39716 0.863674 0.310373
1.51463 75.1262 -27.9141 0.408818 0.865715 0.2888
2.77148 74.9787 -29.3036 0.396591 0.879035 0.264598
4.15268 74.7734 -30.8493 0.404411 0.88591 0.22719
5.3185 74.5709 -32.1645 0.39782 0.889897 0.22321
6.22797 74.4149 -33.1828 0.394521 0.899235 0.189021
7.10124 74.2405 -34.1759 0.387951 0.900832 0.194922
8.78643 73.9447 -36.047 0.378762 0.906982 0.184181
10.4491 73.631 -37.895 0.362355 0.916255 0.170808
11.6788 73.4126 -39.2471 0.352764 0.91894 0.176372
12.6497 73.249 -40.3089 0.347982 0.9207 0.176691
14.1022 73.0285 -41.881 0.316857 0.930378 0.184388
15.1095 72.8972 -42.9581 0.320491 0.930136 0.179256
15.5269 72.8367 -43.4076 0.318071 0.93176 0.175085
16.6287 72.4535 -43.3299 0.313772 0.933641 0.172805
15.5259 72.5961 -42.1507 0.31254 0.931763 0.18476
14.616 72.7139 -41.1782 0.316361 0.930374 0.185257
13.7129 72.8291 -40.2146 0.33222 0.925672 0.181001
12.7332 72.9939 -39.1441 0.348161 0.920703 0.176323
11.4561 73.2097 -37.7446 0.352767 0.91894 0.176367
10.5476 73.3767 -36.7395 0.366445 0.911936 0.184638
9.41064 73.5674 -35.4892 0.370615 0.907386 0.198228
8.48834 73.7215 -34.4684 0.370787 0.907359 0.198031
7.20569 73.9546 -33.0341 0.394733 0.895088 0.207373
6.05875 74.1396 -31.7572 0.394812 0.890622 0.225646
5.04932 74.3095 -30.6231 0.399661 0.886371 0.233704
3.82577 74.4885 -29.2618 0.401665 0.879764 0.254324
2.56588 74.6392 -27.8726 0.392866 0.87651 0.278183
1.56934 74.7273 -26.7953 0.392136 0.873041 0.289877
0.6055 74.7957 -25.7648 0.397728 0.862842 0.311955
-0.684915 74.8446 -24.4154 0.371217 0.860955 0.347784
-1.63812 74.8249 -23.4649 0.350283 0.852157 0.388755
-2.86785 74.7642 -22.264 0.33994 0.835691 0.431349
-3.83823 74.6774 -21.3614 0.315736 0.833346 0.453701
-4.9507 74.5262 -20.3799 0.273578 0.829604 0.486736
-6.21183 74.282 -19.3358 0.214097 0.824761 0.523386
-7.48405 73.9265 -18.381 0.142968 0.798493 0.584781
-8.6852 73.4993 -17.5647 0.120151 0.798124 0.590391
-9.85914 73.0484 -16.7571 0.0642348 0.799095 0.597764
-11.0869 72.5355 -15.9395 0.0695805 0.810242 0.581951
-11.3422 72.4348 -15.7596 0.0449895 0.819236 0.571689
-15.431 70.5343 -12.9074 0.0093761 0.843071 0.53772
-16.8938 69.855 -11.7434 0.0156312 0.854392 0.519394
-18.137 69.3481 -10.7201 0.145481 0.876446 0.458996
-18.3609 69.2857 -10.5267 0.146005 0.879566 0.45282
-20.4751 68.2562 -7.54615 0.240579 0.838155 0.489509
-19.1801 68.5233 -8.70714 0.176718 0.877948 0.444948
-18.1737 68.7814 -9.59701 0.100717 0.890331 0.444034
-16.8096 69.2569 -10.7224 0.0301686 0.873667 0.485588
-15.4263 69.8758 -11.8244 0.0179262 0.854368 0.51936
-13.6796 70.6931 -13.1476 0.0126336 0.832227 0.554292
-12.3879 71.2769 -14.0846 0.0244468 0.833005 0.552726
-11.1838 71.8254 -14.9011 0.0150146 0.816635 0.576959
-9.99416 72.297 -15.7381 0.069575 0.810241 0.581952
-8.80127 72.7697 -16.5493 0.121024 0.799561 0.588265
-7.65675 73.1867 -17.3515 0.120151 0.798124 0.590392
-6.08223 73.6988 -18.47 0.176419 0.814021 0.553396
-4.96009 73.9395 -19.3774 0.248581 0.827468 0.503492
-3.72444 74.1296 -20.4432 0.296239 0.830292 0.472078
-2.55715 74.2591 -21.5051 0.315292 0.848527 0.424962
-1.35934 74.3422 -22.6481 0.339417 0.85753 0.386572
-0.179584 74.3773 -23.8159 0.37072 0.857728 0.356188
0.800385 74.3516 -24.827 0.385847 0.862259 0.328073
1.79667 74.2984 -25.8759 0.383704 0.868363 0.314191
2.919 74.2158 -27.0752 0.390204 0.873644 0.290668
4.00032 74.1067 -28.2511 0.396066 0.88003 0.262065
4.94185 73.9862 -29.2889 0.400272 0.882568 0.246691
6.15513 73.8131 -30.6315 0.399668 0.88637 0.233697
7.15818 73.6506 -31.7499 0.392934 0.891758 0.224434
8.22392 73.486 -32.9317 0.374704 0.899366 0.225251
9.44643 73.2889 -34.2799 0.37079 0.907358 0.198032
10.5732 73.1002 -35.5231 0.370448 0.907411 0.198426
11.6707 72.9184 -36.7296 0.363154 0.909927 0.200378
12.5947 72.7768 -37.7338 0.35441 0.915656 0.18965
13.5314 72.6186 -38.7602 0.348161 0.920703 0.176323
14.5922 72.4678 -39.9018 0.316361 0.930374 0.185257
15.6319 72.3352 -41.0111 0.316857 0.930378 0.184388
16.6026 72.217 -42.0456 0.325156 0.926798 0.187936
17.4456 72.096 -42.9543 0.327505 0.927467 0.180401
18.3778 71.7221 -42.7036 0.315906 0.931928 0.178081
17.2392 71.8758 -41.4807 0.324662 0.923927 0.20237
16.1637 71.998 -40.3406 0.332083 0.92071 0.204972
15.19 72.128 -39.298 0.33761 0.919649 0.200664
14.2004 72.2565 -38.2399 0.345301 0.915379 0.206997
13.251 72.3999 -37.2092 0.360384 0.91038 0.203301
12.2522 72.5529 -36.1238 0.363152 0.909928 0.200379
10.6355 72.8176 -34.347 0.368182 0.90844 0.197938
9.0277 73.0631 -32.5831 0.377956 0.899386 0.219668
7.38919 73.3041 -30.7774 0.392931 0.891759 0.224435
6.40179 73.4409 -29.6908 0.392853 0.886049 0.24614
5.32336 73.5855 -28.5032 0.397078 0.87974 0.26151
4.32484 73.7003 -27.4123 0.389954 0.873714 0.290793
3.26653 73.7934 -26.2721 0.386515 0.871224 0.302613
2.07974 73.8636 -25.0198 0.379972 0.86706 0.322225
1.00336 73.9076 -23.8986 0.375823 0.861321 0.341883
-0.328574 73.8985 -22.5635 0.339493 0.858827 0.383615
-1.38455 73.8345 -21.548 0.319099 0.853832 0.411274
-2.41224 73.7376 -20.5938 0.300798 0.85223 0.428048
-3.49722 73.5963 -19.627 0.2745 0.842113 0.464216
-4.6308 73.4123 -18.6578 0.263055 0.831336 0.489573
-6.13195 73.0238 -17.5021 0.152596 0.808465 0.568418
-7.73807 72.4826 -16.3547 0.0919759 0.821812 0.562286
-8.89057 72.0598 -15.5482 0.094708 0.828359 0.552134
-9.95402 71.6434 -14.795 0.0674449 0.825101 0.560946
-11.197 71.1377 -13.9274 0.0197341 0.824917 0.564909
-12.3404 70.6209 -13.098 0.0244454 0.833006 0.552724
-13.4877 70.1036 -12.2658 0.0147358 0.854129 0.519852
-14.7192 69.55 -11.3028 0.0096665 0.861336 0.507944
-16.1518 68.93 -10.1677 0.0256346 0.87611 0.481429
-17.4057 68.4637 -9.14562 0.102747 0.887243 0.449715
-18.6403 68.1325 -8.0659 0.131666 0.884073 0.448418
-19.8547 67.8036 -7.0175 0.213086 0.864555 0.455124
-20.6974 67.6208 -6.27563 0.206145 0.85829 0.469939
-20.4894 67.0685 -5.3903 0.198431 0.852347 0.483869
-19.1705 67.4054 -6.52572 0.168164 0.875869 0.452299
-17.5854 67.8647 -7.88398 0.137496 0.866965 0.479027
-16.5443 68.175 -8.77288 0.0640223 0.882486 0.465961
-14.8078 68.8901 -10.1679 0.0260854 0.876068 0.481482
-13.6402 69.4095 -11.085 0.00966881 0.861336 0.507944
-12.5411 69.8843 -11.9323 0.0147358 0.854129 0.519852
-11.3817 70.4032 -12.7732 0.00812386 0.84593 0.533231
-9.89724 71.0133 -13.8616 0.060532 0.840993 0.53765
-8.73377 71.4785 -14.6808 0.0787333 0.832076 0.549044
-6.75434 72.1932 -16.0926 0.124489 0.822626 0.554787
-5.41809 72.5918 -17.0757 0.154405 0.816321 0.556578
-4.16102 72.9035 -18.0582 0.265383 0.820435 0.506417
-2.92218 73.1218 -19.1077 0.275918 0.839684 0.467761
-1.67271 73.2891 -20.2173 0.296673 0.853685 0.428028
-0.630906 73.3873 -21.1852 0.313752 0.861393 0.399453
0.594059 73.4456 -22.3692 0.340669 0.858262 0.383838
1.77837 73.4369 -23.5696 0.376739 0.858749 0.347302
2.85867 73.3988 -24.6887 0.378169 0.866028 0.327083
4.04572 73.3289 -25.9395 0.384681 0.866927 0.31695
5.28253 73.2259 -27.2648 0.391526 0.874793 0.285387
6.22452 73.1189 -28.2888 0.387081 0.883292 0.264507
7.16184 72.9997 -29.3156 0.392574 0.886115 0.246347
8.2663 72.8482 -30.5284 0.384342 0.8901 0.244957
9.69091 72.6616 -32.0803 0.3747 0.899368 0.225249
10.7403 72.5048 -33.2298 0.37047 0.902766 0.218554
11.6808 72.3662 -34.2566 0.371524 0.902612 0.217398
12.8338 72.1874 -35.518 0.363152 0.909928 0.200379
13.7681 72.047 -36.532 0.3532 0.913589 0.201505
15.5979 71.8022 -38.4977 0.337366 0.917082 0.212471
16.6544 71.6625 -39.6284 0.332078 0.920712 0.20497
17.6658 71.5476 -40.7005 0.324581 0.922473 0.209025
18.963 71.3971 -42.0798 0.327392 0.923354 0.200581
19.1167 71.3783 -42.2439 0.327393 0.923353 0.200583
20.1122 70.987 -42.0675 0.320189 0.925598 0.201858
19.1771 71.1016 -41.0687 0.327395 0.923353 0.20058
18.0826 71.223 -39.9091 0.322628 0.923213 0.20878
17.1451 71.3269 -38.9162 0.332078 0.920712 0.20497
16.1268 71.453 -37.8302 0.337365 0.917083 0.212472
15.0953 71.5778 -36.7316 0.345301 0.91538 0.206997
13.9341 71.7491 -35.4727 0.354747 0.910445 0.212707
12.7241 71.9146 -34.1645 0.368798 0.9039 0.216686
11.7958 72.0529 -33.1523 0.370996 0.90269 0.217975
10.3531 72.2531 -31.5813 0.378096 0.893194 0.24341
9.12081 72.4108 -30.243 0.376696 0.893937 0.24285
7.78177 72.5777 -28.7852 0.384343 0.890101 0.244952
6.13064 72.7567 -27.0008 0.392219 0.87559 0.28197
5.07429 72.8476 -25.8703 0.384414 0.86702 0.317021
3.54895 72.9379 -24.2663 0.378167 0.866028 0.327087
2.21866 72.9664 -22.903 0.371086 0.857266 0.356917
1.18033 72.9666 -21.8574 0.365447 0.849656 0.380176
0.162114 72.9315 -20.8638 0.335792 0.851494 0.402744
-0.846298 72.8523 -19.9188 0.296673 0.853685 0.428027
-2.11588 72.6801 -18.7914 0.277516 0.839008 0.468028
-3.48136 72.4346 -17.6369 0.236918 0.839218 0.489472
-4.5672 72.2212 -16.7397 0.173474 0.843473 0.50839
-6.24104 71.7098 -15.5125 0.142614 0.831968 0.536182
-7.47291 71.2893 -14.616 0.0974251 0.83478 0.541896
-9.16402 70.6709 -13.3854 0.0610246 0.852542 0.519083
-10.7125 70.0485 -12.2464 0.035331 0.842927 0.536866
-12.2959 69.3664 -11.0609 0.0213431 0.86208 0.506323
-13.7889 68.7163 -9.90676 0.0178818 0.868831 0.494787
-14.8117 68.2948 -9.08449 0.0260854 0.876068 0.481482
-15.8965 67.8404 -8.21405 0.0443493 0.878548 0.47559
-17.0016 67.4542 -7.30155 0.0697546 0.887852 0.454811
-18.3808 67.0463 -6.1241 0.168181 0.864461 0.473732
-19.5017 66.7131 -5.16926 0.183286 0.852557 0.489442
-20.7715 66.3763 -4.09715 0.191433 0.841406 0.50536
-20.6903 65.7948 -3.09431 0.168703 0.888502 0.426736
-19.2628 66.1768 -4.3055 0.107136 0.873535 0.474825
-18.1246 66.5404 -5.25983 0.0861456 0.900133 0.427013
-16.7224 66.9897 -6.44028 0.0744038 0.882201 0.464957
-15.6087 67.38 -7.35907 0.0582323 0.887041 0.458004
-14.0399 68.0094 -8.62688 0.0304408 0.869556 0.492895
-12.9942 68.4511 -9.4649 0.00489619 0.876737 0.480945
-11.3619 69.1373 -10.7296 0.0355778 0.856268 0.515304
-10.184 69.6273 -11.6199 0.0343494 0.849381 0.526661
-8.62875 70.2543 -12.7641 0.0677206 0.851414 0.520104
-7.57972 70.6425 -13.5473 0.0747872 0.850574 0.520511
-6.43607 71.0493 -14.3785 0.104303 0.850236 0.515964
-5.25571 71.4057 -15.2663 0.128308 0.841076 0.525478
-3.94477 71.7765 -16.2513 0.218229 0.843899 0.490113
-2.67417 72.0321 -17.2942 0.226178 0.853389 0.469649
-1.26305 72.2515 -18.5139 0.266153 0.858197 0.438931
0.0278272 72.4058 -19.6728 0.336381 0.842648 0.420467
1.24683 72.4812 -20.8288 0.34217 0.848735 0.403199
2.31829 72.4955 -21.8952 0.367614 0.851126 0.374759
3.44284 72.4894 -23.0324 0.373232 0.857436 0.354262
4.60613 72.4552 -24.2295 0.37504 0.873529 0.31031
6.12648 72.3728 -25.822 0.371199 0.878154 0.301757
7.38019 72.2558 -27.1648 0.38568 0.879987 0.277261
8.47159 72.1541 -28.3281 0.378772 0.886045 0.267312
9.72012 72.0026 -29.6826 0.381232 0.889009 0.253623
10.772 71.8695 -30.8232 0.378816 0.893098 0.242641
12.1555 71.6936 -32.3198 0.372963 0.895402 0.243215
13.1062 71.5655 -33.3492 0.366066 0.905179 0.215979
14.6926 71.3502 -35.0631 0.356249 0.907175 0.223876
15.9121 71.1938 -36.3707 0.34029 0.915603 0.214182
17.473 71.001 -38.0356 0.336488 0.916022 0.218357
18.7509 70.8692 -39.3846 0.328838 0.917761 0.222667
19.8554 70.7491 -40.5535 0.325017 0.923292 0.204683
20.9495 70.6272 -41.7141 0.31297 0.927789 0.203119
22.2248 70.2174 -41.8251 0.317354 0.9261 0.204025
21.2086 70.3262 -40.7503 0.319892 0.922819 0.214648
20.0337 70.4408 -39.5138 0.329565 0.917455 0.222852
18.6669 70.5806 -38.071 0.329293 0.917823 0.221737
17.7306 70.6791 -37.0824 0.336491 0.916021 0.218356
16.78 70.7965 -36.0685 0.343208 0.914111 0.21589
15.4235 70.9551 -34.6235 0.355373 0.907604 0.223528
14.3372 71.0936 -33.4577 0.361165 0.906195 0.219932
12.9115 71.2755 -31.9213 0.369828 0.897278 0.241079
11.6401 71.4282 -30.5525 0.372965 0.895403 0.24321
10.1896 71.6035 -28.9883 0.380121 0.889312 0.254228
9.15252 71.7195 -27.8721 0.375123 0.883184 0.281548
8.14143 71.8082 -26.8033 0.380411 0.8816 0.279407
7.08887 71.9085 -25.6743 0.376782 0.876391 0.299958
5.42503 72.0108 -23.9278 0.365247 0.875168 0.317295
4.31994 72.0314 -22.8012 0.347201 0.872222 0.3445
3.02691 72.0314 -21.4982 0.349383 0.862172 0.366867
2.00522 72.0163 -20.4815 0.328804 0.868376 0.371228
0.658356 71.9393 -19.2065 0.324312 0.86015 0.393654
-0.514045 71.8231 -18.1373 0.27838 0.852741 0.441969
-1.81163 71.6251 -17.0122 0.249679 0.848517 0.466561
-3.24002 71.3493 -15.8294 0.218231 0.8439 0.49011
-4.54687 71.0171 -14.8174 0.130832 0.844987 0.518537
-5.68505 70.675 -13.9531 0.133347 0.848835 0.511563
-7.51903 70.0466 -12.5837 0.074416 0.850244 0.521101
-8.74457 69.6006 -11.6656 0.0465072 0.876634 0.478905
-10.5766 68.8416 -10.2924 0.0344673 0.855992 0.515838
-11.825 68.3472 -9.30771 0.0194551 0.889079 0.457341
-12.9955 67.8554 -8.38273 0.00170311 0.876034 0.482246
-14.0421 67.3983 -7.5487 0.0160724 0.872903 0.487629
-15.4949 66.8504 -6.36652 0.060845 0.880711 0.469729
-17.2047 66.293 -4.92572 0.0904234 0.900095 0.426207
-18.2177 65.9771 -4.07007 0.0589669 0.875011 0.480498
-19.3288 65.5774 -3.16935 0.160307 0.879455 0.448174
-20.3401 65.336 -2.27744 0.168699 0.888502 0.426737
-20.3602 64.78 -1.14118 0.0957525 0.898136 0.429166
-19.3051 65.0962 -2.03933 0.0870653 0.922633 0.375724
-17.9534 65.508 -3.18803 0.0327433 0.911149 0.410774
-16.4137 66.0061 -4.48764 0.0634377 0.913237 0.40246
-15.3071 66.3495 -5.43397 0.0264797 0.923679 0.382252
-14.2049 66.7713 -6.32558 0.0133092 0.895279 0.445308
-13.1217 67.2052 -7.20116 0.00160795 0.884124 0.46725
-11.892 67.7371 -8.17731 0.00809495 0.877429 0.479638
-10.5862 68.2681 -9.20654 0.0159809 0.889295 0.457054
-8.86937 68.9728 -10.5252 -0.00679715 0.873705 0.486408
-7.60535 69.4437 -11.4911 0.0478632 0.877739 0.476743
-6.28138 69.913 -12.4879 0.0695736 0.876318 0.476683
-4.98721 70.3029 -13.479 0.0973061 0.878919 0.46694
-3.70048 70.6815 -14.4598 0.137994 0.874353 0.465258
-2.61174 70.9113 -15.3422 0.210037 0.847721 0.487087
-1.33422 71.1703 -16.3883 0.238284 0.862787 0.445891
-0.00462837 71.3555 -17.556 0.278393 0.853539 0.440419
1.58298 71.502 -19.0128 0.320793 0.861526 0.393528
2.80976 71.579 -20.171 0.328804 0.868376 0.371228
3.84704 71.5879 -21.2049 0.343731 0.872373 0.347584
5.17577 71.5872 -22.5393 0.356029 0.871299 0.33776
6.30364 71.5545 -23.6963 0.359567 0.873177 0.32905
7.34114 71.4938 -24.7795 0.376782 0.876391 0.299958
8.39101 71.4115 -25.8913 0.380411 0.8816 0.279407
9.4021 71.3228 -26.9601 0.375123 0.883184 0.281548
10.4022 71.235 -28.0174 0.378776 0.886043 0.267312
11.5459 71.1031 -29.2462 0.372057 0.893763 0.250521
12.5472 70.9883 -30.3203 0.371284 0.893845 0.251376
13.6935 70.8535 -31.5504 0.366249 0.899145 0.239584
14.765 70.726 -32.6999 0.359647 0.901702 0.239975
15.6965 70.6188 -33.6923 0.355371 0.907605 0.223529
16.6856 70.5002 -34.7484 0.34202 0.910752 0.231416
17.7463 70.3871 -35.8711 0.342628 0.912459 0.223663
18.7273 70.2794 -36.9096 0.329749 0.917883 0.220807
20.0987 70.1363 -38.3577 0.330292 0.917146 0.223047
21.4401 70.0055 -39.77 0.32263 0.91905 0.2264
22.5583 69.8986 -40.9454 0.322481 0.919626 0.224261
22.9333 69.8637 -41.3391 0.323343 0.921426 0.21546
23.9419 69.4713 -41.1746 0.323349 0.921423 0.215465
22.5448 69.6015 -39.7074 0.322482 0.919625 0.224268
21.0411 69.7411 -38.1282 0.326464 0.918106 0.224729
19.902 69.8516 -36.9286 0.33443 0.914218 0.228828
18.8215 69.9672 -35.787 0.33655 0.91273 0.231641
17.8827 70.0616 -34.798 0.344622 0.909377 0.232959
16.7878 70.1794 -33.6383 0.344633 0.908009 0.238218
15.4279 70.3285 -32.1942 0.356626 0.902397 0.241863
14.3924 70.4495 -31.0861 0.361563 0.899474 0.245395
13.338 70.5599 -29.9653 0.371284 0.893845 0.251373
12.2945 70.6795 -28.8465 0.372057 0.893764 0.250518
10.7366 70.8365 -27.1944 0.371616 0.885816 0.277906
9.7072 70.9254 -26.1063 0.370751 0.886041 0.278345
8.71981 71.0049 -25.0676 0.365005 0.88227 0.297272
7.14352 71.1067 -23.418 0.379108 0.873965 0.304077
5.90456 71.1389 -22.1509 0.353677 0.877643 0.323504
4.80858 71.1444 -21.0532 0.347334 0.871433 0.346357
3.61429 71.1416 -19.8606 0.328801 0.868378 0.371226
2.48193 71.0705 -18.7915 0.317269 0.86289 0.393397
1.37918 71.0013 -17.7503 0.310026 0.870635 0.381941
0.229575 70.8554 -16.7287 0.24597 0.88037 0.405521
-0.891188 70.7106 -15.7347 0.238165 0.874428 0.422674
-2.33632 70.4308 -14.5472 0.192719 0.876071 0.441993
-3.71908 70.1329 -13.4234 0.137994 0.874353 0.465258
-5.00581 69.7543 -12.4426 0.0973061 0.878919 0.46694
-6.31617 69.3399 -11.4294 0.0695738 0.876318 0.476682
-7.53913 68.8981 -10.5001 0.0451481 0.875525 0.48106
-8.63452 68.4909 -9.65624 0.0191797 0.874914 0.483898
-10.3788 67.7986 -8.28465 -0.00516939 0.891092 0.453794
-11.7588 67.2061 -7.20556 -0.0172152 0.896772 0.442157
-12.873 66.7502 -6.30429 0.00151212 0.891956 0.452119
-13.9358 66.3298 -5.44599 0.0149636 0.909223 0.41604
-15.0544 65.9577 -4.49986 0.0363538 0.92504 0.378126
-16.8056 65.3985 -3.01045 0.0262136 0.915359 0.401785
-18.1491 64.9302 -1.88845 0.0197664 0.91563 0.401535
-19.4697 64.5076 -0.769726 0.0904679 0.897304 0.432042
-20.2193 64.2826 -0.132346 0.0954824 0.897527 0.430499
-19.953 63.834 0.785242 0.054698 0.920211 0.387581
-18.895 64.1646 -0.124198 0.00960812 0.918785 0.394641
-17.725 64.5798 -1.10358 0.0158921 0.916028 0.400799
-16.4221 65.0304 -2.19694 0.0262146 0.915359 0.401785
-14.8678 65.5454 -3.5091 0.0347688 0.920765 0.388565
-13.7779 65.9027 -4.43328 0.0166023 0.92221 0.386334
-12.6304 66.3038 -5.39815 -0.0380226 0.911539 0.409453
-11.5236 66.7763 -6.28585 -0.03827 0.901118 0.431881
-10.4966 67.1838 -7.11118 -0.0172154 0.896772 0.442158
-9.37815 67.6442 -7.99306 0.00859902 0.895533 0.444912
-8.12293 68.1242 -8.99531 0.023249 0.898397 0.438569
-6.35654 68.7693 -10.3611 0.042745 0.89312 0.447783
-5.21967 69.1256 -11.2461 0.0912525 0.874479 0.476402
-3.73768 69.5844 -12.387 0.137995 0.874355 0.465254
-2.36958 69.8929 -13.4935 0.178451 0.868322 0.462787
-1.26014 70.1197 -14.4 0.192719 0.876071 0.441993
-0.00489749 70.3369 -15.4609 0.238165 0.874428 0.422674
1.11587 70.4816 -16.4549 0.24597 0.88037 0.405521
2.1908 70.587 -17.4312 0.29601 0.874419 0.384407
3.31008 70.6492 -18.4934 0.302705 0.878167 0.370395
4.37032 70.7084 -19.4978 0.313802 0.881716 0.352286
6.09923 70.7185 -21.2126 0.329799 0.881357 0.338292
7.48855 70.6772 -22.6301 0.353677 0.877643 0.323504
9.01683 70.5945 -24.217 0.360675 0.883078 0.300144
10.0521 70.5232 -25.2968 0.369325 0.881439 0.294389
11.0612 70.4388 -26.361 0.371616 0.885817 0.277901
12.2275 70.3324 -27.5872 0.372481 0.885592 0.277462
13.2704 70.2296 -28.6909 0.371669 0.893805 0.250947
14.2538 70.1255 -29.7372 0.360442 0.897901 0.252695
15.461 70.0015 -31.0185 0.361563 0.899474 0.245396
17.095 69.8256 -32.7515 0.349945 0.905633 0.239515
18.0469 69.7322 -33.7552 0.344633 0.908008 0.238221
19.0082 69.6344 -34.7687 0.33566 0.911827 0.23644
20.3347 69.5019 -36.1641 0.334431 0.914219 0.228822
21.6643 69.3791 -37.5606 0.323777 0.917708 0.230175
23.0497 69.254 -39.0143 0.322166 0.918903 0.227653
24.6763 69.1036 -40.7223 0.316827 0.921065 0.226408
24.8659 69.0883 -40.9201 0.311388 0.923171 0.225374
25.8097 68.7112 -40.6815 0.312048 0.923144 0.224571
24.6419 68.8065 -39.4623 0.310726 0.923197 0.226177
23.4019 68.9186 -38.1614 0.321418 0.918911 0.228676
22.4628 68.9996 -37.1777 0.325182 0.916014 0.234895
21.0018 69.1312 -35.6454 0.327804 0.914306 0.237886
19.8576 69.2348 -34.4477 0.341179 0.907956 0.243338
19.5719 69.2619 -34.1481 0.341179 0.907956 0.243338
21.4502 68.7726 -34.9013 0.328173 0.913019 0.242279
22.4232 68.6923 -35.9172 0.327804 0.914306 0.237886
23.4034 68.6079 -36.9438 0.322985 0.916448 0.236228
24.396 68.5257 -37.982 0.317864 0.917797 0.237932
25.5573 68.4325 -39.1933 0.310729 0.923196 0.226177
26.8322 68.3275 -40.5251 0.312048 0.923143 0.224573
27.0404 68.3101 -40.7429 0.309553 0.924138 0.223933
28.1098 67.9283 -40.6316 0.304712 0.925444 0.225174
26.8326 68.0287 -39.2998 0.308775 0.92226 0.23258
25.3984 68.138 -37.8066 0.315032 0.919746 0.234141
24.4547 68.207 -36.8251 0.322716 0.916588 0.23605
23.5631 68.2808 -35.8927 0.321656 0.916174 0.239087
24.9489 67.8524 -36.1236 0.317859 0.917799 0.237929
26.2495 67.7618 -37.4738 0.314019 0.919368 0.236969
27.3897 67.68 -38.658 0.307905 0.922232 0.233842
28.4921 67.5983 -39.805 0.305308 0.923509 0.232201
28.7796 67.5797 -40.1025 0.301748 0.925195 0.230134
29.225 67.2431 -39.3421 0.300964 0.924713 0.23308
28.2542 67.3095 -38.3353 0.308776 0.92226 0.23258
27.2222 67.3793 -37.2658 0.309345 0.919624 0.24207
26.0352 67.4595 -36.0351 0.312719 0.91912 0.239637
27.2025 67.0612 -36.0306 0.313153 0.918414 0.241766
28.7813 66.9604 -37.6635 0.302849 0.921823 0.241919
29.7033 66.9063 -38.6146 0.298061 0.926075 0.231397
29.8075 66.5864 -37.5038 0.300308 0.923227 0.239723
28.2341 66.6774 -35.8819 0.307318 0.920678 0.240641
28.0679 66.6879 -35.71 0.306567 0.92053 0.242158
29.1855 66.2992 -35.6499 0.302852 0.921823 0.241914
30.5598 66.227 -37.0625 0.299345 0.923088 0.241456
13.622 69.8426 -27.8749 0.359203 0.892922 0.271409
12.5055 69.9417 -26.703 0.362974 0.891692 0.270436
11.4585 70.0346 -25.604 0.367736 0.888662 0.273953
10.4615 70.1066 -24.563 0.369325 0.881439 0.294389
8.85256 70.2096 -22.8872 0.36076 0.882436 0.301925
7.71896 70.2606 -21.7218 0.342889 0.884346 0.316795
6.59127 70.2904 -20.5769 0.34146 0.880385 0.32913
5.06093 70.2856 -19.0597 0.328999 0.883314 0.333941
3.99356 70.2277 -18.0526 0.300564 0.878896 0.37041
2.62528 70.1389 -16.7676 0.289238 0.870448 0.398324
1.45774 70.0376 -15.6983 0.267674 0.875629 0.402025
0.258271 69.8594 -14.6559 0.230268 0.868141 0.439668
-1.01285 69.6477 -13.5721 0.211534 0.872268 0.44091
-2.08494 69.4128 -12.7023 0.164142 0.883323 0.439087
-3.42476 69.1294 -11.6062 0.138769 0.892049 0.430108
-5.16358 68.6156 -10.2399 0.0715068 0.894242 0.441835
-6.2817 68.2583 -9.35641 0.0664956 0.891362 0.448388
-7.39897 67.8582 -8.48346 0.027532 0.90233 0.430167
-8.58156 67.4166 -7.53632 -0.00204674 0.897106 0.44181
-9.63846 67.0035 -6.69199 -0.028255 0.910407 0.412748
-10.9241 66.501 -5.65844 -0.026889 0.903974 0.426741
-12.0672 66.0414 -4.71809 -0.0377457 0.921402 0.386774
-13.1279 65.6672 -3.82734 -0.0123711 0.929692 0.368131
-14.8174 65.089 -2.40806 -0.00759814 0.930954 0.365057
-15.8568 64.7373 -1.53273 -0.0116289 0.926004 0.377335
-17.2522 64.2488 -0.356981 0.0121584 0.918987 0.394101
-18.6559 63.753 0.831239 0.0102143 0.919294 0.393439
-19.7295 63.4057 1.7554 0.0507151 0.914068 0.402377
-20.0288 62.7991 3.18276 0.001827 0.910803 0.412837
-18.5746 63.2933 1.9253 0.00664319 0.927553 0.373632
-17.0788 63.8156 0.644172 0.00960367 0.918784 0.394644
-15.9984 64.1986 -0.264915 -0.0156485 0.920875 0.389543
-14.8374 64.6313 -1.24121 -0.0116289 0.926004 0.377335
-13.7981 64.983 -2.11655 -0.00759814 0.930954 0.365057
-12.6638 65.3726 -3.06611 -0.0124448 0.930186 0.366878
-11.0825 65.9436 -4.38885 -0.0332359 0.920997 0.38815
-9.89829 66.4069 -5.36831 -0.0410079 0.913899 0.403865
-8.45988 66.9512 -6.52893 -0.00347706 0.917318 0.398139
-7.00131 67.4846 -7.70404 0.0192155 0.910802 0.412395
-5.51812 67.971 -8.89842 0.0664956 0.891362 0.448388
-3.95819 68.4632 -10.1264 0.0997039 0.890638 0.443648
-2.66029 68.8018 -11.1735 0.138769 0.892049 0.430108
-1.56355 69.0338 -12.0707 0.149667 0.897449 0.414952
-0.379552 69.2542 -13.0629 0.205764 0.889419 0.408162
0.693714 69.4264 -13.9837 0.206344 0.889845 0.406938
1.77057 69.5861 -14.9167 0.265479 0.883076 0.386907
2.82235 69.6742 -15.8829 0.270439 0.886627 0.375173
3.85033 69.7602 -16.8273 0.278898 0.884574 0.373825
4.88846 69.8194 -17.8041 0.298421 0.879619 0.370426
6.15793 69.8637 -19.0245 0.3286 0.883507 0.333822
7.65891 69.8519 -20.5186 0.34363 0.882841 0.320172
9.15155 69.7966 -22.0434 0.360844 0.88179 0.303707
10.1525 69.7454 -23.0755 0.354505 0.888408 0.291647
11.3553 69.6672 -24.3253 0.354862 0.890147 0.28585
12.6494 69.5706 -25.6726 0.362974 0.891692 0.270436
11.8437 69.2596 -23.6621 0.3568 0.889598 0.285149
10.593 69.3336 -22.3725 0.354136 0.886634 0.297436
9.55729 69.3863 -21.3058 0.351437 0.887249 0.298801
8.53097 69.4193 -20.2617 0.343659 0.882829 0.320174
7.26496 69.4402 -18.9919 0.328205 0.883698 0.333706
5.96948 69.4281 -17.7244 0.309992 0.881359 0.356528
4.77507 69.3624 -16.5981 0.289616 0.884058 0.366831
3.71812 69.2898 -15.6202 0.270439 0.886627 0.375173
2.66634 69.2017 -14.654 0.265479 0.883076 0.386907
1.58085 69.0834 -13.6836 0.233497 0.884953 0.402911
0.504426 68.9107 -12.7601 0.205763 0.889419 0.408162
-0.77076 68.7025 -11.6688 0.205176 0.888993 0.409382
-1.89581 68.4743 -10.7407 0.13877 0.892049 0.430106
-3.66504 68.0127 -9.31344 0.119743 0.899184 0.420868
-4.8375 67.678 -8.36028 0.0513273 0.910238 0.410891
-6.44343 67.1659 -7.05622 0.0420444 0.906782 0.419497
-8.08111 66.6013 -5.71926 -0.00347434 0.917318 0.398141
-9.39914 66.1132 -4.65303 -0.0372797 0.916774 0.397663
-11.0668 65.4773 -3.25817 -0.0328078 0.930818 0.364008
-12.1802 65.0859 -2.32277 -0.0194037 0.931612 0.362936
-13.4158 64.6614 -1.28845 -0.0100204 0.930573 0.365969
-14.7815 64.1663 -0.139592 -0.0156489 0.920875 0.389544
-16.1655 63.6523 1.02343 -0.0238042 0.91833 0.395099
-17.3487 63.2401 2.04242 0.00443098 0.926881 0.375329
-18.4804 62.8546 3.01802 0.00954189 0.921536 0.388175
-19.3356 62.5398 3.75165 -0.00657326 0.906896 0.421303
-19.4556 61.9632 5.015 -0.0153686 0.918207 0.395802
-18.2546 62.4233 3.98788 -0.00958463 0.919085 0.393943
-17.0481 62.8679 2.94852 0.0098347 0.930547 0.366041
-15.8011 63.2959 1.86814 0.00934308 0.925472 0.3787
-14.0362 63.9638 0.380045 -0.018881 0.922999 0.384339
-12.9569 64.3724 -0.525624 -0.0372258 0.928941 0.368351
-11.7223 64.807 -1.56426 -0.0263573 0.932978 0.358967
-10.4802 65.2436 -2.60776 -0.0328078 0.930818 0.364008
-8.9076 65.832 -3.92102 -0.0225396 0.928355 0.37101
-7.66783 66.2575 -4.94566 0.00840766 0.913883 0.405892
-6.24166 66.7422 -6.11458 0.0373754 0.921009 0.387744
-5.07644 67.1114 -7.07531 0.0466899 0.908529 0.415204
-3.77342 67.4931 -8.13818 0.0866797 0.903871 0.418932
-2.21658 67.8816 -9.41994 0.111566 0.911321 0.396291
-1.13133 68.1467 -10.308 0.13877 0.892049 0.430106
0.113218 68.359 -11.3659 0.205176 0.888993 0.409382
1.3884 68.5672 -12.4572 0.205763 0.889419 0.408162
2.47342 68.6987 -13.418 0.260468 0.879372 0.398574
3.56211 68.8174 -14.3913 0.265474 0.883078 0.386908
4.6178 68.8937 -15.3663 0.287338 0.882448 0.372454
5.67586 68.963 -16.3467 0.289619 0.884055 0.366834
6.71748 68.9965 -17.346 0.327988 0.87676 0.351733
7.98412 69.0162 -18.5763 0.328114 0.880269 0.342736
9.07305 68.9945 -19.6722 0.343692 0.882814 0.320181
10.0874 68.9709 -20.696 0.34759 0.885089 0.309512
11.182 68.9136 -21.8218 0.354139 0.886632 0.297437
9.95843 68.5655 -19.4256 0.338038 0.888121 0.311403
8.9381 68.5919 -18.3933 0.334778 0.886431 0.319631
7.79964 68.586 -17.2809 0.306834 0.890833 0.335066
6.59864 68.5622 -16.1179 0.304363 0.888755 0.34275
5.51976 68.5032 -15.109 0.272663 0.893738 0.356213
4.46183 68.4349 -14.128 0.27344 0.894259 0.354304
3.39447 68.3421 -13.1591 0.2279 0.90421 0.3612
2.30908 68.2271 -12.1864 0.225354 0.902181 0.36781
1.15771 68.0608 -11.1852 0.182702 0.904544 0.385254
-0.111222 67.8544 -10.0987 0.184233 0.907236 0.378129
-1.45583 67.5884 -8.95975 0.121621 0.908634 0.399491
-2.71755 67.2907 -7.92005 0.0991374 0.907731 0.407672
-3.80299 66.9816 -7.02844 0.0816415 0.915419 0.394136
-5.24346 66.5805 -5.82679 0.0427409 0.919946 0.389707
-6.8391 66.0583 -4.51427 0.00670874 0.92288 0.385029
-8.04088 65.6758 -3.51903 -0.000402037 0.929651 0.36844
-9.06589 65.3196 -2.64861 -0.0225384 0.928357 0.371007
-11.0006 64.6208 -1.02744 -0.0263266 0.932903 0.359165
-12.3509 64.1438 0.112113 -0.0372258 0.928941 0.368351
-13.738 63.5975 1.27437 -0.0335148 0.924031 0.380846
-15.1715 63.0483 2.48922 -0.0317822 0.934549 0.354413
-16.3186 62.6564 3.48956 0.00900007 0.935368 0.353561
-17.4137 62.2637 4.43673 -0.0293856 0.923124 0.383378
-18.524 61.8189 5.38598 -0.0238483 0.918063 0.395717
-18.9829 61.6421 5.77839 -0.0246415 0.912192 0.409022
-18.9389 61.144 6.91517 -0.0425509 0.918811 0.392397
-17.4458 61.7509 5.63183 -0.0395702 0.924087 0.380129
-16.2033 62.2471 4.56956 -0.0101941 0.929539 0.368584
-14.8756 62.7091 3.41167 -0.040734 0.937078 0.346736
-13.6556 63.178 2.36225 -0.0574264 0.936801 0.345118
-12.2247 63.7262 1.15194 -0.0481451 0.924853 0.377266
-10.527 64.3454 -0.277837 -0.0262982 0.932829 0.35936
-9.41804 64.7372 -1.21375 -0.0263266 0.932903 0.359165
-8.37511 65.1023 -2.09721 -0.00582193 0.927859 0.372886
-6.87333 65.6076 -3.36054 0.00501136 0.931396 0.363972
-5.62243 65.9997 -4.39755 0.0359533 0.929763 0.366399
-4.02516 66.4733 -5.72473 0.0480999 0.918852 0.39166
-2.15533 66.9514 -7.29435 0.0906932 0.923131 0.373636
-0.200808 67.3904 -8.92467 0.131663 0.905838 0.402644
0.997033 67.5742 -9.96648 0.184228 0.907237 0.378128
2.21602 67.7636 -11.0167 0.222804 0.9001 0.374403
4.14325 67.9834 -12.7337 0.25113 0.899755 0.356897
5.23354 68.0466 -13.7425 0.274215 0.894778 0.352389
6.33372 68.1167 -14.7624 0.287301 0.890281 0.353353
7.48904 68.1574 -15.8607 0.301871 0.886615 0.350411
8.54372 68.1792 -16.8809 0.319191 0.887828 0.331478
9.40326 68.1712 -17.7284 0.331488 0.88467 0.327834
8.71831 67.7613 -15.9295 0.319191 0.887828 0.331478
7.58465 67.7246 -14.848 0.301871 0.886615 0.350411
6.42934 67.6839 -13.7497 0.287301 0.890281 0.353353
5.3374 67.6196 -12.7391 0.274215 0.894778 0.352389
4.24711 67.5565 -11.7304 0.25113 0.899755 0.356897
3.15337 67.4249 -10.7603 0.222804 0.9001 0.374403
2.10529 67.2941 -9.83427 0.184228 0.907237 0.378128
0.922046 67.1154 -8.80365 0.185753 0.909875 0.370977
-0.571425 66.8266 -7.5352 0.130341 0.915093 0.381597
-2.06946 66.5141 -6.25463 0.104825 0.919791 0.37815
-3.30888 66.2149 -5.20651 0.062331 0.922714 0.380413
-4.76195 65.8024 -3.99138 0.0435139 0.931789 0.360383
-5.94067 65.4524 -3.00977 0.0283868 0.927646 0.37238
-6.98467 65.1282 -2.13996 -0.0165077 0.936641 0.3499
-8.12136 64.7505 -1.16031 -0.0246451 0.929479 0.368052
-9.65861 64.2131 0.137577 -0.0348269 0.934188 0.355077
-11.1387 63.6866 1.38759 -0.0372255 0.92894 0.368354
-12.9579 63.0064 2.93857 -0.052208 0.938042 0.342567
-14.621 62.3794 4.37435 -0.0583611 0.939584 0.337307
-15.6447 61.9955 5.2635 -0.0758185 0.933446 0.350615
-17.3824 61.3107 6.76312 -0.0468046 0.930016 0.364525
-18.4703 60.848 7.69616 -0.0655907 0.919937 0.386541
-19.2533 60.5042 8.36398 -0.0746655 0.916272 0.393537
-18.9393 60.1373 9.27627 -0.0752562 0.915035 0.396292
-17.5436 60.7501 8.0844 -0.0654637 0.91932 0.388027
-16.4394 61.212 7.13599 -0.064851 0.930855 0.359589
-15.2931 61.6919 6.14326 -0.0828755 0.931367 0.354524
-13.699 62.3025 4.75796 -0.0610083 0.94193 0.330222
-12.4367 62.7698 3.66597 -0.0555695 0.938699 0.34023
-10.6385 63.4365 2.12597 -0.0495986 0.94137 0.33371
-9.59464 63.7999 1.2311 -0.0348266 0.934188 0.355078
-8.52624 64.183 0.328047 -0.0260765 0.93577 0.351645
-7.38952 64.559 -0.627608 -0.0209892 0.933432 0.358139
-6.14306 64.9569 -1.70401 0.0192231 0.9376 0.347184
-4.45772 65.4507 -3.11862 0.0359533 0.929763 0.366399
-2.7297 65.9169 -4.57218 0.0853229 0.930209 0.356976
-1.65834 66.1533 -5.49101 0.104825 0.919791 0.37815
-0.531004 66.3987 -6.45241 0.12895 0.923862 0.360348
0.731988 66.643 -7.53724 0.161076 0.920576 0.355802
2.10657 66.8526 -8.73325 0.176269 0.914103 0.365164
3.1541 66.9889 -9.65769 0.207904 0.91188 0.353909
4.18593 67.1141 -10.5719 0.206771 0.910509 0.358077
5.45342 67.2061 -11.7314 0.261586 0.904016 0.338124
6.54285 67.2683 -12.7404 0.271717 0.901805 0.336033
7.58506 67.3059 -13.7273 0.283239 0.900353 0.330365
7.63734 66.8932 -12.6538 0.281815 0.899492 0.333908
5.86697 66.8117 -10.9967 0.258707 0.902713 0.343772
4.44924 66.7115 -9.70033 0.231372 0.90623 0.353855
3.25095 66.5741 -8.63247 0.209032 0.913232 0.349733
2.12253 66.4144 -7.64412 0.177152 0.917859 0.355179
0.935931 66.2379 -6.60079 0.144073 0.919274 0.366304
-0.470782 65.9745 -5.38661 0.136517 0.921601 0.363339
-2.03208 65.6448 -4.03873 0.100463 0.933335 0.344665
-3.60668 65.2405 -2.70757 0.0686689 0.930891 0.358785
-4.63933 64.9645 -1.82758 0.0233841 0.939227 0.342498
-5.98113 64.5696 -0.680879 0.014414 0.937259 0.348334
-7.18609 64.1945 0.34481 -0.00155797 0.93387 0.35761
-8.8002 63.6583 1.71681 -0.0404675 0.943139 0.329927
-10.1149 63.2057 2.85086 -0.0402672 0.943297 0.329498
-11.2755 62.7779 3.84575 -0.058929 0.939341 0.337885
-12.7137 62.2527 5.08681 -0.0685223 0.941926 0.328755
-14.046 61.7494 6.24457 -0.0687578 0.935459 0.346684
-15.3673 61.21 7.39174 -0.0832203 0.931894 0.353054
-16.5424 60.7033 8.40912 -0.0909196 0.924736 0.369591
-17.5514 60.2583 9.27421 -0.0911001 0.925394 0.367894
-19.0491 59.5873 10.5587 -0.0848135 0.920857 0.380565
-19.1406 59.5465 10.6369 -0.087827 0.917385 0.388191
-18.9437 59.1224 11.6669 -0.103625 0.91962 0.378894
-17.5445 59.7747 10.4611 -0.100037 0.919931 0.379104
-16.4568 60.2684 9.52174 -0.0912874 0.926049 0.366196
