-13.2077 52.1369 40.9898 -0.480242 0.843137 0.241844
-12.8263 52.9015 39.2854 -0.424813 0.864415 0.267906
-12.5635 53.3435 38.2128 -0.40482 0.877226 0.258033
-12.4473 53.6867 37.2124 -0.40421 0.878553 0.254478
-12.4582 54.0006 36.1552 -0.371159 0.888708 0.268922
-12.753 54.4285 34.231 -0.332069 0.910506 0.246386
-13.1626 54.5708 33.2639 -0.305512 0.912811 0.270994
-13.9134 54.7483 31.8602 -0.308594 0.904847 0.293294
-14.5285 54.8988 30.7642 -0.299834 0.905359 0.300704
-15.1655 55.0187 29.7711 -0.290794 0.905721 0.308193
-15.9275 55.0968 28.8643 -0.280864 0.908202 0.310257
-16.6908 55.3008 27.6205 -0.2654 0.907553 0.325439
-17.4302 55.499 26.4929 -0.254582 0.90736 0.334494
-18.0863 55.7586 25.2689 -0.238847 0.915731 0.322982
-18.7954 56.0849 23.9049 -0.230658 0.912096 0.338881
-19.3867 56.3738 22.7438 -0.214953 0.916357 0.337766
-19.7324 56.6853 21.7311 -0.20761 0.912273 0.353066
-20.0338 56.9844 20.7846 -0.186341 0.914511 0.35909
-20.4266 57.5114 19.2182 -0.177154 0.918667 0.353082
-20.6887 58.0747 17.6683 -0.162103 0.915354 0.368323
-20.8928 58.5851 16.3098 -0.142951 0.919352 0.366547
-20.9972 59.1344 14.9524 -0.137708 0.91318 0.383586
-21.0761 59.7046 13.6311 -0.102001 0.913358 0.394173
-21.1092 60.1661 12.5705 -0.0983073 0.910672 0.401263
-21.2209 60.563 11.6157 -0.0838118 0.912531 0.400089
-21.2892 61.0435 10.5405 -0.0757931 0.907609 0.412918
-21.2699 61.6782 9.14088 -0.0289658 0.914557 0.403419
-21.3524 62.1097 8.17651 -0.0111521 0.911793 0.410247
-21.4913 62.5849 7.08751 -0.00197634 0.91644 0.400168
-21.6682 63.1182 5.90219 0.000194288 0.911697 0.410864
-21.7237 63.7272 4.63838 0.017761 0.905302 0.424196
-21.6779 64.3196 3.38039 0.0353625 0.903985 0.426083
-21.73 64.9352 2.1134 0.102406 0.883217 0.457288
-21.8297 65.4267 1.16998 0.12961 0.892106 0.432836
-21.88 65.9342 0.139131 0.146237 0.877165 0.456233
-21.868 66.5317 -0.949178 0.164843 0.864555 0.474732
-21.8899 67.399 -2.53461 0.22902 0.856425 0.462694
-21.8149 68.1651 -3.98072 0.250628 0.83748 0.484507
-21.9055 68.7661 -4.91566 0.273279 0.820993 0.501287
-21.432 69.5218 -6.66902 0.327828 0.817745 0.469356
-20.6261 69.5571 -7.34457 0.278146 0.885313 0.372633
-19.8818 69.6261 -8.06388 0.217654 0.892955 0.38894
-18.7187 69.8546 -9.22877 0.122179 0.918115 0.372222
-18.284 70.3094 -10.3205 0.0709107 0.906528 0.416061
-17.5709 70.8601 -11.5473 -0.0400056 0.88386 0.463721
-16.8437 71.3579 -12.3365 -0.0806192 0.857737 0.506615
-15.6708 71.5979 -12.5285 -0.0744171 0.844727 0.529998
-14.4818 71.821 -12.7239 -0.0692574 0.833309 0.548381
-13.1303 72.3441 -13.2449 -0.0715572 0.77885 0.623115
-12.4392 72.8948 -13.8793 -0.0619423 0.789061 0.611184
-11.7688 73.5926 -14.792 0.00404519 0.782115 0.622558
-11.3546 74.2534 -15.5833 0.00709049 0.765718 0.643137
-11.2315 75.1063 -16.6475 0.0558423 0.75817 0.648092
-11.2632 76.1695 -17.7954 0.0823079 0.736854 0.670984
-11.5376 76.8981 -18.535 0.108949 0.720482 0.684862
-11.8666 77.707 -19.3226 0.114174 0.699653 0.705149
-12.1101 78.4472 -20.0342 0.120888 0.70834 0.695442
-12.1998 79.3652 -20.8871 0.145163 0.677543 0.721015
-12.1943 80.1684 -21.6413 0.160177 0.672292 0.72275
-12.0391 80.3127 -21.8122 0.14985 0.688323 0.707947
-11.0966 79.738 -21.486 0.172488 0.685613 0.707236
-10.1311 79.1328 -21.1734 0.189859 0.695361 0.692484
-9.00732 78.6003 -20.9627 0.230499 0.699592 0.676344
-7.74853 77.9919 -20.737 0.257771 0.762605 0.593285
-6.61897 77.5233 -20.6127 0.240658 0.782005 0.574936
-5.2336 77.1091 -20.7286 0.309178 0.770096 0.557997
-3.79749 76.7586 -21.1204 0.35023 0.813737 0.463865
-2.58634 76.4589 -21.5419 0.360512 0.833879 0.417943
-1.59214 76.2802 -22.0506 0.365297 0.832776 0.415985
-0.323393 76.1349 -22.9777 0.367704 0.849634 0.378042
0.792027 76.084 -24.064 0.379648 0.862331 0.334701
1.48693 76.1193 -24.9947 0.382942 0.865511 0.322844
2.34688 76.1599 -26.1765 0.383975 0.871061 0.306287
2.84029 76.249 -27.0998 0.388081 0.876336 0.285356
3.2939 76.3694 -28.1045 0.390412 0.880561 0.26867
3.62989 76.5343 -29.1272 0.395409 0.881359 0.258245
3.90314 76.6943 -30.1451 0.393618 0.885015 0.248544
4.14217 76.9449 -31.5032 0.389334 0.892079 0.229378
4.37686 77.1831 -32.9142 0.388944 0.89758 0.207523
4.47109 77.4019 -34.0966 0.392204 0.901256 0.184155
4.56298 77.5673 -35.1167 0.384602 0.905575 0.17893
4.71325 77.793 -36.6825 0.376999 0.912738 0.157419
4.86181 77.9284 -37.8216 0.374265 0.915971 0.143847
4.99117 78.0766 -39.2499 0.377791 0.916648 0.130364
5.28799 78.0845 -40.2414 0.362287 0.925238 0.112614
5.82908 78.0152 -41.3858 0.355089 0.929045 0.10263
6.44274 77.8627 -42.2254 0.345276 0.93361 0.0951724
7.40594 77.6178 -43.1484 0.327037 0.938426 0.11094
8.72099 77.2429 -43.7426 0.321121 0.939533 0.118987
9.85998 76.9 -43.9886 0.307876 0.941976 0.133766
11.0321 76.5446 -44.1683 0.298775 0.942695 0.148522
12.4558 76.0974 -44.2507 0.309523 0.938785 0.151255
13.5697 75.7675 -44.4431 0.305145 0.939327 0.156688
14.8584 75.3683 -44.4842 0.294838 0.940066 0.170848
16.0403 74.9765 -44.4324 0.295395 0.936763 0.187382
17.4694 74.4706 -44.1959 0.312462 0.92938 0.196518
19.0788 73.8678 -43.9243 0.318699 0.927494 0.195407
20.1652 73.4343 -43.6419 0.320694 0.927076 0.194125
21.8315 72.8008 -43.3743 0.321413 0.92631 0.196578
23.0015 72.3274 -43.0261 0.316405 0.927973 0.196859
24.3684 71.7302 -42.5182 0.325235 0.920491 0.2165
25.622 71.2272 -42.2279 0.319198 0.921996 0.219173
27.1762 70.6293 -41.9646 0.314116 0.923344 0.220793
28.4801 70.1066 -41.6154 0.309792 0.924328 0.222813
30.226 69.455 -41.3312 0.310904 0.922363 0.229198
31.0416 69.0398 -40.7562 0.297836 0.924146 0.239265
31.8258 68.56 -39.8788 0.297722 0.924197 0.239209
32.2312 68.1869 -38.9422 0.298888 0.922183 0.245361
32.6689 67.6846 -37.6238 0.29756 0.920994 0.251444
32.8209 67.3142 -36.4465 0.298571 0.920194 0.253148
32.8543 67.0209 -35.4348 0.296083 0.920333 0.255549
32.4449 66.7301 -33.9114 0.292465 0.921781 0.254527
31.4074 66.8465 -33.1226 0.302727 0.916424 0.26177
30.3051 67.1693 -32.9777 0.306159 0.915726 0.260189
28.8754 67.6897 -33.0964 0.31316 0.913394 0.260081
27.4939 68.2166 -33.2691 0.319746 0.911461 0.258848
26.1858 68.6875 -33.3117 0.319206 0.911995 0.257626
24.8363 69.1314 -33.1782 0.325242 0.908932 0.260885
23.6626 69.4971 -32.9893 0.325288 0.90892 0.260869
22.649 69.8072 -32.7585 0.336943 0.905374 0.258392
21.1747 70.1658 -32.0927 0.336926 0.905369 0.258433
19.88 70.4571 -31.3953 0.345546 0.90113 0.261845
18.8451 70.5938 -30.5002 0.349546 0.900288 0.259376
17.9783 70.6685 -29.5769 0.353559 0.895995 0.268678
17.1694 70.7459 -28.7706 0.353736 0.895967 0.268539
16.344 70.7894 -27.8277 0.353906 0.895945 0.26839
15.6822 70.8051 -27.0099 0.355361 0.893593 0.274244
14.92 70.7056 -25.7154 0.362615 0.888899 0.279945
14.4131 70.5035 -24.4171 0.359647 0.888677 0.284392
13.9874 70.258 -23.1407 0.357375 0.887643 0.29047
13.4836 70.1441 -22.1726 0.357375 0.887642 0.290472
13.027 69.8676 -20.8082 0.35039 0.887087 0.300501
12.8462 69.5427 -19.6447 0.350711 0.886447 0.302016
12.2861 69.3392 -18.41 0.345379 0.884742 0.312947
11.8338 69.1685 -17.4371 0.345673 0.883662 0.315676
11.3224 69.0087 -16.4372 0.336466 0.885644 0.32004
10.9973 68.7678 -15.4282 0.336432 0.885728 0.319843
10.6779 68.4777 -14.2843 0.328543 0.889161 0.318511
10.4198 68.2042 -13.2905 0.315994 0.889792 0.329268
10.0472 67.9321 -12.1975 0.314649 0.891798 0.325069
9.50136 67.5206 -10.5524 0.308531 0.892627 0.328671
9.00135 67.0717 -8.87225 0.287758 0.895849 0.338402
8.77275 66.6742 -7.61677 0.274502 0.902138 0.332861
8.67619 66.2902 -6.5007 0.280222 0.900535 0.33243
8.19214 65.8306 -4.88969 0.268863 0.90125 0.339797
8.11314 65.4386 -3.74399 0.268532 0.906628 0.325446
7.73074 65.0589 -2.41593 0.255366 0.908943 0.329474
7.09266 64.6875 -0.870154 0.252311 0.911988 0.323445
6.8659 64.2618 0.507044 0.248933 0.915097 0.317127
6.66276 63.8728 1.81735 0.246038 0.918175 0.310516
6.63022 63.4995 2.94696 0.244489 0.921197 0.302565
6.54683 63.1678 4.0516 0.233156 0.924956 0.300157
6.28703 62.5943 6.06941 0.234861 0.928499 0.287629
6.1183 62.2117 7.43002 0.240237 0.928764 0.282134
6.10236 61.8808 8.57151 0.241011 0.931233 0.273347
6.02378 61.5207 9.8268 0.224433 0.935032 0.274348
5.93553 61.1322 11.2939 0.220223 0.940354 0.2593
5.90598 60.8102 12.4987 0.226111 0.939129 0.258672
6.03656 60.4848 13.5842 0.229484 0.939175 0.255479
6.1492 60.1791 14.6119 0.234525 0.938867 0.252046
5.96293 59.9591 15.6263 0.23309 0.940736 0.246344
5.97168 59.6823 16.6813 0.23038 0.942104 0.243648
6.41585 59.3096 17.7041 0.230441 0.942199 0.243225
7.29308 58.7633 19.0631 0.216951 0.947137 0.236268
7.39904 58.4891 20.0413 0.21355 0.947642 0.237371
7.9644 58.1497 20.9456 0.199697 0.956199 0.214004
8.49759 57.7795 22.1105 0.201582 0.956647 0.210217
8.8922 57.501 23.0491 0.192857 0.963668 0.184798
9.50435 57.1556 24.2358 0.18721 0.966945 0.172898
9.95584 56.8292 25.6445 0.19023 0.969068 0.15704
10.0043 56.6522 26.7308 0.190695 0.970869 0.145083
9.78078 56.5442 27.7469 0.190695 0.970869 0.145083
9.48881 56.4749 28.87 0.207288 0.971944 0.11116
8.9898 56.3987 30.1638 0.173376 0.978076 0.114543
8.55262 56.3557 31.3387 0.168873 0.981227 0.0925298
7.84612 56.3838 32.4509 0.171166 0.982262 0.0765788
7.21331 56.4077 33.6433 0.174775 0.982295 0.0674527
6.68743 56.421 34.8176 0.159499 0.985224 0.0624012
6.24135 56.4136 36.032 0.15847 0.985131 0.0663682
5.82497 56.4113 37.0203 0.135285 0.988212 0.0701889
5.36326 56.3974 38.1636 0.125994 0.990145 0.0611482
4.92548 56.3764 39.4043 0.114851 0.990829 0.0697706
4.19019 56.37 40.9213 0.0918387 0.994772 0.0446515
3.86288 56.3269 42.286 0.0873644 0.994722 0.0538122
3.49242 56.2822 43.5527 0.0517078 0.996158 0.0705269
3.17336 56.2157 44.6559 0.0521038 0.995818 0.0750436
2.74921 56.1412 45.939 0.037636 0.995358 0.086615
2.24573 56.0207 47.0778 0.0267421 0.992673 0.117832
1.6844 55.9085 48.1506 0.00524913 0.989589 0.140377
1.35897 55.7335 49.4677 -0.0431984 0.995354 0.0860534
0.936911 55.6105 50.6784 -0.0438415 0.995262 0.0867761
0.601393 55.4938 51.6769 -0.0350193 0.991151 0.12804
0.105569 55.3151 52.9246 -0.103219 0.97849 0.161219
-0.451761 54.9929 54.2405 -0.194975 0.97255 0.127007
-1.06893 54.7249 55.3449 -0.228821 0.96081 0.150497
-1.44434 54.4413 56.7812 -0.266885 0.960784 0.075279
-1.79271 54.247 57.7659 -0.222664 0.951651 0.197463
-2.27825 53.7494 58.9375 -0.270053 0.918933 0.28746
-2.75511 53.1797 60.421 -0.268107 0.926508 0.264012
-2.90159 52.8455 61.3997 -0.229045 0.924888 0.303515
-2.74847 52.544 62.719 -0.292248 0.919612 0.262497
-2.4518 52.2829 63.9641 -0.275628 0.908227 0.310545
-1.95231 52.005 65.02 -0.25901 0.89684 0.358598
-1.51222 51.6849 66.1604 -0.230831 0.903055 0.360719
-0.741446 51.4471 67.1129 -0.188768 0.902912 0.386156
-0.286663 51.0571 68.247 -0.188698 0.902897 0.386226
0.600345 50.8882 68.9335 -0.156003 0.889908 0.428634
1.62343 50.6443 69.7228 -0.125315 0.846527 0.516205
2.64122 50.0732 70.8228 -0.0912631 0.846763 0.524083
3.67548 49.6043 71.8421 -0.104798 0.860191 0.499089
4.57573 49.1079 72.8567 -0.0853835 0.860154 0.502837
5.44294 48.6703 73.8636 -0.0980069 0.881354 0.46218
6.31056 48.2886 74.7591 -0.074932 0.870865 0.485324
6.98286 47.8832 75.5478 -0.0692581 0.862017 0.502125
7.53554 47.4316 76.3704 -0.116574 0.817458 0.563899
8.20154 46.9619 77.1148 -0.0627389 0.812544 0.579514
8.79134 46.4663 77.8736 -0.0716685 0.820403 0.567013
9.21935 45.5803 79.2592 -0.0865543 0.821311 0.563726
7.77606 45.0123 79.8334 -0.0925213 0.814359 0.572939
6.51623 44.6898 80.015 -0.12824 0.809613 0.572783
5.20102 44.3378 80.1622 -0.167803 0.788683 0.591185
4.21208 44.0363 80.2542 -0.185389 0.787393 0.587914
3.05589 43.6768 80.336 -0.239277 0.751986 0.614038
1.6638 43.155 80.4527 -0.228166 0.748121 0.623102
0.222876 42.5201 80.6185 -0.258023 0.735287 0.62672
-0.848874 42.1059 80.6651 -0.255582 0.747059 0.613661
-2.1355 41.5381 80.71 -0.304026 0.72293 0.620435
-3.34432 41.0033 80.7408 -0.304037 0.722922 0.62044
-4.40618 40.419 80.7076 -0.41181 0.6727 0.614725
-5.5813 39.6766 80.6847 -0.437412 0.651793 0.619546
-6.55734 39.0507 80.5869 -0.479331 0.643151 0.597159
-7.90506 38.2391 80.2379 -0.577972 0.602485 0.550418
-8.72757 37.3385 80.3713 -0.558489 0.624179 0.546343
-9.78268 36.2216 80.4405 -0.653078 0.579386 0.487573
-10.5524 35.5384 80.2291 -0.642167 0.599685 0.477158
-11.6049 34.5882 79.9148 -0.692091 0.577399 0.433152
-12.4551 33.6341 79.8284 -0.683877 0.588248 0.43138
-13.4556 32.5514 79.6403 -0.721458 0.585545 0.369642
-14.5709 31.5036 79.2402 -0.697403 0.61643 0.365572
-15.51 30.6268 78.6039 -0.759063 0.578942 0.297741
-16.1508 30.2344 77.872 -0.703266 0.65529 0.275704
-16.7947 29.7863 77.0865 -0.738787 0.635738 0.223597
-17.4432 29.3118 76.2771 -0.738639 0.637876 0.218008
-17.6843 28.7535 77.1202 -0.701389 0.675048 0.228831
-18.671 28.1603 75.6401 -0.710115 0.676922 0.193684
-19.3167 27.7224 74.7316 -0.719948 0.668664 0.185913
-19.7006 27.5917 73.6306 -0.720076 0.672779 0.169878
-20.4382 27.2029 72.474 -0.682194 0.697437 0.219531
-21.0661 26.8269 71.7184 -0.676403 0.703183 0.219119
-21.8178 26.2577 71.2256 -0.676111 0.703348 0.219492
-22.8253 25.4155 70.8211 -0.676089 0.703354 0.219536
-23.7608 24.6984 70.5872 -0.521035 0.812515 0.261421
-25.1807 23.7745 70.6287 -0.506898 0.821789 0.259671
-26.3163 23.1282 70.5418 -0.492775 0.831066 0.257881
-27.3924 22.5002 70.5091 -0.488891 0.831832 0.262681
-28.6484 21.8864 70.1738 -0.479385 0.836417 0.265699
-29.5577 21.6144 69.3895 -0.466785 0.83954 0.27745
-30.4859 21.4797 68.3249 -0.454044 0.842687 0.289349
-31.0437 21.5383 67.2792 -0.453499 0.845569 0.281571
-30.4353 22.2599 66.0496 -0.452875 0.848462 0.273891
-29.1042 23.1691 65.4341 -0.455414 0.847001 0.274189
-28.2147 23.7211 65.2446 -0.474476 0.823076 0.31212
-27.1945 24.4811 64.792 -0.474508 0.823019 0.312222
-26.2909 25.2687 64.1809 -0.554755 0.777379 0.296186
-25.754 26.0214 63.3272 -0.535357 0.761392 0.365617
-25.3422 26.6916 62.5344 -0.535361 0.761406 0.365581
-24.985 27.4678 61.4949 -0.542935 0.747411 0.382882
-24.9963 28.5993 59.2701 -0.542552 0.747693 0.382873
-25.5137 29.1742 57.8263 -0.491206 0.733995 0.469008
-25.8922 29.7864 56.4718 -0.499166 0.710424 0.494819
-25.8136 30.5353 55.5603 -0.507046 0.686819 0.520753
-25.8237 31.1933 54.7722 -0.476148 0.669094 0.57061
-25.899 32.0257 53.8731 -0.523694 0.615591 0.588451
-25.5929 33.0317 53.0555 -0.53271 0.625456 0.570109
-25.328 33.895 52.3646 -0.535903 0.620117 0.572942
-24.8749 35.0322 51.6304 -0.604363 0.560667 0.565968
-24.4876 35.9213 51.1795 -0.601903 0.550017 0.578873
-23.9635 36.9645 50.7418 -0.587069 0.568249 0.57597
-23.6514 37.8203 50.1555 -0.573897 0.595108 0.562574
-23.1638 38.784 49.6691 -0.60042 0.589474 0.540133
-22.4764 39.7324 49.4291 -0.603102 0.564275 0.563793
-21.4848 41.2322 48.959 -0.656511 0.581138 0.480908
-20.9056 42.0866 48.7172 -0.656547 0.581013 0.48101
-19.883 43.5146 48.3223 -0.675121 0.588416 0.444948
-19.236 44.4495 47.9643 -0.671277 0.629003 0.391705
-18.612 45.3405 47.6156 -0.660871 0.646235 0.381616
-18.1055 46.1574 47.0074 -0.6472 0.678797 0.346783
-17.391 47.1176 46.4259 -0.63041 0.68082 0.372785
-16.8031 48.0356 45.5068 -0.579236 0.741082 0.339535
-16.3228 48.8178 44.619 -0.572444 0.754158 0.32092
-15.8613 49.5194 43.7017 -0.565665 0.767216 0.302328
-15.3142 50.1694 43.0284 -0.533605 0.795054 0.287674
-14.8157 50.7721 42.2095 -0.527221 0.805137 0.271649
-14.3265 51.4044 41.3703 -0.481531 0.820285 0.307574
-14.0624 51.8633 40.4627 -0.447991 0.846334 0.288135
-13.7189 52.5199 39.0263 -0.444197 0.852929 0.274227
-13.4608 53.0014 37.9574 -0.423098 0.856112 0.296686
-13.4082 53.4552 36.6128 -0.373631 0.884696 0.27877
-13.5304 53.7308 35.5589 -0.368688 0.892726 0.259056
-13.8465 54.0188 34.2161 -0.335686 0.889474 0.310083
-14.3598 54.142 33.2773 -0.31504 0.906226 0.281773
-15.0053 54.268 32.1795 -0.327265 0.895102 0.30253
-15.7481 54.5407 30.6257 -0.319739 0.896094 0.307855
-16.8683 54.6423 29.278 -0.315843 0.889636 0.329835
-17.4791 54.8737 28.1582 -0.284218 0.893888 0.346677
-18.1054 55.0161 27.2776 -0.284185 0.893897 0.346679
-18.7669 55.1907 26.2911 -0.266416 0.903589 0.335485
-19.3141 55.4248 25.2807 -0.247017 0.901828 0.354525
-19.7325 55.6935 24.31 -0.231003 0.90428 0.358909
-20.4158 56.0203 23.0466 -0.225057 0.902494 0.366908
-20.8212 56.4243 21.805 -0.186497 0.9148 0.358275
-21.1575 56.8487 20.5481 -0.186174 0.914219 0.359921
-21.4482 57.2205 19.4534 -0.176754 0.914003 0.365027
-21.7048 57.5673 18.5054 -0.149419 0.9155 0.373541
-21.9492 58.0207 17.2946 -0.149625 0.915902 0.372474
-22.0079 58.533 16.0377 -0.126087 0.916839 0.378824
-22.0802 59.1259 14.6554 -0.0976339 0.904739 0.414626
-22.1452 59.6159 13.5779 -0.0857585 0.906648 0.412853
-22.1904 60.1525 12.3506 -0.0798356 0.912249 0.401782
-22.3664 60.6836 11.163 -0.0507324 0.910906 0.409483
-22.4173 61.1939 10.076 -0.0400051 0.898806 0.436518
-22.3676 61.71 8.98997 -0.0246474 0.910853 0.411868
-22.5152 62.4926 7.29389 -0.0111533 0.911794 0.410243
-22.6765 63.1194 5.97386 0.034949 0.901877 0.430577
-22.7386 63.585 5.01006 0.0438994 0.895638 0.442612
-22.8492 64.1046 3.94139 0.0431447 0.90306 0.427334
-22.7811 64.6056 3.00072 0.0844282 0.882893 0.461373
-23.0089 65.2592 1.8111 0.110263 0.875006 0.471387
-22.975 65.7673 0.810859 0.146237 0.877165 0.456233
-23.0228 66.4796 -0.453306 0.163848 0.863393 0.477177
-22.8209 66.9661 -1.36871 0.194987 0.845135 0.497721
-22.9557 67.6793 -2.57975 0.198178 0.858215 0.473489
-22.8244 68.4088 -3.82908 0.273907 0.820921 0.501063
-23.004 68.9948 -4.69093 0.273911 0.820914 0.501071
-22.9993 69.5786 -5.59076 0.347865 0.789429 0.505186
-22.9056 70.2327 -6.72033 0.410771 0.765451 0.491686
-21.8967 70.147 -7.36975 0.416317 0.799266 0.429088
-20.7836 70.0956 -8.36931 0.336359 0.873238 0.346174
-19.9933 70.019 -9.12168 0.357323 0.889507 0.284778
-19.3117 70.2497 -10.0039 0.0677622 0.908656 0.412011
-18.9317 70.7474 -11.1501 0.0442355 0.919272 0.388479
-18.3958 71.0835 -12.0695 0.0149057 0.932655 0.360351
-18.225 71.5704 -12.9988 -0.103905 0.800452 0.582064
-17.0427 72.0659 -13.4072 -0.0840928 0.745466 0.661218
-15.7822 72.1745 -13.4041 -0.0456038 0.74896 0.661044
-14.6256 72.4841 -13.6324 -0.133416 0.786863 0.602534
-13.5629 73.0523 -14.1966 -0.0441077 0.773264 0.631764
-12.9226 73.6557 -14.8714 -0.0216901 0.763805 0.644994
-12.4126 74.2461 -15.5708 -0.0170941 0.770116 0.637675
-12.362 75.121 -16.5533 0.0307577 0.725063 0.687538
-12.3028 75.9762 -17.4934 0.0473699 0.737389 0.673806
-12.6772 76.7312 -18.2361 0.0691911 0.71909 0.691407
-12.9397 77.5185 -18.979 0.107451 0.690967 0.714856
-13.3208 78.3891 -19.7367 0.146919 0.656206 0.739654
-13.4107 79.2845 -20.5496 0.160178 0.672292 0.72275
-13.5966 80.2467 -21.3843 0.173028 0.652051 0.738167
-13.9365 81.1675 -22.0754 0.223701 0.615652 0.755599
-14.4178 82.0657 -22.7118 0.19353 0.708451 0.674018
-14.7218 83.1247 -23.6118 0.25294 0.695691 0.67051
-15.1174 84.0447 -24.5093 0.249716 0.727556 0.638987
-15.0846 84.5893 -25.1743 0.252943 0.740703 0.622397
-14.4373 83.7996 -24.496 0.247258 0.729316 0.637927
-13.4999 83.0456 -23.9907 0.252946 0.69569 0.67051
-12.8123 82.3758 -23.5432 0.216875 0.666974 0.712328
-12.1992 81.4569 -22.8365 0.191832 0.675544 0.711928
-11.3868 80.9069 -22.5309 0.169323 0.678778 0.714556
-10.2873 80.1205 -22.0582 0.189383 0.67127 0.716565
-9.43462 79.5289 -21.765 0.290488 0.659086 0.693193
-8.46763 79.0413 -21.6381 0.252091 0.713265 0.65399
-7.43753 78.5157 -21.532 0.308318 0.690222 0.654625
-6.48249 78.1159 -21.4757 0.272323 0.761775 0.58651
-5.43491 77.7816 -21.5531 0.361692 0.787339 0.499275
-4.41709 77.4312 -21.7744 0.383924 0.788245 0.480907
-3.09152 77.0481 -22.2234 0.382464 0.816152 0.433147
-2.05193 76.8062 -22.7301 0.399719 0.82378 0.402009
-0.957985 76.6417 -23.4954 0.420987 0.828731 0.368097
-0.156473 76.5801 -24.2409 0.390252 0.849144 0.355891
0.863825 76.6159 -25.5399 0.39889 0.85399 0.334048
1.62806 76.6522 -26.6554 0.390899 0.867068 0.308854
2.13167 76.7602 -27.6598 0.40083 0.873294 0.276446
2.56348 76.8523 -28.6165 0.391625 0.879425 0.270632
2.85579 77.0773 -29.8216 0.397789 0.884691 0.243052
3.2069 77.2493 -31.0779 0.397715 0.888979 0.22702
3.38044 77.4672 -32.2259 0.417416 0.881997 0.218275
3.61841 77.6584 -33.5082 0.426555 0.880683 0.205955
3.5902 77.9116 -34.6933 0.406415 0.89514 0.183171
3.7733 78.0364 -35.7541 0.392238 0.903105 0.174789
3.88176 78.2743 -37.351 0.401289 0.902494 0.156435
3.99002 78.3797 -38.4416 0.389402 0.912504 0.124958
4.13195 78.5187 -39.9297 0.38078 0.918296 0.108341
4.54461 78.466 -40.8788 0.377882 0.918646 0.115293
4.98263 78.3821 -41.8385 0.359991 0.928537 0.0906987
5.74736 78.1904 -42.9604 0.351352 0.933555 0.0707528
6.46453 77.9987 -43.6918 0.320077 0.942805 0.0914671
7.467 77.7378 -44.4001 0.316896 0.943141 0.100299
8.44662 77.4374 -44.6444 0.307268 0.945572 0.106768
9.60401 77.1016 -44.9176 0.304545 0.945594 0.114473
11.172 76.6521 -45.1675 0.294936 0.945657 0.136912
12.1877 76.3348 -45.1641 0.306936 0.937649 0.162928
13.702 75.9087 -45.5468 0.304545 0.939559 0.156466
15.0695 75.4984 -45.5394 0.271218 0.942135 0.196114
16.3733 75.1223 -45.6399 0.284946 0.940618 0.184509
17.4538 74.7131 -45.3179 0.307419 0.9298 0.202253
18.4609 74.3503 -45.1599 0.302375 0.93022 0.20799
20.1493 73.7027 -44.8975 0.320708 0.92707 0.19413
21.84 73.0314 -44.4748 0.32051 0.926877 0.195371
22.7867 72.6437 -44.1761 0.322938 0.928064 0.185497
23.8038 72.2066 -43.7603 0.322961 0.92806 0.185473
24.9975 71.7382 -43.4878 0.322104 0.92666 0.193779
26.3614 71.1902 -43.1492 0.318381 0.92236 0.218825
27.6618 70.715 -42.9958 0.310671 0.923962 0.223112
28.9344 70.2377 -42.7911 0.309788 0.924329 0.222816
30.1903 69.7443 -42.4615 0.298483 0.926307 0.229919
31.2893 69.2634 -41.9548 0.300105 0.925517 0.230987
32.1558 68.8015 -41.23 0.296135 0.926575 0.23183
32.9152 68.2857 -40.1751 0.297722 0.924197 0.239209
33.3334 67.9095 -39.242 0.298885 0.922183 0.245363
33.5992 67.56 -38.2763 0.298201 0.921076 0.250387
33.7535 67.1092 -36.7838 0.289717 0.923575 0.251135
33.8173 66.5421 -34.8074 0.292463 0.921782 0.254526
33.4355 66.3319 -33.6141 0.29315 0.920906 0.256897
33.0273 66.1929 -32.6612 0.290409 0.920625 0.260983
32.2212 66.2708 -32.0392 0.295942 0.918898 0.260789
31.0203 66.6357 -31.9338 0.301519 0.917152 0.260611
29.9735 66.9973 -31.9747 0.309574 0.91316 0.265146
28.9641 67.3645 -32.0609 0.313217 0.913399 0.259996
27.9307 67.7632 -32.2164 0.313281 0.913396 0.259926
26.7938 68.1964 -32.3435 0.318802 0.910816 0.262259
25.626 68.612 -32.3506 0.32398 0.909747 0.259612
23.9594 69.0545 -31.8174 0.325306 0.908914 0.260867
22.5153 69.5303 -31.6141 0.336926 0.905369 0.258433
21.3851 69.7768 -31.0214 0.334805 0.904883 0.262854
19.9671 70.0723 -30.1816 0.343817 0.90219 0.260466
19.0259 70.1699 -29.2869 0.348307 0.899058 0.265287
18.0678 70.2295 -28.2309 0.35097 0.897508 0.266996
17.3807 70.2569 -27.4242 0.355348 0.893569 0.274338
16.6052 70.2387 -26.3606 0.355328 0.893559 0.274398
15.9027 70.1894 -25.3102 0.352357 0.893493 0.278414
15.4933 70.0277 -24.2802 0.354349 0.890412 0.285663
14.8009 69.6516 -22.2787 0.351019 0.89029 0.290119
14.1567 69.5799 -21.2767 0.353723 0.887684 0.294729
14.0518 69.2173 -20.0792 0.344346 0.889918 0.299117
13.5774 69.0351 -18.9911 0.34435 0.889917 0.299117
13.1324 68.8683 -17.995 0.340412 0.888534 0.307581
12.5478 68.7095 -16.9067 0.336224 0.889185 0.310328
12.0057 68.4494 -15.5812 0.335959 0.888503 0.312559
11.7734 68.116 -14.4046 0.328544 0.889161 0.318511
11.3358 67.7808 -13.0253 0.322248 0.889177 0.324747
11.0913 67.5036 -12.0235 0.313294 0.893806 0.320872
10.2786 66.9901 -9.84122 0.308534 0.892623 0.32868
10.0191 66.7416 -8.90537 0.301545 0.899371 0.316547
9.83455 66.3484 -7.63795 0.298013 0.897592 0.324834
9.70345 65.8193 -6.08706 0.279956 0.90123 0.33077
9.25642 65.4741 -4.78603 0.268702 0.903938 0.332621
9.19747 65.0851 -3.65436 0.269826 0.906032 0.326037
8.88536 64.772 -2.51605 0.272004 0.90829 0.317843
8.47936 64.3981 -1.13579 0.252368 0.912013 0.32333
8.08394 64.1715 -0.188472 0.248928 0.915098 0.317126
7.94622 63.8798 0.781405 0.245679 0.918081 0.311077
7.87326 63.5671 1.76223 0.246061 0.918178 0.310489
7.66982 63.0749 3.42217 0.242907 0.924296 0.294404
7.52125 62.7605 4.53184 0.242928 0.924288 0.294411
7.3997 62.4743 5.53928 0.239044 0.926356 0.291072
7.28337 62.1554 6.6502 0.239458 0.926291 0.290937
7.29546 61.7951 7.81118 0.241015 0.931235 0.273336
7.23627 61.4637 8.99263 0.241012 0.931233 0.273347
7.04762 61.202 10.0596 0.244082 0.93524 0.256419
7.06686 60.7485 11.6735 0.23814 0.935518 0.260951
7.17163 60.4509 12.6721 0.238951 0.937154 0.254252
7.2626 60.1304 13.7678 0.235681 0.937441 0.256212
7.5931 59.5809 15.5426 0.230318 0.94201 0.244072
7.58215 59.2527 16.8196 0.230378 0.942105 0.243648
8.17564 58.7905 18.1108 0.219448 0.948015 0.230458
8.56558 58.3511 19.5471 0.216953 0.947136 0.236269
9.17356 57.9146 20.876 0.198929 0.955997 0.21563
9.67327 57.5163 22.1807 0.200259 0.956321 0.212924
10.2222 57.216 23.1632 0.202171 0.963072 0.177816
10.7101 56.898 24.3634 0.193226 0.967815 0.161239
11.0053 56.6053 25.7662 0.190397 0.96813 0.162677
11.0667 56.3877 27.1156 0.175022 0.974174 0.142664
10.8817 56.2585 28.2246 0.175017 0.974176 0.142656
10.4692 56.1975 29.5118 0.18393 0.97764 0.101926
9.97464 56.1873 30.5474 0.177512 0.980304 0.0860494
9.53175 56.1685 31.6204 0.168286 0.981918 0.0867019
8.88593 56.1911 32.6447 0.17225 0.981546 0.0830519
8.34189 56.2112 33.6151 0.173986 0.982887 0.0605193
7.76188 56.2248 35.0408 0.168372 0.983764 0.0620796
7.34368 56.2173 36.2457 0.154739 0.986421 0.0550378
6.81739 56.2497 37.1448 0.154739 0.986421 0.0550378
6.49576 56.2589 38.1461 0.158195 0.986629 0.0392115
5.94602 56.2344 39.7934 0.116467 0.991929 0.0495392
5.47764 56.2478 40.7898 0.1184 0.992062 0.0423491
5.08402 56.2469 41.7822 0.09406 0.993778 0.0590287
4.60972 56.1939 43.3443 0.100758 0.992835 0.0642434
4.41274 56.1532 44.4188 0.101853 0.993355 0.0535893
3.95155 56.0923 45.6141 0.0624521 0.994895 0.0792719
3.61769 56.0212 46.6312 0.0541104 0.992642 0.10665
3.0822 55.9054 47.7625 0.0424079 0.991679 0.121548
2.57101 55.8201 48.688 0.0346334 0.995127 0.0923167
2.2371 55.6628 50.3047 0.0227784 0.994336 0.103816
1.77894 55.5742 51.2505 0.0231605 0.994151 0.105489
1.23101 55.3184 53.0792 -0.0127019 0.990213 0.138982
0.761024 55.1677 54.0971 -0.0716133 0.98188 0.175451
0.228742 54.9114 55.3137 -0.0716396 0.981875 0.17547
-0.332125 54.7376 56.2071 -0.0996413 0.99024 0.0974454
-0.654551 54.4673 57.9878 -0.222661 0.951653 0.197461
-1.18173 53.9163 59.4341 -0.251778 0.926431 0.279058
-1.54919 53.4371 60.6174 -0.229024 0.924876 0.303568
-1.65556 53.0676 61.7342 -0.236992 0.950047 0.203091
-1.45377 52.8536 62.9706 -0.236979 0.950055 0.203069
-1.19713 52.6267 64.0106 -0.213349 0.905682 0.363368
-0.751102 52.1422 65.4172 -0.167689 0.914521 0.368146
-0.151791 51.9221 66.2775 -0.178108 0.918697 0.352525
0.748637 51.6551 67.3549 -0.188705 0.902898 0.38622
1.50669 51.3644 68.2745 -0.156002 0.889907 0.428635
2.19587 51.0654 69.105 -0.0985556 0.880585 0.461855
3.00768 50.8069 69.6881 -0.0771675 0.867148 0.492035
3.82411 50.4108 70.4833 -0.0980318 0.853477 0.511586
4.77896 49.9356 71.4751 -0.0854009 0.860173 0.502801
5.70529 49.4304 72.4967 -0.0853878 0.860158 0.502828
6.34158 49.0795 73.2739 -0.0981067 0.881355 0.462155
7.11254 48.6883 74.1454 -0.0808973 0.880261 0.467543
7.85342 48.1645 75.1849 -0.0444969 0.861562 0.505084
8.32039 47.6836 76.0182 -0.015583 0.857424 0.514307
9.15971 47.223 76.7922 -0.0114933 0.853783 0.520502
10.3851 46.3911 78.2509 -0.10179 0.828038 0.551354
10.6752 45.8652 79.0942 -0.101603 0.827675 0.551933
10.1545 45.2772 79.8822 -0.101957 0.828471 0.550673
9.35575 44.8483 80.3591 -0.116787 0.822105 0.557229
8.12951 44.4502 80.6895 -0.104652 0.818233 0.565082
6.43848 43.9645 80.971 -0.150216 0.789972 0.594457
5.08623 43.6466 81.0517 -0.167803 0.788683 0.591185
3.79746 43.23 81.1715 -0.200628 0.770754 0.60472
2.61628 42.8155 81.2301 -0.250394 0.755851 0.604972
1.654 42.419 81.3264 -0.2568 0.741182 0.620181
0.612125 41.9568 81.4552 -0.25559 0.747055 0.613663
-0.42863 41.5729 81.4889 -0.274947 0.734949 0.619439
-1.38822 41.0703 81.6184 -0.294443 0.722872 0.625107
-2.37829 40.5843 81.7024 -0.30403 0.722927 0.620438
-3.41987 40.0748 81.6781 -0.362303 0.674582 0.643176
-4.61534 39.4664 81.5879 -0.438541 0.656177 0.614054
-5.66214 38.8305 81.5219 -0.439664 0.660563 0.608565
-6.54322 38.2263 81.4787 -0.481844 0.638939 0.599653
-7.4313 37.6823 81.3448 -0.529883 0.620721 0.575046
-8.49932 36.7271 81.3033 -0.55849 0.62418 0.546342
-9.26623 36.0096 81.3429 -0.55766 0.626559 0.544462
-10.3172 34.9504 81.3072 -0.63224 0.613854 0.472711
-11.1 34.3315 81.0638 -0.66219 0.595615 0.452907
-11.9124 33.4134 80.9896 -0.683879 0.588246 0.431378
-12.6897 32.6742 80.7975 -0.675802 0.598942 0.429604
-13.5721 31.8163 80.624 -0.698349 0.621079 0.355766
-14.3687 31.113 80.2882 -0.698303 0.62105 0.355907
-15.1665 30.4366 79.9023 -0.703078 0.651179 0.285539
-15.9259 29.8834 79.2798 -0.703313 0.655255 0.275667
-16.6516 29.3935 78.593 -0.70328 0.65528 0.275689
-17.2436 29.0319 77.7246 -0.738888 0.633638 0.229234
-17.511 28.8561 77.3487 -0.72012 0.654376 0.229009
-3.83596 41.9399 79.3494 -0.343184 0.724859 0.597331
-2.50528 42.8057 79.0003 -0.32014 0.721257 0.614246
-1.56129 43.9709 78.1008 -0.327224 0.738839 0.5891
-0.593071 45.1849 77.1114 -0.326049 0.738934 0.589632
0.286808 46.4278 75.9515 -0.276696 0.764368 0.582392
0.885884 47.3422 74.8987 -0.25772 0.807745 0.530216
1.45163 48.1077 73.9095 -0.114122 0.858919 0.499165
2.19216 49.1111 72.3747 -0.110666 0.855465 0.505898
1.14538 49.5089 71.4534 -0.192873 0.821322 0.534465
0.355916 50.2062 70.0547 -0.146253 0.851935 0.502574
1.28092 49.673 71.2325 -0.125318 0.846526 0.516204
2.52924 49.3176 72.0956 -0.1048 0.860191 0.499087
3.48423 48.7836 73.2112 -0.114123 0.858917 0.499168
4.72176 48.2651 74.4403 -0.128335 0.861926 0.490524
5.72237 47.7803 75.4493 -0.110293 0.824024 0.555574
6.59223 47.1655 76.5576 -0.122608 0.823922 0.553281
7.57063 46.2926 77.9849 -0.0866399 0.811768 0.577016
6.60273 45.3969 79.0348 -0.128238 0.809613 0.572784
5.3082 45.0093 79.2947 -0.122066 0.802087 0.584595
3.64231 44.5835 79.4011 -0.158134 0.76432 0.625147
2.03477 44.045 79.5211 -0.228908 0.746284 0.625029
0.166093 43.2145 79.7806 -0.261248 0.736724 0.623671
-1.13724 42.6714 79.871 -0.29231 0.729707 0.617435
-2.40081 42.1268 79.8635 -0.308726 0.736193 0.602253
-3.69324 41.7236 79.6939 -0.325948 0.730526 0.599796
-3.84229 41.5689 79.796 -0.343176 0.72486 0.597334
-4.72298 41.946 78.7029 -0.417388 0.703678 0.575
-3.72516 42.7892 78.3743 -0.332109 0.738029 0.587366
-2.41199 44.0591 77.5163 -0.328497 0.737955 0.589502
-1.62257 44.965 76.8177 -0.326049 0.738935 0.589631
-0.717706 46.1908 75.7854 -0.301422 0.751259 0.586476
0.00934838 47.2707 74.5816 -0.252076 0.804643 0.537505
0.492658 48.0993 73.5698 -0.215963 0.842037 0.494301
0.429073 48.8867 72.2005 -0.215934 0.842064 0.494268
-0.137665 49.4942 71.0947 -0.169816 0.800579 0.574661
-0.828771 50.2249 69.6564 -0.20057 0.859442 0.467108
-1.82623 50.7424 68.1645 -0.231437 0.872661 0.427188
-3.37621 50.8235 67.1242 -0.23083 0.903056 0.360718
-4.79776 50.5035 66.9052 -0.288249 0.843286 0.453632
-6.51977 50.0741 66.4803 -0.375401 0.827149 0.418208
-7.80014 49.802 65.869 -0.37514 0.845181 0.378168
-7.31904 50.4697 64.7532 -0.336828 0.881321 0.328334
-6.97054 51.0521 63.2769 -0.288178 0.913582 0.286734
-6.59119 51.7156 61.5369 -0.279735 0.917749 0.281929
-6.50932 52.2015 59.9881 -0.262972 0.932025 0.249348
-6.56326 52.4999 58.6917 -0.280597 0.939613 0.195942
-6.76211 52.7615 56.8527 -0.313873 0.938229 0.144763
-7.30236 52.7681 55.447 -0.369738 0.924225 0.07055
-7.88306 52.68 54.0033 -0.425637 0.900305 0.0823428
-8.70108 52.3797 52.8347 -0.472096 0.878469 0.065321
-9.71247 51.9126 51.5493 -0.511182 0.851943 0.113061
-10.8343 51.2542 50.7819 -0.582652 0.805702 0.106587
-11.9829 50.4544 50.448 -0.612673 0.778107 0.138496
-13.2901 49.4834 49.9781 -0.642243 0.740337 0.198557
-14.3802 48.5545 49.7743 -0.67015 0.71726 0.190886
-15.4962 47.5437 49.6376 -0.685749 0.673501 0.275942
-16.5352 46.4013 49.8115 -0.697602 0.646831 0.308158
-17.5262 45.3438 49.7823 -0.695096 0.647438 0.312515
-18.3377 44.2075 50.0832 -0.716497 0.58974 0.371521
-19.1547 42.8223 50.5365 -0.734865 0.55104 0.395385
-19.814 41.7035 50.8485 -0.715659 0.546155 0.43537
-20.741 40.8134 50.5652 -0.678578 0.55689 0.477311
-20.635 39.9297 51.653 -0.69402 0.52798 0.489463
-21.0982 38.7681 52.2247 -0.684832 0.528898 0.500846
-21.59 37.3784 53.0107 -0.646894 0.55569 0.520594
-21.7608 36.3275 53.8236 -0.642036 0.52863 0.555284
-21.8201 35.2523 54.8047 -0.638827 0.542089 0.54593
-21.8406 34.1485 55.882 -0.634741 0.549762 0.543016
-21.6473 33.3256 56.9832 -0.650205 0.570328 0.501956
-21.3844 32.5625 58.2109 -0.675525 0.575349 0.46113
-21.076 31.9908 59.3901 -0.671228 0.598993 0.436241
-20.7246 31.4352 60.7439 -0.683103 0.595856 0.422286
-20.1891 31.1363 62.2725 -0.694091 0.633474 0.341947
-19.6994 30.9847 63.5063 -0.709726 0.645083 0.279598
-19.1529 31.0554 64.926 -0.740583 0.622758 0.252406
-18.5562 31.2685 66.3536 -0.780875 0.588958 0.208238
-17.9063 31.695 67.7766 -0.821712 0.542231 0.175425
-17.1793 32.3699 69.1695 -0.833933 0.526698 0.164758
-16.3704 33.2781 70.491 -0.864821 0.471465 0.17264
-15.6129 34.2755 71.5527 -0.876514 0.416626 0.241134
-14.974 35.2832 72.1694 -0.867678 0.387316 0.311643
-14.2261 36.559 72.8712 -0.86911 0.334065 0.35954
-13.4506 37.8695 73.2742 -0.821006 0.384642 0.4219
-12.656 39.1868 73.6715 -0.741255 0.388064 0.547675
-11.7821 39.464 74.7462 -0.736364 0.436587 0.514666
-10.9163 39.3969 75.9421 -0.690657 0.465787 0.552778
-9.96702 39.5257 76.9341 -0.626983 0.54901 0.552703
-8.23095 39.8782 78.1266 -0.555426 0.598274 0.576716
-6.86372 40.3909 78.7896 -0.513868 0.626317 0.586231
-5.60353 41.2102 78.9643 -0.41741 0.703667 0.574997
-5.14008 41.5935 78.8315 -0.417385 0.703679 0.575
-5.84298 41.9477 77.8878 -0.417406 0.703671 0.574995
-4.86182 42.7591 77.6291 -0.428113 0.678114 0.597394
-3.43715 44.0131 76.9959 -0.335721 0.738104 0.58523
-2.31786 45.3626 75.94 -0.320303 0.736894 0.595309
-1.51099 46.2976 75.2168 -0.320312 0.736901 0.595296
-0.931589 47.2274 74.2196 -0.246435 0.80154 0.544796
-0.689814 48.1295 73.0017 -0.231086 0.821924 0.519361
-0.975656 49.0318 71.4914 -0.169816 0.800579 0.574661
-1.54553 49.6141 70.3923 -0.25853 0.827329 0.496657
-2.09872 50.0537 69.2727 -0.251432 0.850017 0.462857
-3.59037 50.2363 68.1427 -0.249249 0.84882 0.46624
-5.13963 49.9185 67.773 -0.283666 0.839453 0.463522
-6.70618 49.4805 67.4869 -0.37314 0.828799 0.416952
-8.31228 48.8499 67.3137 -0.374728 0.817673 0.436331
-9.0027 48.9144 66.5834 -0.362649 0.83115 0.421517
-8.43289 49.8688 65.1185 -0.371237 0.843459 0.388277
-7.99479 50.4656 63.9985 -0.327646 0.899703 0.288413
-7.83628 51.0838 62.35 -0.280392 0.91553 0.288385
-7.57846 51.5882 60.9719 -0.275344 0.915271 0.293769
-7.45143 52.0201 59.6609 -0.285086 0.934966 0.211106
-7.58674 52.3297 57.9004 -0.298055 0.94299 0.148099
-7.85111 52.4096 56.5681 -0.335635 0.935041 0.112611
-8.28812 52.3459 55.2718 -0.398436 0.913758 0.0616461
-8.94772 52.146 53.9489 -0.449269 0.890463 0.0703162
-9.78211 51.7585 52.9085 -0.495548 0.867495 0.0434049
-10.6652 51.25 51.8864 -0.560271 0.825921 0.0628521
-11.9019 50.3652 51.4094 -0.63002 0.771624 0.0875825
-12.9825 49.5516 50.9868 -0.679098 0.724519 0.117891
-14.0904 48.541 50.7888 -0.686764 0.700954 0.190736
-15.0772 47.6548 50.5426 -0.704335 0.676912 0.213713
-16.1884 46.3538 50.7498 -0.739137 0.622194 0.257973
-17.1895 45.1403 50.9527 -0.716727 0.616233 0.324013
-18.0802 43.8357 51.1413 -0.747085 0.551284 0.371416
-18.8043 42.6787 51.3773 -0.752684 0.540315 0.376199
-19.6231 41.2135 51.7961 -0.726578 0.532009 0.4348
-20.1938 39.5426 52.6962 -0.696818 0.522144 0.491695
-20.6982 38.2762 53.2375 -0.678879 0.509249 0.528401
-20.976 36.7357 54.362 -0.655408 0.519328 0.548396
-21.0576 35.6565 55.2968 -0.639284 0.542115 0.545369
-20.998 34.7109 56.2976 -0.637093 0.542812 0.547171
-20.8653 33.8515 57.3986 -0.64157 0.57273 0.510119
-20.6312 33.1035 58.5659 -0.671842 0.59019 0.447554
-20.2357 32.3574 60.1924 -0.642873 0.633722 0.430246
-19.8387 32.0167 61.4244 -0.664044 0.644076 0.379753
-19.4571 31.7257 62.7594 -0.733721 0.593916 0.330025
-18.7873 31.7832 64.3031 -0.77132 0.580297 0.261104
-18.2774 31.9813 65.5427 -0.797587 0.563262 0.215685
-17.7131 32.3083 66.776 -0.806724 0.550745 0.214189
-17.1315 32.789 68.0948 -0.836371 0.522196 0.166523
-16.5535 33.4021 69.1314 -0.853578 0.494769 0.163118
-15.8971 34.3297 70.2035 -0.89131 0.414727 0.179463
-15.3201 35.2478 71.0148 -0.930043 0.305051 0.204852
-14.5786 36.6418 71.7541 -0.896713 0.31916 0.306663
-13.6919 38.588 72.4321 -0.829541 0.270185 0.488734
-13.0638 39.9239 72.5973 -0.751434 0.348371 0.558733
-12.2931 40.5673 73.2789 -0.70685 0.381734 0.58819
-11.2527 40.4921 74.452 -0.651047 0.45513 0.607449
-10.4243 40.3892 75.5483 -0.647099 0.554156 0.523616
-9.3326 40.38 76.6596 -0.533505 0.591832 0.604242
-7.86054 40.7243 77.5611 -0.500791 0.626881 0.596849
-6.51013 41.4436 77.9748 -0.513854 0.626337 0.586222
-5.99917 41.8554 77.8875 -0.41743 0.703658 0.574994
31.0522 68.021 -36.9328 0.306417 0.91831 0.250631
30.2248 68.5351 -37.7903 0.311892 0.916631 0.250021
29.4332 69.0261 -38.6184 0.31079 0.919977 0.238856
28.7282 69.456 -39.3569 0.31079 0.919977 0.238854
30.5872 67.5852 -34.7887 0.303598 0.918291 0.254107
29.1047 68.5169 -36.3264 0.311892 0.916631 0.250021
27.2816 69.6602 -38.2355 0.316975 0.917535 0.240119
25.1993 70.9468 -40.4317 0.317075 0.920671 0.227658
25.0479 71.0373 -40.593 0.325243 0.920512 0.216505
21.5316 72.535 -41.6932 0.316291 0.924749 0.211657
22.9733 71.6647 -40.1486 0.324843 0.916329 0.234135
24.4147 70.7607 -38.6126 0.325194 0.916368 0.233491
26.0936 69.705 -36.8404 0.320937 0.91381 0.248898
27.58 68.7554 -35.2843 0.318026 0.912565 0.25707
28.1803 68.3698 -34.6582 0.316104 0.913484 0.256173
25.2762 69.5025 -35.0572 0.322103 0.911868 0.254455
23.8015 70.4549 -36.6091 0.324161 0.914393 0.242497
21.8523 71.6886 -38.6794 0.327177 0.916816 0.228916
19.594 73.068 -41.1002 0.324068 0.922603 0.209244
18.5934 73.6637 -42.1767 0.320954 0.925101 0.20292
15.8292 74.6603 -42.4639 0.306329 0.933538 0.186196
17.7976 73.525 -40.3497 0.323617 0.922238 0.211542
19.3608 72.5825 -38.6729 0.327021 0.918041 0.224182
20.8366 71.6558 -37.0964 0.330438 0.915812 0.228253
22.4141 70.6375 -35.4252 0.330785 0.910887 0.24671
23.1589 70.1455 -34.6398 0.335201 0.907824 0.251984
20.8326 70.9541 -34.445 0.338798 0.907372 0.248782
19.031 72.1316 -36.3562 0.335157 0.912521 0.234466
17.3666 73.1682 -38.1326 0.33978 0.915061 0.217287
15.4195 74.3441 -40.2242 0.333681 0.921467 0.198888
13.7927 75.2541 -41.9756 0.322686 0.930888 0.171232
13.2944 75.5213 -42.5165 0.319551 0.933498 0.162691
10.8869 76.3318 -42.4607 0.315156 0.937194 0.149482
12.4591 75.4893 -40.7376 0.330535 0.928916 0.166916
14.0165 74.5944 -39.0487 0.330662 0.922713 0.19815
15.7072 73.5703 -37.2326 0.339595 0.915148 0.217207
17.2699 72.5841 -35.5688 0.340739 0.910127 0.235723
18.8111 71.5733 -33.9311 0.344119 0.906434 0.244867
19.4727 71.1302 -33.234 0.347396 0.904485 0.247431
18.002 71.393 -32.1381 0.349548 0.9003 0.259375
16.4395 72.4517 -33.7906 0.351525 0.906057 0.235565
14.8315 73.5031 -35.4902 0.350918 0.91051 0.218695
13.3106 74.4675 -37.1146 0.357124 0.909991 0.210661
11.8067 75.3701 -38.7534 0.348466 0.920088 0.178914
10.0581 76.3432 -40.6828 0.336231 0.930341 0.146333
9.05409 76.8682 -41.7929 0.334871 0.93376 0.12631
7.61005 77.2495 -40.7046 0.346835 0.930621 0.116832
9.29676 76.3287 -38.8255 0.355969 0.922002 0.152308
10.7329 75.5024 -37.2377 0.357855 0.917847 0.171743
12.7782 74.1985 -35.0055 0.363377 0.909107 0.203673
14.5142 73.0478 -33.1649 0.356901 0.906838 0.224202
16.0231 72.0205 -31.5801 0.35584 0.900253 0.250843
16.8037 71.4756 -30.7708 0.357863 0.897161 0.258915
15.5363 71.6089 -29.4656 0.361335 0.894343 0.263796
13.7801 72.8326 -31.2893 0.35879 0.898176 0.254065
12.1187 73.9786 -33.0384 0.373059 0.901048 0.221223
10.6826 74.945 -34.5847 0.36625 0.908589 0.200816
9.20651 75.8859 -36.2153 0.363554 0.913776 0.181225
7.63788 76.832 -37.9678 0.357381 0.920265 0.159347
6.6354 77.3934 -39.091 0.368134 0.91988 0.135268
6.23558 77.1883 -36.8192 0.372899 0.914397 0.15756
7.77534 76.2303 -35.0894 0.366116 0.909978 0.194678
9.24021 75.2742 -33.4659 0.374439 0.902573 0.212504
10.9933 74.0587 -31.5635 0.37063 0.895001 0.248206
12.5129 72.9818 -29.9697 0.372825 0.893404 0.250659
14.3651 71.6626 -28.0817 0.360633 0.892177 0.271962
14.4295 71.6167 -28.0168 0.360635 0.892176 0.271963
12.7169 72.0511 -27.1706 0.367508 0.888697 0.274146
10.8711 73.3947 -29.0344 0.375279 0.890492 0.257274
9.25302 74.5786 -30.7547 0.378181 0.894037 0.240161
7.81893 75.5855 -32.3237 0.370035 0.90119 0.225679
6.33112 76.5874 -33.9737 0.381453 0.901502 0.204422
5.91785 76.8584 -34.4423 0.38309 0.905214 0.183928
5.61263 76.4426 -32.0434 0.382785 0.89684 0.221705
7.26734 75.2607 -30.2207 0.38059 0.891003 0.247517
8.68048 74.2253 -28.698 0.374663 0.889742 0.260744
10.2101 73.0833 -27.1032 0.369651 0.886059 0.279745
11.8442 71.8814 -25.4769 0.36408 0.88464 0.291304
12.7171 71.2511 -24.6224 0.356679 0.888455 0.288839
11.8454 71.059 -22.9473 0.359396 0.885115 0.295645
10.1845 72.2672 -24.5639 0.367099 0.882356 0.294425
8.50315 73.5304 -26.2453 0.379113 0.882107 0.27957
6.98046 74.6817 -27.8353 0.375564 0.885785 0.272647
5.40835 75.8604 -29.5269 0.387897 0.886946 0.250724
4.79923 75.509 -27.4561 0.385758 0.879744 0.277924
6.24894 74.3993 -25.9428 0.377016 0.882324 0.281713
7.86979 73.1618 -24.3063 0.378341 0.878323 0.292245
9.3293 72.0486 -22.8561 0.366127 0.87906 0.305294
11.2121 70.6815 -21.0998 0.353895 0.885511 0.301045
10.8903 70.0691 -18.9438 0.337425 0.887409 0.314085
9.23443 71.2765 -20.483 0.356719 0.880558 0.31204
7.17206 72.8127 -22.4455 0.366517 0.877474 0.309363
5.67323 73.9554 -23.9141 0.360797 0.878011 0.31452
4.20652 75.079 -25.3847 0.372128 0.878046 0.300925
4.0393 75.2087 -25.5563 0.372902 0.877842 0.300563
2.62459 75.3724 -24.3176 0.370947 0.872523 0.317965
4.21487 74.1382 -22.7639 0.355555 0.874584 0.329671
5.7922 72.9503 -21.2497 0.345598 0.880471 0.324549
7.27865 71.8157 -19.8321 0.347556 0.879739 0.324445
8.9344 70.5979 -18.3134 0.346996 0.881915 0.319093
10.053 69.7943 -17.2759 0.338724 0.884431 0.32101
9.30974 69.4452 -15.5445 0.323261 0.887057 0.329593
7.38475 70.8135 -17.2998 0.329368 0.88091 0.339875
5.68037 72.0734 -18.8699 0.330988 0.879244 0.342602
3.89482 73.4089 -20.5326 0.337795 0.874243 0.348704
2.08368 74.8045 -22.2217 0.35696 0.8639 0.355326
1.42411 75.3244 -22.8501 0.369962 0.863813 0.341987
0.0860819 75.3298 -21.5156 0.352001 0.855497 0.379762
1.56134 74.1764 -20.1919 0.334995 0.868441 0.365497
3.52571 72.6953 -18.4133 0.31957 0.875277 0.362994
5.15061 71.4997 -16.924 0.313633 0.879432 0.358097
7.2159 70.03 -15.0791 0.308082 0.884772 0.349663
8.91497 68.8288 -13.5026 0.313919 0.888108 0.335736
8.21035 68.4094 -11.7777 0.302948 0.889181 0.342899
6.32875 69.7234 -13.5066 0.306211 0.886989 0.345667
4.78603 70.8085 -14.9027 0.304949 0.884371 0.353403
2.94776 72.1212 -16.5398 0.312695 0.877398 0.363859
1.2594 73.3571 -18.0309 0.308176 0.866102 0.393567
-0.406604 74.5989 -19.4783 0.308431 0.868781 0.387415
-1.58318 75.5099 -20.4826 0.32637 0.84936 0.414813
-3.47162 75.7551 -19.6258 0.309486 0.809105 0.499568
-1.84986 74.5238 -18.3013 0.272584 0.866558 0.418062
-0.252963 73.3745 -16.965 0.262036 0.863583 0.430768
1.46432 72.1731 -15.4927 0.291144 0.876748 0.382816
3.05347 71.0562 -14.1114 0.274095 0.886482 0.372855
4.75548 69.8877 -12.5912 0.279905 0.893447 0.351291
6.31468 68.8163 -11.1695 0.297583 0.890938 0.343036
7.12041 68.263 -10.4351 0.298822 0.893185 0.336044
6.55604 67.7409 -8.61874 0.277341 0.895792 0.347331
4.69671 68.9818 -10.2989 0.271677 0.890822 0.364181
3.14652 70.0142 -11.6923 0.266282 0.889907 0.370351
1.58347 71.0668 -13.0705 0.223821 0.898346 0.377993
-0.324725 72.3146 -14.6903 0.23277 0.881105 0.411669
-2.25782 73.6176 -16.3014 0.236665 0.865771 0.440943
-4.12592 74.9285 -17.7942 0.229002 0.839816 0.492206
-5.86676 76.2176 -19.0928 0.211887 0.80984 0.54705
-9.50207 77.2217 -19.2716 0.156063 0.729606 0.665823
-7.47551 75.8343 -18.0468 0.130907 0.798133 0.588088
-5.84647 74.7098 -16.8578 0.114889 0.828223 0.548496
-4.15335 73.6185 -15.5336 0.123972 0.859969 0.495059
-2.12366 72.338 -13.8971 0.175571 0.859566 0.479917
-0.335867 71.2078 -12.391 0.165388 0.889485 0.425985
1.29744 70.2507 -10.9682 0.219459 0.889351 0.401114
3.3444 68.8818 -9.16989 0.232949 0.890473 0.390887
5.12817 67.7472 -7.57696 0.248275 0.895052 0.37046
6.75366 66.7125 -6.08332 0.270355 0.90042 0.340811
6.3023 66.0892 -4.12048 0.248384 0.907458 0.338858
4.75377 67.0642 -5.56096 0.247794 0.904307 0.347602
2.76277 68.2819 -7.35806 0.218699 0.900841 0.375041
1.19196 69.2113 -8.73728 0.17792 0.895083 0.408865
-0.405929 70.168 -10.1084 0.111749 0.898867 0.423734
-2.32332 71.2493 -11.7942 0.123635 0.879409 0.459733
-4.09211 72.3046 -13.2586 0.116747 0.862214 0.492907
-5.77879 73.2435 -14.5809 0.0753934 0.85221 0.517739
-7.91295 74.5477 -16.2628 0.0568873 0.800926 0.596054
-8.78272 75.1191 -16.8643 0.0825436 0.779385 0.621084
-9.41533 73.9143 -15.2683 0.0568886 0.800925 0.596056
-7.41779 72.7474 -13.6818 0.0119052 0.839667 0.542972
-5.65981 71.8701 -12.2943 0.031023 0.863653 0.503132
-3.64795 70.8346 -10.644 0.0731169 0.883991 0.461752
-1.89639 69.8655 -9.10156 0.111977 0.894407 0.433009
-0.168338 68.9907 -7.58284 0.136974 0.909665 0.392107
1.46459 68.0819 -6.15245 0.175121 0.913312 0.367688
3.21752 67.0648 -4.57647 0.220073 0.910692 0.349584
5.41438 65.7529 -2.55591 0.245188 0.908976 0.337114
5.56288 65.6613 -2.41717 0.243969 0.908636 0.33891
5.23799 64.9889 -0.33639 0.2372 0.91596 0.323657
3.40339 66.0588 -2.02962 0.208176 0.919117 0.334494
1.77376 66.9619 -3.50058 0.174377 0.920648 0.349284
0.158636 67.8224 -4.94201 0.125384 0.90917 0.397101
-1.89738 68.8322 -6.75981 0.102225 0.925897 0.363681
-3.622 69.6333 -8.31265 0.0354531 0.890571 0.453461
-5.25432 70.4337 -9.7251 0.0251663 0.884492 0.465876
-7.05909 71.2763 -11.2597 0.00738411 0.863542 0.504222
-8.85044 72.0906 -12.6348 0.0119048 0.839667 0.542972
-10.3531 72.9112 -13.8534 -0.0327199 0.814641 0.579042
-10.9613 71.7516 -12.2055 -0.0274179 0.840186 0.541605
-9.21538 70.9618 -10.8229 -0.0444827 0.876282 0.479741
-7.12062 70.0917 -9.05662 -0.0170668 0.879154 0.476232
-5.44271 69.3552 -7.58984 0.0129075 0.901802 0.431957
-3.78216 68.6309 -6.08021 0.0148843 0.923235 0.383948
-1.96872 67.863 -4.45218 0.0473772 0.913402 0.404293
-0.172822 67.0223 -2.86214 0.123432 0.923224 0.363898
1.51614 66.1909 -1.3507 0.165708 0.92699 0.336498
3.84387 64.9569 0.757715 0.215844 0.919996 0.327136
5.01554 64.2751 1.84107 0.225243 0.923718 0.309856
4.44384 63.8034 3.71401 0.230118 0.926611 0.297385
2.78808 64.6683 2.19148 0.191428 0.928004 0.31963
0.748455 65.6999 0.352992 0.158262 0.933017 0.323161
-0.969163 66.4954 -1.18111 0.0960959 0.931838 0.349918
-2.60057 67.1842 -2.63633 0.0558722 0.935165 0.349779
-4.4218 67.8759 -4.26895 -0.00833074 0.930519 0.366149
-6.38496 68.6366 -6.07424 -0.0309486 0.915142 0.401942
-8.41645 69.4346 -7.89666 -0.0369317 0.888689 0.457022
-10.5881 70.294 -9.72952 -0.0543394 0.876949 0.477502
-12.3285 71.0087 -11.1801 -0.0554664 0.859611 0.507929
-13.0267 71.3013 -11.7383 -0.0755195 0.829859 0.552839
-14.7997 70.726 -10.983 -0.0475584 0.867184 0.495712
-12.6417 69.8717 -9.21903 -0.0560965 0.881579 0.468691
-10.6739 69.1212 -7.54446 -0.0642809 0.881584 0.46763
-8.77 68.4624 -5.84761 -0.0283209 0.914136 0.404417
-6.92471 67.7832 -4.16253 -0.0335758 0.916135 0.399462
-4.8901 67.0939 -2.30893 -0.0122567 0.928655 0.370743
-3.24474 66.5409 -0.822865 0.0335693 0.934268 0.354989
-1.23795 65.7423 0.966668 0.0854672 0.939836 0.330763
0.494814 64.9922 2.52899 0.162611 0.935004 0.315158
2.15843 64.1968 4.03922 0.197437 0.933211 0.300226
3.98627 63.2708 5.70991 0.207858 0.933173 0.293229
4.30928 63.1008 6.00914 0.214892 0.930558 0.29645
4.23445 62.3817 8.38106 0.215007 0.936205 0.278014
2.53637 63.2334 6.79792 0.185191 0.935005 0.302439
0.681462 64.1055 5.11117 0.157345 0.938795 0.306442
