-16.4187 68.5053 -1.24056 -0.07112 0.928089 0.365503
-16.2406 69.0648 -2.59267 -0.105405 0.927692 0.358118
-15.918 69.6923 -4.0645 -0.113791 0.916534 0.383427
-15.4987 70.5584 -5.88933 -0.146452 0.900803 0.408785
-15.3077 71.1088 -7.03521 -0.155516 0.906081 0.39322
-14.4208 71.6527 -7.71199 -0.181565 0.866305 0.465348
-12.8119 72.1626 -8.03043 -0.17332 0.834237 0.523458
-11.3484 72.7877 -8.58126 -0.150913 0.841577 0.518627
-10.1976 73.513 -9.41014 -0.104653 0.832837 0.543536
-9.33336 74.2021 -10.2992 -0.104954 0.832574 0.54388
-8.76175 75.0433 -11.4437 -0.0698039 0.819044 0.56925
-8.39254 75.9211 -12.7004 -0.0573144 0.827788 0.558106
-8.46743 76.7065 -13.7821 -0.00297439 0.801851 0.597517
-8.44392 77.6266 -14.9643 0.0352874 0.793735 0.60653
-7.00012 77.2772 -14.6528 0.0747053 0.798494 0.59735
-5.72917 76.8298 -14.3203 0.131467 0.817596 0.560583
-4.19779 76.3226 -13.9629 0.162073 0.841325 0.515659
-3.00493 75.9205 -13.7752 0.201805 0.849 0.488337
-1.0946 75.5085 -13.9223 0.247843 0.868234 0.429817
0.273147 75.2931 -14.2999 0.269953 0.873525 0.405067
1.45087 75.1518 -14.7969 0.280019 0.871426 0.402749
2.5921 75.0438 -15.4225 0.306787 0.871043 0.383621
3.78744 75.0272 -16.3789 0.312208 0.881024 0.355419
4.94317 75.0628 -17.5167 0.324406 0.881461 0.343201
5.80355 75.1082 -18.4621 0.334915 0.879709 0.337556
6.73017 75.2772 -19.8348 0.343415 0.879676 0.328978
7.42703 75.4359 -21.0145 0.35103 0.880913 0.317444
8.26856 75.5986 -22.4108 0.355373 0.881721 0.310251
8.86578 75.7893 -23.6514 0.353716 0.883707 0.306508
9.16683 76.1243 -25.0305 0.358439 0.886505 0.292625
9.73689 76.3469 -26.4366 0.364919 0.887621 0.280922
10.0902 76.7233 -28.122 0.365911 0.891049 0.268478
10.3041 77.0573 -29.5724 0.364697 0.896246 0.252408
10.423 77.3718 -30.873 0.356304 0.901174 0.24675
10.5203 77.7106 -32.2891 0.358685 0.904284 0.231315
10.677 78.0052 -33.7213 0.350788 0.908696 0.226316
10.8182 78.2819 -35.149 0.345006 0.913642 0.214887
10.8709 78.7041 -37.1529 0.342142 0.920387 0.188812
11.2862 78.8464 -38.6509 0.325194 0.928407 0.179745
12.1781 78.7068 -39.5559 0.318813 0.932028 0.172208
13.8643 78.2369 -40.071 0.310343 0.933301 0.180568
15.4097 77.7535 -40.2369 0.31465 0.92764 0.201183
16.7881 77.3216 -40.3559 0.304265 0.928853 0.211316
18.4665 76.8428 -40.6543 0.299085 0.926821 0.226931
19.6848 76.4735 -40.7918 0.299191 0.925115 0.233604
20.9768 76.0554 -40.8238 0.308572 0.919719 0.242692
22.8548 75.3362 -40.5257 0.316049 0.913349 0.256722
24.2807 74.798 -40.3824 0.324401 0.910014 0.258146
25.6719 74.1798 -39.9488 0.325137 0.910107 0.25688
27.0237 73.6629 -39.8194 0.323205 0.909602 0.261079
27.9744 73.299 -39.7284 0.323203 0.909602 0.261083
28.2896 73.5288 -40.9347 0.326939 0.911467 0.249676
29.4412 73.0468 -40.6815 0.326711 0.911606 0.249467
30.705 72.5223 -40.3881 0.318504 0.913213 0.254149
31.7515 71.9565 -39.6789 0.319833 0.912286 0.255816
32.5052 71.4313 -38.7535 0.31509 0.909552 0.27097
33.0053 70.9082 -37.5627 0.306288 0.912446 0.271349
33.2684 70.4521 -36.326 0.305909 0.911876 0.273671
33.6494 69.8452 -34.7519 0.306805 0.91031 0.27786
33.6152 69.303 -32.9432 0.304516 0.910669 0.279201
32.6812 69.2771 -31.8502 0.302341 0.908843 0.287393
31.3953 69.6967 -31.8155 0.30814 0.908065 0.283669
29.1481 70.4248 -31.6419 0.318192 0.905514 0.280686
27.2251 71.1276 -31.7024 0.322085 0.904126 0.280744
25.2422 71.7921 -31.5204 0.328134 0.902212 0.279897
23.472 72.3363 -31.151 0.336457 0.89923 0.279611
22.0503 72.7089 -30.6331 0.342111 0.89768 0.277684
20.7003 73.0252 -29.9679 0.346624 0.896079 0.277298
19.605 73.2182 -29.2222 0.344188 0.897841 0.274589
18.2291 73.3595 -27.9379 0.355774 0.891003 0.282025
17.2773 73.3763 -26.7901 0.354903 0.890966 0.283232
16.5049 73.2682 -25.4903 0.354033 0.890929 0.28444
15.6504 73.2061 -24.2083 0.365978 0.88637 0.283562
15.1392 72.9436 -22.7879 0.363472 0.883169 0.29648
14.4863 72.7219 -21.327 0.35821 0.883439 0.301934
13.9863 72.4056 -19.8434 0.35295 0.883707 0.307391
13.7101 72.0462 -18.5113 0.353005 0.882039 0.31208
12.9161 71.5975 -16.3592 0.347855 0.88362 0.313389
12.2806 71.4396 -15.2045 0.35907 0.883873 0.299729
11.4066 71.0148 -13.1616 0.338066 0.882309 0.327478
10.6529 70.6972 -11.5814 0.323797 0.886082 0.331684
10.0991 70.2217 -9.77032 0.322007 0.88715 0.330562
9.74638 69.8434 -8.44264 0.307599 0.889862 0.336941
9.45119 69.4956 -7.25448 0.307667 0.89011 0.336221
9.3203 69.077 -6.02343 0.307729 0.890359 0.335504
9.04648 68.4679 -4.19 0.292729 0.895737 0.334609
8.75569 68.069 -2.87187 0.289833 0.895086 0.338814
8.35054 67.6353 -1.36843 0.287851 0.898623 0.331086
8.00462 67.2489 -0.0152293 0.279705 0.900425 0.333096
7.61992 66.6455 1.94253 0.274133 0.904306 0.327234
7.32283 66.1616 3.50465 0.254892 0.910383 0.325933
7.06535 65.6024 5.28478 0.251169 0.914311 0.317726
7.05219 65.1102 6.72754 0.254423 0.916399 0.308897
6.91107 64.7076 8.03506 0.260815 0.915254 0.307044
6.75209 64.1321 9.91989 0.26018 0.918138 0.298859
6.77684 63.7152 11.2032 0.260986 0.919698 0.293328
5.95723 63.481 12.6865 0.251484 0.924991 0.284863
6.69204 62.8549 14.1081 0.251766 0.930008 0.267766
6.30436 63.117 13.5643 0.2523 0.929721 0.26826
5.68381 63.6468 12.386 0.248466 0.926174 0.283666
5.25363 64.1083 11.2773 0.248934 0.923568 0.291641
4.73941 64.6466 10.0127 0.239526 0.924106 0.29775
3.91073 65.2374 8.83694 0.238032 0.925327 0.295144
3.10742 65.7367 7.8767 0.218571 0.929059 0.29817
1.98994 66.3256 6.87707 0.192138 0.932649 0.3048
0.72079 66.7641 6.25369 0.184267 0.937414 0.295131
-0.845784 67.0479 6.06685 0.103889 0.948014 0.299658
-2.26798 67.1091 6.22476 0.0563229 0.9506 0.304795
-3.65873 67.0182 6.65678 0.0319655 0.948675 0.314633
-5.04798 66.7649 7.32796 -0.0393897 0.943643 0.328612
-6.39354 66.3252 8.49316 -0.072444 0.95156 0.298807
-7.36265 65.9836 9.3035 -0.105281 0.944247 0.311949
-8.58007 65.5256 10.2828 -0.111563 0.943524 0.311885
-9.81421 64.9512 11.5245 -0.132256 0.939571 0.315639
-10.9505 64.4455 12.5049 -0.139764 0.93548 0.324567
-12.2976 63.9685 13.2797 -0.14602 0.932756 0.329613
-14.2566 63.8472 12.7481 -0.148286 0.932542 0.329205
-14.856 64.2501 11.3307 -0.147454 0.933606 0.326553
-15.381 64.7354 9.70761 -0.146459 0.934013 0.325837
-15.6353 65.1308 8.45003 -0.144911 0.936146 0.320363
-16.1513 65.4834 7.21765 -0.138857 0.932291 0.333995
-16.5093 65.9237 5.83387 -0.133577 0.932861 0.334555
-16.7551 66.3385 4.57914 -0.131765 0.933945 0.332227
-17.2369 66.9585 2.69743 -0.11976 0.935721 0.331706
-17.2484 67.4027 1.47474 -0.102736 0.93313 0.344549
-17.5626 67.9081 0.0526054 -0.0711887 0.927958 0.365823
-17.6437 68.467 -1.38147 -0.0766933 0.930091 0.359127
-17.3604 69.0551 -2.89842 -0.0786186 0.937548 0.338855
-17.0853 69.5577 -4.08924 -0.101274 0.912764 0.395338
-16.6887 70.3465 -5.86335 -0.1195 0.914432 0.384428
-16.573 70.9149 -7.09835 -0.158614 0.911265 0.38005
-16.1373 71.722 -8.59585 -0.226674 0.856679 0.46338
-14.7704 72.174 -8.81888 -0.196701 0.852639 0.483299
-13.4091 72.6148 -8.98134 -0.211843 0.838973 0.501246
-12.1468 73.1181 -9.34985 -0.154431 0.836031 0.526402
-10.562 74.2155 -10.5582 -0.129796 0.810091 0.571733
-10.0321 74.932 -11.4668 -0.0816956 0.812446 0.577284
-9.54932 75.6816 -12.464 -0.0576166 0.826714 0.559661
-9.69867 76.8684 -14.0106 -0.00841908 0.787294 0.61652
-9.77012 77.6692 -15.0244 0.023969 0.762607 0.645497
-9.90514 78.8098 -16.3063 0.0141451 0.751323 0.658711
-9.2566 79.438 -17.0588 0.0859098 0.709127 0.699828
-7.77112 78.4454 -16.0668 0.0880951 0.771079 0.630616
-6.40664 77.7712 -15.4803 0.162584 0.801437 0.575557
-4.95436 77.2483 -15.162 0.195086 0.815726 0.544548
-3.60616 76.7175 -14.8704 0.229384 0.836369 0.497865
-2.21649 76.2775 -14.756 0.259726 0.854792 0.449302
-0.968601 76.0004 -14.9433 0.267729 0.859549 0.434873
0.313462 75.7939 -15.3723 0.277757 0.863253 0.421479
1.54275 75.6636 -15.9907 0.294504 0.872416 0.389828
2.66274 75.6135 -16.8014 0.311005 0.875169 0.370614
3.76343 75.6623 -17.9044 0.32712 0.875755 0.355028
4.86348 75.7143 -19.0942 0.336135 0.877147 0.342968
5.74622 75.8663 -20.3861 0.343712 0.880165 0.327371
6.51624 76.0255 -21.644 0.34607 0.881965 0.319959
7.40521 76.1362 -22.9588 0.355919 0.883115 0.305662
7.95771 76.4308 -24.466 0.365442 0.882264 0.296743
8.38095 76.758 -25.9857 0.367427 0.885393 0.284738
8.90851 76.996 -27.432 0.3667 0.888917 0.274512
9.07464 77.3117 -28.708 0.370726 0.892522 0.25684
9.31553 77.6001 -30.0771 0.36841 0.895852 0.248443
9.4377 77.9101 -31.4203 0.365703 0.900396 0.235685
9.4931 78.2524 -32.8469 0.358239 0.907033 0.221262
9.74508 78.5221 -34.392 0.354799 0.910308 0.213206
9.68989 78.8707 -35.8646 0.352774 0.915676 0.192583
9.76134 79.1087 -37.1443 0.338403 0.924266 0.17668
10.0505 79.2644 -38.5083 0.334994 0.926685 0.170181
10.6967 79.2518 -39.7408 0.330198 0.929198 0.166011
11.6167 79.1008 -40.6307 0.316042 0.932162 0.176608
12.9476 78.7422 -41.0987 0.302937 0.936923 0.173931
14.2582 78.3416 -41.2526 0.306894 0.933587 0.185019
15.6976 77.9068 -41.402 0.297869 0.934315 0.195782
17.1199 77.4647 -41.4629 0.306753 0.927945 0.211694
18.7073 77.0344 -41.7542 0.299088 0.926821 0.226924
20.395 76.5778 -42.0639 0.30052 0.922797 0.240947
21.8492 76.0966 -41.996 0.290376 0.921518 0.257848
23.0959 75.5984 -41.7428 0.317021 0.911975 0.260382
24.5454 75.0469 -41.5992 0.329423 0.907362 0.261011
26.1905 74.3594 -41.2516 0.326406 0.910078 0.255377
27.742 73.7598 -41.0602 0.324093 0.91172 0.252417
7.00166 59.1122 32.3007 0.199077 0.977386 0.0707725
7.51101 59.0932 31.2665 0.195138 0.977442 0.0807454
8.15036 59.0606 30.2779 0.195851 0.975355 0.101158
8.73038 59.101 28.9672 0.203118 0.971065 0.125605
9.03827 59.251 27.4372 0.196846 0.96952 0.145875
8.61459 59.547 26.0751 0.198189 0.968308 0.151989
8.19802 59.7089 25.5844 0.198124 0.96624 0.164144
8.57803 59.4672 26.6312 0.198024 0.968729 0.149481
7.86812 59.4763 27.518 0.194611 0.969646 0.14803
7.27094 59.3882 29.0191 0.197317 0.971666 0.130068
6.5288 59.4109 30.1204 0.197034 0.974284 0.10931
5.97865 59.4192 31.1449 0.193997 0.976263 0.0958149
5.16954 59.471 32.3295 0.179193 0.980259 0.0830609
4.5828 59.4954 33.341 0.167275 0.984073 0.0601587
3.65127 59.5739 34.515 0.142311 0.987582 0.0665551
2.65224 59.6449 35.6321 0.14392 0.987519 0.063971
1.36018 59.6995 36.4977 0.0788233 0.993805 0.0779049
0.345955 59.6848 37.125 0.0241737 0.995735 0.0866122
-0.858631 59.6344 37.7892 -0.0296489 0.996228 0.081547
-2.08834 59.5123 38.4035 -0.0819952 0.992301 0.0913283
-3.42629 59.3188 38.7645 -0.163162 0.978986 0.122329
-4.8925 59.0239 38.8649 -0.232863 0.962652 0.138078
-6.25805 58.6883 38.7392 -0.298909 0.942055 0.152269
-7.54876 58.3303 38.445 -0.315634 0.934504 0.162926
-9.1644 57.9007 37.6879 -0.343495 0.918651 0.19358
-10.4585 57.5818 36.8654 -0.349094 0.910836 0.220251
-11.691 57.309 36.0254 -0.358551 0.900657 0.245474
-12.3808 56.9096 36.4674 -0.386403 0.887329 0.251674
-12.3137 56.5596 37.8201 -0.399783 0.885623 0.236319
-12.3803 56.128 39.2821 -0.403376 0.880955 0.2474
-12.5099 55.7654 40.4694 -0.438495 0.868595 0.230065
-12.8043 55.3154 41.5457 -0.467888 0.854494 0.225135
-13.3079 54.6307 43.0065 -0.478576 0.847088 0.231099
-13.6915 54.0727 44.1551 -0.502961 0.82923 0.243737
-14.2158 53.3913 45.3651 -0.548111 0.80316 0.233468
-14.1137 53.0821 46.6772 -0.552688 0.801704 0.227499
-12.984 53.7622 47.0307 -0.554396 0.806908 0.203825
-11.8065 54.4713 47.3043 -0.539703 0.824376 0.17066
-10.6214 55.0959 47.9309 -0.517963 0.840182 0.160398
-9.62602 55.5509 48.7847 -0.508941 0.847691 0.149469
-8.91863 55.8157 49.6556 -0.48279 0.863022 0.148685
-8.27942 55.9863 50.7245 -0.471803 0.872652 0.126017
-7.80192 56.0649 51.9724 -0.449031 0.886901 0.108529
-7.39309 56.0698 53.3535 -0.416519 0.900008 0.128446
-7.08183 55.9853 54.9447 -0.415715 0.90015 0.130043
-6.96386 55.8716 56.3746 -0.422749 0.902859 0.0782822
-6.93932 55.7238 57.6114 -0.34539 0.923962 0.164314
-6.89501 55.4816 58.8202 -0.403707 0.880029 0.250139
-6.89926 55.165 60.207 -0.383101 0.903126 0.192343
-7.17283 54.7638 61.4446 -0.37453 0.89949 0.224538
-7.33174 54.176 63.2303 -0.371388 0.88308 0.286584
-7.32965 53.7644 64.5178 -0.382403 0.887408 0.257439
-6.48984 53.7723 65.6857 -0.36163 0.892985 0.267957
-4.33049 54.2701 66.7142 -0.303678 0.887311 0.344884
-3.10447 54.3863 67.3529 -0.266626 0.898669 0.348289
-1.8802 54.4839 67.971 -0.189384 0.893789 0.403587
-1.52676 54.7704 67.4241 -0.139075 0.92909 0.34
-2.03116 55.0156 66.3611 -0.234628 0.925345 0.297802
-2.22543 55.3504 65.1677 -0.235929 0.925937 0.294904
-2.46491 55.6294 64.0431 -0.224859 0.935385 0.272935
-2.56953 55.9547 62.8419 -0.231196 0.937445 0.259868
-2.50598 56.3479 61.1758 -0.203525 0.959915 0.192719
-2.19829 56.7342 59.6785 -0.197909 0.956289 0.215276
-1.93858 57.0641 58.4262 -0.196807 0.958805 0.20484
-1.67084 57.428 56.9802 -0.173725 0.963851 0.200585
-1.2934 57.7038 55.7975 -0.184901 0.969172 0.162843
-0.95856 57.9533 54.693 -0.178884 0.971928 0.15232
-0.370889 58.2819 53.1506 -0.177922 0.975004 0.132674
0.0361042 58.4932 51.697 -0.154637 0.984273 0.0854029
0.409419 58.6228 50.3379 -0.00668481 0.996531 0.0792992
0.954247 58.7971 48.6444 0.000417745 0.994732 0.102508
1.19937 58.8988 47.3318 0.041763 0.995796 0.080537
1.55875 58.9894 46.2047 0.0411269 0.994805 0.0931186
2.06499 59.1133 44.6607 0.0403855 0.991633 0.119733
2.58062 59.2529 43.3265 0.0985043 0.987499 0.119719
2.97464 59.3478 42.1922 0.0860509 0.989063 0.107996
3.41214 59.3593 40.9302 0.0990548 0.99504 0.0091584
3.66213 59.3226 39.7608 0.154321 0.987394 0.0104886
4.23225 59.3154 37.9543 0.159983 0.986317 0.0385729
4.79548 59.2704 36.7272 0.171117 0.984322 0.0427767
5.43431 59.218 35.6174 0.162352 0.985522 0.0488592
6.05311 59.1873 34.1006 0.192045 0.979835 0.0551502
6.68829 59.1397 32.8399 0.187461 0.980149 0.0645504
6.83154 59.1275 32.6092 0.193962 0.978939 0.0633395
-17.9816 33.0857 75.0893 -0.861234 0.483398 0.156851
-17.2234 34.176 75.5973 -0.854462 0.467842 0.225872
-16.4671 35.3591 76.2053 -0.831952 0.408688 0.375272
-15.6776 36.5848 76.7001 -0.850375 0.370778 0.373343
-15.0094 37.6097 76.886 -0.795652 0.359774 0.48734
-14.1988 38.9867 77.0095 -0.723667 0.390387 0.564888
-13.1903 39.6241 77.8609 -0.723667 0.390386 0.564887
-11.6454 40.1817 79.0437 -0.602807 0.537827 0.589377
-10.4269 40.6905 79.8257 -0.602807 0.537828 0.589377
-10.3229 40.6596 79.9567 -0.569905 0.547903 0.612381
-11.1501 39.6623 80.0243 -0.597796 0.547457 0.58549
-11.9713 38.6055 80.1996 -0.592785 0.557084 0.581605
-13.1133 37.486 79.7809 -0.706906 0.484721 0.513206
-13.8931 36.6097 79.6221 -0.689887 0.52331 0.500202
-14.6519 35.7343 79.3775 -0.748487 0.506747 0.425345
-15.4678 34.9024 79.038 -0.753687 0.519673 0.400519
-16.4264 33.9326 78.3466 -0.798877 0.488388 0.348291
-17.2257 33.1917 77.435 -0.791739 0.549676 0.26647
-17.878 32.7087 76.3033 -0.830266 0.515872 0.21103
-18.1479 32.7546 75.197 -0.849599 0.488387 0.195043
-3.33753 44.8703 80.653 -0.276588 0.677993 0.681032
-2.16287 44.8611 81.1427 -0.252815 0.694971 0.672505
-1.41906 45.9263 80.262 -0.22707 0.710357 0.666207
0.0221285 45.7728 80.9169 -0.198961 0.721157 0.662894
1.17313 46.2757 80.6569 -0.17085 0.731955 0.659584
2.34099 46.7138 80.483 -0.173864 0.747189 0.641236
3.5612 47.0123 80.4232 -0.152697 0.76334 0.627691
4.8111 47.2693 80.4147 -0.13326 0.767812 0.626344
5.96797 47.5168 80.3195 -0.113821 0.772284 0.624998
7.10577 47.873 80.1019 -0.113759 0.796188 0.593528
7.48631 48.7018 79.0284 -0.0550988 0.797613 0.600648
6.50616 49.5442 77.7927 -0.0931326 0.786559 0.610299
5.82526 50.2166 76.7911 -0.0366501 0.835947 0.547586
5.10732 50.7991 75.8538 -0.0347555 0.83383 0.550909
4.34829 51.3567 74.9719 -0.0328618 0.831712 0.554234
3.72719 51.8723 74.0755 -0.0895437 0.829214 0.551548
2.03284 51.9001 73.7887 -0.0921046 0.818855 0.566412
2.0596 51.0989 74.9336 -0.109409 0.81988 0.561822
2.09983 50.3223 76.0575 -0.13359 0.774304 0.618553
1.46069 48.8997 77.7002 -0.154008 0.768304 0.620913
0.693247 47.8074 78.7857 -0.166029 0.747407 0.643286
-0.213428 46.9192 79.5837 -0.16844 0.739682 0.651434
-1.37733 46.0982 80.0929 -0.22389 0.709107 0.668598
-2.55535 45.3315 80.5143 -0.248598 0.69132 0.677629
-18.2291 48.9721 48.5838 -0.670109 0.670671 0.318034
-18.2632 48.9966 48.4592 -0.669797 0.672204 0.315459
-17.7275 49.0029 49.6463 -0.692133 0.667263 0.275158
-16.1115 50.6022 49.5679 -0.66067 0.710725 0.241631
-14.847 51.7616 49.4679 -0.615695 0.753093 0.228752
-13.8319 52.5825 49.2545 -0.605096 0.772583 0.188201
-12.6901 53.4487 49.3089 -0.575236 0.801678 0.162527
-11.6347 54.1336 49.6776 -0.546919 0.829224 0.115181
-10.4207 54.7491 50.8759 -0.508674 0.852659 0.119182
-9.65726 55.0029 52.3754 -0.500852 0.859755 0.0976773
-9.2484 55.0234 53.9657 -0.492281 0.862639 0.116176
-8.97395 54.9927 55.3436 -0.475134 0.869271 0.136437
-8.87577 54.8153 56.8979 -0.484981 0.866601 0.117457
-8.85399 54.592 58.3104 -0.482844 0.860219 0.163964
-8.80834 54.3701 59.6368 -0.463462 0.867413 0.181102
-9.13219 53.8607 61.2435 -0.463772 0.867081 0.181896
-9.40321 53.2132 63.1065 -0.439748 0.863266 0.247159
-9.66913 52.6762 64.5923 -0.427412 0.871065 0.242
-10.2582 51.9147 66.0773 -0.404793 0.862384 0.30202
-10.1741 51.5435 67.1249 -0.392762 0.857285 0.332848
-8.57837 52.0416 67.7756 -0.403046 0.840008 0.363237
-7.37067 52.6574 67.6918 -0.403273 0.83992 0.363188
-6.22054 52.9144 68.2275 -0.354387 0.861288 0.364132
-4.73036 53.2828 68.8063 -0.354273 0.86127 0.364286
-3.43106 53.3296 69.5306 -0.254355 0.860319 0.441763
-2.33739 53.2674 70.2814 -0.254222 0.860296 0.441885
-1.3097 52.9619 71.0773 -0.150105 0.84214 0.517947
-0.806977 52.4499 72.1582 -0.159705 0.870605 0.46534
-0.412871 51.8258 73.4162 -0.121352 0.842053 0.522865
-0.0922248 50.7295 75.0622 -0.103128 0.820906 0.561674
-0.365252 49.8562 76.0533 -0.10943 0.731829 0.672645
-0.936288 48.6624 77.3196 -0.175764 0.757574 0.628599
-2.03861 47.7101 78.0818 -0.215149 0.739272 0.638112
-3.51053 46.6938 78.7629 -0.217929 0.723564 0.654551
-4.89682 45.8208 78.9978 -0.339344 0.675825 0.654299
-6.0475 44.9799 79.2696 -0.356997 0.652172 0.667958
-7.3362 44.3165 79.0619 -0.450326 0.607487 0.654344
-9.2381 43.0043 78.8293 -0.510088 0.537988 0.671102
-10.3596 42.2946 78.545 -0.510745 0.538047 0.670556
-11.4074 42.1016 77.7774 -0.577163 0.484923 0.657064
-12.4502 41.8645 77.031 -0.6063 0.426421 0.669515
-13.3264 42.1884 76.0801 -0.609848 0.38457 0.692958
-14.3346 42.3181 75.1252 -0.60755 0.384163 0.6952
-14.9603 40.9224 75.1601 -0.680317 0.286012 0.674808
-15.4153 39.3866 75.1489 -0.776858 0.194592 0.590056
-15.9727 38.1441 74.9936 -0.838602 0.261304 0.465399
-16.5982 36.6297 74.5247 -0.918383 0.239525 0.314961
-17.2853 35.0785 73.7816 -0.92408 0.322299 0.197509
-17.9154 33.9978 72.8358 -0.894169 0.431513 0.119406
-18.5847 32.9613 71.7538 -0.863411 0.496908 0.0764332
-19.3046 32.1094 70.42 -0.815142 0.577471 0.0415078
-19.8854 31.4739 69.1769 -0.784128 0.614599 0.0819988
-20.3456 31.1143 67.9818 -0.749189 0.655961 0.0918198
-20.8704 30.7854 66.8325 -0.716824 0.680212 0.153198
-21.3663 30.6388 65.4849 -0.665086 0.719861 0.198649
-21.9868 30.5199 64.0608 -0.621657 0.738869 0.258459
-22.5923 30.6917 62.5342 -0.608654 0.713508 0.347055
-23.0933 31.0639 61.1007 -0.572154 0.690504 0.442542
-23.6049 31.9265 59.2228 -0.534112 0.677399 0.505822
-23.7496 32.6902 58.1445 -0.540631 0.635427 0.551316
-23.9998 33.6647 56.8439 -0.531349 0.610775 0.587045
-24.0393 34.616 55.8915 -0.553723 0.57097 0.606117
-24.1223 35.528 54.9506 -0.562144 0.568404 0.600759
-23.9368 36.6375 54.2045 -0.613336 0.519014 0.595351
-23.748 37.8067 53.3904 -0.621103 0.491849 0.609896
-23.4079 39.1734 52.6148 -0.638643 0.499678 0.585198
-23.0418 40.4359 51.9855 -0.686676 0.476625 0.54868
-22.5236 41.9553 51.271 -0.69028 0.502395 0.520546
-21.8558 43.1355 51.0264 -0.703871 0.487826 0.516325
-21.2076 44.2437 50.7205 -0.722271 0.541889 0.427905
-20.2998 45.7607 50.2608 -0.750409 0.560816 0.348451
-19.4962 46.8331 50.1031 -0.727892 0.599379 0.333043
-18.7096 47.8578 49.8814 -0.704368 0.644306 0.297886
-18.1273 48.5444 49.7526 -0.692134 0.667262 0.275156
-21.8375 64.7503 7.97071 0.0548541 0.913806 0.39895
-21.7717 64.1453 9.30033 0.035052 0.907851 0.417825
-21.8311 63.6571 10.366 0.0356303 0.91705 0.396498
-21.8152 63.1245 11.5506 -0.00397418 0.910814 0.412692
-21.9747 62.6109 12.7018 -0.0100249 0.91371 0.406243
-21.9172 62.1363 13.8259 -0.0600997 0.914548 0.399988
-21.8209 61.6738 14.8916 -0.0608068 0.912222 0.405158
-22.0595 61.1359 16.1024 -0.0703568 0.923825 0.37576
-22.3804 60.9846 16.4143 -0.0703561 0.923827 0.375757
-22.6398 61.4854 15.1925 -0.0583659 0.915903 0.397023
-22.6652 61.9369 14.1824 -0.0518395 0.912581 0.405529
-22.6252 62.4341 13.0645 -0.0339017 0.906615 0.420524
-22.5095 62.9728 11.887 0.0013635 0.913064 0.407813
-22.5815 63.5234 10.6863 0.00939132 0.902718 0.429826
-22.389 64.2639 9.09782 0.0397865 0.907492 0.418181
-22.2152 64.755 8.04056 0.0766411 0.901346 0.426265
-22.2743 65.3221 6.852 0.0888699 0.901333 0.423729
-22.2257 65.7601 5.9149 0.119616 0.890303 0.439378
-22.0579 66.2054 4.96699 0.137929 0.900923 0.409863
-22.2603 66.7506 3.87582 0.181357 0.87946 0.440068
-22.5238 67.4559 2.60047 0.192759 0.873624 0.446794
-22.4675 67.9615 1.52741 0.25084 0.863557 0.437434
-21.4049 67.2616 2.44164 0.17698 0.898545 0.401615
-20.7122 66.7579 3.305 0.121467 0.91163 0.392652
-21.6738 66.4197 4.29537 0.168819 0.895516 0.410173
-21.607 65.9483 5.36507 0.119575 0.890283 0.439428
-21.6019 65.8956 5.47051 0.119577 0.890299 0.439397
-21.6046 65.6822 5.91104 0.103752 0.903365 0.416133
-21.9468 65.0525 7.3503 0.101071 0.901309 0.42122
12.6303 78.4709 -39.1503 0.321892 0.928614 0.184557
11.8799 78.5781 -38.3391 0.325201 0.928404 0.179749
11.3761 78.3809 -36.5259 0.336604 0.920176 0.199937
12.5617 78.2289 -37.8015 0.326632 0.925848 0.190044
13.658 78.0854 -38.9799 0.319432 0.928287 0.190385
13.9097 78.0536 -39.2498 0.321824 0.927356 0.190894
15.4581 77.6064 -39.6364 0.316562 0.926895 0.201628
14.1896 77.7521 -38.2846 0.326763 0.922165 0.206972
13.0598 77.892 -37.0733 0.338219 0.9191 0.202146
11.7468 78.055 -35.6613 0.341361 0.915975 0.21086
11.4907 78.0869 -35.3856 0.341361 0.915975 0.21086
11.3482 77.8064 -33.9785 0.345019 0.913663 0.214899
12.5689 77.6631 -35.289 0.340945 0.916129 0.210866
13.8608 77.5101 -36.6742 0.331516 0.919196 0.212546
15.0574 77.371 -37.9526 0.32355 0.92342 0.206424
16.195 77.2511 -39.1601 0.317139 0.925671 0.206289
16.7577 77.1948 -39.7551 0.306747 0.927949 0.211699
18.0634 76.7874 -39.8777 0.312312 0.924009 0.22061
16.7908 76.8982 -38.5401 0.328308 0.91953 0.216052
15.6538 77.0199 -37.3317 0.324609 0.921154 0.214719
14.1874 77.181 -35.769 0.330418 0.91905 0.214873
13.0122 77.31 -34.5141 0.343585 0.911866 0.22461
11.7937 77.445 -33.2101 0.349167 0.908396 0.229997
11.2969 77.5041 -32.6747 0.352838 0.90765 0.227326
11.2925 77.1777 -31.4326 0.354651 0.903334 0.241269
12.7193 77.0269 -32.9583 0.351324 0.906249 0.235125
13.9553 76.8877 -34.283 0.348813 0.908454 0.230304
15.1622 76.762 -35.567 0.338281 0.910965 0.236028
16.4478 76.6301 -36.9313 0.327977 0.916477 0.22913
17.6481 76.5124 -38.2011 0.321845 0.920253 0.222599
18.8351 76.4106 -39.4481 0.315708 0.918753 0.23711
19.3562 76.3786 -39.9885 0.309095 0.919287 0.243662
20.4439 75.9813 -39.8875 0.308042 0.91756 0.251383
19.1005 76.0761 -38.4873 0.324184 0.91555 0.23806
17.8403 76.1799 -37.1657 0.338672 0.911105 0.234922
16.6283 76.2952 -35.8851 0.344313 0.905222 0.249043
15.2839 76.4238 -34.4635 0.342836 0.907343 0.243295
14.1074 76.551 -33.2072 0.356192 0.904276 0.235397
12.8735 76.6816 -31.8884 0.352043 0.903544 0.244284
11.398 76.8275 -30.3152 0.358519 0.898176 0.254447
10.8563 76.8802 -29.7377 0.357507 0.89873 0.253916
11.0934 76.5004 -28.7716 0.367381 0.892675 0.261082
12.3398 76.389 -30.0941 0.356388 0.898472 0.256389
13.6703 76.2618 -31.5101 0.368761 0.893812 0.255179
15.0961 76.1158 -33.0315 0.356963 0.901733 0.243833
16.795 75.9457 -34.8338 0.349265 0.904357 0.245261
17.9227 75.8481 -36.0201 0.339349 0.90605 0.252815
19.2784 75.7321 -37.4446 0.324817 0.913402 0.24534
20.5693 75.6404 -38.7902 0.320142 0.913334 0.251653
21.4159 75.592 -39.6662 0.313163 0.91453 0.256054
22.7922 75.173 -39.8681 0.316316 0.913369 0.256322
21.2989 75.256 -38.3232 0.316655 0.91394 0.253855
20.159 75.3373 -37.1349 0.323577 0.913902 0.245114
18.7114 75.4423 -35.6247 0.340019 0.905739 0.25303
17.5915 75.534 -34.4501 0.344315 0.905221 0.249043
15.8047 75.6988 -32.5629 0.355656 0.897897 0.259404
14.3195 75.8438 -30.9841 0.365535 0.894858 0.25615
12.7949 75.9891 -29.3607 0.366252 0.890202 0.270926
11.4922 76.1043 -27.9784 0.365794 0.889558 0.273644
10.7289 76.1665 -27.1704 0.364439 0.889423 0.275882
9.78496 75.8549 -24.9726 0.360106 0.887094 0.28877
11.0521 75.765 -26.3056 0.364728 0.887924 0.280293
12.5032 75.6463 -27.8417 0.365362 0.888901 0.276343
13.865 75.5261 -29.2862 0.366271 0.890199 0.270909
14.9733 75.4306 -30.4584 0.360079 0.894747 0.264143
16.1373 75.3178 -31.6949 0.359145 0.897411 0.256258
17.954 75.1617 -33.6081 0.350174 0.899273 0.26208
19.6358 75.0242 -35.3733 0.340689 0.905428 0.253241
21.5924 74.8978 -37.4045 0.331444 0.906146 0.262763
22.7389 74.8336 -38.5909 0.320517 0.910673 0.260659
23.6383 74.783 -39.522 0.320227 0.911691 0.257436
24.7741 74.3664 -39.4818 0.32373 0.90999 0.25907
23.0928 74.4591 -37.7421 0.324437 0.907916 0.265383
21.4806 74.5521 -36.0738 0.333123 0.905404 0.263197
20.261 74.6308 -34.8079 0.335233 0.90618 0.257791
19.0262 74.7255 -33.5154 0.34223 0.901008 0.266575
17.7362 74.8259 -32.1628 0.348188 0.900179 0.261614
16.443 74.9395 -30.7983 0.360079 0.894747 0.264143
15.0481 75.0559 -29.329 0.362349 0.891762 0.271041
13.653 75.1774 -27.8512 0.362908 0.89055 0.274259
12.1658 75.2989 -26.2784 0.365112 0.888054 0.279381
10.9585 75.3868 -25.0073 0.364141 0.886239 0.286325
9.70048 75.4662 -23.6905 0.358443 0.886505 0.292623
9.58212 75.4732 -23.5668 0.355806 0.885195 0.299719
7.90673 75.1194 -20.6657 0.348447 0.881747 0.317973
9.17789 75.081 -21.9673 0.348901 0.883534 0.312467
10.4253 75.0268 -23.2558 0.359801 0.884673 0.296475
11.6734 74.9502 -24.5604 0.359735 0.887754 0.287201
12.8028 74.8698 -25.7481 0.3638 0.887911 0.281539
14.7056 74.7189 -27.7553 0.362908 0.89055 0.274259
16.0367 74.6049 -29.1621 0.360986 0.892021 0.272008
17.4565 74.4907 -30.6552 0.351708 0.896155 0.270571
19.0986 74.3616 -32.3783 0.345213 0.9006 0.264097
20.7389 74.2448 -34.0904 0.338349 0.901549 0.269685
22.2791 74.1464 -35.689 0.333122 0.905404 0.263196
23.5309 74.0778 -36.9822 0.32389 0.906981 0.269223
24.7202 74.0154 -38.2102 0.324503 0.907553 0.266542
25.6389 73.964 -39.1618 0.326019 0.907155 0.266046
26.4909 73.5623 -38.8285 0.319205 0.90878 0.26875
25.2601 73.6292 -37.555 0.325536 0.906549 0.26869
24.0934 73.6896 -36.351 0.326567 0.905616 0.270582
22.5148 73.7778 -34.7193 0.333471 0.903908 0.267858
21.1531 73.8561 -33.3106 0.338349 0.901549 0.269685
19.7939 73.9531 -31.8916 0.342316 0.900147 0.269362
18.2406 74.066 -30.2673 0.351209 0.896177 0.271145
17.7692 74.102 -29.773 0.352205 0.896132 0.269996
-7.48481 76.306 -13.2735 0.0232329 0.836382 0.547655
-6.53836 76.6953 -13.9244 0.109415 0.833071 0.542237
-5.49944 76.3933 -13.7001 0.130599 0.840189 0.526332
-7.02772 75.8452 -12.5891 0.0557232 0.831313 0.553004
-7.77963 75.502 -12.0768 -0.00624419 0.825069 0.564998
-8.43185 74.5157 -10.6053 -0.057558 0.838388 0.542026
-7.12966 75.1344 -11.5151 -0.0169617 0.83136 0.555476
-5.87132 75.6275 -12.4249 0.0742596 0.839821 0.537761
-4.64406 76.0233 -13.3511 0.147876 0.834767 0.530374
-3.63489 75.703 -13.1195 0.181343 0.864233 0.469273
-5.43045 75.1498 -11.7397 0.110984 0.839476 0.531942
-6.93012 74.5578 -10.6429 0.0125667 0.853283 0.521296
-8.31935 73.9034 -9.64626 -0.0575563 0.838386 0.54203
-9.38987 73.2776 -8.89393 -0.104653 0.832837 0.543536
-10.6333 72.5555 -7.97837 -0.164167 0.84638 0.506646
-11.7362 71.8727 -7.14266 -0.162281 0.871532 0.462706
-12.9371 71.1399 -6.18357 -0.16277 0.89194 0.421839
-13.9772 70.5432 -5.30928 -0.153367 0.899788 0.408485
-15.1033 69.9277 -4.33721 -0.137372 0.911766 0.387056
-15.3161 69.3006 -2.93814 -0.118969 0.919157 0.375497
-14.0003 69.9879 -4.0874 -0.142268 0.906712 0.397031
-12.572 70.7881 -5.29876 -0.16028 0.895293 0.415645
-11.5399 71.3809 -6.14785 -0.169877 0.880156 0.443247
-10.3057 72.1046 -7.11892 -0.156873 0.860742 0.484267
-9.15606 72.7783 -7.96617 -0.119771 0.861562 0.49332
-7.92503 73.4433 -8.88 -0.0347396 0.873033 0.486423
-6.30944 74.1883 -10.0531 0.0125755 0.853281 0.521299
-5.0523 74.6682 -10.9919 0.0808743 0.862814 0.499011
-3.70911 75.1003 -12.0238 0.134046 0.861821 0.489179
-2.28912 75.4371 -13.185 0.193854 0.869358 0.454573
-0.69243 75.1796 -13.4897 0.247848 0.868233 0.429817
-2.10841 74.9234 -12.2796 0.208483 0.865479 0.455501
-3.444 74.5938 -11.1934 0.133661 0.879786 0.456193
-4.5798 74.2282 -10.3069 0.0798621 0.878414 0.47118
-6.03438 73.6878 -9.19421 -0.000386144 0.873563 0.486711
-7.19118 73.1716 -8.34079 -0.0367597 0.871496 0.489024
-8.72138 72.3883 -7.19506 -0.109677 0.859742 0.498813
-9.88059 71.763 -6.30052 -0.131665 0.88447 0.447636
-10.9473 71.1494 -5.45862 -0.163321 0.884238 0.437549
-12.3754 70.3418 -4.27155 -0.145638 0.8967 0.417994
-13.7292 69.6128 -3.11186 -0.13947 0.910982 0.388149
-15.1252 68.911 -1.88576 -0.101996 0.924033 0.368457
-15.3746 68.7931 -1.66474 -0.102713 0.921172 0.375357
-15.491 68.259 -0.340376 -0.127261 0.931244 0.341453
-14.1599 68.8816 -1.52166 -0.135228 0.927777 0.34777
-12.7587 69.6098 -2.74783 -0.142352 0.91101 0.387037
-11.609 70.2247 -3.72646 -0.151754 0.905918 0.395326
-10.3652 70.9117 -4.76098 -0.131666 0.884467 0.44764
-8.57099 71.8597 -6.20132 -0.0998672 0.883721 0.457235
-7.18672 72.5664 -7.24608 -0.0458885 0.882979 0.467165
-5.53587 73.2811 -8.50201 0.0319538 0.871644 0.489096
-4.18108 73.7856 -9.54633 0.0804683 0.879282 0.469456
-2.96176 74.1616 -10.5144 0.123992 0.874581 0.468757
-1.73487 74.4554 -11.5245 0.19218 0.874745 0.444846
-0.530963 74.6728 -12.5563 0.216539 0.879073 0.424665
0.794111 74.8666 -13.7274 0.261035 0.870411 0.417428
0.932787 74.8824 -13.854 0.27499 0.872487 0.403914
-15.1325 67.9769 0.574846 -0.126606 0.932892 0.33717
-13.8269 68.5809 -0.5901 -0.135227 0.927777 0.34777
-11.8828 69.5569 -2.3013 -0.147054 0.908485 0.39119
-10.2704 70.4115 -3.66719 -0.122716 0.907488 0.401754
-8.82364 71.1386 -4.84705 -0.125356 0.904801 0.406965
-7.46849 71.8513 -5.92221 -0.0811369 0.876839 0.473888
-5.65469 72.6565 -7.32683 0.000450079 0.880496 0.474053
-4.10745 73.2508 -8.52154 0.0549807 0.8878 0.456934
-2.6208 73.7114 -9.70628 0.126024 0.887697 0.442845
-1.08419 74.0462 -11.0008 0.186332 0.88452 0.427673
0.319293 74.291 -12.2123 0.222174 0.877555 0.424895
1.73164 74.4686 -13.4841 0.269406 0.879282 0.392788
3.46353 74.6158 -15.1061 0.301328 0.878399 0.370968
4.78757 74.6738 -16.3882 0.322489 0.879229 0.350653
6.11622 74.6973 -17.701 0.334942 0.879779 0.337346
7.51747 74.695 -19.106 0.337005 0.882037 0.329299
8.9522 74.6696 -20.5614 0.34738 0.882513 0.317015
10.4357 74.6205 -22.0821 0.353952 0.882806 0.308822
11.8335 74.5476 -23.534 0.360864 0.884728 0.295014
13.2062 74.4569 -24.9725 0.364452 0.885372 0.288602
14.6554 74.346 -26.4987 0.362108 0.889577 0.278442
15.9433 74.2443 -27.8555 0.362346 0.891764 0.271038
14.0026 74.0148 -24.6112 0.36533 0.886384 0.284354
12.3863 74.1175 -22.9205 0.358327 0.886583 0.292529
10.9198 74.1872 -21.4027 0.355985 0.881703 0.309637
9.50248 74.2336 -19.9508 0.349659 0.881588 0.317082
8.07007 74.2576 -18.4998 0.337 0.881962 0.329507
6.48742 74.2579 -16.9157 0.329715 0.881402 0.338258
5.13971 74.2288 -15.5904 0.31623 0.881004 0.351896
3.76465 74.1599 -14.2675 0.28986 0.883096 0.368949
2.07426 74.0066 -12.696 0.258925 0.882758 0.392041
0.4236 73.7912 -11.214 0.21548 0.88998 0.401875
-1.13066 73.5305 -9.85695 0.191109 0.890821 0.412208
-2.6993 73.1426 -8.55605 0.0962294 0.884994 0.45555
-4.13395 72.6672 -7.41655 0.0382162 0.883885 0.466139
-5.88658 71.9529 -6.05243 -0.0256497 0.894055 0.447222
-7.63259 71.2139 -4.64757 -0.104332 0.904524 0.413463
-9.24601 70.4054 -3.34694 -0.122674 0.906481 0.404035
-10.5581 69.734 -2.23065 -0.120652 0.905684 0.406422
-12.2817 68.8729 -0.730777 -0.146495 0.927249 0.3446
-13.6826 68.1986 0.512862 -0.133422 0.933772 0.332067
-15.2618 67.4773 1.93232 -0.12744 0.936854 0.325673
-15.1599 67.0891 3.08777 -0.128147 0.935512 0.329236
-13.8569 67.6786 1.90515 -0.133423 0.933774 0.33206
-12.5481 68.2885 0.728511 -0.141712 0.93039 0.338071
-11.1838 68.9522 -0.477374 -0.136854 0.92855 0.34506
-9.87198 69.5731 -1.61954 -0.13787 0.920018 0.366821
-8.51906 70.2481 -2.77334 -0.122674 0.906481 0.404035
-7.06753 70.9407 -3.94712 -0.0832578 0.903806 0.419764
-5.07418 71.7691 -5.56323 -0.0199031 0.908012 0.418472
-3.23157 72.4264 -7.03887 0.0404686 0.882957 0.467706
-1.79557 72.8532 -8.20177 0.15099 0.889697 0.43086
-0.230637 73.1786 -9.53703 0.200668 0.890781 0.407728
1.33945 73.4338 -10.9148 0.216231 0.889711 0.402068
2.86952 73.6125 -12.3054 0.264688 0.886625 0.379257
4.2758 73.7205 -13.6268 0.301597 0.881306 0.363785
5.82634 73.7927 -15.1211 0.31451 0.879542 0.357057
7.22149 73.8197 -16.4937 0.32894 0.880257 0.341973
8.9802 73.8203 -18.2517 0.336309 0.884706 0.322788
10.3931 73.7859 -19.6895 0.350886 0.881927 0.314777
11.8385 73.7352 -21.1721 0.354859 0.881816 0.310605
13.1011 73.6766 -22.4771 0.358095 0.883475 0.30206
12.1373 73.3089 -20.3032 0.354862 0.881813 0.31061
10.6302 73.3596 -18.759 0.350792 0.881718 0.315464
9.0431 73.3881 -17.1522 0.332243 0.882504 0.332867
7.72342 73.3829 -15.8388 0.322572 0.885264 0.335045
6.005 73.3462 -14.1518 0.303402 0.888192 0.345053
4.67566 73.2793 -12.8754 0.292386 0.886606 0.358386
3.30481 73.1749 -11.5888 0.272171 0.889471 0.367102
1.64577 72.9819 -10.0794 0.215896 0.892994 0.394906
-0.130643 72.689 -8.51665 0.196159 0.892363 0.40646
-1.9838 72.2557 -6.95647 0.118246 0.886603 0.447162
-3.52702 71.8001 -5.68782 0.0382199 0.915264 0.401039
-5.10144 71.2498 -4.40046 -0.0163092 0.921076 0.389041
-6.49685 70.6701 -3.25676 -0.0801511 0.902274 0.423647
-8.26276 69.8855 -1.79299 -0.101937 0.925211 0.365505
-9.70047 69.1859 -0.560305 -0.127205 0.929762 0.345488
-11.181 68.4987 0.743994 -0.136857 0.928548 0.345063
-12.5019 67.8714 1.92279 -0.137461 0.934439 0.328525
-13.9146 67.2195 3.19696 -0.126705 0.936573 0.326769
-15.0455 66.6904 4.25554 -0.129588 0.934442 0.331701
-14.7039 66.4142 5.17254 -0.129954 0.935029 0.329897
-13.4159 67.0123 3.98403 -0.132085 0.93552 0.327652
-11.0832 68.0928 1.88044 -0.129067 0.933542 0.334427
-9.69776 68.7324 0.661063 -0.127205 0.929762 0.345488
-8.23293 69.4242 -0.616926 -0.10194 0.92521 0.365505
-6.80267 70.0145 -1.85237 -0.0827215 0.915348 0.394075
-5.28535 70.6663 -3.09646 -0.0325732 0.90869 0.416198
-3.45947 71.3236 -4.60761 0.0490053 0.914606 0.401365
-1.99894 71.7505 -5.82052 0.0939822 0.91049 0.40271
-0.281642 72.147 -7.27958 0.159172 0.895768 0.415048
1.21618 72.4288 -8.57949 0.190974 0.897054 0.398526
2.99323 72.6684 -10.1773 0.24989 0.892397 0.375742
4.40332 72.7965 -11.4865 0.272171 0.889471 0.367102
5.74395 72.8796 -12.7583 0.292386 0.886606 0.358386
7.28827 72.937 -14.256 0.317968 0.884197 0.342187
9.556 72.9516 -16.507 0.332196 0.882455 0.333045
11.5264 72.9115 -18.5046 0.35097 0.881375 0.316225
11.2731 72.4997 -17.076 0.349651 0.882098 0.31567
9.64934 72.5153 -15.4439 0.332196 0.882455 0.333045
8.31214 72.5125 -14.1117 0.317131 0.883787 0.344018
6.71881 72.4681 -12.5555 0.302628 0.885177 0.353382
5.38687 72.4001 -11.2818 0.289259 0.887789 0.357995
3.98259 72.2986 -9.95858 0.262521 0.891454 0.369313
2.42594 72.1189 -8.53829 0.223961 0.896146 0.383099
0.826637 71.8741 -7.11639 0.204649 0.899668 0.385637
-0.848703 71.5317 -5.66669 0.134001 0.908035 0.396884
-2.31436 71.155 -4.42869 0.0727956 0.914516 0.397945
-3.89585 70.6751 -3.09906 0.0281587 0.917704 0.396265
-5.48416 70.0766 -1.77711 -0.0258176 0.918145 0.395402
-6.85521 69.5151 -0.610946 -0.0734369 0.934695 0.347782
-8.20673 68.974 0.567285 -0.122261 0.932006 0.341199
-9.6797 68.2944 1.86092 -0.130071 0.93103 0.340976
-11.0472 67.6691 3.07558 -0.130046 0.933276 0.334789
-12.3458 67.0678 4.24716 -0.129202 0.935604 0.32856
-13.7737 66.4131 5.55282 -0.136264 0.935477 0.32606
-14.529 66.0619 6.24428 -0.136668 0.934841 0.327711
-14.2634 65.7525 7.23732 -0.13892 0.936317 0.322508
-12.5216 66.5628 5.64658 -0.132312 0.936694 0.324189
-11.1958 67.1599 4.43729 -0.129202 0.935605 0.328557
-9.36665 67.9981 2.80332 -0.128084 0.933806 0.334068
-8.01342 68.6154 1.61203 -0.114451 0.932928 0.34139
-6.50744 69.2305 0.289753 -0.0845513 0.938639 0.334378
-5.04863 69.7493 -0.979505 -0.0254211 0.930902 0.364384
-3.48286 70.3041 -2.3016 0.0438386 0.924877 0.377731
-1.87377 70.782 -3.66281 0.107184 0.913267 0.393008
-0.254162 71.1736 -5.04579 0.133755 0.908779 0.395259
1.29916 71.4702 -6.40444 0.184671 0.90229 0.389577
2.93576 71.7053 -7.87304 0.229482 0.893982 0.384883
4.44178 71.8714 -9.25371 0.262521 0.891458 0.369304
5.79299 71.9654 -10.5299 0.286836 0.88973 0.355112
7.5068 72.0473 -12.1734 0.304284 0.887683 0.345588
9.58237 72.0861 -14.2133 0.325141 0.883855 0.336278
11.2287 72.0812 -15.8598 0.330939 0.884439 0.329008
11.3888 72.079 -16.0215 0.353475 0.883781 0.306572
27.7218 73.1461 -38.8829 0.321208 0.9092 0.264917
26.6785 73.1949 -37.809 0.32233 0.908115 0.267266
25.7915 73.2397 -36.8933 0.325614 0.905649 0.271616
24.791 73.2887 -35.8625 0.329245 0.90424 0.271933
23.9005 73.3364 -34.943 0.32935 0.903432 0.27448
22.9245 73.3894 -33.9348 0.333993 0.902306 0.272566
21.5673 73.4674 -32.5309 0.338346 0.901551 0.269682
23.9212 72.9669 -33.7583 0.334174 0.902224 0.272616
25.261 72.9 -35.1389 0.329355 0.90343 0.27448
26.3959 72.8466 -36.307 0.324773 0.905605 0.272768
27.3154 72.8026 -37.2543 0.3221 0.906718 0.272239
28.2036 72.7627 -38.1675 0.320983 0.906861 0.273081
28.5106 72.7492 -38.483 0.322393 0.907274 0.270031
29.4862 72.3401 -38.2774 0.324284 0.907516 0.266936
28.1832 72.3994 -36.9372 0.320979 0.906864 0.273077
27.1164 72.4467 -35.8407 0.323227 0.904915 0.276865
26.137 72.4911 -34.8337 0.325253 0.904395 0.27619
25.1677 72.5346 -33.8376 0.327214 0.90347 0.276899
26.1252 72.1226 -33.6158 0.324972 0.904317 0.276774
27.1819 72.0749 -34.702 0.32438 0.904694 0.276235
28.6313 72.0137 -36.1894 0.321485 0.905749 0.276165
29.726 71.9675 -37.3131 0.321064 0.906386 0.274559
30.1707 71.9465 -37.771 0.319132 0.90912 0.267686
30.759 71.5604 -37.1634 0.315214 0.908315 0.274964
29.6318 71.6036 -36.0094 0.321616 0.90575 0.276008
28.4906 71.6515 -34.8384 0.321352 0.905748 0.276321
27.3121 71.6973 -33.6318 0.324917 0.902946 0.281278
28.3505 71.2832 -33.492 0.322263 0.903795 0.281604
29.7056 71.2326 -34.8783 0.321718 0.904775 0.279071
30.6943 71.1952 -35.8901 0.314226 0.90821 0.276434
31.0135 71.1841 -36.2162 0.314227 0.90821 0.276434
31.6366 70.7964 -35.6443 0.312201 0.909728 0.273725
30.4002 70.8361 -34.3836 0.313069 0.907398 0.280387
29.7102 70.8594 -33.6794 0.315359 0.907044 0.278963
30.6914 70.4555 -33.4754 0.315357 0.907045 0.278962
31.5075 70.4327 -34.3054 0.310776 0.907746 0.281807
-13.7632 65.5624 8.02182 -0.141521 0.937173 0.318871
-12.3626 66.2042 6.74103 -0.138206 0.936532 0.322191
-10.9905 66.8265 5.48914 -0.128355 0.937892 0.322311
-9.22727 67.6246 3.90079 -0.112418 0.93167 0.345476
-7.84471 68.2387 2.67459 -0.0953568 0.928984 0.357626
-6.46189 68.8221 1.45811 -0.0587871 0.950418 0.305367
-4.78212 69.4096 -0.0160487 -0.0216471 0.940936 0.337892
-3.10825 69.9713 -1.44719 0.0232671 0.929779 0.367381
-1.62346 70.3493 -2.73741 0.100351 0.911444 0.398997
-0.19949 70.6947 -3.96137 0.142188 0.911959 0.384854
1.39773 71.0062 -5.35877 0.183219 0.907977 0.376841
2.92563 71.2335 -6.72952 0.212558 0.901436 0.377137
4.43302 71.4035 -8.1123 0.248458 0.896842 0.365982
5.95201 71.5191 -9.54027 0.282364 0.889117 0.360197
7.67344 71.6068 -11.1887 0.304288 0.887682 0.345586
9.13599 71.6432 -12.6177 0.319162 0.884808 0.339485
7.86793 71.1672 -10.2308 0.306871 0.890321 0.336392
6.3412 71.092 -8.76561 0.282311 0.893696 0.348722
4.92281 70.9918 -7.42658 0.249043 0.901727 0.353363
3.53535 70.845 -6.14511 0.227984 0.903549 0.362799
1.97198 70.626 -4.73313 0.190469 0.90565 0.378839
0.397642 70.3399 -3.34114 0.142183 0.911963 0.384848
-1.1318 70.0042 -2.00411 0.13135 0.918492 0.372989
-2.54888 69.658 -0.765589 0.0910174 0.924104 0.371144
-4.18371 69.162 0.654694 0.0250668 0.938946 0.343151
-5.64926 68.6911 1.95167 -0.0115896 0.938867 0.344086
-7.11237 68.0987 3.23529 -0.0947876 0.929692 0.355932
-8.54095 67.4668 4.49779 -0.0967118 0.929177 0.356758
-9.95658 66.8659 5.78375 -0.12758 0.937737 0.323069
-11.4065 66.2186 7.10889 -0.129953 0.940749 0.313215
-12.9137 65.5314 8.48806 -0.138462 0.938145 0.317351
-13.3504 65.3305 8.88672 -0.143032 0.937046 0.318569
-12.9746 65.0817 9.78649 -0.143492 0.935764 0.322111
-11.5551 65.7308 8.48814 -0.134843 0.939577 0.314663
-10.1767 66.3453 7.2242 -0.126076 0.942718 0.308849
-8.65844 66.9942 5.83459 -0.0971687 0.942931 0.318494
-7.17272 67.6128 4.4887 -0.0871802 0.941198 0.326413
-5.70917 68.2072 3.20048 -0.0352186 0.934172 0.355082
-4.28761 68.6861 1.93856 0.0187514 0.939113 0.343097
-2.48574 69.2086 0.346484 0.0755563 0.93395 0.349327
-1.07992 69.5536 -0.889671 0.116676 0.922576 0.367749
0.474335 69.8798 -2.26195 0.13083 0.918384 0.373436
2.01043 70.1721 -3.62083 0.177131 0.911208 0.37192
3.64262 70.3963 -5.10124 0.225941 0.903168 0.365019
5.10755 70.5598 -6.44975 0.244982 0.902234 0.354905
6.59817 70.6599 -7.86279 0.280994 0.895741 0.344516
8.04081 70.7322 -9.24567 0.288822 0.893307 0.344362
8.20237 70.7399 -9.40097 0.298179 0.892056 0.339595
7.6332 70.2698 -7.7022 0.285995 0.893842 0.34533
6.26226 70.1952 -6.39189 0.279691 0.891876 0.355429
4.87082 70.0804 -5.08438 0.255049 0.902401 0.347308
3.4456 69.918 -3.77245 0.206071 0.906825 0.367701
1.59568 69.6323 -2.1048 0.156305 0.915023 0.371889
0.182899 69.3577 -0.848478 0.144315 0.921363 0.36092
-1.52017 68.9843 0.662654 0.101076 0.931043 0.350632
-3.15774 68.5735 2.12782 0.0453887 0.934472 0.353132
-4.82364 68.0767 3.61272 -0.00613478 0.932009 0.362383
-6.35739 67.5019 4.97696 -0.0626129 0.945535 0.319441
-7.70373 66.9695 6.19882 -0.0988562 0.942025 0.32065
-9.17896 66.3639 7.5523 -0.109763 0.942321 0.316201
-10.6152 65.734 8.87214 -0.133357 0.938457 0.318612
-12.1614 65.0311 10.2885 -0.140374 0.936341 0.32181
-12.8761 64.6995 10.9399 -0.146887 0.934651 0.323809
7.33953 69.8114 -6.26952 0.285735 0.894487 0.343873
6.11456 69.7346 -5.10322 0.265079 0.900526 0.344654
4.90848 69.6308 -3.97118 0.237833 0.903087 0.357589
3.821 69.5095 -2.96665 0.205388 0.910579 0.358695
2.64063 69.3424 -1.89361 0.184778 0.916765 0.354118
1.57625 69.1709 -0.93162 0.160233 0.918238 0.362166
0.515169 68.9695 0.0172101 0.142523 0.925308 0.351416
-0.968069 68.6666 1.34701 0.102296 0.93145 0.349194
-2.11812 68.411 2.38651 0.0971362 0.935898 0.338613
-3.45911 68.0627 3.59055 0.0631563 0.940083 0.335045
-4.79712 67.6421 4.78676 -0.0146032 0.944846 0.32719
-5.85367 67.2756 5.74562 -0.068214 0.943353 0.324704
-6.14208 67.1611 6.00776 -0.0749691 0.94302 0.324179
-3.65108 67.5891 4.96567 0.0456315 0.942438 0.331252
-2.42865 67.8996 3.8539 0.0607497 0.943377 0.326113
-1.34669 68.1544 2.87434 0.0971362 0.935898 0.338613
-0.25142 68.3821 1.88112 0.128396 0.934224 0.332777
0.837516 68.5867 0.894391 0.140139 0.924718 0.353919
2.15298 68.8152 -0.294066 0.169445 0.92327 0.344762
3.36362 68.9969 -1.39522 0.20601 0.911815 0.35518
4.43787 69.1367 -2.3795 0.233759 0.907371 0.349334
5.80037 69.2652 -3.65315 0.252432 0.903156 0.347258
6.85718 69.3386 -4.65663 0.272043 0.90089 0.338215
7.35861 69.3679 -5.13629 0.272254 0.897158 0.347829
7.22005 68.9218 -3.84572 0.27839 0.898042 0.340616
6.15465 68.8524 -2.83043 0.25049 0.90599 0.341229
4.80058 68.7275 -1.56223 0.23746 0.907683 0.346012
3.61482 68.5868 -0.466235 0.201956 0.916376 0.345643
2.27202 68.3931 0.762985 0.158283 0.925247 0.344768
1.02802 68.1948 1.89991 0.158986 0.929872 0.331757
-0.063658 67.9923 2.89417 0.125712 0.93346 0.33593
-1.499 67.7053 4.20512 0.0847807 0.945262 0.315106
-1.69559 67.6625 4.38496 0.0828833 0.944675 0.317362
-0.368139 67.5315 4.36551 0.127609 0.940569 0.314715
0.820195 67.7455 3.27399 0.146155 0.935006 0.323114
2.21075 67.9593 1.99299 0.157387 0.929494 0.333573
3.38199 68.119 0.912359 0.197849 0.918977 0.341082
4.69675 68.2753 -0.305615 0.227674 0.90934 0.348232
6.03467 68.4035 -1.55925 0.237453 0.907685 0.346013
6.68994 68.4512 -2.18081 0.273889 0.898291 0.343596
6.42721 68.0022 -0.766798 0.270947 0.903165 0.332988
5.35425 67.9048 0.241597 0.226039 0.911383 0.34393
3.98692 67.7632 1.52015 0.212349 0.915363 0.342078
2.88833 67.6302 2.5418 0.19243 0.922743 0.33394
1.49959 67.4287 3.82578 0.170929 0.930532 0.323873
0.701664 67.3197 4.57151 0.149799 0.940039 0.306408
1.71193 67.0542 4.81433 0.167844 0.934031 0.315299
2.95415 67.2113 3.65321 0.184075 0.927391 0.325673
4.05623 67.3439 2.62531 0.225278 0.915981 0.332006
5.41981 67.4765 1.34325 0.233618 0.912683 0.33531
6.08571 67.534 0.71498 0.245551 0.903918 0.350194
5.78578 67.0754 2.16161 0.243657 0.909501 0.336808
4.70012 66.9836 3.19015 0.22318 0.918605 0.326121
3.58605 66.8788 4.24299 0.203058 0.923084 0.326625
2.71499 66.7751 5.05955 0.192433 0.929142 0.315698
3.29549 66.4312 5.69195 0.196717 0.925222 0.32445
4.42095 66.5407 4.62839 0.220623 0.919907 0.324185
5.59073 66.6355 3.51563 0.24482 0.912493 0.32775
5.32439 66.1973 4.94181 0.24333 0.913451 0.326187
4.22892 66.1093 5.98533 0.224228 0.918621 0.325359
4.13562 66.1008 6.07371 0.224228 0.918621 0.325359
4.67902 65.7352 6.73136 0.227878 0.920966 0.316057
5.03408 65.7676 6.39507 0.232923 0.917989 0.321002
-11.1175 57.1283 37.6176 -0.37613 0.897903 0.228683
-11.7509 56.6814 38.316 -0.388411 0.891241 0.234151
-11.5984 56.4403 39.5322 -0.425101 0.878663 0.21735
-10.6585 57.1099 38.4885 -0.397406 0.894117 0.206456
-10.1854 57.428 37.9707 -0.366007 0.908996 0.199412
-9.25598 57.7239 38.3275 -0.366009 0.908995 0.199414
-10.2064 57.1092 39.362 -0.398093 0.893197 0.209096
-11.1282 56.4552 40.3892 -0.412803 0.889676 0.195115
-12.0119 55.7699 41.4087 -0.45356 0.864035 0.218465
-12.227 55.5917 41.6633 -0.457033 0.86239 0.217726
-12.9219 54.6054 43.9435 -0.500854 0.83893 0.212935
-12.0614 55.3743 42.889 -0.484975 0.850112 0.205203
-11.0958 56.1603 41.7483 -0.446514 0.869657 0.210525
-10.2368 56.7841 40.7753 -0.412803 0.889676 0.195116
-9.31316 57.4095 39.7525 -0.385047 0.903456 0.188428
-8.77011 57.7555 39.1624 -0.359679 0.916641 0.174358
-7.38461 58.2809 39.0448 -0.33668 0.926335 0.168966
-8.38485 57.7262 40.1066 -0.348646 0.924378 0.154828
-9.34484 57.1124 41.1618 -0.403825 0.898583 0.171678
-10.2681 56.4679 42.1986 -0.425226 0.886271 0.183592
-11.1671 55.7811 43.2439 -0.468403 0.861241 0.197137
-12.1201 54.9691 44.3966 -0.500853 0.838931 0.212933
-12.942 54.2054 45.4242 -0.513046 0.829782 0.219649
-13.5099 53.6274 46.1773 -0.540939 0.813868 0.212143
-12.2971 54.4461 46.0698 -0.52061 0.831012 0.195918
-11.3212 55.3279 44.8552 -0.488135 0.85245 0.187224
-10.4745 56.0253 43.8396 -0.467929 0.865332 0.17956
-9.42872 56.7794 42.6387 -0.425224 0.886272 0.183595
-8.45213 57.4396 41.549 -0.403823 0.898584 0.171681
-7.485 57.9997 40.5001 -0.348647 0.924377 0.154828
-6.51702 58.4858 39.4895 -0.296276 0.944188 0.14398
-6.43771 58.5232 39.4075 -0.297597 0.94313 0.148127
-5.47285 58.7547 39.7578 -0.228244 0.964671 0.131588
-6.62479 58.2336 40.9428 -0.299109 0.944608 0.135093
-7.92016 57.5394 42.3346 -0.391085 0.907615 0.1526
-9.08711 56.7624 43.6381 -0.429785 0.888761 0.159336
-10.0505 56.0578 44.755 -0.449612 0.875469 0.17721
-10.9885 55.2852 45.8905 -0.490212 0.850055 0.192611
-11.4582 54.8771 46.471 -0.52061 0.831012 0.195918
-10.8356 55.1221 47.1463 -0.513914 0.841154 0.168381
-10.0438 55.7931 46.1642 -0.495761 0.853595 0.15999
-8.87766 56.6632 44.787 -0.455795 0.879056 0.139685
-7.68337 57.4488 43.4473 -0.417198 0.894704 0.159533
-6.67726 58.0224 42.3554 -0.322826 0.936344 0.137997
-5.41214 58.6072 41.0313 -0.26354 0.955775 0.130542
-4.12 59.0818 39.7362 -0.196999 0.971551 0.131451
-3.83191 59.1653 39.4523 -0.163149 0.978995 0.122278
-2.00614 59.4741 38.983 -0.0924921 0.992611 0.0785343
-3.19066 59.2061 40.1457 -0.190372 0.977074 0.0953152
-4.46755 58.7927 41.417 -0.253476 0.962189 0.0997112
