0.549286 57.815 70.4749 0.0090176 -0.887851 -0.460042
0.296137 57.6565 70.7758 0.0818857 -0.883029 -0.456298
-0.294051 58.1953 69.5284 0.153581 -0.877449 -0.454412
-2.15782 58.1435 69.0054 0.152412 -0.876692 -0.456269
-3.50925 58.0871 68.3427 0.254282 -0.826446 -0.498586
-4.69882 58.1496 67.7746 0.304314 -0.790929 -0.522925
-5.84901 57.8861 67.1533 0.478625 -0.854691 -0.201051
-7.21745 57.3281 66.4606 0.414194 -0.875649 -0.248358
-8.54154 56.8904 65.7955 0.408851 -0.879244 -0.244362
-9.58452 56.451 65.3573 0.503637 -0.843851 -0.184939
-9.29368 56.8009 64.3259 0.479723 -0.868116 -0.127439
-8.15625 57.5112 63.7687 0.447647 -0.880501 -0.1504
-6.31097 58.4122 63.2788 0.389027 -0.899757 -0.192916
-5.57976 58.9402 62.5105 0.395261 -0.888202 -0.234234
-4.93166 59.4009 61.5206 0.255765 -0.955382 -0.147397
-4.13283 59.7821 60.368 0.257937 -0.956328 -0.137498
-3.42339 60.1017 59.4658 0.257015 -0.956739 -0.136362
-2.67254 60.4291 58.6153 0.268217 -0.947586 -0.171563
-2.15952 60.7847 57.5142 0.127151 -0.968238 -0.215287
-2.2216 61.0805 56.0835 0.266892 -0.933973 -0.233154
-2.75461 61.2188 54.9546 0.208931 -0.955125 -0.209962
-3.5798 61.2563 53.9627 0.159914 -0.937129 -0.29399
-3.83003 61.3325 53.7042 0.110897 -0.919135 -0.378012
-4.52559 60.9633 54.3977 0.236388 -0.911388 -0.303541
-5.60333 60.7629 53.2446 0.403628 -0.894469 -0.184373
-6.68471 60.3201 52.6652 0.452267 -0.875579 -0.168497
-7.20718 60.2298 51.6669 0.430378 -0.887614 -0.164061
-6.59537 60.7092 50.7283 0.375957 -0.906494 -0.188356
-6.02223 61.1135 49.8006 0.336829 -0.923422 -0.183758
-5.19797 61.6097 48.753 0.295083 -0.93838 -0.17546
-4.03104 62.1135 47.6228 0.216833 -0.951219 -0.219467
-2.8701 62.4496 46.7757 0.164306 -0.971677 -0.168889
-1.88235 62.6388 46.0585 0.049782 -0.981518 -0.184784
-0.902762 62.7311 45.2751 -0.0379072 -0.994846 -0.0940496
0.487233 62.7527 44.1109 -0.100782 -0.986986 -0.12531
1.63844 62.7421 43.022 -0.127308 -0.988866 -0.0765238
2.90992 62.6439 41.7616 -0.144272 -0.988127 -0.0528233
3.73636 62.5446 40.9425 -0.173938 -0.983856 -0.0419383
4.50962 62.4403 39.932 -0.198938 -0.979645 -0.0262109
5.35207 62.2878 38.966 -0.205744 -0.978358 -0.0215903
5.38033 62.2514 40.3204 -0.209921 -0.977477 -0.0217169
5.02861 62.2687 41.8454 -0.179995 -0.982879 -0.0382176
4.65726 62.3025 43.0057 -0.169841 -0.984876 -0.0326317
4.29348 62.296 44.309 -0.140759 -0.989056 -0.0442073
3.63208 62.3037 46.0556 -0.141073 -0.988689 -0.0508597
3.30822 62.2759 48.0167 -0.134061 -0.990327 -0.0357868
3.00064 62.1459 49.6928 -0.128486 -0.986233 -0.104081
2.70515 62.0077 50.8887 -0.0723346 -0.986543 -0.146631
2.31897 61.8247 52.5307 -0.0458431 -0.99252 -0.110357
2.04563 61.627 54.1205 -0.0283361 -0.991351 -0.128142
1.8754 61.4192 55.4219 -0.037168 -0.985472 -0.165716
1.62865 61.1872 56.8442 -0.0362868 -0.98529 -0.166995
1.37912 61.0087 58.1807 -0.00371625 -0.987549 -0.154513
1.22543 60.7495 59.5915 0.0111172 -0.983698 -0.179486
1.0879 60.5239 61.0043 0.031679 -0.986977 -0.15728
1.05794 60.2301 62.7281 0.0374867 -0.985201 -0.167252
1.10763 59.9816 64.2103 0.0478659 -0.97995 -0.191448
1.1543 59.6782 65.5887 0.0578254 -0.974571 -0.21649
1.3075 59.2832 67.0155 0.0252658 -0.950031 -0.30973
1.57413 58.7888 68.4312 0.0364456 -0.9413 -0.335599
2.03547 58.1608 69.8098 -0.016211 -0.909037 -0.4164
2.56519 57.594 70.9409 0.020113 -0.89769 -0.439435
3.30646 57.2221 71.8395 0.0869761 -0.909254 -0.407053
3.99084 56.8761 72.7588 0.0528949 -0.880016 -0.466122
5.02423 56.0045 74.2077 -0.0189809 -0.853091 -0.520014
5.67059 55.4444 75.0123 -0.0246551 -0.828252 -0.559813
6.24197 54.8571 75.8579 -0.00548851 -0.841555 -0.540144
6.6865 54.2651 76.7744 0.0102464 -0.823368 -0.567416
7.4706 53.3424 78.173 0.0296089 -0.83955 -0.542475
8.15502 52.5701 79.4056 0.0266787 -0.839786 -0.542253
8.8353 51.9892 80.235 0.0210415 -0.807054 -0.590103
9.36268 51.3892 81.0744 0.0164763 -0.804084 -0.594248
8.83312 50.4176 82.2207 0.0524339 -0.753296 -0.655588
7.33294 49.7328 82.7756 0.10875 -0.745121 -0.658003
6.02964 49.5327 82.7868 0.119775 -0.744856 -0.656292
4.8877 49.2283 82.9049 0.131742 -0.743566 -0.655554
3.51817 48.8562 83.049 0.144281 -0.741719 -0.654903
1.98702 48.3551 83.252 0.168487 -0.724979 -0.667387
0.601087 47.9186 83.3117 0.20285 -0.707011 -0.677486
-0.980424 47.3996 83.3478 0.237126 -0.688517 -0.685358
-3.10187 46.4208 83.5972 0.226398 -0.685598 -0.691762
-4.63013 45.8241 83.5577 0.28319 -0.661673 -0.694256
-5.75774 45.5818 83.3286 0.283192 -0.661672 -0.694256
-7.3614 44.8085 83.338 0.317466 -0.651969 -0.688587
-8.62876 44.4393 83.1032 0.318709 -0.652831 -0.687191
-9.75803 43.7688 83.0856 0.36912 -0.591557 -0.716806
-10.7576 43.0513 83.163 0.405131 -0.568018 -0.715102
-12.2155 41.9927 83.0694 0.440272 -0.567131 -0.695476
-12.9936 41.1204 83.0688 0.574531 -0.5096 -0.640485
-13.9442 40.3403 82.8409 0.587859 -0.483963 -0.647493
-14.7677 39.4403 82.7374 0.606735 -0.484115 -0.63048
-15.5878 38.5921 82.4697 0.70473 -0.441727 -0.555188
-16.7032 37.5989 81.6791 0.726821 -0.443472 -0.522334
-17.5469 36.7887 81.0613 0.776579 -0.41837 -0.471054
-18.4778 35.8972 80.1432 0.83667 -0.396614 -0.376597
-19.1719 35.3094 79.191 0.86566 -0.387482 -0.317003
-19.7745 34.6762 78.2272 0.875764 -0.390235 -0.284172
-20.2586 33.99 77.4249 0.885207 -0.419981 -0.191734
-20.0402 34.687 77.13 0.908545 -0.36817 -0.197477
-19.3664 35.8645 77.9492 0.897628 -0.332849 -0.285093
-18.7082 37.1773 78.404 0.89553 -0.315764 -0.31356
-18.1944 38.462 78.5205 0.859535 -0.297828 -0.415328
-17.5306 39.8514 78.7624 0.810763 -0.316142 -0.492663
-17.0769 41.0629 78.7074 0.76877 -0.344757 -0.538636
-16.7223 42.1464 78.5014 0.69659 -0.428213 -0.575518
-16.0661 43.1686 78.5712 0.657845 -0.363241 -0.659769
-15.0837 43.3141 79.5139 0.618298 -0.46906 -0.630627
-14.0897 43.4982 80.3524 0.618734 -0.468527 -0.630596
-12.921 43.9258 81.0367 0.541593 -0.506746 -0.670209
-11.8046 44.4843 81.3194 0.406531 -0.569973 -0.714047
-10.7952 45.1486 81.3474 0.390164 -0.584912 -0.71109
-9.47657 45.8934 81.3534 0.295737 -0.658802 -0.691751
-7.54803 46.6371 81.5124 0.319949 -0.653693 -0.685797
-6.24865 47.1912 81.61 0.327552 -0.640556 -0.694549
-4.99169 47.6171 81.74 0.290115 -0.648567 -0.703699
-3.22416 48.4197 81.6048 0.21542 -0.677947 -0.702807
-2.16298 49.0198 81.3565 0.215136 -0.673259 -0.707418
-1.28749 49.8272 80.8119 0.195996 -0.689225 -0.697521
-0.424236 50.8603 80.029 0.171021 -0.713011 -0.678976
0.0944712 51.6596 79.2485 0.157479 -0.749704 -0.642763
0.62429 52.5261 78.3677 0.138513 -0.758285 -0.63667
1.36415 54.0517 76.5997 0.110508 -0.780402 -0.615414
1.53077 55.1234 75.2815 0.0839835 -0.805635 -0.584276
1.33147 55.9738 73.9704 0.0762035 -0.846057 -0.526724
0.810675 56.5212 72.942 0.0921005 -0.858894 -0.503805
0.242359 57.0073 72.0036 0.195601 -0.849431 -0.490109
-0.804114 57.2997 71.0919 0.154754 -0.878206 -0.452555
-1.75315 57.5906 70.2029 0.153582 -0.877449 -0.454411
-3.24531 57.508 69.5909 0.291086 -0.84287 -0.452591
-4.38783 57.5157 68.8417 0.25428 -0.826447 -0.498586
-5.57159 57.3964 68.2533 0.391151 -0.771832 -0.501275
-7.15463 57.0677 67.5241 0.434888 -0.813261 -0.351163
-8.38982 56.6342 66.9912 0.403508 -0.88284 -0.240365
-9.5559 56.2057 66.6076 0.454541 -0.86361 -0.208805
-10.9667 55.4292 66.2011 0.518179 -0.833196 -0.193068
-10.9294 55.7274 65.0224 0.501798 -0.843257 -0.192654
-10.5493 56.1488 63.9786 0.487137 -0.86308 -0.133379
-10.234 56.5177 62.8683 0.482567 -0.861536 -0.157279
-9.23526 57.1288 62.4906 0.472397 -0.867692 -0.154759
-8.00141 57.7923 62.5225 0.471618 -0.869275 -0.148111
-6.75644 58.4944 62.1244 0.439447 -0.8851 -0.153244
-6.079 58.9984 61.1561 0.421888 -0.897959 -0.118238
-4.77033 59.7232 59.5815 0.331134 -0.933573 -0.110363
-4.24479 60.02 58.5793 0.25214 -0.955674 -0.152027
-3.43087 60.625 56.5241 0.266889 -0.933974 -0.233153
-3.83768 60.8378 55.4374 0.249487 -0.928449 -0.275207
-4.37761 60.944 54.5896 0.229209 -0.941787 -0.242585
-5.27882 60.3807 55.2948 0.379051 -0.887506 -0.262019
-6.25142 60.247 54.0395 0.410829 -0.889724 -0.199024
-7.29162 59.7574 53.8065 0.455572 -0.870574 -0.185891
-8.44299 59.2067 53.5124 0.508283 -0.8409 -0.181962
-9.40706 58.4571 54.3805 0.502025 -0.847498 -0.172388
-9.3833 58.5659 53.9145 0.503466 -0.848326 -0.163665
-9.1441 58.9128 52.8327 0.535925 -0.820737 -0.197929
-8.59814 59.4822 51.6971 0.486445 -0.850412 -0.200427
-7.88497 60.089 50.6507 0.437967 -0.875959 -0.198712
-7.27567 60.6166 49.668 0.411205 -0.892374 -0.185955
-6.69295 61.095 48.7432 0.312403 -0.927948 -0.203266
-5.71405 61.6586 47.7996 0.29809 -0.923446 -0.240088
-4.80015 62.1308 46.812 0.208876 -0.951606 -0.225426
-3.78273 62.4829 45.9674 0.129952 -0.973777 -0.186736
-2.50615 62.83 44.8749 0.00593881 -0.988182 -0.139416
-1.57817 62.8807 44.1729 -0.0358481 -0.989943 -0.136848
-0.488301 62.9136 43.4828 -0.111051 -0.975068 -0.192119
0.582566 62.927 42.4571 -0.142393 -0.983001 -0.115899
1.55131 62.8754 41.6096 -0.177445 -0.979886 -0.0913085
2.71658 62.7373 40.547 -0.151317 -0.9869 -0.0479468
3.52752 62.6538 39.5575 -0.195375 -0.978933 -0.0593256
4.40701 62.5072 38.4119 -0.208456 -0.977502 -0.0321923
5.14169 62.3712 37.4267 -0.220268 -0.97526 -0.018172
5.8467 62.2284 36.5337 -0.205375 -0.978336 -0.0260368
6.65285 62.0597 35.6894 -0.226385 -0.974032 -0.0034262
7.41977 61.8889 34.7661 -0.216067 -0.976328 -0.00995795
8.44884 61.6762 33.6287 -0.210358 -0.977539 -0.00987057
9.06384 61.5677 32.7147 -0.188511 -0.981613 -0.0300082
10.0559 61.4048 31.772 -0.195174 -0.980413 -0.0258231
10.5695 61.354 30.7811 -0.166801 -0.984025 -0.0621128
11.7759 61.2259 29.8587 -0.164464 -0.981853 -0.0944249
11.2657 61.2044 31.2437 -0.167687 -0.983647 -0.0657257
10.7036 61.2618 32.2798 -0.189231 -0.981445 -0.0285125
9.8032 61.4082 33.2858 -0.189862 -0.981355 -0.0298674
9.45211 61.4576 34.3707 -0.205721 -0.978446 -0.0179413
8.77947 61.5801 35.8456 -0.213798 -0.97676 -0.0147201
8.15417 61.7007 36.8176 -0.217875 -0.975867 -0.0146392
7.61781 61.8056 37.8903 -0.220304 -0.975323 -0.0145112
7.15324 61.8896 39.1754 -0.213789 -0.976695 -0.0189901
6.74698 61.9546 40.4079 -0.213185 -0.976834 -0.0186478
6.34865 62.0169 41.5001 -0.211029 -0.977237 -0.0217724
6.09666 62.0532 42.7735 -0.206706 -0.978316 -0.0130531
5.73432 62.0859 43.9659 -0.169393 -0.985029 -0.0320124
5.42405 62.0971 45.0853 -0.170103 -0.983913 -0.0476721
4.98878 62.0833 46.5189 -0.145099 -0.988486 -0.041242
4.59004 62.1011 47.9086 -0.147703 -0.988585 -0.0297199
4.33037 62.0384 49.0595 -0.129887 -0.985918 -0.105331
4.09534 61.9263 50.3796 -0.129687 -0.985464 -0.109737
3.6767 61.815 51.7058 -0.0678466 -0.990115 -0.119602
3.31567 61.6707 53.5017 -0.0458462 -0.99252 -0.110358
3.29154 61.44 54.9699 -0.0380502 -0.985653 -0.164438
2.94202 61.2593 56.1337 -0.0371707 -0.985472 -0.165716
2.81184 61.0647 57.5469 -0.0185495 -0.991401 -0.129536
2.60299 60.8931 58.8897 -0.00371508 -0.98755 -0.15451
2.526 60.6608 60.3378 0.0258711 -0.988752 -0.147307
2.35338 60.4492 61.728 0.031679 -0.986977 -0.15728
2.42321 60.1888 63.2832 0.0379062 -0.985328 -0.166407
2.36833 59.9467 64.7042 0.0478638 -0.979949 -0.19145
2.44616 59.5709 66.1002 0.0140859 -0.958762 -0.283861
2.57588 59.1526 67.5195 0.0252658 -0.950031 -0.30973
3.0823 58.4556 69.1255 -0.016211 -0.909037 -0.4164
3.41251 57.9613 70.1822 -0.0419547 -0.909124 -0.414406
4.81057 57.3868 71.6498 0.00555558 -0.935557 -0.353131
5.54629 56.9484 72.5713 -0.0838937 -0.899557 -0.428672
5.93212 56.3649 73.5152 -0.0349825 -0.866241 -0.4984
6.59409 55.867 74.3342 -0.0349714 -0.866189 -0.498491
7.23485 55.3105 75.1415 -0.0151065 -0.834877 -0.550019
7.65049 54.6469 76.1713 -0.00541657 -0.841605 -0.540066
7.96196 54.0333 77.1262 0.00725753 -0.841924 -0.539547
8.64724 53.5217 77.9524 0.0237538 -0.84002 -0.542035
9.17124 52.9646 78.8387 0.015841 -0.834637 -0.550425
9.82111 52.4183 79.6581 0.00775575 -0.829118 -0.55902
10.6087 51.503 80.9469 0.00678626 -0.801213 -0.598319
10.4306 50.6703 82.0581 0.0321699 -0.777201 -0.626996
9.23941 49.6743 83.1467 0.0727741 -0.778064 -0.623955
8.03325 49.1748 83.5425 0.11636 -0.75629 -0.643806
6.61609 48.8494 83.6687 0.116355 -0.756313 -0.64378
4.71837 48.3812 83.8288 0.132871 -0.742825 -0.656167
3.44749 48.0301 83.969 0.144282 -0.741722 -0.6549
1.84303 47.4855 84.1184 0.188153 -0.706753 -0.681941
0.673531 47.0661 84.2169 0.195893 -0.708226 -0.67824
-0.659609 46.5108 84.3586 0.237578 -0.696958 -0.676614
-1.80365 46.0309 84.4512 0.23755 -0.69702 -0.676559
-3.33564 45.4596 84.4562 0.265451 -0.674245 -0.689151
-4.89399 44.8931 84.3533 0.292493 -0.67383 -0.678529
-6.00385 44.551 84.2102 0.304415 -0.660373 -0.686468
-7.14812 44.0013 84.23 0.321489 -0.66013 -0.678688
-8.21866 43.5191 84.1403 0.364698 -0.617308 -0.697084
-9.26657 43.0071 84.0241 0.40565 -0.611763 -0.679113
-10.2421 42.3796 84.0067 0.415679 -0.60149 -0.68206
-11.2717 41.6129 84.0121 0.439438 -0.58976 -0.677552
-12.1189 40.8305 84.0436 0.499326 -0.531367 -0.684341
-13.0498 39.9283 83.9944 0.557713 -0.549223 -0.622342
-13.9861 39.1793 83.7382 0.631719 -0.490361 -0.600397
-15.0713 38.1713 83.4196 0.61923 -0.487239 -0.615436
-16.1033 37.14 82.9678 0.713626 -0.485417 -0.505082
-16.9798 36.3471 82.4914 0.713633 -0.485412 -0.505077
-17.705 35.7172 81.834 0.787687 -0.435722 -0.435541
-18.5793 34.9949 81.0181 0.810506 -0.46159 -0.360575
-19.401 34.2548 80.0008 0.837868 -0.442342 -0.31986
-19.9915 33.6459 79.1849 0.838611 -0.482513 -0.25281
-20.7617 32.8464 77.9528 0.862392 -0.460337 -0.210643
-21.2888 32.2383 77.0763 0.841154 -0.523975 -0.133831
-21.8004 31.669 76.1655 0.847219 -0.522712 -0.0948304
-22.1536 31.285 75.126 0.813838 -0.568277 -0.106757
-22.774 30.6763 74.1948 0.780438 -0.613864 -0.118688
-23.248 30.1332 73.0999 0.765598 -0.641585 -0.0472042
-23.8575 29.5328 72.3089 0.706359 -0.70475 -0.0662106
-24.7639 28.6995 71.5085 0.706244 -0.705614 -0.0569375
-25.7613 27.8613 71.1685 0.64385 -0.756735 -0.113175
-27.0252 26.909 70.8823 0.577181 -0.793497 -0.190823
-28.0357 26.1274 70.9381 0.583213 -0.783868 -0.213105
-29.546 25.2902 70.9267 0.485376 -0.855872 -0.177551
-30.7773 24.6829 70.4852 0.490396 -0.841674 -0.226044
-31.7858 24.3894 69.3724 0.489916 -0.843113 -0.221681
-32.5069 24.2714 68.3802 0.457153 -0.856482 -0.239686
-32.9867 24.4222 67.2324 0.430868 -0.848703 -0.306685
-32.4514 24.9607 66.3675 0.405182 -0.876326 -0.260539
-31.6221 25.5148 65.7934 0.40255 -0.877509 -0.26062
-30.5004 26.1402 65.4521 0.412883 -0.863924 -0.28838
-29.3284 26.9739 64.9208 0.527614 -0.796482 -0.293754
-28.5156 27.8273 64.2702 0.531028 -0.779379 -0.332124
-27.7706 28.6814 63.541 0.521164 -0.764913 -0.378544
-27.3083 29.5667 62.2771 0.468743 -0.789288 -0.395609
-27.5384 30.4259 60.5543 0.478674 -0.74033 -0.471999
-27.9686 31.1165 59.1295 0.484053 -0.694242 -0.532341
-28.3573 31.8573 57.9156 0.474273 -0.629695 -0.614654
-28.527 33.0881 56.5639 0.455278 -0.632403 -0.626728
-28.5489 33.9683 55.7071 0.484266 -0.581205 -0.653977
-28.5794 34.9183 54.8417 0.483295 -0.581116 -0.654775
-28.2295 36.0831 54.1594 0.497777 -0.53783 -0.680283
-27.9431 37.0751 53.5972 0.522139 -0.536196 -0.663223
-27.7395 38.3337 52.752 0.535317 -0.520837 -0.664955
-27.0534 39.5425 52.4195 0.58667 -0.481814 -0.650792
-26.6729 38.9676 53.1697 0.583935 -0.473739 -0.659236
-26.8401 37.8931 53.8342 0.545957 -0.506634 -0.667273
-27.1068 36.7566 54.4982 0.521328 -0.501688 -0.690309
-27.4365 35.7356 55.0266 0.508627 -0.53089 -0.67783
-27.1602 34.8983 55.9166 0.507992 -0.553277 -0.660173
-27.0869 33.8964 56.8861 0.476659 -0.599522 -0.642765
-27.1689 33.0038 57.6506 0.467079 -0.643312 -0.606533
-26.6928 31.8444 59.3175 0.480374 -0.674485 -0.559624
-26.2793 30.9655 60.9397 0.460578 -0.742245 -0.486285
-25.9448 30.4333 62.1808 0.47891 -0.778102 -0.406452
-25.5206 30.0725 63.5294 0.486857 -0.812937 -0.316978
-24.7887 29.8979 65.2382 0.525303 -0.804295 -0.273234
-24.2943 29.933 66.4113 0.625063 -0.764586 -0.157153
-23.9709 29.9161 67.7927 0.627016 -0.763214 -0.156063
-23.6261 30.0266 68.9947 0.648195 -0.756298 -0.0886356
-23.1877 30.3937 70.0168 0.716698 -0.695483 -0.0514499
-22.7802 30.7835 71.1899 0.761644 -0.647977 0.00502092
-22.3456 31.2808 72.4372 0.790633 -0.612228 -0.00593784
-21.8058 32.031 73.643 0.84901 -0.52809 0.0173947
-21.1004 33.0551 74.5547 0.872879 -0.479322 -0.0586406
-20.475 34.1867 75.6008 0.90741 -0.404875 -0.0975943
-20.0193 35.1274 76.1473 0.909002 -0.395834 -0.130502
-19.6039 36.0603 76.7939 0.928881 -0.310176 -0.19789
-19.1413 36.9643 77.3725 0.9407 -0.240377 -0.239175
-18.7407 38.2575 77.4706 0.891161 -0.254506 -0.375578
-18.2891 39.3357 77.7058 0.863087 -0.261959 -0.430202
-17.893 40.442 77.8729 0.796791 -0.290765 -0.529697
-17.4761 41.6213 77.7758 0.763831 -0.300232 -0.568673
-17.3099 42.8178 77.4981 0.716617 -0.29932 -0.625577
-16.8284 44.3212 77.1703 0.645206 -0.383256 -0.659602
-15.7347 44.3596 78.1776 0.620517 -0.431628 -0.654659
-14.8139 44.3329 79.0589 0.618307 -0.43776 -0.652734
-13.9322 44.4543 79.8125 0.56646 -0.492827 -0.656136
-12.5557 45.0613 80.4244 0.529558 -0.537178 -0.656384
-11.5025 45.6701 80.5289 0.395683 -0.582452 -0.710037
-10.3034 46.2763 80.5574 0.34091 -0.703781 -0.623276
-8.77418 46.9599 80.622 0.351958 -0.679237 -0.643153
-7.49807 47.5841 80.6584 0.327596 -0.640541 -0.694541
-6.34742 48.1376 80.6905 0.327562 -0.640553 -0.694547
-5.00412 48.6927 80.7273 0.275662 -0.67058 -0.688719
-3.37899 49.4681 80.5601 0.215133 -0.673259 -0.707418
-2.28865 50.212 80.1437 0.200198 -0.688914 -0.696648
-1.48778 50.9936 79.6002 0.204142 -0.695313 -0.689105
-0.759446 52.0802 78.5507 0.145495 -0.748465 -0.647017
-0.0464036 53.2733 77.3319 0.138512 -0.758286 -0.636668
0.218499 54.3431 76.0341 0.107656 -0.778048 -0.618911
0.407543 55.4021 74.7357 0.0839809 -0.805634 -0.584277
-0.0366003 55.9302 73.759 0.195559 -0.849431 -0.490126
-0.606679 56.3297 72.8391 0.195597 -0.849416 -0.490137
-1.57775 56.7322 71.785 0.187303 -0.84299 -0.504267
-2.35443 57.0555 70.956 0.214681 -0.838347 -0.500297
-4.24822 56.9082 70.1064 0.280181 -0.857415 -0.43167
-5.51732 56.8197 69.3612 0.338114 -0.843454 -0.417375
-6.74829 56.6384 68.7098 0.34176 -0.845318 -0.410656
-8.23598 56.176 68.251 0.405061 -0.822046 -0.400207
-9.66577 55.6445 67.8331 0.459403 -0.810793 -0.36036
-10.6906 55.0953 67.628 0.495857 -0.793863 -0.352005
-11.7562 54.6482 67.2398 0.459489 -0.834513 -0.304069
-12.311 54.651 66.1585 0.486954 -0.846091 -0.21681
-12.1529 54.9922 65.0528 0.503335 -0.840774 -0.199253
-11.5671 55.5646 63.9656 0.515912 -0.842549 -0.154737
-11.2613 55.9732 62.6157 0.492734 -0.855381 -0.159804
-11.0173 56.3012 61.5188 0.484451 -0.867723 -0.111193
-10.0518 56.9202 61.1078 0.471856 -0.869644 -0.145158
-8.87634 57.5502 61.1573 0.473565 -0.868422 -0.146898
-7.84587 58.1174 61.1173 0.472341 -0.868772 -0.14876
-6.68735 58.8372 59.9652 0.395838 -0.910251 -0.116513
-5.90036 59.2983 59.1998 0.38735 -0.909681 -0.1498
-5.29154 59.7152 58.1652 0.378351 -0.915449 -0.137129
-4.58646 60.1894 56.9447 0.367032 -0.910701 -0.183364
-4.95083 60.3457 55.8879 0.379049 -0.887506 -0.262019
-25.7819 28.7034 66.8305 0.563303 -0.798975 -0.210085
-25.7888 28.4889 67.7111 0.595321 -0.788878 -0.152526
-26.4512 27.8746 68.303 0.578395 -0.796274 -0.174836
-27.4891 27.2126 68.272 0.528621 -0.822028 -0.211729
-28.4041 26.608 68.3351 0.517986 -0.829772 -0.207306
-30.0014 25.8048 67.8709 0.483058 -0.848276 -0.216986
-28.849 26.5196 67.5622 0.511376 -0.836787 -0.19132
-28.0443 27.1871 66.9833 0.515718 -0.827425 -0.22227
-27.0145 28.0084 66.3152 0.525908 -0.808657 -0.260025
-26.2548 28.4793 66.4302 0.549344 -0.792835 -0.260697
-25.8344 28.7072 66.6837 0.565142 -0.794277 -0.223022
-25.148 29.2505 66.4884 0.56514 -0.794277 -0.223024
-24.7742 29.3109 67.5327 0.623109 -0.765959 -0.158243
-24.6388 29.2082 68.5715 0.637606 -0.759756 -0.122349
-24.9487 28.7393 69.9393 0.653461 -0.748459 -0.112546
-25.9317 27.9275 69.762 0.620427 -0.768469 -0.150002
-27.0148 27.1931 69.6026 0.560792 -0.808259 -0.179527
-27.8509 26.617 69.6813 0.517985 -0.829772 -0.207308
-28.9532 25.9383 69.7264 0.50735 -0.837516 -0.202886
-30.1112 25.3782 69.2945 0.483057 -0.848276 -0.216986
-31.2503 25.0298 68.1205 0.486524 -0.845677 -0.219318
-30.8748 25.534 66.8752 0.399911 -0.878697 -0.260697
-29.7161 26.2426 66.4563 0.511376 -0.836787 -0.19132
-28.9538 26.8274 66.1404 0.536354 -0.815845 -0.216152
-28.2597 27.4034 65.6784 0.525909 -0.808656 -0.260025
-27.6193 28.049 65.1368 0.517236 -0.788268 -0.333319
-27.0375 28.6631 64.5874 0.519198 -0.776591 -0.355933
-26.3794 29.3221 64.0562 0.481883 -0.802111 -0.352713
-26.0251 29.205 64.9011 0.5253 -0.804299 -0.273224
-25.3898 29.2466 65.9418 0.533546 -0.791392 -0.298375
-25.2972 29.2452 66.129 0.565141 -0.794277 -0.223025
9.75704 73.3495 -7.91757 -0.3125 -0.886766 -0.340568
8.84893 72.9635 -6.14018 -0.304177 -0.885579 -0.351035
8.98827 73.5201 -7.66418 -0.304766 -0.885353 -0.351094
9.24167 74.0267 -9.21052 -0.315767 -0.884917 -0.342351
9.59683 74.4478 -10.634 -0.322724 -0.883629 -0.339189
10.2316 74.7845 -12.1273 -0.328385 -0.883111 -0.33508
10.4824 75.2388 -13.5757 -0.333382 -0.882732 -0.33112
10.9007 75.7005 -15.2088 -0.339479 -0.879931 -0.332354
11.4055 76.0222 -16.5924 -0.343777 -0.880137 -0.327378
12.0962 76.2467 -17.9301 -0.347175 -0.881061 -0.321245
12.5844 76.631 -19.5176 -0.350459 -0.882128 -0.314678
13.3255 76.8675 -21.0266 -0.354663 -0.884047 -0.304412
14.0054 77.1542 -22.6692 -0.357255 -0.88447 -0.300134
14.3917 77.4246 -23.9296 -0.357801 -0.884953 -0.298052
14.8252 77.7603 -25.4604 -0.359073 -0.885461 -0.295001
15.0622 78.1061 -26.808 -0.356246 -0.889234 -0.286936
15.4056 78.4024 -28.1776 -0.353954 -0.893379 -0.27672
15.5654 78.7658 -29.5445 -0.350767 -0.895377 -0.274303
15.6683 79.1287 -30.8864 -0.349059 -0.899467 -0.262851
15.8129 79.4386 -32.1443 -0.340714 -0.903583 -0.259683
16.0414 79.7505 -33.5529 -0.337598 -0.907691 -0.249187
16.3931 80.0658 -35.1744 -0.325257 -0.911971 -0.25003
17.0855 80.131 -36.3387 -0.320052 -0.91631 -0.240713
18.3077 79.887 -36.9913 -0.312029 -0.917372 -0.247114
19.6936 79.4818 -37.1903 -0.308029 -0.913446 -0.26596
21.0422 79.065 -37.2851 -0.301011 -0.912169 -0.277841
22.6399 78.5457 -37.3631 -0.31119 -0.905972 -0.28694
24.3386 78.1279 -37.9031 -0.312394 -0.904178 -0.291329
25.8958 77.722 -38.3401 -0.318662 -0.89848 -0.301924
27.4312 77.3025 -38.702 -0.317636 -0.897111 -0.307082
28.8023 76.749 -38.5347 -0.3262 -0.897035 -0.298161
30.5263 76.0333 -38.2468 -0.324056 -0.899039 -0.294475
31.6634 75.4326 -37.6599 -0.320791 -0.900096 -0.29482
32.4409 74.8653 -36.7837 -0.318399 -0.898223 -0.303013
32.9749 74.3104 -35.7 -0.318137 -0.89842 -0.302706
33.4887 73.5187 -33.8967 -0.317157 -0.897927 -0.305186
33.7626 72.9039 -32.3634 -0.312309 -0.899506 -0.305534
33.4474 72.585 -31.0979 -0.314156 -0.898541 -0.306474
32.1507 72.9995 -30.9776 -0.321657 -0.896642 -0.30424
30.3688 73.7395 -31.2626 -0.323955 -0.896443 -0.302397
28.7945 74.3418 -31.3555 -0.32672 -0.895623 -0.301845
27.3352 74.8291 -31.2139 -0.32821 -0.895456 -0.300728
25.8069 75.3328 -31.0349 -0.332947 -0.894154 -0.299373
24.3748 75.7966 -30.8132 -0.335024 -0.894162 -0.297039
22.9142 76.1687 -30.2882 -0.337499 -0.894206 -0.294062
21.7087 76.4049 -29.6041 -0.340491 -0.894 -0.291255
20.5597 76.5986 -28.8543 -0.344133 -0.89349 -0.288497
19.4185 76.7339 -27.897 -0.349165 -0.889258 -0.295472
18.3603 76.8463 -26.985 -0.350277 -0.889299 -0.294024
16.8085 76.8767 -25.202 -0.35586 -0.887285 -0.293407
15.7491 76.7278 -23.4874 -0.356178 -0.885398 -0.298675
14.8399 76.5056 -21.7533 -0.356171 -0.884197 -0.302222
14.096 76.2213 -20.0571 -0.352871 -0.882839 -0.309942
13.5528 75.8387 -18.3821 -0.349482 -0.88133 -0.317993
13.1842 75.514 -17.1005 -0.345603 -0.879809 -0.326336
12.5254 75.3653 -16.0023 -0.343413 -0.879588 -0.329224
11.932 75.0349 -14.495 -0.339557 -0.882049 -0.326634
11.4359 74.8018 -13.3733 -0.33532 -0.881872 -0.331453
10.9567 74.4359 -11.9191 -0.328414 -0.883097 -0.335088
10.6251 74.0625 -10.6054 -0.324502 -0.884354 -0.335548
10.1875 73.5555 -8.85286 -0.316104 -0.887401 -0.335513
9.88635 73.3753 -8.10412 -0.312224 -0.887409 -0.339148
10.9451 72.8093 -7.61127 -0.318725 -0.883624 -0.342963
11.4823 73.1561 -9.04675 -0.329718 -0.882796 -0.3346
11.7479 73.6356 -10.5783 -0.333535 -0.881565 -0.334062
12.1937 74.1535 -12.4068 -0.334306 -0.883181 -0.328985
12.7164 74.4003 -13.6007 -0.334816 -0.882525 -0.33022
13.3816 74.6277 -14.9076 -0.342025 -0.881314 -0.326043
13.9604 74.8535 -16.1251 -0.342025 -0.881314 -0.326043
14.5562 75.0417 -17.2675 -0.340651 -0.882288 -0.324845
14.8492 75.3658 -18.4888 -0.345167 -0.883563 -0.316507
15.425 75.6534 -19.9606 -0.351478 -0.885005 -0.305335
15.9113 75.9162 -21.2917 -0.355699 -0.884467 -0.301987
16.6299 76.0776 -22.6109 -0.355162 -0.884743 -0.301809
17.3603 76.208 -23.8654 -0.353648 -0.886677 -0.297887
18.4091 76.2655 -25.2781 -0.352182 -0.888016 -0.295608
19.3395 76.2179 -26.2508 -0.350278 -0.889297 -0.294029
20.3467 76.1077 -27.1093 -0.347493 -0.890057 -0.29503
21.3684 76.003 -27.9921 -0.343769 -0.890968 -0.296633
22.5524 75.7789 -28.6781 -0.341711 -0.891078 -0.298686
23.7457 75.5482 -29.3559 -0.337499 -0.894206 -0.294062
25.1273 75.1587 -29.744 -0.335543 -0.893913 -0.297205
26.5724 74.6749 -29.9217 -0.336155 -0.891798 -0.302815
28.0107 74.2257 -30.1551 -0.328326 -0.894057 -0.304735
29.3355 73.7536 -30.1973 -0.328498 -0.89396 -0.304834
30.6047 73.2175 -29.9798 -0.323565 -0.894195 -0.309388
31.8916 72.6748 -29.7573 -0.321101 -0.895645 -0.307737
33.1038 72.2109 -29.663 -0.322069 -0.896426 -0.304452
34.4461 71.9494 -30.2674 -0.31307 -0.8982 -0.308577
34.9559 72.2032 -31.5196 -0.311421 -0.899053 -0.307766
34.9019 72.7675 -33.1205 -0.311361 -0.900325 -0.304078
34.5605 73.3199 -34.4175 -0.310538 -0.901164 -0.302438
34.2075 73.8636 -35.6681 -0.317876 -0.898616 -0.302397
33.6406 74.5308 -37.0528 -0.319375 -0.899323 -0.298659
32.967 75.0978 -38.0543 -0.320342 -0.900424 -0.294307
32.0639 75.6745 -38.8324 -0.321237 -0.899769 -0.295336
30.912 76.2429 -39.3111 -0.322647 -0.899405 -0.2949
29.7053 76.7522 -39.5263 -0.328337 -0.895035 -0.30184
28.3296 77.3387 -39.7654 -0.330181 -0.894144 -0.302467
26.958 77.8544 -39.8253 -0.317724 -0.897115 -0.306978
25.6597 78.1205 -39.2617 -0.314978 -0.898807 -0.304852
24.046 78.5272 -38.8249 -0.312163 -0.903467 -0.293771
22.8157 78.8234 -38.4373 -0.304934 -0.907309 -0.289453
20.9916 79.4108 -38.3943 -0.291368 -0.916971 -0.272522
19.394 79.8862 -38.284 -0.292205 -0.921744 -0.25496
18.0275 80.2647 -38.0432 -0.304125 -0.920808 -0.244173
16.7818 80.5568 -37.5634 -0.312559 -0.919835 -0.237088
15.8731 80.6017 -36.505 -0.322756 -0.91676 -0.235241
15.2797 80.4346 -35.0522 -0.328372 -0.914636 -0.235825
14.9955 80.1418 -33.5674 -0.33685 -0.909383 -0.244038
14.7737 79.8082 -32.0551 -0.346149 -0.903854 -0.251421
14.5515 79.3576 -30.2005 -0.348662 -0.898156 -0.267862
14.3514 78.9932 -28.7252 -0.357468 -0.892599 -0.274742
14.0975 78.6414 -27.2763 -0.356993 -0.889928 -0.283875
13.8709 78.3191 -25.9872 -0.362803 -0.885166 -0.291299
13.4928 77.9643 -24.4565 -0.35769 -0.885452 -0.296703
13.0472 77.5942 -22.8268 -0.356586 -0.884492 -0.300864
12.3952 77.3082 -21.2276 -0.352626 -0.884186 -0.306383
11.7293 77.0726 -19.8071 -0.348684 -0.882344 -0.316051
11.2612 76.8068 -18.559 -0.347335 -0.880589 -0.322366
10.411 76.5037 -16.8349 -0.344894 -0.878803 -0.329775
9.88234 76.1786 -15.4458 -0.341907 -0.875764 -0.340787
9.48971 75.8668 -14.2336 -0.335243 -0.879638 -0.337415
9.27022 75.4687 -12.985 -0.328969 -0.882182 -0.336948
8.81088 75.1449 -11.6965 -0.323403 -0.882817 -0.340653
8.4739 74.7835 -10.4436 -0.319301 -0.882403 -0.34556
8.23322 74.2704 -8.91044 -0.31576 -0.884919 -0.342354
7.99201 73.7058 -7.26766 -0.304759 -0.885355 -0.351097
7.81324 73.2288 -5.92815 -0.299685 -0.884798 -0.356823
7.56986 72.6899 -4.38418 -0.292811 -0.886126 -0.359224
7.50569 72.0859 -2.82741 -0.286115 -0.888503 -0.358748
7.5229 71.4638 -1.29915 -0.28616 -0.888646 -0.358359
7.66757 70.9288 -0.0745703 -0.290958 -0.888907 -0.353819
7.35784 70.4673 1.35108 -0.289378 -0.891541 -0.348438
7.39998 69.8539 2.89104 -0.289156 -0.892814 -0.345357
7.51381 69.1429 4.65117 -0.291187 -0.894584 -0.339014
8.23974 68.9451 4.5453 -0.295039 -0.892661 -0.340747
8.60003 69.3263 3.24165 -0.29433 -0.891601 -0.344119
8.77627 69.7417 2.02121 -0.292474 -0.890743 -0.347902
8.98509 70.1629 0.766234 -0.291214 -0.890161 -0.35042
9.09338 70.7016 -0.680268 -0.292336 -0.888938 -0.352603
9.73072 71.0253 -2.00692 -0.294261 -0.886482 -0.357145
10.1336 71.3796 -3.23389 -0.300976 -0.885416 -0.354191
9.969 71.9175 -4.4588 -0.30108 -0.888771 -0.345597
10.2056 72.3283 -5.71286 -0.307213 -0.884541 -0.350994
10.7857 72.7145 -7.2191 -0.318729 -0.883623 -0.34296
11.9482 72.2011 -6.98542 -0.32906 -0.88086 -0.340302
11.573 71.819 -5.63394 -0.316175 -0.884554 -0.342809
11.3363 71.3327 -4.16974 -0.306444 -0.886616 -0.346415
11.2138 70.7173 -2.49005 -0.307707 -0.886161 -0.346462
10.5736 70.2664 -0.820701 -0.296178 -0.88653 -0.355449
10.2404 69.8477 0.510762 -0.296041 -0.8883 -0.351116
10.0216 69.318 2.05333 -0.298057 -0.889659 -0.345932
9.66068 68.7596 3.80714 -0.295246 -0.891855 -0.342666
9.48192 68.3361 5.06777 -0.293475 -0.89398 -0.338633
9.52675 67.7923 6.4678 -0.292767 -0.895407 -0.33546
9.40678 67.2985 7.89897 -0.294328 -0.896692 -0.330626
9.08538 66.8537 9.41813 -0.294416 -0.901877 -0.316127
9.0219 66.3648 10.8854 -0.27557 -0.910609 -0.307927
9.08255 65.7829 12.5487 -0.27005 -0.916606 -0.294182
9.04593 65.3625 13.9382 -0.253335 -0.92364 -0.287593
9.0708 64.998 15.098 -0.255773 -0.923998 -0.284252
8.7251 64.7191 16.3483 -0.239433 -0.926171 -0.290755
9.3047 64.2583 17.4356 -0.231223 -0.937768 -0.25909
9.50381 63.8408 18.7995 -0.22497 -0.943506 -0.243281
9.76616 63.4551 20.0514 -0.218401 -0.947388 -0.233669
10.1548 63.0233 21.5221 -0.212306 -0.952177 -0.219709
10.9606 62.4881 23.1089 -0.212583 -0.954415 -0.209452
11.2653 62.2465 23.9956 -0.207429 -0.959857 -0.188808
11.4941 61.8751 25.7067 -0.198155 -0.964394 -0.175154
11.0719 61.907 25.9886 -0.189613 -0.962279 -0.195104
10.6496 62.2371 24.7193 -0.207413 -0.959838 -0.188921
10.3031 62.5505 23.5077 -0.211162 -0.957408 -0.196732
9.6171 63.0109 22.1025 -0.211124 -0.953432 -0.215388
8.99221 63.466 20.7439 -0.212988 -0.951237 -0.223122
9.01099 63.7752 19.5068 -0.223817 -0.943538 -0.244218
8.63832 64.339 17.7414 -0.23319 -0.93723 -0.259272
8.25435 64.7506 16.6049 -0.231252 -0.930019 -0.284821
7.91762 65.2456 15.3166 -0.250501 -0.924566 -0.287101
7.78361 65.7191 13.9048 -0.264358 -0.917266 -0.297454
7.46244 66.223 12.6023 -0.256995 -0.917369 -0.303364
7.65683 66.7485 10.9783 -0.275986 -0.905358 -0.322737
7.23054 67.3004 9.80255 -0.27384 -0.90425 -0.327633
7.01975 67.9525 8.25077 -0.276382 -0.895518 -0.3488
6.80869 68.6573 6.55429 -0.302464 -0.890792 -0.339047
6.51415 69.3169 5.03576 -0.286597 -0.896308 -0.338343
6.46964 69.8645 3.64201 -0.28846 -0.892858 -0.345791
6.30445 70.4489 2.2604 -0.283072 -0.89457 -0.345853
6.38752 71.1916 0.300193 -0.284557 -0.891661 -0.352092
6.363 71.7871 -1.17414 -0.28629 -0.888647 -0.358252
6.39269 72.2923 -2.45669 -0.280011 -0.891273 -0.356688
6.55692 72.9585 -4.2312 -0.284578 -0.887937 -0.361355
6.82466 73.563 -5.92772 -0.297077 -0.885276 -0.357808
7.05643 74.13 -7.5062 -0.300752 -0.879137 -0.369683
7.24691 74.6217 -8.91076 -0.313318 -0.882738 -0.350151
7.42139 75.0942 -10.2613 -0.321659 -0.880301 -0.348688
7.69392 75.5783 -11.7558 -0.323308 -0.882131 -0.342513
7.99664 75.9531 -13.0094 -0.329602 -0.882136 -0.336366
8.31875 76.2982 -14.2149 -0.336963 -0.872597 -0.353588
8.86808 76.6542 -15.6486 -0.343722 -0.875096 -0.34068
9.52749 77.0358 -17.3256 -0.346879 -0.876977 -0.332546
10.2516 77.255 -18.6918 -0.349937 -0.878851 -0.324291
10.7408 77.4925 -19.8759 -0.353148 -0.879579 -0.318791
11.2842 77.6937 -21.0356 -0.353868 -0.879983 -0.316871
11.785 77.9436 -22.3479 -0.359898 -0.883131 -0.300922
12.372 78.1532 -23.6622 -0.360033 -0.883257 -0.300386
12.6595 78.5951 -25.3175 -0.362011 -0.884284 -0.29492
12.914 78.9137 -26.6252 -0.360019 -0.889558 -0.281201
13.1459 79.2162 -27.8657 -0.375544 -0.884747 -0.275757
13.3058 79.5305 -29.1206 -0.355512 -0.893934 -0.272935
13.5086 79.821 -30.36 -0.35492 -0.898652 -0.25779
13.7012 80.1293 -31.7254 -0.353213 -0.90174 -0.249192
13.8796 80.4191 -33.0466 -0.342318 -0.907358 -0.243956
14.1525 80.7516 -34.6761 -0.339108 -0.910177 -0.237869
14.5268 80.9749 -36.1012 -0.326768 -0.918278 -0.223551
15.216 81.0772 -37.4908 -0.320343 -0.919165 -0.229165
16.1171 81.0196 -38.5137 -0.31048 -0.924064 -0.222952
17.3113 80.7368 -38.9454 -0.296577 -0.924974 -0.237492
18.5465 80.4067 -39.2633 -0.279155 -0.931181 -0.234467
20.0256 79.9899 -39.3722 -0.277163 -0.924739 -0.260843
21.5263 79.5961 -39.5527 -0.274592 -0.920763 -0.276928
22.7816 79.2037 -39.5742 -0.299071 -0.907194 -0.295846
24.4538 78.7816 -39.9922 -0.301 -0.902826 -0.307088
25.7585 78.4817 -40.4083 -0.301513 -0.897279 -0.322458
27.3642 78.1123 -40.9813 -0.320707 -0.892909 -0.315992
29.1028 77.4033 -40.8182 -0.330927 -0.895679 -0.297058
30.473 76.7945 -40.5139 -0.339994 -0.896384 -0.284429
31.6413 76.2793 -40.2348 -0.323732 -0.902313 -0.284635
33.2495 75.5388 -39.7314 -0.32029 -0.902731 -0.287172
34.0367 74.9546 -38.7721 -0.317456 -0.90077 -0.29637
34.6862 74.3609 -37.6635 -0.312331 -0.903081 -0.294719
35.1716 73.7539 -36.3321 -0.309348 -0.901193 -0.303571
35.6151 73.2312 -35.2312 -0.309659 -0.901253 -0.303074
35.9068 72.7295 -34.0375 -0.305795 -0.903158 -0.301286
36.1472 72.0404 -32.2395 -0.300112 -0.901294 -0.312413
35.9221 71.5398 -30.5462 -0.30568 -0.903024 -0.301841
35.1682 71.3124 -29.1183 -0.304007 -0.901506 -0.308005
33.3549 71.7335 -28.5182 -0.311664 -0.90094 -0.30194
32.0837 72.1696 -28.4765 -0.318637 -0.897094 -0.306093
30.5793 72.7845 -28.7018 -0.326436 -0.893868 -0.307289
29.1343 73.3794 -28.8844 -0.329268 -0.893559 -0.30518
27.4958 73.9664 -28.8394 -0.330304 -0.893876 -0.303115
26.0932 74.4055 -28.5952 -0.3323 -0.893699 -0.301462
24.6844 74.826 -28.2709 -0.338658 -0.891593 -0.300603
23.3544 75.1047 -27.5836 -0.341011 -0.891421 -0.298463
21.345 75.4916 -26.4181 -0.345822 -0.89086 -0.294578
20.2505 75.6379 -25.5851 -0.346832 -0.888171 -0.30143
19.4471 75.6226 -24.5962 -0.352968 -0.886694 -0.298642
18.3695 75.5555 -23.1211 -0.353981 -0.885766 -0.300181
17.6764 75.3988 -21.8509 -0.354309 -0.884862 -0.302464
17.1479 75.2066 -20.6668 -0.355069 -0.884504 -0.302617
16.5188 74.9862 -19.2888 -0.354908 -0.884288 -0.303439
16 74.7541 -18.0363 -0.345831 -0.882689 -0.318023
15.362 74.4684 -16.5606 -0.347764 -0.881019 -0.320716
14.7601 74.183 -15.1513 -0.341945 -0.881372 -0.32597
14.2245 73.9429 -13.9403 -0.341945 -0.881373 -0.325968
13.4377 73.8074 -12.7521 -0.339698 -0.881332 -0.32841
13.2198 73.406 -11.456 -0.337595 -0.881587 -0.3299
12.8229 73.0939 -10.2224 -0.33545 -0.881326 -0.332766
12.4804 72.561 -8.46072 -0.333727 -0.882071 -0.332529
12.0873 72.2842 -7.34071 -0.331784 -0.882037 -0.334559
-11.7648 43.6002 82.1008 0.452411 -0.549962 -0.702044
-12.3642 42.8717 82.2853 0.507627 -0.523229 -0.681439
-13.6946 42.7329 81.2564 0.559539 -0.490777 -0.667804
-14.7822 42.3738 80.5095 0.617865 -0.469592 -0.630655
-15.8851 42.0401 79.5938 0.696589 -0.428213 -0.575519
-16.6275 40.6803 79.5892 0.765517 -0.352044 -0.538509
-17.0673 39.5988 79.687 0.787289 -0.337617 -0.514492
-17.6293 38.5012 79.5373 0.796707 -0.353125 -0.49047
-18.244 37.1217 79.4609 0.845249 -0.359281 -0.394828
-17.4378 38.0499 80.1836 0.800743 -0.357283 -0.48079
-16.4605 38.8895 81.0438 0.744249 -0.404037 -0.531834
-15.5253 39.7014 81.6797 0.708733 -0.42154 -0.565687
-14.7519 40.5976 81.869 0.609615 -0.476698 -0.633318
-13.8818 41.4597 82.0534 0.562915 -0.496357 -0.660875
-12.3626 42.8616 82.2943 0.507628 -0.52323 -0.681437
-12.3582 42.8648 82.2946 0.452412 -0.549963 -0.702043
2.17042 56.6195 73.0229 0.0616571 -0.883212 -0.461315
2.6175 55.6847 74.5498 0.0603068 -0.833219 -0.549644
2.69027 54.8356 75.8449 0.0839835 -0.805635 -0.584276
2.47274 53.9811 76.8954 0.113362 -0.782758 -0.611914
2.19423 53.1554 77.9001 0.116455 -0.774811 -0.621246
1.55201 52.1946 78.9467 0.110185 -0.761827 -0.638207
0.937041 51.1826 79.9792 0.150252 -0.736485 -0.659556
-0.0944024 49.5601 81.4033 0.19837 -0.695829 -0.690159
0.00892921 48.6339 82.3879 0.20495 -0.702119 -0.681927
1.3468 48.9967 82.4166 0.168249 -0.709765 -0.683022
2.4706 49.3259 82.2874 0.131549 -0.717412 -0.684116
3.58694 49.66 82.1538 0.144281 -0.741719 -0.654903
4.87007 50.0195 82.0014 0.130798 -0.74459 -0.654582
6.14908 50.3405 81.8918 0.119775 -0.744856 -0.656292
7.52025 50.7938 81.5914 0.0970393 -0.7552 -0.648272
7.483 51.7653 80.3589 0.0958635 -0.78898 -0.606894
6.91536 52.44 79.4463 0.0696464 -0.776844 -0.62583
6.06478 53.2824 78.1891 0.0199283 -0.831459 -0.554946
5.5018 54.1653 76.8978 0.0131886 -0.82343 -0.567257
4.80548 55.0217 75.6371 0.013106 -0.824043 -0.566376
3.89487 55.811 74.4389 0.031846 -0.835029 -0.549283
3.06832 56.4138 73.4746 0.0253331 -0.842902 -0.537238
2.75361 56.6365 73.0296 0.0590946 -0.908392 -0.41294
-15.0377 57.796 41.2753 0.45006 -0.847515 -0.28136
-14.9443 57.3335 42.9604 0.47072 -0.842879 -0.260725
-14.6453 57.5066 42.9404 0.481297 -0.839766 -0.250852
-14.8864 57.8554 41.3476 0.468183 -0.846951 -0.251952
-15.0214 57.8762 41.0599 0.450058 -0.847517 -0.28136
-16.1834 57.4003 40.6095 0.471115 -0.835275 -0.283489
-16.0223 57.9369 39.3011 0.425792 -0.855149 -0.29567
-16.1114 58.3471 37.9619 0.412361 -0.862338 -0.293465
-16.4013 58.7915 36.3426 0.399597 -0.860822 -0.315132
-16.7324 59.306 34.5604 0.377865 -0.866855 -0.32524
-16.4157 59.1021 35.4624 0.358577 -0.878136 -0.316492
-15.2523 59.2695 36.4115 0.37561 -0.876593 -0.300836
-14.4389 59.0832 38.0986 0.399088 -0.87865 -0.261538
-13.7217 58.9304 39.8724 0.420291 -0.87623 -0.235748
-13.7672 58.5205 41.1397 0.447128 -0.857277 -0.255252
-13.7737 58.0337 42.8909 0.484925 -0.843523 -0.230434
-14.2829 57.3805 44.1169 0.492013 -0.836432 -0.241464
-15.1128 56.5365 45.242 0.517576 -0.814606 -0.261669
-16.0131 55.6591 46.1545 0.525879 -0.806716 -0.269411
-17.0558 54.5002 47.2237 0.575665 -0.758401 -0.305676
-18.2429 53.2681 48.0888 0.628771 -0.734223 -0.255987
-19.1574 52.3173 48.5566 0.649047 -0.714336 -0.259465
-20.1009 51.2746 48.9507 0.63565 -0.707223 -0.309491
-21.132 49.9893 49.5152 0.677418 -0.652082 -0.339792
-22.1999 48.6707 49.7664 0.703714 -0.607183 -0.368938
-23.19 47.284 50.1505 0.703108 -0.549748 -0.450231
-23.1255 47.8594 49.4977 0.681733 -0.599 -0.417948
-21.8311 49.2293 49.5504 0.691374 -0.624176 -0.363226
-20.9329 50.5026 48.8765 0.675802 -0.662995 -0.322071
-20.1303 51.7594 47.7935 0.634312 -0.70555 -0.315986
-18.9162 53.1194 47.0649 0.599813 -0.735353 -0.315405
-18.3282 53.9786 46.1042 0.580504 -0.740364 -0.338935
-17.4292 55.0602 45.1224 0.554021 -0.780457 -0.287896
-17.0257 55.734 44.0267 0.512557 -0.811506 -0.280613
-16.6636 56.3696 42.8341 0.494268 -0.826036 -0.270725
-16.2323 57.0092 41.675 0.473053 -0.831811 -0.290364
-16.223 57.1725 41.2148 0.471115 -0.835275 -0.283489
-25.5818 43.601 50.6982 0.661678 -0.498603 -0.559304
-26.0528 42.5916 51.07 0.647211 -0.482539 -0.589862
-26.5894 41.1271 51.6575 0.613817 -0.460487 -0.640777
-26.3209 40.8649 52.1031 0.613816 -0.46049 -0.640777
-25.9167 42.0214 51.7013 0.633565 -0.470055 -0.613324
-25.4299 43.364 51.0892 0.661679 -0.498603 -0.559302
-24.6041 44.7688 50.8228 0.679811 -0.517745 -0.518477
-23.9023 46.0759 50.4402 0.708909 -0.522213 -0.472658
-24.4711 45.4659 50.3194 0.692879 -0.519736 -0.49925
-25.1453 44.3253 50.6002 0.657083 -0.535645 -0.530402
-25.2213 44.1613 50.6566 0.680396 -0.478944 -0.554684
11.3271 61.3333 29.5237 -0.151904 -0.985062 -0.0784504
12.153 61.2248 29.1527 -0.179764 -0.977303 -0.110558
12.337 61.3761 27.7484 -0.17621 -0.974338 -0.139569
12.0716 61.6355 26.3871 -0.168068 -0.974455 -0.148739
11.4901 61.5534 27.5716 -0.151131 -0.976382 -0.153934
11.3495 61.3602 29.0965 -0.140886 -0.980905 -0.134075
11.333 61.3541 29.1817 -0.139341 -0.988272 -0.0624733
6.42595 50.8975 81.3068 0.102901 -0.750192 -0.653164
6.60332 51.0065 81.2064 0.0964873 -0.772366 -0.627806
6.05468 51.4367 80.5959 0.0906326 -0.772113 -0.628989
4.87644 50.6736 81.2636 0.127345 -0.740994 -0.659326
4.48402 50.4144 81.479 0.127345 -0.740994 -0.659326
2.38117 49.834 81.7374 0.131549 -0.717412 -0.684116
3.53933 50.5881 81.1014 0.127345 -0.740994 -0.659326
4.7513 51.384 80.4297 0.111577 -0.767017 -0.631851
6.05025 52.1915 79.6585 0.0696452 -0.776844 -0.62583
5.5441 52.6544 79.0276 0.0906326 -0.772113 -0.628989
3.65322 51.4609 80.1425 0.119486 -0.754164 -0.645724
2.28406 50.5742 80.8987 0.114059 -0.7429 -0.659614
1.19589 49.8542 81.4883 0.168366 -0.710268 -0.6835
1.713 51.004 80.3205 0.110545 -0.739707 -0.663788
3.20467 51.9597 79.48 0.0979605 -0.757449 -0.645503
4.92661 53.0422 78.4619 0.0914286 -0.77263 -0.628238
5.16334 53.1837 78.3135 0.0519772 -0.805976 -0.589662
4.77311 53.6826 77.578 0.0161316 -0.823492 -0.567098
2.96652 52.5964 78.6967 0.0979604 -0.757445 -0.645508
2.13901 52.0732 79.1807 0.100822 -0.756789 -0.645837
3.33563 53.5908 77.5284 0.0844817 -0.784655 -0.61415
4.5604 54.2704 76.7198 0.0137433 -0.821815 -0.569588
4.69737 54.3392 76.6238 0.0137433 -0.821815 -0.569588
4.15875 54.7637 75.9975 0.013106 -0.824043 -0.566376
3.42323 54.3926 76.5161 0.0491629 -0.804077 -0.592489
-14.7956 41.5327 81.1289 0.617188 -0.473711 -0.628233
-14.9255 41.097 81.3298 0.614997 -0.472647 -0.631176
-15.5556 41.3744 80.4591 0.693155 -0.411568 -0.591732
-15.7859 40.0276 81.1296 0.692364 -0.413926 -0.591014
-16.3793 40.0059 80.3866 0.759133 -0.35616 -0.544855
-16.3345 40.5781 80.0749 0.761484 -0.357631 -0.540594
-0.596593 58.9938 67.4934 0.0896847 -0.936922 -0.337837
-1.51375 58.5985 68.3462 0.121378 -0.909264 -0.398128
-2.56567 58.5595 68.0698 0.222317 -0.861981 -0.455592
-1.50772 59.0442 67.1023 0.0972085 -0.941023 -0.324078
-0.649721 59.4028 66.3184 0.0817929 -0.958954 -0.271508
-1.26176 59.519 65.6136 0.0661059 -0.973699 -0.218036
-2.50037 59.0434 66.8069 0.097207 -0.941022 -0.324081
-3.36185 58.6342 67.5878 0.2356 -0.750172 -0.617846
-4.35813 58.5684 67.2877 0.235602 -0.750171 -0.617847
-3.50376 59.2706 66.6291 0.0498466 -0.997585 0.0483698
-2.56306 59.385 65.6361 0.157541 -0.986115 -0.0525167
-1.69674 59.6596 64.7079 0.205787 -0.97387 -0.0960695
-1.56452 59.7015 64.5663 0.205788 -0.973869 -0.0960702
-1.24575 60.019 62.8152 0.176252 -0.970428 -0.164939
-2.07424 59.68 63.6923 0.201742 -0.969232 -0.141033
-3.11129 59.3512 64.8035 0.205787 -0.97387 -0.0960695
-4.11137 59.2141 65.8341 0.298174 -0.954433 -0.0122319
-5.05206 58.4325 66.7276 0.495647 -0.840398 -0.219239
-5.93952 58.012 66.4028 0.478625 -0.854691 -0.201051
-5.12736 58.6676 65.582 0.476555 -0.879012 -0.0152738
-4.13843 59.2231 64.4709 0.298176 -0.954432 -0.0122351
-2.87812 59.6215 63.1413 0.197279 -0.962598 -0.185704
-1.92157 60.013 62.1286 0.176253 -0.970428 -0.164939
-1.0089 60.2968 61.1849 0.155061 -0.977351 -0.14402
-0.959192 60.5306 59.7635 0.150846 -0.975293 -0.161396
-2.124 60.1542 60.9525 0.152888 -0.976391 -0.152599
-3.47455 59.648 62.3707 0.225552 -0.959002 -0.171585
-4.40362 59.2356 63.3748 0.325668 -0.924837 -0.19651
-5.30153 58.6507 64.394 0.382794 -0.91131 -0.151599
-6.18909 58.1131 65.3843 0.399278 -0.902311 -0.162518
-6.25109 58.0707 65.4539 0.415192 -0.884922 -0.211017
-6.44734 58.1826 64.3143 0.382793 -0.911311 -0.151598
-7.37863 57.5645 65.3583 0.415192 -0.884922 -0.211017
-7.46696 57.496 65.4527 0.414194 -0.875649 -0.248358
-7.96588 57.4275 64.656 0.415573 -0.892885 -0.173362
-8.50617 57.0583 65.2627 0.415191 -0.884923 -0.211016
-0.610153 60.8674 58.0572 0.139131 -0.97216 -0.188541
-1.78054 60.4903 59.2393 0.150845 -0.975293 -0.161399
-2.71492 60.1883 60.1931 0.204147 -0.967533 -0.14901
-3.75061 59.7519 61.295 0.255781 -0.955431 -0.147404
-4.87848 59.2513 62.514 0.325666 -0.924838 -0.196512
-0.868952 61.0773 56.9607 0.127152 -0.968238 -0.215287
-0.627018 61.1472 56.7171 0.0923304 -0.982979 -0.158834
-0.775462 61.3276 55.5141 0.0923304 -0.982979 -0.158834
-0.361916 61.4336 55.0987 0.0810648 -0.980511 -0.178962
-1.59609 61.3686 54.9851 0.0697549 -0.977515 -0.198993
-0.681888 61.6209 54.0661 0.0622645 -0.981666 -0.180155
0.243313 61.8018 53.159 -0.0273419 -0.991438 -0.127684
0.37312 61.9827 51.7027 -0.0267009 -0.992237 -0.121462
-0.943641 61.7817 52.9946 0.0547465 -0.985396 -0.16124
-2.32226 61.4439 54.3608 0.139692 -0.968744 -0.20499
-2.92449 61.4735 53.6269 0.160705 -0.94175 -0.295435
-1.80432 61.7934 52.512 0.0748843 -0.989321 -0.125043
-0.620357 62.0128 51.3585 0.0583968 -0.992967 -0.10299
0.449687 62.1508 50.3124 -0.0251304 -0.992128 -0.122682
1.12002 62.222 49.6536 -0.0238011 -0.98954 -0.142282
1.08517 62.4133 48.3947 -0.0492856 -0.988711 -0.141494
-0.0968243 62.2562 49.5404 0.0442881 -0.986848 -0.155466
-1.03054 62.0861 50.4411 0.0463528 -0.991005 -0.125545
-2.06724 61.9078 51.4497 0.109164 -0.986968 -0.118229
-2.95813 61.679 52.3245 0.143314 -0.983402 -0.111273
-3.46398 61.5701 52.8315 0.115887 -0.988346 -0.0987
-4.16362 61.43 52.2248 0.305578 -0.949581 -0.0701301
-3.07443 61.7939 51.126 0.147603 -0.983898 -0.100783
-2.06192 62.0763 50.1376 0.109675 -0.98545 -0.129841
-1.13729 62.2396 49.2441 0.0633039 -0.983922 -0.167002
-0.101382 62.4434 48.2529 0.0252505 -0.989277 -0.143851
0.794987 62.5199 47.3786 -0.0407247 -0.997679 -0.0545696
1.43375 62.525 46.7464 -0.0770573 -0.996313 -0.0377071
-0.0630845 62.5712 46.9178 -0.0321584 -0.99817 -0.0512148
-1.01776 62.4713 47.8431 0.0449831 -0.993782 -0.10185
-2.16716 62.2233 48.9377 0.135308 -0.979686 -0.148008
-3.29067 61.8733 50.0341 0.160109 -0.980114 -0.117223
-4.30722 61.5036 51.0474 0.289812 -0.951784 -0.100578
-4.72908 61.3284 51.485 0.290272 -0.951579 -0.101185
32.2522 73.2243 -31.7424 -0.319362 -0.896841 -0.306079
32.616 73.22 -32.1091 -0.319362 -0.896842 -0.306076
32.2779 73.6248 -32.9425 -0.319421 -0.897207 -0.304943
31.3663 73.6358 -32.0235 -0.321659 -0.896647 -0.304236
30.4234 74.0512 -32.245 -0.324591 -0.896118 -0.302678
31.6934 74.0311 -33.5284 -0.319479 -0.89757 -0.30381
32.5473 74.019 -34.3905 -0.318319 -0.897751 -0.304493
32.1609 74.4223 -35.1764 -0.320439 -0.897831 -0.302024
30.9956 74.4403 -33.999 -0.321583 -0.896375 -0.305117
29.8186 74.4612 -32.808 -0.325239 -0.895844 -0.302793
29.5051 74.4676 -32.4903 -0.325229 -0.89579 -0.302963
28.1519 74.8927 -32.2947 -0.32672 -0.895624 -0.301845
29.9487 74.8558 -34.1159 -0.325249 -0.895897 -0.302623
30.9944 74.8401 -35.1723 -0.322032 -0.896907 -0.303074
31.9694 74.8219 -36.1598 -0.318399 -0.898224 -0.303013
31.4984 75.2255 -36.8611 -0.32044 -0.897831 -0.302024
30.4708 75.2454 -35.8197 -0.32248 -0.897433 -0.301032
28.727 75.2783 -34.0537 -0.325249 -0.895897 -0.302623
27.6945 75.2991 -33.0075 -0.326928 -0.896194 -0.299925
26.7237 75.3259 -32.0189 -0.330347 -0.894396 -0.301539
25.2749 75.7607 -31.7213 -0.332947 -0.894159 -0.299376
26.6981 75.7206 -33.171 -0.330071 -0.895736 -0.297842
28.1734 75.6859 -34.6693 -0.32378 -0.896639 -0.302002
29.9205 75.651 -36.4401 -0.322047 -0.897751 -0.300547
30.1394 75.6467 -36.662 -0.322045 -0.897752 -0.300548
29.9625 76.0447 -37.661 -0.323051 -0.898401 -0.297514
28.7802 76.0676 -36.4628 -0.323642 -0.897437 -0.29977
27.7517 76.0905 -35.4186 -0.323862 -0.896817 -0.301386
26.2959 76.1246 -33.9402 -0.33007 -0.895736 -0.297842
25.1995 76.157 -32.8225 -0.328195 -0.896623 -0.297246
23.7869 76.2042 -31.3786 -0.334507 -0.894413 -0.296868
21.5538 76.6804 -30.2687 -0.340768 -0.893867 -0.291341
22.8208 76.6291 -31.5703 -0.333924 -0.895758 -0.293451
24.1946 76.5744 -32.9801 -0.329832 -0.897307 -0.293344
25.3174 76.544 -34.123 -0.326318 -0.897506 -0.296648
26.4013 76.5136 -35.2269 -0.326927 -0.896194 -0.299924
27.9473 76.4805 -36.7956 -0.324192 -0.89751 -0.298957
29.0213 76.4574 -37.8855 -0.323056 -0.898399 -0.297512
27.0765 76.891 -37.092 -0.319768 -0.899856 -0.296662
26.0363 76.9128 -36.0368 -0.320337 -0.899745 -0.296383
24.762 76.9492 -34.7381 -0.326318 -0.897506 -0.296648
23.6392 76.9797 -33.5952 -0.329832 -0.897307 -0.293344
22.2776 77.0339 -32.1979 -0.331926 -0.897727 -0.289673
21.2233 77.0816 -31.1123 -0.340092 -0.895794 -0.286166
20.1916 77.1286 -30.0491 -0.341048 -0.893731 -0.291429
18.7619 77.2055 -28.5669 -0.347218 -0.893249 -0.285564
17.7088 77.2644 -27.4735 -0.350278 -0.8893 -0.294025
16.6204 77.3274 -26.34 -0.356403 -0.88734 -0.292583
