0.71705 61.4561 63.4346 0.0549298 -0.983232 -0.163747
0.696156 61.0273 65.192 0.0335541 -0.966947 -0.25276
0.682269 60.6524 66.6243 0.0201982 -0.961308 -0.273561
0.721528 60.159 68.0515 0.0287687 -0.94233 -0.333447
1.01487 59.7158 69.3291 0.00202258 -0.926378 -0.37319
1.4309 59.2632 70.3022 -0.0168701 -0.904375 -0.426086
0.232514 58.9481 70.9713 0.0775559 -0.893799 -0.433076
-0.566786 59.1938 70.1522 0.169034 -0.892086 -0.418944
-2.17923 59.2669 69.3105 0.173939 -0.894899 -0.410975
-3.60313 59.1925 68.4911 0.281914 -0.851676 -0.439412
-4.69016 59.164 67.9578 0.255143 -0.842072 -0.475203
-6.26506 58.8957 67.1996 0.417566 -0.834323 -0.338634
-6.2357 59.257 65.8799 0.454936 -0.861431 -0.225764
-5.45266 59.8892 64.9002 0.438978 -0.874254 -0.20731
-4.83227 60.4121 63.9624 0.398638 -0.90232 -0.150499
-4.40226 60.6907 62.9876 0.356362 -0.928086 -0.107997
-3.96875 60.9505 61.6639 0.225637 -0.96523 -0.130194
-3.20185 61.3658 60.1887 0.221594 -0.96413 -0.145747
-2.66587 61.6289 59.2592 0.197 -0.96495 -0.173388
-1.82804 62.1112 57.7189 0.216448 -0.95451 -0.205087
-1.83589 62.4286 56.2333 0.223186 -0.955069 -0.194618
-2.11613 62.6408 54.9098 0.248949 -0.945065 -0.21184
-2.63336 62.7665 53.7409 0.250396 -0.946173 -0.204959
-3.28697 62.8357 52.5793 0.241203 -0.948119 -0.206648
-4.14841 62.7967 51.7046 0.267585 -0.951586 -0.141055
-4.10068 62.9986 50.459 0.280504 -0.945611 -0.154692
-3.63371 63.1761 49.9786 0.233314 -0.96378 -0.129196
-4.19823 63.1781 49.0521 0.237993 -0.956627 -0.168
-2.90739 63.5241 48.2999 0.114715 -0.986997 -0.112591
-1.6724 63.7216 47.5182 0.0413765 -0.991766 -0.121193
-0.352133 63.7992 46.6151 -0.0508152 -0.997097 -0.0567069
0.690756 63.8469 45.7593 -0.105946 -0.985301 -0.119804
1.9319 63.7522 44.6845 -0.147771 -0.986613 -0.0662525
2.9324 63.6581 43.5866 -0.178515 -0.981365 -0.0700647
3.78752 63.5375 42.7562 -0.199305 -0.978328 -0.0561387
4.74433 63.3802 41.8314 -0.203747 -0.978694 -0.0249978
4.45642 63.3944 43.165 -0.177797 -0.983211 -0.0410321
4.43836 63.3154 44.9258 -0.171303 -0.98411 -0.0463068
3.90616 63.3602 46.0003 -0.169252 -0.985024 -0.0310197
3.52445 63.3716 47.7438 -0.147385 -0.988547 -0.0324392
3.37125 63.3461 48.9565 -0.147948 -0.988105 -0.0419399
3.11734 63.3064 50.4768 -0.139364 -0.988142 -0.0583619
2.7944 63.2665 51.7911 -0.1699 -0.981969 -0.0818062
2.59994 63.1035 53.1298 -0.165082 -0.973781 -0.15652
2.42327 62.9515 54.2623 -0.136001 -0.970475 -0.193533
2.27768 62.6994 55.6548 -0.0848402 -0.983375 -0.159026
1.98122 62.4779 57.2638 -0.0649752 -0.987795 -0.1414
1.96125 62.2749 58.5745 -0.0283377 -0.98375 -0.177292
1.89489 62.0729 59.706 -0.0283372 -0.98375 -0.177291
1.82551 61.8295 61.2252 -0.00885285 -0.987112 -0.159438
1.89374 61.5467 62.8807 -0.00335735 -0.985732 -0.168288
1.84928 61.2789 64.3826 0.0125011 -0.975583 -0.214752
1.80397 60.8795 65.9044 0.0335541 -0.966947 -0.25276
1.8674 60.4257 67.3877 0.00684231 -0.955669 -0.294363
2.01283 59.9506 68.7517 0.00201915 -0.926378 -0.373189
2.60155 59.3781 69.9787 -0.0247269 -0.910426 -0.412931
3.11758 58.8473 71.1182 -0.0168706 -0.904376 -0.426085
3.9648 58.4673 72.0729 -0.0115475 -0.934526 -0.355707
4.55106 58.0543 73.1297 0.0246588 -0.88514 -0.458351
5.2413 57.3821 74.1538 -0.070705 -0.854155 -0.515189
5.83658 56.7058 75.2403 -0.0423482 -0.842023 -0.535905
6.23588 56.0409 76.1708 -0.0283985 -0.820475 -0.570972
6.69951 55.4128 77.0552 -0.0268235 -0.821611 -0.569417
7.04947 54.7679 77.9505 -0.00783765 -0.818651 -0.57391
7.67948 54.1697 78.8371 0.00285661 -0.828007 -0.560711
8.30246 53.5619 79.736 -0.000713664 -0.827438 -0.561554
8.91947 52.9081 80.6226 0.0248468 -0.774525 -0.632056
9.2988 52.0201 81.7257 0.0320315 -0.77883 -0.626335
8.94402 51.3681 82.5242 0.0681146 -0.769551 -0.63409
7.9082 50.7867 83.0518 0.0966124 -0.757755 -0.645347
6.28232 50.4135 83.2946 0.0938399 -0.733584 -0.67239
4.96423 49.9715 83.5329 0.120312 -0.7315 -0.671143
3.70412 49.6697 83.636 0.120313 -0.731501 -0.671142
2.36363 49.2562 83.7876 0.154979 -0.727372 -0.668515
0.788166 48.7781 83.8695 0.195874 -0.694209 -0.692592
-0.738943 48.336 83.8726 0.216876 -0.684896 -0.69531
-2.10089 47.6083 84.1185 0.233813 -0.674311 -0.700454
-3.19024 47.2593 84.0908 0.226657 -0.672901 -0.704106
-4.85709 46.5832 84.0845 0.280037 -0.653767 -0.70297
-5.94272 46.2529 83.9592 0.280036 -0.653768 -0.702971
-7.56396 45.6841 83.7562 0.321059 -0.641116 -0.697059
-8.78832 45.0792 83.7482 0.318394 -0.642196 -0.697279
-9.96059 44.2522 83.8361 0.380274 -0.595267 -0.707848
-11.0854 43.633 83.7525 0.413936 -0.573648 -0.705677
-12.4023 42.6832 83.6599 0.452039 -0.554896 -0.698352
-13.6182 41.6058 83.5183 0.554141 -0.504948 -0.661782
-14.593 40.8029 83.3146 0.575264 -0.494939 -0.650721
-15.5713 39.8669 83.1152 0.596524 -0.488025 -0.637174
-16.3868 39.0994 82.8186 0.712355 -0.415608 -0.564225
-17.3843 38.2247 82.1056 0.721742 -0.431584 -0.538842
-18.2458 37.5234 81.4002 0.784123 -0.406598 -0.468372
-18.9527 36.8995 80.7773 0.813826 -0.373112 -0.441182
-19.5872 36.3955 79.8931 0.839319 -0.367366 -0.400731
-19.9673 36.2762 79.0709 0.891556 -0.323124 -0.317363
-20.4118 35.5475 78.5035 0.905146 -0.341245 -0.252193
-19.9246 36.6422 78.808 0.903113 -0.329966 -0.27479
-19.2359 37.7869 79.3863 0.847673 -0.317493 -0.422942
-18.6406 39.0005 79.6615 0.814118 -0.334376 -0.474768
-18.2399 40.1263 79.6248 0.801098 -0.283544 -0.524368
-17.7362 41.5977 79.4802 0.772914 -0.283342 -0.56648
-17.2687 42.78 79.3243 0.654543 -0.385709 -0.650232
-16.0843 43.8554 79.65 0.59092 -0.487691 -0.642598
-15.2394 43.9196 80.3585 0.576969 -0.498519 -0.646981
-13.6905 44.3707 81.3367 0.54109 -0.503322 -0.673713
-12.7488 44.8619 81.6737 0.464904 -0.557929 -0.685426
-11.3523 45.6795 81.8363 0.411143 -0.577293 -0.705462
-10.1387 46.1979 82.109 0.35869 -0.609531 -0.704811
-8.6444 47.0825 81.9689 0.318393 -0.642192 -0.697282
-7.57317 47.6756 81.9428 0.331865 -0.621915 -0.709287
-6.51746 48.1408 82.0288 0.309793 -0.628133 -0.713396
-5.28085 48.7142 82.0177 0.285585 -0.638785 -0.714395
-3.66808 49.1538 82.1535 0.21561 -0.65587 -0.723427
-2.78857 49.8169 81.8106 0.204589 -0.672158 -0.711581
-1.92937 50.3676 81.5366 0.193463 -0.674308 -0.712657
-0.641297 51.3541 80.9527 0.193383 -0.674321 -0.712667
0.0622437 52.328 80.1389 0.162958 -0.711884 -0.683129
0.524606 53.1614 79.3754 0.165472 -0.719522 -0.674468
1.2751 54.0035 78.5632 0.111797 -0.740572 -0.662611
1.64182 55.1692 77.2454 0.0982882 -0.765944 -0.63535
1.78219 56.0897 76.1725 0.0560015 -0.795879 -0.59891
1.62678 56.9719 74.8389 0.0199587 -0.832784 -0.553238
0.95985 57.7244 73.4773 0.065513 -0.871999 -0.485104
0.336528 58.1925 72.5145 -0.000660097 -0.905304 -0.424363
-0.623275 58.5019 71.5717 0.164125 -0.889275 -0.426912
-1.63933 58.7534 70.6572 0.169034 -0.892087 -0.418943
-3.16418 58.7141 69.8475 0.308686 -0.86128 -0.40362
-4.48498 58.6371 69.0017 0.281915 -0.851676 -0.43941
-5.93926 58.4262 68.3133 0.380197 -0.807216 -0.451501
-7.70842 58.0607 67.4769 0.417566 -0.834324 -0.338631
-7.80417 58.3806 66.1446 0.409995 -0.878677 -0.244603
-6.9296 59.1503 64.889 0.446958 -0.867843 -0.216536
-6.27722 59.6816 63.9794 0.440915 -0.876554 -0.192997
-5.65966 60.2048 63.0136 0.398637 -0.90232 -0.150497
-5.23341 60.4824 62.0346 0.356362 -0.928086 -0.107997
-4.71488 60.8377 60.8098 0.331305 -0.936376 -0.112602
-4.04387 61.1773 59.679 0.319184 -0.935393 -0.144984
-3.52512 61.5527 58.7069 0.197 -0.96495 -0.173388
-2.95655 62.0242 56.9328 0.223187 -0.955069 -0.194617
-3.25524 62.2834 55.2146 0.229923 -0.955628 -0.184147
-3.67524 62.4542 53.91 0.250398 -0.946172 -0.204959
-4.33284 62.481 53.0226 0.230559 -0.948959 -0.215219
-5.12979 62.3405 52.2265 0.387751 -0.906075 -0.169047
-5.68351 62.3711 50.7831 0.388667 -0.90467 -0.174441
-5.19528 62.7242 49.8899 0.29941 -0.932227 -0.20324
-4.32615 63.1306 49.1418 0.237996 -0.956626 -0.168003
-4.88139 63.1633 48.1935 0.226329 -0.960417 -0.1624
-3.79386 63.5483 47.5581 0.202008 -0.955715 -0.212619
-2.7406 63.7657 46.8708 0.0326242 -0.991635 -0.12488
-1.55016 63.913 46.1968 -0.0171421 -0.975162 -0.217159
-0.699017 63.9603 45.5087 -0.0536759 -0.987339 -0.149269
0.127021 64.0306 44.7464 -0.105947 -0.985301 -0.119807
1.17709 63.923 44.0673 -0.158556 -0.983446 -0.0877203
1.97338 63.8535 43.2592 -0.17449 -0.977886 -0.110438
2.85117 63.7521 42.3118 -0.190894 -0.979781 -0.0596061
3.65946 63.6358 41.4811 -0.217774 -0.974929 -0.037814
4.36317 63.4997 40.4857 -0.205549 -0.978114 -0.032012
5.41406 63.3028 39.3801 -0.231477 -0.972696 -0.0151155
6.09904 63.1544 38.3268 -0.225404 -0.97412 -0.0168105
6.93617 62.9689 37.4578 -0.235658 -0.971789 -0.000140238
7.59445 62.8084 36.7607 -0.226134 -0.974092 -0.00272741
8.41387 62.6213 35.814 -0.228698 -0.973476 0.00225187
8.91514 62.5049 34.7675 -0.216753 -0.976206 -0.00638903
9.01287 62.4819 35.0397 -0.21717 -0.976129 -0.00310234
8.7864 62.5344 36.0756 -0.228691 -0.973477 0.00224913
8.15219 62.6774 37.3653 -0.22616 -0.974081 -0.0040067
7.62574 62.7943 38.3925 -0.227664 -0.973723 -0.00574838
7.3642 62.8423 39.5869 -0.224252 -0.974429 -0.0140785
6.90821 62.9302 40.6835 -0.222082 -0.974888 -0.0162069
6.47545 63.0121 41.9062 -0.219304 -0.975532 -0.0152942
6.10463 63.0744 43.0359 -0.220142 -0.975203 -0.0220625
5.93605 63.0614 44.2116 -0.205818 -0.976905 -0.057408
5.6621 63.0826 45.2814 -0.206429 -0.977911 -0.032808
4.98177 63.1512 47.0628 -0.171278 -0.985014 -0.0202797
4.67477 63.1704 48.1754 -0.200123 -0.978971 -0.0395703
4.47617 63.1379 49.397 -0.176273 -0.982663 -0.0574562
4.31393 63.0998 50.4957 -0.17649 -0.982383 -0.0614326
4.10959 63.0509 51.5744 -0.17608 -0.979923 -0.0935273
3.6857 62.8791 53.3809 -0.165074 -0.973782 -0.156524
3.34223 62.7524 54.6789 -0.120662 -0.98708 -0.105424
3.43031 62.6045 55.7621 -0.115128 -0.985284 -0.126338
3.34438 62.421 57.0347 -0.0649748 -0.987795 -0.1414
3.2899 62.2657 58.1999 -0.063907 -0.988811 -0.134794
3.14163 62.0686 59.5302 -0.0213446 -0.986122 -0.163938
3.1354 61.8581 60.9125 -0.0143482 -0.988493 -0.150588
3.04404 61.6305 62.3669 -0.00595475 -0.984976 -0.172515
3.21635 61.4088 63.5927 -0.00855192 -0.98422 -0.176743
2.91786 61.1678 64.9492 0.0125011 -0.975583 -0.214752
3.10301 60.6872 66.5677 0.00684231 -0.955669 -0.294363
3.02546 60.2313 68.0458 0.0178046 -0.949 -0.313905
3.5429 59.7027 69.1735 -0.061681 -0.909441 -0.411233
3.89856 59.1635 70.3126 -0.0617028 -0.909433 -0.411247
4.61919 58.819 71.1274 -0.0116193 -0.934792 -0.355007
5.33409 58.4549 72.061 -0.0115969 -0.934514 -0.355737
5.96573 57.9848 72.9729 -0.0947136 -0.900687 -0.424018
6.88529 57.0719 74.4911 -0.0547182 -0.864712 -0.499278
7.19206 56.4685 75.5039 -0.0372254 -0.863608 -0.502787
7.7912 55.5152 76.8371 -0.0531891 -0.822788 -0.565854
8.08338 54.9168 77.7218 -0.0142181 -0.850269 -0.526157
9.18667 53.966 79.1394 -0.000714787 -0.827437 -0.561555
9.75729 53.3785 80.0007 -0.0018106 -0.826695 -0.562648
10.4341 52.7635 80.8594 0.0320315 -0.77883 -0.626335
10.584 52.0007 81.8313 0.0392143 -0.783134 -0.620616
10.251 51.2308 82.7794 0.0395564 -0.781371 -0.622812
9.60909 50.655 83.461 0.0680661 -0.769571 -0.634073
8.15964 50.0881 83.9096 0.0966133 -0.757756 -0.645346
7.07195 49.8401 84.0386 0.0956938 -0.763988 -0.638094
5.40504 49.3354 84.3101 0.125798 -0.740737 -0.659912
3.91725 48.9662 84.441 0.123054 -0.736117 -0.665529
2.62784 48.5499 84.5795 0.17385 -0.699472 -0.693192
0.975829 48.0573 84.6399 0.191815 -0.692939 -0.695012
-0.0819955 47.6921 84.7117 0.216876 -0.684896 -0.69531
-2.20856 46.8127 84.8639 0.236114 -0.689981 -0.684235
-3.57294 46.3395 84.8417 0.275989 -0.668208 -0.690679
-5.12087 45.6137 84.8891 0.292114 -0.667691 -0.684732
-6.59694 45.1142 84.7257 0.318738 -0.655189 -0.684673
-7.74229 44.6832 84.6157 0.316417 -0.669258 -0.672291
-8.92549 44.0058 84.6427 0.36075 -0.620598 -0.696217
-10.5182 43.0895 84.5143 0.395634 -0.605065 -0.690461
-11.753 42.1688 84.5294 0.443946 -0.59769 -0.667591
-12.6369 41.4709 84.4792 0.500919 -0.541561 -0.675123
-13.5419 40.6932 84.337 0.559132 -0.539433 -0.629337
-14.565 39.9381 84.0509 0.623727 -0.496545 -0.603662
-15.4236 39.044 83.8994 0.623654 -0.496577 -0.603712
-16.7208 37.8723 83.3252 0.7073 -0.476245 -0.522415
-17.5671 37.1607 82.828 0.707362 -0.476185 -0.522385
-18.3035 36.6359 82.1203 0.789653 -0.416693 -0.45035
-19.0765 36.0017 81.4314 0.791106 -0.455555 -0.404463
-19.8511 35.309 80.4909 0.844001 -0.413803 -0.339853
-20.4103 34.7529 79.6804 0.862345 -0.397099 -0.313976
-21.0685 34.0727 78.558 0.861683 -0.447609 -0.23906
-21.5759 33.4111 77.6552 0.893426 -0.411128 -0.181007
-21.8289 33.2798 76.6174 0.90402 -0.414506 -0.0966275
-22.4871 32.2202 76.0064 0.84921 -0.523351 -0.0703284
-22.924 31.7113 75.0612 0.826506 -0.555801 -0.0882989
-23.4597 31.0711 73.8776 0.783482 -0.620946 -0.000671471
-23.773 30.6792 72.7709 0.754279 -0.655815 -0.0311449
-24.9139 29.5523 71.8761 0.692925 -0.72004 -0.034837
-25.6761 28.8559 71.4296 0.641102 -0.762172 -0.0889667
-26.6323 28.0924 71.2556 0.631554 -0.769941 -0.0912716
-28.0233 27.0423 70.9798 0.594965 -0.786935 -0.163555
-29.3706 26.0971 71.1492 0.493242 -0.853648 -0.167325
-30.5802 25.4428 70.8552 0.5104 -0.842289 -0.173322
-31.5731 25.0147 70.222 0.482095 -0.847046 -0.223132
-32.3885 24.8133 69.3074 0.466991 -0.854337 -0.228096
-32.9755 24.8028 68.3758 0.448235 -0.848498 -0.281312
-33.1898 25.1974 66.8745 0.386838 -0.868091 -0.311087
-32.5986 25.7521 66.0617 0.386834 -0.868091 -0.311091
-31.4351 26.5374 65.4298 0.360792 -0.842886 -0.399214
-30.3876 27.1809 65.0178 0.360788 -0.842868 -0.399256
-29.4154 27.9775 64.5274 0.481958 -0.78736 -0.384423
-28.6563 28.7586 63.8453 0.472416 -0.798975 -0.372105
-28.159 29.3965 63.107 0.47244 -0.798985 -0.372053
-27.1462 30.447 62.0623 0.395874 -0.812432 -0.428063
-26.7471 30.184 63.0384 0.437628 -0.822135 -0.364109
-26.4149 29.8971 64.1685 0.465184 -0.826239 -0.317699
-25.8912 29.8005 65.4495 0.4977 -0.839304 -0.218776
-25.4278 29.758 66.649 0.583972 -0.795409 -0.15862
-25.0269 29.8461 67.9232 0.603506 -0.785119 -0.138961
-24.5947 30.0112 69.1887 0.633379 -0.771183 -0.0640868
-24.3163 30.171 70.2372 0.678659 -0.733141 -0.0402128
-23.7003 30.755 71.2667 0.74371 -0.668183 0.0206663
-23.7082 30.7643 72.5015 0.747166 -0.664401 -0.0177209
-23.1276 31.4593 73.1804 0.776425 -0.629326 0.0333541
-22.6141 32.2602 73.7714 0.82601 -0.559988 0.0641985
-22.193 32.8678 74.6734 0.881108 -0.472497 -0.019899
-21.6515 33.8364 75.7166 0.91631 -0.395356 -0.0637962
-21.1778 34.5709 76.7775 0.89173 -0.433657 -0.129456
-20.7444 35.579 77.2365 0.940908 -0.301894 -0.153464
-20.3129 36.4848 77.6892 0.920752 -0.302489 -0.244871
-19.8331 37.4502 78.2269 0.903427 -0.299507 -0.306783
-19.4803 38.4414 78.5117 0.873309 -0.270147 -0.401282
-18.9948 39.6345 78.6077 0.822783 -0.291679 -0.48573
-18.5416 41.2444 78.5593 0.801099 -0.283545 -0.524367
-18.2296 42.3334 78.5072 0.775072 -0.248585 -0.58092
-17.8104 43.5689 78.2585 0.599017 -0.463958 -0.65204
-17.2691 44.6357 78.0402 0.599694 -0.414787 -0.681382
-16.3916 44.7753 78.717 0.575074 -0.478402 -0.663643
-15.423 44.8523 79.5021 0.577291 -0.478724 -0.661482
-14.3621 44.9375 80.3661 0.538042 -0.521093 -0.660028
-13.2041 45.5826 80.7181 0.514716 -0.562949 -0.64665
-12.0046 46.2731 80.925 0.443285 -0.630126 -0.637525
-10.6778 46.894 81.0844 0.364433 -0.679509 -0.636755
-9.69418 47.5334 80.9538 0.382298 -0.630995 -0.67505
-8.54299 47.9416 81.2156 0.353867 -0.641033 -0.681069
-7.39026 48.6136 81.1819 0.353838 -0.64103 -0.681087
-6.35484 49.1522 81.1881 0.305584 -0.66186 -0.684514
-5.11488 49.7378 81.1582 0.283435 -0.643186 -0.71132
-4.0744 50.0701 81.2016 0.21012 -0.663993 -0.717518
-2.99966 50.8012 80.82 0.204564 -0.672203 -0.711546
-2.13955 51.3895 80.5116 0.204696 -0.672164 -0.711544
-1.22261 52.4064 79.7506 0.162963 -0.711885 -0.683127
-0.476965 53.4663 78.8044 0.165454 -0.719534 -0.674459
0.261878 54.516 77.8194 0.105076 -0.753206 -0.649038
0.4492 55.2372 76.986 0.0920433 -0.758969 -0.644588
0.545075 56.032 76.0639 0.0920392 -0.758974 -0.644583
0.449162 56.8502 74.9797 0.0427342 -0.852392 -0.519171
-0.121746 57.3088 74.0313 0.19694 -0.861039 -0.468856
-0.509196 57.8016 72.9637 0.196842 -0.861048 -0.468881
-1.71399 58.0864 71.9454 0.195163 -0.859881 -0.471716
-2.69875 58.2726 71.1524 0.283261 -0.85541 -0.431616
-4.27774 58.1155 70.2835 0.304778 -0.865639 -0.397216
-5.41349 58.0571 69.4969 0.341327 -0.853136 -0.394531
-6.98667 57.7406 68.7989 0.344547 -0.854443 -0.388863
-7.99752 57.5522 68.2698 0.406711 -0.829117 -0.383604
-9.96527 56.8222 67.684 0.426239 -0.83428 -0.349709
-11.4664 56.0598 67.3024 0.507117 -0.79258 -0.338598
-12.6032 55.5081 66.9966 0.493998 -0.824881 -0.274842
-13.0477 55.5764 65.6101 0.483806 -0.860602 -0.159045
-11.8541 56.3338 65.4911 0.524052 -0.83261 -0.17918
-10.5423 57.0996 65.8155 0.529376 -0.829398 -0.178497
-9.16192 57.9097 65.5605 0.409529 -0.878988 -0.244265
-8.27892 58.5001 64.9195 0.409994 -0.878677 -0.244604
-7.6063 58.9854 64.2114 0.415766 -0.886076 -0.204957
-7.04196 59.5148 63.0179 0.411355 -0.889284 -0.199902
-6.43786 60.0099 62.1213 0.398637 -0.90232 -0.150497
-5.95208 60.3638 60.8147 0.35452 -0.926805 -0.123888
-5.2476 60.7862 59.6703 0.331304 -0.936376 -0.112599
-4.59059 61.2208 58.5088 0.33028 -0.924837 -0.188655
-4.01998 61.6569 57.332 0.355723 -0.915792 -0.185557
-4.23602 61.841 56.1134 0.361653 -0.910254 -0.201605
-4.57773 62.0675 54.4779 0.361614 -0.910265 -0.201625
-5.18389 62.0097 53.6062 0.377783 -0.899254 -0.215566
-6.18259 61.8122 52.5142 0.429029 -0.882052 -0.194369
-7.74229 61.3979 50.9741 0.438947 -0.872696 -0.213838
-6.80635 62.0449 50.0427 0.392018 -0.892564 -0.218284
-6.06383 62.5959 49.0926 0.370995 -0.904994 -0.208205
-5.28858 63.0107 48.4712 0.319247 -0.920731 -0.224358
-4.99343 63.1256 48.2603 0.229147 -0.958891 -0.167286
-26.8431 28.5824 67.519 0.562087 -0.806535 -0.183194
-27.4267 28.4407 66.5637 0.517435 -0.814534 -0.261459
-28.4996 27.7879 66.5135 0.517188 -0.820552 -0.243268
-29.821 26.7738 67.0865 0.518548 -0.823875 -0.228169
-30.6367 26.1228 67.8924 0.441758 -0.865627 -0.231312
-30.0438 26.2692 68.6658 0.468482 -0.853338 -0.227227
-29.0094 26.8279 68.924 0.542126 -0.813803 -0.207611
-27.7744 27.6457 68.8808 0.547431 -0.815976 -0.185749
-26.8832 28.2688 68.8481 0.584653 -0.796713 -0.152009
-26.7708 28.58 67.7516 0.562086 -0.806536 -0.183193
-26.0208 29.173 67.4423 0.561055 -0.807825 -0.180632
-25.6788 29.2503 68.4327 0.601562 -0.787558 -0.133361
-25.5872 29.1005 69.9754 0.641103 -0.762171 -0.0889686
-26.6388 28.2192 70.1409 0.631379 -0.770104 -0.0911032
-27.552 27.5912 69.9515 0.569777 -0.808443 -0.147558
-28.6985 26.7744 69.9177 0.561834 -0.80596 -0.186471
-29.7553 26.0604 70.0185 0.462217 -0.873191 -0.15037
-30.6449 25.7067 69.581 0.436081 -0.883181 -0.172695
-31.3585 25.487 68.8929 0.482096 -0.847045 -0.223133
-32.0001 25.5086 67.7577 0.439798 -0.857939 -0.265554
-31.0485 26.3637 66.4403 0.414525 -0.86721 -0.27537
-30.0825 26.9671 66.0499 0.457193 -0.840526 -0.287624
-29.1443 27.6732 65.6436 0.502224 -0.807437 -0.308305
-27.9279 28.744 64.8721 0.486719 -0.808049 -0.331907
-27.0907 29.2416 64.8836 0.449256 -0.831022 -0.327414
-26.5213 29.1621 66.17 0.519727 -0.807184 -0.279889
-26.169 29.1529 67.0671 0.560021 -0.809115 -0.178069
16.9486 79.5319 -29.7501 -0.344542 -0.896665 -0.277997
16.6819 79.1436 -28.1925 -0.353933 -0.890989 -0.284375
16.4216 78.7936 -26.7787 -0.35288 -0.890311 -0.287789
15.9402 78.396 -24.9935 -0.355773 -0.886563 -0.295689
15.8515 78.0711 -23.914 -0.356258 -0.885226 -0.299071
15.5671 77.7903 -22.7559 -0.357235 -0.88395 -0.301688
16.4853 77.7466 -23.7136 -0.35696 -0.88395 -0.302013
17.3553 77.6221 -24.376 -0.352962 -0.885716 -0.301535
18.1808 77.5894 -25.2557 -0.350496 -0.88885 -0.295125
18.8095 77.6662 -26.2337 -0.350498 -0.88885 -0.295123
19.8208 77.6041 -27.2307 -0.348375 -0.888684 -0.298118
20.8848 77.4916 -28.1386 -0.347218 -0.890862 -0.292865
22.108 77.2412 -28.791 -0.339727 -0.89321 -0.294552
23.4224 76.9058 -29.29 -0.336413 -0.893484 -0.297479
24.5968 76.5998 -29.6845 -0.334391 -0.893149 -0.300778
25.8903 76.2481 -30.0783 -0.331634 -0.8931 -0.30393
27.3793 75.7936 -30.3461 -0.327455 -0.893619 -0.306951
28.971 75.2482 -30.4566 -0.325592 -0.893644 -0.308841
30.5041 74.6523 -30.3416 -0.32278 -0.891613 -0.317552
32.1537 74.063 -30.3637 -0.319223 -0.893933 -0.314569
33.4559 73.552 -30.2152 -0.315054 -0.895456 -0.314483
34.2423 73.5369 -30.9611 -0.315159 -0.895541 -0.314136
34.0444 74.1791 -32.6095 -0.313838 -0.897215 -0.310663
33.8297 74.6236 -33.674 -0.312957 -0.898499 -0.307795
33.6587 75.1046 -34.9076 -0.31685 -0.897309 -0.307314
33.1879 75.6766 -36.0827 -0.322653 -0.895643 -0.306132
32.7544 76.1292 -36.9538 -0.322459 -0.896051 -0.305145
31.7974 76.7151 -37.6559 -0.326856 -0.894023 -0.306411
30.6154 77.2546 -37.9684 -0.326932 -0.893884 -0.306735
29.5828 77.6586 -38.0397 -0.328697 -0.893236 -0.306736
28.2373 78.0363 -37.7242 -0.319434 -0.895481 -0.30996
27.069 78.3252 -37.3644 -0.313049 -0.898589 -0.307469
26.055 78.5447 -36.9771 -0.310975 -0.899062 -0.30819
24.1816 79.1003 -36.7245 -0.307235 -0.903632 -0.298421
23.1074 79.395 -36.5111 -0.302192 -0.906348 -0.295244
21.8222 79.7857 -36.3702 -0.307824 -0.908546 -0.28247
20.5531 80.1451 -36.1114 -0.312407 -0.909259 -0.27495
19.172 80.501 -35.7191 -0.320597 -0.909412 -0.26493
18.1801 80.6518 -35.0317 -0.323694 -0.908848 -0.263092
17.7096 80.494 -33.9065 -0.323815 -0.908925 -0.262678
17.4218 80.2289 -32.6453 -0.33742 -0.902764 -0.266769
17.0676 79.9643 -31.3154 -0.337495 -0.901203 -0.271901
16.9644 79.5878 -29.9502 -0.345338 -0.896297 -0.278195
16.9629 79.5728 -29.8999 -0.345338 -0.896296 -0.278199
15.983 79.9459 -29.8854 -0.348437 -0.896064 -0.275028
16.0285 80.284 -31.0611 -0.34426 -0.899986 -0.267414
16.2733 80.5351 -32.242 -0.337478 -0.905147 -0.258381
16.5854 80.7296 -33.3074 -0.331182 -0.906336 -0.262436
16.767 80.9862 -34.4358 -0.327363 -0.90988 -0.254762
17.4914 81.1176 -35.8179 -0.319131 -0.912479 -0.256003
18.4384 81.0115 -36.5899 -0.315373 -0.911786 -0.263033
20.1175 80.5911 -37.1196 -0.307388 -0.912264 -0.270715
21.2162 80.2849 -37.3287 -0.300246 -0.913273 -0.275219
22.716 79.8361 -37.4858 -0.301573 -0.908207 -0.290153
23.9114 79.5113 -37.691 -0.30219 -0.906348 -0.29525
25.1331 79.0998 -37.6834 -0.299693 -0.904327 -0.303936
26.2432 78.8685 -38.1114 -0.312013 -0.898827 -0.307826
27.2674 78.6459 -38.4841 -0.308715 -0.89701 -0.316335
28.5895 78.3325 -38.9356 -0.319734 -0.892923 -0.316927
29.7587 77.9889 -39.1881 -0.328822 -0.892669 -0.30825
31.3752 77.3332 -39.025 -0.33353 -0.8945 -0.297705
32.986 76.5201 -38.3615 -0.32409 -0.897669 -0.298588
33.6683 76.0382 -37.6508 -0.322883 -0.897034 -0.301763
34.1721 75.505 -36.6132 -0.319115 -0.897356 -0.304824
34.7023 74.9918 -35.6542 -0.31777 -0.897512 -0.305763
34.9508 74.4936 -34.4481 -0.313925 -0.899579 -0.303659
35.1015 74.0692 -33.351 -0.311989 -0.897418 -0.311934
35.3047 73.6004 -32.2058 -0.312149 -0.897302 -0.31211
35.4132 73.1888 -31.1332 -0.311022 -0.896845 -0.31454
34.9676 72.8579 -29.741 -0.30861 -0.899283 -0.309917
33.6052 73.0966 -29.0682 -0.316923 -0.89538 -0.312808
32.4862 73.5338 -29.1797 -0.318805 -0.895302 -0.311124
31.367 73.9471 -29.2335 -0.315666 -0.896251 -0.311591
29.8095 74.5037 -29.2185 -0.326506 -0.891222 -0.314794
28.5319 75.0245 -29.3531 -0.329207 -0.891318 -0.311728
27.2852 75.4351 -29.2151 -0.328181 -0.891805 -0.311416
26.071 75.8024 -28.9717 -0.334361 -0.891166 -0.306635
24.7716 76.141 -28.5333 -0.335598 -0.890617 -0.30688
23.4451 76.5114 -28.1401 -0.340668 -0.89044 -0.301765
21.9598 76.8705 -27.5216 -0.340914 -0.890324 -0.301828
20.7699 76.9892 -26.5013 -0.345135 -0.890221 -0.297301
19.757 77.088 -25.6177 -0.349436 -0.888768 -0.296618
19.0076 77.0553 -24.6414 -0.352381 -0.88571 -0.302234
18.2257 77.0611 -23.747 -0.352379 -0.88571 -0.302237
17.5053 77.0484 -22.8635 -0.353545 -0.885723 -0.300834
16.751 77.0082 -21.8714 -0.354969 -0.883403 -0.305934
16.2279 76.7902 -20.6301 -0.355951 -0.883268 -0.305182
15.771 76.6278 -19.6416 -0.354622 -0.882304 -0.309489
15.355 76.2677 -18.1497 -0.351656 -0.88222 -0.313092
14.9696 76.0261 -17.0394 -0.348013 -0.882546 -0.316225
14.5336 75.7864 -15.893 -0.348412 -0.881951 -0.317444
13.8903 75.6898 -14.9267 -0.337984 -0.884177 -0.322472
13.2874 75.4966 -13.7836 -0.334622 -0.883321 -0.328281
12.8139 75.1904 -12.5009 -0.33142 -0.880406 -0.339135
12.3874 74.9356 -11.4241 -0.336166 -0.877671 -0.341588
12.0674 74.5723 -10.1906 -0.334426 -0.876578 -0.346078
11.6846 74.0881 -8.58141 -0.331997 -0.878495 -0.343546
11.2501 73.7598 -7.31746 -0.329153 -0.878771 -0.345547
10.9859 73.3358 -5.99605 -0.324019 -0.87883 -0.350224
10.9449 72.9193 -4.91009 -0.320596 -0.880591 -0.348968
10.5478 72.5487 -3.61916 -0.316773 -0.881323 -0.350607
10.1527 72.2499 -2.51683 -0.313155 -0.88127 -0.353973
10.0643 71.7563 -1.21313 -0.3112 -0.880826 -0.35679
9.73421 71.3692 0.0313172 -0.309807 -0.881481 -0.356387
9.39278 71.074 1.05958 -0.30539 -0.883764 -0.354537
8.78543 71.6757 0.0941686 -0.305066 -0.882129 -0.358865
9.07036 72.122 -1.25274 -0.309166 -0.88125 -0.357512
9.26585 72.5684 -2.52492 -0.310099 -0.881625 -0.355775
9.73181 72.8662 -3.67994 -0.317035 -0.880689 -0.351956
9.79777 73.3936 -5.05288 -0.318942 -0.880323 -0.351142
9.88474 73.7903 -6.12246 -0.321951 -0.8784 -0.353215
9.95505 74.3079 -7.48664 -0.326338 -0.8786 -0.348663
10.108 74.8579 -9.02761 -0.329358 -0.879612 -0.343228
10.3477 75.2367 -10.2255 -0.329402 -0.878899 -0.345009
10.5767 75.5924 -11.3569 -0.330211 -0.880169 -0.340974
10.8299 76.0877 -12.8952 -0.332934 -0.881471 -0.334908
11.175 76.4985 -14.3253 -0.333346 -0.882247 -0.332446
11.6299 76.807 -15.6156 -0.339339 -0.882247 -0.326327
12.2415 77.0213 -16.8418 -0.341844 -0.882754 -0.322318
13.1998 77.1565 -18.2512 -0.347066 -0.882721 -0.31678
13.5593 77.4273 -19.397 -0.353931 -0.880781 -0.314563
13.8579 77.7264 -20.5783 -0.356149 -0.880448 -0.313001
14.2811 77.9412 -21.6835 -0.359761 -0.881821 -0.3049
14.6273 78.2284 -22.9267 -0.357918 -0.88357 -0.30199
14.9059 78.5373 -24.1703 -0.359384 -0.884625 -0.297122
15.0773 78.8808 -25.4113 -0.356239 -0.887449 -0.292451
15.3234 79.1259 -26.4577 -0.354265 -0.889894 -0.287375
15.5384 79.377 -27.4993 -0.360517 -0.888379 -0.284179
15.8943 79.7224 -29.0357 -0.350985 -0.892797 -0.282353
15.9782 79.8869 -29.685 -0.351529 -0.895835 -0.271859
14.9554 80.2164 -29.446 -0.353181 -0.894992 -0.272494
15.0363 80.5431 -30.6488 -0.350063 -0.899096 -0.262834
15.2181 80.9324 -32.2277 -0.343781 -0.903951 -0.254335
15.6595 81.0825 -33.3579 -0.33748 -0.905144 -0.258387
15.6901 81.4004 -34.556 -0.323162 -0.912719 -0.250023
16.1174 81.547 -35.6288 -0.320937 -0.911923 -0.255727
16.7184 81.593 -36.5668 -0.314767 -0.916322 -0.247538
17.7476 81.4784 -37.4253 -0.30841 -0.916991 -0.252971
18.909 81.1991 -37.8215 -0.308037 -0.916059 -0.256806
20.1129 80.9178 -38.199 -0.300029 -0.916001 -0.26607
21.218 80.6387 -38.5049 -0.300247 -0.913275 -0.275212
22.3077 80.2677 -38.4152 -0.279334 -0.911132 -0.302637
23.7665 79.8551 -38.6014 -0.2963 -0.907371 -0.298133
24.8163 79.5618 -38.743 -0.294044 -0.907563 -0.299778
25.8581 79.26 -38.8785 -0.303559 -0.90197 -0.307088
27.0241 79.0668 -39.4401 -0.303753 -0.899786 -0.313171
28.3105 78.851 -40.1344 -0.328064 -0.889082 -0.319034
29.3145 78.5499 -40.3431 -0.337405 -0.889451 -0.308277
30.5274 78.0587 -40.2424 -0.33495 -0.893096 -0.300313
32.0921 77.3926 -40.0068 -0.334251 -0.893793 -0.299011
33.1724 76.8728 -39.6274 -0.33087 -0.898329 -0.289014
34.5183 75.9593 -38.3282 -0.320501 -0.899084 -0.298206
35.1238 75.404 -37.3122 -0.319109 -0.897358 -0.304825
35.7844 74.6763 -35.8438 -0.309982 -0.900656 -0.304516
35.9865 74.232 -34.7399 -0.310265 -0.900015 -0.30612
36.2278 73.6803 -33.359 -0.312957 -0.898499 -0.307795
36.498 73.138 -32.0707 -0.312301 -0.897185 -0.312294
36.4783 72.7055 -30.8084 -0.311663 -0.897013 -0.31342
36.2852 72.4138 -29.7682 -0.304687 -0.90119 -0.308214
35.5079 72.2958 -28.6491 -0.307924 -0.899673 -0.309467
34.4709 72.4456 -28.0501 -0.308106 -0.900033 -0.308238
33.1999 72.8721 -27.9994 -0.317283 -0.897472 -0.306392
31.4881 73.5261 -28.1455 -0.315404 -0.895945 -0.312736
30.2645 73.9518 -28.1246 -0.326737 -0.892681 -0.310394
29.1042 74.372 -28.0959 -0.330241 -0.890699 -0.312402
28.085 74.7983 -28.2342 -0.329209 -0.891319 -0.311723
26.8674 75.1493 -27.9367 -0.333123 -0.891713 -0.306394
25.6819 75.5031 -27.6775 -0.334362 -0.891163 -0.30664
24.291 75.8362 -27.1014 -0.340424 -0.890554 -0.301703
22.9645 76.2329 -26.7757 -0.340668 -0.89044 -0.301765
22.0359 76.3657 -26.1039 -0.345819 -0.88876 -0.300832
20.7613 76.5354 -25.1476 -0.346504 -0.887299 -0.304362
19.6996 76.5129 -23.8555 -0.349096 -0.887282 -0.301435
18.997 76.5071 -23.0226 -0.352962 -0.885716 -0.301535
18.3219 76.3633 -21.8267 -0.353987 -0.883537 -0.306685
17.5578 76.2731 -20.6848 -0.354969 -0.883403 -0.305934
17.2207 76.047 -19.6472 -0.354888 -0.882052 -0.309899
16.573 75.8314 -18.2932 -0.35515 -0.881786 -0.310357
16.2541 75.6016 -17.2817 -0.351044 -0.879535 -0.321226
15.8291 75.3702 -16.1548 -0.349641 -0.882331 -0.315012
15.2822 75.172 -15.0087 -0.347582 -0.881988 -0.318251
14.6166 75.0409 -13.9193 -0.342045 -0.882389 -0.323023
14.1517 74.7489 -12.6625 -0.333618 -0.882309 -0.331998
13.6964 74.4942 -11.581 -0.337626 -0.876507 -0.343138
13.1982 74.2541 -10.4775 -0.337241 -0.876852 -0.342635
12.8962 73.8675 -9.19489 -0.336125 -0.876967 -0.343438
12.6545 73.458 -7.90718 -0.334163 -0.878136 -0.342357
12.1274 73.0487 -6.356 -0.331181 -0.87731 -0.347341
12.0933 72.645 -5.29268 -0.328695 -0.878737 -0.346085
11.855 72.3043 -4.20216 -0.324204 -0.880713 -0.345306
11.4609 71.9358 -2.90436 -0.31699 -0.881348 -0.350346
11.2788 71.5637 -1.80527 -0.316616 -0.880883 -0.351851
11.0586 71.2081 -0.725517 -0.315374 -0.880018 -0.355116
10.8322 70.7169 0.699244 -0.307806 -0.883687 -0.352637
10.2975 70.2667 2.28824 -0.304429 -0.885312 -0.351464
10.1131 69.9125 3.34987 -0.302034 -0.887303 -0.348524
10.0932 69.5026 4.39309 -0.299754 -0.885938 -0.353923
9.91147 69.1634 5.42007 -0.297877 -0.890074 -0.345018
9.75927 68.7422 6.62821 -0.292417 -0.892221 -0.344141
9.76356 68.3317 7.68884 -0.29061 -0.893034 -0.343557
9.37089 68.0164 8.8534 -0.289045 -0.895253 -0.339079
9.13128 67.6871 9.93947 -0.284093 -0.898061 -0.335824
9.42219 67.2316 10.946 -0.276005 -0.909126 -0.311948
9.10015 66.9464 12.0551 -0.270739 -0.91127 -0.310209
8.85589 66.6618 13.1234 -0.260989 -0.910406 -0.320533
9.29478 66.1973 14.1615 -0.245167 -0.923976 -0.293534
9.18407 65.7801 15.5779 -0.248214 -0.924194 -0.290253
8.89579 65.6852 16.1236 -0.24986 -0.927051 -0.2792
8.7277 66.0335 15.1547 -0.246699 -0.925307 -0.288005
8.49902 66.458 14.0294 -0.264462 -0.913497 -0.309166
8.54883 66.9747 12.4531 -0.270742 -0.911268 -0.310213
8.29934 67.4359 11.344 -0.275334 -0.908651 -0.31391
8.18824 67.8541 10.2947 -0.294498 -0.892797 -0.340857
8.41503 68.1793 9.24404 -0.294407 -0.894974 -0.33518
8.14472 68.7325 8.02843 -0.294323 -0.891707 -0.34385
7.96837 69.1715 7.04071 -0.294426 -0.891714 -0.343744
7.97372 69.5716 6.0047 -0.290444 -0.890477 -0.350275
7.96586 70.2389 4.35932 -0.293985 -0.883262 -0.365268
7.92506 70.6493 3.37825 -0.304691 -0.882221 -0.358921
7.85408 71.0896 2.34028 -0.303184 -0.884811 -0.353818
7.95995 71.4851 1.26606 -0.299431 -0.884303 -0.358259
7.90108 71.9791 0.103338 -0.307883 -0.880828 -0.359653
8.08338 72.3249 -0.899858 -0.308725 -0.881286 -0.357804
8.20054 72.7212 -1.97721 -0.305969 -0.882935 -0.356084
8.57385 73.183 -3.44091 -0.311883 -0.880582 -0.356798
8.6995 73.8108 -5.1067 -0.316965 -0.878504 -0.357412
8.88637 74.254 -6.36568 -0.321899 -0.878511 -0.352987
8.91687 74.6538 -7.39024 -0.322181 -0.878878 -0.351813
9.06841 75.0126 -8.4304 -0.327287 -0.878867 -0.347091
9.04621 75.4628 -9.55897 -0.32938 -0.879256 -0.344118
9.52737 75.8481 -10.9929 -0.335171 -0.878151 -0.34125
9.55885 76.244 -12.0459 -0.332203 -0.8797 -0.34025
9.88049 76.5758 -13.2364 -0.329493 -0.883586 -0.332703
10.1642 76.9169 -14.4179 -0.335064 -0.881095 -0.333771
10.6242 77.2654 -15.81 -0.336215 -0.882439 -0.329029
11.1369 77.4444 -16.8262 -0.342758 -0.882079 -0.323192
11.9689 77.648 -18.2585 -0.34278 -0.881362 -0.32512
12.3438 77.8621 -19.2566 -0.351362 -0.880669 -0.317748
12.5934 78.1252 -20.2676 -0.351706 -0.881118 -0.316124
12.9551 78.3391 -21.2744 -0.355997 -0.880346 -0.313459
13.6261 78.628 -22.9063 -0.358892 -0.88318 -0.301977
13.7424 78.9771 -24.0723 -0.358032 -0.886066 -0.294431
14.0894 79.2716 -25.3926 -0.359313 -0.886007 -0.293043
14.3689 79.5868 -26.6946 -0.35935 -0.88664 -0.291097
14.5872 79.9361 -28.0536 -0.361685 -0.890119 -0.27726
14.9061 80.121 -29.0662 -0.359007 -0.893327 -0.270304
14.9381 80.184 -29.3172 -0.355247 -0.894438 -0.271615
-12.0208 43.8873 82.9423 0.456492 -0.557768 -0.693188
-10.985 44.5348 83.0258 0.382572 -0.613118 -0.691177
-11.2361 44.7983 82.6531 0.408356 -0.606083 -0.681989
-12.2919 44.1107 82.5841 0.445317 -0.578412 -0.682992
-12.384 43.6846 82.8663 0.45649 -0.557769 -0.693188
-15.9414 40.4901 82.2946 0.645289 -0.453939 -0.611045
-16.7925 39.7448 81.8309 0.712353 -0.415609 -0.564226
-17.4792 39.6514 80.9656 0.743863 -0.390354 -0.542486
-18.117 38.6172 80.7773 0.802646 -0.329737 -0.497024
-17.6097 39.854 80.6408 0.753649 -0.353716 -0.552593
-17.3027 41.0095 80.4062 0.717188 -0.363424 -0.590349
-16.7096 42.1224 80.3079 0.669253 -0.413581 -0.617294
-15.7653 42.9438 80.6264 0.586318 -0.487649 -0.646861
-14.6018 43.2927 81.4102 0.55903 -0.500921 -0.660347
-13.7221 43.194 82.2062 0.546532 -0.518552 -0.657577
-13.5688 42.6386 82.7716 0.550339 -0.51175 -0.659678
-14.535 41.8025 82.6005 0.554139 -0.504949 -0.661783
-15.3281 41.0545 82.4386 0.596408 -0.484908 -0.639658
-15.7537 40.6434 82.3533 0.596418 -0.484885 -0.639666
3.53468 57.7024 73.7266 -0.00926492 -0.854421 -0.519499
2.48245 57.5262 74.0352 0.000893543 -0.843691 -0.53636
2.92144 56.9056 74.9783 0.0110529 -0.832962 -0.55322
2.82169 56.0107 76.3238 -0.000242235 -0.825478 -0.564166
2.7109 55.1673 77.403 0.0739431 -0.766851 -0.637552
2.56394 54.2798 78.4535 0.0742447 -0.767088 -0.637231
2.08337 53.4708 79.2806 0.100207 -0.732921 -0.672893
1.38484 52.5111 80.2066 0.108826 -0.717573 -0.687929
0.691076 51.2874 81.3733 0.135893 -0.71473 -0.685527
-0.0170762 50.3362 82.0971 0.203897 -0.683242 -0.701147
-1.73315 49.5763 82.3386 0.198642 -0.678782 -0.706906
-1.80774 49.3835 82.5074 0.216875 -0.684894 -0.695314
-0.492788 49.1986 83.0747 0.199937 -0.695476 -0.690173
1.14759 49.6847 83.0707 0.166151 -0.693258 -0.700187
2.28211 50.0142 82.9476 0.128406 -0.703271 -0.699229
3.44172 50.3565 82.8404 0.137645 -0.729435 -0.66983
4.78897 50.7216 82.69 0.123575 -0.726818 -0.675622
6.03521 51.1164 82.4932 0.0938409 -0.733584 -0.67239
7.33364 51.4705 82.2258 0.0641057 -0.740351 -0.669157
7.90341 52.2626 81.352 0.0521101 -0.768772 -0.637397
7.46082 53.1115 80.292 0.0478244 -0.765814 -0.641249
6.76112 53.8069 79.3683 0.00285599 -0.828008 -0.560709
6.1223 54.422 78.4566 -0.00783476 -0.818654 -0.573907
5.4883 55.4354 77.0797 -0.0226726 -0.815454 -0.578262
4.92375 56.1429 76.0936 -0.020753 -0.818665 -0.573821
4.40974 56.7737 75.2067 -0.000240865 -0.825479 -0.564164
4.08941 57.3512 74.2944 -0.0092642 -0.854422 -0.519497
2.37113 58.0713 72.8226 0.00769541 -0.912284 -0.409485
2.47472 57.5533 73.9786 0.0331392 -0.914072 -0.403344
3.34304 57.8989 73.3099 0.0585824 -0.915859 -0.397203
2.93517 58.3142 72.2922 0.0331381 -0.914071 -0.403346
1.73979 58.9226 70.9924 -0.00901502 -0.898325 -0.43924
0.593682 58.7582 71.3522 -0.00901502 -0.898325 -0.43924
1.56064 58.2571 72.3935 0.00769483 -0.912284 -0.409486
-6.48746 46.8627 83.168 0.321393 -0.641349 -0.696691
-5.47416 47.6731 82.8605 0.28717 -0.634063 -0.717981
-4.19766 47.6356 83.4041 0.287171 -0.634062 -0.717982
-4.00657 47.8876 83.2415 0.2195 -0.671491 -0.707756
-5.47202 47.8968 82.6637 0.287445 -0.634209 -0.717742
-6.39667 47.0347 83.0551 0.309793 -0.628138 -0.713392
-6.64444 46.9844 82.9833 0.326796 -0.631749 -0.702804
-26.3325 43.843 51.1964 0.652757 -0.466914 -0.596574
-26.8304 43.1016 51.2318 0.640892 -0.47961 -0.599103
-27.0028 42.4327 51.599 0.629039 -0.492275 -0.601644
-26.567 43.078 51.5385 0.652758 -0.466912 -0.596573
-27.8757 32.5803 58.5218 0.434071 -0.683758 -0.586536
-28.1586 33.2417 57.6553 0.443252 -0.617782 -0.649517
-28.0414 34.1162 56.9036 0.437448 -0.61687 -0.654258
-28.1302 34.9247 56.1215 0.456504 -0.553722 -0.696344
-28.1212 36.1591 55.1688 0.466451 -0.542042 -0.699006
-28.0781 37.0736 54.5128 0.503139 -0.518423 -0.69144
-27.9486 38.0244 53.9195 0.501299 -0.498086 -0.706669
-27.8125 38.8476 53.4111 0.540633 -0.497883 -0.677222
-27.8793 39.6071 52.7845 0.586577 -0.464021 -0.663786
-27.7772 40.0003 52.5997 0.586551 -0.464077 -0.66377
-27.3928 40.9258 52.2675 0.583757 -0.484615 -0.651442
-27.585 41.2655 51.8424 0.609574 -0.458849 -0.645358
-28.1877 40.1348 52.1429 0.585262 -0.474239 -0.657589
-28.3749 39.1255 52.741 0.529986 -0.527913 -0.663643
-28.7518 38.2127 53.1636 0.518029 -0.530229 -0.671195
-28.887 37.1276 53.8827 0.519306 -0.515137 -0.681876
-29.1389 36.197 54.4514 0.473097 -0.548973 -0.689063
-29.129 34.9833 55.426 0.450449 -0.561455 -0.694164
-29.3439 33.9496 56.1981 0.436341 -0.626288 -0.646042
-28.8354 33.4314 57.0235 0.431641 -0.615959 -0.658999
-29.0034 32.5778 57.7543 0.425442 -0.673939 -0.603992
-28.7417 31.7303 58.8842 0.420945 -0.681559 -0.598477
-28.5335 31.1231 59.8365 0.426759 -0.717404 -0.550643
-28.0074 30.7083 60.8839 0.440201 -0.753477 -0.488359
-27.87 30.1795 61.9007 0.427641 -0.801778 -0.41594
-27.1331 31.1183 61.0194 0.40898 -0.755167 -0.512307
-27.4999 31.6925 59.8957 0.424342 -0.720979 -0.54781
-27.7915 32.3053 58.9067 0.429963 -0.687496 -0.585219
-16.4826 58.702 39.7422 0.417997 -0.855853 -0.304621
-16.4264 58.3324 40.9207 0.449484 -0.843919 -0.292857
-16.8065 57.8232 41.7949 0.463762 -0.83425 -0.298161
-17.0717 57.2666 42.9559 0.483412 -0.826865 -0.28735
-17.4357 56.6263 44.1234 0.505446 -0.808909 -0.300286
-17.7421 55.9549 45.3965 0.517466 -0.8039 -0.292804
-18.2539 55.3511 46.0719 0.543743 -0.784902 -0.297107
-18.9371 54.6228 46.7141 0.571241 -0.76171 -0.305749
-19.0936 53.9897 47.8729 0.592722 -0.727089 -0.346441
-18.4703 54.7169 47.3518 0.55724 -0.773534 -0.301286
-17.4102 55.8817 46.2381 0.553914 -0.779111 -0.293541
-16.6529 56.7461 45.1896 0.528196 -0.800914 -0.282038
-16.0427 57.3921 44.3943 0.508296 -0.818628 -0.267365
-15.6519 57.9039 43.5049 0.482887 -0.832818 -0.270618
-15.2224 58.4735 42.4829 0.451438 -0.851741 -0.265971
-15.1895 58.8468 41.3434 0.451306 -0.852389 -0.264104
-15.178 59.2065 40.193 0.451181 -0.853035 -0.262235
-15.4555 59.4186 39.1144 0.40761 -0.864067 -0.295369
-15.9844 59.6266 37.7592 0.390783 -0.872258 -0.293732
-16.5164 59.3374 37.9072 0.396536 -0.865176 -0.306837
-16.4226 58.9665 39.0814 0.416974 -0.857665 -0.300872
-16.4356 58.913 39.2138 0.417998 -0.855853 -0.304621
11.3514 63.2178 23.766 -0.206015 -0.959543 -0.191909
11.0041 63.4256 23.0941 -0.206135 -0.957961 -0.199367
10.861 63.6892 22.0543 -0.207464 -0.954286 -0.215167
10.3418 64.0085 21.1528 -0.209268 -0.952197 -0.222549
10.7887 63.5244 22.8551 -0.20797 -0.955056 -0.211186
10.9643 63.4269 23.1295 -0.20378 -0.960098 -0.191533
-21.87 50.9083 49.1105 0.675688 -0.648618 -0.350307
-22.6778 50.1221 49.181 0.619409 -0.675409 -0.400193
-23.4826 48.9032 49.6811 0.671801 -0.591253 -0.446211
-23.2776 48.9521 49.9281 0.673832 -0.598438 -0.433386
-22.5594 50.0272 49.5244 0.634976 -0.658922 -0.402625
-21.3493 51.4699 49.0832 0.67925 -0.646634 -0.347108
-20.4583 52.4715 48.6846 0.638069 -0.704317 -0.311136
-21.3502 51.4766 49.0689 0.659639 -0.669897 -0.339303
-19.2532 53.7804 48.056 0.603727 -0.743286 -0.288165
-20.0067 53.3424 47.6694 0.592209 -0.727325 -0.346822
-20.0275 53.005 48.3604 0.647586 -0.69776 -0.305946
-19.8842 53.2207 48.1777 0.630415 -0.717245 -0.294461
9.11713 65.3027 17.2325 -0.232132 -0.935698 -0.265484
9.27376 65.1182 17.7684 -0.225823 -0.937948 -0.263057
9.39325 64.6395 19.4118 -0.214194 -0.94749 -0.237237
9.70259 64.5764 19.3934 -0.207815 -0.946986 -0.245013
9.43573 65.058 17.8439 -0.225831 -0.937946 -0.263057
9.40943 65.0818 17.7802 -0.229355 -0.938985 -0.256326
7.09452 52.0802 81.5059 0.0521104 -0.768771 -0.637398
6.77282 51.9002 81.6967 0.0581228 -0.754746 -0.653437
6.88911 52.7035 80.7374 0.0521093 -0.768771 -0.637397
4.62485 51.3325 82.0028 0.123576 -0.726817 -0.675623
4.58367 51.3055 82.0242 0.123575 -0.726818 -0.675622
2.18458 50.5231 82.4179 0.128405 -0.703271 -0.69923
3.67321 51.5023 81.6544 0.119411 -0.723461 -0.67996
5.48105 52.6624 80.6894 0.0743958 -0.756742 -0.649467
6.59547 53.2854 80.0279 0.0435395 -0.762857 -0.6451
6.10997 53.7608 79.433 0.0232383 -0.796731 -0.603888
4.21214 52.6351 80.5165 0.10518 -0.749867 -0.653174
2.7365 51.6864 81.2963 0.115964 -0.724149 -0.679824
0.914182 50.4835 82.2244 0.166279 -0.693784 -0.700725
0.687742 50.3125 82.3252 0.203897 -0.683242 -0.701147
1.69905 51.81 80.9877 0.112399 -0.720876 -0.683889
2.94308 52.6106 80.3457 0.0918446 -0.734865 -0.671966
5.02421 53.9007 79.1943 0.0743986 -0.756744 -0.649463
5.14151 53.9662 79.1247 0.0232383 -0.796731 -0.603888
5.2644 54.7108 78.0856 -0.0185275 -0.809298 -0.587106
4.03001 54.0648 78.8842 0.079038 -0.752241 -0.654131
2.71355 53.2509 79.6141 0.0918446 -0.734865 -0.671966
3.28857 54.3755 78.423 0.0745522 -0.767321 -0.636915
4.60397 55.0803 77.5873 -0.00580009 -0.809713 -0.586798
4.32141 55.6278 76.8382 -0.00979348 -0.813014 -0.582162
3.38749 55.1734 77.4742 0.0329845 -0.788471 -0.614187
-15.1005 42.0202 81.9186 0.596389 -0.484932 -0.639657
-14.8261 42.7703 81.6058 0.592743 -0.481502 -0.645609
-15.8152 42.0854 81.214 0.589065 -0.478039 -0.651522
-16.1878 40.6931 81.8534 0.694161 -0.422987 -0.582429
-0.00368635 59.5749 69.5606 0.144654 -0.917962 -0.369353
0.318522 59.7168 69.2662 0.0719096 -0.941125 -0.330322
-0.0870634 59.9601 68.4247 0.114914 -0.938158 -0.326579
-1.11385 59.455 69.3518 0.173941 -0.894899 -0.410974
-1.55706 59.7343 68.556 0.144651 -0.917961 -0.369355
-0.55596 60.1755 67.641 0.114913 -0.938158 -0.326579
-0.341102 60.6767 66.2415 0.0999143 -0.954325 -0.281567
-1.87102 60.018 67.6307 0.117812 -0.940018 -0.320135
-2.55631 59.6809 68.2495 0.241898 -0.88022 -0.408287
-3.19439 59.791 67.6499 0.269669 -0.812128 -0.517424
-2.12186 60.3092 66.6597 0.120707 -0.941827 -0.313674
-0.623548 60.9084 65.254 0.0789601 -0.965278 -0.249005
-0.164021 61.0642 64.7955 0.0789601 -0.965278 -0.249005
-0.0135335 61.3872 63.3394 0.119007 -0.978442 -0.168783
-1.84135 60.8146 65.1943 0.137711 -0.974255 -0.1785
-3.23061 60.4217 66.5676 0.0553568 -0.904123 -0.42367
-4.09321 59.7212 67.2911 0.269672 -0.812128 -0.517422
-5.01631 59.618 66.9596 0.420706 -0.840597 -0.34118
-4.12635 60.4793 66.154 0.370128 -0.925606 -0.0791163
-3.01006 60.6678 65.0507 0.125703 -0.987948 -0.0903147
-1.88836 61.0421 63.9165 0.137711 -0.974255 -0.1785
-0.830125 61.3736 62.8426 0.119006 -0.978442 -0.168783
-0.605309 61.4361 62.6175 0.113217 -0.980732 -0.159205
-0.481744 61.6836 61.1808 0.113096 -0.98071 -0.159429
-1.64672 61.36 62.3457 0.119006 -0.978442 -0.168783
-2.76537 60.9868 63.4777 0.150618 -0.97232 -0.17863
-3.95701 60.5809 64.6824 0.138312 -0.981197 -0.134617
-5.08586 59.8626 65.7891 0.438978 -0.874255 -0.207309
-3.79191 60.8169 63.2061 0.221278 -0.969063 -0.10933
-2.59975 61.2252 62.0004 0.22569 -0.965456 -0.130225
-1.38911 61.6443 60.7792 0.113096 -0.98071 -0.159429
-0.353396 61.9318 59.7451 0.114351 -0.980285 -0.161137
-0.239575 61.9639 59.633 0.115603 -0.979856 -0.162845
-0.0416086 62.2354 58.14 0.103427 -0.977721 -0.182657
-1.10839 61.9348 59.1915 0.114351 -0.980285 -0.161137
-2.61979 61.4185 60.7092 0.213191 -0.966864 -0.140438
-2.88077 61.3192 60.9737 0.229996 -0.961397 -0.151058
-0.165651 62.4641 56.9822 0.0911979 -0.975054 -0.20237
0.00169273 62.5138 56.8182 0.0991423 -0.970602 -0.219322
-0.881948 62.5169 56.4049 0.0991422 -0.970602 -0.219321
0.467163 62.9909 55.078 0.00171836 -0.978892 -0.204371
-0.958615 62.7954 55.2034 0.11641 -0.967946 -0.222551
0.121063 63.1555 54.1473 0.1004 -0.974805 -0.199186
0.875498 63.2887 53.4109 -0.0130623 -0.979485 -0.201093
0.985402 63.4864 52.0409 -0.119711 -0.989774 -0.0775697
-0.112467 63.3435 53.1153 0.0679462 -0.97988 -0.187664
-1.52024 62.8927 54.486 0.183097 -0.95869 -0.217688
-1.92455 62.979 53.6259 0.250402 -0.946197 -0.204964
-0.742375 63.4748 52.4758 0.164632 -0.977073 -0.134998
0.410668 63.5792 51.329 -0.0402197 -0.998792 -0.0282439
1.29893 63.5293 50.4369 -0.0957096 -0.995339 -0.0118017
1.274 63.5634 49.1776 -0.0650766 -0.997035 -0.0410636
0.179495 63.5849 50.2733 -0.0440769 -0.999 0.00748748
-1.05542 63.5161 51.4995 0.130335 -0.989197 -0.0670909
-2.39285 63.0235 52.817 0.251194 -0.947688 -0.196947
-2.8176 63.0842 51.9654 0.261207 -0.947853 -0.182608
-1.6238 63.4778 50.7756 0.125541 -0.990602 -0.0542943
-0.570406 63.5967 49.7332 0.0206529 -0.99845 -0.0516816
0.795632 63.6277 48.375 -0.0668546 -0.996365 -0.0527943
1.42357 63.6248 47.7512 -0.0686229 -0.995554 -0.0645174
-1.53933 63.5858 49.4084 0.0824502 -0.994021 -0.0715877
-2.61348 63.3693 50.4668 0.185638 -0.978581 -0.0889877
-3.31119 63.1017 51.1684 0.253136 -0.955256 -0.152997
-28.6325 27.1971 68.3626 0.532197 -0.825974 -0.185829
-27.6948 28.1267 67.0614 0.512432 -0.823525 -0.243352
-29.029 27.176 67.4341 0.518618 -0.823989 -0.228204
-29.3966 26.8166 67.9454 0.515152 -0.830171 -0.213152
33.125 74.5792 -32.8361 -0.317485 -0.895606 -0.311598
31.6649 74.5905 -31.3682 -0.322247 -0.893907 -0.311588
30.2113 75.0047 -31.047 -0.323368 -0.893828 -0.310652
32.1746 74.9859 -33.0229 -0.321125 -0.893983 -0.312526
33.1554 74.9771 -34.0098 -0.322094 -0.895242 -0.307891
32.7298 75.3765 -34.7266 -0.322849 -0.895233 -0.307125
31.6672 75.389 -33.6551 -0.32134 -0.895251 -0.308653
30.0308 75.4042 -32.0085 -0.323369 -0.893828 -0.31065
29.1999 75.4138 -31.1713 -0.323545 -0.89375 -0.310692
28.1599 75.8237 -31.2665 -0.325593 -0.893647 -0.308842
29.735 75.805 -32.8538 -0.323547 -0.893751 -0.310689
31.0967 75.7904 -34.2255 -0.32134 -0.895251 -0.308653
32.5899 75.7719 -35.7319 -0.322849 -0.895234 -0.307123
32.6829 75.7705 -35.8259 -0.322849 -0.895234 -0.307123
32.1504 76.1701 -36.4357 -0.322458 -0.896052 -0.305142
30.7454 76.1907 -35.0161 -0.324538 -0.89327 -0.311037
29.6824 76.2038 -33.9438 -0.323802 -0.893196 -0.312015
28.5995 76.216 -32.8528 -0.323724 -0.893673 -0.310727
27.0249 76.2385 -31.2632 -0.327455 -0.893619 -0.306951
26.7448 76.2437 -30.9796 -0.327455 -0.893619 -0.306951
25.2611 76.6668 -30.6222 -0.331633 -0.89311 -0.30393
26.7878 76.6365 -32.1691 -0.328166 -0.893335 -0.307017
27.8723 76.622 -33.2634 -0.323652 -0.893818 -0.310384
29.0434 76.6093 -34.443 -0.32233 -0.893361 -0.313065
30.4442 76.5913 -35.8566 -0.324524 -0.894336 -0.307973
31.6383 76.571 -37.065 -0.326788 -0.894159 -0.306087
30.7552 76.9801 -37.3175 -0.326861 -0.894022 -0.30641
29.479 77.0013 -36.0263 -0.326374 -0.893571 -0.308238
28.4384 77.0132 -34.9773 -0.320296 -0.895323 -0.309527
27.3305 77.0244 -33.8617 -0.320202 -0.895718 -0.308479
26.2848 77.036 -32.8083 -0.323279 -0.896103 -0.304122
24.8722 77.0685 -31.3739 -0.327098 -0.894897 -0.30359
23.5147 77.1068 -29.9903 -0.333099 -0.893758 -0.300403
21.7002 77.5583 -29.2823 -0.339727 -0.89321 -0.294552
23.2729 77.5009 -30.8945 -0.333101 -0.893758 -0.300401
24.3499 77.4659 -31.9951 -0.3292 -0.895828 -0.29853
25.3787 77.4423 -33.0398 -0.325322 -0.896722 -0.300092
26.5161 77.4275 -34.1871 -0.32071 -0.895594 -0.308313
27.5462 77.4175 -35.224 -0.319621 -0.895503 -0.309705
28.8905 77.406 -36.5764 -0.322227 -0.894454 -0.310035
29.5941 77.3948 -37.2879 -0.32658 -0.893269 -0.308894
28.287 77.8073 -37.1139 -0.319381 -0.895484 -0.310007
27.1213 77.8161 -35.942 -0.318415 -0.896658 -0.307599
26.0175 77.8277 -34.8302 -0.32007 -0.897087 -0.304614
24.6908 77.8434 -33.493 -0.323275 -0.896105 -0.304121
23.0917 77.8901 -31.8624 -0.333078 -0.894915 -0.296961
22.0225 77.926 -30.7689 -0.339385 -0.893379 -0.294436
20.5988 77.9841 -29.3055 -0.339043 -0.893547 -0.294319
19.5792 78.0338 -28.2513 -0.346061 -0.89304 -0.287612
18.1106 78.1071 -26.7315 -0.349438 -0.888767 -0.296624
17.2438 78.152 -25.8323 -0.355988 -0.886623 -0.29525
17.1249 78.5422 -26.8632 -0.3535 -0.88922 -0.290388
18.5761 78.4612 -28.3715 -0.346061 -0.89304 -0.287612
19.6758 78.4025 -29.5122 -0.342556 -0.893304 -0.290969
