3.70172 67.5922 63.5249 -0.272369 -0.960102 -0.062334
3.51902 67.7178 62.231 -0.27978 -0.958567 -0.0536005
3.46903 67.798 60.4668 -0.261848 -0.964719 -0.0211691
3.27972 67.8719 59.0757 -0.251628 -0.967746 -0.00981951
3.15696 67.9078 57.5669 -0.215181 -0.975807 0.00926519
3.13319 67.9156 56.3553 -0.198469 -0.980103 -0.0027144
3.07669 67.9553 55.1149 -0.19673 -0.979986 -0.030404
2.88585 68.0359 53.8286 -0.18222 -0.982035 -0.0481697
2.12578 68.2003 53.3027 -0.175279 -0.983038 -0.0539825
1.00713 68.3366 53.6732 -0.116033 -0.992334 -0.0413344
-0.310617 68.4498 53.8188 -0.0529797 -0.997885 -0.0376654
-1.00644 68.4249 54.8347 0.0428222 -0.997455 -0.0362692
-0.848002 68.3914 56.2929 -0.0328032 -0.998945 -0.0321422
-0.658534 68.429 57.8981 -0.0554409 -0.997799 0.0200367
-0.459339 68.4851 59.5782 -0.00371482 -0.999654 0.0253543
-0.375514 68.5117 60.952 -0.00840918 -0.99967 0.0237305
-0.291187 68.5025 62.4842 -0.149461 -0.988651 -0.0147901
-0.133467 68.4742 63.7046 -0.180305 -0.982693 -0.023984
-0.108557 68.3892 65.0579 -0.198536 -0.973169 -0.10811
-0.159421 68.19 66.4197 -0.201997 -0.972893 -0.0995155
-0.324381 67.9581 67.7818 -0.0530702 -0.965584 -0.249736
-0.128042 67.5519 69.035 -0.0481981 -0.951637 -0.303421
0.194584 67.1159 70.2799 -0.163091 -0.913969 -0.371463
0.469245 66.4246 71.8233 -0.156655 -0.913397 -0.37567
1.06916 65.612 73.4335 0.0948106 -0.900923 -0.417884
1.5756 65.0529 74.4103 -0.143645 -0.868749 -0.473964
2.25884 64.1857 75.4235 -0.121968 -0.746056 -0.654618
2.97297 63.0777 76.621 -0.118382 -0.779212 -0.615478
3.38091 62.1337 77.6756 -0.12483 -0.738469 -0.662632
3.41723 61.0614 78.8639 -0.100403 -0.75383 -0.648559
3.44489 60.0558 79.8624 -0.0214107 -0.683915 -0.728729
3.33487 58.9964 80.8457 0.0200064 -0.661849 -0.748823
2.67497 57.7463 81.9341 0.0472053 -0.677668 -0.733851
2.12776 56.9027 82.66 0.0861355 -0.658875 -0.747299
1.0132 55.7269 83.5624 0.110644 -0.645525 -0.755185
0.00904166 54.9068 84.0684 0.134972 -0.634953 -0.760669
-0.626538 53.4292 85.1337 0.160472 -0.614983 -0.772039
-2.00524 53.1754 85.0474 0.182215 -0.609053 -0.771734
-2.28145 52.74 85.3213 0.200774 -0.619737 -0.758548
-0.574064 53.3518 85.2086 0.170638 -0.645372 -0.744565
0.741301 53.744 85.1701 0.159089 -0.645875 -0.746591
2.40569 54.0786 85.1724 0.133108 -0.659361 -0.73995
3.95515 54.5616 85.0067 0.0968632 -0.68125 -0.725354
5.60504 54.7831 84.9917 0.0866807 -0.693969 -0.714768
7.04288 55.2358 84.6746 0.0429066 -0.705317 -0.707386
7.8417 56.2163 83.7076 0.0202147 -0.721216 -0.692185
7.57855 57.5138 82.3466 -0.0224755 -0.721645 -0.691898
6.925 58.4103 81.4328 -0.0309746 -0.743597 -0.667032
6.29919 59.4197 80.3891 -0.0796744 -0.733509 -0.674994
5.90433 60.3557 79.4139 -0.0239167 -0.704361 -0.708626
5.54345 61.2438 78.3746 -0.168907 -0.781494 -0.600614
5.55276 62.0302 77.3488 -0.172815 -0.806142 -0.564199
5.30715 62.784 76.278 -0.245533 -0.799829 -0.547711
5.05216 63.7045 75.0207 -0.238004 -0.820282 -0.520087
4.71345 64.5283 73.8847 -0.227902 -0.825413 -0.516288
4.3664 65.357 72.6727 -0.240877 -0.841923 -0.481777
4.23001 65.7812 71.5108 -0.317897 -0.902917 -0.289279
4.08595 66.2125 70.2885 -0.258555 -0.936185 -0.238134
3.88221 66.7325 68.3326 -0.28289 -0.932361 -0.224076
3.97539 67.0083 67.0308 -0.307245 -0.936362 -0.169786
3.97989 67.2319 65.7712 -0.310687 -0.943665 -0.113886
3.82787 67.4686 64.349 -0.274288 -0.955307 -0.11025
3.72534 67.572 63.7097 -0.270372 -0.958232 -0.0908737
4.85601 67.2306 63.2562 -0.330925 -0.938297 -0.100436
4.95196 67.0339 64.7783 -0.335177 -0.937252 -0.0957818
4.93991 66.8174 66.2033 -0.359407 -0.919628 -0.158464
4.94162 66.617 67.4147 -0.328807 -0.927437 -0.176341
4.96165 66.3188 68.7399 -0.334241 -0.920462 -0.202563
5.22251 65.7906 70.3915 -0.340863 -0.897747 -0.279039
5.36496 65.2906 71.8915 -0.258134 -0.936152 -0.23872
5.6596 64.6875 73.1827 -0.316416 -0.828796 -0.457514
5.95536 63.9777 74.1727 -0.375867 -0.801936 -0.464351
6.47925 62.5858 76.1639 -0.176721 -0.830792 -0.527783
6.7468 61.7957 77.3181 -0.172815 -0.806143 -0.564198
6.86767 60.9837 78.3406 -0.168907 -0.781494 -0.600614
7.2191 60.0166 79.6319 -0.101044 -0.773621 -0.621598
7.66387 59.1309 80.5419 -0.0796727 -0.733508 -0.674996
8.38558 58.1265 81.6813 -0.0309717 -0.743596 -0.667033
8.91164 57.3609 82.4875 0.00274247 -0.734556 -0.678543
9.08656 56.307 83.6181 0.00340386 -0.725589 -0.68812
8.45192 55.0331 84.9582 0.0202132 -0.721214 -0.692188
7.23056 54.4017 85.4928 0.0487855 -0.693792 -0.718522
5.94898 54.0171 85.7771 0.0677342 -0.69388 -0.716645
3.99646 53.7032 85.7924 0.107044 -0.668532 -0.735939
2.5166 53.1606 86.0105 0.135845 -0.660065 -0.738817
0.813981 52.817 85.9848 0.147541 -0.646385 -0.748611
-0.679957 52.3301 86.0699 0.170638 -0.645372 -0.744565
-1.96446 51.8631 86.145 0.19711 -0.629513 -0.751483
-3.55531 51.3492 86.1336 0.210727 -0.625945 -0.750848
-5.16855 50.6394 86.2344 0.236823 -0.622666 -0.745789
-6.5473 49.9867 86.3238 0.251772 -0.614378 -0.747752
-7.69808 49.5922 86.2563 0.263824 -0.605621 -0.750747
-9.14561 49.164 86.0836 0.282173 -0.602791 -0.746289
-10.8794 48.6375 85.8476 0.293787 -0.59424 -0.748707
-12.204 49.205 84.8669 0.302933 -0.595344 -0.744175
-13.1555 49.5919 84.1427 0.351818 -0.591405 -0.724988
-11.9252 50.4224 84.0422 0.309108 -0.574658 -0.757773
-10.536 51.0313 84.1209 0.275291 -0.578118 -0.768111
-9.30749 51.6518 84.0929 0.273535 -0.579572 -0.767642
-8.23827 52.2282 84.0261 0.255169 -0.579737 -0.773817
-7.00118 52.4891 84.2312 0.234445 -0.579544 -0.78049
-5.7114 52.9134 84.2852 0.207406 -0.594822 -0.77664
-4.54783 53.449 84.1857 0.208136 -0.592975 -0.777853
-3.00151 53.9549 84.1875 0.19709 -0.601847 -0.773909
-1.70004 54.5169 84.0395 0.167346 -0.616265 -0.769554
-0.237451 55.8128 83.2693 0.134844 -0.63421 -0.761311
0.947948 56.9405 82.4907 0.0861285 -0.658876 -0.747299
1.67513 58.0112 81.6253 0.0665089 -0.669289 -0.739697
2.22149 59.1451 80.6706 0.0344272 -0.643123 -0.764989
2.3418 60.2385 79.6844 0.0237263 -0.692637 -0.720464
2.29452 61.3406 78.5846 0.0417789 -0.705105 -0.707871
2.07282 62.293 77.6228 0.024987 -0.69367 -0.719479
1.65628 63.2459 76.6026 -0.0366398 -0.767127 -0.640448
1.01071 64.2188 75.658 -0.119217 -0.717841 -0.684416
0.39868 65.0012 74.6863 0.220814 -0.770378 -0.592287
-0.14613 65.5166 73.3635 0.0948168 -0.900922 -0.417885
-0.779628 66.5377 71.4408 0.0782204 -0.866184 -0.493565
-1.19066 67.2469 69.8228 0.0633638 -0.923601 -0.378083
-1.43555 67.7559 68.3185 0.256464 -0.88702 -0.383955
-1.41039 68.2224 66.9117 -0.0804092 -0.972665 -0.217845
-1.27562 68.551 65.6648 -0.142222 -0.96024 -0.218985
-1.23457 68.6337 64.2041 -0.0429531 -0.998903 -0.0138496
-1.33339 68.6105 62.983 -0.038229 -0.996544 0.073743
-1.54827 68.5442 61.6377 -0.0114675 -0.999548 0.0278045
-1.50891 68.5008 60.0907 -0.00840919 -0.99967 0.0237305
-1.78268 68.3215 58.2128 0.125959 -0.987338 0.0964266
-1.95501 68.3446 57.009 0.119922 -0.991264 -0.0538926
-2.05233 68.385 55.751 0.0773933 -0.996255 -0.0100656
-2.31897 68.3995 54.4817 0.0817079 -0.993758 -0.0610788
-2.57895 68.4243 53.1363 0.122557 -0.991573 -0.041987
-0.781767 68.5272 52.8027 -0.0473061 -0.993804 -0.100582
0.919759 68.4052 52.6278 -0.128193 -0.987834 -0.0880391
2.11909 68.2611 52.0687 -0.189218 -0.980851 -0.0461323
3.2481 68.086 51.1366 -0.203783 -0.977935 -0.0437193
4.25889 67.858 51.2064 -0.215537 -0.975437 -0.0454574
4.2509 67.7948 52.8825 -0.214863 -0.976131 -0.031674
4.18652 67.7384 54.5398 -0.204737 -0.977897 -0.0424363
4.23462 67.6917 55.7961 -0.212701 -0.976798 -0.0249583
4.29522 67.65 57.2946 -0.22459 -0.974263 -0.018244
4.37294 67.6017 58.5128 -0.234824 -0.971587 -0.0278761
4.54222 67.5086 59.9709 -0.27157 -0.962062 -0.0262146
4.64936 67.3945 61.8558 -0.306831 -0.949948 -0.0587664
4.83521 67.2621 63.031 -0.318914 -0.944118 -0.0794757
5.89224 66.9227 62.7188 -0.320573 -0.942149 -0.0972433
5.7598 67.0751 61.2738 -0.277747 -0.957988 -0.0715242
5.66024 67.2145 59.7264 -0.274773 -0.959713 -0.0587493
5.51212 67.3378 57.8168 -0.243526 -0.969372 -0.0318117
5.38604 67.4112 56.5398 -0.243051 -0.969514 -0.031139
5.30675 67.471 55.297 -0.242238 -0.96969 -0.0319384
5.34456 67.5133 53.7176 -0.234647 -0.971565 -0.031661
5.45752 67.5297 52.5017 -0.232848 -0.971827 -0.0364689
5.41677 67.5903 51.3014 -0.232341 -0.971573 -0.0454324
5.34402 67.6682 50.0076 -0.23376 -0.971321 -0.0434444
5.62076 67.6744 48.3665 -0.237484 -0.970503 -0.0414084
5.58447 67.7328 47.1321 -0.239185 -0.970195 -0.0388737
5.0448 67.8235 48.1386 -0.234013 -0.971667 -0.0323627
4.4797 67.9266 48.9271 -0.236256 -0.97069 -0.0440825
3.43773 68.1228 49.7715 -0.224879 -0.972146 -0.0660454
2.10602 68.3299 50.6273 -0.188105 -0.97911 -0.0719664
1.10271 68.4945 51.3119 -0.184459 -0.981507 -0.0505761
-0.0974255 68.6072 51.5336 -0.127617 -0.982284 -0.123342
-1.30857 68.6958 51.8678 -0.101925 -0.981977 -0.159163
-2.93089 68.6808 51.6832 0.180687 -0.965838 -0.158588
-4.57458 68.1672 52.0674 0.277627 -0.951886 -0.129305
-3.95247 68.1655 53.3843 0.288746 -0.949962 -0.117676
-3.51171 68.1266 54.7267 0.243858 -0.962042 -0.122507
-3.16156 68.2433 56.4274 0.184628 -0.979306 0.00503114
-2.96725 68.1509 57.7916 0.275958 -0.955157 -0.107345
-2.7585 68.1989 59.0444 0.257465 -0.966021 0.0227029
-2.63334 68.2913 60.5188 0.265889 -0.960823 0.0782445
-2.66791 68.3731 61.7643 0.286502 -0.956941 0.0466988
-2.44069 68.5042 63.0961 0.284216 -0.95773 0.0444314
-2.37996 68.6771 64.6214 0.120549 -0.976641 0.0527085
-2.44621 68.3077 66.0038 0.163763 -0.954284 -0.250042
-2.64413 67.8583 67.1762 0.285465 -0.891336 -0.352178
-2.59804 67.3713 68.4306 0.246473 -0.905484 -0.342308
-2.37327 66.984 69.7885 0.251686 -0.918436 -0.305173
-1.96633 66.7074 70.905 0.278437 -0.868819 -0.409422
-1.72731 65.8697 72.3782 0.167826 -0.842708 -0.511544
-1.2235 65.3748 73.361 0.16588 -0.847082 -0.504912
-0.916111 64.7402 74.4366 0.136621 -0.833354 -0.535589
-0.136057 63.8991 75.8162 0.167896 -0.75334 -0.635838
0.445036 63.2078 76.7175 -0.0639251 -0.731397 -0.676499
0.854937 62.0126 77.8709 0.00819158 -0.682234 -0.731088
1.10853 61.0866 78.7676 0.0418207 -0.704903 -0.70807
1.31072 59.8747 79.9722 0.0867933 -0.684986 -0.723368
0.887569 58.5987 81.0414 0.0685901 -0.644512 -0.761511
0.291195 57.6296 81.8192 0.0654583 -0.649343 -0.757673
-0.524762 56.7845 82.4185 0.122554 -0.630675 -0.766309
-1.50999 55.7215 83.1357 0.122587 -0.630667 -0.76631
-2.83892 55.0127 83.4028 0.165168 -0.601956 -0.781261
-4.26008 54.4731 83.4757 0.189582 -0.59644 -0.779947
-5.45826 53.9881 83.5326 0.208852 -0.591141 -0.779059
-6.72629 53.57 83.5112 0.220924 -0.587182 -0.778566
-8.31477 53.1249 83.3364 0.245398 -0.570253 -0.783958
-9.67938 52.5288 83.3047 0.274247 -0.55769 -0.783435
-11.5792 51.6553 83.2399 0.305496 -0.579169 -0.755801
-12.6839 51.0607 83.2454 0.370553 -0.580091 -0.725051
-14.1176 50.2727 83.1337 0.38092 -0.592362 -0.709935
-15.362 49.2416 83.3351 0.389194 -0.631563 -0.670564
-16.9489 48.4582 82.9964 0.520428 -0.599656 -0.607921
-17.055 48.2408 83.1281 0.503478 -0.617319 -0.603616
-15.7606 48.5766 83.7302 0.389664 -0.631899 -0.669974
-14.224 48.8261 84.2884 0.358234 -0.658158 -0.65853
-12.7716 48.6307 85.0953 0.31622 -0.592236 -0.740989
-12.0793 48.0145 85.8671 0.307718 -0.589155 -0.747132
-11.3295 47.4259 86.6486 0.301085 -0.609728 -0.733198
-9.98676 48.0142 86.7033 0.284893 -0.611108 -0.7385
-8.51424 48.4422 86.9199 0.273149 -0.612205 -0.74188
-7.26454 48.8566 87.0161 0.268098 -0.621855 -0.735812
-5.94781 49.3799 87.0299 0.253948 -0.62397 -0.738958
-4.67673 49.9021 87.0061 0.238095 -0.621274 -0.746542
-3.53133 50.342 86.9749 0.212996 -0.623356 -0.75237
-2.36102 50.779 86.9441 0.210732 -0.625945 -0.750847
-0.807514 51.1425 87.0331 0.185753 -0.630493 -0.75364
0.246053 51.7627 86.7739 0.178192 -0.637933 -0.749104
1.43391 51.9584 86.8594 0.164975 -0.662258 -0.730889
2.70578 52.4255 86.7129 0.13757 -0.669467 -0.729992
4.00191 52.8339 86.5826 0.141737 -0.67071 -0.728036
5.65628 53.2114 86.5076 0.124615 -0.690008 -0.712994
7.7976 53.7325 86.2447 0.0697841 -0.720456 -0.689981
8.90742 54.311 85.748 0.0638502 -0.719897 -0.691138
9.83346 55.0051 85.0431 0.0311958 -0.742609 -0.668999
10.2433 55.8675 84.1191 0.0302579 -0.737216 -0.674979
10.3243 56.7574 83.123 -0.0224966 -0.786258 -0.617489
9.86336 57.7901 81.9353 -0.0796659 -0.766149 -0.637706
9.11172 58.9079 80.6875 -0.0798769 -0.765782 -0.63812
8.55405 59.6401 79.8835 -0.101046 -0.773619 -0.6216
8.27446 60.4493 78.7849 -0.122421 -0.81373 -0.568204
8.01441 61.4225 77.4472 -0.145664 -0.797612 -0.584409
7.63571 62.4027 76.0267 -0.215889 -0.838721 -0.499939
7.3366 63.1374 74.9234 -0.215857 -0.838725 -0.499947
7.10002 63.6873 73.8875 -0.211828 -0.885464 -0.413621
6.86305 64.3941 72.719 -0.375622 -0.802395 -0.463756
6.4086 64.9269 71.7191 -0.363775 -0.898939 -0.239789
6.37182 65.3843 70.2945 -0.341299 -0.897484 -0.279352
6.11604 65.9412 68.5509 -0.335326 -0.920389 -0.20109
6.10948 66.2309 67.2264 -0.336396 -0.920317 -0.199636
5.96162 66.5126 65.9116 -0.321238 -0.934545 -0.153075
5.96254 66.7042 64.6835 -0.327778 -0.93389 -0.142868
6.00732 66.8211 63.3615 -0.310224 -0.945999 -0.0940522
-7.67155 51.3999 84.8359 0.262176 -0.589888 -0.763732
-6.23018 51.6477 85.1058 0.24078 -0.59999 -0.762914
-4.98085 52.1506 85.0828 0.220484 -0.604415 -0.765552
-3.61264 52.9197 84.8436 0.193083 -0.610944 -0.767767
-4.68717 51.8221 85.4267 0.221848 -0.60246 -0.766694
-5.96682 51.1449 85.5843 0.231994 -0.600246 -0.765376
-7.12681 50.7096 85.5497 0.250839 -0.591014 -0.76667
-8.33418 50.3385 85.4377 0.255182 -0.600195 -0.758055
-9.55441 49.9508 85.3111 0.279736 -0.592943 -0.755094
-10.7013 49.8292 84.9824 0.286779 -0.582826 -0.76031
-9.82246 50.421 84.8443 0.276745 -0.591505 -0.75732
-8.79204 50.814 84.907 0.257311 -0.597015 -0.759833
-7.9481 51.3001 84.8187 0.260022 -0.588592 -0.765472
1.17554 54.7342 84.4155 0.120579 -0.634047 -0.763836
0.990808 54.8168 84.3178 0.127778 -0.63452 -0.762271
2.85842 55.713 83.8182 0.100493 -0.66418 -0.740787
4.35366 54.9979 84.6314 0.0868798 -0.694468 -0.71426
6.34963 55.6798 84.1807 0.0366101 -0.716616 -0.696506
3.87794 56.8708 82.8175 0.045803 -0.678647 -0.733035
3.68464 56.9712 82.7128 0.0459189 -0.677236 -0.734332
3.92514 58.5627 81.2601 0.0271064 -0.68398 -0.728997
5.94221 57.4482 82.3606 0.0376683 -0.705727 -0.707482
6.60848 57.1137 82.7298 0.0376661 -0.705727 -0.707481
5.00252 59.5776 80.2238 0.000572717 -0.721467 -0.692449
4.83041 59.6771 80.129 -0.0484075 -0.687255 -0.724801
4.55352 61.4419 78.2664 -0.075981 -0.769192 -0.634484
3.95671 61.817 77.9201 -0.124829 -0.738471 -0.66263
4.68817 62.8335 76.4833 -0.245533 -0.799829 -0.547711
3.65331 63.5814 75.8524 -0.120212 -0.762888 -0.635257
4.20407 64.493 74.1661 -0.227924 -0.825496 -0.51634
2.45706 65.6565 72.8202 -0.192728 -0.894414 -0.403583
1.37669 66.2432 71.8983 -0.152395 -0.915673 -0.371913
3.41343 66.127 71.1864 -0.191917 -0.916341 -0.351408
1.50164 67.1568 69.4908 -0.283679 -0.909794 -0.302989
0.768211 67.5747 68.821 -0.048134 -0.951976 -0.302365
2.89566 67.0771 68.2243 -0.296705 -0.924639 -0.238767
1.21938 67.8954 66.6368 -0.286162 -0.953327 -0.0963256
0.559537 68.0951 65.9979 -0.215355 -0.964973 -0.149834
0.516724 68.3652 63.2619 -0.158605 -0.987171 -0.0183876
2.24258 67.8402 64.9787 -0.249667 -0.957486 -0.144524
3.39249 67.3555 66.1147 -0.300526 -0.940869 -0.156363
3.01561 67.8133 63.09 -0.264951 -0.961639 -0.07107
1.16307 68.3384 61.2079 -0.141239 -0.988699 -0.0502643
0.456836 68.4409 60.4896 -0.0941157 -0.995514 0.00967075
2.50458 68.0577 59.9066 -0.249248 -0.968233 -0.0200236
0.756941 68.3136 58.1179 -0.0815849 -0.99588 0.0395788
-0.0747295 68.3774 57.2752 -0.0821176 -0.996607 0.00557532
2.43319 68.0505 57.1637 -0.189034 -0.981923 -0.00966993
0.552357 68.3407 55.2413 -0.0941758 -0.995334 -0.0210027
-0.108096 68.4037 54.5735 -0.0665776 -0.996724 -0.0459269
2.10911 68.1559 54.1664 -0.176685 -0.983635 -0.0352891
2.29371 68.1193 54.3558 -0.178029 -0.983885 -0.0165834
