3.44727 68.2337 63.1236 -0.270833 -0.960803 -0.0577258
3.31252 68.3517 61.268 -0.27599 -0.960675 -0.0305613
3.22676 68.4069 59.7937 -0.257164 -0.96618 -0.0190678
3.02771 68.4801 58.3677 -0.255026 -0.966897 -0.00848839
2.97959 68.4969 56.6431 -0.210896 -0.97745 -0.0107316
2.87862 68.5582 55.0235 -0.208015 -0.977458 -0.0361407
1.69695 68.7959 54.6739 -0.14684 -0.988425 -0.0381352
0.193081 68.9683 55.1877 -0.109318 -0.99295 -0.0458252
-0.214136 68.9394 56.9042 -0.0494363 -0.998325 -0.00576448
-0.0426509 68.9478 58.5844 -0.0778822 -0.995313 0.057322
0.230123 68.9606 60.2828 -0.0830799 -0.996527 -0.00558542
0.390613 68.8996 61.693 -0.118693 -0.99225 -0.0320542
0.677954 68.8286 63.341 -0.143742 -0.98935 -0.0195533
0.93118 68.7077 64.8955 -0.201671 -0.974696 -0.0868643
0.939915 68.5114 66.3798 -0.199634 -0.975237 -0.0810281
0.904332 68.3306 68.116 -0.124779 -0.966264 -0.225308
1.14964 67.7809 69.8492 -0.201607 -0.916102 -0.346572
1.29117 67.1083 71.4522 -0.192977 -0.903352 -0.383035
1.57427 66.3907 73.0287 -0.172238 -0.903739 -0.391905
1.95755 65.7525 74.2321 -0.161774 -0.868973 -0.466352
2.55339 64.9225 75.4764 -0.107468 -0.785113 -0.609824
3.23908 63.8037 76.7592 -0.109596 -0.805798 -0.580084
3.78263 62.7499 78.2726 -0.115749 -0.829289 -0.54656
3.895 61.718 79.4659 0.00555724 -0.756217 -0.653935
3.8664 60.6961 80.5309 -0.0789128 -0.609564 -0.788791
3.52584 59.6364 81.3591 0.0806989 -0.635579 -0.767464
3.10213 58.2633 82.4299 0.0626471 -0.625669 -0.777569
2.18325 56.7552 83.5997 0.0874824 -0.634301 -0.767506
0.896724 55.2903 84.587 0.136088 -0.623521 -0.769808
-0.372748 54.5117 84.9559 0.156797 -0.617927 -0.770442
-0.479881 54.2317 85.1551 0.170109 -0.607873 -0.775599
0.928446 54.3695 85.3261 0.141513 -0.61668 -0.77439
2.31657 54.6691 85.3412 0.136091 -0.623522 -0.769807
3.77009 55.1657 85.1197 0.113756 -0.659114 -0.74339
6.14338 55.8662 84.75 0.0468385 -0.677979 -0.733532
7.27824 56.6773 84.056 0.0134162 -0.693923 -0.719156
7.12831 58.0013 82.7488 -0.0230915 -0.719876 -0.693285
6.35664 59.2774 81.5788 -0.0958768 -0.678511 -0.728307
5.89425 60.5627 80.4423 -0.120819 -0.720654 -0.679151
5.50349 61.8993 79.0353 -0.194889 -0.73584 -0.648505
5.24609 62.8886 77.7273 -0.126864 -0.825203 -0.550405
4.95745 63.6991 76.5616 -0.196599 -0.855097 -0.47719
4.71227 64.7386 74.812 -0.244548 -0.845884 -0.473995
4.44117 65.5032 73.5792 -0.224629 -0.849365 -0.47762
4.16093 66.2314 72.1328 -0.198357 -0.917299 -0.345279
4.01187 66.8267 70.3517 -0.269148 -0.934218 -0.234086
3.80579 67.2421 68.8493 -0.292893 -0.930927 -0.217228
3.94448 67.5951 67.1306 -0.315741 -0.934723 -0.163099
3.86531 67.8747 65.5314 -0.320362 -0.937687 -0.131639
3.55187 68.1481 63.9339 -0.267411 -0.959582 -0.0856727
4.77335 67.816 63.3261 -0.324177 -0.94279 -0.0735344
5.01335 67.565 64.9961 -0.336798 -0.932984 -0.120522
5.00378 67.3111 66.6788 -0.369975 -0.916191 -0.153986
5.04763 66.8952 68.7389 -0.346046 -0.91714 -0.197753
5.28212 66.4159 70.3427 -0.337492 -0.899623 -0.276713
5.44072 65.8879 71.8393 -0.293207 -0.918791 -0.260775
5.67438 65.3756 73.1777 -0.269868 -0.864235 -0.424581
5.97485 64.4804 74.6332 -0.238157 -0.842238 -0.483649
6.2487 63.7192 75.8952 -0.210569 -0.875733 -0.434457
6.49328 62.7733 77.4848 -0.239942 -0.815529 -0.52663
6.77869 61.8735 78.723 -0.204472 -0.773997 -0.594254
7.18074 60.9354 79.6933 -0.153832 -0.752466 -0.640198
7.35143 59.9869 80.7869 -0.0958784 -0.67851 -0.728307
7.84123 58.9292 81.7077 -0.0623996 -0.707407 -0.70217
8.63664 58.0566 82.6242 -0.0289185 -0.736303 -0.676034
8.72846 56.88 83.8202 -0.0172645 -0.703449 -0.710536
8.26368 55.5194 85.1952 0.0257995 -0.728055 -0.685011
6.58799 54.9614 85.6018 0.0495787 -0.671561 -0.739289
5.17726 54.5468 85.8838 0.0816683 -0.665337 -0.74134
2.92933 53.9432 86.0714 0.132144 -0.6505 -0.747707
1.10319 53.3667 86.1979 0.153519 -0.645989 -0.74775
-0.440968 53.0935 86.0825 0.178178 -0.63681 -0.75015
-2.21332 52.3577 86.2697 0.201032 -0.624393 -0.75472
-4.04655 51.6293 86.3578 0.211687 -0.623606 -0.752532
-5.60198 51.1013 86.3089 0.233113 -0.610679 -0.756561
-6.97194 50.5338 86.3312 0.248114 -0.615213 -0.7483
-8.29271 50.0946 86.2424 0.261688 -0.608431 -0.749221
-9.6626 49.7376 86.0465 0.277509 -0.593091 -0.755799
-10.7205 50.4199 85.1384 0.266694 -0.587037 -0.76437
-10.0633 51.5705 84.4961 0.265928 -0.578863 -0.770843
-8.33142 52.359 84.4861 0.250071 -0.578597 -0.776331
-6.4226 53.0376 84.5821 0.237488 -0.577148 -0.781345
-4.93337 53.5761 84.5766 0.211297 -0.587668 -0.781006
-2.88383 54.362 84.5101 0.190721 -0.603876 -0.773798
-1.2781 55.1329 84.2777 0.161654 -0.598592 -0.784366
-0.16104 55.9272 83.8744 0.156029 -0.611167 -0.77597
0.865257 56.828 83.3259 0.12461 -0.630156 -0.766405
1.60957 58.0184 82.4617 0.117991 -0.634521 -0.763847
2.18642 59.0602 81.6756 0.0987466 -0.645493 -0.757356
2.33941 60.2176 80.7712 0.122752 -0.619778 -0.773427
2.58575 61.2704 79.8915 0.14089 -0.683344 -0.715351
2.36483 62.8297 78.1258 0.0524661 -0.745776 -0.664127
1.99765 63.6747 77.0431 -0.0554126 -0.726593 -0.68483
1.27021 64.8531 75.7805 0.0347085 -0.758677 -0.634761
0.577255 65.7051 74.3955 0.0716427 -0.91352 -0.400436
0.197621 66.4385 72.9248 0.0730062 -0.860975 -0.503381
-0.0152426 67.2503 71.533 -0.0285259 -0.90402 -0.426537
-0.184503 67.9277 69.9716 -0.0458477 -0.942763 -0.324997
-0.493953 68.5174 68.0039 -0.0855131 -0.971064 -0.218476
-0.374312 68.7678 66.606 -0.143653 -0.969484 -0.182202
-0.366817 68.9371 64.9981 -0.168749 -0.984268 -0.0523532
-0.653847 69.0249 63.564 -0.147364 -0.989054 0.0074726
-0.880077 69.0026 62.0613 0.00886608 -0.999821 0.0167123
-1.06704 68.9796 60.4236 0.00598604 -0.999928 0.0103916
-1.27849 68.9649 58.8876 0.0780012 -0.993294 0.0446351
-1.42773 68.8902 57.366 0.146296 -0.98714 -0.0644396
-1.93713 68.9533 55.2336 0.133477 -0.989411 -0.0570068
-1.38885 69.043 54.0749 0.0576034 -0.987466 -0.146947
0.143771 69.0373 53.9492 -0.102348 -0.9928 -0.0622396
1.89042 68.8266 53.3403 -0.160233 -0.985891 -0.0484246
3.38294 68.5561 52.5062 -0.211178 -0.976442 -0.0443055
4.11615 68.334 53.8182 -0.220714 -0.974322 -0.0445131
4.18306 68.259 55.3797 -0.224687 -0.973909 -0.0318868
4.20651 68.2099 57.0685 -0.231188 -0.972716 -0.019408
4.36291 68.1244 58.7944 -0.241674 -0.969795 -0.0315371
4.55976 68.0256 60.2626 -0.275215 -0.960985 -0.0276513
4.60182 67.9543 61.8347 -0.311225 -0.948805 -0.0538959
4.71305 67.8597 62.8917 -0.311735 -0.948739 -0.0521147
5.97973 67.4635 62.5276 -0.324174 -0.942791 -0.0735399
6.11761 67.2751 63.964 -0.318542 -0.943645 -0.0898081
6.10638 67.0931 65.5223 -0.336601 -0.930913 -0.141775
6.31489 66.7645 67.1192 -0.339432 -0.924281 -0.172634
6.44115 66.4305 68.4536 -0.346852 -0.91706 -0.19671
6.66987 65.8977 70.2655 -0.347851 -0.898329 -0.268321
6.67054 65.4897 71.6412 -0.345709 -0.899659 -0.266644
7.03377 64.9357 72.9152 -0.37438 -0.831075 -0.411252
7.2379 64.2203 74.2586 -0.247045 -0.890123 -0.382948
7.47719 63.5687 75.5016 -0.255583 -0.858278 -0.445012
7.84467 62.6921 76.9949 -0.253978 -0.837457 -0.481044
8.09411 61.8049 78.2218 -0.247044 -0.805866 -0.538098
8.46088 60.7955 79.5447 -0.192015 -0.767172 -0.612027
8.75018 59.7156 80.8071 -0.168799 -0.764944 -0.62109
9.94117 58.2873 82.2773 -0.0891167 -0.748492 -0.657129
10.2091 57.2948 83.3897 -0.0259672 -0.739679 -0.672459
9.95243 55.6449 85.1253 0.0257994 -0.728054 -0.685012
9.07696 54.7744 86.027 0.0449363 -0.717978 -0.694101
7.80456 54.2178 86.4666 0.0738864 -0.704236 -0.706038
6.19393 53.8345 86.6577 0.0840012 -0.704417 -0.704798
4.36545 53.2442 86.9159 0.137791 -0.677459 -0.722539
2.63245 52.7694 87.0223 0.148266 -0.652117 -0.743418
0.988248 52.2932 87.0844 0.17101 -0.644418 -0.745196
-0.39843 51.9664 87.0494 0.184307 -0.630954 -0.753554
-2.33059 51.2094 87.1885 0.201032 -0.624393 -0.75472
-3.93916 50.6062 87.2358 0.211759 -0.623527 -0.752577
-5.38178 50.0823 87.2318 0.241285 -0.621748 -0.745125
-7.01609 49.4976 87.1711 0.253912 -0.626761 -0.736595
-8.60969 49.0229 87.0149 0.257861 -0.619947 -0.741063
-10.2408 48.4734 86.8416 0.287413 -0.608604 -0.739591
-10.9632 49.0872 86.0593 0.314934 -0.585478 -0.747015
-11.7966 49.9303 85.1343 0.2766 -0.585346 -0.762115
-13.1493 50.1911 84.4325 0.274015 -0.582455 -0.765247
-14.4417 50.0487 83.9805 0.357909 -0.625912 -0.692918
-16.0139 49.6067 83.4316 0.392316 -0.646434 -0.654378
-14.7389 50.4921 83.3883 0.425915 -0.613306 -0.665171
-13.5196 50.7475 83.8146 0.349093 -0.628453 -0.695112
-12.4426 51.6233 83.5874 0.293387 -0.595383 -0.747959
-10.7474 52.3527 83.6719 0.299683 -0.585002 -0.753514
-9.36684 53.0226 83.6582 0.264454 -0.562199 -0.783579
-7.72512 53.6153 83.7504 0.243588 -0.570146 -0.784601
-5.80691 54.3732 83.7457 0.21312 -0.583403 -0.783723
-4.12804 55.0478 83.6821 0.191568 -0.588571 -0.785421
-2.8024 55.5007 83.6632 0.17621 -0.588703 -0.78891
-1.46812 56.2614 83.3612 0.147302 -0.608499 -0.779763
-0.357773 57.0245 82.972 0.13092 -0.619329 -0.773945
0.308886 58.0548 82.2359 0.113232 -0.629763 -0.768471
1.09528 59.3896 81.2453 0.114703 -0.633867 -0.764883
1.27731 60.4886 80.3228 0.147536 -0.655452 -0.740686
1.32016 61.5438 79.3635 0.13427 -0.711194 -0.690054
1.04178 62.9129 77.8984 0.134479 -0.711191 -0.690017
0.495567 63.7903 76.7761 0.166077 -0.741437 -0.650145
-0.0431359 64.6676 75.649 0.21406 -0.748977 -0.623479
-0.859108 65.6764 73.9845 0.139523 -0.803304 -0.578996
-1.18541 66.4891 72.7355 0.114896 -0.824733 -0.553728
-1.29016 67.3741 71.3558 -0.000981745 -0.874331 -0.480605
-1.58832 68.0573 69.2812 0.145386 -0.943017 -0.299301
-1.83969 68.6422 67.4823 0.157479 -0.953754 -0.245083
-1.71271 68.9509 66.0696 0.122123 -0.970813 -0.206097
-1.75058 69.0807 64.6394 -0.0180353 -0.999788 -0.0071805
-2.12987 69.0143 62.7826 0.284994 -0.958099 0.028707
-2.27602 68.9027 61.1974 0.275042 -0.959528 0.0604785
-2.41407 68.7803 59.8158 0.266605 -0.963751 0.0102957
-2.55723 68.7227 58.1565 0.204523 -0.975244 0.0441248
-2.96764 68.7046 56.8478 0.282822 -0.953452 -0.104603
-3.38341 68.6726 55.1686 0.262822 -0.96475 0.0134685
-3.78835 68.6613 53.6437 0.26052 -0.956429 -0.130521
-3.50979 68.9843 52.3149 0.269081 -0.909347 -0.317261
-2.11005 69.1386 52.5857 0.147152 -0.985102 -0.0889993
-0.709307 69.2599 52.8842 -0.0335693 -0.986505 -0.130789
0.695387 69.0794 52.6169 -0.165495 -0.982582 -0.0841693
2.27533 68.8333 51.7589 -0.216607 -0.975029 -0.048991
3.83608 68.5293 50.7262 -0.225822 -0.973334 -0.0393906
4.69406 68.3859 49.0825 -0.237622 -0.970642 -0.0372253
5.4903 68.184 49.2408 -0.238945 -0.970371 -0.0358417
5.44322 68.1303 50.9475 -0.235932 -0.971048 -0.0374529
5.54782 68.0374 52.6927 -0.24495 -0.968885 -0.0355301
5.48641 67.9901 54.4367 -0.245108 -0.96889 -0.0342635
5.40684 67.9536 56.0286 -0.251133 -0.967327 -0.0347862
5.45265 67.8915 57.4267 -0.251046 -0.967357 -0.0345849
5.74839 67.7405 59.2521 -0.252733 -0.966456 -0.0457069
5.91435 67.5775 61.0266 -0.281676 -0.957031 -0.0689218
5.93611 67.494 62.2333 -0.311226 -0.948805 -0.0538961
6.49875 56.956 83.7467 0.0440978 -0.684398 -0.727774
4.94335 56.1087 84.4493 0.0468405 -0.678007 -0.733562
4.80196 56.0295 84.5117 0.0817129 -0.665692 -0.741739
5.79672 57.3733 83.3118 0.0322502 -0.679315 -0.733138
4.48989 56.6796 83.909 0.0501242 -0.664836 -0.745306
2.64773 55.5665 84.6469 0.0870468 -0.639295 -0.764018
1.68399 54.9459 85.0052 0.136095 -0.623551 -0.769846
2.88503 56.564 83.8392 0.0834339 -0.647135 -0.757796
4.15306 57.3174 83.3174 0.0501242 -0.664838 -0.745304
5.48088 58.0222 82.7106 0.016391 -0.652499 -0.757613
6.06359 58.3476 82.4556 -0.00917087 -0.651756 -0.758373
5.30668 58.7957 82.0797 -0.00917087 -0.651756 -0.758373
3.86133 57.9887 82.712 0.0375187 -0.628205 -0.777143
3.71416 57.8992 82.7721 0.0598134 -0.629886 -0.774381
4.54977 59.2438 81.7037 -0.00917131 -0.651756 -0.758373
4.92485 59.4215 81.5266 -0.0307014 -0.672359 -0.739589
4.74458 60.1428 80.8783 -0.0307014 -0.672359 -0.739589
4.77604 60.1578 80.8635 -0.030703 -0.672358 -0.739589
4.70499 60.9903 80.2204 -0.100663 -0.66259 -0.742187
4.84646 61.0499 80.1334 -0.126897 -0.70999 -0.692684
4.60405 61.7424 79.4438 0.00556908 -0.756392 -0.654095
4.69027 61.7853 79.3969 -0.0592501 -0.771754 -0.633155
4.02121 64.235 76.0704 -0.181534 -0.816201 -0.548508
3.77346 64.1382 76.2384 -0.114545 -0.778216 -0.617461
3.32049 64.6827 75.6362 -0.181531 -0.816204 -0.548505
3.97849 64.8116 75.0636 -0.246585 -0.845462 -0.473698
3.23678 65.2423 74.657 -0.240039 -0.856999 -0.455998
3.86937 65.3607 74.1015 -0.23236 -0.853261 -0.466856
3.62084 65.8694 73.2584 -0.175462 -0.892521 -0.415474
2.66774 65.6802 74.0705 -0.190736 -0.873885 -0.447151
2.5046 66.1647 73.1188 -0.195049 -0.892412 -0.406886
3.17805 66.29 72.5419 -0.187052 -0.905597 -0.380666
2.12373 66.5804 72.3499 -0.174949 -0.907893 -0.380951
3.15312 66.7273 71.415 -0.210587 -0.91057 -0.355689
2.17694 67.0507 71.165 -0.194143 -0.911388 -0.362879
3.21895 67.0921 70.1548 -0.240601 -0.939256 -0.244765
2.90276 67.4424 69.2591 -0.306231 -0.915126 -0.262234
2.17265 67.4456 69.9865 -0.298944 -0.907191 -0.296034
1.84226 67.8363 69.1227 -0.306235 -0.915125 -0.262235
2.62665 67.7695 68.3162 -0.313143 -0.921906 -0.228103
2.97309 67.7399 67.96 -0.309488 -0.922817 -0.229402
1.96112 68.1152 67.763 -0.287968 -0.936327 -0.200911
3.13479 67.9535 66.5389 -0.246649 -0.961452 -0.121547
3.19758 67.9456 66.4736 -0.246653 -0.961451 -0.12155
2.66356 68.1758 65.7478 -0.249524 -0.959069 -0.133881
1.64474 68.3286 66.8134 -0.288162 -0.954215 -0.0802235
1.86004 68.4466 65.3052 -0.233197 -0.963751 -0.129627
2.46991 68.3761 64.6741 -0.261015 -0.958004 -0.118743
1.73007 68.5925 64.1513 -0.18394 -0.98153 -0.0525891
2.66178 68.444 63.1779 -0.262414 -0.962571 -0.0677934
1.51859 68.6941 63.0694 -0.181338 -0.981781 -0.0567754
2.35558 68.5873 62.2066 -0.153799 -0.987019 -0.0462566
2.6243 68.5286 61.9218 -0.262632 -0.964671 -0.0208428
2.31159 68.6203 60.9469 -0.226856 -0.973837 -0.0133725
1.34849 68.7618 61.9452 -0.151983 -0.985716 -0.0725653
1.16384 68.7764 62.1333 -0.153807 -0.987017 -0.0462648
1.2888 68.8439 60.7142 -0.159299 -0.986705 -0.0321991
2.25487 68.6521 59.701 -0.221772 -0.974979 -0.0152446
2.14648 68.6528 58.5075 -0.184316 -0.982755 0.0148332
1.25838 68.8623 59.4428 -0.15053 -0.988013 0.0342123
0.97222 68.9018 59.7358 -0.0920913 -0.99564 0.0148287
0.630375 68.9025 58.7766 -0.101054 -0.994256 0.0352434
1.51114 68.7623 57.868 -0.188759 -0.982015 -0.00409032
2.02757 68.6733 57.3275 -0.19313 -0.980903 -0.0230123
0.892195 68.85 57.2058 -0.0987927 -0.995082 -0.00719891
2.04268 68.7011 56.0147 -0.15787 -0.987422 -0.00861437
2.25948 68.6617 55.7872 -0.209477 -0.977533 -0.0234369
1.03045 68.8356 55.758 -0.131157 -0.989793 -0.0557507
0.43724 68.9012 56.37 -0.0987888 -0.995082 -0.00720102
