3.06864 71.0125 68.5857 -0.381233 -0.919525 0.0697388
3.32712 70.5261 70.0517 -0.590797 -0.729893 -0.343825
3.35167 69.6936 71.7243 -0.3686 -0.851509 -0.372916
3.23856 69.0118 73.1972 -0.342983 -0.821025 -0.456377
3.32715 68.2247 74.54 -0.294145 -0.819204 -0.492325
3.67163 66.7863 76.4124 -0.160797 -0.769488 -0.618088
4.1312 65.8655 77.4673 -0.100033 -0.817233 -0.567053
4.5027 65.0006 78.5955 -0.0932029 -0.804709 -0.586307
4.47571 64.2045 79.6797 0.0114607 -0.725307 -0.688288
4.32406 62.9286 81.0117 0.0188283 -0.741848 -0.669524
3.98436 62.0343 81.9852 0.0438014 -0.698279 -0.714484
3.50473 60.4719 83.2354 0.0688186 -0.646967 -0.759362
2.6111 59.1865 84.2608 0.075748 -0.633564 -0.769699
1.63388 57.9749 85.099 0.103639 -0.598406 -0.794436
0.773316 57.1395 85.593 0.151297 -0.573063 -0.805424
-0.418811 56.3048 85.9789 0.1629 -0.584874 -0.794444
-1.05908 55.4248 86.483 0.169554 -0.595472 -0.78528
0.19383 56.0409 86.2884 0.14774 -0.588762 -0.79469
1.49042 56.366 86.2999 0.148198 -0.604259 -0.782685
3.75008 56.9759 86.1751 0.121246 -0.619517 -0.775563
5.50491 57.3304 86.0171 0.075072 -0.640205 -0.764192
6.86457 57.942 85.5487 0.0260089 -0.67967 -0.733057
7.36206 58.9344 84.6462 -2.86911e-05 -0.689979 -0.72322
7.23995 60.3007 83.3547 -0.0666901 -0.672649 -0.73695
6.54826 61.4669 82.3416 -0.038087 -0.649587 -0.758642
6.11963 62.4167 81.4483 -0.113704 -0.72013 -0.684459
5.9611 63.6027 80.1202 -0.137109 -0.776706 -0.614759
5.99068 64.7367 78.6765 -0.136946 -0.778391 -0.612661
5.92938 65.9429 76.9993 -0.106864 -0.829759 -0.547795
5.86205 66.7032 75.8544 -0.263949 -0.857062 -0.442186
5.70271 67.4807 74.4263 -0.278137 -0.854978 -0.437771
5.35429 68.2409 73.195 -0.307723 -0.844863 -0.437528
5.33331 69.0192 71.1955 -0.423405 -0.864939 -0.267558
5.24855 69.5305 69.5929 -0.479132 -0.853301 -0.195781
4.9954 69.8788 68.122 -0.470548 -0.877568 -0.091974
4.16133 70.3862 67.6076 -0.504626 -0.860985 -0.0636969
3.36098 70.8266 68.0805 -0.441385 -0.894293 0.0736109
3.11017 70.9669 66.7027 -0.300161 -0.940302 -0.0089289
1.23829 71.174 66.3222 0.00630545 -0.993356 -0.113607
1.52448 71.0464 67.747 0.0293873 -0.997604 -0.0626356
1.77462 70.9703 69.0733 0.0923488 -0.984864 -0.146677
2.03989 70.5379 70.7884 -0.1136 -0.890868 -0.398114
2.07283 69.8186 72.3641 -0.180087 -0.898174 -0.401063
2.05892 69.1876 73.5618 -0.230009 -0.844562 -0.48354
2.03878 68.4701 74.6761 -0.203818 -0.819282 -0.535943
2.20713 67.3616 76.0977 -0.17686 -0.755234 -0.631144
2.51608 66.2166 77.3429 -0.10746 -0.706112 -0.699899
3.06459 64.6401 79.1546 -0.0193498 -0.798906 -0.601144
2.97379 63.4615 80.4304 0.0177883 -0.728176 -0.685159
2.88052 62.5546 81.3917 0.0114603 -0.725305 -0.68829
2.5256 61.4529 82.3243 0.0695162 -0.640743 -0.764602
2.07393 60.3535 83.2087 0.0742137 -0.651671 -0.754836
1.33456 59.3592 83.9858 0.0808503 -0.634718 -0.768242
0.471832 58.3386 84.6632 0.121433 -0.599214 -0.791244
-0.521654 57.5157 85.0855 0.146724 -0.570419 -0.808143
-2.03735 56.5739 85.4386 0.175304 -0.570383 -0.802401
-3.55227 55.6274 85.7591 0.198429 -0.563206 -0.802024
-5.42842 55.2197 85.5561 0.217414 -0.563652 -0.796825
-6.92608 54.5727 85.5856 0.228976 -0.55815 -0.797507
-6.29954 53.4314 86.5583 0.241671 -0.566665 -0.787452
-5.02891 53.233 87.1116 0.232977 -0.581272 -0.779644
-3.55522 53.7339 87.1708 0.209554 -0.589596 -0.779846
-1.92935 54.1782 87.2352 0.199408 -0.598938 -0.77546
-0.478921 54.5913 87.2529 0.179377 -0.606438 -0.774633
1.5342 55.3023 87.1294 0.148196 -0.604264 -0.782681
3.5751 55.8874 87.0172 0.125983 -0.612918 -0.779983
5.22258 56.2267 86.9323 0.0932686 -0.649583 -0.754548
6.51068 56.6054 86.7655 0.0597397 -0.662777 -0.745505
8.10416 57.3441 86.1442 0.0400248 -0.681465 -0.73058
8.75685 58.4511 85.0697 -0.0260627 -0.700291 -0.713382
8.73328 59.5335 84.0044 -0.0267467 -0.705634 -0.708072
8.5005 60.6711 82.9025 -0.0892196 -0.698239 -0.70891
7.96125 61.5949 81.9879 -0.100598 -0.798063 -0.594117
7.39033 62.8499 80.6201 -0.195192 -0.728163 -0.657023
7.26202 63.8146 79.5108 -0.219804 -0.77469 -0.590689
7.1698 64.8833 78.0538 -0.262019 -0.782214 -0.565232
7.16889 66.1158 76.1272 -0.279474 -0.834864 -0.4721
7.05477 66.8786 74.7173 -0.296776 -0.847146 -0.440759
6.80221 67.5021 73.5571 -0.364053 -0.853928 -0.371851
6.60984 68.1178 72.091 -0.36746 -0.889684 -0.270989
6.55177 68.6081 70.4905 -0.43591 -0.869576 -0.231992
6.34106 69.0525 68.9016 -0.441269 -0.886126 -0.141639
6.13597 69.3631 67.4168 -0.436672 -0.893156 -0.10766
6.039 69.5458 66.1044 -0.430704 -0.899521 -0.0731727
6.08517 69.6472 64.4445 -0.412486 -0.908338 -0.0691153
5.71052 69.8677 62.8502 -0.395738 -0.918358 -0.00324801
5.5136 69.9892 61.1231 -0.35348 -0.93515 -0.0233608
5.23749 70.1184 59.7176 -0.339853 -0.940256 -0.0195864
4.88758 70.2664 58.4184 -0.33094 -0.943603 -0.00964091
4.27673 70.4775 59.2834 -0.342672 -0.939381 -0.0106469
3.40355 70.7732 60.2428 -0.331556 -0.943069 -0.0263093
1.90848 71.1658 60.6998 -0.177118 -0.982865 -0.0462923
0.772167 71.3346 61.1013 -0.0773338 -0.994011 -0.0457486
0.9367 71.2829 62.8599 -0.0795423 -0.996768 0.011214
2.24542 71.1048 62.4507 -0.243357 -0.967483 0.0689489
3.54617 70.7249 62.4887 -0.421724 -0.900347 0.0608495
4.74187 70.2814 63.9138 -0.376785 -0.926047 0.00318316
4.55735 70.3278 65.1546 -0.447354 -0.893632 -0.0360009
3.66978 70.7221 66.2398 -0.43797 -0.891748 -0.113881
3.22542 70.9092 66.6718 -0.440384 -0.897287 -0.0270575
3.03921 71.1303 65.4683 -0.442678 -0.88951 -0.113046
2.01422 71.3208 64.3773 0.0587885 -0.987986 -0.113115
3.09218 71.0865 63.3188 -0.319158 -0.918207 0.152006
3.56551 70.9155 64.468 -0.481723 -0.875474 -0.0105376
3.32274 71.0164 65.2696 -0.49416 -0.863141 -0.0440579
0.692245 70.4326 71.7087 -0.138155 -0.936068 -0.281168
0.822265 69.7981 73.0097 -0.181777 -0.880672 -0.435146
0.807042 68.7113 74.676 -0.0966441 -0.82475 -0.557178
0.750798 67.8268 75.6935 0.00394113 -0.715458 -0.697816
1.10783 66.9293 76.6757 0.026579 -0.733128 -0.679571
1.22153 65.6905 78.008 0.0269361 -0.730824 -0.682034
1.5885 64.434 79.3608 0.0612614 -0.714473 -0.695408
1.58898 63.0568 80.7286 0.10474 -0.70077 -0.705657
1.19541 61.8561 81.8174 0.112439 -0.676 -0.728273
0.861155 60.7454 82.7449 0.0805543 -0.646151 -0.758934
0.149286 59.5134 83.7086 0.117606 -0.639252 -0.759951
-0.978233 58.4682 84.3213 0.132308 -0.59894 -0.789788
-2.08632 57.7464 84.5882 0.188854 -0.575877 -0.795425
-3.3086 57.1159 84.7621 0.184353 -0.572598 -0.798817
-4.63531 56.6492 84.7622 0.216593 -0.56251 -0.797878
-5.91423 56.1732 84.743 0.224127 -0.565667 -0.793592
-7.25058 55.7394 84.6757 0.21178 -0.559467 -0.80134
-8.76739 55.2244 84.6146 0.245397 -0.566895 -0.785849
-10.2879 54.4342 84.7032 0.251752 -0.572107 -0.780586
-9.82464 53.9387 85.2158 0.22926 -0.561737 -0.79441
-8.52085 53.8037 85.6271 0.21837 -0.517323 -0.827461
-7.51144 53.1845 86.3484 0.266068 -0.531665 -0.803998
-6.8725 52.1072 87.318 0.328519 -0.55151 -0.766754
-6.04468 51.7463 87.9162 0.264518 -0.611328 -0.745583
-4.19139 52.3666 88.0493 0.237243 -0.612734 -0.753839
-2.63482 52.85 88.0959 0.201683 -0.614495 -0.762638
-1.2354 53.2383 88.1465 0.174988 -0.612405 -0.770934
0.478371 53.7648 88.1142 0.173317 -0.624485 -0.761564
1.83773 54.312 87.9725 0.168193 -0.624318 -0.762849
3.15193 54.8148 87.81 0.149971 -0.636946 -0.75618
4.52301 55.1255 87.8167 0.119891 -0.650894 -0.748984
5.86194 55.3749 87.7613 0.0932637 -0.665329 -0.740702
7.12729 55.7572 87.5789 0.0762837 -0.680649 -0.728063
9.02776 56.4986 87.0143 0.0352918 -0.693131 -0.719664
9.95704 57.5028 86.0534 0.0148344 -0.708989 -0.704928
10.0987 58.748 84.7686 0.0128053 -0.718772 -0.695128
10.0096 59.635 83.7923 -0.104176 -0.732805 -0.672417
9.84879 60.7034 82.6529 -0.106065 -0.728649 -0.676596
9.26401 61.5399 81.8224 -0.13481 -0.794105 -0.592642
8.7032 62.6221 80.4825 -0.147895 -0.763114 -0.625569
8.52698 63.6036 79.2485 -0.24737 -0.795681 -0.552901
8.32673 64.5023 78.0448 -0.254694 -0.788948 -0.559066
8.4514 65.4494 76.5 -0.284979 -0.809126 -0.513908
8.33124 66.2779 75.0331 -0.288271 -0.858182 -0.424582
8.09003 67.0387 73.5028 -0.36123 -0.877481 -0.315501
7.94374 67.5464 72.0842 -0.365477 -0.898836 -0.241908
7.83171 67.9712 70.6667 -0.394296 -0.894623 -0.210191
7.74753 68.2974 69.3687 -0.387146 -0.909138 -0.15358
7.56299 68.6542 67.8866 -0.411813 -0.9008 -0.133637
7.41732 68.946 65.9567 -0.394753 -0.91338 -0.0983668
7.42971 69.0634 64.3974 -0.391206 -0.918267 -0.0611871
7.02398 69.3543 62.5034 -0.344205 -0.937642 -0.0484795
6.85492 69.5044 60.6071 -0.342714 -0.938723 -0.0366988
6.6463 69.6266 59.2043 -0.329979 -0.943285 -0.034004
6.4822 69.7377 57.6773 -0.316885 -0.948116 -0.0256676
6.19355 69.8644 56.0365 -0.288618 -0.957187 -0.0222132
5.9511 69.9565 54.6901 -0.279956 -0.959984 -0.00398718
6.19307 69.9273 52.6663 -0.25915 -0.965543 -0.0238293
5.59666 70.0754 53.1486 -0.268765 -0.96298 -0.0169722
5.2088 70.1738 54.4839 -0.279949 -0.959986 -0.00399114
4.72848 70.3161 55.2424 -0.29974 -0.95387 0.0165031
4.28565 70.4766 56.6374 -0.32006 -0.947396 0.00174096
3.71756 70.6828 57.9669 -0.333514 -0.942612 0.013047
3.11171 70.9171 59.1363 -0.370529 -0.928735 -0.0126277
1.84436 71.3227 59.675 -0.20773 -0.934343 -0.28957
0.573064 71.5036 58.685 -0.0129173 -0.995856 -0.0900171
-0.417336 71.714 57.6288 0.0556132 -0.980437 -0.146808
-1.23953 71.6708 56.5307 0.175047 -0.982068 -0.0700084
-1.24545 71.5704 57.6534 0.166896 -0.980322 -0.105424
-1.26159 71.4425 58.9147 0.151457 -0.986039 -0.0632276
-0.834164 71.3697 60.8483 -0.0228199 -0.998251 -0.0513564
-0.710476 71.3225 62.7021 -0.0194695 -0.999687 -0.0097931
-0.286505 71.2718 64.1184 0.0184828 -0.998575 -0.0500626
-0.297929 71.1822 65.7243 0.0819379 -0.988732 -0.125283
-0.0811178 71.0271 67.0675 0.0797884 -0.988529 -0.128236
0.294632 70.9124 68.551 0.0857462 -0.991837 -0.0943729
0.441678 70.7595 70.1071 0.0223548 -0.971692 -0.214025
0.632744 70.4841 71.3973 -0.057605 -0.986644 -0.152368
6.32074 58.7075 84.8245 0.00556479 -0.672543 -0.740037
4.82642 57.9121 85.4929 0.049904 -0.646167 -0.761563
4.69514 57.8368 85.5447 0.0568742 -0.630829 -0.773835
2.51894 57.3861 85.6549 0.121248 -0.619516 -0.775563
3.77719 58.1634 85.211 0.0499036 -0.646163 -0.761566
5.16217 58.9339 84.6101 0.0242383 -0.667015 -0.74465
6.49044 59.6254 84.0099 -0.0135467 -0.659636 -0.751463
5.62697 60.0209 83.6764 -0.0210012 -0.670887 -0.741262
4.0158 59.1546 84.3888 0.02527 -0.637523 -0.770017
3.13248 58.6383 84.7633 0.0757667 -0.633698 -0.769861
4.17271 60.1058 83.6064 0.042143 -0.640611 -0.766709
5.53241 60.7854 82.9872 -0.0210012 -0.670887 -0.741262
5.77056 60.8997 82.877 -0.0210006 -0.670886 -0.741263
5.57106 61.6438 82.267 -0.0548659 -0.631425 -0.773493
4.64543 61.199 82.6946 -0.0594472 -0.626365 -0.77726
4.89177 62.1694 81.886 -0.0582307 -0.631709 -0.773015
5.01763 62.2303 81.8275 -0.0844888 -0.67741 -0.730737
5.25453 63.0719 80.8188 -0.0432266 -0.722572 -0.689943
5.30174 63.0935 80.7932 -0.0432299 -0.722573 -0.689941
4.89277 66.3809 76.5641 -0.180693 -0.768097 -0.61431
4.7727 66.342 76.648 -0.180692 -0.768096 -0.614312
4.7867 67.0508 75.7576 -0.180693 -0.768097 -0.61431
5.08959 67.1103 75.5068 -0.249887 -0.857792 -0.449164
4.5582 67.5703 74.9239 -0.262439 -0.843285 -0.469038
4.46046 67.5546 75.0083 -0.249891 -0.857793 -0.449161
4.15091 68.092 74.2687 -0.284479 -0.82372 -0.490466
4.4588 68.145 74.0057 -0.293489 -0.834444 -0.466441
4.1463 68.6514 73.2364 -0.306327 -0.849166 -0.430209
4.15378 68.6522 73.2295 -0.30492 -0.849439 -0.43067
3.94088 69.161 72.3579 -0.377006 -0.849543 -0.368977
4.68062 69.149 71.6049 -0.363214 -0.862896 -0.351406
4.11737 69.6394 71.061 -0.394838 -0.857343 -0.330253
4.64651 69.5921 70.4754 -0.433687 -0.857757 -0.275987
4.2687 70.0359 69.6898 -0.433687 -0.857757 -0.275987
4.49602 69.9902 69.4308 -0.480092 -0.855004 -0.196164
3.95119 70.3805 68.8142 -0.570709 -0.818321 -0.0681352
4.36637 70.1983 68.2951 -0.486412 -0.868502 -0.0954323
