0.139541 57.8296 87.7941 0.173646 -0.541601 -0.822285
1.68491 58.3671 87.7902 0.157037 -0.535964 -0.829103
3.18422 58.9491 87.6476 0.132675 -0.531075 -0.836694
4.75485 59.2292 87.6431 0.09208 -0.582986 -0.807247
6.01547 59.7554 87.4069 0.0865199 -0.582681 -0.808063
7.16918 60.6831 86.7697 -0.0177531 -0.546409 -0.83733
7.67308 62.0135 85.7149 -0.104145 -0.63631 -0.764371
7.77405 63.1932 84.7035 -0.0994237 -0.643416 -0.759033
7.4607 64.4956 83.6446 -0.120648 -0.645868 -0.753856
6.6484 65.7541 82.7469 -0.174988 -0.637448 -0.75036
5.30691 65.663 83.0942 -0.0871546 -0.586941 -0.804914
4.84587 64.6573 83.8774 -0.0871566 -0.586944 -0.804911
4.51589 63.6037 84.6302 0.00252132 -0.568749 -0.822507
3.67064 62.2046 85.5642 0.0330438 -0.557814 -0.829308
2.61865 60.9523 86.2794 0.089578 -0.507845 -0.856779
1.38199 60.1621 86.6254 0.148143 -0.514314 -0.844557
0.194876 59.3097 86.9135 0.161195 -0.497532 -0.85226
-0.810456 58.3261 87.2841 0.201399 -0.487982 -0.849301
0.00305534 57.7791 87.8008 0.190868 -0.552316 -0.811101
0.126561 56.6853 88.5746 0.190871 -0.552316 -0.811101
-1.28752 56.3277 88.4574 0.199978 -0.578377 -0.790879
-1.74886 57.2811 87.6923 0.198539 -0.52505 -0.82759
-2.32967 58.3618 86.9133 0.20113 -0.478014 -0.854963
-1.01413 59.5818 86.5108 0.193816 -0.492021 -0.848735
0.0499254 60.415 86.2325 0.15247 -0.488866 -0.858757
1.1251 61.261 85.9332 0.103198 -0.509854 -0.854048
2.259 62.3098 85.4372 0.0613118 -0.532831 -0.843042
3.03502 63.4605 84.7278 0.0299997 -0.531598 -0.846465
3.48693 64.5356 84.0211 -0.0188473 -0.543558 -0.83916
3.66585 65.7026 83.2348 -0.0882949 -0.566808 -0.81868
4.26994 67.119 82.2398 -0.127935 -0.566688 -0.812673
5.78256 66.7686 82.1638 -0.232779 -0.575333 -0.784096
7.43927 66.6135 81.6825 -0.315715 -0.681581 -0.66013
8.02502 65.7477 82.2536 -0.268007 -0.674526 -0.686294
8.48632 64.8265 83.0578 -0.22401 -0.679463 -0.697692
8.89482 63.587 84.1195 -0.181266 -0.68861 -0.702111
8.95322 62.1122 85.4872 -0.0875723 -0.668888 -0.736738
8.70183 60.7816 86.6172 -0.0526184 -0.663022 -0.745788
8.04311 59.594 87.6126 0.0226276 -0.629905 -0.776342
6.41846 58.5063 88.3466 0.0809584 -0.582374 -0.80888
4.75633 58.0982 88.45 0.106537 -0.563955 -0.818905
3.01355 57.6831 88.4636 0.14537 -0.552168 -0.820962
1.14478 57.052 88.5318 0.166325 -0.556949 -0.813722
0.740029 56.9013 88.5522 0.166326 -0.556947 -0.813724
0.986149 55.9317 89.3029 0.168004 -0.599371 -0.782643
-0.768796 55.3343 89.3295 0.205561 -0.590693 -0.780273
-2.2723 54.89 89.2768 0.233091 -0.607947 -0.758992
-3.17532 55.3911 88.6191 0.22295 -0.599796 -0.768465
-2.84354 56.6254 87.7891 0.240153 -0.537442 -0.807106
-4.03992 57.4214 87.0217 0.20632 -0.476236 -0.854767
-5.09317 57.946 86.4773 0.204406 -0.476802 -0.854914
-6.64315 58.0572 86.0468 0.202357 -0.4904 -0.847679
-6.08478 58.3566 85.9997 0.187786 -0.488662 -0.851632
-4.76042 58.7039 86.1342 0.208581 -0.479474 -0.852389
-3.25268 59.4078 86.1015 0.205428 -0.482926 -0.851224
-1.75898 60.2584 85.9564 0.187495 -0.486413 -0.853375
-0.358027 61.441 85.5827 0.185122 -0.490596 -0.851496
0.700529 62.2966 85.2655 0.101012 -0.506614 -0.856236
1.53502 63.3505 84.7043 0.075038 -0.545367 -0.834822
2.10199 64.7142 83.8754 0.0741078 -0.526447 -0.846972
2.25672 66.0948 82.9652 0.0329909 -0.549188 -0.835048
2.36949 67.5263 82.0097 -0.00582595 -0.548058 -0.83642
2.98803 69.1676 80.9315 0.0858019 -0.570474 -0.815846
4.3474 68.1645 81.6448 -0.108235 -0.459346 -0.868003
5.97322 67.6175 81.4636 -0.286007 -0.551411 -0.781282
7.17877 67.6213 80.9142 -0.453547 -0.629632 -0.623438
7.96662 67.8974 79.8813 -0.480608 -0.682879 -0.550174
8.6301 68.2982 78.4359 -0.481873 -0.764139 -0.428824
9.13671 67.622 79.1529 -0.405274 -0.814937 -0.414283
9.10758 66.6719 80.6933 -0.376997 -0.763734 -0.524007
9.22274 65.7942 81.7136 -0.287592 -0.734834 -0.614255
9.58861 64.8885 82.5555 -0.248896 -0.731327 -0.63354
9.99715 63.6251 83.7998 -0.178345 -0.688538 -0.702929
10.2467 62.6625 84.7204 -0.166413 -0.715139 -0.678884
10.2744 61.6656 85.7357 -0.0875684 -0.66889 -0.736736
9.95188 60.536 86.7921 -0.033837 -0.688247 -0.724686
9.38014 59.2828 87.8736 -0.000247555 -0.630445 -0.776234
8.37442 58.2916 88.679 0.0111906 -0.630175 -0.776289
6.66736 57.4378 89.1754 0.0814527 -0.614277 -0.784875
5.33403 57.1298 89.2229 0.117801 -0.588244 -0.800057
3.91537 56.8321 89.2215 0.136072 -0.579322 -0.803629
2.40599 56.231 89.3861 0.144231 -0.579397 -0.802182
1.15532 55.9487 89.3261 0.168001 -0.599374 -0.782641
3.72622 60.0504 86.9971 0.0751606 -0.54798 -0.833108
3.46214 60.1644 86.8915 0.100741 -0.548889 -0.829802
4.47362 61.2672 86.249 0.0620408 -0.56294 -0.824166
5.89933 60.6034 86.8122 0.0464495 -0.56692 -0.822462
6.74079 61.7137 86.041 0.00888021 -0.599814 -0.800091
5.08173 62.5622 85.3769 0.00897918 -0.6049 -0.796251
5.4989 63.9496 84.3638 -0.0815666 -0.632712 -0.770079
6.65729 63.2652 84.7887 -0.10528 -0.637011 -0.763631
6.6704 64.7883 83.5204 -0.142903 -0.628813 -0.764312
5.96439 65.2836 83.2798 -0.165036 -0.611199 -0.77408
