1.39302 59.6448 88.5581 0.188983 -0.494594 -0.848201
2.58148 59.2662 89.0097 0.148422 -0.522537 -0.839599
4.1155 59.6454 89.0204 0.117629 -0.536934 -0.835383
5.1555 59.8636 89.0239 0.100161 -0.54041 -0.83527
6.542 60.3474 88.8512 0.0822172 -0.543989 -0.835043
7.49197 61.2573 88.3064 0.0374366 -0.550699 -0.833864
7.80845 62.0115 87.8173 0.0359785 -0.555379 -0.830819
8.09035 63.0647 87.0449 -0.0358777 -0.598559 -0.800275
8.14841 63.9353 86.4057 -0.0696465 -0.564481 -0.822326
8.03985 64.7356 85.8731 -0.190323 -0.588011 -0.786143
6.96599 65.0416 85.7674 -0.104175 -0.527197 -0.842086
5.95218 64.9853 85.9272 -0.00654752 -0.485814 -0.874038
4.9627 65.0493 85.8845 0.0350394 -0.470114 -0.881705
3.83137 64.8325 85.9344 0.0638692 -0.470977 -0.879739
3.10002 63.8804 86.3748 0.0751476 -0.465659 -0.881768
2.50071 63.0467 86.7893 0.0966102 -0.490965 -0.865589
1.83608 62.3492 87.0882 0.110754 -0.478802 -0.870909
0.969164 61.582 87.3874 0.144322 -0.469724 -0.870715
0.748687 60.6019 87.8776 0.161986 -0.481878 -0.861135
1.32132 59.7561 88.4799 0.17879 -0.487933 -0.854368
0.416016 59.453 88.4611 0.187304 -0.485206 -0.854073
-0.271309 60.3215 87.8317 0.183385 -0.463311 -0.867014
-0.970212 60.8061 87.4263 0.180615 -0.450981 -0.87401
-0.262287 61.786 87.0504 0.175925 -0.463475 -0.868471
0.976253 62.8363 86.6912 0.125843 -0.477515 -0.869565
1.6316 63.5066 86.4179 0.125277 -0.479208 -0.868713
2.1918 64.3755 86.0108 0.110697 -0.48476 -0.867614
2.96405 65.363 85.5576 0.11094 -0.470762 -0.875113
4.233 66.328 85.1822 0.0847731 -0.468701 -0.87928
5.1702 65.9681 85.4238 0.00311983 -0.442634 -0.895256
6.37443 65.8997 85.3589 -0.136653 -0.47402 -0.869161
7.39479 65.9387 85.1519 -0.26861 -0.549364 -0.791
9.11831 65.3611 85.0949 -0.217495 -0.644406 -0.733101
9.23938 64.3514 85.8701 -0.145569 -0.632189 -0.757887
9.21857 63.654 86.5194 -0.0882331 -0.644221 -0.758404
9.11806 62.6752 87.2902 -0.0557742 -0.605319 -0.793721
8.89054 61.8448 87.9072 0.0169114 -0.607107 -0.79444
8.43805 60.7231 88.7424 0.0451818 -0.588637 -0.806678
7.78056 60.0354 89.1787 0.0712283 -0.581978 -0.810079
6.83191 59.4324 89.514 0.0766802 -0.571761 -0.816829
5.94326 59.1218 89.6182 0.105916 -0.571109 -0.814013
4.59335 58.8188 89.6262 0.131713 -0.555795 -0.820819
3.68557 58.614 89.6228 0.136111 -0.531262 -0.835979
2.21909 58.1611 89.6478 0.155154 -0.554738 -0.817431
1.25826 57.8683 89.6248 0.20236 -0.556596 -0.805762
0.753485 58.7331 88.9541 0.190904 -0.517443 -0.833986
0.645656 59.0763 88.7231 0.188983 -0.494594 -0.848201
-0.200126 58.7858 88.668 0.241531 -0.47017 -0.848479
-0.101432 57.8045 89.3086 0.255748 -0.530112 -0.808268
-0.539981 57.0476 89.6849 0.244033 -0.541377 -0.804587
0.208157 56.7102 90.1872 0.267696 -0.57891 -0.770196
1.48944 56.9547 90.314 0.194281 -0.567794 -0.799774
2.49497 57.245 90.3216 0.155413 -0.554538 -0.817518
3.82537 57.6461 90.291 0.136113 -0.551263 -0.823154
5.03265 57.9841 90.2619 0.124279 -0.555943 -0.821843
6.45289 58.3407 90.2293 0.141352 -0.590591 -0.794495
7.91174 58.9738 89.9482 0.100814 -0.60914 -0.786629
8.70099 59.6119 89.5638 0.0739598 -0.576868 -0.813454
9.45705 60.2259 89.1351 0.0373354 -0.605736 -0.794464
9.82553 61.1061 88.4916 0.0180215 -0.601203 -0.798858
10.0957 62.0501 87.7291 -0.0474634 -0.634616 -0.771368
10.3032 62.8594 87.0568 -0.0468233 -0.62896 -0.776026
10.3476 63.8375 86.1766 -0.137478 -0.678192 -0.721911
10.286 64.5554 85.4884 -0.197433 -0.738968 -0.644164
10.2387 65.2596 84.7802 -0.277181 -0.655549 -0.702443
10.201 65.9826 84.112 -0.281771 -0.718503 -0.635892
10.0779 66.6157 83.4512 -0.281788 -0.718454 -0.63594
9.48205 67.6528 82.523 -0.429506 -0.715762 -0.549731
8.97315 67.3099 83.2755 -0.37534 -0.686719 -0.622525
8.24356 66.8894 84.1515 -0.347911 -0.619296 -0.700097
7.12545 66.8215 84.6303 -0.268606 -0.549367 -0.790999
6.16623 66.8452 84.9155 -0.19099 -0.496265 -0.842044
5.25955 66.9343 84.9464 0.00311743 -0.442642 -0.895252
4.56355 67.4783 84.6081 0.0720422 -0.414201 -0.906428
3.49634 68.2551 84.218 0.0616602 -0.378956 -0.923358
2.61318 68.7121 83.8627 0.226946 -0.411151 -0.882865
2.59151 67.7948 84.2838 0.226582 -0.41072 -0.883159
2.69196 66.9676 84.6927 0.07204 -0.414193 -0.906432
2.15647 66.138 85.0549 0.111184 -0.456768 -0.882611
1.72032 65.3143 85.4262 0.110944 -0.470762 -0.875113
0.990676 64.528 85.7598 0.124717 -0.480902 -0.867859
0.45641 63.7438 86.1176 0.125284 -0.479206 -0.868713
-0.33219 63.004 86.3837 0.175745 -0.465502 -0.867422
-1.36986 62.1487 86.6325 0.175834 -0.46449 -0.867946
-2.26357 61.6698 86.6902 0.194845 -0.465536 -0.863314
-3.00455 61.1203 86.8192 0.196669 -0.463523 -0.863979
-3.94426 60.6696 86.8441 0.195418 -0.460726 -0.865755
-4.79328 60.3053 86.8621 0.16757 -0.448448 -0.877961
-4.28087 60.4469 86.8876 0.17994 -0.454195 -0.872417
-3.51615 60.0994 87.2467 0.195272 -0.454329 -0.869121
-2.37224 60.2749 87.4084 0.183231 -0.446668 -0.875689
-1.27519 59.9715 87.7837 0.192534 -0.451643 -0.871002
-0.551414 59.2746 88.3157 0.225211 -0.442954 -0.867609
-0.480578 59.192 88.3784 0.24155 -0.447259 -0.861169
6.82289 61.5612 88.0756 0.0367126 -0.553046 -0.832342
5.46673 60.8473 88.4196 0.0822241 -0.544 -0.835047
4.19747 60.1322 88.7167 0.115834 -0.540075 -0.833608
2.22228 59.841 88.5884 0.146427 -0.508662 -0.848424
3.32625 60.5004 88.3766 0.112635 -0.51463 -0.849982
4.72121 61.2959 88.0611 0.092595 -0.521019 -0.848508
6.17968 62.0745 87.7077 0.0689266 -0.526144 -0.847597
7.47578 62.7062 87.3385 0.034277 -0.554604 -0.831408
7.29928 63.437 86.8365 -0.0730792 -0.578118 -0.812674
5.67666 62.6588 87.3026 0.0337759 -0.529248 -0.847795
4.01803 61.7704 87.693 0.092601 -0.521016 -0.848509
2.34249 60.7921 88.0535 0.125351 -0.515932 -0.847408
1.60075 60.3472 88.1915 0.144392 -0.494647 -0.857016
1.39366 61.1032 87.7203 0.160881 -0.492691 -0.855203
2.58653 61.8142 87.4778 0.110752 -0.478799 -0.870911
3.88055 62.5646 87.2035 0.079237 -0.502257 -0.861081
5.0071 63.1789 86.9454 0.0760037 -0.501392 -0.861875
6.61493 63.958 86.5275 -0.0212927 -0.554229 -0.832092
7.31569 64.2445 86.2672 -0.066212 -0.550842 -0.831979
6.08006 64.5536 86.1662 0.00547137 -0.474944 -0.879999
4.86541 63.9567 86.4549 0.0272657 -0.497439 -0.86707
3.61715 63.2973 86.7497 0.0824648 -0.503124 -0.860271
