4.73079 42.8967 -39.8436 0.27835 0.9464 0.163856
5.1193 42.9935 -41.0743 0.28109 0.947026 0.155181
5.61008 43.0268 -42.2199 0.28163 0.948004 0.148231
6.21148 43.0456 -43.4516 0.29021 0.945686 0.146149
7.06815 42.99 -44.8384 0.281172 0.949404 0.139907
7.97606 42.8984 -45.9948 0.277717 0.949564 0.145604
8.97771 42.7093 -46.7482 0.274672 0.953914 0.120831
10.1229 42.4726 -47.4183 0.259213 0.958949 0.115005
10.735 42.4712 -48.7861 0.25881 0.959014 0.115364
11.9663 42.1738 -49.0714 0.258408 0.95908 0.115721
13.1077 41.8871 -49.2438 0.253032 0.960801 0.11313
14.4118 41.6034 -49.6449 0.243903 0.96315 0.11337
13.2718 41.8776 -49.5366 0.245428 0.963847 0.103618
11.9609 42.2101 -49.3804 0.256986 0.961091 0.101303
10.664 42.5424 -49.2431 0.26091 0.959752 0.103816
9.23484 42.9398 -49.1771 0.272131 0.9569 0.101428
7.60625 43.3567 -48.7416 0.272757 0.95553 0.111626
6.10976 43.775 -48.3851 0.296236 0.946093 0.130968
4.78532 44.115 -47.8459 0.29743 0.945846 0.13003
3.2429 44.5899 -47.6553 0.315016 0.93952 0.134417
1.43414 45.1727 -47.5025 0.324248 0.936791 0.130888
0.173386 45.6178 -47.4598 0.333184 0.933064 0.135571
-0.915126 46.0266 -47.509 0.35416 0.924165 0.143143
-2.06736 46.4757 -47.5523 0.371489 0.917418 0.141536
-3.20911 46.9629 -47.5619 0.387694 0.911239 0.139059
-3.40806 47.2168 -48.6295 0.393167 0.907888 0.145461
-2.15039 46.6669 -48.5736 0.371486 0.91742 0.141534
-0.820831 46.1418 -48.4922 0.356127 0.923408 0.143148
0.747829 45.5602 -48.4881 0.335723 0.93255 0.132817
2.09955 45.0952 -48.5509 0.312772 0.941032 0.128965
3.90937 44.5147 -48.7044 0.31594 0.941131 0.119835
5.56365 44.0548 -49.3142 0.296024 0.949566 0.103417
7.05467 43.6314 -49.6945 0.290605 0.950856 0.106675
8.3267 43.2953 -50.082 0.285102 0.952167 0.109973
9.74804 42.9136 -50.3076 0.268482 0.957657 0.103878
11.1222 42.5406 -50.368 0.264834 0.958414 0.106328
12.4761 42.1891 -50.4881 0.253301 0.961789 0.103827
13.6062 41.9132 -50.6433 0.249617 0.962487 0.10635
15.0078 41.5672 -50.7179 0.240998 0.965241 0.101138
16.5444 41.2028 -50.8196 0.228533 0.968602 0.0978883
17.8264 40.9353 -51.1656 0.226981 0.968804 0.0994667
19.1142 40.6868 -51.6563 0.221155 0.970207 0.0988127
20.632 40.3827 -52.0061 0.216863 0.971412 0.0965897
21.7832 40.0852 -51.5388 0.210307 0.972428 0.100767
21.9159 39.867 -49.775 0.209789 0.971858 0.107092
20.488 40.1311 -49.327 0.215379 0.970643 0.107023
19.1768 40.4148 -49.2199 0.220109 0.969625 0.106679
17.7204 40.7635 -49.3462 0.230153 0.966889 0.110255
16.3365 41.0646 -49.0982 0.231774 0.966633 0.109073
15.1909 41.2892 -48.6315 0.233395 0.966378 0.107892
13.8606 41.5977 -48.4107 0.245781 0.962835 0.111958
12.6951 41.8717 -48.1852 0.247657 0.962521 0.110542
11.6161 42.1063 -47.7295 0.258812 0.959013 0.115367
10.751 42.2411 -46.9034 0.259214 0.958948 0.115007
9.61439 42.449 -46.1094 0.261539 0.95692 0.126102
8.41012 42.6341 -45.0426 0.266095 0.954916 0.131641
7.63654 42.6953 -43.9155 0.266576 0.954892 0.13084
6.78624 42.7165 -42.4696 0.272401 0.950475 0.149339
6.14824 42.6822 -41.0383 0.281088 0.947026 0.155181
5.78947 42.589 -39.8737 0.280551 0.946047 0.162129
5.35921 42.4972 -38.6033 0.278781 0.945284 0.169376
4.89784 42.2587 -36.5509 0.267115 0.949181 0.166448
4.60582 42.1197 -35.4004 0.266625 0.946485 0.181803
4.08206 41.9198 -33.6587 0.260397 0.94643 0.190772
3.77262 41.7594 -32.4378 0.251175 0.947159 0.199483
3.27965 41.5615 -30.893 0.251161 0.945847 0.2056
2.65946 41.3763 -29.3197 0.250351 0.9451 0.210024
2.28002 41.1816 -28.0667 0.233655 0.946894 0.220771
1.73403 40.893 -26.2259 0.227579 0.949229 0.21719
1.45806 40.6815 -25.0816 0.221812 0.947709 0.229449
1.11976 40.4505 -23.8034 0.214565 0.947774 0.235838
0.818264 40.2217 -22.6268 0.207014 0.949669 0.235102
0.524172 39.9889 -21.4276 0.200873 0.94915 0.242231
0.271713 39.7011 -20.1079 0.191825 0.951636 0.239982
0.0897116 39.3897 -18.7273 0.186041 0.951048 0.246614
-0.0972044 39.1084 -17.5084 0.176968 0.953331 0.244628
-0.610961 38.6787 -15.5164 0.166489 0.953356 0.251689
-1.07892 38.4215 -14.2094 0.15934 0.953931 0.25407
-1.44378 38.1026 -12.8313 0.155901 0.952472 0.261711
-1.86983 37.8334 -11.6003 0.141889 0.951998 0.271021
-2.31813 37.4887 -10.1738 0.124087 0.955185 0.268745
-2.56551 37.148 -8.84897 0.123382 0.956591 0.263978
-2.80348 36.8198 -7.57252 0.111404 0.955583 0.272855
-2.92397 36.4388 -6.18893 0.111429 0.955564 0.272913
-2.86231 36.0814 -4.97134 0.0941017 0.954255 0.283798
-2.73678 35.7364 -3.85299 0.0929076 0.955769 0.279012
-2.57471 35.2403 -2.17549 0.0868527 0.956243 0.279296
-2.40064 34.8772 -0.967668 0.0776134 0.95922 0.271798
-2.30102 34.3839 0.759819 0.0691142 0.960174 0.270564
-1.91995 33.8016 2.71889 0.058992 0.96083 0.270776
-1.56798 33.335 4.29556 0.0597518 0.96077 0.270809
-1.24074 32.9692 5.53811 0.0601818 0.961748 0.267243
-0.881032 32.6304 6.67666 0.0602353 0.961738 0.267269
-0.614261 32.2387 8.07022 0.0295063 0.963471 0.266184
-0.451286 31.8822 9.34274 0.0294993 0.963455 0.266242
-0.539764 31.488 10.7788 0.0294924 0.963439 0.2663
-0.54224 31.0968 12.2745 0.01413 0.968037 0.250406
-0.300096 30.7321 13.6784 0.0143662 0.96838 0.249065
-0.117372 30.4416 14.7975 0.00491102 0.967058 0.254277
0.20888 30.0892 16.1845 -0.0156783 0.968845 0.24717
0.541998 29.7858 17.3947 -0.0158377 0.968346 0.2491
1.11942 29.4462 18.752 -0.0200958 0.968274 0.249081
1.65792 29.2007 19.7937 -0.0250492 0.971171 0.237065
2.23909 28.837 21.3124 -0.0353847 0.969601 0.24212
2.5706 28.2889 23.5482 -0.0358111 0.969196 0.243672
2.76789 28.0028 24.8567 -0.0529205 0.974227 0.219275
2.70056 27.6653 26.2053 -0.0771745 0.967843 0.239133
2.73362 27.3712 27.4613 -0.0838414 0.969516 0.230234
2.57593 26.9396 29.2061 -0.0804928 0.969655 0.230824
2.80028 26.6698 30.4349 -0.100436 0.965752 0.238143
3.01446 26.3391 31.8024 -0.122389 0.959254 0.25465
3.56084 26.0869 33.0268 -0.124602 0.95935 0.253221
3.99157 25.8355 34.192 -0.131742 0.960428 0.245178
4.60759 25.6515 35.2969 -0.139006 0.961352 0.237656
5.42054 25.4193 36.6809 -0.100574 0.968515 0.227735
6.16421 25.286 37.7294 -0.112987 0.973587 0.198401
6.95124 25.1878 38.6596 -0.113 0.973587 0.198394
8.40971 25.1208 39.9113 -0.134193 0.970625 0.199528
10.1597 25.1053 40.9816 -0.0976479 0.97724 0.188325
11.1673 25.0727 41.7152 -0.099283 0.978407 0.181255
12.3353 25.031 42.5579 -0.0936807 0.977264 0.190006
13.3254 24.9812 43.2122 -0.0789325 0.976484 0.200619
14.3913 24.9028 44.0132 -0.0783362 0.978144 0.192428
15.3857 24.7063 45.442 -0.0525889 0.982907 0.176433
15.5286 24.4073 47.0924 -0.0891585 0.977299 0.192158
14.4222 23.9758 48.7972 -0.0983449 0.978582 0.180848
13.5946 23.7023 49.6802 -0.134011 0.969561 0.204918
12.7198 23.3287 50.8757 -0.134061 0.97027 0.201472
11.9447 22.9428 52.0799 -0.182781 0.95826 0.219837
11.1805 22.5381 53.2087 -0.182786 0.958244 0.219903
10.5793 22.1399 54.4502 -0.212858 0.951722 0.221171
9.94085 21.7416 55.5497 -0.215849 0.948017 0.233451
9.49221 21.3061 56.8236 -0.218838 0.944313 0.24573
9.02869 20.8965 57.9568 -0.257543 0.929467 0.263706
8.73285 20.4349 59.3193 -0.273538 0.928825 0.249839
8.61291 19.9456 61.0241 -0.27917 0.928028 0.246632
8.98265 19.7632 62.174 -0.279282 0.930635 0.236477
9.5486 19.649 63.2894 -0.282859 0.929233 0.23773
9.79144 19.4026 64.549 -0.283375 0.929416 0.236401
8.74312 18.8934 65.2643 -0.295178 0.922158 0.249989
7.64419 18.3115 66.1135 -0.296773 0.924105 0.24054
6.41826 17.6796 66.8989 -0.323622 0.913033 0.248273
4.87571 16.8142 67.9875 -0.341185 0.904013 0.257591
3.68074 16.2138 68.5455 -0.342002 0.910118 0.233923
2.25396 15.558 68.8503 -0.368011 0.898936 0.237661
1.17026 15.0733 69.0056 -0.36801 0.898936 0.237661
-0.14322 14.4087 69.3801 -0.384259 0.890184 0.24478
-1.21595 13.8507 69.711 -0.39606 0.886877 0.237811
-2.68785 13.1167 70.0255 -0.393563 0.889213 0.233256
-3.77797 12.4945 70.4981 -0.406907 0.884721 0.227308
-4.73324 11.8714 71.2426 -0.404304 0.886897 0.223501
-6.14957 11.1896 71.3599 -0.410111 0.884273 0.223317
-7.30871 10.7548 70.9529 -0.408314 0.885936 0.219954
-8.28605 10.4732 70.2944 -0.403293 0.887844 0.221487
-9.74249 10.0309 69.4178 -0.400781 0.890114 0.216959
-10.7481 9.69764 68.9163 -0.406981 0.883222 0.232994
-11.7887 9.38891 68.269 -0.407306 0.883059 0.233044
-13.0428 8.92102 67.919 -0.393856 0.886245 0.243818
-14.3013 8.40556 67.7595 -0.389638 0.888507 0.242305
-15.6496 7.89805 67.4816 -0.384634 0.891008 0.241168
-17.1905 7.3616 67.006 -0.382595 0.888435 0.253274
-18.3379 7.07058 66.3129 -0.372516 0.896 0.241692
-19.3678 6.92824 65.2722 -0.380306 0.881946 0.278043
-20.5154 6.87497 64.0118 -0.362868 0.884072 0.294523
-21.5855 6.8086 62.8921 -0.363638 0.883542 0.295162
-22.8668 6.62214 62.0599 -0.336818 0.882019 0.329538
-24.0023 6.413 61.4591 -0.336818 0.882019 0.329539
-25.1175 6.11794 61.0859 -0.337747 0.879754 0.334603
-26.5704 5.75906 60.6713 -0.288425 0.894864 0.34058
-27.7723 5.49889 60.3234 -0.292671 0.892255 0.343838
-28.2389 5.90331 58.9906 -0.256439 0.897245 0.35943
-27.7647 6.47666 57.9715 -0.289708 0.882412 0.370653
-27.1979 7.07291 56.9753 -0.292415 0.883022 0.367075
-26.2943 7.83161 55.9022 -0.294905 0.878038 0.376936
-25.4109 8.59557 54.8492 -0.300848 0.872682 0.384599
-24.5496 9.32634 53.8318 -0.291892 0.873478 0.3896
-23.9128 9.94285 52.9486 -0.294766 0.870175 0.394853
-23.1567 10.5626 52.1493 -0.298689 0.870424 0.391309
-22.4205 11.1635 51.3607 -0.294839 0.872357 0.389953
-21.5424 11.7705 50.6668 -0.294844 0.872348 0.389968
-20.6511 12.4301 49.8924 -0.319054 0.865299 0.386604
-19.3701 13.1232 49.3983 -0.320201 0.863826 0.388931
-18.3027 13.6758 49.0458 -0.318003 0.864226 0.389856
-16.5519 14.4961 48.6834 -0.328318 0.859043 0.39275
-15.3979 15.0546 48.4268 -0.325023 0.861262 0.390593
-14.2161 15.6418 48.1345 -0.333804 0.860397 0.385087
-13.3019 16.2161 47.6437 -0.333883 0.860261 0.385322
-12.3216 16.9231 46.9209 -0.346581 0.859033 0.376756
-11.4892 17.535 46.2913 -0.335582 0.865667 0.371228
-10.4933 18.2311 45.515 -0.324585 0.8723 0.365701
-9.59177 18.8623 44.8132 -0.324642 0.871417 0.367751
-8.79322 19.4235 44.1249 -0.310858 0.880724 0.357296
-8.11602 19.9855 43.3372 -0.3124 0.883522 0.348881
-7.34698 20.5603 42.5395 -0.308584 0.887547 0.342105
-6.47448 21.2344 41.5217 -0.281127 0.90348 0.323552
-5.76972 21.7938 40.5638 -0.280855 0.904302 0.321494
-5.12313 22.3262 39.614 -0.257026 0.914528 0.312308
-4.44681 22.8431 38.632 -0.255652 0.916873 0.306571
-3.77127 23.3295 37.7407 -0.243278 0.921388 0.302773
-3.00736 23.8339 36.7653 -0.230804 0.926207 0.298112
-2.24338 24.3446 35.7701 -0.214416 0.931283 0.293984
-1.48564 24.7431 34.9515 -0.183395 0.939814 0.287888
-0.307742 25.3122 33.8441 -0.169526 0.942975 0.28613
0.0892054 25.7259 32.5841 -0.147601 0.95257 0.266129
0.0549553 26.0659 31.348 -0.147386 0.952037 0.268139
-0.182891 26.3885 30.0824 -0.147174 0.951504 0.270149
-0.367269 26.6916 28.8772 -0.113999 0.962689 0.24533
-1.07099 26.9833 27.5462 -0.103134 0.95795 0.26776
-1.53739 27.2761 26.3188 -0.103153 0.957954 0.267737
-2.10141 27.5274 25.2544 -0.0973175 0.955479 0.278547
-3.06363 27.8374 23.8705 -0.087168 0.954629 0.284712
-3.94279 28.0699 22.8073 -0.0920702 0.954162 0.284778
-5.05699 28.3822 21.4337 -0.0848633 0.956358 0.279385
-6.18953 28.653 20.2447 -0.0834332 0.95043 0.299534
-7.03843 28.8558 19.365 -0.0833824 0.950419 0.299584
-8.00697 29.1158 18.3664 -0.0693758 0.946374 0.315536
-8.956 29.2954 17.619 -0.0694136 0.94637 0.315541
-9.82948 29.5205 16.7452 -0.0724676 0.945909 0.316236
-11.2461 29.9537 15.183 -0.0696311 0.940767 0.331701
-12.1007 30.2775 14.0896 -0.0651121 0.937581 0.341617
-13.2528 30.8678 12.2456 -0.0466455 0.941315 0.334225
-13.7764 31.3748 10.7757 -0.0417886 0.941049 0.335657
-14.1686 31.7746 9.61005 -0.0247278 0.938871 0.34338
-14.4541 32.1793 8.48296 -0.0247277 0.938871 0.343379
-14.6274 32.6951 7.03898 -0.0208786 0.93985 0.34095
-14.658 33.2959 5.38087 -0.0151221 0.939131 0.34317
-14.8203 33.8347 3.89452 0.00945096 0.940617 0.339338
-15.07 34.341 2.49811 0.0125835 0.938514 0.344947
-15.6535 34.7122 1.53273 0.0172369 0.937868 0.346533
-16.2595 35.1599 0.337943 0.0241815 0.937555 0.34692
-17.0514 35.6715 -0.957823 0.0297186 0.936158 0.350321
-17.6586 36.1249 -2.10977 0.0334275 0.935154 0.35266
-18.7052 36.7447 -3.62674 0.0323155 0.929933 0.366306
-19.4428 37.1022 -4.47119 0.047982 0.930509 0.363062
-20.2097 37.5228 -5.43166 0.0369252 0.926305 0.374962
-20.9609 37.9238 -6.34854 0.0369595 0.926301 0.374966
-22.0678 38.3155 -7.14377 0.0520146 0.921388 0.385147
-23.0614 38.6349 -7.77362 0.0579918 0.918554 0.39092
-24.0385 38.9419 -8.32832 0.0522731 0.91599 0.397782
-25.0689 39.279 -8.96368 0.065032 0.909976 0.409529
-26.8491 39.901 -10.0631 0.064867 0.909541 0.410519
-27.8461 40.3755 -10.9156 0.0666428 0.902781 0.424906
-28.7031 40.849 -11.7874 0.0728679 0.898072 0.433614
-29.4935 41.2851 -12.5327 0.0653899 0.893989 0.443291
-30.5287 41.9944 -13.7852 0.0759262 0.88774 0.454042
-31.2656 42.7346 -15.0974 0.0800159 0.882893 0.462653
-31.1759 43.4061 -16.3815 0.0846031 0.877018 0.472892
-30.9546 44.0369 -17.5697 0.0934429 0.875351 0.474245
-30.6577 44.8909 -19.1795 0.108764 0.860021 0.498533
-30.473 45.5874 -20.4213 0.113475 0.862261 0.493535
-30.6665 46.4452 -21.81 0.134995 0.8462 0.515483
-30.8753 47.071 -22.8021 0.116184 0.836548 0.53473
-31.3848 48.0127 -24.0929 0.134693 0.826468 0.546634
-31.7885 48.714 -24.978 0.162869 0.786301 0.59599
-32.2922 49.5606 -25.9574 0.12808 0.792161 0.595677
-32.7983 50.6947 -27.2364 0.127216 0.754487 0.643867
-33.0413 51.5293 -28.1664 0.139252 0.709922 0.687451
-33.3788 52.8424 -29.2916 0.11782 0.680806 0.721928
-33.4463 54.0489 -30.2974 0.0689382 0.608314 0.790697
-33.4099 55.0762 -31.0909 0.0788866 0.595744 0.799086
-33.3511 56.4344 -31.9427 0.0215832 0.449587 0.892976
-33.3743 58.2069 -32.8345 0.0215581 0.449604 0.892968
-33.7566 59.5731 -33.3131 -0.0668829 0.244586 0.94967
-34.1159 61.0571 -34.0306 -0.0923085 0.353004 0.931057
-34.3948 62.0922 -34.6245 -0.364713 0.386041 0.844342
-34.8029 63.0694 -35.1651 -0.380785 0.320768 0.867243
-35.2082 63.5765 -35.8307 -0.55947 0.5214 0.64431
-35.9064 63.8329 -36.6761 -0.545182 0.573213 0.611722
-37.0579 63.5709 -37.6753 -0.580515 0.676318 0.451433
-38.0731 63.2409 -38.3182 -0.490317 0.727567 0.479828
-39.0993 63.1661 -39.2536 -0.490317 0.727568 0.479827
-39.696 63.3333 -40.3136 -0.526572 0.747477 0.404969
-40.015 63.7004 -41.442 -0.491339 0.812325 0.310483
-39.9478 64.1727 -42.557 -0.449873 0.831785 0.325189
-40.0464 64.5777 -43.7295 -0.4584 0.83484 0.303936
-39.8295 64.9239 -44.8162 -0.431752 0.887251 0.161911
-39.3777 65.3661 -45.98 -0.436819 0.890955 0.11301
-38.6254 65.8509 -47.592 -0.41252 0.906436 0.0905636
-37.5223 66.2535 -49.189 -0.364655 0.929352 -0.0497367
-36.4232 66.5986 -49.9936 -0.345375 0.935847 -0.0700509
-35.3191 67.0182 -49.8321 -0.30705 0.945039 -0.100657
-35.5438 67.0257 -48.8326 -0.41219 0.904979 -0.105411
-35.8292 67.0443 -47.4819 -0.435966 0.897376 -0.0492695
-36.0646 66.9387 -46.2118 -0.462688 0.88644 -0.0119919
-36.3099 66.8304 -45.0518 -0.511581 0.855191 0.0732791
-36.4277 66.5417 -43.3578 -0.50253 0.858078 0.101174
-36.1075 66.446 -41.8501 -0.568838 0.801046 0.18637
-35.9163 66.2167 -40.5251 -0.57756 0.754481 0.303572
-35.6284 65.8402 -39.2626 -0.647104 0.70369 0.287338
-35.2422 65.4299 -37.9637 -0.65453 0.613821 0.441376
-35.4998 64.565 -36.9998 -0.57788 0.621663 0.516895
-34.7192 64.6886 -36.4002 -0.605545 0.54712 0.575251
-34.0556 64.3831 -35.4679 -0.566053 0.38127 0.730902
-33.2562 63.7926 -34.8506 -0.290054 0.1925 0.93745
-32.0577 63.3113 -34.5663 -0.0177944 0.192998 0.978464
-30.9378 62.7533 -34.5195 0.310383 0.070544 0.937545
-29.0471 62.3023 -35.0559 0.452747 0.0146024 0.861268
-27.8743 62.4913 -36.1082 0.639699 0.1312 0.757345
-27.1223 62.7105 -37.2018 0.788688 0.335985 0.514864
-26.3621 62.8468 -38.3068 0.726176 0.460322 0.507288
-25.6112 62.7268 -39.3474 0.726716 0.503006 0.467835
-25.0086 62.7891 -40.3865 0.737887 0.518301 0.432268
-24.2956 62.6115 -41.406 0.741756 0.516179 0.428203
-23.5776 62.3079 -42.4179 0.793276 0.48824 0.361897
-22.9044 62.2085 -44.0894 0.821203 0.507347 0.258541
-22.3925 62.1161 -45.6707 0.804273 0.56036 0.197841
-22.2961 62.299 -46.9235 0.820395 0.565493 0.0846754
-22.5008 62.6197 -48.037 0.772613 0.634751 -0.012665
-22.8723 62.9721 -49.6148 0.733351 0.678779 -0.0381449
-23.4142 63.4098 -50.7645 0.68787 0.717839 -0.107432
-23.9683 63.734 -51.8584 0.636864 0.760856 -0.124511
-24.7731 64.1821 -52.8414 0.589611 0.791891 -0.158958
-25.5379 64.5412 -53.6866 0.557978 0.810345 -0.178891
-26.459 64.8603 -54.8486 0.553244 0.794234 -0.251224
-27.4974 65.212 -55.637 0.441207 0.829164 -0.343254
-28.9389 65.7247 -55.9007 0.340409 0.866432 -0.365095
-29.7146 65.4919 -57.0135 0.218539 0.904782 -0.365226
-28.7663 64.7572 -58.2469 0.318866 0.899392 -0.29903
-27.4955 64.062 -58.9125 0.337926 0.889123 -0.308652
-26.0156 63.3162 -59.1584 0.418351 0.868167 -0.266961
-24.9645 62.7724 -59.2261 0.468833 0.836882 -0.281911
-23.9468 62.1989 -59.1751 0.532342 0.798706 -0.273959
-22.8326 61.4527 -58.8951 0.587095 0.765391 -0.263168
-21.7437 60.7132 -58.5245 0.601409 0.758811 -0.250025
-20.4715 59.7059 -57.9161 0.707467 0.674648 -0.185165
-19.6386 59.0356 -57.422 0.67556 0.728265 -0.114067
-18.7323 58.2438 -56.7568 0.69237 0.720781 -0.0331389
-17.8531 57.4207 -56.29 0.698415 0.7151 -0.0273089
-16.6848 56.3317 -55.8286 0.649137 0.760625 0.00843161
-15.5511 55.3582 -55.2946 0.651713 0.758381 0.0105846
-14.6869 54.6049 -54.9671 0.654289 0.756138 0.0127381
-13.6866 53.787 -54.3373 0.598547 0.799131 0.0559506
-12.6069 52.9501 -53.703 0.592086 0.804298 0.050381
-11.087 51.806 -52.6452 0.53507 0.837552 0.110485
-10.2056 51.1494 -51.9358 0.53699 0.836045 0.112515
-9.28539 50.4895 -51.2149 0.480368 0.868821 0.119989
-8.23439 49.766 -50.1819 0.482576 0.86729 0.122123
-7.03325 49.0422 -49.521 0.434294 0.890157 0.137872
-5.76977 48.3324 -48.918 0.431982 0.891692 0.135135
-4.73674 47.7986 -48.6698 0.411417 0.900559 0.138928
-4.28858 47.6046 -48.6702 0.393166 0.907889 0.14546
-3.7113 47.5157 -49.7338 0.39974 0.908687 0.1204
-4.90974 48.0372 -49.6912 0.396452 0.908288 0.13293
-6.10036 48.6933 -50.2338 0.441469 0.889842 0.115266
-7.21914 49.3154 -50.7513 0.441466 0.889847 0.115238
-8.19404 49.9271 -51.5217 0.482488 0.867984 0.117513
-9.43642 50.7637 -52.5999 0.482452 0.867984 0.117661
-10.264 51.3504 -53.3437 0.544093 0.83567 0.0749576
-11.0473 51.9191 -53.9974 0.544076 0.835685 0.0749104
-11.8704 52.5051 -54.6494 0.539585 0.839071 0.0693328
-12.7533 53.1419 -55.0431 0.592095 0.80429 0.0504011
-13.9153 54.0551 -55.7219 0.598475 0.799187 0.0559204
-15.0449 54.9358 -56.2191 0.626382 0.777663 0.0343298
-15.9617 55.7197 -56.7002 0.654656 0.755646 -0.0206165
-17.0932 56.6888 -57.107 0.654656 0.755646 -0.0206133
-18.1869 57.6204 -57.6172 0.686397 0.719098 -0.108432
-19.0581 58.3593 -58.2319 0.686473 0.71904 -0.108331
-20.0662 59.2121 -58.7075 0.664648 0.737489 -0.119806
-21.0221 59.9597 -59.2112 0.617592 0.764223 -0.181663
-22.3585 60.8274 -59.8316 0.604266 0.769284 -0.20752
-23.4544 61.5229 -60.1184 0.543965 0.808357 -0.225081
-24.9076 62.3417 -60.3717 0.454752 0.840855 -0.293535
-26.1342 63.0154 -60.2555 0.418729 0.862605 -0.283859
-27.2784 63.5821 -60.0843 0.340233 0.891969 -0.297708
-28.6948 64.2671 -59.6404 0.338638 0.892839 -0.296922
-29.7518 64.8064 -58.8695 0.201934 0.925196 -0.320307
-30.669 65.3739 -57.826 0.159046 0.916752 -0.362929
-31.5173 65.8328 -56.8823 0.11821 0.921482 -0.369428
-32.2107 66.1973 -55.8829 -0.0311849 0.961033 -0.274669
-32.866 66.4217 -54.9924 -0.0895695 0.973907 -0.208526
-33.9646 66.5391 -54.0291 -0.0858659 0.9721 -0.218284
-35.0353 66.5822 -53.0413 -0.144062 0.97088 -0.191413
-35.8191 66.5454 -52.114 -0.256124 0.950675 -0.17498
-37.2462 66.2156 -51.053 -0.3199 0.945136 -0.0594469
-38.2672 65.9601 -49.8898 -0.319195 0.946644 -0.0169162
-38.985 65.6907 -48.7955 -0.356755 0.933938 -0.0220332
-39.9974 65.1971 -47.2992 -0.412549 0.906414 0.0906486
-40.4965 64.8257 -46.0179 -0.423386 0.892909 0.153158
-40.8797 64.4488 -44.9235 -0.420458 0.892925 0.160931
-41.1728 63.9577 -43.7521 -0.466928 0.837895 0.282684
-41.0443 63.527 -42.4224 -0.449805 0.831851 0.325116
-40.8668 63.132 -41.2473 -0.467982 0.813456 0.345372
-40.4564 62.5488 -39.7726 -0.439999 0.785867 0.434528
-39.756 62.4071 -38.7737 -0.492543 0.722823 0.484642
-38.5079 62.5427 -37.7109 -0.494771 0.718078 0.489454
-37.4973 62.868 -37.1666 -0.45684 0.677994 0.567838
-36.6345 62.7421 -36.3694 -0.546579 0.525078 0.652338
-35.7097 62.5067 -35.4005 -0.533501 0.510948 0.672838
-35.3671 61.2262 -34.5613 -0.348641 0.451314 0.821441
-34.9212 60.0663 -33.7348 -0.220477 0.402157 0.876249
-34.6832 58.73 -33.0907 0.00998152 0.462204 0.886717
-34.3804 57.5965 -32.5033 0.0106224 0.461493 0.887079
-34.5066 56.2678 -31.8309 0.0552176 0.516407 0.850205
-34.5025 55.1419 -31.0181 0.0888363 0.583177 0.807473
-34.4928 54.073 -30.2246 0.0845941 0.624157 0.776252
-34.4441 53.0737 -29.3916 0.0923006 0.668127 0.737314
-34.182 51.7737 -28.1528 0.117819 0.680806 0.721928
-33.9826 50.9798 -27.3378 0.12439 0.752883 0.646293
-33.5835 50.1935 -26.4987 0.124349 0.752856 0.646333
-33.2014 49.381 -25.5741 0.0933179 0.798004 0.595383
-32.5234 48.2808 -24.2057 0.128082 0.79216 0.595679
-32.1084 47.5231 -23.1887 0.127374 0.821978 0.555093
-31.8339 46.7996 -22.1576 0.10495 0.851127 0.514362
-31.5561 46.1535 -21.1453 0.103224 0.850128 0.516351
-31.5356 45.4531 -19.975 0.0922867 0.863566 0.495719
-31.7349 44.7234 -18.6667 0.0922679 0.863606 0.495653
-32.1131 44.0959 -17.4746 0.0849218 0.87319 0.479922
-32.3335 43.5494 -16.4402 0.084604 0.877019 0.47289
-32.3844 42.8044 -15.031 0.0664924 0.878551 0.472999
-31.8688 42.1225 -13.8158 0.059958 0.886313 0.459189
-30.8914 41.4659 -12.6911 0.0706582 0.890865 0.448666
-30.0448 40.891 -11.6599 0.0615407 0.891211 0.449395
-29.2051 40.4382 -10.8528 0.0588836 0.898374 0.435267
-28.234 39.9422 -9.96033 0.0588516 0.898375 0.435269
-27.333 39.5516 -9.24999 0.0544561 0.904846 0.422241
-25.9184 39.06 -8.34201 0.0554427 0.908346 0.414387
-24.9436 38.7181 -7.69405 0.049238 0.914064 0.402526
-23.8442 38.3987 -7.10332 0.0461982 0.912178 0.407183
-22.4617 37.9724 -6.27849 0.0510692 0.919478 0.38981
-21.6584 37.5897 -5.45005 0.0430036 0.925225 0.376974
-20.4923 37.0784 -4.30599 0.0364657 0.928 0.370763
-19.7904 36.648 -3.28546 0.0342001 0.929691 0.366743
-19.0154 36.2908 -2.44702 0.0289141 0.93254 0.359827
-18.4237 35.8838 -1.4135 0.025614 0.935071 0.353534
-17.7782 35.4192 -0.238319 0.0166516 0.9346 0.355309
-17.0231 34.9014 1.08897 0.0158427 0.933934 0.357089
-16.4602 34.4151 2.36243 0.0157191 0.93641 0.350557
-15.8984 33.7487 4.16293 0.00873254 0.940372 0.340034
-15.6508 33.3607 5.18495 -0.00877617 0.933935 0.357335
-15.8438 32.7279 6.8918 -0.00936573 0.938412 0.34539
-15.5778 32.2925 8.09244 -0.023717 0.94002 0.340275
-15.3477 31.8538 9.29832 -0.0473742 0.934562 0.352632
-14.9086 31.3966 10.5691 -0.0474391 0.934145 0.353725
-14.421 30.8043 12.2399 -0.0611175 0.935929 0.346846
-13.8654 30.4426 13.3134 -0.0644545 0.935959 0.34616
-13.1832 30.0585 14.4838 -0.0650353 0.93741 0.342102
-12.5181 29.7722 15.3949 -0.0717318 0.938364 0.338033
-11.6551 29.5486 16.2266 -0.0783209 0.939973 0.33214
-10.7971 29.3071 17.1175 -0.0829685 0.94001 0.330905
-9.97142 29.0718 18.0006 -0.0889001 0.944271 0.316938
-8.97818 28.9006 18.7894 -0.0888684 0.94428 0.316919
-8.05167 28.5479 20.0598 -0.0763542 0.948391 0.307586
-7.01722 28.3705 20.9105 -0.0842138 0.949231 0.303073
-6.05941 28.2222 21.6344 -0.0850056 0.947955 0.306848
-5.23084 27.9049 22.9349 -0.104375 0.95016 0.293772
-4.33133 27.7075 23.8885 -0.0966328 0.95187 0.290872
-3.49223 27.5287 24.7575 -0.101469 0.955176 0.278105
-2.92553 27.2839 25.8019 -0.0973171 0.955479 0.278548
-2.44793 27.0054 26.9367 -0.103155 0.957956 0.267731
-1.92284 26.7783 27.9508 -0.125293 0.946619 0.297008
-1.31411 26.5437 28.9553 -0.12527 0.946621 0.297011
-1.27668 26.1766 30.241 -0.136537 0.95222 0.273194
-1.07435 25.8718 31.4164 -0.147387 0.952037 0.268139
-0.992909 25.4941 32.7969 -0.16644 0.94737 0.273475
-2.34637 24.8103 34.2431 -0.172604 0.938576 0.298803
-3.3287 24.2477 35.3161 -0.209966 0.928398 0.30658
-3.9433 23.7373 36.4126 -0.211204 0.925842 0.313383
-4.66132 23.2295 37.3819 -0.228989 0.920217 0.317433
-5.52794 22.6399 38.4258 -0.230489 0.916502 0.326955
-6.30041 22.027 39.5067 -0.259801 0.903156 0.341778
-6.94016 21.4944 40.4278 -0.259806 0.903182 0.341707
-7.60196 20.9318 41.3678 -0.290227 0.887377 0.358232
-8.62409 20.1708 42.4278 -0.290348 0.887699 0.357334
-9.76183 19.325 43.5423 -0.305484 0.881956 0.358933
-10.8094 18.6123 44.3307 -0.324657 0.871405 0.367765
-11.6713 18.0007 45.0191 -0.32462 0.871852 0.366734
-12.5292 17.3761 45.697 -0.33884 0.860848 0.379548
-13.6688 16.515 46.653 -0.331064 0.862677 0.382342
-15.1682 15.5859 47.4342 -0.327791 0.862073 0.386449
-16.705 14.8659 47.748 -0.32827 0.858775 0.393376
-18.165 14.2255 47.9429 -0.318514 0.862409 0.393433
-19.2472 13.6706 48.2918 -0.316972 0.864013 0.391166
-20.5265 13.0574 48.5936 -0.321348 0.862352 0.391259
-21.5086 12.4949 49.0539 -0.293256 0.874424 0.386502
-22.3678 11.8214 49.9274 -0.292541 0.874796 0.386201
-23.3868 11.0878 50.7993 -0.294776 0.872376 0.389957
-23.975 10.48 51.7224 -0.293475 0.869617 0.397037
-25.142 9.63698 52.7067 -0.293422 0.869655 0.396993
-26.2792 8.62855 54.0952 -0.300848 0.872682 0.384599
-27.0324 8.00502 54.9208 -0.297876 0.87536 0.380768
-27.7133 7.30977 56.0272 -0.256769 0.890124 0.376496
-28.4861 6.59118 57.1549 -0.261543 0.883652 0.388271
-29.2406 5.94208 58.1793 -0.256242 0.897242 0.359579
-29.562 5.36256 59.3965 -0.256481 0.896117 0.362191
-29.0335 4.91829 60.8775 -0.248763 0.900239 0.357333
-27.9496 5.07016 61.2997 -0.290779 0.898483 0.328901
-26.8045 5.33435 61.5904 -0.290803 0.898471 0.328913
-25.3562 5.69963 61.9716 -0.311409 0.906029 0.286593
-24.2029 6.0049 62.3464 -0.343771 0.879829 0.328127
-22.9574 6.19056 63.1584 -0.340971 0.889888 0.303047
-21.9073 6.39621 63.7361 -0.341113 0.889866 0.302952
-20.6329 6.40599 65.271 -0.3646 0.888019 0.279694
-19.7814 6.52409 66.0764 -0.391231 0.887429 0.243736
-18.9837 6.60154 67.0563 -0.372679 0.89592 0.241738
-18.0059 6.7889 67.8712 -0.375322 0.895717 0.238381
-16.9405 7.14687 68.2036 -0.375272 0.895734 0.238394
-15.7599 7.54456 68.6116 -0.384601 0.891016 0.24119
-14.3942 8.07433 68.8362 -0.385362 0.890796 0.24079
-12.9941 8.65116 68.9784 -0.393846 0.886247 0.243827
-11.9255 9.05402 69.2982 -0.407679 0.882875 0.233088
-10.7371 9.40624 70.0402 -0.412864 0.882569 0.22475
-9.68899 9.79783 70.4729 -0.409796 0.886013 0.216672
-8.55572 10.1296 71.2056 -0.400932 0.890063 0.216891
-7.62297 10.3696 71.9461 -0.400982 0.890088 0.216695
-6.34027 10.83 72.4622 -0.406519 0.887599 0.216589
-5.23578 11.3166 72.5462 -0.406097 0.889048 0.211334
-3.65082 12.1987 71.9111 -0.406799 0.886853 0.219103
-2.8174 12.7747 71.1152 -0.397357 0.889139 0.227023
-1.38605 13.5159 70.7172 -0.397359 0.889155 0.226958
-0.286301 14.0619 70.442 -0.379257 0.897162 0.226416
1.19994 14.7412 70.2797 -0.384276 0.890176 0.244784
2.25162 15.2357 70.0655 -0.367638 0.899018 0.237926
3.77193 15.9395 69.7012 -0.358022 0.901263 0.244018
4.99495 16.536 69.213 -0.34192 0.910171 0.233837
6.0394 17.1336 68.4142 -0.338912 0.910841 0.235575
6.96631 17.6382 67.7666 -0.324019 0.912956 0.248039
7.85585 18.1159 67.1703 -0.311196 0.919502 0.239569
9.03074 18.6968 66.3597 -0.298369 0.926052 0.231094
9.91775 19.1456 65.7109 -0.273242 0.932451 0.236139
11.5109 19.7119 65.1976 -0.250838 0.935533 0.248712
11.3535 19.8469 64.5308 -0.256972 0.935511 0.242294
10.586 19.9651 63.2229 -0.266223 0.931939 0.246201
9.99531 20.0557 62.2189 -0.279282 0.930634 0.236477
9.72811 20.2775 61.0378 -0.279184 0.928046 0.24655
9.61267 20.5659 59.8221 -0.279159 0.92801 0.246712
9.74 20.9621 58.4148 -0.23358 0.946503 0.222649
10.3239 21.3552 57.3999 -0.234701 0.943926 0.232204
10.9974 21.9065 55.8568 -0.215849 0.948017 0.233451
11.7504 22.3491 54.5384 -0.181637 0.959836 0.21383
12.3717 22.684 53.5628 -0.182197 0.959061 0.216789
13.0427 23.0134 52.6401 -0.134027 0.970992 0.19802
13.6067 23.2954 51.6399 -0.134128 0.97097 0.198058
14.4292 23.6555 50.4475 -0.117953 0.973002 0.197562
15.2268 23.9263 49.4877 -0.111514 0.976087 0.186598
16.1844 24.3064 47.9937 -0.107346 0.978166 0.177953
16.6876 24.5357 46.8201 -0.0697513 0.984498 0.160928
16.7619 24.7348 45.6938 -0.052579 0.982906 0.176439
16.2432 24.9115 44.5545 -0.0525143 0.982951 0.176209
15.3688 25.0264 43.5849 -0.0471838 0.986189 0.158759
14.472 25.1487 42.6912 -0.0464387 0.983611 0.17385
13.21 25.187 42.061 -0.0576764 0.982825 0.175297
12.0322 25.2646 41.0928 -0.0703259 0.984098 0.16311
10.5869 25.3192 40.0894 -0.0966273 0.977886 0.185477
9.06985 25.3126 39.3346 -0.0970202 0.977904 0.185175
8.08749 25.3843 38.3877 -0.123262 0.973943 0.190371
6.98347 25.5135 37.0797 -0.11369 0.971546 0.207566
6.2406 25.6324 36.1558 -0.114373 0.969508 0.216734
5.49558 25.8558 34.8575 -0.100663 0.968516 0.227693
4.8382 26.0431 33.768 -0.100161 0.969368 0.224261
4.24861 26.411 32.0285 -0.0820911 0.968092 0.236768
3.93965 26.7479 30.5066 -0.0824013 0.970446 0.226813
3.89986 27.0535 29.1893 -0.0804909 0.969655 0.230824
3.86773 27.3686 27.8583 -0.0730549 0.970782 0.22857
3.77259 27.7035 26.4164 -0.0724361 0.970325 0.230702
3.85512 28.0843 24.7478 -0.0445764 0.974397 0.22037
3.75455 28.3382 23.6047 -0.0487504 0.974312 0.219822
3.45616 28.6916 22.0725 -0.0216762 0.97166 0.234865
3.25713 28.9619 20.9092 -0.00799109 0.973714 0.227635
2.731 29.2461 19.6917 -0.0106735 0.972606 0.232196
2.12675 29.5066 18.5718 -0.00798341 0.969701 0.244164
1.51402 29.8215 17.2856 -0.00303861 0.972538 0.232725
1.14862 30.1729 15.858 0.0031828 0.970966 0.239195
0.728687 30.4954 14.5552 0.00313207 0.970853 0.239655
0.806047 30.9585 12.7342 0.0143694 0.968383 0.249054
0.66237 31.2609 11.5773 0.0138775 0.967698 0.251729
0.706474 31.7607 9.65412 0.0216963 0.965559 0.259051
0.626252 32.0869 8.4375 0.0551728 0.966618 0.250212
0.311098 32.3899 7.33643 0.0549815 0.966527 0.250604
0.00612642 32.853 5.68041 0.056139 0.962569 0.265159
-0.3431 33.2256 4.4133 0.0597517 0.96077 0.270809
-0.721027 33.589 3.22397 0.057988 0.960474 0.27225
-1.17152 33.9766 1.90701 0.0752465 0.962334 0.261219
-1.31521 34.3385 0.637684 0.0771842 0.960846 0.266114
-1.42219 34.7982 -0.968579 0.0777121 0.959206 0.271818
-1.58566 35.1968 -2.35115 0.0896871 0.957627 0.273692
-1.63523 35.5748 -3.65744 0.0907096 0.957452 0.273965
-1.72976 36.0139 -5.16387 0.110116 0.957098 0.268027
-1.7378 36.3549 -6.37815 0.110118 0.9571 0.268017
-1.61955 36.6777 -7.55845 0.117027 0.956791 0.266039
-1.37307 36.9706 -8.75741 0.122678 0.957998 0.259212
-1.27839 37.3573 -10.1871 0.124087 0.955185 0.268745
-1.03609 37.635 -11.3231 0.141958 0.9567 0.254004
-0.499485 37.8214 -12.3585 0.144329 0.958142 0.247252
-0.0516857 38.0811 -13.5824 0.155871 0.952462 0.261763
0.28436 38.33 -14.7557 0.162835 0.955411 0.246324
0.658332 38.584 -15.9956 0.168661 0.955545 0.241813
0.91712 38.9905 -17.7735 0.17337 0.953984 0.244657
1.07804 39.2561 -18.9722 0.186114 0.953049 0.238872
1.27583 39.514 -20.1556 0.186067 0.953077 0.238796
1.52172 39.7516 -21.3375 0.202434 0.950785 0.234581
1.81926 40.0049 -22.6217 0.202378 0.950825 0.234469
2.34496 40.3019 -24.3675 0.211339 0.952503 0.219257
2.78231 40.5246 -25.7146 0.224513 0.948467 0.223527
3.02798 40.7867 -27.1222 0.227917 0.949327 0.216407
3.40078 41.0143 -28.5106 0.231109 0.95064 0.206779
4.12549 41.2237 -30.348 0.240081 0.948677 0.20585
4.51446 41.3576 -31.4676 0.246954 0.94848 0.198452
4.95754 41.4923 -32.6753 0.253296 0.948112 0.192086
5.20381 41.6834 -33.9803 0.253528 0.949108 0.186861
5.51937 41.8091 -35.0981 0.261397 0.948044 0.181334
5.84861 41.9321 -36.2139 0.267188 0.949207 0.166183
6.24271 42.065 -37.6043 0.267115 0.949179 0.166458
6.43903 42.2375 -38.9031 0.262715 0.952074 0.156633
7.01501 42.322 -40.3918 0.262201 0.952404 0.15549
7.48736 42.3973 -41.6743 0.263174 0.952945 0.150449
8.29489 42.3961 -43.126 0.269277 0.952995 0.138892
8.8893 42.3825 -44.1855 0.267927 0.953943 0.134867
9.91849 42.2316 -45.1178 0.258094 0.957219 0.130843
11.2358 42.011 -46.1505 0.261724 0.956907 0.125819
12.2621 41.8396 -46.9661 0.250844 0.95989 0.125253
13.405 41.5852 -47.2943 0.249976 0.959979 0.126305
14.5311 41.3158 -47.4577 0.232656 0.96494 0.121495
15.8803 41.0104 -47.6254 0.233395 0.966378 0.107892
17.1321 40.7428 -47.9373 0.231774 0.966633 0.109073
18.7189 40.3998 -48.1384 0.220109 0.969625 0.106679
20.1717 40.0855 -48.308 0.217431 0.969199 0.11551
21.389 39.8393 -48.4691 0.211747 0.970322 0.116784
23.2036 39.5719 -49.586 0.204551 0.972944 0.107387
23.2431 39.6929 -50.7433 0.206891 0.972353 0.108281
22.856 39.91 -52.069 0.207451 0.973252 0.0987181
21.4226 40.3318 -53.1659 0.210304 0.97243 0.100762
20.1359 40.5796 -52.8726 0.213585 0.97192 0.0986766
18.8924 40.8315 -52.5492 0.225446 0.969003 0.101036
17.7138 41.0687 -52.1945 0.22544 0.969003 0.101042
16.3991 41.3406 -51.8445 0.228468 0.96862 0.0978667
15.1575 41.6314 -51.6846 0.240758 0.965285 0.101293
13.7522 41.9774 -51.6072 0.250001 0.963921 0.0914118
12.6108 42.2697 -51.568 0.249969 0.963922 0.0914857
10.926 42.7099 -51.4227 0.264944 0.959905 0.0915775
9.35411 43.135 -51.3309 0.264961 0.959895 0.0916345
7.86054 43.551 -51.0877 0.285102 0.952167 0.109973
6.62763 43.8828 -50.7642 0.285127 0.952161 0.109963
5.08622 44.3199 -50.3138 0.309909 0.94387 0.114308
3.90441 44.6403 -49.7551 0.309892 0.943875 0.114315
2.67456 45.0384 -49.5977 0.319105 0.941231 0.11071
0.965221 45.6223 -49.5033 0.332833 0.93483 0.123753
-0.429781 46.1276 -49.4607 0.359413 0.924603 0.126219
-1.6556 46.612 -49.5187 0.361345 0.923524 0.128543
-2.70809 47.0582 -49.6123 0.39974 0.908686 0.120402
-8.83315 18.8299 45.568 -0.327847 0.879639 0.344565
-8.02143 19.4483 44.7496 -0.316216 0.879497 0.355658
-7.25668 20.0768 43.8755 -0.3124 0.883522 0.348881
-6.40095 20.721 42.9639 -0.301752 0.889987 0.34186
-5.63841 21.3116 42.0303 -0.281401 0.902659 0.325609
-4.96506 21.8386 41.1408 -0.269629 0.908242 0.31977
-4.20822 22.4307 40.0576 -0.258401 0.912182 0.318045
-3.44629 23.018 38.9433 -0.255652 0.916873 0.306571
-2.72499 23.5138 37.9779 -0.230905 0.925903 0.298975
-1.87284 24.0715 36.9056 -0.214417 0.931283 0.293984
-1.16339 24.4836 36.0589 -0.196102 0.938706 0.283415
-0.281758 24.9376 35.1344 -0.181722 0.943313 0.277446
0.883572 25.5572 33.6099 -0.146933 0.956392 0.25244
1.13148 25.9475 32.3525 -0.141968 0.952708 0.268688
1.8185 26.2134 31.7118 -0.120174 0.959157 0.256077
2.40312 26.0151 32.7289 -0.122388 0.959254 0.254649
2.83684 25.7645 33.8929 -0.12448 0.959504 0.252699
3.96077 25.3381 36.186 -0.139006 0.961352 0.237655
4.76431 25.1524 37.3939 -0.155034 0.961428 0.226157
5.99108 24.9893 38.9932 -0.13379 0.9678 0.213221
6.96814 24.9255 39.9289 -0.128877 0.970064 0.205833
8.55158 24.9077 41.0849 -0.139511 0.971185 0.193225
10.0751 24.8851 42.1118 -0.102395 0.978186 0.180742
11.138 24.8516 42.8902 -0.0936813 0.977264 0.190006
12.4725 24.7898 43.8082 -0.0850611 0.976193 0.199432
13.3932 24.7272 44.5258 -0.07774 0.979803 0.184237
14.4173 24.4068 46.5791 -0.0891584 0.977299 0.192158
13.4939 23.9904 48.232 -0.0908684 0.976518 0.195336
12.5564 23.6365 49.3286 -0.125464 0.969579 0.21018
11.7921 23.2901 50.4702 -0.14568 0.964398 0.219526
11.0444 22.8862 51.6105 -0.166124 0.958532 0.231559
10.2845 22.4674 52.7989 -0.175946 0.955823 0.235221
9.71839 22.0956 53.8121 -0.200219 0.951297 0.23373
8.93948 21.5853 55.2586 -0.215848 0.948017 0.23345
8.58037 21.1924 56.4202 -0.249139 0.934919 0.252698
8.23109 20.7999 57.5097 -0.265945 0.924016 0.274715
7.72347 20.0572 59.6385 -0.267918 0.929638 0.252967
7.63484 19.6491 61.0158 -0.297281 0.921258 0.250331
8.06879 19.429 62.3964 -0.282343 0.929049 0.23906
8.53797 19.2549 63.6273 -0.282859 0.929232 0.23773
7.51122 18.6248 64.8007 -0.296864 0.921766 0.24943
6.6875 18.1674 65.5059 -0.310984 0.914605 0.257885
5.04596 17.2889 66.547 -0.332402 0.908523 0.252933
4.10082 16.7447 67.205 -0.341183 0.904014 0.257591
3.08468 16.2334 67.6292 -0.360069 0.897538 0.254277
1.88819 15.6787 67.8371 -0.369162 0.89285 0.257948
0.485171 15.0388 68.0751 -0.376151 0.894552 0.241226
-0.975127 14.2722 68.552 -0.389846 0.88886 0.240723
-2.09718 13.6963 68.8251 -0.398556 0.88454 0.242367
-3.61668 12.8812 69.3072 -0.409509 0.882547 0.231114
-4.60741 12.2889 69.8135 -0.406906 0.884722 0.227308
-6.08251 11.5046 70.2355 -0.410111 0.884273 0.223317
-7.7538 10.8946 69.5983 -0.406847 0.885077 0.226082
-8.8467 10.5695 68.9105 -0.405691 0.88563 0.225998
-9.95303 10.2177 68.3318 -0.404145 0.884713 0.232253
-10.9722 9.88458 67.8148 -0.40672 0.883465 0.232527
-11.9859 9.57516 67.2714 -0.361857 0.897059 0.250908
-13.3532 9.05676 66.94 -0.396052 0.882483 0.253707
-14.5801 8.56288 66.7427 -0.388675 0.882842 0.263388
-15.9379 8.07393 66.4244 -0.380556 0.885862 0.26538
-17.1869 7.68525 65.9309 -0.38354 0.884729 0.26484
-18.3237 7.43721 65.0976 -0.386525 0.883597 0.2643
-19.3688 7.34668 64.0085 -0.368477 0.882184 0.293154
-20.4273 7.29612 62.8562 -0.362868 0.884072 0.294523
-21.3359 7.22772 61.9831 -0.345334 0.883041 0.317372
-22.6875 7.05986 61.0615 -0.331114 0.886149 0.324198
-24.0564 6.78068 60.4197 -0.343772 0.879828 0.328128
-25.1395 6.46638 60.1381 -0.34076 0.880071 0.330693
-26.5401 6.1761 59.6135 -0.286946 0.879802 0.378961
-26.5993 6.71219 58.3217 -0.289708 0.882412 0.370652
-25.9478 7.45693 57.0617 -0.296185 0.881081 0.368742
-25.1736 8.00925 56.3653 -0.297877 0.87536 0.380768
-24.4032 8.69785 55.3757 -0.289016 0.876782 0.384348
-23.6445 9.39002 54.3672 -0.29189 0.873478 0.389601
-22.9983 10.0034 53.4994 -0.301098 0.868004 0.394854
-22.3048 10.587 52.7453 -0.298689 0.870424 0.391309
-21.5217 11.2172 51.9249 -0.296281 0.872844 0.387765
-20.5929 11.8941 51.1348 -0.315923 0.865318 0.389121
-19.5791 12.5564 50.4886 -0.316348 0.864758 0.390023
-18.0445 13.3413 49.9978 -0.318063 0.864119 0.390044
-16.98 13.8427 49.7547 -0.32316 0.861634 0.391303
-15.8753 14.3914 49.4781 -0.340124 0.858136 0.384327
-14.392 15.1682 49.0759 -0.342058 0.863027 0.37172
-13.284 15.7797 48.6694 -0.341171 0.864152 0.369924
-11.8279 16.7065 47.8714 -0.34788 0.862655 0.36716
-10.9089 17.3566 47.2321 -0.335583 0.865666 0.371229
-10.0537 17.9443 46.5894 -0.324585 0.8723 0.365702
-8.96911 18.728 45.6957 -0.336758 0.873875 0.350531
-37.2825 66.07 -43.3115 -0.483597 0.855306 0.169493
-36.7456 65.9231 -41.5501 -0.56883 0.801052 0.186368
-36.3539 65.1902 -39.1682 -0.557079 0.715743 0.414532
-37.4741 64.0796 -38.8741 -0.55045 0.682523 0.480799
-38.868 63.9864 -40.4574 -0.514442 0.764043 0.389344
-39.0667 64.7609 -42.5766 -0.532807 0.792864 0.295777
-38.836 65.4132 -44.7616 -0.443074 0.881558 0.162916
-36.9819 66.4614 -45.3912 -0.460018 0.877639 0.129207
-37.2807 66.136 -43.9061 -0.476965 0.873719 0.0954996
-35.6108 67.0874 -43.623 -0.536765 0.838704 0.089901
-35.3299 66.9466 -41.6834 -0.558767 0.808499 0.184686
-34.9269 66.5985 -39.54 -0.647105 0.703692 0.287334
-34.5254 65.948 -37.6078 -0.690172 0.594336 0.412829
-33.3814 65.335 -35.4423 -0.607573 0.449916 0.643735
-31.6097 64.2073 -34.662 -0.183868 0.0823145 0.968931
-29.396 63.4673 -34.8922 0.452751 0.0146005 0.861265
-27.772 63.5659 -36.7649 0.788687 0.335985 0.514865
-26.7053 63.7039 -38.7234 0.728415 0.511137 0.455422
-25.5968 63.6756 -40.4544 0.734218 0.520525 0.435864
-24.4 63.378 -42.1501 0.741954 0.516283 0.427734
-23.5173 63.1713 -43.9073 0.818135 0.493229 0.2956
-22.9519 62.9485 -45.7466 0.85231 0.509569 0.117928
-23.0807 63.3472 -47.6026 0.764291 0.643417 -0.0373675
-23.6955 63.8675 -49.5081 0.71061 0.698309 -0.0727907
-24.7444 64.4314 -51.5665 0.613321 0.77515 -0.147313
-25.9637 64.9766 -53.0477 0.559046 0.80944 -0.179652
-27.383 65.5895 -54.5781 0.497225 0.811698 -0.297242
-29.3486 66.2037 -55.1046 0.31632 0.87661 -0.362624
-30.9109 66.7018 -54.2948 -0.0281656 0.948086 -0.316764
-32.4318 67.1129 -52.5485 -0.124314 0.959293 -0.252664
-33.8148 67.2662 -51.1763 -0.235083 0.933091 -0.271484
-34.5642 67.3784 -49.3075 -0.320847 0.928251 -0.188171
-34.9475 67.4663 -47.2224 -0.409234 0.908316 -0.0865408
-35.4368 67.325 -44.9768 -0.484342 0.873748 -0.00294596
-35.4974 67.268 -44.4861 -0.51158 0.855193 0.073276
-36.9009 66.5366 -46.5653 -0.377045 0.926017 0.0181483
-38.3103 65.8702 -45.89 -0.430564 0.900351 0.063107
-37.3948 66.3558 -47.5993 -0.380463 0.924478 -0.00523111
-37.0619 66.4867 -47.3613 -0.377048 0.926016 0.0181473
20.6348 40.2558 -50.7355 0.217451 0.970646 0.102591
18.5393 40.6927 -50.4301 0.219074 0.969752 0.107636
19.7886 40.4601 -50.8908 0.216863 0.971412 0.0965897
20.0936 40.3987 -50.958 0.216863 0.971412 0.0965897
9.30379 42.7291 -47.6355 0.273388 0.954158 0.121824
8.72764 42.9676 -48.2104 0.273387 0.954158 0.121824
7.85811 43.0045 -46.5191 0.275955 0.95367 0.119839
6.4526 43.6009 -47.9034 0.296236 0.946093 0.130968
5.00129 43.8995 -46.7664 0.298622 0.9456 0.129093
6.68914 43.1455 -45.1322 0.281173 0.949404 0.139907
5.69772 43.22 -43.5601 0.290224 0.945732 0.146156
3.93834 44.0171 -45.2549 0.29768 0.94398 0.142437
2.41991 44.7298 -46.7049 0.315017 0.939519 0.134419
-0.197444 45.6351 -46.6977 0.332653 0.932099 0.143295
1.4924 44.7923 -45.0834 0.320626 0.93665 0.14102
3.23156 43.9597 -43.4287 0.300632 0.940842 0.156319
4.2286 43.4914 -42.4904 0.287931 0.94491 0.155697
3.92493 43.2199 -40.3412 0.28647 0.943376 0.16726
1.95353 44.1615 -42.1792 0.296131 0.941645 0.160038
0.224301 45.0284 -43.8196 0.324399 0.93304 0.155566
-1.57911 45.9757 -45.5368 0.354267 0.924152 0.142963
-3.04606 46.803 -46.9685 0.387695 0.911238 0.13906
-5.9056 48.1327 -47.1303 0.42528 0.891263 0.157439
-4.28178 47.1017 -45.635 0.387993 0.908475 0.155352
-2.70431 46.1877 -44.1464 0.351883 0.920718 0.168694
-0.585114 45.0057 -42.126 0.32719 0.928951 0.173195
1.5303 43.9334 -40.1299 0.308601 0.934959 0.17498
3.17877 43.1431 -38.6298 0.286468 0.943377 0.167262
3.47298 43.0086 -38.3528 0.278783 0.9453 0.169378
2.58458 42.9744 -36.8269 0.271623 0.945066 0.181853
0.422228 44.0203 -38.7355 0.298866 0.937457 0.178476
-1.27988 44.9071 -40.3217 0.326274 0.926692 0.186516
-3.34947 46.0798 -42.3317 0.362325 0.914583 0.179608
-5.00799 47.0779 -43.8353 0.383583 0.902229 0.197099
-6.9072 48.2883 -45.5511 0.433853 0.88383 0.174976
-9.11123 49.8667 -47.6746 0.461971 0.868654 0.178948
-10.6618 51.0746 -49.3066 0.547669 0.828809 0.114608
-12.0646 52.2611 -50.8899 0.57274 0.812451 0.109058
-12.8267 52.8941 -51.7422 0.580519 0.809107 0.0913486
2.45288 42.5783 -34.6144 0.264394 0.944207 0.196392
0.705678 43.4212 -36.1678 0.281843 0.938688 0.198566
-0.549837 44.0306 -37.2667 0.298045 0.932324 0.204795
-1.63154 44.6093 -38.2312 0.312234 0.9289 0.199133
-2.72912 45.1951 -39.2424 0.327803 0.922388 0.204316
-3.89031 45.8725 -40.3844 0.351225 0.914471 0.200957
-5.09661 46.6185 -41.5562 0.360422 0.909334 0.207865
-6.10035 47.2469 -42.4197 0.399738 0.896834 0.189466
-7.02056 47.8234 -43.2071 0.399737 0.896835 0.189467
-7.90462 48.4406 -43.9853 0.427764 0.878175 0.214073
-8.75373 49.0335 -44.7368 0.450173 0.873613 0.184785
-9.7561 49.8365 -45.7545 0.501162 0.84692 0.17766
-10.4931 50.418 -46.4992 0.497001 0.852052 0.164307
-11.5427 51.3415 -47.5998 0.542381 0.818452 0.189631
-12.3269 52.0539 -48.4314 0.545418 0.824224 0.152229
-13.0836 52.7596 -49.3164 0.613707 0.78246 0.105448
-13.8082 53.4426 -50.1672 0.619698 0.77682 0.111915
-14.738 54.3896 -51.4218 0.630546 0.770443 0.0939664
-15.5411 55.2003 -52.5031 0.654561 0.751302 0.0842307
-16.3015 55.9779 -53.5293 0.654845 0.754204 0.0485161
-16.4813 56.1352 -53.7602 0.677355 0.735627 -0.00652761
2.13809 42.2391 -32.5825 0.261478 0.942451 0.208365
0.000285894 43.2799 -34.5159 0.283083 0.936455 0.207164
-2.31013 44.4608 -36.5329 0.314145 0.925641 0.210956
-4.13871 45.4812 -38.1827 0.343272 0.91559 0.209428
-6.20259 46.7378 -40.1751 0.358561 0.909917 0.20853
-7.95319 47.8882 -41.6403 0.397676 0.886672 0.235939
-9.90415 49.3169 -43.3516 0.469738 0.855941 0.216129
-11.5688 50.731 -45.0118 0.524521 0.818191 0.235459
-13.0765 52.2101 -46.639 0.575795 0.799803 0.169632
-14.5286 53.6865 -48.2888 0.632388 0.755538 0.17102
-16.1684 55.5648 -50.46 0.671892 0.735649 0.085912
-17.5004 57.0854 -52.3656 0.706662 0.705968 0.0473175
-18.857 58.4843 -54.2632 0.728883 0.684527 -0.0123427
-20.0536 59.5957 -55.9544 0.715093 0.697253 -0.0498019
-22.6892 61.8738 -57.2486 0.615507 0.762275 -0.200218
-21.3374 60.9494 -55.2697 0.709409 0.702556 -0.0561642
-19.7152 59.4233 -52.8709 0.728883 0.684527 -0.0123438
-18.2944 57.7215 -50.603 0.73769 0.671015 0.0745139
-16.7774 55.781 -48.3702 0.732785 0.66778 0.130753
-15.3968 54.129 -46.6096 0.669076 0.726976 0.154411
-13.9113 52.3383 -44.899 0.569707 0.783887 0.246891
-12.4399 50.7935 -43.2882 0.524521 0.818191 0.235459
-10.4371 49.0661 -41.4397 0.448413 0.854528 0.26212
-8.46175 47.6282 -39.7655 0.406021 0.883742 0.232696
-6.67665 46.4329 -38.1718 0.356182 0.904049 0.236283
-4.28498 44.987 -35.9941 0.331407 0.912775 0.238771
-2.15467 43.8398 -34.1429 0.289198 0.927431 0.237143
0.0112749 42.7438 -32.1992 0.265769 0.938041 0.222364
1.59057 41.9633 -30.6878 0.251552 0.944033 0.213363
0.627877 41.8791 -29.2271 0.239713 0.943899 0.227139
-1.72303 43.0554 -31.4404 0.257977 0.938958 0.227609
-4.10949 44.3207 -33.5828 0.297883 0.921813 0.248046
-6.11091 45.4688 -35.3351 0.321434 0.914576 0.24542
-8.16968 46.7609 -37.1526 0.358753 0.902621 0.237846
-10.5096 48.3877 -39.1697 0.421737 0.86016 0.286814
-12.2799 49.8308 -40.689 0.48782 0.824313 0.287297
-14.0727 51.6427 -42.4253 0.550892 0.784365 0.285114
-15.9545 53.8508 -44.3604 0.629217 0.736106 0.249468
-17.5837 56.2735 -46.5788 0.722887 0.662169 0.1974
-18.7454 58.0028 -48.3702 0.769689 0.627882 0.115513
-19.8105 59.439 -50.2 0.752282 0.658417 0.0236489
-21.0131 60.8419 -52.2015 0.735215 0.677366 -0.0252012
-22.4804 62.1358 -54.3547 0.661452 0.746196 -0.0753226
-24.027 62.9842 -56.3102 0.521508 0.832388 -0.187508
-25.1102 63.3583 -57.4212 0.472864 0.851748 -0.225666
-26.7685 64.4892 -56.6205 0.437483 0.859946 -0.26287
-26.8659 64.5119 -56.707 0.434149 0.861795 -0.262342
0.388921 41.4294 -27.1105 0.229911 0.945534 0.230448
-0.801702 42.0024 -28.216 0.241274 0.939721 0.242304
-1.64648 42.4224 -29.0189 0.24935 0.940108 0.232425
-2.47916 42.8462 -29.7822 0.262079 0.935413 0.23731
-3.30838 43.2696 -30.5353 0.265683 0.932664 0.24403
-4.1089 43.699 -31.2677 0.274983 0.928376 0.250006
-5.3477 44.3909 -32.3954 0.289557 0.919057 0.267378
-6.28927 44.9193 -33.2301 0.305839 0.915732 0.26057
-7.10369 45.4186 -33.946 0.318877 0.90832 0.270687
-7.90131 45.9047 -34.6473 0.322184 0.902561 0.285626
-8.70805 46.4302 -35.3644 0.336975 0.900353 0.275342
-9.51246 46.9498 -36.079 0.362677 0.885138 0.291541
-10.3774 47.598 -36.8194 0.387961 0.868902 0.307402
-11.3151 48.2662 -37.621 0.421736 0.860161 0.286812
-12.1783 48.9912 -38.336 0.453967 0.838326 0.301867
-13.0454 49.7155 -39.0586 0.48782 0.824312 0.2873
-13.7927 50.4592 -39.7399 0.512802 0.800938 0.309083
-14.5661 51.2269 -40.4461 0.535394 0.778005 0.328726
-15.3766 52.1362 -41.1188 0.557226 0.753965 0.347903
-16.1367 52.9792 -41.7788 0.593449 0.752348 0.28599
-16.7737 53.8581 -42.5238 0.654879 0.699266 0.286636
-17.2957 54.6552 -43.2209 0.67193 0.674134 0.306681
-17.7708 55.462 -43.9633 0.677511 0.675023 0.292101
-18.3692 56.4921 -44.8033 0.725701 0.645256 0.238752
-18.8728 57.3104 -45.4841 0.743802 0.622818 0.242603
-19.3923 58.2687 -46.3237 0.759436 0.620736 0.194792
-19.9721 59.3077 -47.3748 0.780113 0.594638 0.194498
-20.5185 60.1465 -48.5301 0.776502 0.625742 0.0741081
-21.0977 60.9312 -49.6227 0.761855 0.646965 0.0318406
-21.7984 61.7427 -50.8006 0.733819 0.67862 -0.0313778
-22.492 62.4179 -51.8574 0.706169 0.705623 -0.0584933
-23.3164 63.0444 -52.9814 0.628824 0.771586 -0.0961002
-24.1099 63.4925 -53.937 0.562908 0.812253 -0.152902
-24.8172 63.8131 -54.7135 0.538063 0.823461 -0.18
-0.66128 41.3357 -25.7016 0.229278 0.944255 0.236248
-2.70194 42.3285 -27.6049 0.242686 0.938347 0.246188
-4.37778 43.1986 -29.1574 0.258663 0.931345 0.256299
-6.29129 44.2523 -30.9047 0.285375 0.919124 0.27161
-8.0513 45.3038 -32.5099 0.307664 0.908493 0.282813
-10.457 46.8655 -34.6474 0.336672 0.897548 0.284711
-12.1362 48.1196 -36.1016 0.404026 0.854591 0.326246
