21.63 9.24813 4.35321 0.210001 0.000167112 0.977694
20.8767 9.25121 4.51916 0.225569 -0.00135014 0.974226
19.7814 9.21784 4.78397 0.251053 -0.00100214 0.967964
19.0558 9.22835 4.97498 0.261536 0.00281587 0.96519
17.9482 9.22408 5.2805 0.269789 -6.73272e-05 0.962919
17.1638 9.21906 5.49843 0.262433 -0.00125646 0.964949
16.2139 9.21496 5.75695 0.260018 -0.00059578 0.965604
15.2254 9.19099 6.0179 0.25215 -0.0017482 0.967687
14.3029 9.21824 6.25077 0.231888 -0.00262096 0.972739
13.5667 9.23687 6.42345 0.215633 -0.000614523 0.976443
12.824 9.23578 6.57832 0.181174 -0.014745 0.983292
11.9134 9.27232 6.73883 0.169102 -0.0126763 0.985502
11.1374 9.23472 6.86273 0.140489 -0.000744396 0.990034
10.28 9.27489 6.97402 0.111634 -0.00631121 0.993686
9.37275 9.24463 7.06484 0.0931771 -0.000767879 0.995649
8.51639 9.19913 7.13419 0.0681094 -0.00899417 0.997637
7.70049 9.22808 7.18182 0.0501873 0.000390175 0.99871
6.73062 9.26418 7.21509 0.030836 -0.00793878 0.999493
5.85241 9.20075 7.24189 0.0283352 0.00126486 0.999598
4.70316 9.1525 7.26344 0.0174108 0.00084756 0.999847
3.81128 9.30997 7.2774 0.0125391 0.00209502 0.999919
2.98722 9.46248 7.28689 0.0104053 -0.000678533 0.999946
2.06488 9.70008 7.29332 0.00728183 -0.000319321 0.999972
1.1141 9.98717 7.29864 0.00387123 0.000306442 0.999992
0.374003 9.88134 7.30024 0.0016601 -0.00137568 0.999998
-0.572819 9.60178 7.2995 -0.00264538 0.000191854 0.999996
-1.46498 9.44717 7.29571 -0.00442107 -0.00126604 0.999989
-2.25952 9.27545 7.29077 -0.00912448 0.000301087 0.999957
-3.19121 9.31911 7.28159 -0.0107172 0.00217162 0.99994
-4.24205 9.27099 7.268 -0.0144598 0.00195364 0.999894
-5.08199 9.20472 7.25413 -0.019769 0.00200862 0.999802
-6.09426 9.19507 7.22865 -0.0310401 0.00251697 0.999509
-7.04952 9.22549 7.19741 -0.0359352 0.00370844 0.999347
-7.81481 9.2341 7.16273 -0.0572464 -0.00322009 0.998345
-8.65805 9.27632 7.10188 -0.0946306 0.00433089 0.995484
-9.48779 9.2947 7.02268 -0.0987807 0.00182016 0.99508
-10.2953 9.25058 6.9343 -0.111439 -0.00339453 0.993765
-11.1141 9.18384 6.8283 -0.142083 0.00303909 0.98985
-11.9721 9.13664 6.69556 -0.160691 -0.00728596 0.986978
-12.8727 9.18151 6.53925 -0.184303 0.00485694 0.982857
-13.6226 9.25052 6.39013 -0.204766 0.0102435 0.978757
-14.3926 9.22651 6.223 -0.227433 0.00720294 0.973767
-15.1244 9.19003 6.05256 -0.242336 0.00622225 0.97004
-15.941 9.16999 5.83536 -0.259682 -0.000519238 0.965694
-16.8199 9.22535 5.59376 -0.270827 0.0039294 0.96262
-17.5543 9.25825 5.38869 -0.266135 0.000523974 0.963936
-18.625 9.22668 5.09094 -0.26779 -0.000394909 0.963477
-19.6075 9.21006 4.83528 -0.239033 -0.00964997 0.970963
-20.4942 9.24739 4.61954 -0.23309 -0.00100057 0.972455
-21.572 9.29318 4.36753 -0.214123 0.00839152 0.976771
-22.3913 9.28477 4.19288 -0.1989 0.00875858 0.979981
-23.2033 9.25928 4.03924 -0.174916 0.000783139 0.984562
-23.9915 9.19699 3.91164 -0.149776 -0.00638441 0.988699
-24.746 9.22901 3.80376 -0.127205 -0.0101128 0.991825
-25.612 9.23957 3.70663 -0.093427 0.00716161 0.9956
-26.4259 9.26786 3.63426 -0.0818714 0.0122046 0.996568
-27.2059 9.28974 3.574 -0.0741848 0.00538423 0.99723
-28.0773 9.24584 3.52565 -0.0402789 0.0049637 0.999176
-28.8444 9.24026 3.4941 -0.0386344 0.00280206 0.999249
-29.1859 8.4371 3.48448 -0.0350015 0.00707861 0.999362
-29.1778 7.65176 3.4855 -0.0347366 -0.00697943 0.999372
-29.1765 6.80467 3.4824 -0.0261651 -0.00766008 0.999628
-29.1832 5.99647 3.48063 -0.0291332 0.0021161 0.999573
-29.1523 4.92531 3.48359 -0.0262349 0.0028036 0.999652
-29.1484 4.12837 3.48601 -0.0281666 0.00124011 0.999602
-29.1412 3.00436 3.48757 -0.0345688 0.00164375 0.999401
-29.1416 2.05371 3.48556 -0.0383688 -0.00173512 0.999255
-29.2019 1.21914 3.4831 -0.0402006 -0.00121872 0.999191
-29.2504 0.15503 3.48077 -0.0390583 0.000639713 0.999237
-29.2182 -0.836802 3.48307 -0.040629 0.000398283 0.999173
-29.2237 -1.67354 3.48504 -0.0334777 0.000525073 0.99943
-29.1988 -2.47538 3.48326 -0.03695 -0.00191453 0.999315
-29.1065 -3.33967 3.48576 -0.0275176 0.000631272 0.999621
-29.1068 -4.35905 3.48801 -0.0297729 0.001021 0.999555
-29.2418 -5.59645 3.48358 -0.0319206 0.00145211 0.999489
-29.335 -6.80671 3.48091 -0.0340856 -3.87707e-05 0.999419
-29.3523 -7.6981 3.48097 -0.0300114 -0.00128574 0.999548
-29.2837 -8.50287 3.4823 -0.0300169 -0.000219415 0.999549
-28.9206 -9.16929 3.49324 -0.0301781 0.000272115 0.999544
-27.9235 -9.15375 3.52873 -0.0527064 -0.000819469 0.998533
-27.0749 -9.10618 3.58361 -0.0650795 0.00192234 0.997878
-26.2429 -9.01869 3.64939 -0.0794762 0.00130209 0.996836
-25.2523 -9.04724 3.74881 -0.108465 -0.000948611 0.994094
-24.4315 -9.10029 3.85444 -0.129458 -0.01261 0.991505
-23.6295 -9.11763 3.9718 -0.162037 -0.00659427 0.986763
-22.8102 -9.0094 4.10754 -0.178565 -0.00202282 0.983832
-21.861 -9.00866 4.29378 -0.196146 -0.00445149 0.98056
-21.0154 -9.06807 4.48532 -0.225275 0.0142826 0.974191
-20.1348 -9.09329 4.69581 -0.245347 0.0185755 0.969257
-19.3127 -9.12834 4.90608 -0.256967 0.00202585 0.966418
-18.3932 -9.17901 5.15378 -0.262703 0.00159994 0.964875
-17.5189 -9.24782 5.39415 -0.268132 -0.000277878 0.963382
-16.4892 -9.27628 5.67542 -0.262153 -0.00276032 0.965022
-16.4658 -9.27617 5.68178 -0.262967 -0.000648683 0.964802
-16.5423 -10.4808 5.66383 -0.266215 -0.000347386 0.963914
-17.4242 -10.4277 5.4213 -0.265714 0.00117437 0.96405
-18.3521 -10.405 5.16497 -0.265604 0.00202936 0.96408
-19.165 -10.385 4.94655 -0.253513 0.00318586 0.967327
-19.9114 -10.3292 4.75033 -0.254868 0.00324363 0.96697
-20.748 -10.332 4.54527 -0.231226 -0.00372252 0.972893
-21.6598 -10.3104 4.33898 -0.208443 0.00325443 0.978029
-22.4655 -10.281 4.17407 -0.19134 -0.00102925 0.981523
-23.41 -10.3086 3.99869 -0.158441 -0.0233646 0.987092
-24.3098 -10.3281 3.86186 -0.129291 0.0033042 0.991601
-25.1267 -10.2866 3.7563 -0.113615 -0.00552114 0.993461
-25.9107 -10.2833 3.68664 -0.0870055 0.00435379 0.996172
-27.0033 -10.3456 3.59655 -0.0750056 -0.000151708 0.997159
-27.9665 -10.4015 3.53006 -0.0556866 0.00420688 0.998439
-28.7418 -10.4735 3.49565 -0.0316147 -0.00252399 0.999497
-29.5058 -10.4489 3.47178 -0.0253606 -0.0034664 0.999654
-30.25 -10.2786 3.45551 -0.0233107 0.000430688 0.999728
-30.4542 -9.52554 3.45174 -0.0222939 -0.00260457 0.999748
-30.5166 -8.59351 3.45266 -0.0147316 -0.00239833 0.999889
-30.5725 -7.54799 3.45264 -0.0123912 0.00174992 0.999922
-30.5848 -6.56882 3.45074 -0.0170091 0.00244453 0.999852
-30.4756 -5.76333 3.44959 -0.0165902 0.00454397 0.999852
-30.3516 -4.81071 3.4533 -0.0138723 -0.00433869 0.999894
-30.3279 -3.47027 3.45236 -0.0226782 0.00351607 0.999724
-30.419 -2.63366 3.44972 -0.0265226 0.000313744 0.999648
-30.4645 -1.82105 3.44812 -0.0260144 0.000749461 0.999661
-30.4638 -0.889239 3.45088 -0.0215703 -0.00621814 0.999748
-30.4746 -0.133291 3.45178 -0.0158696 0.000114037 0.999866
-30.466 0.617743 3.44792 -0.00598797 0.0166029 0.999844
-30.4652 1.3941 3.43964 -0.0253624 -0.0135177 0.999448
-30.3813 2.1931 3.45144 -0.0181509 -0.00652981 0.999813
-30.391 3.33326 3.45727 -0.0164199 -0.00208933 0.999863
-30.3669 4.47637 3.45917 -0.0181816 -0.000678187 0.999834
-30.3381 5.33147 3.45955 -0.0151074 0.00140891 0.999884
-30.4153 6.3722 3.45822 -0.0141307 0.000470106 0.9999
-30.4503 7.45267 3.45654 -0.0140201 0.00213524 0.999899
-30.4413 8.27034 3.45584 -0.0194025 0.00284102 0.999808
-30.482 9.27992 3.45342 -0.0185071 2.13238e-06 0.999829
-30.3219 10.228 3.45443 -0.0189566 0.00381242 0.999813
-29.4998 10.4728 3.47314 -0.0247384 -0.00140646 0.999693
-28.6548 10.4504 3.49862 -0.0336178 0.00273829 0.999431
-27.7849 10.516 3.53339 -0.0470831 -0.00069248 0.99889
-26.7689 10.5396 3.59249 -0.0632143 0.00590241 0.997983
-25.8704 10.5011 3.66683 -0.0893544 0.0376051 0.994502
-25.0357 10.4868 3.76907 -0.116624 0.00713958 0.99315
-24.0921 10.4509 3.89756 -0.141625 0.00767977 0.989891
-23.1836 10.4625 4.04514 -0.170317 -0.001312 0.985388
-22.3332 10.497 4.19877 -0.189097 -0.0045745 0.981948
-21.5764 10.5173 4.35624 -0.218923 0.00673625 0.975635
-20.7834 10.5365 4.54719 -0.23525 0.00744079 0.971906
-19.648 10.4659 4.82856 -0.24235 0.00878846 0.970149
-18.8954 10.4412 5.02621 -0.260426 0.00488613 0.965481
-18.0542 10.4567 5.25167 -0.259922 -0.00384642 0.965618
-17.1151 10.3543 5.50865 -0.264943 0.00296425 0.964259
-16.2096 10.36 5.75741 -0.264912 0.00295655 0.964268
-15.2767 10.3992 6.00344 -0.236328 0.0103283 0.971618
-14.4004 10.4884 6.21229 -0.228282 0.00620494 0.973575
-13.6113 10.4755 6.38821 -0.202042 0.00205779 0.979355
-12.7665 10.4511 6.55384 -0.185712 -0.000722987 0.982593
-12.0066 10.3803 6.69867 -0.16793 -0.00554598 0.98558
-11.1388 10.463 6.82769 -0.145488 -0.00853754 0.989323
-10.3941 10.5583 6.92129 -0.113301 -0.00492474 0.993521
-9.38483 10.5272 7.03237 -0.100457 0.000632463 0.994869
-8.62876 10.4886 7.10078 -0.090574 -0.00613573 0.995871
-7.82259 10.4685 7.16303 -0.0486333 0.00275609 0.998791
-6.9359 10.4592 7.19983 -0.0364305 -0.00482248 0.999325
-6.02899 10.4601 7.23103 -0.0246297 -0.000555463 0.999688
-5.00706 10.5108 7.25258 -0.0200983 -0.00197411 0.999796
-4.02028 10.5286 7.26927 -0.0169093 0.00022333 0.999855
-3.17275 10.5876 7.28064 -0.0128462 -0.00106289 0.999917
-2.37449 10.6316 7.29016 -0.00748241 -0.00044085 0.999972
-1.49385 10.7305 7.29647 -0.00406189 -0.000139121 0.999991
-0.588677 10.8206 7.29995 -0.00370833 -0.0017677 0.99999
0.471027 10.8677 7.30127 0.00111613 -0.000679481 0.999998
1.26188 10.9369 7.29929 0.00228588 -0.00139448 0.999996
2.12859 10.7603 7.29477 0.00425105 -0.000896711 0.99999
3.06172 10.6588 7.28637 0.00914169 0.000125488 0.999958
3.8491 10.6029 7.27581 0.0140352 0.00036234 0.999901
4.90278 10.4354 7.2597 0.0159515 -0.000208373 0.999872
5.68248 10.4109 7.24647 0.0240455 -0.000302574 0.999711
6.55188 10.4886 7.22381 0.0318986 -0.00401251 0.999483
7.44472 10.4879 7.18924 0.0452494 0.000871812 0.998965
8.25835 10.474 7.14143 0.058843 0.0107631 0.998209
9.22566 10.5183 7.07007 0.0934983 0.00829814 0.995582
10.0121 10.5494 6.99517 0.0952664 0.0120426 0.995373
10.784 10.5089 6.91869 0.122078 -0.00467987 0.992361
11.9048 10.4826 6.74645 0.164769 0.00248019 0.98627
12.7849 10.4621 6.58498 0.189972 0.00669523 0.981767
13.5262 10.467 6.43352 0.21531 -0.00167697 0.976544
14.3927 10.4626 6.2342 0.229858 -0.0042877 0.973215
15.2116 10.4467 6.02657 0.253972 -0.00498973 0.967199
15.9897 10.4264 5.82047 0.259893 0.000452073 0.965637
16.8084 10.4668 5.5965 0.267483 0.00267345 0.963559
17.6403 10.5115 5.36424 0.268502 -0.000681173 0.963271
18.7861 10.4383 5.05156 0.258837 -0.00222614 0.965918
19.6933 10.4343 4.81135 0.248014 0.00478205 0.968745
20.722 10.4604 4.55956 0.232394 0.00349052 0.972598
21.5654 10.4589 4.36051 0.207962 0.00569822 0.978086
22.369 10.4675 4.1959 0.188354 0.00746546 0.98198
23.16 10.4456 4.059 0.169738 0.00722812 0.985463
24.2331 10.4472 3.89072 0.140673 0.00095295 0.990055
25.0319 10.4386 3.77689 0.141103 0.00221763 0.989992
26.1411 10.4527 3.6497 0.0905936 0.0149879 0.995671
27.2592 10.3021 3.57141 0.0657524 0.0198122 0.997639
28.0262 10.2873 3.52966 0.0451696 0.0166293 0.998841
29.0873 10.3437 3.48937 0.027103 0.0114366 0.999567
29.9982 10.3446 3.46546 0.0183586 0.00542261 0.999807
30.4229 9.50986 3.45843 0.0155067 -0.00204453 0.999878
30.4233 8.57226 3.45722 0.0126329 -0.00148971 0.999919
30.4309 7.79926 3.45763 0.0140187 0.00313563 0.999897
30.4127 6.98008 3.46087 0.0167529 0.00229078 0.999853
30.3831 6.00447 3.4617 0.0189391 5.25257e-05 0.999821
30.38 5.13863 3.46316 0.024334 0.00284418 0.9997
30.3719 4.22359 3.46315 0.0217978 -0.00414262 0.999754
30.316 3.2331 3.45919 0.0256853 -0.00843317 0.999635
30.3531 2.29028 3.45069 0.00928718 -0.0011026 0.999618
30.3787 1.47878 3.45948 0.0112307 0.00994258 0.999888
30.3679 0.526932 3.46207 0.014322 0.00282608 0.999893
30.3671 -0.24743 3.46267 0.0167315 -0.00589745 0.99984
30.364 -1.03837 3.45748 0.00704868 -0.00481764 0.999669
30.4157 -1.81999 3.46162 0.0191834 0.00901881 0.999774
30.4434 -2.57005 3.46683 0.0190204 0.00442603 0.999804
30.4255 -3.34022 3.46771 0.018746 -0.00126768 0.999823
30.4077 -4.46086 3.46775 0.0207934 0.000638203 0.999784
30.5219 -5.81188 3.46713 0.0251801 0.00166489 0.999682
30.535 -6.5967 3.46811 0.0251659 0.00164762 0.999682
30.4992 -7.40896 3.46908 0.0241196 8.37137e-05 0.999709
30.4668 -8.3693 3.4705 0.0251417 0.000564899 0.999684
30.4824 -9.17916 3.47137 0.0179979 0.00237816 0.999834
30.3812 -9.97791 3.47496 0.0234433 0.00124532 0.999724
29.5866 -10.4435 3.49273 0.0251168 -0.00109866 0.999681
28.6816 -10.522 3.52037 0.0313058 -0.000895229 0.999509
27.7278 -10.5331 3.5656 0.0589002 0.00617059 0.998245
26.5801 -10.5284 3.64026 0.0734741 -0.000704637 0.997296
25.8207 -10.5073 3.70505 0.110673 0.00148869 0.993856
25.071 -10.5172 3.78744 0.121656 0.00936413 0.992385
24.2619 -10.5179 3.89897 0.135672 0.00337492 0.990748
23.2454 -10.5468 4.05382 0.167068 -0.000444178 0.985924
22.2122 -10.5091 4.24553 0.197734 -0.00619779 0.98023
21.469 -10.4243 4.40049 0.215469 -0.00617104 0.976491
20.526 -10.3868 4.61332 0.235375 0.000747214 0.971877
19.6964 -10.3862 4.82103 0.248113 -0.000946627 0.968723
18.7638 -10.3811 5.06687 0.258714 0.00064735 0.965954
18.0188 -10.3278 5.27096 0.266734 -0.000735276 0.96377
17.231 -10.2971 5.48892 0.265687 2.23888e-05 0.964059
16.0407 -10.2319 5.8126 0.259698 -0.00214659 0.965687
15.2974 -10.2113 6.01087 0.242804 0.00230794 0.970069
14.4697 -10.2485 6.21865 0.239877 0.00138563 0.970789
13.7247 -10.2934 6.39043 0.219976 -0.0027513 0.975501
12.9447 -10.4199 6.56583 0.204723 0.00488639 0.978662
12.073 -10.4327 6.71749 0.148617 -0.00431577 0.98885
11.0146 -10.4677 6.87209 0.129699 -0.00689053 0.991527
10.2597 -10.4351 6.96852 0.097888 -0.00505567 0.995185
9.49126 -10.3855 7.04704 0.0948406 -0.0239096 0.994872
8.4625 -10.349 7.12182 0.0679012 -0.00673261 0.997643
7.66476 -10.4162 7.16726 0.0539833 -0.004786 0.99853
6.81645 -10.4779 7.20653 0.0322931 -0.00252774 0.999475
5.9856 -10.5329 7.23075 0.0264126 -0.00253839 0.999646
5.13749 -10.5529 7.2511 0.0225153 0.000559159 0.999745
4.38418 -10.5408 7.26563 0.0174924 0.000801176 0.999847
3.50547 -10.4976 7.2781 0.011432 -0.00197327 0.999933
2.64467 -10.4394 7.28669 0.00799821 -0.000874949 0.999967
1.7775 -10.4178 7.293 0.00529109 -0.000226266 0.999986
0.964586 -10.4831 7.29738 0.00581764 -8.3566e-05 0.999983
0.140064 -10.4857 7.29931 0.000527323 8.46662e-05 1
-1.02674 -10.3952 7.29774 -0.00256413 5.04941e-05 0.999995
-1.78339 -10.4426 7.29424 -0.00666616 -0.000708897 0.999976
-2.87549 -10.3686 7.28467 -0.00987102 0.000126396 0.999951
-3.93519 -10.4442 7.27208 -0.0134652 0.000999638 0.999907
-4.89769 -10.4113 7.25653 -0.0194923 -0.00174667 0.999808
-5.73878 -10.409 7.23685 -0.0264796 -0.00170792 0.999648
-6.52502 -10.3416 7.2129 -0.0361307 -0.00350886 0.999331
-7.31669 -10.3385 7.18125 -0.0422448 -0.00423436 0.999094
-8.27211 -10.3719 7.13008 -0.061221 0.00236685 0.998121
-9.03985 -10.397 7.06957 -0.0840406 -0.00515172 0.996449
-9.8387 -10.4525 6.99155 -0.119121 0.00672468 0.992857
-10.6915 -10.4546 6.89067 -0.116731 0.00652315 0.993142
-12.1046 -10.5284 6.67711 -0.172418 0.00849093 0.984987
-13.0212 -10.5261 6.51679 -0.17716 0.00870724 0.984125
-13.9638 -10.505 6.33715 -0.18743 0.00669615 0.982255
-14.7345 -10.4777 6.14802 -0.253941 0.00278541 0.967208
-15.7248 -10.4488 5.88602 -0.255164 0.00698699 0.966872
-16.405 -10.4883 5.70175 -0.266216 -0.000346777 0.963913
-16.3442 -11.7591 5.71659 -0.264214 -0.000256021 0.964464
-15.3466 -11.6664 5.98189 -0.254267 -0.00495037 0.967121
-14.3608 -11.7114 6.23894 -0.241462 -0.0106028 0.970265
-13.6301 -11.7679 6.40306 -0.204794 -0.00952972 0.978759
-12.8527 -11.8165 6.55183 -0.180868 0.00622971 0.983488
-11.962 -11.7888 6.71148 -0.166759 0.010686 0.985905
-10.9781 -11.6965 6.87082 -0.150133 0.00720832 0.988527
-10.0369 -11.7099 6.98155 -0.104868 0.00436931 0.994461
-9.27737 -11.7008 7.0488 -0.096244 0.0107323 0.995114
-8.4172 -11.6685 7.11762 -0.0765244 -0.00299038 0.997063
-7.67353 -11.6987 7.16067 -0.0450617 -0.00374702 0.998977
-6.73965 -11.6386 7.20414 -0.0403945 -0.000700936 0.999148
-5.61934 -11.7061 7.23935 -0.0266496 0.000193614 0.999636
-4.81177 -11.6666 7.25772 -0.0206052 0.00182146 0.999783
-3.73859 -11.6971 7.27622 -0.0143276 0.00126437 0.999896
-2.94966 -11.6898 7.28541 -0.0085995 0.000849847 0.999963
-2.0403 -11.6993 7.29243 -0.0062721 0.000157209 0.99998
-1.2255 -11.692 7.29674 -0.00453613 0.000733576 0.999989
-0.314962 -11.7449 7.30016 -0.00225067 0.00165897 0.999996
0.694246 -11.736 7.29841 0.00315673 0.000715915 0.999995
1.7195 -11.6996 7.2935 0.00620306 0.000799433 0.99998
2.69679 -11.7134 7.28643 0.00790403 0.000491472 0.999969
3.63227 -11.7275 7.27778 0.0111099 0.00148495 0.999937
4.76655 -11.7745 7.25989 0.0212919 0.00143847 0.999772
5.75553 -11.75 7.23707 0.026037 0.000916985 0.999661
6.57724 -11.7348 7.21384 0.0340593 -3.50489e-05 0.999411
7.50826 -11.6865 7.17178 0.0467623 0.00335964 0.9989
8.38944 -11.6019 7.12563 0.0735594 -0.000485711 0.997291
9.28344 -11.6066 7.05971 0.0860163 -0.00244786 0.996211
10.0877 -11.69 6.98662 0.0885904 0.00881581 0.996028
10.8638 -11.6994 6.89239 0.122405 -0.00497635 0.992467
11.877 -11.6836 6.75178 0.140951 0.0090347 0.989975
12.7591 -11.6064 6.59496 0.195263 0.000407992 0.980703
13.524 -11.5743 6.43403 0.216583 -0.00114898 0.976252
14.4838 -11.4657 6.21093 0.237483 -0.00544722 0.97137
15.3722 -11.4821 5.98813 0.254531 -0.00375448 0.967048
16.2655 -11.5426 5.74941 0.259103 -0.00140348 0.965849
17.012 -11.5728 5.54713 0.27325 0.00311804 0.961894
18.1322 -11.5816 5.23784 0.264496 -0.000854579 0.964386
18.9151 -11.6241 5.02439 0.25694 -0.0023848 0.966424
20.0076 -11.6312 4.74047 0.243236 -0.00544566 0.969952
20.8846 -11.6456 4.53019 0.227923 -0.00446206 0.973669
21.6502 -11.6949 4.35886 0.200731 0.00717923 0.97962
22.5719 -11.7513 4.17755 0.181415 -0.00573447 0.98339
23.4858 -11.7543 4.01933 0.159996 -0.0104511 0.987062
24.4184 -11.7396 3.8784 0.138982 -0.00125393 0.990294
25.505 -11.7753 3.74587 0.108323 0.0125426 0.994037
26.4579 -11.749 3.65076 0.0776877 0.00513672 0.996965
27.303 -11.7356 3.59234 0.0619565 -0.0131815 0.997992
28.1759 -11.7569 3.5413 0.0459967 -0.00842445 0.998901
28.9322 -11.7449 3.50995 0.032581 -0.00334933 0.99945
29.7767 -11.696 3.48693 0.0268202 -0.00186853 0.999638
30.5446 -11.6561 3.46972 0.0176034 -0.00206656 0.999843
31.327 -11.5733 3.45714 0.0148658 -0.00262799 0.999886
31.6743 -10.6616 3.45332 0.0131822 3.01343e-05 0.999913
31.7212 -9.87567 3.45122 0.0146136 0.00464557 0.999882
31.6736 -9.05246 3.44957 0.0170508 0.00382602 0.999847
31.6842 -8.22917 3.44842 0.00985327 0.00502215 0.999932
31.7319 -7.37247 3.44237 0.00676416 0.00382213 0.99997
31.7794 -6.59635 3.44411 0.00952374 -0.00782957 0.999924
31.7825 -5.76538 3.44905 0.0100043 -0.002312 0.999946
31.6937 -4.84475 3.45109 0.0109332 -0.00165003 0.999937
31.6461 -4.01346 3.45104 0.00872052 0.000969132 0.999962
31.6443 -3.15639 3.45017 0.00866553 0.00144291 0.999961
31.6683 -2.07849 3.44822 0.00818403 0.000607725 0.999966
31.5927 -1.06669 3.44778 0.00900455 0.00131468 0.999959
31.6183 0.0788512 3.44681 0.0111039 0.00101416 0.999938
31.6068 1.03943 3.44609 0.0113347 0.00156316 0.999934
31.5711 1.79054 3.44607 0.00961736 -0.000165687 0.999954
31.5147 2.96148 3.44649 0.00823549 -0.000591442 0.999965
31.5858 3.81341 3.4461 0.00828558 0.00138521 0.999963
31.6644 4.57642 3.44448 0.0102445 0.000950337 0.999947
31.6241 5.6612 3.44428 0.0138885 -4.441e-05 0.999904
31.6345 6.69082 3.44297 0.00913902 0.000422899 0.999956
31.6697 7.49178 3.44214 0.00808332 0.00226077 0.999965
31.6761 8.5022 3.44247 0.0094951 0.000278856 0.999955
31.6755 9.57767 3.44194 0.013458 0.00211057 0.999907
31.7063 10.4032 3.43935 0.0130144 0.00512514 0.999901
31.6566 11.3287 3.4363 0.01707 8.67691e-05 0.99985
30.8524 11.6652 3.44852 0.0123352 0.00183936 0.99992
30.0866 11.6466 3.45879 0.00498981 0.00846447 0.999906
29.3079 11.671 3.46948 0.0443049 0.0155394 0.998778
28.5627 11.5625 3.50049 0.0438402 0.002676 0.99901
27.5529 11.5936 3.54504 0.0498393 -0.000118366 0.998757
26.7642 11.6124 3.59181 0.0747118 0.0040087 0.997197
25.9914 11.6306 3.6565 0.140906 0.00685255 0.989806
25.1786 11.7053 3.75662 0.123492 0.0023483 0.992343
24.0278 11.7336 3.90927 0.142008 -0.00182817 0.989864
23.1843 11.7232 4.04606 0.171877 0.0134087 0.985027
22.2667 11.7196 4.21417 0.187678 0.0168985 0.982085
21.4513 11.7084 4.38137 0.224661 0.00602417 0.974412
20.5764 11.6888 4.58527 0.239183 0.00138129 0.970974
19.8204 11.6511 4.77553 0.251401 -0.00359668 0.967876
19.0863 11.6416 4.96977 0.261031 -0.00157176 0.965327
18.0157 11.7289 5.26279 0.265701 -0.000482663 0.964055
17.2888 11.7582 5.46354 0.267556 -0.00117924 0.963542
16.4894 11.7202 5.68376 0.264265 -0.00267568 0.964446
15.7319 11.6424 5.89114 0.264557 -0.00115264 0.964369
14.9893 11.6592 6.08581 0.242174 0.00724913 0.970206
14.1963 11.6956 6.28368 0.232455 0.02359 0.972303
13.3013 11.7371 6.49015 0.199772 -0.00562602 0.979778
12.5426 11.7354 6.63118 0.178598 -0.00378148 0.983911
11.7778 11.7628 6.76427 0.156079 0.00489182 0.987732
10.999 11.761 6.87733 0.1232 0.0128459 0.992288
10.0442 11.8109 6.98923 0.103113 -0.00298295 0.994665
9.01333 11.7804 7.08852 0.0814042 0.00042121 0.996681
8.14538 11.7347 7.14797 0.053673 0.00686522 0.998535
7.18902 11.778 7.19727 0.0486387 0.00492585 0.998804
6.41864 11.7743 7.22648 0.0294122 0.00123449 0.999567
5.517 11.7268 7.24914 0.020699 0.0030812 0.999781
4.66708 11.7715 7.26396 0.0166606 0.00191479 0.999859
3.9119 11.8374 7.27581 0.0138958 -0.00114667 0.999903
2.80012 11.917 7.28897 0.0107739 0.000616142 0.999942
1.97877 12.001 7.29638 0.00701591 0.000418881 0.999975
1.21453 12.0801 7.30031 0.00297154 0.000555385 0.999995
0.34355 12.0481 7.30149 0.000912432 0.000900507 0.999999
-0.588251 11.9771 7.30017 -0.00379189 -0.0001195 0.999993
-1.42456 11.9389 7.29654 -0.00548001 -0.000275369 0.999984
-2.20632 11.9012 7.29278 -0.00801594 0.000781926 0.999967
-3.26962 11.7968 7.28095 -0.0132496 -0.00135639 0.999911
-4.27244 11.8191 7.2666 -0.0156951 -0.00121826 0.999876
-5.04607 11.8402 7.25388 -0.0183863 -0.00144239 0.99983
-5.79558 11.7767 7.23717 -0.0301147 -0.00254573 0.999543
-6.67735 11.723 7.2114 -0.0375307 0.000592283 0.999251
-7.62346 11.72 7.16631 -0.0527901 -0.00311654 0.9986
-8.55798 11.7425 7.10679 -0.0741116 -0.00181203 0.997248
-9.33418 11.7719 7.04146 -0.102817 -0.00390694 0.994692
-10.5458 11.7551 6.90656 -0.11849 -0.00402031 0.992947
-11.3183 11.6976 6.80827 -0.146345 -0.00293968 0.989229
-12.5093 11.6703 6.61024 -0.185059 -0.00238884 0.982724
-13.6019 11.6989 6.39242 -0.209593 -0.00814662 0.977755
-14.4888 11.7464 6.19393 -0.22899 -0.00444301 0.973419
-15.3816 11.6511 5.9745 -0.252685 -0.000538493 0.967548
-16.1494 11.6492 5.77117 -0.262633 0.000533099 0.964896
-16.9147 11.6741 5.5629 -0.260987 -0.00116867 0.965339
-17.8371 11.7826 5.31001 -0.26343 -0.00113614 0.964676
-18.5517 11.6946 5.11686 -0.261563 0.000513428 0.965186
-19.4617 11.7336 4.87446 -0.254429 -0.000712174 0.967091
-20.2123 11.7631 4.67963 -0.244653 0.000195388 0.969611
-21.3096 11.8035 4.41889 -0.220134 -4.90168e-05 0.975444
-22.054 11.7667 4.25365 -0.199841 -0.00295776 0.979755
-22.9952 11.7649 4.07442 -0.182913 0.000958458 0.983129
-23.7997 11.7223 3.9397 -0.150639 -0.00422506 0.98858
-25.0341 11.7263 3.76502 -0.132258 0.000226 0.991215
-25.7832 11.7541 3.66522 -0.11945 -0.00917807 0.992685
-26.8596 11.8031 3.5894 -0.0616335 -0.00677702 0.998066
-27.6608 11.7614 3.54079 -0.0539224 -0.000474001 0.998516
-28.5986 11.6414 3.49733 -0.0448789 -0.00197216 0.998988
-29.61 11.7308 3.46503 -0.0309278 0.0043068 0.999509
-30.3888 11.7774 3.44255 -0.0279952 0.00711832 0.999581
-31.3606 11.7077 3.43354 0.000992421 0.00362235 0.999993
-31.7182 10.8091 3.43479 -0.00533332 0.00174807 0.999984
-31.7124 9.89332 3.43679 -0.00715689 0.00184591 0.999972
-31.6983 9.05339 3.43854 -0.00728785 0.00119665 0.999973
-31.6899 7.95353 3.44012 -0.00738249 0.00153033 0.999972
-31.7056 6.74177 3.44134 -0.00793376 0.000659162 0.999968
-31.6338 5.96902 3.44235 -0.00800401 6.30323e-05 0.999968
-31.586 4.73401 3.44359 -0.0124768 -9.66337e-05 0.999921
-31.5969 3.90788 3.44255 -0.0116769 -0.00101304 0.999931
-31.6028 3.06643 3.44122 -0.0100245 -0.00241751 0.999947
-31.6211 2.27873 3.4375 -0.00411344 -0.00438016 0.99997
-31.6321 1.4908 3.43683 -0.00257361 -0.00118638 0.999994
-31.6751 0.51152 3.43783 -0.0051263 0.000184427 0.999987
-31.7183 -0.30126 3.43808 -0.00795476 -0.0024948 0.999965
-31.7581 -1.12604 3.43525 -0.00492894 -0.00218519 0.999985
-31.724 -1.96964 3.43195 -0.00351043 -0.013489 0.999902
-31.7126 -2.82097 3.42884 0.000307556 0.00917022 0.999868
-31.6031 -3.7283 3.43776 -0.00768781 0.0043561 0.999961
-31.5944 -4.50527 3.44078 -0.00817797 0.00182995 0.999963
-31.6827 -5.39013 3.44002 -0.00859161 -0.00200078 0.999958
-31.7802 -6.16986 3.43752 -0.00657363 -0.000270488 0.999977
-31.8127 -6.92531 3.43806 -0.00801644 0.00139793 0.999967
-31.799 -7.7922 3.43843 -0.00844443 -0.00138176 0.999963
-31.7172 -8.89178 3.43566 -0.00942349 -0.00447533 0.999946
-31.6821 -9.82035 3.43415 -0.00628742 0.00146723 0.999977
-31.6834 -10.8448 3.4366 -0.00854471 -6.48452e-05 0.999963
-31.3611 -11.6035 3.44059 -0.00989477 0.00166146 0.99995
-30.3169 -11.6469 3.45609 -0.0197809 0.00139143 0.999803
-29.5402 -11.6775 3.47115 -0.0220521 0.00392415 0.999733
-28.7711 -11.6985 3.49425 -0.0403642 0.00361268 0.999153
-27.758 -11.6447 3.54322 -0.0594444 0.0012631 0.998219
-26.7407 -11.6333 3.60901 -0.0766183 -0.000647132 0.996984
-25.859 -11.571 3.68753 -0.0926793 -0.00088887 0.995682
-24.7411 -11.6223 3.80355 -0.115542 0.00293979 0.99322
-23.8185 -11.6408 3.9386 -0.154993 0.00906932 0.987824
-23.0279 -11.6305 4.07064 -0.163068 0.00663187 0.986589
-22.1443 -11.563 4.2409 -0.195211 0.00526236 0.980747
-21.3412 -11.5595 4.40943 -0.20713 0.000102032 0.978312
-20.5173 -11.5528 4.60572 -0.24097 -2.37325e-06 0.970533
-19.74 -11.608 4.79914 -0.244044 0.000939843 0.969764
-18.8016 -11.6756 5.04336 -0.261162 0.0012115 0.965294
-17.9229 -11.6899 5.28402 -0.265791 -0.00121453 0.96403
-17.0302 -11.7387 5.52899 -0.264157 -0.00166283 0.964478
-16.3454 -11.7592 5.71625 -0.263951 -0.000748416 0.964536
-16.3359 -12.9471 5.71829 -0.26021 0.000352478 0.965552
-17.3004 -12.9994 5.45369 -0.266245 -0.000295243 0.963905
-18.0608 -12.9203 5.24328 -0.261317 0.00300565 0.965243
-18.9156 -12.8392 5.01671 -0.25315 -0.0022214 0.967424
-19.7699 -12.8854 4.79347 -0.252963 -0.00166543 0.967474
-20.8579 -12.8326 4.51971 -0.234708 -0.00966178 0.972018
-21.7908 -12.8235 4.31509 -0.203912 0.00112892 0.978989
-22.7169 -12.8152 4.12916 -0.196601 0.00104497 0.980483
-23.8202 -12.8994 3.94675 -0.161741 0.00388382 0.986826
-24.7546 -12.8254 3.80991 -0.126008 0.0037972 0.992022
-25.7312 -12.7999 3.70065 -0.0992987 -0.00936024 0.995014
-26.8607 -12.8834 3.60303 -0.0687298 0.00228244 0.997626
-27.6664 -12.9471 3.55144 -0.0598285 0.00234361 0.998206
-28.7956 -12.9578 3.49588 -0.0374329 -0.000132587 0.999299
-29.7127 -12.9436 3.46733 -0.0224931 -0.00294362 0.999743
-30.5278 -12.8981 3.4502 -0.0197912 -0.0021819 0.999802
-31.4225 -12.8622 3.43759 -0.00790116 -0.00203508 0.999967
-32.2036 -12.8083 3.43152 -0.00796981 -0.00193794 0.999966
-32.9366 -12.2495 3.42774 -0.00501328 -0.000757142 0.999987
-32.9428 -11.3836 3.42783 -0.00597038 -0.000268458 0.999982
-32.9205 -10.6315 3.42693 -0.00883448 0.0029334 0.999957
-32.9343 -9.52451 3.42554 -0.0109307 -0.000878068 0.99994
-32.9609 -8.69263 3.42798 -0.00937785 -0.00360254 0.99995
-33.009 -7.91728 3.42915 -0.00693896 -0.000875284 0.999976
-33.0223 -7.16244 3.42949 -0.00654729 0.000309251 0.999978
-32.9975 -6.14051 3.42924 -0.00694195 -0.000500244 0.999976
-32.8586 -5.2018 3.43093 -0.00496738 -0.00162341 0.999986
-32.8403 -4.16776 3.43169 -0.00421552 0.00120897 0.999989
-32.9143 -3.21118 3.42985 -0.00272308 0.000409667 0.999996
-33.0324 -2.2503 3.42918 -0.00271649 -6.52362e-05 0.999996
-32.9716 -1.3683 3.42974 -0.00271857 -0.000704908 0.999996
-32.9632 -0.308118 3.4305 -0.00575987 -0.000918006 0.999983
-32.9369 0.507853 3.43108 -0.00562304 -6.42412e-05 0.999984
-32.8922 1.2699 3.43133 -0.00532495 1.07244e-05 0.999986
-32.8263 2.2772 3.43079 -0.00764127 0.000607021 0.999971
-32.8244 3.02942 3.43044 -0.00692962 -0.00163376 0.999975
-32.8134 3.83534 3.43213 -0.00552412 -0.0019686 0.999982
-32.8214 5.10175 3.43297 -0.00455076 -0.00123437 0.999988
-32.8892 5.92785 3.43271 -0.00437441 0.000118964 0.99999
-33.0003 6.79705 3.43173 -0.0044948 0.00166809 0.999989
-32.9857 7.82259 3.43136 -0.00654344 0.000400853 0.999979
-32.9109 8.76405 3.43139 -0.00641378 0.0004977 0.999979
-32.9144 9.59705 3.42979 -0.00414659 0.00162324 0.99999
-32.972 10.567 3.42793 -0.00604317 -0.000156178 0.999981
-32.9981 11.5198 3.42883 -0.00492803 -8.67057e-05 0.999987
-32.9591 12.4783 3.42813 -0.00357621 0.000868133 0.999993
-32.1517 12.9365 3.43212 -0.00509609 -0.000570019 0.999987
-31.081 13.0132 3.43396 -0.00128491 -0.00532508 0.999985
-30.219 12.9693 3.44386 -0.0177576 -0.00353011 0.999828
-29.2377 12.9244 3.47849 -0.0371982 -0.00164291 0.999306
-28.1936 12.951 3.52099 -0.0460968 -0.00374165 0.998926
-27.445 13.0369 3.55481 -0.0492854 -0.00447563 0.998761
-26.6855 13.0501 3.60606 -0.0754363 -0.00642194 0.99713
-25.6977 13.0033 3.69173 -0.108257 0.0108154 0.994064
-24.6407 12.9491 3.81905 -0.135341 0.0127181 0.990718
-23.7552 12.9572 3.94862 -0.152019 0.00123574 0.988377
-22.8765 12.9794 4.09555 -0.179503 0.00556257 0.983742
-22.0519 13.0104 4.25936 -0.214553 0.0171565 0.976562
-21.3158 13.0533 4.41821 -0.213893 0.00678544 0.976822
-20.4459 12.9899 4.62523 -0.237013 -0.0081967 0.971472
-19.4966 13.0107 4.86434 -0.253746 -0.00766513 0.96724
-18.7522 13.0074 5.06407 -0.262359 -0.00178012 0.964969
-17.9915 13.0137 5.27037 -0.26005 -0.00269522 0.965591
-17.0623 12.8421 5.52635 -0.26543 -0.00108207 0.964127
-16.1055 12.9114 5.78414 -0.259618 -0.00307746 0.965706
-15.1453 12.9397 6.03615 -0.247031 -0.00186158 0.969
-14.2961 13.0374 6.24222 -0.227084 -0.00161656 0.973874
-13.2539 12.9648 6.46862 -0.191736 -0.007985 0.981414
-12.3595 12.8997 6.64031 -0.169693 0.000295082 0.985432
-11.3737 12.9236 6.79891 -0.148027 0.00229784 0.988913
-10.5912 12.9798 6.90794 -0.135114 -0.00638921 0.990797
-9.83216 12.9948 6.99542 -0.10779 -0.00395435 0.994147
-8.78792 12.9863 7.09223 -0.0858224 -0.00226746 0.996277
-7.95653 12.9725 7.14905 -0.0628692 0.00248341 0.998019
-6.96855 12.9675 7.1993 -0.0368529 -0.00143479 0.99932
-6.18494 13 7.2263 -0.0302993 0.000137091 0.99954
-5.28984 13.0861 7.2497 -0.0205414 0.00127568 0.999788
-4.51919 13.0954 7.26329 -0.0156913 0.000836214 0.999877
-3.7509 13.075 7.27596 -0.0173726 -0.000869467 0.999847
-2.96398 13.0654 7.28509 -0.0105938 -0.000673949 0.999944
-2.1855 13.1141 7.29175 -0.00695254 0.000365898 0.999976
-0.945396 13.1468 7.29889 -0.00474106 0.00191406 0.999987
-0.13737 13.2112 7.30127 0.000741013 0.000707728 0.999999
0.905622 13.2243 7.30054 0.00232284 0.000482514 0.999996
1.75147 13.2273 7.29726 0.00603274 0.00116373 0.999979
2.61441 13.1517 7.29033 0.00951681 0.000820551 0.999953
3.60876 13.0896 7.27927 0.0121411 0.000399851 0.999926
4.61936 13.0445 7.26516 0.0181447 -0.00149287 0.999834
5.38102 13.0195 7.25113 0.0188013 -0.00148424 0.999822
6.25197 13.0822 7.22968 0.0282405 0.00131267 0.9996
7.20095 13.0302 7.19206 0.0469988 0.00286699 0.99889
7.9944 13.0154 7.15362 0.0492154 0.0051457 0.998773
8.94407 13.0466 7.08787 0.0768499 0.0143164 0.9969
9.6907 13.0958 7.02626 0.104282 0.00418957 0.994536
10.6249 13.0212 6.92072 0.117697 0.00314751 0.993045
11.4116 12.9738 6.81996 0.139005 0.00817245 0.990258
12.1815 12.971 6.69013 0.181514 0.00378067 0.983343
12.9582 12.9635 6.539 0.199741 -0.00580562 0.979832
13.7553 12.9168 6.37624 0.19774 -0.00883566 0.980208
14.9583 12.8975 6.08643 0.235346 -0.00126014 0.971911
15.7014 12.9039 5.90085 0.261386 0.000236073 0.965234
16.4648 13.0172 5.69547 0.260965 -0.00333461 0.965336
17.3338 13.0034 5.45478 0.26843 -0.00279725 0.963295
18.1063 12.9473 5.23894 0.268324 0.000549593 0.963329
18.8499 12.8639 5.03568 0.258012 -0.00024924 0.966142
19.6943 12.8923 4.81277 0.253792 0.000924864 0.967258
20.4784 12.9252 4.6096 0.244404 0.00175033 0.969672
21.2296 12.9677 4.42514 0.225195 0.00208401 0.974312
22.2226 12.9658 4.21372 0.187241 -0.00511983 0.982181
23.3921 12.945 4.00588 0.170325 -0.00713106 0.98533
24.2632 12.9877 3.87368 0.143445 0.0107516 0.989581
25.0641 12.9671 3.7624 0.13246 0.00941776 0.991124
26.0826 12.8678 3.64796 0.108087 -0.00286886 0.994137
26.9879 12.949 3.57865 0.0682474 -0.00525661 0.997655
28.039 12.8938 3.52061 0.0519398 0.000108382 0.99865
28.8463 12.887 3.48652 0.0326563 -0.00867279 0.999429
29.7348 12.8848 3.46581 0.0188745 -0.00517239 0.999808
30.972 12.9257 3.449 0.0128543 -0.00145559 0.999916
31.7578 12.933 3.4398 0.0111637 -0.00234586 0.999935
32.8295 12.6711 3.42992 0.00813102 -0.00104347 0.999966
32.9142 11.5846 3.42327 0.00059221 -0.00288257 0.999984
32.9231 10.833 3.42457 -0.00489511 0.00930342 0.999907
32.9485 9.84931 3.4306 0.00355445 0.00276114 0.99999
32.9342 8.96664 3.43293 0.00597838 -0.000502818 0.999981
32.9047 8.05387 3.43356 0.00496023 0.000630273 0.999987
32.8985 7.03646 3.43457 0.00530264 0.00147285 0.999985
32.9034 6.23987 3.43299 0.00773959 -0.00291381 0.999965
32.9508 5.33649 3.42883 0.00431863 -0.00226435 0.999988
32.9606 4.37192 3.43106 0.0107309 0.00326354 0.999937
32.8293 3.23044 3.43648 0.00584029 0.00117007 0.999981
32.7937 2.37295 3.4367 0.00743539 -0.00177136 0.999971
32.9032 1.42454 3.43124 0.00970576 -0.00373142 0.99994
32.8696 0.576036 3.43292 0.00840976 0.00287257 0.999961
32.8684 -0.267635 3.4357 0.0083235 0.0035168 0.999959
32.8881 -1.1622 3.43794 0.00759254 0.00216991 0.999969
32.8833 -1.94352 3.43883 0.00753055 -0.000434699 0.999972
32.9081 -2.77572 3.43923 0.00545242 0.00186872 0.999983
32.8921 -3.82888 3.44087 0.0054162 0.000552909 0.999985
32.942 -4.85869 3.44046 0.00430872 0.000528979 0.99999
33.0216 -5.8361 3.43979 0.00446014 -0.00577211 0.999957
33.0558 -6.61348 3.43555 0.0084216 0.00272803 0.999961
33.0003 -7.54135 3.43649 -0.000870279 0.0155989 0.999734
32.9694 -8.61893 3.4375 0.00194537 -0.00164226 0.999997
32.9265 -9.74351 3.43755 -0.00139467 0.00114801 0.999998
32.8986 -10.8408 3.44011 0.0108425 0.000592698 0.999941
32.858 -11.7228 3.44023 0.0034258 -0.00465091 0.999977
32.8182 -12.5161 3.43732 -0.000733369 -0.00987646 0.999904
32.1235 -12.9132 3.44189 0.0170483 0.00654145 0.999747
31.3359 -12.9262 3.45609 0.0158416 -0.000518801 0.999874
30.3252 -12.8916 3.47194 0.0194361 0.000901715 0.999804
29.217 -12.9797 3.4991 0.0273522 -0.00331006 0.99962
28.4518 -13.0084 3.5264 0.0470032 0.00433033 0.998885
27.5835 -12.9415 3.57086 0.0644114 -0.00119617 0.997923
26.7416 -12.9621 3.63044 0.0772621 7.01559e-05 0.997008
25.8544 -13.022 3.70669 0.0929451 -0.00246813 0.995668
25.0623 -13.0498 3.79206 0.126179 -0.0121338 0.991933
24.1883 -12.982 3.90831 0.135118 -0.00569377 0.990813
23.3834 -13.0515 4.02523 0.162173 -0.00711257 0.986658
22.4767 -13.004 4.1897 0.189974 -0.000877148 0.981776
21.6152 -12.9846 4.36324 0.205243 -0.00688866 0.978665
20.7054 -12.9101 4.57268 0.230312 0.00415581 0.973108
19.7123 -12.9155 4.81346 0.237234 0.00347061 0.971444
18.8938 -12.8544 5.02497 0.240345 0.0142537 0.970452
17.9659 -12.813 5.28405 0.268493 0.00106379 0.963281
16.9867 -12.8201 5.55687 0.26299 0.00128516 0.964782
16.0021 -12.8021 5.82139 0.25999 0.00504016 0.965598
15.2729 -12.7239 6.0111 0.247131 0.00331702 0.968962
14.4273 -12.7158 6.21858 0.234109 0.00184059 0.972209
13.56 -12.8149 6.41653 0.220942 -0.00756216 0.975258
12.4038 -12.8555 6.64788 0.196855 -0.00726863 0.980389
11.6637 -12.9507 6.76402 0.151686 -0.00589836 0.988411
10.7667 -12.9598 6.89912 0.13148 -0.00101225 0.991148
10.0204 -12.9391 6.97857 0.107154 -0.0164667 0.994106
9.18709 -12.8641 7.06562 0.0806434 -0.00148092 0.996723
8.23708 -12.886 7.13662 0.0740701 -0.000614398 0.997253
7.4142 -12.9439 7.17905 0.0460484 -0.00140764 0.998929
6.58003 -12.9813 7.21245 0.0339538 -0.00324254 0.999417
5.70879 -12.9667 7.23777 0.0253078 0.00052771 0.999678
4.94344 -13.0051 7.25708 0.0248151 0.00276589 0.999688
4.16744 -13.0036 7.27231 0.0174462 7.626e-06 0.999848
3.32382 -12.9725 7.28369 0.00986657 0.00220003 0.999949
2.55966 -12.9245 7.29169 0.00720452 -0.000773237 0.999974
1.47304 -12.9459 7.29774 0.0035987 0.0018849 0.999991
0.707756 -13.0047 7.29991 0.00273385 0.0014151 0.999995
-0.294554 -12.9094 7.30009 -0.00161779 -8.79546e-05 0.999999
-1.16924 -12.9412 7.29789 -0.00354963 0.000573773 0.999993
-2.1164 -12.9445 7.29404 -0.00662675 0.00101322 0.999977
-3.02101 -12.9129 7.28633 -0.0098977 0.00259794 0.999948
-4.16831 -12.9281 7.27144 -0.0148329 0.00182478 0.999888
-5.1262 -12.9141 7.25087 -0.02521 0.00251823 0.999679
-6.12553 -12.9054 7.22129 -0.0314638 0.0024191 0.999502
-7.07302 -12.867 7.18988 -0.0444609 0.00141176 0.998994
-8.06619 -12.9194 7.14157 -0.04844 0.00203522 0.998824
-9.02766 -12.926 7.07632 -0.0848998 -0.00118651 0.996384
-9.95634 -12.9558 6.99127 -0.0993362 -0.000950563 0.995053
-10.8623 -12.9566 6.87971 -0.137306 -0.0141919 0.990427
-11.6746 -12.9937 6.7579 -0.156303 -0.0128943 0.987625
-12.4603 -13.0719 6.63235 -0.156822 -0.0114338 0.987561
-13.2808 -13.0515 6.47678 -0.205473 -0.00606069 0.978644
-14.0191 -12.9501 6.31307 -0.223462 -0.0121855 0.974636
-15.0986 -12.9331 6.04217 -0.248193 -0.00163693 0.968709
-16.014 -12.9266 5.80502 -0.255296 -0.000101277 0.966849
-16.1237 -12.9358 5.77547 -0.26021 0.000352239 0.965552
-16.0085 -14.188 5.80322 -0.248312 -0.00413064 0.968671
-16.798 -14.2233 5.59112 -0.261326 -0.000995416 0.965249
-17.6404 -14.2792 5.36134 -0.264279 0.00134702 0.964445
-18.4511 -14.223 5.14046 -0.258984 0.000405883 0.965881
-19.1718 -14.1091 4.9484 -0.252091 -0.000986461 0.967703
-20.0029 -14.0851 4.73224 -0.251454 -0.00065838 0.967869
-20.7826 -14.0861 4.52908 -0.249579 0.00465502 0.968334
-21.7923 -14.0485 4.31269 -0.200521 -0.00353567 0.979683
-22.7022 -14.0773 4.13055 -0.181501 0.00954902 0.983288
-23.613 -14.1704 3.96683 -0.178842 0.0197102 0.98368
-24.4562 -14.0826 3.83836 -0.125146 0.00159369 0.992137
-25.2852 -14.0476 3.74116 -0.108267 -0.00679553 0.994099
-26.1329 -14.065 3.6537 -0.0966244 -0.00109985 0.99532
-26.8807 -14.1644 3.59707 -0.07207 -0.00825509 0.997365
-27.7027 -14.1887 3.53952 -0.0489434 -0.000320439 0.998798
-28.4843 -14.1779 3.50218 -0.0391612 -0.000386592 0.999193
-29.4721 -14.1744 3.47086 -0.02799 0.000696915 0.999597
-30.4163 -14.116 3.44898 -0.0208402 -0.000427029 0.999779
-31.271 -14.0719 3.43553 -0.00893449 0.00108291 0.999958
-32.2443 -14.0482 3.42981 -0.00503481 -0.000802495 0.999987
-33.1134 -14.0844 3.42569 -0.00465422 -0.000540738 0.999989
-34.1225 -13.8816 3.42154 -0.00391451 -0.000602966 0.999992
-34.204 -13.074 3.42175 -0.00392854 -0.00070289 0.999992
-34.1918 -12.123 3.422 -0.00407807 0.000258519 0.999992
-34.1731 -11.152 3.42186 -0.00307367 0.000518079 0.999995
-34.1477 -10.3731 3.42156 0.00107207 -8.41574e-05 0.999995
-34.1626 -9.42835 3.42169 -0.00170931 -0.000736877 0.999998
-34.1914 -8.5219 3.4226 -0.00229328 -0.00129075 0.999997
-34.243 -7.58622 3.42335 -0.00320568 -0.000329989 0.999995
-34.3058 -6.65617 3.42372 -0.00363336 -0.000641935 0.999993
-34.2241 -5.80987 3.42439 -0.00397755 -0.000696674 0.999992
-34.0933 -4.83248 3.42545 -0.00481833 -0.000697527 0.999988
-34.0657 -3.80464 3.42641 -0.00333695 6.14782e-06 0.999994
-34.1938 -2.98141 3.42566 -0.00353648 0.000373899 0.999994
-34.2743 -2.11163 3.42526 -0.00374942 -9.58732e-05 0.999993
-34.2589 -0.966926 3.42534 -0.00378123 4.86393e-05 0.999993
-34.2305 0.0709517 3.42545 -0.00349901 -0.000203071 0.999994
-34.1332 1.12176 3.42575 -0.00319281 0.000303496 0.999995
-34.0461 2.26756 3.42527 -0.00240835 0.00145587 0.999996
-34.0303 3.12505 3.42402 -0.000223945 0.00462645 0.999983
-34.0399 3.89134 3.42658 -0.00311853 -0.00367441 0.999988
-34.0934 4.7618 3.42777 -0.00325539 -0.000484585 0.999994
-34.1638 5.63314 3.42722 -0.00316399 0.000259035 0.999995
-34.2486 6.47397 3.4267 -0.00344646 0.000259274 0.999994
-34.2129 7.67125 3.42558 -0.00324029 0.000838818 0.999994
-34.177 8.56763 3.42552 -0.00312987 0.000178957 0.999995
-34.1287 9.38171 3.42558 -0.00287538 0.000279031 0.999996
-34.2074 10.3167 3.42456 -0.00204059 0.00101975 0.999997
-34.2347 11.3731 3.42259 -0.00148562 0.000466246 0.999998
-34.2131 12.5051 3.42307 -0.0031334 0.00083769 0.999994
-34.166 13.4688 3.42279 -0.00289497 0.000400388 0.999996
-33.4715 14.0432 3.42546 -0.00497595 0.000586803 0.999987
-32.645 14.1379 3.43 -0.00588005 4.36296e-07 0.999983
-31.884 14.2213 3.43505 -0.00803185 -0.000638677 0.999968
-31.125 14.2509 3.44184 -0.00985044 -0.0034064 0.999946
-30.3383 14.2137 3.45136 -0.0154347 -0.00553222 0.999858
-29.5638 14.196 3.47006 -0.0277431 0.000854946 0.999615
-28.5952 14.1326 3.50294 -0.0390597 0.00755622 0.999208
-27.712 14.2377 3.54161 -0.0468743 0.00602406 0.998883
-26.9556 14.2695 3.58222 -0.0660385 0.00654159 0.997727
-25.9484 14.257 3.66079 -0.07999 0.00936642 0.996752
-25.204 14.1946 3.73461 -0.137153 0.0377346 0.989831
-24.0634 14.1819 3.88423 -0.150032 0.00872841 0.988555
-23.2678 14.2062 4.01516 -0.174341 0.0108055 0.984555
-22.2889 14.2237 4.19971 -0.184997 0.00783328 0.982708
-21.4894 14.2257 4.36506 -0.221188 0.012471 0.975151
-20.3315 14.2534 4.65283 -0.245093 0.003106 0.969495
-19.2494 14.2586 4.93045 -0.25282 0.00512485 0.9675
-18.426 14.2193 5.15216 -0.264864 0.00294244 0.964281
-17.6575 14.1627 5.36369 -0.26546 0.00096513 0.96412
-16.7669 14.1035 5.60709 -0.262373 -0.000277518 0.964966
-16.0267 14.1253 5.80633 -0.257571 0.00217717 0.966255
-15.1064 14.1961 6.04659 -0.247211 0.000880277 0.968957
-14.2183 14.2192 6.26457 -0.221956 -0.00358238 0.975039
-13.3985 14.2397 6.44583 -0.20439 -0.00590236 0.97886
-12.4292 14.155 6.6328 -0.176202 -0.0159618 0.984225
-11.1943 14.1454 6.83227 -0.155609 -0.0162361 0.987685
-10.2039 14.2222 6.96362 -0.129131 -0.0020213 0.991623
-9.45589 14.2231 7.05132 -0.0797527 -0.0107658 0.996684
-8.62298 14.219 7.10976 -0.0699005 -0.00104445 0.997553
-7.70581 14.1844 7.16542 -0.046771 0.00239915 0.998903
-6.88057 14.2145 7.20483 -0.0408005 -0.00222684 0.999125
-6.07634 14.2573 7.23092 -0.0285504 -0.00190305 0.999581
-5.14362 14.3035 7.25373 -0.0233552 0.00121909 0.999726
-4.39027 14.3141 7.26606 -0.0155964 0.00177761 0.999877
-3.59155 14.3187 7.27779 -0.0115035 0.000666962 0.999934
-2.62229 14.2997 7.28882 -0.011368 0.000851984 0.999935
-1.77482 14.3102 7.29453 -0.00618934 -0.000182594 0.999981
-0.75969 14.3356 7.29921 -0.00363539 -0.000479268 0.999993
0.151024 14.3618 7.30089 4.42961e-05 0.00101766 0.999999
1.07869 14.395 7.29886 0.00362595 -0.000129881 0.999993
1.85216 14.4066 7.29528 0.0069424 0.000471289 0.999976
2.75372 14.3348 7.28807 0.0101657 0.000274699 0.999948
3.56937 14.3275 7.27989 0.0106502 -0.000559428 0.999943
4.33094 14.3061 7.27027 0.0175013 0.00048593 0.999847
5.1475 14.2982 7.25588 0.0193572 0.00119782 0.99981
5.97666 14.2601 7.23867 0.0245566 -0.000549625 0.999688
7.09056 14.2149 7.19984 0.0418337 -0.00655863 0.999072
7.86428 14.2361 7.15716 0.0568234 -0.00956196 0.998338
8.82074 14.2726 7.09887 0.0684925 -0.0154965 0.997531
9.65015 14.2848 7.03653 0.0984766 -0.00835789 0.99503
10.762 14.2913 6.89827 0.130422 -0.00438395 0.991449
11.6929 14.2197 6.76974 0.165282 0.00925956 0.986203
12.574 14.2303 6.62004 0.168659 0.00490886 0.985655
13.4437 14.1512 6.45192 0.217649 -0.00392569 0.975942
14.5074 14.1475 6.19952 0.231267 -0.00584997 0.972873
15.3538 14.151 5.99144 0.239918 -0.00500074 0.97078
16.0885 14.2192 5.79784 0.258267 -0.000702943 0.966073
16.9544 14.2809 5.56299 0.263466 -0.00222398 0.964666
17.717 14.2906 5.35058 0.273037 4.42737e-06 0.961995
18.4609 14.2692 5.13775 0.268319 0.00249993 0.963304
19.2323 14.1597 4.92867 0.260555 0.00134765 0.965456
20.0062 14.1675 4.73035 0.246117 -0.00366237 0.969233
20.8055 14.2053 4.53245 0.236611 -0.00286927 0.9716
21.5979 14.2026 4.35095 0.207134 -0.0150548 0.978197
22.5845 14.2023 4.15536 0.177073 -0.00248397 0.984195
23.9106 14.2206 3.92638 0.165035 -0.00395484 0.98628
24.8679 14.1789 3.77237 0.121796 0.0116243 0.9923
25.7535 14.1481 3.68279 0.0979254 -0.00341796 0.995188
26.6084 14.1756 3.60838 0.0754783 -0.00545541 0.997133
27.4063 14.1733 3.55896 0.0497559 -0.00549107 0.998746
28.2028 14.1534 3.51892 0.0428438 -0.00869834 0.998994
28.9752 14.1153 3.4913 0.0371322 0.00243811 0.999307
29.7838 14.0955 3.46876 0.0196046 0.00206498 0.999806
31.016 14.1567 3.4489 0.0121347 0.000325043 0.999926
31.8104 14.1797 3.43925 0.0118515 0.000622799 0.999929
32.9688 14.1598 3.42976 0.00793611 0.000596774 0.999968
33.8459 14.1322 3.42088 0.0135454 -0.00616851 0.999889
34.2035 13.451 3.41698 0.00898416 0.00486019 0.999945
34.2138 12.6403 3.42051 0.00987502 0.00316711 0.999946
34.1997 11.7263 3.4254 0.00173837 0.00271899 0.999995
34.1768 10.6972 3.42693 6.93869e-05 0.00045993 1
34.1732 9.51572 3.42804 0.00340543 0.000777471 0.999994
34.1586 8.4905 3.42851 0.00363907 -8.90051e-05 0.999993
34.1081 7.65401 3.42879 0.00400721 2.16597e-05 0.999992
34.1369 6.86731 3.42842 0.00392194 -0.00106125 0.999991
34.1945 5.92679 3.42525 0.00230761 -0.002894 0.999991
34.177 5.06377 3.42371 -0.000598683 -0.00184385 0.999998
34.2036 4.23141 3.42447 -0.000511878 0.00728746 0.999973
34.1219 3.45738 3.42926 -0.00116938 0.00576093 0.999983
34.0203 2.60481 3.43049 0.00333662 -0.00338129 0.999989
34.1129 1.85594 3.42749 0.00345709 -0.00377332 0.999987
34.1301 1.00872 3.42301 -0.00586139 0.00600157 0.999959
34.1461 0.0904473 3.42794 -0.000475858 0.00321648 0.999995
34.1584 -0.979814 3.43014 0.00332932 -0.00372369 0.999988
34.1438 -1.84707 3.42932 0.00767372 0.000193201 0.999971
34.1306 -2.94896 3.43183 0.00278897 0.00442397 0.999986
34.1851 -3.72624 3.43415 0.00364306 0.00122038 0.999993
34.2831 -4.68614 3.4342 0.00464108 -0.000663862 0.999989
34.3345 -5.52817 3.43201 0.0079116 -0.00524452 0.999955
34.4029 -6.2812 3.4237 0.00842297 -0.00703753 0.999929
34.268 -7.10143 3.42727 0.00474334 0.0118904 0.999918
34.2157 -8.019 3.43352 0.00364057 0.0033674 0.999988
34.2101 -8.96314 3.43569 0.0049883 0.00034741 0.999987
34.2238 -9.79014 3.43393 0.00509082 -0.00389182 0.999979
34.2103 -10.7465 3.43342 0.00584474 0.00413531 0.999974
34.1319 -11.85 3.43645 0.00314046 -7.1111e-05 0.999995
34.1059 -12.6102 3.43639 0.000504612 -0.00187653 0.999998
34.0963 -13.4457 3.43667 0.00732739 0.00232113 0.99997
33.5378 -14.0428 3.44131 0.00340372 0.00247066 0.999991
32.7881 -14.1892 3.44403 0.00275217 0.00120495 0.999995
32.0116 -14.2002 3.44943 0.0101479 0.00413651 0.999933
31.2021 -14.1535 3.45911 0.0136621 0.00145315 0.999904
30.3592 -14.1368 3.47122 0.0174346 -0.00141176 0.999838
29.3766 -14.222 3.49236 0.0186577 -0.00519389 0.999803
28.4125 -14.2503 3.52891 0.0469622 -0.00276842 0.998888
27.3977 -14.197 3.58166 0.0617819 0.000503697 0.998049
26.637 -14.1878 3.63569 0.0774853 -0.00332527 0.996971
25.802 -14.2506 3.70484 0.0826185 -0.00149694 0.99658
24.9687 -14.3222 3.79678 0.132926 -0.0018998 0.991123
23.9515 -14.2564 3.93866 0.153086 0.00474329 0.988127
23.0181 -14.2386 4.09457 0.16269 0.00825472 0.986621
22.2796 -14.2371 4.23404 0.192402 -0.00264395 0.981313
21.5393 -14.2276 4.38216 0.201064 -0.00298856 0.979573
20.6449 -14.1886 4.58529 0.234613 -0.00385766 0.972081
19.7897 -14.1451 4.79307 0.244748 -0.00345707 0.969559
18.8932 -14.0833 5.02857 0.265552 0.00316328 0.964089
17.8896 -14.0472 5.3068 0.267924 0.000849159 0.96344
17.0125 -14.0578 5.55176 0.270006 0.000304999 0.962858
16.2803 -14.0839 5.7518 0.259459 0.00282179 0.96575
15.2899 -13.9843 6.00811 0.242249 0.00287592 0.97021
14.3678 -13.9826 6.22936 0.213577 0.0052423 0.976912
13.3733 -14.0541 6.44374 0.206462 -0.0114256 0.978388
12.5017 -14.0866 6.62103 0.17588 -0.01477 0.984278
11.5925 -14.1794 6.77982 0.158222 -0.010613 0.987159
10.4982 -14.2073 6.92617 0.115544 -0.0086221 0.993258
9.65736 -14.1781 7.01703 0.0992968 -0.00930346 0.995014
8.85551 -14.1335 7.0862 0.0755572 0.000163747 0.997141
8.10544 -14.1309 7.14085 0.0681425 0.00158948 0.997674
7.31247 -14.165 7.18268 0.0424969 0.000741614 0.999096
6.51207 -14.2172 7.21116 0.0344853 -0.00117334 0.999404
