5.40138 4.80854 46.4918 0.350332 0.228363 0.907967
5.59969 5.72909 46.1825 0.3762 0.223607 0.898456
5.59969 5.72909 46.1825 0.3762 0.223607 0.898456
5.90764 6.48384 45.8514 0.437865 0.215236 0.872548
6.21464 7.48268 45.4784 0.456531 0.203746 0.865795
6.42736 8.49458 45.18 0.470112 0.13697 0.87166
6.77503 9.52164 44.8046 0.50729 0.127263 0.852062
7.0894 10.3727 44.5057 0.571767 0.0845929 0.816043
7.34892 11.0431 44.2492 0.592447 0.036747 0.804771
7.68271 11.8244 43.953 0.640341 0.0382734 0.766621
8.12833 12.6283 43.5732 0.658969 0.0231609 0.751157
8.54009 13.2022 43.2103 0.674448 -0.0319074 0.737632
8.98534 13.8192 42.7958 0.711277 -0.06612 0.699795
9.41077 14.5149 42.4006 0.749775 -0.0355083 0.66074
9.14859 13.6715 42.6159 0.713207 -0.0346121 0.699386
8.90497 12.8507 42.8615 0.694797 -0.0175097 0.718301
8.65953 12.145 43.103 0.680385 0.0357725 0.731981
8.49955 11.1265 43.3297 0.637301 0.0728414 0.767165
8.30778 10.3602 43.5811 0.645805 0.11577 0.754674
8.08883 9.69788 43.8658 0.614921 0.121857 0.779116
7.74314 8.87571 44.266 0.559644 0.164492 0.812244
7.41672 8.06187 44.6546 0.558894 0.162917 0.813078
7.04304 7.19771 45.0946 0.49925 0.203831 0.841452
6.753 6.57271 45.4053 0.437868 0.215239 0.872545
6.34243 5.77762 45.829 0.420893 0.226641 0.878113
5.89792 5.08313 46.2158 0.397166 0.245 0.88444
5.45814 4.82905 46.4631 0.374692 0.220136 0.900636
4.15226 5.50387 46.7302 0.261651 0.224299 0.938482
3.89369 4.80517 46.9524 0.243146 0.220237 0.944583
3.77187 4.02603 47.1636 0.224338 0.216811 0.950087
4.2917 3.56408 47.1678 0.262777 0.247553 0.932559
4.99186 3.32156 47.0349 0.258352 0.259068 0.930582
5.79901 3.21114 46.7965 0.311038 0.27181 0.9107
6.42639 3.60535 46.4342 0.366086 0.304219 0.87945
7.05985 4.43414 45.8826 0.419245 0.28534 0.86148
7.41789 5.0542 45.4815 0.487243 0.274586 0.828308
7.76728 5.7469 45.0739 0.507437 0.256026 0.822448
8.12852 6.4535 44.6122 0.524265 0.258796 0.811278
8.38831 7.11094 44.2035 0.567296 0.243468 0.786701
8.68126 7.91244 43.7764 0.595301 0.202506 0.777565
8.90751 8.6291 43.4137 0.649174 0.193175 0.735684
9.2067 9.57261 42.9423 0.661009 0.145574 0.736044
9.36005 10.3283 42.6451 0.675785 0.12997 0.725325
9.54159 11.249 42.3241 0.731088 0.116253 0.672263
9.707 11.9376 42.0742 0.742471 0.0520861 0.66785
9.9943 13.0283 41.69 0.759731 0.0167981 0.65002
10.2199 13.7852 41.4293 0.772487 -0.0293749 0.633683
10.4518 14.5268 41.1519 0.785278 -0.0394065 0.617471
10.7378 15.3131 40.8491 0.808785 -0.0677624 0.583722
10.9737 16.0087 40.6317 0.817847 -0.0805726 0.569363
11.2218 16.7762 40.4084 0.822128 -0.124353 0.555555
11.4935 17.5417 40.1909 0.826605 -0.169336 0.536467
12.0142 18.7015 39.708 0.853316 -0.162763 0.495247
12.3713 19.5745 39.4241 0.857794 -0.204024 0.471761
12.6665 20.4053 39.2663 0.85558 -0.233687 0.461924
13.0307 21.3384 39.0598 0.858377 -0.242174 0.45206
13.3462 22.0278 38.8485 0.870533 -0.269058 0.412043
13.6469 22.8053 38.718 0.872309 -0.279309 0.400961
13.9245 23.5017 38.6243 0.871266 -0.29435 0.392752
14.2383 24.247 38.4824 0.87106 -0.313372 0.378223
14.6513 25.2341 38.3374 0.875567 -0.312969 0.367906
14.9913 26.0443 38.2441 0.877125 -0.325714 0.352744
15.4411 27.0974 38.0819 0.880153 -0.326619 0.344457
15.7409 27.8392 38.0436 0.880668 -0.338685 0.331234
16.1108 28.7586 38.009 0.88149 -0.345388 0.321997
16.4128 29.522 38.0058 0.880157 -0.348992 0.321759
16.7457 30.366 38.0098 0.880339 -0.348497 0.321797
17.0343 31.1185 38.0375 0.881497 -0.35221 0.314499
17.3204 31.9419 38.1584 0.88152 -0.353802 0.31264
17.5623 32.7086 38.342 0.883286 -0.351947 0.309742
17.482 33.0026 38.9052 0.883835 -0.352925 0.307036
17.1329 32.6414 39.4939 0.882317 -0.357164 0.306513
16.8179 31.9657 39.6151 0.882532 -0.356144 0.307079
16.5484 31.2468 39.5558 0.882514 -0.356221 0.307045
16.2564 30.4518 39.4673 0.881004 -0.355354 0.31234
16.0032 29.7467 39.3814 0.879601 -0.351634 0.320382
15.667 28.8799 39.3461 0.878538 -0.351649 0.323278
15.3046 27.9991 39.366 0.875056 -0.355249 0.328748
14.9843 27.2283 39.4008 0.868949 -0.354376 0.345464
14.5426 26.2274 39.5118 0.869629 -0.341046 0.356863
14.1508 25.2968 39.5807 0.87022 -0.327188 0.368327
13.7195 24.323 39.7218 0.863937 -0.321181 0.387884
13.2839 23.4167 39.9317 0.85189 -0.32416 0.411341
12.9604 22.6675 40.0484 0.852273 -0.295818 0.431419
12.4917 21.7042 40.3234 0.849793 -0.278775 0.447344
12.135 20.9653 40.5322 0.843947 -0.281837 0.456347
11.7424 20.1958 40.809 0.836951 -0.242763 0.490489
11.4046 19.5397 41.0393 0.8208 -0.236791 0.518836
11.0348 18.8864 41.3574 0.822006 -0.206974 0.530536
10.5501 18.1627 41.7754 0.807853 -0.199624 0.553758
10.1531 17.5231 42.1096 0.776786 -0.181961 0.602904
9.74854 16.8705 42.4222 0.769584 -0.193676 0.608466
9.35429 16.1802 42.7336 0.755991 -0.120103 0.643103
8.92971 15.5764 43.0739 0.716062 -0.117494 0.688038
8.49041 15.0028 43.4143 0.696969 -0.131235 0.704991
8.02456 14.3816 43.7736 0.652598 -0.0804793 0.753166
7.45388 13.6702 44.1814 0.639195 -0.0737602 0.765499
7.03646 13.0287 44.4609 0.575289 -0.0803898 0.813981
6.67185 12.4039 44.7005 0.558167 0.00190466 0.829726
6.32505 11.7065 44.9214 0.535764 0.00170124 0.844092
5.94434 10.8434 45.1894 0.533115 0.0379388 0.845192
5.60264 9.99285 45.4164 0.449694 0.0843943 0.88858
5.32823 9.16231 45.6621 0.440262 0.144026 0.886243
5.1499 8.43294 45.831 0.404364 0.127858 0.905079
4.895 7.47243 46.0946 0.335932 0.152296 0.929403
4.5809 6.66538 46.3592 0.31639 0.185262 0.930349
4.3166 5.95524 46.5745 0.299477 0.166399 0.939481
4.27112 5.82989 46.6112 0.28765 0.202818 0.935221
3.08849 6.45303 46.8232 0.255356 0.185589 0.948864
3.34704 7.16474 46.6426 0.274046 0.131293 0.952713
3.70446 8.14702 46.4157 0.267177 0.102525 0.958178
3.97002 8.9384 46.2429 0.358703 0.114954 0.926341
4.19089 9.64888 46.1064 0.391926 0.0398003 0.919135
4.40677 10.3928 45.9838 0.465166 -0.0347247 0.884542
4.72721 11.2499 45.8221 0.428523 0.00392196 0.903522
5.09205 11.946 45.6401 0.480777 -0.00833348 0.8768
5.53383 12.7845 45.4375 0.508051 -0.0667632 0.858736
5.97549 13.5737 45.2475 0.553637 -0.0898408 0.827699
6.49487 14.338 44.9802 0.581911 -0.122978 0.803155
7.19747 15.1713 44.6008 0.615746 -0.126318 0.777753
7.73008 15.745 44.2692 0.659472 -0.165526 0.733277
8.23134 16.3212 43.9488 0.675455 -0.16416 0.718523
8.70452 16.9914 43.651 0.711629 -0.220599 0.666925
9.29382 17.8454 43.286 0.74315 -0.23291 0.62728
9.80714 18.5683 42.9472 0.76608 -0.236493 0.597656
10.3326 19.3129 42.5741 0.793366 -0.277624 0.541753
10.7799 20.0004 42.2567 0.804222 -0.26093 0.533988
11.1919 20.6508 41.9745 0.803361 -0.321806 0.501004
11.6329 21.4479 41.7356 0.834523 -0.310966 0.454832
12.1037 22.3627 41.4956 0.833301 -0.331771 0.441466
12.5389 23.2213 41.3074 0.846243 -0.329565 0.418608
12.9381 24.0117 41.1378 0.847852 -0.350053 0.398259
13.3438 24.8183 40.9818 0.850134 -0.349206 0.39409
13.767 25.6852 40.8431 0.85838 -0.362339 0.363172
14.1032 26.44 40.7868 0.861322 -0.367046 0.350923
14.5504 27.4082 40.7044 0.865145 -0.375021 0.332946
15.0406 28.5187 40.6516 0.872898 -0.361994 0.327017
15.5629 29.7968 40.6683 0.877085 -0.369499 0.306815
15.8462 30.5356 40.7329 0.879898 -0.36382 0.305639
16.1876 31.4318 40.8144 0.880748 -0.362783 0.304421
16.5352 32.2939 40.8305 0.884014 -0.35906 0.299324
16.8913 33.1989 40.8631 0.884583 -0.359651 0.296926
17.2812 33.9416 40.5875 0.889245 -0.349377 0.295261
17.8121 34.2412 39.3779 0.885893 -0.349186 0.305387
18.1274 34.3616 38.6019 0.884997 -0.348612 0.308627
18.4691 34.4542 37.7267 0.884605 -0.348785 0.309551
18.4837 34.0438 37.2237 0.884208 -0.349044 0.310394
18.172 33.1108 37.0621 0.883717 -0.349557 0.311214
17.9211 32.408 36.9847 0.882994 -0.350119 0.312624
17.6818 31.6669 36.8357 0.883066 -0.34828 0.314476
17.3072 30.6075 36.7184 0.882438 -0.34769 0.316882
16.9445 29.6765 36.7205 0.881975 -0.344364 0.321766
16.605 28.8166 36.7435 0.882561 -0.337899 0.326973
16.2908 28.0139 36.7636 0.882208 -0.331233 0.334655
16.0224 27.3034 36.774 0.883173 -0.325785 0.337444
15.6611 26.3898 36.852 0.884966 -0.315958 0.34206
15.3818 25.6941 36.9402 0.886585 -0.300823 0.351357
15.0716 24.9162 37.0554 0.883028 -0.303675 0.357805
14.7436 24.0802 37.182 0.883186 -0.286514 0.371338
14.463 23.3624 37.2934 0.883802 -0.264184 0.386136
14.108 22.4387 37.47 0.88194 -0.267358 0.388203
13.7854 21.5742 37.6519 0.885798 -0.235658 0.399785
13.4929 20.7916 37.8387 0.878395 -0.235114 0.415734
13.0912 19.671 38.1168 0.871222 -0.195299 0.450362
12.8074 18.9055 38.3532 0.871856 -0.165152 0.46088
12.507 18.0597 38.6259 0.863712 -0.145022 0.482326
12.2235 17.272 38.9185 0.861897 -0.131126 0.489836
11.9859 16.5655 39.166 0.848702 -0.106615 0.518013
11.7172 15.6645 39.4698 0.843044 -0.0657702 0.533376
11.43 14.7187 39.8182 0.836898 -0.0270106 0.546692
11.1833 13.8732 40.1518 0.816874 0.00360546 0.576805
10.9089 12.9016 40.5566 0.799174 0.0289624 0.600401
10.7104 11.992 40.8949 0.777877 0.0653934 0.625005
10.5393 11.2055 41.2137 0.767016 0.110662 0.631944
10.3678 10.4283 41.5461 0.759368 0.133919 0.636036
10.2245 9.62189 41.8915 0.731879 0.139885 0.666922
10.0587 8.64235 42.3312 0.703619 0.186878 0.685506
9.86547 7.85954 42.7544 0.698797 0.202191 0.686083
9.66739 7.1035 43.187 0.62605 0.249758 0.738703
9.4122 6.44434 43.6181 0.605056 0.254671 0.753879
9.10945 5.61919 44.1719 0.600935 0.288812 0.745264
8.75777 4.87884 44.7048 0.550533 0.291226 0.782369
8.41739 4.14398 45.2143 0.504117 0.307228 0.806927
7.9623 3.37515 45.7741 0.464785 0.29221 0.835816
7.58138 2.84305 46.1759 0.414711 0.320759 0.85136
7.01965 2.20313 46.6622 0.364822 0.291622 0.884229
6.39135 1.82269 47.0345 0.288299 0.298089 0.909888
5.62351 1.80559 47.2863 0.288511 0.288824 0.912865
4.76014 2.00926 47.4736 0.229426 0.256093 0.938857
3.92621 2.29036 47.5907 0.192935 0.246578 0.94928
3.12749 2.58293 47.6452 0.11488 0.229165 0.966437
2.40775 2.86608 47.6626 0.0974755 0.204972 0.973837
2.0965 3.6962 47.5338 0.104665 0.16344 0.980986
2.36451 4.48059 47.3383 0.148009 0.206907 0.9671
2.61264 5.19002 47.148 0.148739 0.20766 0.966827
2.87916 5.9459 46.9624 0.152337 0.180159 0.97177
2.99382 6.2251 46.8926 0.203102 0.181975 0.960693
1.69065 6.72915 47.063 0.11981 0.121209 0.98537
2.11449 7.75107 46.8679 0.226052 0.10035 0.968933
2.48131 8.67534 46.7031 0.214658 0.0692341 0.974232
2.80375 9.59495 46.5783 0.255881 0.0356241 0.966052
3.23602 10.8331 46.45 0.289053 -0.0131836 0.957222
3.68439 11.9915 46.3073 0.380936 -0.050105 0.923243
4.12184 12.7886 46.1844 0.417597 -0.105942 0.90141
4.56741 13.5721 46.0552 0.457155 -0.111488 0.882368
5.10669 14.4074 45.8984 0.485199 -0.154363 0.860518
5.66367 15.1761 45.7043 0.495198 -0.188317 0.846896
6.2634 15.8567 45.4733 0.568389 -0.202424 0.797252
6.76765 16.3847 45.2299 0.586909 -0.222559 0.77764
7.43817 17.0422 44.9004 0.64301 -0.259643 0.720502
8.15138 17.8288 44.5284 0.676814 -0.277319 0.681921
8.63955 18.4494 44.283 0.711331 -0.301564 0.634532
9.07006 19.0283 44.0761 0.726238 -0.305938 0.615614
9.51343 19.5751 43.8159 0.749751 -0.330626 0.573202
10.1007 20.3599 43.4781 0.778508 -0.322095 0.538663
10.6013 21.0937 43.2097 0.780773 -0.375074 0.499665
11.1104 21.8773 42.9593 0.808999 -0.363794 0.461708
11.6659 22.8052 42.7056 0.829657 -0.352202 0.433155
12.0987 23.6031 42.5535 0.843397 -0.360884 0.398051
12.5288 24.4135 42.4088 0.845202 -0.377922 0.377891
12.9985 25.2964 42.2655 0.846931 -0.400233 0.349979
13.5032 26.2694 42.1272 0.85858 -0.38553 0.337833
14.0128 27.3055 42.0136 0.864364 -0.387541 0.32033
14.4985 28.361 41.96 0.871028 -0.381818 0.308969
14.8258 29.1155 41.9517 0.873919 -0.381427 0.301224
15.2042 30.011 41.9768 0.879679 -0.375083 0.292365
15.5792 30.9425 42.039 0.884979 -0.370598 0.281903
15.8794 31.7079 42.1014 0.884755 -0.372963 0.279448
16.1819 32.4439 42.1046 0.89159 -0.360759 0.273716
16.4666 33.1939 42.1684 0.889533 -0.357407 0.28459
16.7181 33.8961 42.2641 0.889533 -0.357403 0.284595
17.0778 34.7526 42.1932 0.895375 -0.34187 0.285356
17.5032 35.1396 41.3332 0.891439 -0.345598 0.293069
17.8899 35.3551 40.4282 0.888592 -0.34734 0.299597
18.2636 35.5317 39.5346 0.887565 -0.345262 0.304996
18.5719 35.6559 38.7819 0.886173 -0.345481 0.308771
18.8552 35.7655 38.0918 0.885539 -0.345177 0.310923
19.187 35.9148 37.3116 0.885552 -0.345622 0.310393
19.5033 35.9954 36.5045 0.88462 -0.346938 0.311577
19.3347 35.1801 36.0724 0.884692 -0.347504 0.310743
19.0936 34.4324 35.9218 0.884775 -0.347918 0.310041
18.8231 33.6342 35.7978 0.884714 -0.347809 0.310339
18.5188 32.7735 35.7013 0.884854 -0.347454 0.310338
18.15 31.7147 35.5708 0.884378 -0.345108 0.314286
17.7469 30.5599 35.4434 0.884845 -0.341138 0.317291
17.4324 29.7238 35.4261 0.886193 -0.335856 0.319149
17.1006 28.8679 35.4467 0.887742 -0.332228 0.318619
16.6879 27.8009 35.4959 0.885467 -0.327322 0.329861
16.3418 26.8532 35.5065 0.886729 -0.31824 0.335311
16.0419 26.0654 35.5691 0.888053 -0.308362 0.340991
15.6646 25.096 35.7004 0.89216 -0.290688 0.345752
15.3822 24.3408 35.8003 0.893924 -0.280822 0.349229
15.0354 23.4065 35.9553 0.892458 -0.266568 0.363898
14.6955 22.4614 36.1313 0.897925 -0.24464 0.365899
14.3856 21.5964 36.3216 0.890584 -0.223172 0.396302
14.1107 20.8044 36.5015 0.893126 -0.204624 0.400343
13.8173 19.8801 36.7082 0.893256 -0.192009 0.406481
13.5859 19.1511 36.9197 0.89744 -0.154982 0.413016
13.2865 18.2797 37.2208 0.886986 -0.13823 0.440623
13.0141 17.4315 37.5282 0.88179 -0.106595 0.459016
12.7233 16.4658 37.8516 0.872957 -0.0834603 0.48027
12.5322 15.7663 38.102 0.876642 -0.0438493 0.479141
12.3189 14.9268 38.3985 0.855947 -0.0351177 0.515449
12.0725 14.0464 38.7879 0.859165 0.00785814 0.511275
11.8951 13.3003 39.096 0.843431 0.01502 0.537028
11.7264 12.6039 39.4151 0.836227 0.0398285 0.546935
11.5618 11.796 39.7808 0.831852 0.0973979 0.546385
11.4173 10.936 40.1294 0.796236 0.122582 0.592261
11.2578 9.91959 40.6039 0.779036 0.166066 0.603943
11.0692 8.79341 41.1606 0.76313 0.208213 0.611784
10.9484 7.97923 41.5727 0.725597 0.232739 0.647489
10.8242 7.17271 42.0205 0.706595 0.259591 0.657821
10.6583 6.43197 42.4781 0.687102 0.278674 0.670993
10.4612 5.84859 42.9227 0.666518 0.284257 0.688602
10.2499 5.21102 43.381 0.632063 0.304668 0.712513
10.045 4.63742 43.8233 0.6106 0.318991 0.72411
9.78684 4.07375 44.2695 0.588044 0.32525 0.740552
9.52472 3.49577 44.7315 0.578871 0.337046 0.742349
9.10194 2.67095 45.3891 0.504556 0.336156 0.79478
8.66835 2.02095 45.9371 0.456613 0.365264 0.810838
8.22651 1.44855 46.417 0.428626 0.355242 0.830565
7.73253 0.930162 46.8479 0.380923 0.345069 0.857802
6.85181 0.383682 47.3771 0.293444 0.314069 0.902846
5.84974 0.412686 47.6655 0.253019 0.31369 0.915194
4.93229 0.581401 47.8367 0.195691 0.262862 0.94478
4.09246 0.830192 47.926 0.161305 0.272457 0.948551
3.2544 1.1175 47.9744 0.123957 0.232678 0.964622
2.20514 1.4974 47.9785 0.0570465 0.189989 0.980128
1.20479 1.8392 47.951 0.0171188 0.209174 0.977641
0.461903 2.57659 47.8237 0.00497087 0.181922 0.982998
0.54774 3.43476 47.6622 0.0345453 0.171574 0.98453
0.818047 4.21936 47.5182 0.0414241 0.167502 0.985001
1.14747 5.10602 47.3352 0.0901192 0.156465 0.983158
1.39682 5.82398 47.2145 0.103623 0.140771 0.984604
1.59255 6.46302 47.1076 0.118276 0.118489 0.985881
0.357793 7.00513 47.1752 0.0868113 0.0757351 0.993335
0.64951 7.82262 47.096 0.113659 0.0619877 0.991127
1.1387 8.96929 46.9655 0.143479 0.0199136 0.989453
1.45002 9.69361 46.8856 0.173017 0.00309647 0.984199
1.78596 10.6906 46.8407 0.203528 -0.0103297 0.979015
2.14969 11.6609 46.804 0.246801 -0.0400548 0.968238
2.46474 12.3899 46.7767 0.288701 -0.0941461 0.952165
2.88654 13.1947 46.7091 0.333778 -0.110918 0.935771
3.30008 13.877 46.6603 0.332627 -0.144249 0.931961
3.75431 14.6107 46.5969 0.410284 -0.178722 0.89371
4.26097 15.2927 46.5143 0.410715 -0.225652 0.883119
4.92658 16.0943 46.3868 0.484514 -0.224715 0.845429
5.54898 16.7336 46.2298 0.531462 -0.269687 0.803005
6.15065 17.3192 46.0404 0.55666 -0.308983 0.770366
6.69051 17.82 45.8185 0.573097 -0.327802 0.750278
7.34359 18.417 45.549 0.627086 -0.326376 0.707278
7.87017 18.9662 45.3533 0.655241 -0.384907 0.648833
8.42181 19.6039 45.1483 0.680989 -0.389785 0.619937
8.92158 20.1598 44.9249 0.712947 -0.40229 0.574343
9.60235 20.9475 44.6098 0.738343 -0.389754 0.549739
10.0746 21.5734 44.4186 0.764573 -0.418785 0.489888
10.6074 22.2773 44.1843 0.772726 -0.433606 0.463551
11.096 22.9759 43.9653 0.803565 -0.418429 0.42332
11.6705 23.9407 43.7997 0.822185 -0.410515 0.39432
12.0871 24.664 43.7002 0.83397 -0.430513 0.345184
12.4604 25.32 43.5927 0.844028 -0.414022 0.340885
12.9088 26.1357 43.4941 0.855117 -0.415491 0.310068
13.2674 26.7969 43.3948 0.849456 -0.416654 0.323765
13.6389 27.5047 43.2968 0.862227 -0.409719 0.297817
14.0904 28.4579 43.2686 0.870962 -0.394398 0.293014
14.4352 29.2124 43.2531 0.878404 -0.397704 0.265021
14.7437 29.9118 43.2848 0.887331 -0.377094 0.265411
15.0728 30.6964 43.3197 0.885351 -0.388612 0.255158
15.4253 31.5505 43.3733 0.891138 -0.378206 0.250628
15.7781 32.4123 43.3973 0.896439 -0.363747 0.253114
16.1763 33.4999 43.5323 0.898682 -0.357848 0.253588
16.4214 34.2139 43.6563 0.895098 -0.355063 0.269685
16.6863 34.9932 43.7783 0.901813 -0.339155 0.26778
17.0416 35.7795 43.5692 0.903746 -0.331903 0.270331
17.4004 36.0733 42.7631 0.899362 -0.334485 0.281529
17.7187 36.2898 42.022 0.896636 -0.33581 0.288524
18.021 36.4638 41.3048 0.894026 -0.334 0.298599
18.4007 36.6762 40.4182 0.891043 -0.336086 0.305105
18.7401 36.8394 39.6126 0.888355 -0.339402 0.309244
19.0237 36.9482 38.9172 0.887337 -0.340578 0.310861
19.4694 37.1395 37.8613 0.885688 -0.343068 0.312824
19.8235 37.2957 37.0339 0.885346 -0.34295 0.313922
20.216 37.5507 36.2059 0.885038 -0.344451 0.313149
20.4518 37.4519 35.427 0.885632 -0.345195 0.310639
20.2118 36.5172 35.068 0.885566 -0.347034 0.308772
19.9004 35.4889 34.8035 0.885358 -0.347767 0.308544
19.5404 34.4005 34.609 0.8853 -0.348178 0.308245
19.2179 33.4816 34.4972 0.885218 -0.34819 0.308467
18.8883 32.5608 34.4031 0.88622 -0.347696 0.306137
18.5646 31.5969 34.2548 0.887726 -0.343626 0.306367
18.2676 30.7459 34.1658 0.888274 -0.341877 0.306739
17.9811 29.9561 34.1252 0.889543 -0.336616 0.308873
17.6315 29.0442 34.1462 0.891091 -0.329738 0.311816
17.3364 28.2927 34.1958 0.892071 -0.32536 0.313575
17.033 27.4818 34.2295 0.893148 -0.320809 0.315226
16.6871 26.4912 34.2265 0.894481 -0.31148 0.320754
16.3225 25.5029 34.3126 0.894706 -0.297946 0.332711
15.9642 24.5285 34.4424 0.897477 -0.281635 0.339436
15.6765 23.7242 34.5623 0.902249 -0.258062 0.345473
15.3549 22.811 34.72 0.902258 -0.258046 0.345461
15.1017 22.0708 34.8786 0.905285 -0.232068 0.355814
14.8218 21.2234 35.0665 0.911162 -0.2017 0.359307
14.5817 20.453 35.2366 0.902974 -0.182284 0.388803
14.2589 19.3749 35.5161 0.902313 -0.1695 0.396353
13.9689 18.3771 35.8079 0.899799 -0.147641 0.410488
13.6667 17.3627 36.1722 0.905442 -0.101204 0.411637
13.4758 16.646 36.4458 0.904493 -0.0826132 0.418411
13.2563 15.848 36.7456 0.887466 -0.0523203 0.457549
13.0843 14.9975 37.0144 0.891509 -0.0326705 0.451823
12.9225 14.2696 37.3078 0.883143 -0.00335866 0.469092
12.7499 13.5461 37.6528 0.878165 0.0450588 0.476225
12.5701 12.727 38.0572 0.865596 0.0477278 0.497888
12.4272 12.0005 38.3987 0.843088 0.0992152 0.528545
12.2931 11.079 38.8099 0.846947 0.123742 0.517078
12.1925 10.2453 39.1926 0.814882 0.163752 0.556016
12.1132 9.49833 39.5388 0.811139 0.190572 0.552729
12.0143 8.76305 39.9418 0.796518 0.227795 0.560062
11.936 8.01509 40.3574 0.777711 0.220699 0.587617
11.8049 6.9297 40.9873 0.745088 0.273475 0.608322
11.6509 6.07086 41.5681 0.735837 0.293223 0.610064
11.5126 5.41369 42.0386 0.695434 0.312225 0.647214
11.3105 4.67209 42.6216 0.66231 0.325947 0.674614
11.0772 3.90251 43.2511 0.643377 0.342757 0.683842
10.8568 3.33437 43.7394 0.624865 0.362309 0.691575
10.5221 2.58929 44.4182 0.559246 0.394228 0.729265
10.2347 1.93957 44.9751 0.550094 0.376681 0.745324
9.86106 1.33878 45.5381 0.487717 0.414182 0.768496
9.41447 0.716589 46.1197 0.454867 0.37854 0.806104
8.97341 0.209232 46.6016 0.387771 0.390223 0.834812
8.37975 -0.384583 47.1128 0.345506 0.363129 0.865311
7.72875 -0.86629 47.5426 0.294998 0.356205 0.886238
7.01906 -1.04308 47.8454 0.238692 0.336201 0.911025
6.19083 -0.957977 48.0405 0.222602 0.317366 0.921373
5.30835 -0.848846 48.1852 0.156879 0.291138 0.943293
4.49632 -0.739801 48.2895 0.14318 0.248055 0.957883
3.78224 -0.483828 48.3126 0.111373 0.250427 0.961708
2.95796 -0.174162 48.3175 0.0422042 0.225129 0.973103
2.13225 0.0788108 48.2818 0.0274565 0.21833 0.975489
1.06602 0.436526 48.2187 0.000380289 0.171274 0.985223
0.0477131 0.771977 48.1188 -0.0857187 0.178099 0.98026
-0.61373 1.38017 47.9631 -0.0902737 0.153307 0.983511
-1.0351 2.27311 47.7754 -0.117629 0.150677 0.981547
-1.01664 3.05884 47.6533 -0.104345 0.137225 0.984793
-0.823808 3.80049 47.575 -0.0442936 0.145878 0.988311
-0.458241 4.66061 47.4761 -0.040666 0.114588 0.99258
-0.136818 5.44504 47.3703 -0.0150393 0.134833 0.990711
0.200322 6.51144 47.2341 0.0733087 0.116505 0.990439
0.244668 6.66161 47.2118 0.0815192 0.10086 0.99129
-1.01222 7.1928 47.2278 0.0245677 0.0523156 0.998255
-0.683555 8.09572 47.1824 0.0537265 0.0458261 0.997348
-0.31974 9.09308 47.1421 0.0906982 0.0183491 0.995459
0.124115 10.0032 47.1017 0.120432 -0.030219 0.992262
0.411142 10.8331 47.0942 0.140157 -0.0775686 0.987086
0.804114 11.7978 47.1166 0.163565 -0.0829075 0.982689
1.07798 12.5014 47.1287 0.213428 -0.121542 0.969369
1.42711 13.3059 47.1591 0.206195 -0.132472 0.969502
1.94397 14.0815 47.1379 0.282914 -0.178051 0.942474
2.42129 14.8779 47.1458 0.281899 -0.179093 0.942581
2.85441 15.5418 47.1668 0.347126 -0.236087 0.907616
3.50823 16.3022 47.1511 0.319175 -0.2905 0.902074
4.03251 16.8802 47.1064 0.391023 -0.315561 0.864594
4.56877 17.4086 47.0574 0.446523 -0.351646 0.822733
5.36777 18.1216 46.8914 0.511932 -0.355241 0.781174
6.17929 18.7916 46.6735 0.561887 -0.360432 0.744561
6.84862 19.3047 46.4609 0.607017 -0.405829 0.683252
7.40882 19.848 46.3074 0.579607 -0.451369 0.67847
8.02854 20.4415 46.1383 0.612439 -0.484952 0.624292
8.81795 21.19 45.849 0.658727 -0.484151 0.574112
9.31851 21.7281 45.6978 0.714489 -0.501469 0.487887
9.81644 22.3081 45.5401 0.747305 -0.484247 0.454708
10.3292 22.9073 45.3626 0.755927 -0.489967 0.43337
10.9623 23.7498 45.1244 0.79503 -0.485007 0.363744
11.3613 24.3941 45.0583 0.811108 -0.468614 0.350007
11.7677 25.0699 44.9919 0.82475 -0.460245 0.328377
12.3184 25.953 44.8386 0.844291 -0.442205 0.302702
12.7214 26.6674 44.7812 0.844858 -0.447594 0.292847
13.0948 27.3279 44.6864 0.851921 -0.43846 0.286309
13.4529 27.9939 44.5971 0.864214 -0.426091 0.267545
13.9035 28.8951 44.5456 0.875223 -0.410083 0.256545
14.362 29.8911 44.5657 0.881795 -0.398917 0.251523
14.698 30.7111 44.6758 0.886812 -0.396358 0.237559
14.9838 31.4113 44.7462 0.89171 -0.386771 0.235077
15.3125 32.1655 44.6984 0.898353 -0.368796 0.238643
15.6597 33.0617 44.7583 0.902072 -0.356113 0.243818
15.9268 33.8808 44.9563 0.903687 -0.350671 0.245724
16.3017 34.9838 45.1248 0.90806 -0.338862 0.246068
16.5919 35.9359 45.3536 0.914822 -0.325379 0.239225
16.9547 36.7447 45.0677 0.912543 -0.321316 0.253024
17.3362 37.0433 44.1153 0.906432 -0.325995 0.268528
17.6443 37.279 43.3873 0.901342 -0.324705 0.2866
18.0306 37.5254 42.4612 0.897875 -0.325634 0.296283
18.4315 37.7428 41.4996 0.894279 -0.329552 0.302756
18.7657 37.9293 40.7246 0.891785 -0.331944 0.307462
19.1199 38.1098 39.9029 0.888763 -0.335738 0.312043
19.4661 38.2295 39.0539 0.887419 -0.337934 0.313508
19.7767 38.375 38.3379 0.885107 -0.341357 0.316324
20.0998 38.5389 37.6107 0.885319 -0.341915 0.315123
20.5041 38.786 36.7471 0.884104 -0.344813 0.315378
20.8777 39.0234 35.9571 0.884579 -0.344461 0.314432
21.2655 39.1818 35.0367 0.884896 -0.3464 0.311393
21.3599 38.9153 34.4714 0.884834 -0.346692 0.311246
21.0294 37.7561 34.1176 0.885049 -0.347436 0.3098
20.7195 36.6947 33.8148 0.884987 -0.348025 0.309314
20.4771 35.8648 33.5719 0.885146 -0.348288 0.308564
20.2459 35.1535 33.4321 0.885455 -0.349477 0.306321
19.9509 34.2595 33.2631 0.88559 -0.350556 0.304696
19.588 33.2874 33.2003 0.886273 -0.349875 0.303494
19.2108 32.1996 33.0544 0.888087 -0.346655 0.30188
18.9265 31.354 32.9241 0.890122 -0.342849 0.300227
18.5925 30.409 32.8433 0.890919 -0.339162 0.302047
18.1929 29.3262 32.822 0.893078 -0.331923 0.303708
17.7715 28.2521 32.9025 0.894966 -0.324242 0.306436
17.3769 27.2075 32.9708 0.897603 -0.313862 0.309516
17.1293 26.4614 32.9442 0.900361 -0.301746 0.313528
16.8759 25.7221 32.9596 0.901179 -0.294757 0.317669
16.5236 24.7464 33.0798 0.903521 -0.285132 0.319916
16.1574 23.6961 33.2259 0.907708 -0.264907 0.325379
15.881 22.8729 33.3611 0.910372 -0.247649 0.331501
15.6346 22.1181 33.4976 0.914973 -0.233216 0.329275
15.3309 21.1774 33.7203 0.921412 -0.199501 0.333466
15.1058 20.4258 33.8907 0.92255 -0.185223 0.338161
14.8845 19.6382 34.0837 0.920518 -0.175788 0.348921
14.6089 18.6355 34.3708 0.919512 -0.136599 0.368191
14.3899 17.7986 34.6418 0.919675 -0.110812 0.376563
14.2008 16.9981 34.916 0.918139 -0.0823111 0.387329
14.0261 16.3102 35.1698 0.917283 -0.0494699 0.395152
13.8557 15.5414 35.469 0.908744 -0.0531955 0.413441
13.6841 14.6869 35.7826 0.903289 -0.00170833 0.428984
13.5346 13.8555 36.115 0.896093 0.0391897 0.442133
13.403 13.1093 36.4454 0.891866 0.0555023 0.448463
13.2641 12.2539 36.8751 0.89106 0.0878213 0.445308
13.1108 11.3348 37.358 0.860103 0.137738 0.491174
13.0258 10.6237 37.7109 0.861656 0.145873 0.486076
12.957 9.70289 38.1453 0.853364 0.183986 0.48777
12.8494 8.64761 38.7491 0.813061 0.23819 0.531222
12.8035 7.91519 39.1461 0.808122 0.253723 0.531254
12.7435 7.08037 39.6651 0.793199 0.270236 0.545384
12.6698 6.20215 40.2346 0.76294 0.308041 0.568355
12.5956 5.5882 40.6698 0.755579 0.320519 0.57112
12.5016 4.91617 41.172 0.712878 0.341731 0.612393
12.3697 4.33913 41.6599 0.713996 0.35686 0.602379
12.2244 3.69734 42.1966 0.685397 0.3765 0.62328
12.0856 3.12733 42.6892 0.64909 0.39883 0.64776
11.8847 2.42998 43.3292 0.634349 0.408265 0.656025
11.6083 1.95049 43.8676 0.619946 0.419853 0.66236
11.3107 1.27049 44.5498 0.565517 0.426662 0.705673
11.0248 0.675365 45.1318 0.526553 0.442994 0.725414
10.6834 0.0631582 45.7182 0.488984 0.438009 0.754349
10.2532 -0.458204 46.2702 0.441364 0.445587 0.778877
9.55554 -1.20367 47.001 0.405646 0.40522 0.819293
8.80752 -1.84856 47.6294 0.32372 0.431013 0.842233
8.12232 -2.25834 48.032 0.241292 0.376438 0.893387
7.11221 -2.40433 48.3305 0.21194 0.329274 0.919739
6.08692 -2.25954 48.4868 0.181073 0.317638 0.930762
5.28492 -2.18011 48.5875 0.123503 0.291828 0.948411
4.32632 -2.03903 48.661 0.0938216 0.280978 0.955117
3.34354 -1.76 48.6676 0.0546538 0.23316 0.970883
2.55524 -1.47215 48.6299 0.0011172 0.221049 0.97526
1.5145 -1.11932 48.5532 0.00873234 0.216606 0.976185
0.689529 -0.918933 48.4808 -0.0440049 0.197841 0.979246
-0.0722449 -0.694932 48.3752 -0.0973422 0.195325 0.975896
-0.791153 -0.362589 48.2378 -0.0962423 0.171875 0.980398
-1.70304 0.339588 47.9817 -0.131936 0.161423 0.977868
-2.16115 1.13957 47.7931 -0.150972 0.144279 0.977943
-2.50561 2.13263 47.596 -0.137175 0.128863 0.981939
-2.48953 2.98297 47.5009 -0.125844 0.115319 0.98532
-2.25979 3.89939 47.4315 -0.109387 0.0933865 0.989603
-1.8864 4.80856 47.377 -0.0904215 0.0798405 0.992347
-1.41369 5.93018 47.2951 -0.0353139 0.112761 0.992567
-1.26881 6.6161 47.2567 0.018941 0.0416115 0.998954
-2.53801 7.29238 47.1877 -0.0588673 0.00540977 0.998251
-2.15878 7.96853 47.2064 -0.0395899 -0.0337279 0.997693
-1.81109 8.98405 47.2264 0.0304706 -0.0420053 0.998541
-1.41465 9.96805 47.236 0.0583613 -0.0306295 0.997823
-1.0495 10.6999 47.2303 0.0740259 -0.05588 0.995324
-0.727659 11.6896 47.293 0.0996663 -0.108597 0.989077
-0.319055 12.5003 47.3445 0.0954829 -0.114566 0.988816
0.0585108 13.4704 47.4354 0.120942 -0.142315 0.982405
0.444021 14.2732 47.5252 0.161658 -0.212135 0.96252
0.940447 14.8546 47.5386 0.218027 -0.180168 0.958816
1.30575 15.556 47.6114 0.243915 -0.214905 0.945613
1.8123 16.3384 47.6965 0.238399 -0.281995 0.929176
2.41517 16.9113 47.7274 0.289209 -0.298672 0.909018
3.1481 17.6716 47.8038 0.312889 -0.371084 0.874036
3.82098 18.2167 47.7949 0.336754 -0.455987 0.823376
4.48269 18.8162 47.767 0.432251 -0.420084 0.797927
5.17038 19.376 47.6692 0.480566 -0.421512 0.769015
5.85497 19.9391 47.5829 0.462089 -0.517884 0.718726
6.53942 20.3163 47.3908 0.476094 -0.544372 0.690647
7.12074 20.7892 47.2844 0.546413 -0.527012 0.650567
7.70472 21.2644 47.1831 0.604788 -0.581714 0.543911
8.47517 21.9331 47.0133 0.64456 -0.564411 0.515735
9.0344 22.394 46.816 0.704916 -0.526164 0.474892
9.83421 23.2528 46.6497 0.700382 -0.574517 0.423542
10.4523 23.9015 46.4313 0.757119 -0.525805 0.385019
11.0397 24.7335 46.3211 0.796245 -0.499064 0.341879
11.5938 25.5712 46.2503 0.820209 -0.500694 0.276234
12.0544 26.292 46.1331 0.832465 -0.475682 0.284126
12.6049 27.2291 46.0575 0.835354 -0.482192 0.263761
12.9823 27.8705 45.9619 0.862385 -0.458569 0.214492
13.5336 28.9235 45.9226 0.871995 -0.426503 0.24025
13.9945 29.8546 45.8654 0.882437 -0.408838 0.232716
14.3119 30.6264 46 0.888663 -0.399007 0.22599
14.5787 31.3145 46.1611 0.893592 -0.388473 0.224757
14.9483 32.1332 46.0573 0.899851 -0.372358 0.227184
15.2995 32.9991 46.0533 0.90687 -0.354409 0.227924
15.5116 33.7254 46.3204 0.911182 -0.343785 0.226722
15.8974 34.8337 46.4857 0.910309 -0.343631 0.230635
16.1166 35.5471 46.6916 0.913202 -0.346597 0.21432
16.4216 36.6792 46.9648 0.92169 -0.29827 0.248037
16.6762 37.4265 46.9208 0.920657 -0.295116 0.255367
17.004 37.9266 46.3122 0.918219 -0.302867 0.255128
17.34 38.1519 45.4005 0.9169 -0.308067 0.253617
17.6408 38.316 44.5555 0.914443 -0.298986 0.272733
17.9834 38.5714 43.7388 0.906464 -0.304057 0.292951
18.3508 38.7741 42.8421 0.899004 -0.312737 0.306457
18.6891 38.9413 42.0192 0.898846 -0.318683 0.300838
19.0503 39.1553 41.1972 0.891528 -0.3214 0.319014
19.3791 39.3335 40.4661 0.889316 -0.32963 0.316957
19.8057 39.4702 39.4239 0.88624 -0.333404 0.321547
20.3543 39.8 38.2613 0.882352 -0.343954 0.32117
20.6436 39.8913 37.5629 0.883614 -0.345251 0.31627
21.1035 40.1907 36.6082 0.882006 -0.347638 0.318133
21.4653 40.4502 35.8848 0.882248 -0.350994 0.313754
21.8405 40.5157 34.8858 0.885369 -0.346927 0.309455
22.1166 40.5692 34.1558 0.886481 -0.344154 0.30937
22.275 40.4021 33.519 0.883518 -0.343812 0.318104
22.0958 39.6841 33.2257 0.8842 -0.351881 0.307071
21.8915 38.9671 33.0112 0.885312 -0.345951 0.310707
21.6841 38.2325 32.7813 0.883871 -0.349761 0.310546
21.3888 37.4051 32.6924 0.88527 -0.348209 0.308295
21.121 36.4715 32.4056 0.886251 -0.346976 0.306856
20.8792 35.6817 32.2052 0.883651 -0.351313 0.309419
20.5706 34.7978 32.0792 0.885645 -0.352356 0.302452
20.3599 34.0992 31.8817 0.885992 -0.353529 0.300059
19.9801 33.1626 31.9026 0.886708 -0.351107 0.300782
19.6977 32.3192 31.7486 0.887727 -0.35109 0.297783
19.3962 31.4374 31.6123 0.891251 -0.34691 0.2921
19.0498 30.4691 31.5348 0.893314 -0.340488 0.293357
18.7622 29.6876 31.5118 0.895155 -0.334948 0.294106
18.3912 28.7156 31.5513 0.899641 -0.326726 0.289648
18.0294 27.7357 31.5795 0.899169 -0.319015 0.29954
17.6307 26.6677 31.6627 0.903069 -0.305337 0.302052
17.3003 25.6558 31.6399 0.909614 -0.296866 0.290644
16.9332 24.6511 31.7909 0.913335 -0.279729 0.295925
16.6084 23.6757 31.899 0.918499 -0.261767 0.296374
16.2829 22.6985 32.0723 0.919687 -0.24196 0.309141
16.0299 21.8268 32.1625 0.921851 -0.224625 0.315807
15.7377 20.9168 32.3938 0.926326 -0.209578 0.313034
15.5188 20.1334 32.5764 0.935515 -0.169447 0.309999
15.3146 19.3488 32.783 0.932041 -0.146273 0.331518
15.0784 18.3656 33.0529 0.939221 -0.125184 0.319676
14.7885 17.2024 33.4874 0.927116 -0.0854485 0.364902
14.5921 16.235 33.7835 0.92753 -0.0594595 0.368989
14.4317 15.5066 34.0917 0.932205 -0.0420229 0.359483
14.2951 14.7001 34.3767 0.930289 -0.0202349 0.366268
14.1456 13.8814 34.7575 0.925969 0.0210982 0.377011
14.0396 13.0232 35.1186 0.917423 0.0641188 0.392713
13.9153 12.113 35.5801 0.903073 0.0959943 0.418623
13.8549 11.3098 35.9265 0.900424 0.12781 0.415813
13.7312 10.4608 36.4631 0.871759 0.167558 0.460391
13.6914 9.7763 36.7883 0.867008 0.184073 0.462746
13.6688 8.86954 37.2325 0.862895 0.211603 0.458952
13.6043 8.01744 37.7909 0.848271 0.256126 0.463504
13.5874 7.30502 38.2195 0.826507 0.287602 0.483907
13.5782 6.64829 38.6464 0.799284 0.343014 0.492652
13.5485 5.81554 39.2189 0.78977 0.326965 0.51893
13.5056 5.02399 39.7909 0.756503 0.359898 0.546055
13.4615 4.35072 40.2972 0.743776 0.36741 0.558295
13.3071 3.74313 40.8863 0.737687 0.371405 0.563675
13.2091 3.17311 41.3846 0.729773 0.373695 0.572524
13.1125 2.42089 42.0364 0.672554 0.423551 0.606857
12.9663 1.65333 42.7161 0.665292 0.410547 0.623568
12.6407 1.15662 43.4439 0.623109 0.454414 0.636586
12.3764 0.47525 44.179 0.593562 0.473064 0.651045
12.1468 -0.070613 44.7576 0.544313 0.489971 0.68092
11.8489 -0.526611 45.2838 0.518479 0.459717 0.720999
11.4914 -1.0636 45.8952 0.438229 0.493949 0.750979
11.0432 -1.60788 46.4985 0.415116 0.466335 0.781159
10.6892 -2.07019 46.973 0.360705 0.529975 0.764975
10.1607 -2.55538 47.4906 0.322205 0.478352 0.816573
9.47226 -3.08043 48.0071 0.265084 0.418312 0.868761
8.73434 -3.4832 48.4012 0.197725 0.43402 0.878938
7.9345 -3.7194 48.6713 0.156798 0.396355 0.904609
7.16802 -3.76691 48.8225 0.118307 0.351939 0.928433
6.32189 -3.69363 48.9264 0.126789 0.315823 0.940086
5.54692 -3.59445 49.0021 0.115708 0.297573 0.947322
4.76843 -3.52275 49.0525 0.0443175 0.266353 0.962837
3.87295 -3.28225 49.0337 0.0446099 0.256644 0.965467
2.96429 -3.01029 48.9922 0.00167799 0.247835 0.968503
2.06695 -2.7531 48.9212 -0.000859941 0.221054 0.975261
1.33181 -2.53319 48.8551 -0.0321762 0.227821 0.973171
0.618458 -2.31154 48.7727 -0.0552541 0.212955 0.975498
-0.271927 -2.05094 48.6404 -0.0940446 0.215186 0.972026
-1.36585 -1.63161 48.4156 -0.148085 0.225063 0.962525
-2.13381 -1.26727 48.2046 -0.174266 0.185553 0.967058
-2.83587 -0.636015 47.96 -0.179485 0.153001 0.97179
-3.19362 0.0495874 47.7912 -0.182381 0.125493 0.975186
-3.54983 0.723946 47.6236 -0.173559 0.150461 0.973262
-3.85105 1.40359 47.469 -0.179188 0.139261 0.973909
-3.94028 2.41722 47.3231 -0.19475 0.12253 0.973162
-3.78904 3.33887 47.2593 -0.187324 0.0965302 0.977202
-3.61135 4.26094 47.2128 -0.14382 0.0629263 0.987601
-3.22862 5.12288 47.2082 -0.137552 0.0745534 0.987685
-2.84918 5.91286 47.2061 -0.0840555 0.0534137 0.994724
