5.6009 4.94482 46.9218 0.348958 0.226407 0.908906
5.88658 5.8337 46.5775 0.407271 0.216743 0.887216
5.88658 5.8337 46.5775 0.407271 0.216743 0.887216
6.16815 6.81418 46.2015 0.439502 0.196458 0.876494
6.40916 7.54841 45.9058 0.470774 0.195039 0.859935
6.72003 8.24997 45.596 0.484408 0.175084 0.857089
7.01199 9.16146 45.262 0.522073 0.109352 0.84586
7.36579 10.1113 44.8957 0.558893 0.116652 0.820892
7.82187 11.0136 44.4826 0.576534 0.0445137 0.815644
8.25297 11.8329 44.0946 0.63981 0.0476082 0.767057
8.68926 12.3519 43.7201 0.681348 0.0157708 0.731789
9.26038 12.9198 43.1905 0.69639 -0.0314331 0.716172
9.40299 12.7212 43.037 0.724542 0.0165998 0.687977
9.11248 11.9552 43.3399 0.674949 0.023952 0.737476
8.83832 11.2139 43.6555 0.657317 0.0666895 0.749811
8.64394 10.2735 43.9465 0.63058 0.121178 0.766464
8.37323 9.58126 44.2678 0.592985 0.121679 0.795704
7.90121 8.61968 44.7802 0.56699 0.172081 0.80555
7.61622 7.93377 45.1121 0.549742 0.188508 0.813254
7.14897 7.21813 45.5935 0.527347 0.19723 0.826442
6.72426 6.26257 46.0645 0.429602 0.244205 0.869371
6.30608 5.4466 46.4859 0.396495 0.246707 0.884267
5.84651 5.30272 46.7321 0.386253 0.232901 0.892304
4.60053 5.84968 47.0374 0.271423 0.235094 0.933306
4.87915 6.57307 46.8087 0.31063 0.17462 0.934354
5.16282 7.29498 46.5635 0.341846 0.178306 0.92251
5.49543 8.11527 46.2513 0.430451 0.178125 0.884843
5.70981 8.86317 46.0367 0.418744 0.118782 0.900201
5.95184 9.56795 45.8253 0.478077 0.1313 0.868448
6.28715 10.4053 45.5355 0.503883 0.065633 0.861275
6.6213 11.0943 45.2894 0.512183 0.0453524 0.857426
7.00929 11.8166 45.0322 0.582068 0.011881 0.813053
7.5712 12.6555 44.6469 0.572257 -0.0352351 0.819317
8.18209 13.4192 44.1906 0.627506 -0.0618313 0.776153
8.84491 14.1842 43.6714 0.687606 -0.0823559 0.720687
9.35476 14.9136 43.2255 0.704894 -0.100688 0.701216
9.83361 15.6136 42.8211 0.752147 -0.122127 0.647537
10.2382 16.2096 42.4432 0.773877 -0.127513 0.620256
10.6176 16.7907 42.1029 0.78596 -0.134706 0.602896
11.0038 17.3883 41.7307 0.800732 -0.182355 0.570592
11.403 18.1055 41.371 0.814156 -0.164719 0.556793
11.8222 18.8407 41.009 0.831839 -0.210775 0.513117
12.1843 19.4667 40.662 0.841339 -0.210863 0.497681
12.5252 20.277 40.4701 0.844134 -0.229473 0.484161
12.8261 20.9268 40.2618 0.852151 -0.275694 0.444783
13.1392 21.6473 40.1053 0.854847 -0.270792 0.442616
13.4949 21.9043 39.5706 0.862022 -0.266379 0.431122
13.3222 21.4442 39.6227 0.857225 -0.272368 0.437014
13.0742 20.6617 39.6558 0.860304 -0.241341 0.448852
12.6459 19.6809 39.9625 0.854249 -0.225739 0.468296
12.2951 18.8758 40.2372 0.836493 -0.195096 0.512071
11.8152 18.0628 40.7454 0.833071 -0.160437 0.528898
11.5206 17.2501 40.9334 0.824676 -0.147056 0.545593
11.303 16.5332 41.1025 0.814693 -0.129545 0.564733
11.0659 15.7585 41.2885 0.800566 -0.0798273 0.593904
10.8119 15.0065 41.5292 0.784355 -0.0577838 0.617614
10.5765 14.1606 41.7803 0.792271 -0.0216393 0.609785
10.3807 13.2655 41.9823 0.76201 0.00641715 0.647533
10.0653 12.0431 42.3841 0.73864 0.0428755 0.672735
9.84777 11.3011 42.69 0.727596 0.106878 0.677539
9.659 10.5227 43.0025 0.693184 0.107028 0.711582
9.40151 9.48924 43.4289 0.655948 0.127111 0.743708
9.10348 8.69195 43.8564 0.626178 0.159627 0.762948
8.7351 7.82909 44.355 0.597099 0.211684 0.773733
8.40533 7.07044 44.7975 0.578464 0.225467 0.783403
8.07427 6.30874 45.2823 0.521072 0.270087 0.809653
7.70314 5.58533 45.7398 0.494856 0.244695 0.833812
7.37046 5.00831 46.1088 0.419359 0.288056 0.860498
6.9451 4.41026 46.5077 0.390853 0.289448 0.873691
6.4191 3.8217 46.9269 0.365953 0.284641 0.88578
5.82184 3.38741 47.2679 0.301648 0.297568 0.905793
4.84524 3.53457 47.533 0.254646 0.242873 0.936038
4.08676 4.00157 47.5962 0.2083 0.233328 0.949463
4.28724 4.93339 47.3358 0.230828 0.223632 0.946946
4.49898 5.55711 47.1406 0.271425 0.235097 0.933305
3.36448 5.86474 47.3649 0.239163 0.156304 0.958316
3.69203 6.76512 47.1252 0.259756 0.162075 0.951901
4.0835 7.66421 46.8608 0.28788 0.176706 0.941223
4.42614 8.58334 46.6031 0.361346 0.14512 0.920828
4.67884 9.36522 46.4256 0.373795 0.0795721 0.924092
4.94759 10.1862 46.2399 0.417296 0.0451395 0.907649
5.37934 11.1076 45.9859 0.465201 0.00826141 0.885155
5.87848 12.0487 45.7382 0.491547 -0.0338188 0.86921
6.4725 12.9824 45.43 0.512544 -0.0816271 0.854772
7.03635 13.6745 45.1108 0.581455 -0.093107 0.808233
7.56697 14.2723 44.7826 0.637491 -0.082813 0.765989
8.31564 15.1262 44.2855 0.653013 -0.154996 0.741316
8.90938 15.9125 43.8758 0.707963 -0.146529 0.690882
9.33916 16.4603 43.5667 0.746733 -0.163429 0.644733
9.86467 17.1838 43.1563 0.739328 -0.177852 0.649433
10.2753 17.7695 42.8216 0.783212 -0.206427 0.585519
10.7417 18.4277 42.4561 0.791291 -0.227503 0.56738
11.2175 19.2052 42.0809 0.796642 -0.248196 0.550155
11.6109 19.8889 41.814 0.821509 -0.263625 0.505594
12.0991 20.8044 41.4938 0.828966 -0.290699 0.477818
12.538 21.6535 41.2452 0.840769 -0.303389 0.448401
12.9644 22.4321 40.9637 0.844026 -0.297317 0.446343
13.4191 23.3541 40.7204 0.854905 -0.315981 0.411453
13.783 24.1786 40.6222 0.855552 -0.343248 0.387571
14.1577 25.0027 40.5109 0.859662 -0.333651 0.386858
14.6124 26.0324 40.4138 0.866646 -0.353974 0.351606
15.033 27.0201 40.3603 0.869366 -0.354645 0.344006
15.4227 27.9035 40.3071 0.871955 -0.358294 0.333552
15.8105 28.813 40.2665 0.874224 -0.360757 0.324942
16.1081 29.5671 40.2967 0.878488 -0.357579 0.316834
16.391 30.3157 40.3626 0.878064 -0.361918 0.31308
16.6766 31.0247 40.386 0.877853 -0.366682 0.308088
16.9804 31.7799 40.4063 0.881423 -0.357974 0.308136
17.2907 32.5302 40.3908 0.882075 -0.35803 0.306199
17.6555 33.1469 40.0583 0.881454 -0.357092 0.309052
18.1031 33.4642 39.1515 0.882208 -0.354299 0.31013
18.5069 33.667 38.2422 0.881983 -0.351348 0.314099
18.507 33.2263 37.748 0.881552 -0.351596 0.315034
18.1177 32.1452 37.6307 0.880878 -0.351321 0.317216
17.8169 31.3084 37.5433 0.880139 -0.351451 0.319113
17.446 30.3214 37.4876 0.880183 -0.347723 0.32306
17.1634 29.5687 37.4521 0.880182 -0.344625 0.326364
16.8112 28.6757 37.4592 0.878066 -0.342151 0.334556
16.4724 27.8396 37.5025 0.880167 -0.333504 0.337732
16.0571 26.8047 37.5773 0.880849 -0.323344 0.345766
15.7366 25.9572 37.6085 0.881184 -0.313464 0.353912
15.4034 25.0497 37.6476 0.881565 -0.298587 0.365616
15.035 24.0994 37.7648 0.879943 -0.286854 0.378668
14.688 23.2883 37.9564 0.877962 -0.270148 0.395108
14.392 22.6016 38.1294 0.876869 -0.262802 0.40233
14.1334 21.8819 38.2474 0.874386 -0.256221 0.411885
13.7786 20.9611 38.4542 0.871235 -0.227689 0.434865
13.4393 20.1033 38.6904 0.870292 -0.195878 0.451912
13.1456 19.3358 38.906 0.86082 -0.184755 0.473858
12.7828 18.3934 39.2183 0.854594 -0.159817 0.493758
12.368 17.3751 39.627 0.847724 -0.129526 0.513841
12.0625 16.4939 39.9502 0.849973 -0.100828 0.517087
11.8079 15.688 40.21 0.82989 -0.0661405 0.553987
11.6024 14.9525 40.4484 0.823456 -0.0332201 0.565998
11.3362 13.8855 40.7799 0.817241 0.00295451 0.576288
11.1549 13.0873 41.0285 0.793625 0.0294723 0.607693
10.9333 12.0343 41.3841 0.774324 0.0585276 0.630077
10.6628 11.0175 41.8396 0.760139 0.0961523 0.642606
10.4316 9.9971 42.2895 0.730785 0.133961 0.669334
10.2973 9.31036 42.593 0.714745 0.187442 0.673574
10.0455 8.26933 43.1379 0.705022 0.196928 0.681296
9.79767 7.64205 43.52 0.636276 0.223088 0.73778
9.53788 6.96174 43.9744 0.625496 0.253901 0.737759
9.28673 6.33613 44.3869 0.602148 0.290711 0.743576
8.97234 5.56711 44.909 0.563993 0.274364 0.778549
8.64647 4.8539 45.4131 0.531286 0.297584 0.792637
8.33264 4.29325 45.8105 0.505124 0.308069 0.805966
7.89308 3.67309 46.2902 0.459123 0.291497 0.839187
7.27432 2.95589 46.8535 0.37667 0.323437 0.868049
6.78081 2.42434 47.2485 0.347561 0.291757 0.891111
6.06315 2.05444 47.628 0.318496 0.300145 0.899151
5.21609 2.17205 47.8352 0.273295 0.290845 0.916754
4.26389 2.47862 47.9655 0.189973 0.242944 0.951256
3.41463 2.79673 48.0308 0.165074 0.239715 0.956623
2.69962 3.12328 48.0604 0.100037 0.19324 0.976038
2.67023 3.92753 47.8908 0.161032 0.181831 0.970055
2.94771 4.72315 47.6803 0.199388 0.196453 0.959837
3.3398 5.79741 47.382 0.234349 0.179891 0.955055
2.27212 6.32117 47.5233 0.180994 0.16246 0.969791
2.51662 7.04187 47.3695 0.200656 0.11211 0.973226
2.86052 7.77751 47.195 0.258864 0.116286 0.958889
3.1825 8.55792 46.9978 0.288693 0.10435 0.950851
3.48189 9.55516 46.8386 0.31186 0.0806585 0.946349
3.83062 10.5453 46.6882 0.31747 0.00802044 0.94799
4.1747 11.2871 46.5552 0.377377 0.00609438 0.92538
4.73231 12.2987 46.3231 0.430111 -0.0374907 0.901997
5.14806 13.0415 46.1767 0.435112 -0.118967 0.892482
5.7362 13.7954 45.9745 0.469026 -0.129354 0.87366
6.35819 14.5082 45.7054 0.525921 -0.140068 0.838781
6.93381 15.1137 45.4153 0.590991 -0.147092 0.79311
7.55532 15.7848 45.0852 0.609106 -0.196099 0.768445
8.03011 16.348 44.8208 0.665155 -0.191359 0.72177
8.62531 17.0432 44.47 0.684799 -0.199879 0.699887
9.1073 17.5986 44.1527 0.70745 -0.22485 0.669899
9.57275 18.1833 43.8549 0.730542 -0.266545 0.628069
10.1025 18.8605 43.4779 0.764341 -0.247951 0.595234
10.5448 19.4527 43.2031 0.795502 -0.279433 0.537675
11.001 20.1968 42.9281 0.790195 -0.308899 0.529281
11.4084 20.8475 42.6821 0.808846 -0.31229 0.498224
11.8986 21.6928 42.4391 0.813477 -0.351962 0.462981
12.2996 22.3663 42.2087 0.835584 -0.339502 0.431899
12.6708 23.0028 41.9931 0.841175 -0.337501 0.422367
13.0454 23.7642 41.8561 0.849164 -0.359647 0.386749
13.375 24.4475 41.7772 0.850474 -0.362396 0.381188
13.7051 25.1384 41.689 0.854015 -0.360475 0.375121
14.2197 26.2395 41.5852 0.863697 -0.373828 0.338054
14.5707 26.9967 41.5268 0.863101 -0.375357 0.337881
14.9687 27.8761 41.4766 0.870594 -0.368579 0.3259
15.4807 29.0204 41.4102 0.873173 -0.366546 0.321206
15.9326 30.1478 41.4757 0.877869 -0.37222 0.301329
16.2836 31.0176 41.5206 0.882028 -0.369302 0.292583
16.6661 31.9591 41.5348 0.884449 -0.365987 0.289473
17.0133 32.8434 41.5807 0.88398 -0.362362 0.295421
17.3454 33.6464 41.5563 0.886481 -0.357947 0.293296
17.6965 34.168 41.1307 0.886483 -0.351691 0.300768
18.0324 34.3529 40.3647 0.884384 -0.352491 0.305965
18.3704 34.5601 39.6307 0.883428 -0.350335 0.311159
18.7844 34.7924 38.7156 0.883108 -0.349747 0.312719
19.1574 35.0067 37.9071 0.882539 -0.34953 0.31457
19.4465 34.9731 37.0604 0.882316 -0.349655 0.315056
19.2197 34.0979 36.7234 0.882491 -0.349722 0.314491
18.9075 33.1425 36.5358 0.88236 -0.349615 0.314976
18.5824 32.2775 36.4848 0.881616 -0.350141 0.316473
18.3264 31.5561 36.4051 0.882372 -0.34735 0.317436
17.9851 30.6292 36.3413 0.882679 -0.344454 0.319721
17.6659 29.7634 36.2938 0.882328 -0.343307 0.321927
17.3854 29.0161 36.2791 0.882466 -0.338218 0.326899
16.9616 27.9486 36.3339 0.884502 -0.326091 0.333649
16.5946 27.0009 36.3817 0.88516 -0.320912 0.336856
16.2356 26.0742 36.4541 0.88342 -0.314122 0.347699
15.8861 25.0946 36.4957 0.885796 -0.297944 0.3558
15.5362 24.1162 36.5794 0.887009 -0.284685 0.363549
15.2433 23.361 36.7217 0.887498 -0.269092 0.37408
14.9364 22.6226 36.9303 0.888827 -0.242024 0.389117
14.6141 21.7398 37.1199 0.8896 -0.240587 0.38824
14.3758 21.0405 37.2486 0.885328 -0.213172 0.41306
14.0582 20.1713 37.4872 0.887722 -0.185387 0.421405
13.7657 19.3573 37.7233 0.876585 -0.178701 0.446315
13.4934 18.5095 37.9609 0.880045 -0.156483 0.448366
13.1809 17.5978 38.2774 0.874465 -0.122969 0.469083
12.8969 16.8413 38.6169 0.859866 -0.111754 0.498133
12.6057 15.8779 38.962 0.861513 -0.0724965 0.502533
12.3861 15.1018 39.2467 0.849021 -0.0465458 0.526304
12.127 14.0988 39.6135 0.837099 -0.00290791 0.546597
11.988 13.3558 39.8541 0.829006 0.0100209 0.558762
11.7805 12.343 40.2354 0.828729 0.0572968 0.556385
11.6278 11.4657 40.5642 0.79527 0.0853846 0.600212
11.4198 10.6268 40.9887 0.793126 0.115131 0.597899
11.265 9.81937 41.3712 0.764218 0.147424 0.627883
11.1205 8.9943 41.7754 0.734507 0.184937 0.652915
10.9721 8.10671 42.2248 0.731913 0.226736 0.642569
10.8006 7.42617 42.635 0.69311 0.259279 0.672587
10.5657 6.68022 43.1383 0.656598 0.266192 0.704717
10.2252 5.78409 43.827 0.641655 0.292023 0.709226
9.95355 5.01579 44.3726 0.587021 0.317474 0.744726
9.67077 4.33662 44.8887 0.588044 0.323401 0.74136
9.3076 3.59817 45.4517 0.524067 0.336378 0.781952
8.91777 2.99532 45.9859 0.509727 0.354187 0.784047
8.48918 2.49542 46.4392 0.452246 0.346337 0.821903
7.99138 1.92248 46.917 0.398503 0.349831 0.847829
7.32285 1.20092 47.4643 0.335759 0.318511 0.886463
6.55144 0.791749 47.8855 0.288555 0.292295 0.911003
5.7247 0.83165 48.1054 0.247935 0.2805 0.927188
4.80729 1.03455 48.2602 0.220462 0.269807 0.937275
3.79921 1.38265 48.3268 0.129035 0.239338 0.962324
3.08722 1.62493 48.3526 0.121057 0.231624 0.96517
2.34484 1.89908 48.3593 0.0512443 0.214095 0.975468
1.4484 2.31236 48.3266 0.0341893 0.188507 0.980747
1.10165 3.18441 48.1679 0.00947881 0.157796 0.987362
1.32937 3.98419 48.0298 0.0435699 0.16528 0.985284
1.63747 4.65963 47.9012 0.114363 0.167296 0.978962
2.00023 5.55892 47.6873 0.16368 0.169876 0.971554
2.19671 6.11978 47.5673 0.167978 0.149691 0.974359
1.02032 6.53937 47.671 0.0973379 0.101043 0.990109
0.776656 5.7791 47.786 0.0847472 0.158777 0.983583
0.423714 4.94243 47.932 0.02495 0.135214 0.990502
0.0662424 4.1273 48.0479 -0.0168783 0.128729 0.990692
-0.211647 3.37992 48.13 -0.0619389 0.149371 0.986648
-0.370499 2.41385 48.2711 -0.0773277 0.126667 0.988927
-0.0116148 1.70418 48.3952 -0.0893462 0.15246 0.984087
0.690487 1.21003 48.5352 -0.0495548 0.169618 0.984263
1.57789 0.888761 48.5907 0.0390003 0.18385 0.982173
2.53853 0.536624 48.6463 0.00804221 0.220902 0.975263
3.40662 0.281629 48.6528 0.0872824 0.25571 0.962805
4.46115 -0.116373 48.628 0.157898 0.236677 0.958672
5.51541 -0.316382 48.4876 0.18589 0.272752 0.943955
6.59438 -0.474898 48.2919 0.242207 0.31853 0.916447
7.46819 -0.294989 47.971 0.307158 0.319876 0.896289
8.08282 0.175325 47.5679 0.357555 0.355914 0.863412
8.73053 0.893835 47.0048 0.389058 0.360052 0.847127
9.27918 1.53472 46.4345 0.450303 0.379372 0.807804
9.69598 2.04485 45.922 0.496627 0.402598 0.768945
10.0735 2.53231 45.4345 0.523404 0.377449 0.763924
10.3926 3.08309 44.9156 0.572966 0.372991 0.729786
10.6464 3.68888 44.4238 0.598891 0.353018 0.717748
10.9265 4.51169 43.7608 0.625495 0.33519 0.704559
11.134 5.20559 43.2376 0.674902 0.307521 0.670775
11.3376 5.77223 42.7684 0.676469 0.315193 0.665615
11.514 6.3512 42.311 0.699578 0.295353 0.650658
11.6913 7.10116 41.7965 0.724507 0.2683 0.634905
11.8399 7.91064 41.2862 0.7618 0.244495 0.599903
11.9427 8.76232 40.8475 0.760907 0.205327 0.615517
12.0719 9.57609 40.405 0.801414 0.160245 0.576243
12.1687 10.2497 40.0803 0.818034 0.146585 0.556059
12.2958 10.9174 39.7249 0.820917 0.125926 0.556853
12.4183 11.6259 39.4017 0.831604 0.116515 0.542518
12.5585 12.4772 39.0377 0.846806 0.0793013 0.525957
12.7028 13.3862 38.7174 0.85035 0.0535641 0.523485
12.8688 14.173 38.4195 0.870371 0.00853732 0.492322
13.0515 14.8696 38.1057 0.865969 -0.0292508 0.499241
13.2963 15.8093 37.7217 0.881385 -0.05012 0.469616
13.542 16.6942 37.4013 0.883322 -0.0948676 0.458686
13.8094 17.5875 37.0653 0.886013 -0.122571 0.447166
14.0717 18.45 36.7719 0.893667 -0.134654 0.428051
14.3302 19.2657 36.5237 0.890326 -0.164567 0.424543
14.6215 20.1878 36.2729 0.900436 -0.191629 0.390504
14.9273 21.1043 36.0529 0.893112 -0.21523 0.395004
15.2639 22.1084 35.8222 0.899502 -0.233245 0.369355
15.6014 22.9888 35.588 0.89179 -0.261753 0.369048
15.9262 23.8917 35.4368 0.895125 -0.270436 0.354423
16.2004 24.6917 35.3659 0.89574 -0.286877 0.339634
16.571 25.7756 35.3267 0.891544 -0.304958 0.334888
16.9633 26.8207 35.2464 0.889721 -0.316469 0.329006
17.3114 27.7093 35.161 0.888458 -0.322187 0.326816
17.7871 28.9321 35.0929 0.886547 -0.332104 0.322048
18.186 30.0406 35.1547 0.885201 -0.339551 0.317982
18.5761 31.1384 35.2531 0.884132 -0.344634 0.315489
18.8659 31.9281 35.3087 0.883692 -0.346622 0.314551
19.1287 32.6337 35.3504 0.882995 -0.349609 0.313198
19.4143 33.4167 35.4193 0.882882 -0.349784 0.313321
19.7358 34.4284 35.6412 0.883138 -0.349315 0.313124
20.1014 35.5916 35.91 0.882698 -0.349488 0.314168
20.2088 36.3971 36.4997 0.883025 -0.347149 0.315839
19.8816 36.3136 37.3251 0.883392 -0.346437 0.315593
19.5391 36.1698 38.1217 0.882887 -0.346046 0.317431
19.1695 35.9501 38.9142 0.883773 -0.346847 0.31407
18.8388 35.7634 39.6431 0.884384 -0.346706 0.312506
18.5347 35.5804 40.3104 0.885656 -0.347843 0.307602
18.1919 35.3931 41.092 0.888327 -0.347275 0.300456
17.8532 35.2531 41.93 0.890609 -0.344667 0.296631
17.4739 34.9348 42.7197 0.893921 -0.346587 0.284222
17.0874 34.0411 42.8386 0.891716 -0.356293 0.279095
16.7833 33.2435 42.7952 0.890042 -0.35895 0.281003
16.4378 32.3489 42.733 0.888451 -0.360709 0.283788
16.1383 31.599 42.704 0.887656 -0.365524 0.280107
15.8148 30.8167 42.6665 0.879073 -0.380252 0.287335
15.532 30.1025 42.5985 0.878213 -0.376581 0.294836
15.1525 29.2053 42.5721 0.871615 -0.38487 0.303581
14.6938 28.2202 42.6327 0.867806 -0.388749 0.309247
14.3608 27.4978 42.6621 0.865712 -0.383115 0.322113
13.806 26.3402 42.742 0.860771 -0.38208 0.336148
13.3282 25.3778 42.8466 0.851728 -0.391982 0.34766
12.9374 24.5956 42.9272 0.851069 -0.38427 0.357797
12.3799 23.5612 43.1048 0.837905 -0.374217 0.397258
11.8421 22.6953 43.3554 0.812464 -0.393637 0.430061
11.2876 21.8216 43.6013 0.793395 -0.388322 0.468602
10.7442 21.0012 43.8404 0.775782 -0.370578 0.509807
10.3363 20.3766 44.0464 0.760377 -0.365582 0.535417
9.63552 19.4994 44.4249 0.729639 -0.329008 0.598454
8.99647 18.781 44.7746 0.701017 -0.308495 0.642233
8.32957 18.0844 45.129 0.678995 -0.313008 0.664072
7.69775 17.4492 45.4498 0.620337 -0.245169 0.745033
7.16652 16.8531 45.6997 0.62427 -0.238756 0.74383
6.51526 16.1836 45.968 0.566645 -0.239118 0.788503
5.80218 15.4746 46.2415 0.51428 -0.198912 0.834236
5.11665 14.7766 46.4648 0.461847 -0.151906 0.873594
4.43092 14.0374 46.6526 0.386272 -0.159061 0.908559
3.94781 13.319 46.7488 0.361318 -0.116019 0.9251
3.50225 12.4438 46.8346 0.360773 -0.0357639 0.931968
3.09405 11.755 46.9588 0.335647 -0.0169163 0.941836
2.69465 10.8956 47.0696 0.305635 -0.00552785 0.952133
2.39591 10.0648 47.1406 0.255786 0.00548356 0.966718
2.10185 9.18833 47.2365 0.200762 0.0512285 0.9783
1.72287 8.23917 47.3824 0.209558 0.0823905 0.974319
1.26818 7.29109 47.5538 0.134579 0.104683 0.985358
1.03844 6.59256 47.6638 0.117888 0.111177 0.986511
-0.134963 6.98514 47.7147 0.0358707 0.0963015 0.993767
-0.339984 6.2183 47.7747 -0.0035313 0.0788712 0.996879
-0.686614 5.45483 47.8486 -0.00807573 0.120235 0.992352
-1.00077 4.76395 47.9131 -0.0759076 0.107436 0.99131
-1.29258 4.07012 47.9599 -0.0946647 0.112433 0.988895
-1.61719 2.99239 48.0547 -0.120851 0.105514 0.987047
-1.74178 2.20263 48.1385 -0.138409 0.127822 0.982092
-1.45026 1.24632 48.3055 -0.140911 0.128231 0.98168
-0.791651 0.60994 48.4918 -0.133988 0.152513 0.978891
0.0784606 0.0958021 48.6698 -0.109967 0.160781 0.980845
0.97119 -0.263003 48.7894 -0.0521764 0.205074 0.977355
1.76031 -0.499732 48.8718 -0.00618933 0.203823 0.978988
2.48894 -0.712178 48.9263 -0.00183902 0.222505 0.97493
3.26514 -0.9472 48.9515 0.0509462 0.219796 0.974174
4.11921 -1.22899 48.9435 0.118278 0.229152 0.966178
4.98477 -1.44232 48.893 0.125945 0.257163 0.958126
5.99724 -1.60831 48.7849 0.172017 0.302792 0.937404
6.87256 -1.71182 48.6567 0.200637 0.317659 0.926174
7.67574 -1.60065 48.4175 0.2125 0.340011 0.915974
8.40369 -1.20542 48.0396 0.273399 0.378892 0.884134
8.93455 -0.732684 47.6208 0.339658 0.404699 0.849029
9.39875 -0.225225 47.1986 0.411828 0.405058 0.816288
9.82513 0.282267 46.7316 0.412005 0.389161 0.82371
10.355 0.91341 46.1018 0.472975 0.407243 0.781312
10.7462 1.4429 45.5494 0.497817 0.415495 0.761081
11.0908 1.95553 44.992 0.562609 0.419891 0.712011
11.392 2.52391 44.4161 0.595054 0.394459 0.699898
11.6214 3.04399 43.9055 0.607136 0.392883 0.690537
11.7833 3.59859 43.4196 0.657147 0.396794 0.640869
11.9343 4.29645 42.8828 0.67303 0.367794 0.641048
12.1467 5.05051 42.2433 0.701378 0.320494 0.636598
12.3225 5.61472 41.7466 0.721428 0.323155 0.612465
12.4773 6.26357 41.2446 0.728911 0.30206 0.614368
12.5901 6.98376 40.7323 0.774883 0.278249 0.567127
12.655 7.70619 40.3135 0.784151 0.260479 0.563242
12.7154 8.45655 39.9042 0.792273 0.227079 0.566337
12.7874 9.20959 39.5004 0.829629 0.184899 0.52681
12.9037 9.98564 39.0493 0.828679 0.180664 0.529766
13.0116 10.6626 38.6851 0.835017 0.141112 0.531821
13.1364 11.6106 38.2333 0.867566 0.0986738 0.487435
13.2264 12.5017 37.9119 0.8637 0.0808195 0.497484
13.353 13.2814 37.5922 0.874827 0.0525435 0.481577
13.4989 13.945 37.2724 0.878918 -0.00149814 0.47697
13.696 14.8044 36.8806 0.898698 -0.00772021 0.438401
13.8921 15.6669 36.5345 0.898775 -0.0450434 0.436052
14.1133 16.5743 36.1851 0.89833 -0.073014 0.432521
14.3768 17.5728 35.8429 0.912036 -0.0979374 0.398244
14.5896 18.3504 35.5936 0.914087 -0.13294 0.382727
14.877 19.3406 35.2941 0.912254 -0.163061 0.375485
15.2102 20.4248 34.9849 0.913779 -0.173226 0.367424
15.4857 21.3115 34.7867 0.911949 -0.204041 0.355972
15.751 22.102 34.5975 0.91027 -0.225549 0.347183
15.9911 22.807 34.4452 0.903462 -0.256098 0.34376
16.2583 23.5843 34.32 0.904882 -0.263678 0.334159
16.5251 24.3615 34.2301 0.901077 -0.276353 0.334197
16.7771 25.1151 34.1966 0.902135 -0.287073 0.322089
17.1019 26.0321 34.1327 0.896263 -0.306465 0.320612
17.4953 27.0678 34.0297 0.893653 -0.314172 0.320403
17.9314 28.192 33.9348 0.891743 -0.320514 0.319475
18.3443 29.3081 33.9313 0.889659 -0.329793 0.315821
18.6898 30.3062 34.0254 0.887659 -0.3382 0.31254
18.9504 31.0516 34.1026 0.886531 -0.343437 0.310023
19.4039 32.2542 34.1493 0.885223 -0.347621 0.309097
19.7251 33.1292 34.219 0.883817 -0.351242 0.309025
20.0273 34.0251 34.3679 0.883635 -0.349035 0.312032
20.3723 35.1162 34.6138 0.883233 -0.350248 0.311811
20.6648 36.0353 34.8163 0.883398 -0.349037 0.312699
20.908 36.8479 35.0356 0.883495 -0.348857 0.312627
21.0725 37.6696 35.4821 0.883182 -0.347534 0.314976
20.8064 37.7036 36.2656 0.882865 -0.347098 0.316341
20.453 37.5148 37.0436 0.882946 -0.346734 0.316515
20.125 37.3942 37.8241 0.882615 -0.345681 0.318583
19.8183 37.2723 38.5426 0.883229 -0.343479 0.319263
19.463 37.0655 39.3078 0.884964 -0.341723 0.316329
19.108 36.8483 40.0717 0.886744 -0.339743 0.313464
18.7315 36.6363 40.9155 0.889352 -0.337062 0.308936
18.3607 36.451 41.7913 0.892269 -0.334989 0.302718
18.0749 36.3482 42.5266 0.895843 -0.334432 0.292568
17.6938 36.0869 43.4063 0.897395 -0.336911 0.28486
17.3634 35.7728 44.0914 0.901133 -0.333366 0.277175
17.0243 34.9511 44.188 0.899231 -0.343438 0.270943
16.6843 33.9787 44.0665 0.897117 -0.351578 0.267532
16.3298 33.0041 43.9593 0.893946 -0.359376 0.267786
16.0493 32.2796 43.9088 0.890764 -0.370364 0.263223
15.749 31.5335 43.8853 0.891312 -0.373692 0.256657
15.4393 30.7697 43.8284 0.888423 -0.379517 0.25821
15.0241 29.7371 43.7152 0.879151 -0.390772 0.272562
14.6385 28.9171 43.7492 0.875371 -0.398959 0.273045
14.3046 28.2255 43.7975 0.866694 -0.410357 0.283633
13.9013 27.4053 43.8516 0.859884 -0.414905 0.297334
13.5513 26.7208 43.895 0.857759 -0.412828 0.306209
13.0328 25.7099 43.9644 0.846533 -0.420448 0.326506
12.5271 24.7495 44.0547 0.835846 -0.420718 0.352645
11.9645 23.8313 44.2664 0.813874 -0.435328 0.384836
11.5395 23.1882 44.4419 0.789446 -0.444898 0.422896
11.0068 22.4068 44.6363 0.781076 -0.436065 0.445996
10.506 21.7258 44.8182 0.776141 -0.421735 0.46877
9.82607 20.8754 45.0726 0.717632 -0.462065 0.521057
9.27369 20.2432 45.3222 0.691194 -0.422354 0.586402
8.74309 19.6972 45.5583 0.670562 -0.373099 0.641065
8.0921 19.0486 45.8534 0.638617 -0.391149 0.661799
7.50176 18.5478 46.1128 0.610723 -0.355195 0.70703
6.93791 18.0104 46.3216 0.574633 -0.322766 0.750967
6.16027 17.25 46.5674 0.541506 -0.279513 0.79203
5.57548 16.7109 46.7371 0.47478 -0.29655 0.828537
4.93466 16.1357 46.8956 0.460423 -0.243772 0.853314
4.32574 15.5798 47.0269 0.388406 -0.246794 0.887825
3.77517 15.0373 47.1357 0.324854 -0.215448 0.920897
3.18429 14.289 47.1854 0.339861 -0.185977 0.921904
2.73348 13.4754 47.2083 0.267243 -0.13393 0.954277
2.24223 12.6477 47.2603 0.290735 -0.0763276 0.953754
1.78636 11.8252 47.3394 0.222666 -0.0462808 0.973796
1.4839 11.0376 47.3805 0.194652 -0.037657 0.9795
1.18301 10.1699 47.4048 0.165468 0.00842082 0.986179
0.862295 9.35345 47.4624 0.141914 0.0239641 0.989589
0.425847 8.45019 47.551 0.132449 0.052093 0.989453
0.0585508 7.62978 47.6452 0.0720315 0.0684109 0.995053
-0.0871409 7.18684 47.6879 0.0707186 0.0989275 0.992456
-1.21122 7.56926 47.6844 -0.000489828 0.0286303 0.99959
-1.0068 8.32467 47.6471 0.050309 0.0413027 0.997207
-0.612972 9.12368 47.6232 0.0658767 0.020601 0.997378
-0.202506 9.91602 47.5857 0.0916297 -0.0101633 0.995741
0.213062 11.0414 47.5702 0.11696 -0.0573117 0.991482
0.493871 11.938 47.5824 0.139304 -0.0676479 0.987936
0.856751 12.6456 47.591 0.159499 -0.0970965 0.982411
1.30804 13.4468 47.5766 0.190424 -0.130596 0.972025
1.8071 14.2357 47.5985 0.243015 -0.156539 0.956556
2.31317 15.0491 47.6233 0.27782 -0.22426 0.93409
2.80082 15.6545 47.6424 0.300758 -0.242407 0.921628
3.43674 16.265 47.6095 0.310432 -0.299841 0.902068
4.24852 16.9731 47.5147 0.385147 -0.313685 0.867908
4.90144 17.5037 47.4187 0.469175 -0.370516 0.801473
5.50686 18.0287 47.301 0.48065 -0.375509 0.792444
6.08959 18.5258 47.1824 0.516894 -0.368122 0.771718
6.87962 19.1764 46.9703 0.537263 -0.453165 0.711255
7.44669 19.6394 46.7955 0.589341 -0.455456 0.667261
8.03245 20.1021 46.5925 0.635792 -0.460129 0.619718
8.61931 20.6224 46.3769 0.669029 -0.497966 0.551736
9.28746 21.2575 46.1414 0.690526 -0.47818 0.541734
9.78733 21.7925 45.974 0.695053 -0.505557 0.511189
10.3622 22.4818 45.8115 0.730721 -0.499225 0.465641
10.8583 23.1091 45.6603 0.763918 -0.490574 0.419245
11.4331 23.9019 45.495 0.792773 -0.476339 0.380279
11.8938 24.5374 45.2874 0.821031 -0.450059 0.351197
12.4142 25.3703 45.1159 0.837897 -0.43857 0.324699
12.8622 26.2089 45.1265 0.842964 -0.439186 0.310221
13.4159 27.2191 45.0379 0.855056 -0.431011 0.287976
13.7756 27.9212 45.0003 0.860416 -0.426991 0.278142
14.2243 28.8014 44.9262 0.8704 -0.415304 0.264434
14.6721 29.727 44.8888 0.880785 -0.397557 0.257059
15.0935 30.7398 44.9975 0.887308 -0.393797 0.239868
15.3969 31.5144 45.0972 0.894918 -0.378231 0.236777
15.7534 32.3854 45.0892 0.900946 -0.359547 0.242944
16.1597 33.4657 45.1782 0.899129 -0.352929 0.258859
16.4091 34.1898 45.2992 0.900061 -0.347755 0.26249
16.784 35.2955 45.4618 0.908414 -0.334693 0.250322
17.0961 36.3117 45.6522 0.91162 -0.320586 0.25713
17.4266 36.875 45.2053 0.907624 -0.322057 0.269256
17.7003 36.9729 44.4232 0.903106 -0.328478 0.27659
18.0316 37.2435 43.6839 0.897705 -0.330768 0.291064
18.3935 37.524 42.8876 0.896423 -0.330587 0.295162
18.6515 37.5411 42.1357 0.893186 -0.331516 0.303808
19.0385 37.7686 41.263 0.889074 -0.334756 0.312227
19.3629 37.9379 40.5254 0.886841 -0.336193 0.316988
19.7442 38.1639 39.6973 0.884828 -0.339118 0.319486
20.107 38.409 38.9597 0.883173 -0.340859 0.322211
20.3997 38.5209 38.2779 0.882622 -0.342144 0.322356
20.7637 38.6074 37.3687 0.882275 -0.344906 0.320359
21.283 38.9446 36.2947 0.882661 -0.346445 0.317624
21.597 39.1011 35.5938 0.882156 -0.348543 0.31673
21.9191 39.2495 34.8566 0.882597 -0.349047 0.314943
21.9003 38.6398 34.2334 0.882908 -0.349175 0.313926
21.6455 37.8576 34.0791 0.883299 -0.349424 0.312547
21.3415 36.8434 33.805 0.883456 -0.34904 0.312531
21.0124 35.8113 33.5818 0.883342 -0.349841 0.311958
20.7584 35.0117 33.4028 0.883123 -0.351761 0.310409
20.5057 34.2324 33.2386 0.884253 -0.350698 0.308395
20.2038 33.3287 33.0749 0.88424 -0.351964 0.306987
19.9287 32.5598 32.9869 0.884444 -0.351271 0.307193
19.5976 31.7115 32.978 0.885917 -0.348745 0.305823
19.2926 30.8893 32.932 0.88816 -0.345141 0.303398
18.9216 29.7977 32.7957 0.890922 -0.335909 0.305627
18.644 29.005 32.7438 0.892188 -0.331716 0.306536
18.2691 27.9863 32.7559 0.894659 -0.322606 0.309042
17.9016 27.0265 32.8377 0.896266 -0.314982 0.31224
17.5684 26.1353 32.9157 0.899986 -0.302421 0.313954
17.2949 25.4042 33.0042 0.902586 -0.297604 0.311079
17.0404 24.6613 33.0549 0.907822 -0.281504 0.31083
16.6944 23.6525 33.1737 0.910918 -0.267113 0.314449
16.4289 22.8336 33.2708 0.914952 -0.247203 0.318988
16.1569 22.0048 33.4262 0.915281 -0.231958 0.329326
15.9103 21.2125 33.5932 0.919267 -0.20792 0.334241
15.684 20.4658 33.7681 0.922643 -0.176743 0.342772
15.4749 19.7159 33.9423 0.922386 -0.165427 0.348759
15.1882 18.7112 34.2603 0.92254 -0.144221 0.35781
14.9819 17.9321 34.5166 0.928561 -0.112288 0.353788
14.8036 17.1746 34.7373 0.922258 -0.089044 0.376179
14.5786 16.1718 35.0776 0.916981 -0.0526101 0.395447
14.3731 15.1992 35.4533 0.911537 -0.0159494 0.410908
14.1869 14.301 35.8494 0.906981 0.0206233 0.420666
14.0017 13.2609 36.3246 0.899467 0.0635032 0.43235
13.8682 12.5632 36.6889 0.885442 0.0656134 0.459492
13.7686 11.4907 37.1085 0.882121 0.119942 0.455082
13.7334 10.7564 37.3872 0.873366 0.135286 0.467793
13.6455 10.1113 37.769 0.872945 0.163311 0.459669
13.5546 9.32585 38.2052 0.84308 0.206623 0.496511
13.4631 8.47532 38.7378 0.845295 0.22447 0.484861
13.4109 7.54819 39.2836 0.800669 0.273336 0.533119
13.3882 6.81766 39.7144 0.79891 0.308764 0.516147
13.327 6.1174 40.1914 0.773887 0.322703 0.544917
13.2329 5.39964 40.7274 0.7486 0.335843 0.571502
13.1217 4.76276 41.2501 0.737213 0.33023 0.589462
12.8841 4.02722 41.9713 0.720677 0.367207 0.587596
12.7769 3.34198 42.5156 0.693159 0.370447 0.618305
12.6582 2.69226 43.0898 0.660212 0.409132 0.629825
12.4449 2.18446 43.6511 0.658389 0.41671 0.626797
12.1882 1.56671 44.302 0.60012 0.447834 0.662795
11.8447 0.949337 45.0012 0.568865 0.435589 0.697606
11.5196 0.447036 45.5749 0.505549 0.453989 0.733561
11.0815 -0.111967 46.2273 0.486949 0.438137 0.754538
10.5813 -0.807938 46.9159 0.426372 0.426777 0.796431
10.1179 -1.30287 47.4245 0.383064 0.465888 0.797628
9.53215 -1.96121 47.9932 0.316179 0.416537 0.852311
8.83775 -2.43681 48.4511 0.256284 0.399441 0.880198
8.15334 -2.75002 48.7552 0.197225 0.361105 0.911431
7.28254 -2.94 49.0009 0.167759 0.340702 0.925083
6.219 -2.8461 49.1402 0.102111 0.292306 0.950702
5.45878 -2.73762 49.1947 0.121069 0.255767 0.959127
4.55426 -2.56791 49.2439 0.0851541 0.248042 0.964943
3.65286 -2.29117 49.2361 0.0427894 0.22919 0.972441
2.70849 -1.96962 49.1944 -0.009703 0.201667 0.979406
1.74909 -1.74874 49.1268 -0.0479626 0.187446 0.981103
0.93073 -1.56647 49.0404 -0.0722156 0.192947 0.978548
0.117026 -1.26605 48.9085 -0.116597 0.174085 0.977803
-0.710577 -0.888266 48.7416 -0.129112 0.164483 0.977893
-1.39708 -0.551792 48.5766 -0.167277 0.165157 0.971817
-2.06952 -0.0454294 48.3881 -0.173672 0.151313 0.973025
-2.60019 0.538603 48.2103 -0.173325 0.126684 0.976683
-3.01899 1.35408 48.0357 -0.16748 0.118243 0.978759
-3.01509 2.13482 47.9407 -0.155521 0.110278 0.981484
-2.83077 3.1785 47.8689 -0.143929 0.0998902 0.984508
-2.65103 3.97698 47.8234 -0.127023 0.0813555 0.988558
-2.37521 4.72193 47.7919 -0.106556 0.0651868 0.991748
-2.02191 5.43851 47.7751 -0.0999056 0.0803745 0.991745
-1.66653 6.28524 47.7378 -0.0376311 0.0529608 0.997887
-1.38511 7.03024 47.71 -0.0192578 0.0632885 0.997546
-1.31861 7.24509 47.6936 -0.000313001 0.0522652 0.998353
-2.53748 7.51382 47.6479 -0.0713023 0.0146877 0.997347
-2.32138 8.35952 47.6649 0.00145328 -0.0139181 0.999902
-2.01129 9.18781 47.6727 0.00721789 -0.0275869 0.999387
-1.50571 10.175 47.6802 0.0443458 -0.0182035 0.998709
-1.12189 10.8596 47.6814 0.0541589 -0.0486886 0.997345
-0.934546 11.8237 47.7346 0.0907116 -0.100357 0.990808
-0.455943 12.7348 47.7851 0.110484 -0.118259 0.986817
0.00284601 13.6337 47.8359 0.1535 -0.108849 0.982135
0.456222 14.3578 47.8925 0.139505 -0.20426 0.968081
1.06431 15.2365 47.977 0.176196 -0.259515 0.948292
1.51129 15.9184 48.0608 0.210981 -0.263687 0.941133
2.01513 16.4718 48.1182 0.202167 -0.28489 0.936998
2.82991 17.2028 48.1675 0.285739 -0.395603 0.872841
3.5258 17.8102 48.2073 0.331365 -0.446364 0.831238
4.38249 18.3724 48.1025 0.381619 -0.463917 0.7973
5.07812 18.9444 48.021 0.433946 -0.411684 0.801316
5.73373 19.4048 47.9049 0.45909 -0.467976 0.755139
6.54619 19.987 47.7916 0.545311 -0.544728 0.637108
7.21941 20.4735 47.6212 0.557334 -0.523312 0.644611
7.96294 21.022 47.435 0.608497 -0.55546 0.566742
8.88322 21.787 47.1826 0.655747 -0.575063 0.489181
9.74261 22.6107 46.9399 0.692256 -0.545709 0.47221
10.4304 23.3751 46.8082 0.733353 -0.562191 0.382276
10.9224 23.9462 46.6858 0.775357 -0.541126 0.325581
11.5987 24.8864 46.512 0.803874 -0.4963 0.32783
12.0764 25.5384 46.2758 0.830059 -0.472152 0.296486
12.6066 26.5034 46.3315 0.838408 -0.470879 0.274315
13.1508 27.4017 46.1833 0.858616 -0.458637 0.228978
13.7059 28.4773 46.1849 0.873811 -0.432665 0.221935
14.0691 29.167 46.101 0.877019 -0.418215 0.236481
14.4562 29.9721 46.0868 0.883155 -0.406503 0.23408
14.7987 30.808 46.2266 0.8883 -0.39898 0.227461
15.105 31.5896 46.332 0.902213 -0.366423 0.227467
15.4103 32.3217 46.2836 0.905796 -0.35459 0.231948
15.7148 33.1467 46.3535 0.904377 -0.350604 0.243268
15.9852 33.9337 46.4813 0.906325 -0.348303 0.239081
16.3451 34.9724 46.6379 0.910052 -0.344979 0.229722
16.6636 36.0135 46.8297 0.920602 -0.315309 0.230215
16.8404 36.7972 47.1235 0.912291 -0.310953 0.266523
17.1245 37.5585 47.0321 0.91447 -0.306611 0.264072
17.4684 37.945 46.2983 0.916978 -0.290779 0.273129
17.7264 38.0158 45.5136 0.910677 -0.299404 0.284589
18.0649 38.1695 44.5905 0.904308 -0.314027 0.288965
18.519 38.5517 43.626 0.899993 -0.319216 0.296839
18.8154 38.7166 42.9241 0.897807 -0.318012 0.304648
19.1874 38.8163 41.9499 0.891374 -0.324911 0.315973
19.5738 39.0858 41.1421 0.886978 -0.332871 0.320072
19.9698 39.3051 40.2657 0.887851 -0.332458 0.318106
20.3056 39.4759 39.5315 0.879269 -0.340744 0.332711
20.6747 39.6757 38.7562 0.880466 -0.34465 0.32557
21.0553 39.7283 37.7781 0.879942 -0.349195 0.322127
21.4265 39.9703 37.0215 0.881488 -0.348159 0.319005
21.8854 40.2393 36.0429 0.881512 -0.352252 0.314412
22.1912 40.3446 35.3037 0.882056 -0.350096 0.315286
22.6134 40.607 34.4106 0.883076 -0.347284 0.315549
22.8279 40.5023 33.6958 0.882877 -0.346352 0.317122
22.642 39.7932 33.4346 0.881071 -0.351604 0.316362
22.457 39.0993 33.1749 0.883186 -0.349469 0.312816
22.2413 38.3768 32.9724 0.883819 -0.350351 0.310027
21.9691 37.5111 32.7743 0.883954 -0.349051 0.31111
21.6926 36.6217 32.562 0.883698 -0.349059 0.311827
21.4203 35.8066 32.4232 0.88173 -0.350615 0.315586
21.1479 34.9514 32.2246 0.881139 -0.353364 0.31421
20.8508 34.0557 32.0396 0.885594 -0.353091 0.301745
20.5573 33.2198 31.9234 0.88541 -0.352301 0.303206
20.2796 32.424 31.8066 0.886044 -0.353436 0.300014
19.8635 31.3754 31.8056 0.88848 -0.350984 0.295657
19.6093 30.6451 31.711 0.892619 -0.341495 0.2943
19.3778 29.9125 31.5639 0.894185 -0.339575 0.291757
19.0845 29.1514 31.5844 0.897016 -0.33124 0.292619
18.7952 28.346 31.5725 0.89983 -0.323015 0.293183
18.4314 27.3698 31.6244 0.901103 -0.32042 0.292138
18.165 26.6355 31.6593 0.900736 -0.312424 0.301772
17.8745 25.8106 31.6903 0.904512 -0.304278 0.298786
17.5063 24.8643 31.87 0.910786 -0.288824 0.295034
17.1981 23.905 31.9209 0.913682 -0.272421 0.301615
16.8745 22.9794 32.0939 0.918905 -0.25208 0.303428
16.6366 22.2098 32.1871 0.922782 -0.235223 0.30514
16.3554 21.2759 32.3429 0.92543 -0.219466 0.308892
16.1174 20.5005 32.5356 0.929611 -0.191395 0.314665
15.9142 19.7338 32.708 0.939674 -0.155056 0.304889
15.7005 18.9278 32.9478 0.940593 -0.136926 0.31001
15.4272 17.8615 33.3128 0.936703 -0.11004 0.331652
15.2472 17.0367 33.5579 0.936143 -0.105096 0.335545
15.0696 16.1842 33.8326 0.941142 -0.0715516 0.330351
14.8941 15.256 34.1901 0.931203 -0.0268652 0.363509
14.7469 14.296 34.5405 0.937088 0.00480644 0.34906
14.5616 13.2031 35.0903 0.914068 0.0642967 0.400431
14.4842 12.4082 35.4151 0.908185 0.0932575 0.407866
14.3486 11.4694 35.9454 0.905633 0.112938 0.408744
14.3389 10.7616 36.2152 0.890746 0.159504 0.425092
14.299 9.98452 36.559 0.88291 0.165367 0.43919
14.2125 9.1497 37.0711 0.878278 0.187865 0.439564
14.148 8.45293 37.5119 0.866616 0.243855 0.432712
14.1088 7.53978 38.1225 0.840579 0.276327 0.465585
14.1174 6.85112 38.5192 0.821933 0.320006 0.469414
14.1013 6.22112 38.993 0.791387 0.32887 0.515316
14.099 5.41594 39.5249 0.771983 0.359038 0.524158
14.0603 4.77131 40.0035 0.757592 0.356338 0.546874
13.9695 4.03828 40.5987 0.751564 0.351302 0.558335
13.7254 3.36331 41.3644 0.736632 0.369273 0.566578
13.6796 2.55737 42.0002 0.717806 0.435209 0.543459
13.4597 1.91826 42.7498 0.685207 0.44715 0.574584
13.2957 1.26109 43.4371 0.636093 0.469754 0.612142
12.973 0.672014 44.2019 0.625252 0.462177 0.628815
12.7649 0.188644 44.7414 0.579625 0.482569 0.656629
12.4428 -0.313885 45.3789 0.529136 0.491326 0.691819
12.1881 -0.787782 45.9121 0.509276 0.496592 0.70247
11.7348 -1.28946 46.5523 0.46612 0.47618 0.745644
11.3675 -1.88041 47.153 0.387178 0.520457 0.761063
10.8587 -2.39076 47.7086 0.333814 0.465344 0.81977
10.3686 -2.91416 48.1808 0.279695 0.473131 0.834319
9.85059 -3.29604 48.5677 0.251762 0.445557 0.859036
9.23555 -3.63426 48.9133 0.199978 0.429163 0.879627
8.22457 -3.9886 49.244 0.142805 0.366003 0.919592
7.32941 -4.15528 49.429 0.10519 0.317992 0.942234
6.33558 -4.09167 49.5094 0.0789562 0.287713 0.954456
5.50008 -3.9521 49.5312 0.0417327 0.264643 0.963443
4.69395 -3.85072 49.5431 0.0526976 0.259979 0.964175
3.88942 -3.67733 49.5338 0.0330565 0.198716 0.979499
3.07116 -3.43494 49.5051 0.0190246 0.206474 0.978267
2.199 -3.21414 49.444 -0.0288292 0.206049 0.978074
1.35171 -2.94203 49.3422 -0.0582993 0.19669 0.978731
0.580357 -2.77055 49.2486 -0.087307 0.189975 0.977899
-0.111051 -2.44747 49.1144 -0.113543 0.195257 0.974157
-0.959731 -2.12226 48.938 -0.134322 0.201176 0.970302
-1.6374 -1.81537 48.7712 -0.189995 0.203391 0.960486
-2.4095 -1.47067 48.5562 -0.200117 0.169437 0.96492
-3.10778 -0.800277 48.3007 -0.196537 0.138771 0.970627
-3.64991 -0.213601 48.1063 -0.197705 0.139798 0.970242
-4.12507 0.364513 47.9017 -0.264112 0.110367 0.958157
-4.31939 1.20081 47.765 -0.23235 0.084457 0.968958
-4.25225 2.06592 47.7041 -0.205314 0.0708863 0.975851
-4.15536 2.86684 47.6435 -0.2167 0.091649 0.971881
-3.96848 3.74064 47.6113 -0.216938 0.0787564 0.972992
-3.76034 4.53675 47.6014 -0.170626 0.0586128 0.983573
-3.42804 5.31889 47.6111 -0.159565 0.0552088 0.985642
-3.03891 6.30941 47.6305 -0.104629 0.0378646 0.99379
-2.68886 7.01682 47.6422 -0.114854 -0.015545 0.993071
-2.56189 7.41672 47.6476 -0.0713058 0.0146846 0.997346
13.8602 22.6379 39.2914 0.863569 -0.292831 0.410487
14.0533 23.5606 39.539 0.865674 -0.30286 0.39823
14.4226 23.9503 39.0326 0.865675 -0.302859 0.398229
14.0653 23.0795 39.1733 0.865631 -0.289172 0.408733
14.0058 22.9392 39.2 0.8646 -0.291001 0.409611
14.5134 24.1224 38.97 0.869605 -0.313625 0.381279
14.9158 24.9966 38.7603 0.872307 -0.313432 0.375285
15.204 25.8061 38.7705 0.872089 -0.323507 0.366958
15.4821 26.4513 38.6887 0.877155 -0.330689 0.3482
15.7118 27.1799 38.8116 0.873948 -0.342959 0.344374
16.0347 27.9417 38.7433 0.876851 -0.342514 0.337307
16.4444 28.8157 38.5762 0.878284 -0.346249 0.329731
16.7019 29.5458 38.6635 0.877642 -0.350301 0.32716
17.0788 30.5317 38.711 0.877371 -0.353462 0.324456
16.9094 30.6252 39.2781 0.875216 -0.362989 0.319742
16.6116 29.859 39.2417 0.877371 -0.353462 0.324458
16.4017 29.1895 39.0885 0.876657 -0.350686 0.329367
16.0041 28.2632 39.1592 0.876144 -0.34898 0.332544
15.6597 27.4673 39.2297 0.873843 -0.34292 0.344679
15.3669 26.7187 39.2236 0.871568 -0.340519 0.352618
15.0757 25.9984 39.2609 0.872538 -0.331997 0.358408
14.7842 25.2621 39.2885 0.872089 -0.323507 0.366958
14.3879 24.3081 39.4017 0.866238 -0.3154 0.387497
17.2007 30.8103 38.6867 0.880149 -0.353929 0.316339
17.2501 31.391 39.1995 0.88053 -0.353659 0.315581
