4.85044 4.36414 50.0489 0.184676 0.202558 0.961306
5.21604 5.06472 49.8082 0.220251 0.23832 0.945563
5.21604 5.06472 49.8082 0.220251 0.23832 0.945563
5.51923 5.76248 49.5468 0.270961 0.215889 0.937456
5.8645 6.3923 49.2814 0.311492 0.235587 0.920582
6.2983 7.07294 48.9605 0.316619 0.21148 0.924341
6.75212 7.70488 48.6285 0.383824 0.206068 0.900086
7.35694 8.25804 48.2193 0.443253 0.201724 0.873292
7.94344 8.7265 47.8257 0.466911 0.188293 0.863401
8.49226 9.19331 47.4152 0.515853 0.150474 0.843073
9.14139 9.61712 46.9126 0.540787 0.163362 0.825144
9.65053 10.0771 46.4507 0.60937 0.140704 0.779962
10.1126 10.5046 46.0181 0.640056 0.0991488 0.761904
10.7581 10.6307 45.4226 0.68079 0.0835619 0.727696
10.8284 10.5953 45.3608 0.673907 0.117697 0.728549
10.4367 10.0626 45.8235 0.629933 0.133333 0.765119
10.0769 9.496 46.2303 0.635988 0.152836 0.756412
9.60979 8.9484 46.7107 0.575597 0.20424 0.791817
9.08084 8.3971 47.2075 0.536829 0.178973 0.82449
8.69163 7.88124 47.588 0.480804 0.210684 0.85114
8.11448 7.24412 48.0863 0.490513 0.231039 0.840249
7.59559 6.61582 48.5178 0.436586 0.227958 0.870303
7.04588 6.00776 48.9392 0.352856 0.27004 0.895863
6.60276 5.42449 49.2856 0.329706 0.25438 0.908894
6.123 4.9035 49.588 0.289499 0.236067 0.927366
5.58456 4.24119 49.9015 0.265907 0.21305 0.940161
4.85995 4.15683 50.0867 0.165603 0.184227 0.968832
4.79992 4.27089 50.0753 0.165599 0.184229 0.968833
3.75528 4.9871 50.1009 0.119285 0.212532 0.969846
4.15396 5.71183 49.8692 0.176298 0.233169 0.956322
4.64041 6.69988 49.5505 0.226215 0.190986 0.954624
4.9843 7.36127 49.3501 0.274463 0.18343 0.943212
5.43772 8.088 49.0471 0.309951 0.171632 0.934784
5.89663 8.69283 48.7887 0.358933 0.156848 0.919491
6.4896 9.28647 48.434 0.391143 0.153932 0.907365
7.08991 9.77175 48.0929 0.425316 0.1471 0.892202
8.05921 10.4199 47.4918 0.478775 0.0784114 0.874429
8.59547 10.84 47.1069 0.542498 0.0986777 0.833928
9.24219 11.2555 46.6284 0.587539 0.0871942 0.803582
9.75335 11.6998 46.1982 0.633383 0.0397693 0.772599
10.3719 12.2461 45.6489 0.642974 0.0348557 0.765095
10.8272 12.659 45.1933 0.701185 0.0272361 0.712459
11.2825 13.1203 44.7276 0.718117 0.0220325 0.695132
11.7979 13.7023 44.1674 0.743892 -0.0196306 0.668011
12.3311 14.4293 43.5242 0.779943 -0.0257647 0.62532
12.7318 15.0547 43.0451 0.807946 -0.083844 0.583261
13.1082 15.7098 42.5993 0.821479 -0.0700235 0.565924
13.5476 16.4794 42.0984 0.831374 -0.103906 0.545913
13.8912 17.0437 41.7036 0.842383 -0.132085 0.522441
14.1399 17.2333 41.3506 0.841263 -0.130203 0.524703
13.8605 16.297 41.5896 0.837582 -0.0945911 0.537834
13.4666 15.1957 42.0318 0.822367 -0.0513827 0.56638
13.2294 14.433 42.2991 0.818215 -0.042573 0.573334
13.003 13.6834 42.6163 0.811438 0.00930606 0.5842
12.7287 12.7234 43.0251 0.801622 0.0471754 0.595349
12.5036 11.9581 43.3903 0.760392 0.0746943 0.645155
12.2745 11.2844 43.7561 0.762297 0.0999294 0.639458
11.8926 10.4757 44.3243 0.718113 0.147263 0.680167
11.5927 9.81992 44.7837 0.718684 0.148337 0.679331
11.2792 9.2293 45.2381 0.671204 0.195002 0.715164
10.873 8.628 45.7696 0.661221 0.183219 0.727473
10.3771 7.96928 46.3763 0.59297 0.24123 0.768241
9.80999 7.29335 47.0278 0.559826 0.241644 0.791487
9.09785 6.4501 47.7615 0.536767 0.267789 0.800106
8.62624 5.86678 48.2129 0.46388 0.261367 0.846465
8.09473 5.2233 48.7165 0.437913 0.294159 0.849531
7.62266 4.67933 49.1211 0.371348 0.248463 0.893645
7.0987 4.13638 49.4685 0.321624 0.256488 0.910953
6.6547 3.59842 49.7552 0.299476 0.261685 0.917394
6.1461 2.94976 50.0853 0.232544 0.258823 0.937515
5.40621 2.59024 50.3425 0.188844 0.236995 0.95298
4.55189 2.79272 50.4359 0.131511 0.217176 0.967194
3.62026 3.11435 50.4876 0.117278 0.21121 0.970379
2.91368 3.53912 50.4824 0.0842786 0.189551 0.978247
3.3196 4.26253 50.3021 0.115485 0.184958 0.975811
3.66007 4.83172 50.1467 0.119284 0.212538 0.969845
2.68754 5.59482 50.1118 0.114849 0.185498 0.975674
3.06563 6.31161 49.9337 0.130182 0.158015 0.978818
3.46038 7.15744 49.7321 0.194285 0.150584 0.969318
3.81802 7.87065 49.5471 0.196254 0.157132 0.967881
4.22926 8.59541 49.3392 0.230826 0.13021 0.964243
4.89658 9.5361 49.0214 0.282053 0.104729 0.953665
5.36679 10.0844 48.7868 0.33466 0.0931235 0.937726
5.93108 10.5413 48.54 0.376607 0.0923501 0.920645
6.54432 10.9999 48.2224 0.415384 0.0496562 0.907937
7.15908 11.3583 47.9079 0.464719 0.028766 0.884991
7.7518 11.7365 47.5625 0.502861 0.0552288 0.862601
8.40375 12.1914 47.1499 0.5472 0.0133781 0.836895
9.08495 12.6703 46.6829 0.597293 -0.020367 0.801764
9.60924 13.1194 46.2838 0.63839 0.00409727 0.769702
10.1322 13.5479 45.864 0.664252 -0.0289321 0.746811
10.8228 14.2333 45.2543 0.69345 -0.030468 0.719239
11.419 14.8625 44.6878 0.738226 -0.100684 0.666997
11.8185 15.3643 44.2785 0.769104 -0.0717131 0.635088
12.3463 16.1064 43.7562 0.79239 -0.134094 0.594939
12.7677 16.7475 43.318 0.817141 -0.142954 0.558003
13.1536 17.4154 42.9533 0.816332 -0.176193 0.549835
13.5691 18.1854 42.5814 0.834169 -0.183249 0.520008
13.8876 18.8152 42.3084 0.836525 -0.212204 0.505168
14.2633 19.5903 42.0136 0.845167 -0.251239 0.471775
14.664 20.4256 41.733 0.84895 -0.245512 0.467983
15.0331 21.1898 41.4932 0.853912 -0.273922 0.442318
15.3678 21.9181 41.2825 0.863312 -0.277637 0.4212
15.7393 22.725 41.0794 0.862184 -0.289932 0.415414
16.1151 23.5671 40.9231 0.86234 -0.31465 0.396691
16.5321 24.4547 40.7228 0.861771 -0.323957 0.390237
16.8797 25.3354 40.6896 0.8665 -0.327354 0.376851
17.165 26.0375 40.6496 0.865562 -0.340632 0.367115
17.4577 26.7603 40.6298 0.865694 -0.340364 0.367051
17.7779 27.577 40.6346 0.86936 -0.344795 0.354019
18.1101 28.388 40.62 0.866438 -0.352874 0.353221
18.4582 29.2537 40.6285 0.868115 -0.354187 0.347746
18.7981 30.1312 40.6761 0.870052 -0.354547 0.3425
19.1076 30.9151 40.7074 0.868843 -0.359798 0.340084
19.4836 31.8408 40.7206 0.870146 -0.357706 0.338959
19.883 32.3061 40.1863 0.870085 -0.357821 0.338993
20.2722 32.4959 39.3874 0.870246 -0.3572 0.339234
20.436 32.2073 38.663 0.870321 -0.357265 0.338973
20.2209 31.4929 38.4656 0.870952 -0.355545 0.339162
19.911 30.5973 38.3284 0.871972 -0.352483 0.339737
19.5836 29.7539 38.2988 0.871511 -0.348858 0.344625
19.2436 28.8927 38.288 0.872168 -0.34566 0.346171
18.936 28.1145 38.2922 0.872815 -0.342515 0.347674
18.6575 27.4127 38.3126 0.874271 -0.334442 0.351851
18.2497 26.3612 38.3497 0.875351 -0.326289 0.356787
17.8962 25.4637 38.4226 0.87538 -0.317477 0.36458
17.6131 24.7568 38.5 0.874231 -0.306904 0.376205
17.3058 23.9997 38.6194 0.880458 -0.286276 0.377942
16.9089 23.0045 38.7826 0.876791 -0.278986 0.391668
16.6218 22.2497 38.9049 0.875932 -0.26202 0.405012
16.3307 21.523 39.0653 0.874729 -0.249995 0.415153
15.9449 20.4319 39.2584 0.876987 -0.213969 0.430241
15.6845 19.7312 39.4467 0.875621 -0.189592 0.444216
15.4232 18.9774 39.6345 0.875605 -0.173747 0.45032
15.1269 18.1131 39.8878 0.867528 -0.167147 0.468462
14.8081 17.1515 40.1876 0.860961 -0.135549 0.490278
14.5538 16.3139 40.448 0.856669 -0.100038 0.506038
14.3639 15.5563 40.6602 0.849455 -0.0587801 0.524377
14.1271 14.7103 40.9665 0.837598 -0.0103932 0.546188
13.9008 13.8648 41.313 0.843593 0.0144832 0.536787
13.6976 13.0811 41.656 0.82931 0.0283447 0.55807
13.4421 12.0845 42.1358 0.817961 0.0582436 0.572318
13.2482 11.3576 42.5249 0.807405 0.101162 0.58126
13.0408 10.7182 42.9197 0.771974 0.119237 0.624176
12.7494 9.93929 43.4623 0.762879 0.16078 0.626192
12.4801 9.25646 43.9654 0.735312 0.176054 0.654462
12.1904 8.63004 44.4809 0.719798 0.218555 0.658881
11.8589 8.04726 45.021 0.684557 0.225435 0.69322
11.4879 7.44068 45.591 0.665737 0.2695 0.695805
11.0818 6.87698 46.1604 0.621707 0.277562 0.732421
10.5037 6.17551 46.886 0.569578 0.288756 0.769516
9.91019 5.42346 47.5855 0.523994 0.302302 0.796088
9.37528 4.79784 48.1699 0.472274 0.292821 0.831392
8.74245 4.07866 48.7804 0.42879 0.298324 0.852473
8.13464 3.35812 49.2892 0.356592 0.259476 0.897504
7.54494 2.67273 49.7393 0.326012 0.281472 0.902491
7.11985 2.12174 50.059 0.278329 0.274784 0.920031
6.55306 1.52811 50.3881 0.2441 0.256997 0.934846
5.84615 1.18729 50.6377 0.149229 0.243687 0.95774
5.1063 1.34109 50.6989 0.105883 0.224239 0.96855
4.04927 1.64157 50.7349 0.0953996 0.189281 0.977212
3.1271 1.94811 50.7547 0.0730096 0.174058 0.98183
2.36423 2.21461 50.7344 0.0192472 0.13734 0.990337
1.65372 2.46705 50.6915 -0.0228871 0.132047 0.990908
0.969887 3.00283 50.6118 -0.0244555 0.122147 0.992211
1.33312 3.74316 50.5188 0.0124885 0.143101 0.989611
1.84103 4.39473 50.3935 0.053636 0.194247 0.979485
2.33356 5.06143 50.2408 0.0794318 0.173202 0.981464
2.53806 5.36377 50.1673 0.0997624 0.170932 0.980219
1.54826 6.17747 50.1071 0.0707052 0.149508 0.986215
0.950436 5.29653 50.2602 0.00468405 0.161099 0.986596
0.434315 4.64601 50.3708 -0.0543794 0.160448 0.985522
-0.0799978 4.01282 50.4425 -0.068074 0.153022 0.985875
-0.578121 3.37367 50.4653 -0.148067 0.102145 0.983688
-1.04721 2.70931 50.4564 -0.173895 0.0942422 0.98023
-0.706002 2.03612 50.5713 -0.141781 0.086647 0.986099
0.00161705 1.71499 50.7121 -0.122319 0.126876 0.983682
0.911269 1.3595 50.8252 -0.0455184 0.140342 0.98896
1.94121 1.01794 50.909 -0.0216559 0.142688 0.989444
2.82796 0.703863 50.9615 -0.0124452 0.14767 0.98893
3.95477 0.358386 50.9931 0.0513457 0.194149 0.979592
4.75448 0.130892 50.9925 0.0558399 0.203031 0.977579
5.62715 -0.130068 50.9648 0.131187 0.231696 0.963861
6.51349 -0.123412 50.8315 0.166109 0.252564 0.953208
7.22883 0.35723 50.553 0.220249 0.287407 0.932124
7.85506 0.975041 50.1838 0.265608 0.313952 0.91153
8.37689 1.62485 49.7903 0.339482 0.316947 0.885606
8.96499 2.33858 49.3116 0.377331 0.320594 0.867676
9.41854 2.90581 48.8666 0.421892 0.341421 0.839904
9.91166 3.50872 48.3492 0.492681 0.330818 0.804787
10.3176 4.00628 47.8929 0.522203 0.329686 0.786518
10.7751 4.52334 47.3622 0.557828 0.331488 0.760883
11.1431 5.00628 46.8877 0.582024 0.317994 0.74753
11.5263 5.46687 46.3611 0.608348 0.31548 0.728244
11.9466 5.97437 45.7614 0.651585 0.311812 0.691528
12.3599 6.63494 45.0615 0.688733 0.297017 0.661352
12.6632 7.20899 44.4961 0.706856 0.289534 0.644748
12.9741 7.82057 43.8831 0.737395 0.244095 0.629775
13.2114 8.3952 43.3737 0.764501 0.22065 0.605438
13.4808 9.18594 42.7509 0.793604 0.208581 0.571466
13.6851 9.79154 42.2861 0.799086 0.161683 0.579068
13.93 10.661 41.6991 0.821422 0.131397 0.554978
14.0925 11.3407 41.3075 0.831467 0.0972105 0.546943
14.2438 12.0631 40.9384 0.836642 0.0818078 0.541244
14.4452 12.9635 40.501 0.847097 0.0494965 0.528712
14.6516 13.8447 40.0953 0.857067 0.0162573 0.514435
14.8355 14.6167 39.7871 0.863835 -0.00863289 0.503609
15.0481 15.5053 39.4873 0.870079 -0.042752 0.490626
15.2832 16.4508 39.1873 0.878981 -0.0838116 0.469433
15.5212 17.2883 38.9181 0.880231 -0.124734 0.457681
15.7276 17.9933 38.6967 0.88611 -0.118758 0.448002
16.0661 19.0413 38.3851 0.886137 -0.155918 0.436407
16.3108 19.7572 38.1754 0.888588 -0.184723 0.419868
16.584 20.608 38.0012 0.888319 -0.217106 0.404665
16.9051 21.508 37.8221 0.879827 -0.245879 0.406754
17.271 22.4968 37.618 0.88507 -0.258306 0.387206
17.6366 23.4686 37.4585 0.883596 -0.280417 0.374892
17.9035 24.1849 37.3559 0.884605 -0.285086 0.368971
18.302 25.1922 37.2164 0.881162 -0.304664 0.361571
18.5726 25.9174 37.1683 0.880683 -0.309597 0.358489
18.9129 26.7943 37.1085 0.877813 -0.32168 0.354884
19.3177 27.8686 37.0959 0.876308 -0.333675 0.347484
19.6514 28.7357 37.1004 0.875034 -0.341649 0.342917
19.9924 29.6176 37.1156 0.873422 -0.346642 0.342015
20.2794 30.3643 37.1411 0.873468 -0.351184 0.337229
20.6072 31.2749 37.2421 0.872931 -0.352174 0.337587
20.8456 31.9894 37.3779 0.871921 -0.355106 0.337125
21.1228 32.861 37.5832 0.871447 -0.356994 0.336356
21.3371 33.5556 37.7682 0.870519 -0.35835 0.337314
21.1974 33.9358 38.5325 0.870287 -0.358198 0.338074
20.8263 33.7634 39.3035 0.870103 -0.358048 0.338709
20.4976 33.6419 40.0194 0.869994 -0.358148 0.338881
20.1174 33.4231 40.7637 0.870085 -0.357821 0.338993
19.6905 33.219 41.6459 0.870718 -0.357813 0.33737
19.256 32.5944 42.1073 0.871026 -0.357881 0.336503
18.911 31.6205 41.9628 0.870809 -0.358424 0.336488
18.568 30.7281 41.8939 0.869955 -0.360112 0.336893
18.2135 29.8359 41.8576 0.869349 -0.359629 0.338969
17.7871 28.7863 41.8286 0.867135 -0.363995 0.33997
17.4322 27.9219 41.818 0.865863 -0.355113 0.352364
17.1377 27.2052 41.82 0.863685 -0.355697 0.357111
16.8033 26.4087 41.8479 0.863395 -0.35104 0.362381
16.4495 25.5806 41.9019 0.862744 -0.344071 0.370523
15.9476 24.4563 42.029 0.856723 -0.334036 0.392995
15.492 23.4789 42.1975 0.858537 -0.329908 0.392524
15.0839 22.6491 42.3867 0.854122 -0.321637 0.408687
14.681 21.8301 42.5834 0.841547 -0.30701 0.444458
14.3389 21.1727 42.7767 0.84132 -0.307434 0.444595
13.9966 20.5217 42.987 0.839924 -0.285865 0.461312
13.6181 19.7975 43.2225 0.830702 -0.263328 0.490502
13.1368 18.9028 43.5549 0.825003 -0.233531 0.514619
12.7173 18.199 43.8801 0.795652 -0.237155 0.557108
12.2985 17.5535 44.2287 0.797231 -0.202916 0.568133
11.7752 16.8361 44.6854 0.762359 -0.206299 0.612745
11.3144 16.2863 45.0733 0.755835 -0.13423 0.640855
10.7795 15.7037 45.5334 0.706091 -0.156007 0.690114
10.3175 15.2227 45.8837 0.691131 -0.143173 0.708406
9.76487 14.7124 46.2928 0.651155 -0.11515 0.750159
9.14781 14.2122 46.7222 0.59821 -0.0620629 0.798932
8.62357 13.8055 47.0729 0.58315 -0.0770877 0.808699
8.0079 13.3719 47.4347 0.543301 -0.0427111 0.838451
7.40838 12.9774 47.7639 0.498909 -0.0371115 0.865654
6.72046 12.5364 48.1134 0.44306 -0.0227107 0.896204
5.90086 12.072 48.487 0.388003 -0.017612 0.92149
5.27801 11.7043 48.7401 0.343174 0.0151879 0.939148
4.59587 11.2084 48.982 0.30212 0.0271402 0.952321
4.06536 10.6169 49.1753 0.272981 0.0386416 0.961243
3.58404 9.99039 49.3448 0.245726 0.0978008 0.963931
2.9401 8.94016 49.5807 0.217631 0.110377 0.969364
2.50235 8.10656 49.7503 0.132965 0.129308 0.982649
2.04091 7.18974 49.9271 0.102946 0.121916 0.98679
1.65522 6.39388 50.0679 0.068963 0.144538 0.987093
0.602177 7.07564 50.032 0.0182151 0.125541 0.991108
1.04137 7.92867 49.9143 0.0500506 0.09461 0.994255
1.34057 8.62196 49.8217 0.0798878 0.0936883 0.992391
1.82406 9.6359 49.6849 0.130125 0.0810981 0.988175
2.22799 10.3044 49.5871 0.149125 0.0317955 0.988064
2.82356 11.1411 49.4501 0.163273 0.0124777 0.986068
3.49039 11.9108 49.3031 0.250389 0.0020843 0.967987
4.1051 12.4578 49.1444 0.270315 -0.0450903 0.961698
4.72659 12.8594 48.9615 0.331455 -0.0371202 0.94274
5.47362 13.2779 48.7104 0.374615 -0.0875817 0.923035
6.33598 13.7457 48.3793 0.406366 -0.0644264 0.911436
7.22576 14.2817 47.9804 0.475496 -0.122696 0.871119
7.89975 14.7359 47.6526 0.537367 -0.133277 0.832302
8.82724 15.3686 47.1437 0.587801 -0.131033 0.798324
9.53956 15.9152 46.7278 0.654187 -0.203807 0.728356
10.1441 16.4796 46.351 0.644508 -0.218233 0.732792
10.6446 16.9907 46.0148 0.686367 -0.244593 0.68489
11.2957 17.6644 45.5418 0.736409 -0.249079 0.628295
11.9126 18.3998 45.0902 0.778671 -0.248553 0.576101
12.3318 18.9751 44.8116 0.802634 -0.282608 0.525272
12.8765 19.8319 44.479 0.786618 -0.321443 0.527169
13.3705 20.6883 44.1936 0.821377 -0.322003 0.470475
13.8006 21.4426 43.971 0.837786 -0.319144 0.443014
14.2668 22.2754 43.7412 0.826225 -0.359569 0.433661
14.799 23.2716 43.497 0.845724 -0.348165 0.404214
15.1625 24.0066 43.3481 0.850337 -0.351277 0.391649
15.5074 24.7063 43.2405 0.857853 -0.352669 0.37378
15.8956 25.5274 43.1242 0.857162 -0.360534 0.367681
16.4089 26.657 43.0314 0.860981 -0.370479 0.348379
16.8278 27.6186 43.0144 0.864515 -0.3719 0.338085
17.2152 28.5506 43.0336 0.868483 -0.367621 0.332554
17.57 29.4127 43.0628 0.867717 -0.368821 0.333225
17.9792 30.4055 43.0806 0.869818 -0.363242 0.333873
18.3892 31.4697 43.1655 0.872039 -0.362519 0.328829
18.6702 32.2756 43.2986 0.873809 -0.358751 0.32826
18.9554 33.085 43.4225 0.874119 -0.357392 0.328916
19.3724 33.9925 43.2979 0.873295 -0.355329 0.333311
19.7328 34.2797 42.6612 0.871548 -0.355722 0.33744
20.1066 34.4551 41.8805 0.871752 -0.355336 0.33732
20.441 34.6028 41.1767 0.870776 -0.355664 0.339489
20.7727 34.7502 40.4815 0.870349 -0.356686 0.33951
21.1819 34.9372 39.6285 0.870448 -0.356937 0.338993
21.6253 35.1464 38.7122 0.870007 -0.357439 0.339595
22.058 35.3244 37.7873 0.870196 -0.358433 0.33806
22.3508 35.1013 36.7937 0.870318 -0.359373 0.336745
21.9647 34.0075 36.6246 0.871 -0.359056 0.335318
21.6214 32.9684 36.4049 0.871964 -0.357781 0.334174
21.3219 32.0285 36.1821 0.872595 -0.355918 0.334513
20.9454 30.9398 36.0131 0.873625 -0.352522 0.335422
20.6618 30.1623 35.9399 0.875372 -0.347849 0.335745
20.291 29.1903 35.906 0.877564 -0.343379 0.334621
19.9876 28.3998 35.8989 0.879571 -0.337535 0.335298
19.6464 27.499 35.9029 0.880563 -0.324335 0.345566
19.3797 26.7966 35.928 0.882404 -0.31997 0.344939
19.0991 26.0449 35.9623 0.885991 -0.31063 0.344281
18.7679 25.1131 35.9961 0.890069 -0.296876 0.345894
18.4304 24.2092 36.0941 0.888663 -0.284952 0.359278
18.0946 23.2942 36.2261 0.895006 -0.267862 0.356672
17.7952 22.47 36.3629 0.894525 -0.250277 0.370383
17.509 21.6634 36.5153 0.897299 -0.240864 0.369917
17.2265 20.8812 36.7045 0.897869 -0.221133 0.380697
16.8864 19.8196 36.9317 0.894631 -0.208635 0.395104
16.6149 18.9101 37.146 0.898821 -0.173339 0.402453
16.3751 18.1383 37.3869 0.89852 -0.141485 0.415504
16.1732 17.4427 37.6167 0.90544 -0.116214 0.408256
15.9221 16.5185 37.9335 0.89977 -0.0884047 0.427316
15.6879 15.4972 38.2626 0.895821 -0.0484998 0.44176
15.5257 14.7119 38.5289 0.891881 -0.0102784 0.452083
15.3666 13.9547 38.8129 0.887642 0.00899645 0.459813
15.2293 13.2531 39.1145 0.881878 0.025971 0.470761
15.0811 12.5335 39.4633 0.873055 0.0589142 0.484049
14.9435 11.8626 39.8113 0.866877 0.0952839 0.489262
14.8188 11.19 40.1522 0.861717 0.112481 0.494294
14.6909 10.4502 40.5534 0.849732 0.122114 0.512878
14.5287 9.61246 41.074 0.829779 0.169593 0.531494
14.3528 8.94613 41.5883 0.823509 0.205257 0.528829
14.1843 8.3232 42.0894 0.799343 0.21868 0.55964
13.9958 7.70403 42.6265 0.787824 0.255223 0.560525
13.807 7.11252 43.1577 0.769944 0.256687 0.583554
13.5235 6.46465 43.8282 0.744547 0.305177 0.593662
13.2533 5.89129 44.443 0.711241 0.316015 0.62791
12.9945 5.36032 45.006 0.706158 0.333608 0.624303
12.6391 4.87576 45.6257 0.661198 0.328558 0.673844
12.2921 4.43614 46.1688 0.645821 0.341281 0.682966
11.9123 3.98259 46.7213 0.599438 0.345443 0.722008
11.5662 3.51011 47.2397 0.575835 0.351108 0.737788
11.1137 2.97769 47.805 0.521928 0.39242 0.757363
10.7479 2.51263 48.2845 0.468412 0.377955 0.798587
10.1985 1.8455 48.913 0.46421 0.365883 0.806622
9.76349 1.29921 49.3525 0.388155 0.341113 0.856141
9.32032 0.724695 49.7699 0.328713 0.331082 0.884494
8.65025 -0.0247394 50.3013 0.295484 0.324515 0.897771
8.06007 -0.640223 50.656 0.216599 0.329265 0.919059
7.4382 -1.25102 50.9703 0.138643 0.264631 0.954331
6.72835 -1.51783 51.1475 0.153427 0.251606 0.955387
5.83235 -1.45489 51.2483 0.0991755 0.196725 0.97543
5.08218 -1.28032 51.2643 0.047048 0.196282 0.979418
4.28135 -1.04274 51.2531 0.0425399 0.196614 0.979558
3.39686 -0.803381 51.2171 -0.0235864 0.171266 0.984942
2.6399 -0.591904 51.1584 -0.0271492 0.15993 0.986651
1.65549 -0.21642 51.0636 -0.0623176 0.115615 0.991048
0.760297 0.0748051 50.9922 -0.0626219 0.133078 0.98898
0.0214102 0.349568 50.8799 -0.134448 0.105018 0.98534
-0.739127 0.666782 50.7204 -0.174219 0.110696 0.978462
-1.47874 0.956781 50.5436 -0.196969 0.114001 0.973759
-2.41464 1.32819 50.3035 -0.232375 0.0666503 0.97034
-3.07122 1.67095 50.1144 -0.271309 0.0671384 0.960147
-2.80762 2.4275 50.1367 -0.242602 0.0634576 0.967616
-2.34709 3.1081 50.1766 -0.18445 0.0868276 0.978999
-1.76056 3.93519 50.2096 -0.178778 0.091889 0.979589
-1.21149 4.6398 50.2178 -0.127167 0.139557 0.982015
-0.677904 5.27978 50.1875 -0.076044 0.140373 0.986805
-0.0806348 6.00546 50.148 -0.0447648 0.131834 0.989699
0.464032 6.84257 50.0542 -0.0156462 0.104201 0.994433
-0.724312 7.29042 49.9836 -0.0192167 0.0902148 0.995591
-0.189145 8.25795 49.9224 0.00575495 0.0894311 0.995552
0.137636 9.05854 49.8534 0.0334278 0.0576476 0.997777
0.514666 9.92836 49.7815 0.0439047 0.0712558 0.996491
0.948715 10.7244 49.7242 0.0836167 0.0475784 0.995362
1.53344 11.5499 49.6492 0.0913112 -0.0133492 0.995719
2.04992 12.2522 49.5893 0.154745 -0.0120202 0.987881
2.55905 12.8026 49.5143 0.160538 -0.0407801 0.985685
3.17664 13.347 49.4336 0.204691 -0.0639642 0.97661
3.97105 13.8533 49.2793 0.248693 -0.102968 0.963094
4.76637 14.294 49.0843 0.294183 -0.123475 0.94774
5.49385 14.6954 48.874 0.342044 -0.13786 0.929516
6.27163 15.1152 48.6102 0.405802 -0.159468 0.899941
7.25213 15.6885 48.2306 0.472294 -0.188478 0.861054
8.10659 16.2403 47.8628 0.537835 -0.252877 0.804231
8.71616 16.6136 47.5715 0.585124 -0.276911 0.762046
9.33977 17.1011 47.2599 0.601905 -0.275546 0.749523
10.0381 17.7374 46.9004 0.648256 -0.287396 0.705101
10.615 18.2613 46.5755 0.681951 -0.320105 0.657628
11.2031 18.8523 46.2131 0.710178 -0.362602 0.603463
11.9 19.6618 45.7978 0.769632 -0.325255 0.549433
12.3356 20.252 45.6007 0.772345 -0.362773 0.519994
12.9366 21.1776 45.3169 0.786343 -0.374475 0.491359
13.3836 21.9107 45.1101 0.81151 -0.383353 0.441013
13.8536 22.697 44.9059 0.827139 -0.377056 0.41655
14.2564 23.3623 44.7293 0.835151 -0.376514 0.400371
14.6753 24.1382 44.5656 0.841877 -0.380786 0.382419
15.0938 24.9542 44.4346 0.851996 -0.378823 0.36138
15.4553 25.684 44.3389 0.858733 -0.37118 0.35327
15.8499 26.5015 44.265 0.858968 -0.383335 0.339418
16.307 27.494 44.2207 0.863615 -0.379635 0.331671
16.8134 28.6873 44.2513 0.868441 -0.374602 0.324749
17.0971 29.3881 44.2908 0.872158 -0.366567 0.32399
17.4768 30.3086 44.3102 0.871489 -0.367308 0.324945
17.7845 31.0715 44.3393 0.873356 -0.363946 0.323717
18.1787 32.1333 44.4604 0.876079 -0.358067 0.322915
18.5529 33.2261 44.65 0.876501 -0.355901 0.324159
18.8078 33.9377 44.7341 0.875887 -0.35353 0.328386
19.1218 34.7118 44.7272 0.87658 -0.35167 0.328535
19.6709 35.2399 43.8379 0.874538 -0.35107 0.334565
20.1214 35.5164 42.9556 0.872668 -0.353004 0.337399
20.5245 35.6535 42.0616 0.871342 -0.354022 0.339752
20.9472 35.8282 41.162 0.870467 -0.354911 0.341065
21.2889 35.9863 40.454 0.870256 -0.355513 0.340978
21.6524 36.1785 39.7275 0.869813 -0.356805 0.340756
22.0132 36.3656 39.0014 0.869964 -0.357297 0.339855
22.3555 36.5117 38.2779 0.869667 -0.358053 0.339818
22.7205 36.6556 37.4939 0.870016 -0.359011 0.337911
23.1052 36.763 36.6166 0.870652 -0.358425 0.336893
23.2528 36.4245 35.8745 0.870504 -0.358682 0.337001
22.9507 35.4319 35.5961 0.870241 -0.360022 0.336251
22.5891 34.4483 35.4777 0.870032 -0.360592 0.33618
22.2119 33.3692 35.2961 0.871806 -0.359931 0.332272
21.8985 32.3794 35.0477 0.87207 -0.358982 0.332603
21.6493 31.6258 34.8932 0.873952 -0.354941 0.332001
21.3418 30.7702 34.7893 0.875398 -0.351731 0.331605
21.0407 29.9521 34.7207 0.876703 -0.348542 0.331521
20.7669 29.2472 34.7118 0.878111 -0.344198 0.332337
20.4219 28.3665 34.7222 0.8821 -0.335491 0.330636
20.035 27.3303 34.7249 0.884234 -0.324039 0.336345
19.7602 26.5907 34.7451 0.886873 -0.314491 0.338455
19.3844 25.5186 34.7549 0.892363 -0.303507 0.334023
19.1143 24.7622 34.8039 0.895491 -0.290881 0.336861
18.7892 23.8654 34.9046 0.895608 -0.280767 0.345024
18.5146 23.0986 35.0056 0.89848 -0.264275 0.350507
18.2097 22.2285 35.1551 0.904177 -0.244966 0.349865
17.9607 21.5089 35.3048 0.906149 -0.222384 0.359776
17.6908 20.7319 35.4973 0.905385 -0.214072 0.366448
17.3826 19.7363 35.7113 0.908923 -0.186379 0.372666
17.1384 18.8632 35.9092 0.912152 -0.167645 0.373998
16.9206 18.0689 36.1166 0.912436 -0.145746 0.382385
16.6763 17.2126 36.4234 0.911993 -0.116399 0.393346
16.4272 16.23 36.7803 0.910637 -0.0809952 0.40519
16.2028 15.1275 37.1438 0.907444 -0.0479137 0.417432
16.0165 14.0639 37.5141 0.901532 0.00861019 0.432067
15.8512 13.0825 37.9156 0.895141 0.0432489 0.443218
15.6859 12.1231 38.3749 0.887901 0.0770117 0.453074
15.503 11.1495 38.9241 0.878673 0.107995 0.464604
15.4126 10.4267 39.2904 0.868526 0.136834 0.47608
15.3215 9.76954 39.6743 0.866931 0.170817 0.468243
15.1835 8.80321 40.2939 0.847803 0.201874 0.490385
15.0526 8.15619 40.8141 0.834832 0.250237 0.490204
14.8687 7.47112 41.4547 0.820041 0.252194 0.513354
14.7158 6.83728 42.0143 0.786096 0.300824 0.539962
14.5615 6.23061 42.5891 0.774544 0.318037 0.546292
14.2689 5.4916 43.4171 0.762735 0.335571 0.552836
14.0096 4.89441 44.0945 0.733895 0.356374 0.57827
13.7083 4.29342 44.8132 0.694865 0.370482 0.616081
13.4174 3.87101 45.3723 0.68359 0.384063 0.620115
13.0214 3.40832 46.0391 0.63111 0.38173 0.67526
12.6767 2.94385 46.6266 0.606887 0.375791 0.699386
12.3199 2.47155 47.1797 0.584477 0.402603 0.704484
11.9694 2.03746 47.6887 0.544586 0.413933 0.729442
11.6044 1.58109 48.1992 0.496694 0.405856 0.76717
11.2194 1.09147 48.7124 0.467127 0.404037 0.785578
10.628 0.329954 49.4123 0.393703 0.390775 0.830445
10.0562 -0.483803 50.0093 0.310893 0.41735 0.853907
9.37366 -1.08002 50.4917 0.263665 0.348451 0.898356
8.84449 -1.65979 50.8272 0.229868 0.320415 0.918964
8.26364 -2.39024 51.1621 0.171437 0.280772 0.944339
7.53412 -2.87807 51.3799 0.106685 0.255463 0.960903
6.61658 -2.92717 51.4618 0.0636829 0.192599 0.979209
5.79731 -2.73511 51.4888 0.0585546 0.153607 0.985066
4.85294 -2.51751 51.4699 0.00948252 0.136799 0.99055
3.78204 -2.21806 51.4476 -0.0184584 0.106963 0.993795
2.91604 -2.01028 51.3826 -0.0482689 0.118836 0.99174
2.14268 -1.79086 51.3046 -0.0676399 0.122544 0.990154
1.15022 -1.39412 51.1595 -0.113838 0.0861749 0.989748
0.369565 -1.1452 51.0468 -0.115557 0.0924804 0.988986
-0.462998 -0.786397 50.8804 -0.181274 0.0700182 0.980937
-1.51549 -0.375212 50.6371 -0.2288 0.0415209 0.972587
-2.51055 -0.0255431 50.3653 -0.270589 0.0251022 0.962368
-3.44862 0.379798 50.0712 -0.305865 0.0261524 0.951709
-4.43513 0.893386 49.7382 -0.313708 0.0248473 0.949194
-5.09762 1.60126 49.4896 -0.361985 0.0210565 0.931946
-4.52214 2.32176 49.6452 -0.296446 0.073873 0.952188
-3.97978 2.99886 49.7743 -0.276525 0.0538554 0.959496
-3.50993 3.67591 49.8628 -0.221107 0.0740688 0.972106
-3.07141 4.289 49.9286 -0.215648 0.0496324 0.975209
-2.34619 5.31413 49.9903 -0.153551 0.0645599 0.985811
-1.71415 6.0347 50.0215 -0.126554 0.0752393 0.989015
-1.09761 6.7521 50.0112 -0.0655147 0.0745674 0.995062
-0.846389 7.09952 50.0017 -0.0428105 0.0908791 0.994548
-1.8779 7.86986 49.8925 -0.0765401 0.0484742 0.995838
-2.34943 7.21199 49.887 -0.105816 0.0385086 0.993323
-2.93187 6.59922 49.8467 -0.147682 0.0416364 0.987712
-3.47583 5.98758 49.7614 -0.183478 0.0011202 0.983023
-3.90658 5.31476 49.6977 -0.214047 0.0412607 0.975592
-4.47273 4.50933 49.5808 -0.243224 0.0255333 0.969546
-4.89745 3.88119 49.4755 -0.277276 0.0250453 0.960464
-5.3603 3.25092 49.348 -0.297363 0.0196799 0.954562
-5.87361 2.68934 49.1894 -0.3402 0.0078045 0.940321
-6.3643 2.04418 48.995 -0.381395 -0.0181276 0.924234
-6.95883 1.47191 48.7204 -0.407766 -0.0355802 0.912393
-6.89099 0.876579 48.7206 -0.415264 -0.0530434 0.908153
-6.06356 0.418421 49.0984 -0.42236 -0.0208677 0.906188
-5.34421 -0.0213656 49.4115 -0.380605 -0.000571022 0.924702
-4.6831 -0.421842 49.6729 -0.340142 0.0246635 0.939971
-3.70592 -0.917385 50.0317 -0.304379 0.0338783 0.951948
-2.66761 -1.33255 50.3791 -0.274737 0.0545814 0.959969
-1.5812 -1.71798 50.6927 -0.240229 0.0630031 0.968669
-0.833347 -2.00969 50.8981 -0.235152 0.0677493 0.969544
-0.105507 -2.3509 51.0811 -0.175809 0.0932492 0.979867
0.617026 -2.58356 51.201 -0.113766 0.0277069 0.993121
1.45811 -2.84593 51.3311 -0.145323 0.073326 0.986663
2.14321 -3.14147 51.453 -0.125562 0.0529457 0.990337
3.12875 -3.37364 51.5355 -0.0568871 0.091257 0.994201
4.15569 -3.67634 51.6169 -0.0106687 0.132738 0.991094
4.9885 -3.89006 51.6573 -0.0177882 0.148068 0.988715
5.76845 -4.09113 51.6976 -0.00224801 0.158661 0.987301
6.77163 -4.25714 51.7216 0.0025791 0.169656 0.985499
7.72171 -4.27004 51.6914 0.0461037 0.203566 0.977975
8.73117 -3.88063 51.5407 0.0639232 0.308304 0.949138
9.29525 -3.24952 51.3077 0.100012 0.29657 0.949041
9.78919 -2.51063 50.9351 0.19103 0.353987 0.915533
10.3128 -1.97652 50.6049 0.25429 0.387545 0.886083
10.8496 -1.53347 50.2578 0.271362 0.421547 0.864114
11.2495 -1.02466 49.8446 0.332051 0.475403 0.813046
11.8248 -0.188683 49.0686 0.40701 0.494897 0.766183
12.3378 0.476927 48.3616 0.473532 0.439004 0.763563
12.8077 1.05539 47.6544 0.527788 0.441409 0.725566
13.2593 1.62742 46.9066 0.574302 0.430043 0.696319
13.578 2.0591 46.3347 0.619197 0.428276 0.65816
13.9707 2.60149 45.6044 0.651969 0.42469 0.628152
14.2879 2.99858 44.9859 0.676181 0.418175 0.606556
14.533 3.4396 44.3859 0.709943 0.420164 0.565193
14.7591 3.9148 43.7699 0.71903 0.388002 0.576288
15.038 4.60119 42.9265 0.751562 0.359709 0.552863
15.2295 5.09588 42.3205 0.775379 0.359515 0.519169
15.3927 5.66275 41.6932 0.796975 0.338202 0.50045
15.5003 6.3015 41.0939 0.804951 0.31621 0.501602
15.6702 7.04229 40.3519 0.837463 0.285124 0.466219
15.8273 7.87147 39.5925 0.853418 0.248697 0.457961
15.9152 8.71049 38.9966 0.865817 0.206568 0.45573
15.9634 9.37528 38.6055 0.883029 0.165733 0.439081
16.0249 10.1342 38.2005 0.893852 0.132624 0.428299
16.15 10.9392 37.6981 0.89211 0.119884 0.435624
16.2707 11.773 37.246 0.90046 0.0908079 0.425354
16.3963 12.6494 36.8223 0.907474 0.0598602 0.415821
16.5284 13.5885 36.4306 0.915126 0.0313388 0.401947
16.6538 14.4494 36.12 0.91803 -0.0084019 0.396328
16.7609 15.1766 35.8732 0.920964 -0.0270497 0.387969
16.9263 16.0446 35.5793 0.924809 -0.0441536 0.377861
17.1682 17.0346 35.1869 0.92578 -0.0801586 0.369466
17.4022 17.9215 34.8786 0.923561 -0.118248 0.364765
17.6186 18.8095 34.6845 0.920364 -0.154251 0.359356
17.8682 19.6884 34.4671 0.916923 -0.179366 0.356482
18.111 20.5077 34.2964 0.91328 -0.207222 0.350682
18.3483 21.2114 34.1037 0.910555 -0.235462 0.339571
18.6076 22.0205 33.9534 0.911568 -0.241512 0.332569
18.8986 22.8646 33.8025 0.904983 -0.26424 0.333391
19.2358 23.8563 33.6901 0.901848 -0.275421 0.332803
19.5223 24.6396 33.5948 0.898768 -0.289506 0.329247
19.8664 25.6177 33.5422 0.896432 -0.300557 0.325692
20.1714 26.4928 33.546 0.889738 -0.316858 0.328544
20.4622 27.2703 33.5204 0.889382 -0.32069 0.325781
20.7833 28.1309 33.5124 0.884671 -0.334219 0.324989
21.109 28.9756 33.5103 0.881028 -0.341454 0.327397
21.5239 30.0493 33.5324 0.878174 -0.348483 0.327668
21.9056 31.0941 33.6345 0.876018 -0.353955 0.327575
22.2596 32.0871 33.7735 0.873634 -0.359155 0.328283
22.4977 32.8058 33.9318 0.871603 -0.362383 0.330132
22.8174 33.7444 34.1241 0.870383 -0.363497 0.332108
23.0753 34.4745 34.2448 0.868686 -0.363408 0.336628
23.4329 35.4449 34.3642 0.869829 -0.360238 0.337085
23.7426 36.4015 34.5849 0.870504 -0.358661 0.337024
23.9688 37.2253 34.8761 0.870903 -0.357562 0.33716
24.2184 38.2122 35.2764 0.87172 -0.356196 0.336496
23.8429 38.0761 36.1059 0.871117 -0.357927 0.33622
23.4195 37.9553 37.0729 0.870463 -0.358229 0.337588
23.106 37.8569 37.7754 0.870164 -0.358079 0.338518
22.7231 37.7016 38.5921 0.869641 -0.35747 0.3405
22.3056 37.5321 39.4781 0.869213 -0.357475 0.341585
21.9291 37.3149 40.2095 0.869281 -0.356532 0.342394
21.5434 37.1059 40.9706 0.869613 -0.355426 0.342704
21.0664 36.8938 41.963 0.870487 -0.353363 0.342618
20.7346 36.768 42.678 0.87208 -0.351603 0.340371
20.3472 36.6522 43.5514 0.872849 -0.350713 0.339312
19.8586 36.3138 44.4667 0.874265 -0.349613 0.336797
19.5158 36.0875 45.1298 0.875906 -0.349006 0.333143
19.1063 35.928 46.0418 0.879124 -0.342622 0.331288
18.6859 34.8932 46.0786 0.879871 -0.345411 0.326365
18.4431 34.1557 45.9534 0.879375 -0.34814 0.324805
18.0947 33.2177 45.8861 0.879359 -0.351949 0.320716
17.848 32.4309 45.6982 0.879061 -0.354141 0.319109
17.5263 31.5281 45.5734 0.878197 -0.357409 0.317851
17.1602 30.6215 45.5487 0.875117 -0.367144 0.31524
16.7849 29.7081 45.5245 0.875589 -0.369515 0.311131
16.4243 28.8402 45.491 0.871202 -0.378731 0.312361
16.1343 28.1468 45.4549 0.86692 -0.386595 0.314634
15.6811 27.1239 45.4474 0.863891 -0.391358 0.317004
15.3073 26.3744 45.5245 0.861674 -0.391931 0.322299
14.9698 25.7038 45.5945 0.854074 -0.401178 0.33108
14.5158 24.8396 45.7061 0.842909 -0.404656 0.354625
14.0372 23.9793 45.8405 0.828632 -0.411656 0.379353
13.489 23.1263 46.0822 0.810758 -0.42209 0.405601
12.933 22.2581 46.2758 0.790863 -0.421194 0.443995
12.325 21.4017 46.5197 0.750815 -0.430084 0.501303
11.7294 20.6147 46.7538 0.737529 -0.419376 0.528134
11.0214 19.8663 47.0615 0.691275 -0.451326 0.564308
10.3327 19.2001 47.3877 0.654607 -0.402564 0.639853
9.61798 18.6252 47.7101 0.607568 -0.403389 0.684207
9.07232 18.1427 47.919 0.58185 -0.326092 0.744169
8.31259 17.6193 48.238 0.524141 -0.353102 0.774219
7.67744 17.2892 48.4999 0.474209 -0.324755 0.818327
6.96243 16.8459 48.7403 0.43678 -0.326573 0.837054
5.8907 16.273 49.0626 0.413288 -0.226448 0.881848
4.89811 15.7555 49.3136 0.346884 -0.206618 0.914651
4.07476 15.3143 49.4706 0.29564 -0.175583 0.938745
3.07787 14.7877 49.6165 0.237535 -0.135254 0.961396
2.28784 14.304 49.6883 0.155684 -0.114555 0.981142
1.70063 13.7608 49.6998 0.11845 -0.0781715 0.989476
1.10914 13.138 49.7254 0.0906727 -0.0626468 0.993908
0.502688 12.3247 49.7438 0.0598712 -0.0329555 0.997662
-0.0854646 11.5299 49.77 0.0386285 -0.00200353 0.999224
-0.668287 10.444 49.8156 0.0368902 0.0307728 0.998845
-1.02099 9.60056 49.8397 0.0196474 0.0215741 0.999574
-1.3934 8.73365 49.8746 -0.0180043 0.0369022 0.999157
-1.71154 8.13741 49.892 -0.0477764 0.0610566 0.996645
-2.75911 8.85623 49.7942 -0.0775209 0.00299759 0.996863
-2.36757 9.71053 49.8142 -0.0515436 -0.0219217 0.997931
-1.97012 10.5961 49.8272 -0.00646915 0.0102744 0.999768
-1.66513 11.346 49.8141 0.0092075 0.0151247 0.999841
-1.30744 12.1208 49.7993 -0.00805306 0.0120198 0.999895
-0.804371 12.7545 49.7975 -0.000663179 -0.00332699 0.999987
-0.201844 13.5545 49.8194 -0.0030204 -0.0548043 0.998493
0.611041 14.4724 49.8675 0.0692723 -0.117663 0.990635
1.30071 15.0915 49.908 0.0728247 -0.15667 0.984611
1.95957 15.6055 49.9211 0.0848848 -0.181525 0.979146
2.67092 16.0043 49.922 0.134054 -0.206802 0.969155
3.61632 16.5225 49.8919 0.210348 -0.312791 0.926237
4.35941 16.8623 49.8068 0.295875 -0.29071 0.909915
5.18726 17.2825 49.6701 0.292638 -0.330029 0.896777
5.94362 17.5843 49.4957 0.34686 -0.369042 0.862256
6.73691 17.958 49.2871 0.363341 -0.41276 0.832662
7.45704 18.3376 49.1085 0.470219 -0.412659 0.780132
8.2426 18.7425 48.852 0.528535 -0.441134 0.725294
8.86367 19.1868 48.6724 0.531074 -0.488635 0.690245
9.70387 19.7681 48.3848 0.535487 -0.526045 0.65926
10.4454 20.4096 48.1582 0.616038 -0.516696 0.593819
11.1444 21.012 47.8749 0.685054 -0.488254 0.540656
11.7114 21.686 47.735 0.718357 -0.499447 0.48363
12.3958 22.4422 47.4721 0.767942 -0.50772 0.390494
12.9668 23.2129 47.3155 0.80181 -0.484657 0.349584
13.4007 23.845 47.1864 0.81633 -0.465987 0.340943
13.8346 24.4905 47.0047 0.829957 -0.455139 0.321887
14.3086 25.341 46.8911 0.853113 -0.415435 0.315615
14.7416 26.1818 46.823 0.858961 -0.414381 0.30079
15.168 27.0065 46.7262 0.867026 -0.401673 0.294627
15.5503 27.791 46.6658 0.871419 -0.38901 0.298815
15.8576 28.5063 46.7068 0.873612 -0.385418 0.297011
16.177 29.2468 46.7142 0.884273 -0.371184 0.28286
16.5373 30.1063 46.7247 0.875912 -0.379347 0.298023
16.8426 30.8826 46.7756 0.883334 -0.363672 0.295598
17.1565 31.6904 46.8097 0.885008 -0.351017 0.30583
17.4268 32.4786 46.9319 0.884409 -0.348755 0.310129
17.7693 33.534 47.1309 0.882471 -0.346225 0.318391
18.0352 34.2748 47.1946 0.882475 -0.343784 0.321015
18.3138 35.1489 47.3525 0.882541 -0.341091 0.323666
18.4791 35.89 47.669 0.880739 -0.336547 0.333218
18.7257 36.5874 47.7228 0.878918 -0.337744 0.336767
19.19 37.1071 47.0301 0.874415 -0.345164 0.340741
19.5667 37.2642 46.2103 0.877013 -0.344134 0.335292
19.9484 37.3554 45.3079 0.87545 -0.345999 0.337447
20.3809 37.6853 44.5243 0.874961 -0.345359 0.339365
20.7939 37.8643 43.6441 0.875531 -0.343858 0.339417
21.1003 37.9431 42.9478 0.873548 -0.338956 0.349318
21.6445 38.2197 41.8619 0.867561 -0.358204 0.345004
21.9832 38.3178 41.1118 0.870144 -0.356532 0.340157
22.3498 38.5552 40.432 0.869154 -0.353678 0.345663
22.6722 38.6904 39.7589 0.868804 -0.358317 0.341741
23.1989 38.9143 38.6561 0.867413 -0.359005 0.344532
23.6391 39.1352 37.7642 0.869018 -0.362302 0.33696
23.9809 39.188 36.9358 0.870906 -0.35927 0.335329
24.3456 39.3403 36.1488 0.875753 -0.353984 0.328113
24.8426 39.7182 35.2537 0.872318 -0.357332 0.333728
25.0853 39.6524 34.5416 0.874426 -0.354144 0.331595
24.9725 38.8755 34.0153 0.876878 -0.34824 0.331349
24.6777 38.0068 33.8735 0.8714 -0.353763 0.339872
24.3937 37.0443 33.5877 0.870813 -0.357906 0.337029
24.1508 36.1829 33.3017 0.869853 -0.358323 0.339059
23.9049 35.4423 33.1504 0.868618 -0.359414 0.341053
23.6241 34.6804 33.0566 0.866882 -0.364337 0.340253
23.3259 33.8045 32.8639 0.867689 -0.368237 0.333939
23.0238 32.9867 32.7319 0.870296 -0.370204 0.324834
22.7281 32.1783 32.6139 0.872413 -0.365623 0.324366
22.3492 31.1092 32.4501 0.876891 -0.358654 0.320043
22.0422 30.2996 32.3915 0.878372 -0.356143 0.318787
21.6978 29.3295 32.2758 0.884224 -0.344533 0.315302
21.3559 28.485 32.3166 0.881168 -0.346936 0.321189
21.0329 27.6114 32.2944 0.889789 -0.327752 0.317575
20.7548 26.8785 32.3174 0.889528 -0.329099 0.316907
20.3752 25.8422 32.3444 0.895979 -0.312842 0.31514
20.0768 24.9691 32.3355 0.901305 -0.302946 0.309534
19.8143 24.2196 32.3772 0.90395 -0.292674 0.311714
19.5078 23.3555 32.4896 0.911188 -0.274665 0.307077
19.2117 22.492 32.6195 0.913939 -0.260324 0.311362
18.9441 21.6806 32.7522 0.92212 -0.239573 0.30381
18.6048 20.6185 32.9884 0.929366 -0.216347 0.299119
18.3249 19.6027 33.1718 0.92745 -0.182227 0.326541
18.0788 18.7698 33.4257 0.929703 -0.165659 0.328953
17.897 17.9621 33.5698 0.934016 -0.139127 0.329024
17.7009 17.1772 33.818 0.93274 -0.116284 0.341284
17.5161 16.2916 34.0909 0.94439 -0.0843849 0.317539
17.3002 15.3963 34.5297 0.933561 -0.052787 0.3545
17.2042 14.6095 34.7471 0.938402 -0.0147534 0.344783
17.0582 13.6495 35.1427 0.929351 0.0248563 0.368226
16.9772 12.8571 35.4312 0.928582 0.0531023 0.367302
16.8786 12.092 35.787 0.927563 0.0775654 0.364611
16.7854 11.3078 36.1921 0.916765 0.114763 0.38135
16.7567 10.5673 36.4885 0.906561 0.135928 0.399589
16.6274 9.9205 37.0018 0.902709 0.147165 0.4041
16.6024 9.23957 37.323 0.899252 0.159318 0.407387
16.6007 8.54831 37.6905 0.883338 0.218156 0.414559
16.5427 7.90973 38.1649 0.869586 0.251136 0.425149
16.4821 7.08878 38.7888 0.868881 0.262884 0.41945
16.3801 6.33929 39.503 0.853967 0.302809 0.423138
16.2403 5.55522 40.3449 0.812696 0.352972 0.463613
16.1737 4.91286 40.9745 0.79883 0.37872 0.467026
16.049 4.34577 41.6181 0.784602 0.407848 0.46535
15.8746 3.8189 42.309 0.756956 0.394774 0.520603
15.6627 3.23552 43.046 0.741804 0.405545 0.534044
15.4287 2.80438 43.6884 0.737607 0.427076 0.522223
15.2118 2.30186 44.3716 0.707189 0.470978 0.524132
14.9615 1.91967 45.0523 0.622958 0.495257 0.605512
14.6822 1.34375 45.7864 0.627315 0.460094 0.628225
14.3371 0.961642 46.4 0.615255 0.478688 0.626243
14.0244 0.521314 47.0126 0.595575 0.500533 0.627366
13.6887 0.128666 47.6126 0.519743 0.52521 0.673811
13.2898 -0.377502 48.2808 0.491722 0.508088 0.707146
12.9301 -0.871684 48.8856 0.408009 0.534122 0.740434
12.5389 -1.31259 49.4201 0.410087 0.544483 0.731655
12.2477 -1.86713 49.9424 0.33199 0.54292 0.771375
11.6041 -2.55369 50.5571 0.276748 0.492681 0.824281
10.8839 -3.19986 51.0741 0.165251 0.422488 0.889354
10.4284 -3.91227 51.4577 0.0953641 0.386321 0.916637
9.9095 -4.59858 51.7543 -0.0792215 0.310047 0.947415
9.19324 -5.19091 51.911 -0.00211162 0.261432 0.96522
8.50518 -5.50005 51.9721 -0.0475641 0.225385 0.973108
7.58102 -5.53085 51.976 -0.0283435 0.211621 0.976395
6.58284 -5.52344 51.9443 -0.0441422 0.174881 0.983427
5.53429 -5.42258 51.8931 -0.0391242 0.147322 0.988206
4.70674 -5.15052 51.8214 -0.0536293 0.128334 0.99022
3.73988 -4.93626 51.7516 -0.0644243 0.117281 0.991007
2.76516 -4.59553 51.6278 -0.105813 0.100065 0.989338
1.79981 -4.33727 51.4883 -0.133748 0.0693579 0.988585
1.10564 -4.07268 51.3724 -0.142309 0.0732766 0.987106
0.18158 -3.76233 51.2156 -0.142162 0.0830694 0.986352
-0.527909 -3.51497 51.0614 -0.195276 0.0720713 0.978097
-1.33937 -3.21574 50.8644 -0.23356 0.0995719 0.967231
-2.0909 -2.95822 50.6442 -0.272047 0.0839124 0.958599
-3.05872 -2.55009 50.3402 -0.270108 0.0676284 0.960375
-3.93214 -2.25795 50.044 -0.312526 0.0762235 0.946692
-4.76317 -1.86939 49.6952 -0.392577 0.0949143 0.914808
-5.46379 -1.44993 49.3452 -0.439426 -0.014686 0.898159
-6.05741 -1.05347 49.0654 -0.442767 -0.0248541 0.896204
-6.66529 -0.637765 48.7715 -0.451444 -0.0310876 0.891758
-7.35391 -0.344798 48.4346 -0.460986 -0.059519 0.885316
-8.01879 -0.0260579 48.1084 -0.467762 -0.0703423 0.88105
-8.77771 0.452508 47.758 -0.472852 -0.0870905 0.876714
-9.45986 1.11249 47.4896 -0.449714 -0.109873 0.886207
-9.2116 1.85658 47.7018 -0.432968 -0.118246 0.89362
-8.45449 2.19204 48.0866 -0.414072 -0.0751859 0.907021
-7.7161 2.4238 48.4332 -0.404093 -0.0532374 0.913101
-7.09063 2.91633 48.7227 -0.36254 -0.0324573 0.931331
-6.73083 3.64148 48.8918 -0.355611 -0.0371483 0.933895
-6.08153 4.21309 49.1177 -0.290139 -0.00186278 0.956983
-5.52347 5.25794 49.2978 -0.247224 -0.045943 0.967246
-4.98209 6.07295 49.4336 -0.230065 0.00258584 0.973172
-4.57311 6.74923 49.541 -0.185799 -0.0147932 0.982476
-3.92415 7.43548 49.667 -0.170251 -0.00149491 0.9854
-3.36823 7.97277 49.7439 -0.116114 -0.0158384 0.99311
-2.89051 8.62344 49.7881 -0.0795166 0.0185305 0.996661
14.4817 18.1666 41.0689 0.85226 -0.167213 0.495492
14.9332 19.3539 40.7195 0.859876 -0.205335 0.467388
