4.52148 4.51488 50.6005 0.178499 0.192633 0.964793
4.52148 4.51488 50.6005 0.178499 0.192633 0.964793
4.91164 3.85599 50.6647 0.158983 0.198134 0.967196
5.72398 4.28963 50.3819 0.255817 0.232231 0.93778
6.38093 5.02973 49.9893 0.3016 0.233055 0.92439
6.81936 5.57556 49.6834 0.346584 0.247399 0.904713
7.24597 6.16349 49.3568 0.362622 0.250568 0.897619
7.68242 6.76938 48.9815 0.42671 0.242467 0.870943
8.1783 7.41404 48.5684 0.463698 0.226247 0.856158
8.88754 8.05984 47.995 0.481087 0.211644 0.850742
9.4187 8.58357 47.5234 0.538172 0.206687 0.8171
9.33573 9.30788 47.4181 0.55696 0.170579 0.812834
8.57467 8.82388 47.9992 0.493355 0.175324 0.851941
7.6158 8.33656 48.6198 0.438969 0.196771 0.876465
6.98758 7.90206 49.0245 0.378803 0.19571 0.904547
6.51398 7.39171 49.3462 0.34751 0.202353 0.915093
6.01464 6.77685 49.6669 0.312935 0.228335 0.921919
5.52765 6.02168 50.0012 0.263143 0.22259 0.938602
5.00741 5.33663 50.3066 0.23431 0.224837 0.945805
4.0123 5.99287 50.3541 0.17538 0.209727 0.961615
3.60436 5.35176 50.5722 0.136344 0.211784 0.967397
3.04336 4.54957 50.7945 0.0762614 0.197011 0.977347
2.51727 3.78429 50.974 0.0626575 0.16295 0.984494
2.86348 3.19458 51.0451 0.0470546 0.160872 0.985774
3.6053 2.91834 51.0355 0.0927694 0.167792 0.981448
4.63228 2.59444 50.9808 0.124791 0.231512 0.964795
5.63025 2.47546 50.8471 0.192869 0.241959 0.950924
6.50328 3.26954 50.4267 0.234737 0.29063 0.927595
7.18059 4.08542 49.9788 0.321157 0.264994 0.909195
7.7159 4.72291 49.5864 0.344226 0.289494 0.893142
8.17111 5.32349 49.202 0.425967 0.284901 0.85871
8.62772 5.91813 48.7575 0.456705 0.280345 0.843917
9.19929 6.58119 48.2386 0.501572 0.265116 0.822624
9.88216 7.35815 47.5478 0.524048 0.240904 0.816908
10.3619 7.97919 47.0088 0.586303 0.235702 0.775044
10.9489 8.77601 46.3155 0.654824 0.18368 0.733122
11.4614 9.42855 45.6979 0.652699 0.179383 0.736075
11.9744 10.184 44.997 0.715146 0.140982 0.683671
12.2856 10.735 44.5792 0.73398 0.121557 0.668204
12.5672 11.33 44.1616 0.738787 0.0955177 0.666608
12.8907 11.9775 43.695 0.775897 0.069231 0.627049
13.1977 12.6815 43.2403 0.782309 0.0264136 0.62227
13.4658 13.4303 42.8473 0.812948 0.0216337 0.581934
13.7362 14.1944 42.4724 0.817658 -0.0193991 0.575225
13.9778 15.1171 42.1821 0.831694 -0.0703114 0.550764
14.2616 15.8953 41.8409 0.842826 -0.0823843 0.531259
14.6008 16.8079 41.486 0.851398 -0.0996534 0.514616
14.8834 17.6352 41.2146 0.855242 -0.140799 0.498735
15.3033 18.896 40.8942 0.866962 -0.191985 0.459912
15.5319 19.6391 40.7734 0.870887 -0.187232 0.454347
15.287 19.016 40.9717 0.85622 -0.18294 0.483136
15.0306 18.2915 41.1486 0.8423 -0.1848 0.505981
14.709 17.5963 41.4987 0.849932 -0.134594 0.509411
14.3143 16.7516 41.9299 0.841303 -0.106646 0.529939
13.911 15.9947 42.3945 0.821087 -0.109173 0.560187
13.5335 15.387 42.8415 0.819413 -0.0770947 0.567437
13.2136 14.6815 43.2417 0.798687 -0.0415867 0.599193
12.8498 14.1539 43.6582 0.784734 -0.0273353 0.61923
12.479 13.6556 44.1038 0.777841 -0.00772361 0.628414
12.061 13.134 44.5773 0.740299 0.00854128 0.671335
11.5937 12.6045 45.1165 0.727323 0.0268235 0.685771
11.1197 12.1754 45.6049 0.692425 0.0363587 0.720573
10.4973 11.6577 46.2009 0.654696 0.0387521 0.754898
9.96982 11.2211 46.6734 0.602621 0.0907692 0.792849
9.36045 10.8302 47.1691 0.559796 0.0952158 0.823142
8.80085 10.4827 47.596 0.532021 0.11109 0.838362
8.22827 10.1548 47.9685 0.502106 0.121403 0.856145
7.46165 9.73346 48.446 0.446056 0.132718 0.88511
6.88483 9.38765 48.7863 0.375472 0.145361 0.915364
6.06932 8.77549 49.2274 0.3838 0.158394 0.90973
5.52273 8.21206 49.5168 0.303873 0.178239 0.935579
5.04482 7.6452 49.7931 0.272676 0.18812 0.942993
4.53056 6.80271 50.0828 0.247122 0.179652 0.952185
4.24116 6.36496 50.2337 0.189918 0.184583 0.964248
3.23958 7.11001 50.2961 0.153744 0.162592 0.973801
3.71882 7.9183 50.0583 0.192853 0.169873 0.966411
4.22053 8.64381 49.8297 0.226905 0.140337 0.963753
4.86892 9.38095 49.5437 0.272695 0.113979 0.955325
5.38002 9.89546 49.304 0.317828 0.0980409 0.943066
6.24195 10.5056 48.9169 0.393838 0.0961512 0.914125
6.98216 10.9353 48.557 0.427972 0.0897354 0.898418
7.91634 11.4231 48.036 0.483948 0.0696619 0.871675
8.7386 11.8908 47.5117 0.523241 0.0130996 0.852058
9.42255 12.3246 47.0266 0.58337 0.00380776 0.812187
9.95973 12.7496 46.615 0.624379 -0.0068123 0.781092
10.4571 13.1741 46.1984 0.648101 -0.0143064 0.761339
11.0192 13.6246 45.685 0.690418 -0.050912 0.721617
11.6821 14.3291 45.0422 0.735237 -0.0631626 0.673862
12.2466 14.9955 44.4888 0.76451 -0.0704603 0.640749
12.7733 15.7535 43.9576 0.783465 -0.12368 0.609004
13.1912 16.3921 43.5179 0.813756 -0.121446 0.567844
13.5488 17.0116 43.1696 0.818617 -0.139839 0.556726
13.9396 17.7102 42.7865 0.833158 -0.161125 0.528722
14.3322 18.5053 42.4199 0.837126 -0.192592 0.511985
14.6548 19.2255 42.1567 0.844878 -0.237791 0.479204
15.0189 20.0285 41.9039 0.850896 -0.22999 0.472314
15.4292 20.9481 41.6379 0.858749 -0.248789 0.447945
15.8145 21.8427 41.441 0.858277 -0.26613 0.43857
16.1788 22.7336 41.2883 0.864478 -0.28468 0.414288
16.4977 23.4768 41.1543 0.861894 -0.303342 0.406171
16.8523 24.2652 41.0198 0.858106 -0.324308 0.39805
17.288 25.2655 40.8869 0.865955 -0.322248 0.382463
17.7425 26.3935 40.8461 0.86508 -0.339714 0.36908
18.0348 27.1379 40.8425 0.865877 -0.339954 0.366999
18.3842 27.9763 40.8177 0.86621 -0.34897 0.357633
18.6927 28.7353 40.817 0.864991 -0.353151 0.356477
19.063 29.6596 40.8371 0.867747 -0.354565 0.34828
19.3663 30.4119 40.8502 0.866518 -0.358355 0.347456
19.8488 31.6198 40.894 0.86729 -0.358106 0.345787
20.2263 32.0977 40.4427 0.867037 -0.359581 0.344887
20.6068 32.2791 39.6743 0.867214 -0.359406 0.344625
20.8801 32.1615 38.8625 0.868298 -0.357879 0.34348
20.6218 31.3163 38.6372 0.868242 -0.355919 0.345648
20.3662 30.5986 38.5446 0.869065 -0.354332 0.345215
20.0083 29.6101 38.4432 0.869795 -0.349777 0.348012
19.7218 28.8414 38.3972 0.870193 -0.345558 0.351208
19.4173 28.0324 38.3642 0.871535 -0.338671 0.354583
19.0854 27.1865 38.3852 0.872661 -0.329262 0.360582
18.7347 26.3357 38.4548 0.873931 -0.321857 0.364216
18.4105 25.5194 38.5181 0.873964 -0.31435 0.370635
18.1204 24.7885 38.5835 0.875292 -0.307049 0.373534
17.837 24.0873 38.6749 0.876102 -0.293855 0.38209
17.5165 23.2529 38.7814 0.874144 -0.281427 0.395711
17.2589 22.5457 38.8658 0.878729 -0.262627 0.398499
16.9765 21.8548 39.0394 0.876357 -0.253185 0.409734
16.6539 20.9844 39.2167 0.879427 -0.228833 0.41738
16.409 20.2821 39.3584 0.876043 -0.212085 0.433093
16.1603 19.5906 39.5228 0.87861 -0.195986 0.435165
15.9236 18.8685 39.6927 0.876974 -0.185254 0.443392
15.6322 17.9513 39.9379 0.87402 -0.153937 0.460861
15.3321 16.985 40.2346 0.871179 -0.121661 0.475654
15.0227 15.9479 40.5989 0.863012 -0.0746673 0.499287
14.707 14.8948 41.0072 0.853087 -0.0412968 0.519504
14.3985 13.8344 41.4611 0.842067 0.00172683 0.538616
14.2034 13.116 41.7974 0.826477 0.0181572 0.562678
13.959 12.2411 42.248 0.833971 0.067582 0.547654
13.7271 11.6086 42.6497 0.795985 0.0886325 0.598226
13.3013 10.5092 43.4296 0.779095 0.112936 0.616096
13.0296 9.86225 43.9179 0.747263 0.171596 0.641991
12.7261 9.22963 44.4274 0.732939 0.188282 0.653128
12.3379 8.62403 45.0519 0.703657 0.214023 0.677029
11.962 8.09799 45.587 0.683455 0.21638 0.697187
11.6228 7.61883 46.0694 0.642962 0.27464 0.71422
11.136 6.97543 46.7209 0.619725 0.280511 0.732961
10.6958 6.40221 47.2788 0.561046 0.286236 0.776721
10.2853 5.84578 47.786 0.53996 0.289801 0.789723
9.65304 5.19 48.4542 0.521271 0.31789 0.791974
9.19705 4.64186 48.903 0.466038 0.29481 0.834204
8.77984 4.0844 49.3331 0.443716 0.299478 0.844279
8.0243 3.16293 49.982 0.34452 0.296954 0.88966
7.54842 2.5478 50.3641 0.277107 0.352217 0.893955
6.89406 1.75401 50.8231 0.207228 0.320766 0.924211
6.38896 1.25216 51.0618 0.192787 0.257102 0.946959
5.62374 0.987564 51.2385 0.0977714 0.223437 0.969802
4.61031 1.29141 51.26 0.079826 0.225951 0.970863
3.5298 1.62504 51.2722 0.0584556 0.152997 0.986496
2.54579 1.95722 51.2529 0.00949604 0.147452 0.988944
1.56315 2.32341 51.1901 -0.0400709 0.142755 0.988947
0.855603 2.61854 51.1239 -0.0432595 0.113389 0.992512
0.393924 3.2181 51.0329 -0.0338245 0.122491 0.991892
0.900065 3.91036 50.9654 -0.0207914 0.134032 0.990594
1.48376 4.63176 50.8631 -0.00333871 0.146037 0.98926
2.0879 5.35291 50.7067 0.0535206 0.170688 0.98387
2.59301 6.05689 50.559 0.0892761 0.167439 0.981244
2.98887 6.69223 50.3915 0.116746 0.169265 0.978526
1.87302 7.25423 50.4259 0.0625083 0.136559 0.988658
1.42296 6.55023 50.5471 0.0540791 0.142793 0.98818
0.91307 5.88045 50.67 0.0373044 0.142352 0.989113
0.39322 5.30716 50.749 -0.0179136 0.134396 0.990766
-0.109738 4.70093 50.8189 -0.0580893 0.131432 0.989453
-0.616999 4.04641 50.8608 -0.0937036 0.120882 0.987884
-1.28846 3.18794 50.8428 -0.164876 0.100295 0.981202
-1.71808 2.14706 50.8712 -0.16371 0.0867134 0.982641
-0.884139 1.90483 51.0252 -0.146921 0.0771755 0.986055
0.000393733 1.58333 51.1856 -0.122988 0.110819 0.985737
0.812811 1.24859 51.2983 -0.0956509 0.112892 0.988971
1.53396 0.965263 51.3917 -0.0565499 0.160928 0.985345
2.25707 0.703828 51.4504 0.00251295 0.145241 0.989363
2.98322 0.472169 51.4781 0.0092632 0.137823 0.990414
3.79214 0.226966 51.5047 0.00194235 0.156895 0.987398
4.54614 -0.0271033 51.5262 0.0430929 0.191073 0.980629
5.27806 -0.295726 51.5415 0.0488725 0.201586 0.978141
6.1047 -0.416348 51.5066 0.089423 0.222808 0.970727
6.78818 -0.150361 51.3529 0.131403 0.244292 0.960757
7.40793 0.443837 51.0793 0.173444 0.295681 0.939409
7.87285 1.00831 50.7983 0.269984 0.263013 0.926247
8.33398 1.54677 50.474 0.321056 0.334347 0.886035
8.76236 2.05972 50.1172 0.355251 0.337437 0.871671
9.3219 2.65238 49.6561 0.383422 0.344418 0.85656
9.80737 3.37019 49.0979 0.428897 0.374402 0.82164
10.1788 3.87166 48.6686 0.484974 0.356124 0.798734
10.6306 4.4001 48.1284 0.511594 0.364611 0.77803
11.1141 4.89009 47.5924 0.538592 0.318086 0.78015
11.5632 5.5073 46.9648 0.603913 0.32016 0.729922
12.1154 6.23896 46.1596 0.650332 0.310512 0.693271
12.48 6.74 45.5991 0.671896 0.30448 0.674427
12.9364 7.45085 44.82 0.706886 0.252445 0.66074
13.3043 8.00591 44.1822 0.743222 0.242343 0.623611
13.6863 8.81885 43.4188 0.766051 0.212826 0.606524
13.8944 9.40658 42.9555 0.797388 0.170463 0.578822
14.133 10.0266 42.4425 0.810866 0.170942 0.559449
14.3716 10.8013 41.8922 0.826662 0.128641 0.547794
14.5844 11.4533 41.4152 0.827934 0.103141 0.550594
14.7548 12.257 41.0069 0.849539 0.0756295 0.521936
14.959 13.0728 40.5909 0.857045 0.0238223 0.514639
15.1764 13.96 40.1753 0.861449 0.00145196 0.507145
15.4444 14.992 39.7376 0.870284 -0.0396106 0.490403
15.699 15.9802 39.3706 0.879973 -0.0680121 0.469838
15.9578 16.9276 39.0363 0.88306 -0.0998364 0.458019
16.2144 17.821 38.7558 0.886492 -0.130216 0.443708
16.468 18.7202 38.5286 0.892046 -0.138592 0.43017
16.7433 19.5649 38.3095 0.891944 -0.175892 0.416531
17.0276 20.3999 38.0968 0.89394 -0.201552 0.400311
17.3328 21.2514 37.9033 0.886015 -0.229394 0.402927
17.6258 22.0592 37.7349 0.889681 -0.241549 0.387455
17.9754 23.0277 37.5812 0.883732 -0.261752 0.387926
18.3186 23.9619 37.4655 0.883497 -0.27825 0.376843
18.7116 25.0167 37.3773 0.880928 -0.300344 0.365687
19.0711 25.9206 37.2807 0.878614 -0.314618 0.359239
19.3518 26.6299 37.2152 0.877201 -0.321402 0.356599
19.7089 27.5394 37.1701 0.876573 -0.330653 0.349657
20.0812 28.5135 37.1741 0.873237 -0.340315 0.34874
20.4157 29.4343 37.2441 0.873728 -0.342642 0.345247
20.6583 30.1396 37.3413 0.871904 -0.349324 0.343156
20.9907 31.0716 37.4524 0.870638 -0.354378 0.341182
21.3851 32.1503 37.5717 0.868799 -0.357622 0.342484
21.7551 33.2056 37.7388 0.868119 -0.359677 0.342056
21.7122 33.6655 38.3314 0.86811 -0.359754 0.341999
21.4058 33.5932 39.0319 0.867448 -0.359831 0.343592
21.0694 33.5093 39.7936 0.867523 -0.359916 0.343314
20.7016 33.3563 40.5602 0.866776 -0.360498 0.344588
20.2572 33.153 41.4654 0.86714 -0.359285 0.344939
19.7756 32.7122 42.2178 0.86751 -0.359885 0.343378
19.4886 32.0174 42.2154 0.867447 -0.359417 0.344027
19.2334 31.2732 42.0812 0.867183 -0.360088 0.34399
18.9622 30.5671 42.0243 0.866908 -0.360096 0.344674
18.6591 29.8157 42.0031 0.866539 -0.359663 0.346054
18.3005 28.9652 42.0113 0.864509 -0.360785 0.349904
17.9967 28.2304 42.0103 0.863744 -0.358602 0.354049
17.6799 27.4887 42.0362 0.862606 -0.353114 0.362225
17.3856 26.751 42.0116 0.860593 -0.355731 0.364465
17.043 25.9435 42.0485 0.860487 -0.341892 0.377714
16.6738 25.0735 42.0967 0.858905 -0.344878 0.378605
16.3229 24.3104 42.2127 0.857296 -0.336111 0.389965
15.9859 23.5923 42.3353 0.861888 -0.315316 0.396896
15.4871 22.5208 42.5659 0.850108 -0.321722 0.416673
15.0141 21.4962 42.7671 0.844366 -0.294216 0.447753
14.627 20.7436 42.9927 0.842576 -0.277361 0.461023
14.3028 20.0439 43.1626 0.836665 -0.272659 0.474907
13.7865 19.0042 43.4956 0.821002 -0.259321 0.508332
13.2344 18.0373 43.9607 0.805932 -0.229886 0.544575
12.6741 17.1668 44.4418 0.780989 -0.178576 0.598308
12.1794 16.5108 44.8711 0.75798 -0.203673 0.618986
11.7187 15.9158 45.2733 0.754101 -0.135057 0.642722
11.2523 15.4071 45.6647 0.725936 -0.132307 0.674116
10.6292 14.7759 46.175 0.695182 -0.0971415 0.711736
9.94456 14.2216 46.7081 0.649412 -0.0760253 0.756499
9.40159 13.7849 47.0919 0.603126 -0.0592416 0.795443
8.55684 13.221 47.6345 0.530112 -0.0525904 0.846247
7.96539 12.8645 47.9903 0.504044 -0.0445711 0.861787
7.35271 12.5338 48.3117 0.481973 -0.0303657 0.87566
6.61636 12.1668 48.6692 0.424655 -0.012737 0.905265
5.99494 11.8479 48.9453 0.363718 0.0227368 0.930887
5.22466 11.3899 49.2507 0.321834 0.0244288 0.946481
4.60345 10.9368 49.4691 0.27696 0.0745077 0.957988
3.96599 10.3387 49.6853 0.257347 0.0570778 0.964632
3.27069 9.52427 49.9287 0.195111 0.107823 0.974633
2.68663 8.66781 50.1293 0.132133 0.136971 0.98167
2.2657 7.96573 50.2864 0.125192 0.14429 0.981584
1.99831 7.4844 50.3862 0.0625083 0.136559 0.988658
0.901205 8.07801 50.3871 0.0543542 0.114987 0.991639
1.48322 9.17889 50.2241 0.0770826 0.0826364 0.993444
1.88406 9.81942 50.1186 0.133843 0.0917557 0.986746
2.43502 10.5584 49.9863 0.155382 0.0641998 0.985766
3.19518 11.4087 49.807 0.218309 0.015801 0.975752
3.90002 12.0073 49.6262 0.240937 0.032411 0.97
4.65953 12.5251 49.4327 0.318893 -0.028432 0.947364
5.3931 12.9392 49.206 0.342492 -0.0490711 0.937416
6.25003 13.367 48.8881 0.397091 -0.0716365 0.914292
7.11189 13.7827 48.5207 0.452668 -0.090236 0.886189
7.84478 14.2033 48.1639 0.469965 -0.119343 0.87458
8.44168 14.5716 47.8407 0.531286 -0.135939 0.835774
9.24526 15.0603 47.3844 0.584812 -0.129694 0.800734
10.0546 15.6608 46.8516 0.647663 -0.179676 0.739705
10.7846 16.3572 46.3703 0.703297 -0.220761 0.67575
11.3516 16.9565 45.9913 0.717291 -0.234374 0.654991
11.8372 17.5331 45.6213 0.736354 -0.247354 0.629262
12.3002 18.1066 45.2716 0.779153 -0.24356 0.577581
12.804 18.7924 44.8977 0.80315 -0.277108 0.52741
13.296 19.5471 44.5727 0.805355 -0.30727 0.506071
13.8281 20.5069 44.2606 0.824967 -0.297324 0.480654
14.189 21.1884 44.0915 0.838511 -0.310462 0.447785
14.7266 22.2364 43.8646 0.83643 -0.342739 0.427405
15.0794 22.9563 43.7254 0.84317 -0.342695 0.414132
15.5215 23.829 43.5396 0.852469 -0.337244 0.399453
16.0476 24.8786 43.3245 0.85681 -0.356382 0.372651
16.3871 25.5943 43.2326 0.85844 -0.365807 0.359476
16.8432 26.6564 43.2073 0.860796 -0.367793 0.351714
17.1519 27.382 43.2095 0.864603 -0.366152 0.344086
17.5011 28.207 43.2095 0.86765 -0.364023 0.338631
17.8664 29.0649 43.2026 0.864597 -0.369618 0.340375
18.2159 29.8787 43.188 0.866915 -0.362987 0.341611
18.581 30.7939 43.2315 0.868579 -0.36235 0.338044
18.8599 31.58 43.3541 0.869662 -0.359425 0.338381
19.1195 32.3086 43.4621 0.869445 -0.360167 0.338151
19.3844 33.0074 43.5225 0.868688 -0.359503 0.340791
19.9333 34.0252 43.1908 0.868645 -0.357831 0.342651
20.4038 34.2665 42.2545 0.867923 -0.357127 0.345208
20.8236 34.4488 41.3902 0.867445 -0.357807 0.345707
21.1523 34.5592 40.6799 0.867339 -0.358697 0.345051
21.4807 34.6678 39.967 0.867653 -0.358644 0.344314
21.9153 34.8005 39.0099 0.867583 -0.359592 0.343499
22.3636 35.0284 38.1133 0.867576 -0.360179 0.342903
22.6923 35.1757 37.4344 0.867832 -0.361077 0.341309
22.6223 34.3933 36.7836 0.86808 -0.361551 0.340174
22.3774 33.6544 36.625 0.868829 -0.360428 0.339451
22.0644 32.735 36.4514 0.869951 -0.358757 0.338347
21.7488 31.8741 36.3514 0.870788 -0.356645 0.338424
21.4546 31.0918 36.2868 0.87164 -0.354501 0.338484
21.0725 30.009 36.1474 0.87377 -0.350514 0.337143
20.8172 29.2295 36.0129 0.875858 -0.343308 0.339134
20.4975 28.3754 35.9825 0.876254 -0.33741 0.343996
20.1209 27.3907 35.9895 0.880231 -0.324991 0.345794
19.7732 26.4764 36.0267 0.884004 -0.31683 0.343738
19.3831 25.479 36.1249 0.883165 -0.305458 0.355971
18.9708 24.3496 36.2004 0.88546 -0.290615 0.362635
18.706 23.6227 36.2789 0.893134 -0.271142 0.358878
18.428 22.807 36.3546 0.893585 -0.272617 0.356621
18.0784 21.8281 36.5324 0.891551 -0.249355 0.3781
17.8059 21.0606 36.6965 0.896558 -0.229362 0.378822
17.4682 20.0485 36.916 0.898632 -0.20151 0.389443
17.247 19.3298 37.0848 0.904744 -0.169651 0.390472
17.0006 18.53 37.3104 0.897547 -0.165578 0.408647
16.7558 17.6304 37.5472 0.903325 -0.115523 0.413102
16.5103 16.728 37.8579 0.903921 -0.0823911 0.419657
16.2595 15.7402 38.2226 0.901387 -0.0470568 0.430418
16.0317 14.7233 38.6041 0.895885 -0.019924 0.443732
15.8124 13.7283 39.0186 0.888227 0.0212866 0.458855
15.6527 13.0541 39.3484 0.883971 0.0416464 0.465042
15.5061 12.3674 39.7046 0.875302 0.0551545 0.480421
15.3708 11.642 40.0696 0.865995 0.0942523 0.491089
15.2179 10.7744 40.5367 0.85376 0.128084 0.504666
15.0638 10.1294 40.9856 0.844848 0.164277 0.508825
14.8125 9.26994 41.6797 0.824448 0.193338 0.531277
14.6087 8.63763 42.2017 0.813889 0.197233 0.54652
14.4276 7.9941 42.7314 0.790331 0.23061 0.567623
14.2386 7.41816 43.2536 0.778964 0.251021 0.574633
13.8537 6.73842 44.0677 0.744581 0.272016 0.609122
13.5771 6.28734 44.611 0.713968 0.322334 0.621571
13.305 5.82639 45.1625 0.713922 0.322213 0.621686
12.8853 5.23866 45.9081 0.682499 0.343943 0.644902
12.4168 4.57039 46.6846 0.641479 0.3536 0.680788
12.0639 4.07767 47.2416 0.588266 0.379294 0.714193
11.6163 3.60632 47.8295 0.543799 0.36413 0.756103
11.1019 3.04669 48.4632 0.505059 0.37593 0.776911
10.6935 2.4378 49.0241 0.456641 0.390735 0.799183
10.3047 1.89603 49.5023 0.413001 0.384174 0.825722
9.82925 1.3441 49.9694 0.357156 0.358783 0.862389
9.40672 0.847522 50.3477 0.321536 0.35837 0.876462
8.96716 0.324951 50.7135 0.285224 0.329408 0.899221
8.38115 -0.345154 51.1105 0.215144 0.305944 0.925977
7.9151 -0.903555 51.3624 0.185331 0.272715 0.944076
7.09438 -1.6444 51.6748 0.111252 0.221579 0.968691
6.04112 -1.73577 51.7885 0.0759811 0.15974 0.984231
5.22826 -1.59045 51.8032 0.0217301 0.187099 0.982101
4.19876 -1.2589 51.7593 -0.00101037 0.143564 0.98964
3.41938 -1.00661 51.7104 -0.0461562 0.141141 0.988879
2.62177 -0.761351 51.6419 -0.0264237 0.128881 0.991142
1.88202 -0.532301 51.6005 -0.0616031 0.0859699 0.994388
0.959009 -0.178447 51.4849 -0.157211 0.0809167 0.984244
0.234976 0.107895 51.3599 -0.127395 0.082471 0.988417
-0.607076 0.449112 51.2069 -0.161813 0.0866765 0.983007
-1.43208 0.733137 51.0326 -0.185045 0.0988453 0.977746
-2.30538 0.990218 50.8204 -0.225328 0.0474055 0.973129
-3.12128 1.24889 50.6019 -0.261831 0.0531117 0.963651
-3.89252 1.4979 50.3718 -0.305301 0.00671336 0.952232
-4.57948 1.74146 50.1453 -0.316771 0.0102795 0.948446
-4.13773 2.23689 50.2688 -0.268106 0.0501312 0.962084
-3.49684 2.7053 50.4227 -0.251712 0.0570822 0.965955
-2.9295 3.29647 50.522 -0.231365 0.0740962 0.969971
-2.34391 3.92896 50.5868 -0.185793 0.0858018 0.978817
-1.64723 4.8238 50.6423 -0.143943 0.0829495 0.985269
-1.03538 5.5713 50.6303 -0.0955366 0.125398 0.987174
-0.485525 6.17363 50.6055 -0.066224 0.0951049 0.993262
0.0506291 6.81751 50.554 -0.0172058 0.117567 0.992525
0.553544 7.49198 50.4619 0.0343218 0.106576 0.993712
0.728508 7.7714 50.4259 0.0343181 0.106579 0.993712
-0.316028 8.46443 50.37 0.0171509 0.0966941 0.994974
-0.769257 7.7619 50.4261 -0.0397191 0.0877062 0.995354
-1.2938 7.1386 50.454 -0.0901773 0.0898126 0.991854
-1.96295 6.41987 50.4481 -0.126608 0.0821763 0.988469
-2.51234 5.79008 50.4306 -0.169056 0.0653346 0.983439
-3.07609 5.1187 50.3746 -0.190636 0.0440426 0.98037
-3.78358 4.18002 50.2628 -0.206407 0.0514311 0.977114
-4.37747 3.59451 50.1227 -0.278762 0.0286192 0.959934
-5.02244 3.19149 49.947 -0.312767 0.036639 0.949121
-5.82134 2.81259 49.6811 -0.349115 0.0054126 0.937064
-6.54978 2.53971 49.3877 -0.382903 -0.017711 0.923619
-7.3851 2.26477 49.0251 -0.402338 -0.0436174 0.914434
-8.10998 2.21471 48.6988 -0.403572 -0.0516853 0.913442
-8.81384 2.30781 48.3884 -0.416574 -0.0879402 0.904839
-9.55466 2.50469 48.0667 -0.410947 -0.104602 0.905639
-10.2591 2.65841 47.7682 -0.404556 -0.104971 0.908469
-11.0134 3.03833 47.4848 -0.396694 -0.120777 0.909971
-11.9273 3.46925 47.15 -0.397987 -0.165133 0.902406
-12.5682 3.84247 46.9362 -0.387537 -0.175285 0.904943
-13.2393 4.16911 46.7219 -0.378475 -0.176613 0.908559
-14.0614 4.49781 46.4498 -0.373606 -0.188524 0.908228
-14.9136 4.75939 46.1677 -0.362979 -0.205832 0.908701
-15.6383 4.94795 45.9277 -0.351088 -0.228653 0.907995
-16.4754 5.14583 45.6549 -0.34221 -0.245762 0.906912
-17.4417 5.25604 45.3237 -0.334036 -0.24832 0.909262
-18.4151 5.29643 44.9713 -0.329145 -0.284115 0.900482
-19.2686 5.32782 44.6736 -0.323091 -0.291236 0.900441
-19.9984 5.06327 44.3286 -0.315861 -0.304825 0.898505
-20.0099 4.87564 44.2601 -0.324087 -0.309727 0.893862
-19.3159 4.92464 44.5246 -0.323559 -0.296992 0.89839
-18.6107 4.79466 44.7452 -0.337446 -0.281289 0.898306
-17.6372 4.52991 45.038 -0.344185 -0.26734 0.900027
-16.6531 4.20574 45.3319 -0.363444 -0.256127 0.895644
-15.8577 3.88861 45.5714 -0.367527 -0.232193 0.900544
-15.0773 3.65821 45.8368 -0.385929 -0.223548 0.895022
-14.3832 3.40666 46.0719 -0.380772 -0.216069 0.89907
-13.6136 3.19805 46.3584 -0.390648 -0.204576 0.897521
-12.7965 3.0668 46.6945 -0.399476 -0.176306 0.899543
-11.9028 2.75569 47.0371 -0.408337 -0.14478 0.901276
-11.2 2.59754 47.3308 -0.410136 -0.14462 0.900485
-10.6681 2.52215 47.5643 -0.417409 -0.129714 0.899413
-9.95377 2.14814 47.8418 -0.421669 -0.120942 0.898594
-9.273 2.04048 48.15 -0.419578 -0.0878422 0.903459
-8.61896 1.7087 48.4243 -0.426295 -0.0686649 0.901974
-7.7818 1.5004 48.8003 -0.419427 -0.0686103 0.905193
-6.89252 1.15228 49.1841 -0.405445 -0.0559195 0.912407
-6.1969 0.898308 49.4892 -0.405945 -0.0250459 0.913554
-5.46753 0.6763 49.8089 -0.39011 -0.0173552 0.920332
-4.69977 0.401679 50.1037 -0.342405 -0.00246911 0.939464
-4.00726 0.162753 50.3451 -0.331055 -0.00218251 0.943593
-3.19976 -0.105351 50.6132 -0.303613 0.0203917 0.952577
-2.49162 -0.305282 50.8281 -0.273632 0.0158419 0.961704
-1.74001 -0.516565 51.0364 -0.23491 0.0232856 0.971738
-0.748138 -0.881231 51.2659 -0.187687 0.0550434 0.980685
0.12771 -1.23843 51.4353 -0.150665 0.0669536 0.986315
0.929994 -1.51626 51.5764 -0.142668 0.0585118 0.987977
1.9624 -1.88402 51.709 -0.0787652 0.0754016 0.993909
2.74166 -2.13865 51.8023 -0.0853899 0.0873263 0.992497
3.54138 -2.36784 51.8777 -0.0669891 0.0857889 0.994059
4.30289 -2.64248 51.9252 -0.011507 0.0838044 0.996416
5.03059 -2.87177 51.9667 -0.00788781 0.118577 0.992914
5.96638 -3.02106 51.9981 -0.0121828 0.146089 0.98908
6.91439 -3.15879 51.9902 0.0485887 0.193008 0.979993
7.71753 -3.01188 51.9143 0.101893 0.237032 0.966144
8.29979 -2.45401 51.716 0.0919529 0.238315 0.966773
8.95624 -1.64733 51.4018 0.151828 0.281762 0.947103
9.45684 -1.01296 51.0771 0.226527 0.331201 0.915756
10.0333 -0.35381 50.637 0.276723 0.371356 0.886293
10.5805 0.313399 50.1263 0.333978 0.391221 0.857541
11.0931 0.88903 49.6004 0.410919 0.430721 0.802682
11.4792 1.35218 49.1416 0.459385 0.432559 0.775115
11.7799 1.85654 48.6615 0.492691 0.419561 0.762381
12.1506 2.39661 48.0835 0.542064 0.429307 0.722401
12.637 2.88488 47.4215 0.58938 0.41315 0.694217
13.0678 3.29959 46.7982 0.625662 0.397441 0.671258
13.4409 3.85184 46.1139 0.667169 0.378872 0.641358
13.7529 4.35304 45.4815 0.672996 0.389568 0.62874
14.085 4.85481 44.8093 0.715145 0.352405 0.603638
14.3545 5.30281 44.2057 0.735332 0.351479 0.57915
14.6484 5.82329 43.5251 0.759941 0.328441 0.560601
14.9438 6.41084 42.7781 0.778792 0.326008 0.535911
15.1289 7.03594 42.1654 0.794297 0.297581 0.529658
15.2781 7.67749 41.6151 0.832737 0.249481 0.494275
15.4373 8.32215 41.0258 0.83167 0.246126 0.497743
15.6398 9.11768 40.3473 0.85198 0.208281 0.480364
15.8013 9.92178 39.7544 0.870958 0.179407 0.457434
15.9184 10.5733 39.3374 0.876226 0.133401 0.46298
16.0399 11.5555 38.8568 0.881387 0.0923084 0.463288
16.2192 12.564 38.3129 0.895207 0.058473 0.441774
16.3977 13.4507 37.8544 0.901399 0.0205551 0.43246
16.5767 14.4678 37.4557 0.906509 -0.0151078 0.421849
16.7835 15.482 37.0658 0.909917 -0.047604 0.41203
17.0108 16.4609 36.7016 0.91093 -0.0815633 0.404398
17.2734 17.4901 36.3573 0.912772 -0.117715 0.390957
17.4813 18.3316 36.1324 0.910216 -0.137451 0.390659
17.6918 19.0489 35.9215 0.90719 -0.172041 0.383938
17.895 19.7579 35.7623 0.904956 -0.188326 0.381257
18.134 20.5072 35.5914 0.904179 -0.202906 0.375886
18.4017 21.3042 35.4094 0.904506 -0.220876 0.364805
18.6724 22.0942 35.2407 0.904689 -0.237434 0.353784
18.9888 23.0287 35.1065 0.897111 -0.260018 0.357186
19.2704 23.829 35.0145 0.89442 -0.28293 0.346324
19.5854 24.7267 34.9466 0.892258 -0.296199 0.340795
19.8703 25.5309 34.9091 0.891171 -0.307766 0.333307
20.1537 26.2823 34.8524 0.886413 -0.317322 0.337005
20.4817 27.1126 34.7839 0.882862 -0.32544 0.338591
20.7719 27.879 34.7731 0.879291 -0.336357 0.337211
21.1583 28.927 34.8153 0.877723 -0.34185 0.335765
21.4853 29.8864 34.9463 0.875202 -0.349068 0.33491
21.8931 31.0404 35.0968 0.872678 -0.355295 0.334956
22.3269 32.1646 35.1673 0.870658 -0.359346 0.335889
22.7266 33.2889 35.3398 0.86973 -0.360935 0.336595
23.0064 34.1308 35.5235 0.868099 -0.362428 0.33919
23.2567 34.8763 35.678 0.868017 -0.361812 0.340057
23.4817 35.6486 35.9254 0.867791 -0.362069 0.34036
23.7294 36.4559 36.1506 0.867897 -0.361132 0.341084
23.5164 36.6187 36.8651 0.867964 -0.361078 0.340972
23.0946 36.4431 37.7513 0.867784 -0.360465 0.342075
22.6041 36.1701 38.7056 0.867128 -0.360981 0.343195
22.1121 35.9146 39.676 0.86659 -0.360537 0.345015
21.7752 35.8108 40.4153 0.867191 -0.358313 0.345818
21.4406 35.7081 41.1457 0.867182 -0.357503 0.34668
21.0378 35.5886 42.0297 0.867193 -0.356949 0.347223
20.5985 35.3727 42.9072 0.867686 -0.356018 0.346949
20.2672 35.2044 43.5668 0.868918 -0.354714 0.345194
19.9402 35.0393 44.2215 0.869839 -0.353316 0.344307
19.4793 34.5744 44.9149 0.871188 -0.352856 0.341355
19.1307 33.5944 44.7894 0.87121 -0.354964 0.339108
18.8448 32.7913 44.6841 0.871096 -0.356695 0.337572
18.5346 31.9508 44.5934 0.871591 -0.357313 0.335643
18.2684 31.2054 44.4843 0.869756 -0.362858 0.334452
17.9474 30.3516 44.3934 0.868767 -0.364139 0.335616
17.4854 29.2602 44.403 0.869723 -0.364698 0.332532
17.0088 28.1344 44.3905 0.865639 -0.372065 0.335015
16.5196 27.018 44.4037 0.861266 -0.376702 0.341043
16.0563 25.9674 44.4044 0.856622 -0.382922 0.345788
15.7227 25.2679 44.4725 0.851917 -0.378853 0.361535
15.3066 24.4834 44.6352 0.854443 -0.367832 0.366901
14.9177 23.7826 44.8098 0.842607 -0.378264 0.383315
14.5555 23.0919 44.9348 0.825715 -0.382581 0.414519
14.0649 22.1977 45.1129 0.822983 -0.367266 0.433046
13.4375 21.0672 45.3562 0.807621 -0.350807 0.472998
12.7831 20.0235 45.6583 0.798515 -0.343328 0.494469
12.2957 19.3844 45.9374 0.771333 -0.324834 0.547292
11.6327 18.6538 46.3663 0.72751 -0.325161 0.603024
11.0357 17.9901 46.7311 0.688323 -0.319551 0.651229
10.5044 17.4515 47.0368 0.650255 -0.29439 0.700359
9.93463 16.9393 47.3613 0.626774 -0.284205 0.724417
9.3766 16.5016 47.6363 0.590234 -0.202036 0.78154
8.65095 16.0174 48.0276 0.513885 -0.210651 0.831594
7.9857 15.6505 48.3543 0.495756 -0.188638 0.846758
7.35745 15.2961 48.6094 0.472163 -0.173942 0.863894
6.64429 14.9096 48.8901 0.405726 -0.164417 0.899085
5.99394 14.6054 49.1298 0.360702 -0.134024 0.923001
5.19393 14.2473 49.3765 0.309259 -0.102134 0.945478
4.42636 13.8449 49.5799 0.234035 -0.0878266 0.968253
3.64151 13.366 49.7437 0.224206 -0.0553222 0.972265
3.01058 12.9507 49.8385 0.193597 -0.0354001 0.980033
2.08061 12.1669 49.9906 0.127294 -0.00364241 0.991748
1.53379 11.4943 50.0701 0.111418 0.0390571 0.993006
0.91917 10.6707 50.1698 0.0759155 0.0621612 0.994956
0.388065 9.8824 50.2533 0.0629267 0.0757828 0.995137
-0.0534865 9.04417 50.3226 0.0253881 0.064863 0.997571
-0.138313 8.86062 50.3367 0.0196707 0.0711784 0.997233
-1.29489 9.40072 50.3013 -0.0113335 0.0513641 0.99854
-0.86919 10.2757 50.2685 -0.00592133 0.0404101 0.999166
-0.333492 11.082 50.2216 0.0359662 0.0365834 0.998683
0.102893 11.7492 50.1709 0.0601164 0.0171557 0.997854
0.56368 12.3558 50.1426 0.0650137 -0.000746353 0.997883
1.10187 13.042 50.1066 0.0715154 -0.0102838 0.997315
1.70225 13.5763 50.0738 0.11925 -0.0645752 0.990651
2.38788 14.1129 50.0165 0.167137 -0.0956712 0.980264
3.21081 14.583 49.9514 0.184928 -0.125573 0.974192
3.92352 14.9985 49.8615 0.216079 -0.155336 0.963692
4.93431 15.5181 49.6813 0.260942 -0.237216 0.935661
6.06593 15.9706 49.3858 0.376352 -0.20534 0.902212
6.7671 16.3114 49.1585 0.391635 -0.239074 0.888519
7.51247 16.7176 48.911 0.459631 -0.287725 0.839664
8.27108 17.1313 48.6351 0.492191 -0.310995 0.813016
8.94497 17.4659 48.3176 0.556711 -0.3092 0.770292
9.6936 18.0254 48.006 0.598689 -0.34003 0.725104
10.318 18.5273 47.7403 0.62374 -0.351518 0.696736
10.8235 19.0363 47.5038 0.661347 -0.401787 0.633393
11.4481 19.6626 47.2051 0.711332 -0.401262 0.575767
12.0031 20.1818 46.9116 0.735555 -0.418528 0.530872
12.4699 20.7775 46.6807 0.761177 -0.412727 0.500203
13.0705 21.6429 46.4462 0.796263 -0.404376 0.4498
13.4952 22.3401 46.3411 0.806621 -0.40247 0.432131
14.0856 23.2877 46.1206 0.822963 -0.405102 0.39782
14.4765 23.994 46.0214 0.833621 -0.414553 0.364484
14.8591 24.6732 45.8976 0.84625 -0.405817 0.344972
15.3839 25.56 45.6332 0.853641 -0.396493 0.337773
15.7349 26.2952 45.5961 0.861002 -0.386236 0.330885
16.0672 27.0524 45.6224 0.863145 -0.384492 0.327287
16.518 28.0479 45.5871 0.865665 -0.380739 0.325056
16.8141 28.7538 45.6108 0.869442 -0.37314 0.323787
17.1767 29.5995 45.6029 0.872705 -0.366264 0.322858
17.5005 30.3382 45.5643 0.87188 -0.36445 0.327111
17.863 31.3523 45.716 0.873813 -0.356287 0.330923
18.2735 32.4819 45.8435 0.873717 -0.352945 0.334735
18.6834 33.6351 45.9858 0.873326 -0.350138 0.33868
18.9389 34.4316 46.1515 0.872208 -0.351189 0.340465
19.2471 35.4137 46.3653 0.872344 -0.348215 0.343164
19.6185 35.9341 45.9508 0.870792 -0.350054 0.34523
20.0488 36.1119 45.0437 0.870333 -0.351585 0.344828
20.4319 36.2958 44.2682 0.869517 -0.352454 0.346001
20.7924 36.4617 43.5346 0.868372 -0.353804 0.347494
21.2198 36.6973 42.7098 0.866942 -0.355418 0.349413
21.7025 36.8574 41.675 0.8661 -0.357697 0.349176
22.2299 36.9996 40.5095 0.866168 -0.359204 0.347457
22.5648 37.1689 39.8497 0.865374 -0.360905 0.34767
22.9264 37.3696 39.1511 0.866374 -0.361508 0.344539
23.3315 37.589 38.3591 0.867395 -0.3608 0.34271
23.784 37.7949 37.429 0.867713 -0.361287 0.34139
24.1893 37.9172 36.5269 0.868088 -0.361078 0.340654
24.6101 38.0588 35.6045 0.868572 -0.35984 0.340732
24.5854 37.4456 35.0197 0.868032 -0.360737 0.341157
24.3391 36.7277 34.8875 0.867836 -0.361148 0.341222
24.0474 35.8781 34.7288 0.867788 -0.361453 0.341022
23.7749 34.9853 34.4718 0.867664 -0.362736 0.339972
23.5057 34.1787 34.2958 0.867304 -0.364427 0.33908
23.2595 33.4721 34.1635 0.868919 -0.364121 0.335255
22.9699 32.6528 34.0237 0.868844 -0.364411 0.335133
22.6771 31.861 33.9288 0.871123 -0.360464 0.333483
22.3687 31.1035 33.9189 0.873352 -0.356268 0.332158
22.0667 30.281 33.8332 0.87466 -0.353488 0.331676
21.8219 29.5448 33.704 0.876329 -0.348613 0.332439
21.4747 28.5755 33.6169 0.879968 -0.340742 0.330985
21.0845 27.4866 33.5495 0.883121 -0.331357 0.332114
20.7135 26.5597 33.6273 0.887864 -0.320377 0.330236
20.385 25.7104 33.6934 0.891493 -0.311089 0.329299
20.0645 24.8347 33.7517 0.896424 -0.29648 0.32937
19.814 24.0925 33.7794 0.896989 -0.291491 0.332325
19.5752 23.3771 33.831 0.901973 -0.268647 0.338043
19.3213 22.6417 33.928 0.906335 -0.255637 0.336396
19.0732 21.888 34.0361 0.910302 -0.241538 0.336033
18.8094 21.0925 34.2022 0.917926 -0.220832 0.329308
18.5542 20.2845 34.4089 0.916355 -0.207187 0.342201
18.2453 19.215 34.6307 0.916058 -0.172936 0.361843
18.0366 18.473 34.8204 0.924708 -0.137759 0.354877
17.8088 17.6144 35.0701 0.92292 -0.126177 0.363261
17.5647 16.5488 35.3931 0.929951 -0.0954224 0.355085
17.3744 15.729 35.7077 0.923659 -0.0510721 0.379797
17.1954 14.7734 36.0526 0.921386 -0.00919914 0.38854
17.0601 14.0647 36.3475 0.916643 0.00306247 0.399089
16.9388 13.1565 36.684 0.914001 0.0201215 0.405111
16.8073 12.3182 37.0837 0.915379 0.063375 0.39721
16.6792 11.5811 37.5193 0.903601 0.0905909 0.418685
16.5738 10.6148 38.0133 0.895206 0.133578 0.425162
16.4784 9.79399 38.4908 0.892215 0.154139 0.424222
16.3792 8.9532 39.0366 0.878903 0.19323 0.435895
16.2536 8.26956 39.6056 0.861466 0.207362 0.463385
16.1075 7.5193 40.2726 0.846927 0.243499 0.472403
15.9694 6.85806 40.9002 0.830414 0.272459 0.48566
15.8361 6.16435 41.5594 0.813435 0.296345 0.500061
15.6959 5.50744 42.2239 0.790337 0.329655 0.516057
15.4658 4.984 42.9357 0.765319 0.357263 0.534834
15.1973 4.45667 43.6637 0.752296 0.380368 0.537932
14.8709 3.86204 44.4948 0.733094 0.388706 0.558105
14.4954 3.22164 45.3881 0.685762 0.420142 0.594316
14.1061 2.58913 46.2588 0.630355 0.444048 0.636769
13.7553 2.16041 46.8897 0.620751 0.432036 0.654227
13.2953 1.7273 47.5898 0.581575 0.455426 0.674061
12.8618 1.30663 48.2153 0.533625 0.45348 0.71365
12.5068 0.63756 48.9096 0.481506 0.469291 0.740215
12.0136 0.0215088 49.5851 0.423918 0.462457 0.778645
11.5564 -0.473006 50.0908 0.372889 0.437351 0.818338
11.1023 -1.04152 50.5757 0.292473 0.432707 0.852775
10.536 -1.67818 51.051 0.21827 0.388988 0.895012
9.86844 -2.5296 51.5211 0.114978 0.35829 0.926504
9.13832 -3.43248 51.8966 0.0639562 0.274949 0.959329
8.54661 -4.26615 52.1401 0.0404272 0.209931 0.97688
7.75566 -4.5554 52.2168 0.0176117 0.174416 0.984515
6.74102 -4.4246 52.2039 0.00672927 0.147309 0.989055
5.85092 -4.33359 52.1837 -0.0265755 0.128862 0.991235
5.00928 -4.22968 52.1377 -0.0368968 0.128379 0.991038
4.27611 -4.06112 52.089 -0.0341097 0.125911 0.991449
3.56685 -3.76269 52.0017 -0.0827322 0.0951941 0.992015
2.68232 -3.4627 51.8998 -0.0796299 0.0843071 0.993192
1.85918 -3.21892 51.8014 -0.117156 0.0253022 0.992791
1.09333 -2.938 51.6702 -0.149022 0.060317 0.986992
0.213298 -2.65635 51.5184 -0.165315 0.0431964 0.985294
-0.604396 -2.3454 51.3548 -0.208005 0.0441933 0.977123
-1.2998 -2.06043 51.192 -0.248541 0.0377178 0.967835
-2.25213 -1.69036 50.9427 -0.261065 0.0299946 0.964654
-3.1003 -1.46058 50.6937 -0.304005 0.0199464 0.951933
-3.9478 -1.20814 50.3802 -0.344888 0.0125275 0.938525
-4.98779 -0.831756 49.9713 -0.394124 -0.0203161 0.918725
-5.86685 -0.530153 49.5978 -0.418583 -0.0308885 0.907653
-6.56019 -0.337486 49.2769 -0.437861 -0.0367515 0.898291
-7.5068 0.00323041 48.8319 -0.443188 -0.0507179 0.894993
-8.53597 0.380784 48.3446 -0.453225 -0.095459 0.88627
-9.3955 0.6887 47.9366 -0.453901 -0.118749 0.883104
-10.1704 0.967497 47.5779 -0.449698 -0.118718 0.885256
-11.0691 1.26657 47.1792 -0.437522 -0.140413 0.888177
-11.8632 1.45423 46.8206 -0.440474 -0.179412 0.879656
-12.622 1.6543 46.4853 -0.429336 -0.186675 0.883606
-13.4114 1.83023 46.1473 -0.41879 -0.193483 0.887231
-14.2184 2.05979 45.8242 -0.413133 -0.230066 0.88113
-15.1055 2.37008 45.4968 -0.398456 -0.244365 0.884035
-15.8732 2.65899 45.2329 -0.389213 -0.252409 0.885887
-16.5533 2.90992 45.0049 -0.381186 -0.255785 0.888349
-17.363 3.22063 44.7542 -0.378555 -0.264381 0.887017
-18.4493 3.53668 44.4067 -0.357484 -0.288255 0.888263
-19.3161 3.67193 44.1079 -0.356836 -0.297895 0.885396
-20.162 3.68934 43.7889 -0.341167 -0.310703 0.887145
-20.9004 3.76988 43.5446 -0.327145 -0.324183 0.887627
-21.6592 3.68865 43.2426 -0.313862 -0.332158 0.889473
-22.478 3.4862 42.8751 -0.317033 -0.334429 0.887494
-23.2242 3.28001 42.5323 -0.311269 -0.345068 0.88546
-24.0336 3.09318 42.1732 -0.308634 -0.352861 0.883301
-24.8308 2.92158 41.8226 -0.307273 -0.356825 0.882178
-25.6574 2.7387 41.4595 -0.307637 -0.361298 0.88024
-26.429 2.49292 41.0901 -0.304659 -0.364918 0.879782
-27.076 2.23187 40.7567 -0.305554 -0.366202 0.878938
-27.9806 2.00401 40.3466 -0.304489 -0.36998 0.877725
-28.2851 2.42019 40.4167 -0.302073 -0.373194 0.877198
-27.6587 2.95235 40.8578 -0.302957 -0.368906 0.878704
-27.0738 3.34991 41.2257 -0.301195 -0.370642 0.878582
-26.4238 3.79099 41.6321 -0.298988 -0.370647 0.879332
-25.7753 4.24857 42.0429 -0.298177 -0.364365 0.882226
-25.1109 4.66299 42.4359 -0.293543 -0.361446 0.884974
-24.3755 4.98442 42.8106 -0.298556 -0.353616 0.886465
-23.4998 5.27785 43.2167 -0.297233 -0.347828 0.889189
-22.6803 5.60919 43.6161 -0.291703 -0.340931 0.893676
-21.9416 5.84806 43.9482 -0.296483 -0.329437 0.896404
-21.1833 6.11305 44.291 -0.289127 -0.323374 0.901008
-20.3687 6.37017 44.6483 -0.296951 -0.308103 0.903816
-19.4937 6.53335 44.9897 -0.299652 -0.290413 0.908773
-18.6065 6.53839 45.2862 -0.300981 -0.283119 0.910599
-17.8915 6.55477 45.5304 -0.309777 -0.25733 0.915325
-17.1727 6.48746 45.7545 -0.319641 -0.236196 0.917628
-16.2304 6.35232 46.0457 -0.323791 -0.216277 0.921054
-15.3648 6.16009 46.3083 -0.325579 -0.210068 0.921884
-14.6003 5.91459 46.5356 -0.340032 -0.189586 0.921067
-13.7317 5.6175 46.8036 -0.347955 -0.183173 0.919443
-12.8426 5.25733 47.0807 -0.356062 -0.161272 0.920412
-12.0171 4.9116 47.3467 -0.371315 -0.153877 0.915602
-11.2419 4.52075 47.5986 -0.368275 -0.128849 0.920727
-10.5543 4.15451 47.8301 -0.376813 -0.119198 0.918587
-9.84662 3.88739 48.0907 -0.38512 -0.101893 0.917223
-9.06305 3.68824 48.3961 -0.390551 -0.0899063 0.916073
-8.18144 3.51394 48.7506 -0.37907 -0.0560696 0.923665
-7.37926 3.61254 49.0836 -0.381335 -0.0463265 0.92321
-6.52547 3.90793 49.421 -0.358822 -0.0173905 0.933242
-5.78612 4.17364 49.6809 -0.330016 -0.00298627 0.943864
-5.00094 4.68759 49.9105 -0.281087 0.00772009 0.959651
-4.39768 5.50905 50.053 -0.255072 0.0169632 0.966748
-3.78879 6.26729 50.1661 -0.204245 0.0560097 0.976916
-3.19664 6.96089 50.2418 -0.160588 0.0611458 0.984776
-2.66968 7.53615 50.2821 -0.137021 0.0419484 0.989679
-2.00756 8.22182 50.3175 -0.107853 0.0399107 0.993079
-1.38917 9.17359 50.3139 -0.0257846 0.0509084 0.998263
-2.56491 9.60178 50.2322 -0.0709644 0.0184343 0.997308
-2.16279 10.5264 50.24 -0.0132625 0.0164668 0.999776
-1.75557 11.2152 50.2352 0.00933239 0.019968 0.999428
-1.35093 11.9631 50.2141 0.00825691 0.0167107 0.999793
-0.705103 12.8322 50.1953 0.0251 0.013164 0.999513
-0.0822293 13.6301 50.1885 0.000373906 -0.0501136 0.997335
0.47245 14.2682 50.2246 0.0630903 -0.0803143 0.994771
1.21747 14.8327 50.2314 0.0758298 -0.100193 0.992074
1.79408 15.3171 50.2485 0.083686 -0.143999 0.986033
2.7145 15.7461 50.227 0.117761 -0.190373 0.974623
3.36107 16.1319 50.2072 0.187932 -0.258683 0.946219
4.11387 16.5806 50.2055 0.22905 -0.29379 0.926851
4.86165 16.7626 50.0445 0.277703 -0.304156 0.910708
5.62437 17.0903 49.8865 0.34202 -0.309911 0.886623
6.36893 17.4053 49.7167 0.365921 -0.350192 0.861691
7.10493 17.7129 49.5032 0.35337 -0.392985 0.847036
7.89594 18.1497 49.2906 0.426652 -0.395417 0.812913
8.74699 18.5298 48.9801 0.512306 -0.378313 0.769144
9.50408 19.1479 48.7784 0.515654 -0.46479 0.718785
10.1388 19.524 48.5168 0.590742 -0.45466 0.665912
10.8387 20.1701 48.3221 0.636504 -0.516946 0.56907
11.4105 20.6788 48.083 0.672094 -0.481983 0.561829
11.964 21.2944 47.9116 0.705243 -0.497875 0.504731
12.5098 21.9012 47.6688 0.763052 -0.462696 0.45129
12.9689 22.5339 47.5512 0.764896 -0.497131 0.409568
13.5781 23.3677 47.3377 0.802814 -0.476506 0.358295
14.0233 24.0765 47.2118 0.820049 -0.45959 0.340934
14.3968 24.7505 47.187 0.840201 -0.441201 0.315284
14.9353 25.6326 46.8972 0.850629 -0.413553 0.324605
15.3378 26.4269 46.8197 0.858916 -0.403932 0.314706
15.636 27.1253 46.8749 0.864921 -0.392452 0.31285
16.0358 27.9579 46.8008 0.869067 -0.386682 0.308544
16.3885 28.7709 46.808 0.874894 -0.372626 0.30937
16.7691 29.6868 46.8234 0.875033 -0.365833 0.316992
17.0771 30.3825 46.7733 0.879011 -0.360415 0.312156
17.3741 31.2614 46.9382 0.879637 -0.350284 0.321736
17.7521 32.2933 47.0272 0.877861 -0.348638 0.328338
18.0407 33.0916 47.1009 0.876758 -0.348154 0.331783
18.2842 33.8596 47.2602 0.875329 -0.346239 0.337517
18.5615 34.7403 47.4382 0.878001 -0.342238 0.33462
18.8177 35.6436 47.6812 0.870458 -0.343384 0.352689
19.0571 36.4358 47.8701 0.868378 -0.350402 0.35091
19.4968 36.9827 47.3253 0.867803 -0.354969 0.347729
19.885 37.1281 46.4878 0.875478 -0.346521 0.336699
20.2957 37.2616 45.5883 0.869829 -0.350218 0.347481
20.6919 37.4684 44.809 0.869328 -0.357123 0.341577
21.071 37.6039 43.9903 0.87319 -0.347314 0.341883
21.4686 37.8149 43.2149 0.865195 -0.349747 0.359196
21.8378 37.9905 42.4951 0.864374 -0.359051 0.35205
22.261 38.0524 41.5179 0.864728 -0.358952 0.351281
22.6487 38.2492 40.7628 0.864588 -0.362812 0.347639
23.0155 38.4237 40.0328 0.86459 -0.362809 0.347638
23.3585 38.5631 39.3176 0.866262 -0.362101 0.344199
23.8329 38.834 38.4074 0.866243 -0.365818 0.340294
24.1676 38.9646 37.6916 0.869291 -0.36038 0.338307
24.4849 39.051 36.974 0.867581 -0.360075 0.34299
24.8287 39.226 36.2846 0.866857 -0.362722 0.342034
25.2238 39.4283 35.4868 0.870111 -0.360671 0.335876
25.5505 39.2919 34.4966 0.872042 -0.354632 0.337312
25.3426 38.4829 34.184 0.868847 -0.356945 0.343066
25.1102 37.6257 33.879 0.866385 -0.360414 0.345656
24.8809 36.8943 33.6877 0.866789 -0.362755 0.342174
24.5415 35.9648 33.5659 0.86692 -0.36213 0.342508
24.2804 35.0309 33.2355 0.866373 -0.364646 0.341218
23.9949 34.2329 33.1046 0.865375 -0.366359 0.341916
23.6926 33.3723 32.936 0.863636 -0.371952 0.340271
23.2831 32.282 32.7921 0.874209 -0.366656 0.318311
23.0068 31.5149 32.6732 0.875018 -0.359444 0.324258
22.6563 30.6964 32.7103 0.87441 -0.357738 0.327757
22.2751 29.5524 32.4968 0.87757 -0.354612 0.322666
22.0039 28.8472 32.4776 0.880512 -0.346976 0.322965
21.6627 27.8873 32.3833 0.887248 -0.339086 0.312747
21.354 27.0643 32.3775 0.889546 -0.327838 0.318166
21.0661 26.3452 32.4416 0.889183 -0.32897 0.318012
20.7116 25.3526 32.4491 0.894246 -0.311805 0.321096
20.4269 24.6174 32.542 0.900383 -0.302717 0.312526
20.1139 23.6732 32.5667 0.905674 -0.284224 0.314591
19.8424 22.8992 32.6708 0.911527 -0.269079 0.310883
19.5455 22.0164 32.8033 0.914076 -0.259439 0.311697
19.3005 21.2456 32.9236 0.922435 -0.241929 0.300972
19.0094 20.3169 33.1404 0.93322 -0.202168 0.297034
18.7139 19.1937 33.3274 0.93016 -0.173873 0.323337
18.4368 18.2044 33.6237 0.935761 -0.154536 0.316969
18.2205 17.2821 33.8483 0.939883 -0.128453 0.316416
18.0349 16.5745 34.1322 0.942596 -0.109152 0.315593
17.8708 15.6945 34.4055 0.937521 -0.0668296 0.34145
17.6975 14.8165 34.7585 0.943311 -0.0267378 0.330831
17.575 13.9106 35.0788 0.938873 0.00933212 0.344137
17.4765 13.2155 35.3773 0.928819 0.0381588 0.368564
17.3923 12.2411 35.7074 0.926521 0.0469144 0.373306
17.2474 11.4974 36.2458 0.919353 0.0870946 0.383202
17.1736 10.5202 36.7033 0.910716 0.122355 0.394492
17.0993 9.66149 37.1883 0.90711 0.157198 0.390264
17.03 9.02698 37.6285 0.90483 0.194271 0.377836
16.9611 8.18939 38.2105 0.885875 0.213907 0.411582
16.8856 7.55912 38.7109 0.879993 0.24602 0.406294
16.8015 6.89508 39.3143 0.863934 0.299888 0.403524
16.7079 6.27417 39.94 0.839987 0.3331 0.427379
16.5988 5.66587 40.5832 0.824161 0.344288 0.44951
16.5024 5.04171 41.2273 0.810648 0.37172 0.45232
16.404 4.48534 41.8448 0.798452 0.398438 0.450056
16.2316 4.01968 42.5294 0.758349 0.405614 0.50986
16.0826 3.52381 43.1184 0.745339 0.402543 0.53144
15.7363 3.02296 43.9734 0.731802 0.404323 0.548444
15.5621 2.57695 44.5913 0.732623 0.455166 0.505098
15.2782 2.18963 45.2966 0.67878 0.49743 0.540171
14.9741 1.73997 45.9845 0.634347 0.468666 0.614572
14.5734 1.25789 46.7368 0.630318 0.457554 0.627163
14.2673 0.795643 47.3714 0.621253 0.480318 0.618439
13.8359 0.441355 48.0465 0.562839 0.490762 0.6646
13.4773 -0.171576 48.7911 0.496757 0.53172 0.684163
13.1028 -0.595441 49.3463 0.430677 0.508959 0.745128
12.5919 -1.2316 50.0769 0.368031 0.526016 0.763713
12.1845 -1.68896 50.5288 0.309605 0.501472 0.807769
11.696 -2.26164 51.0125 0.268744 0.503838 0.820012
11.2274 -2.85654 51.4457 0.122229 0.462566 0.878119
10.8509 -3.41903 51.7747 0.027208 0.404134 0.914295
10.3094 -3.95122 52.0261 0.0259997 0.408247 0.912489
9.85842 -4.62987 52.2459 -0.0741221 0.300753 0.949959
9.66332 -5.40303 52.421 -0.107676 0.229639 0.967301
8.92822 -5.80075 52.4266 -0.0243277 0.0957681 0.995106
8.04569 -5.872 52.4308 0.0293001 0.16188 0.986375
7.07878 -5.77991 52.4135 -0.0238265 0.159913 0.986843
6.10058 -5.63266 52.359 -0.0417835 0.111729 0.99286
5.21493 -5.63149 52.3083 -0.0677523 0.0904875 0.99359
4.3952 -5.38848 52.2245 -0.0792799 0.0935841 0.99245
3.57071 -5.15982 52.1336 -0.0902474 0.0870926 0.992104
2.8855 -4.86765 52.0306 -0.130867 0.0872479 0.987395
2.04666 -4.5954 51.9088 -0.135645 0.0714809 0.988043
1.18412 -4.34059 51.7709 -0.14461 0.0600552 0.987643
0.150867 -3.96763 51.5839 -0.162083 0.0822765 0.983341
-0.59139 -3.75087 51.4291 -0.204506 0.0638153 0.976772
-1.28822 -3.44253 51.266 -0.202523 0.0596227 0.977461
-2.13975 -3.14853 51.0269 -0.266261 0.0665452 0.961294
-2.91937 -2.86297 50.7884 -0.273607 0.0379415 0.961093
-3.87457 -2.65364 50.4565 -0.352474 0.0331627 0.935224
-4.59723 -2.32355 50.1548 -0.409248 0.0346151 0.911766
-5.2727 -2.11345 49.8456 -0.41614 -0.00347729 0.908999
-6.08608 -1.75784 49.4552 -0.429854 -0.0175843 0.902669
-6.77772 -1.64068 49.1184 -0.455607 -0.0437394 0.889062
-7.60651 -1.31023 48.6941 -0.477949 -0.0462534 0.877169
-8.41769 -1.04449 48.2697 -0.483871 -0.0651842 0.872708
-9.11394 -0.73646 47.9161 -0.483495 -0.0993812 0.869687
-10.0932 -0.392606 47.4197 -0.47719 -0.119768 0.8706
-10.7661 -0.130538 47.0931 -0.46691 -0.164148 0.86873
-11.5454 0.101886 46.7109 -0.467217 -0.181976 0.865156
-12.2925 0.244315 46.3444 -0.463592 -0.203807 0.862212
-13.1827 0.497663 45.9396 -0.448869 -0.212633 0.867931
-13.9343 0.645317 45.5953 -0.439388 -0.22254 0.870296
-14.5901 0.917748 45.3431 -0.423198 -0.238243 0.874153
-15.372 1.18438 45.0419 -0.416733 -0.248067 0.874526
-16.1741 1.54558 44.7733 -0.402763 -0.266261 0.87569
-17.0507 1.8402 44.4634 -0.394769 -0.279169 0.875341
-17.9019 2.18583 44.1993 -0.37977 -0.281839 0.881103
-18.8256 2.40913 43.8797 -0.368238 -0.297154 0.880965
-19.6644 2.47231 43.5558 -0.357542 -0.308246 0.88156
-20.362 2.44017 43.2647 -0.351013 -0.323687 0.878645
-21.271 2.42629 42.9117 -0.328805 -0.331888 0.88416
-22.0844 2.21366 42.5306 -0.329878 -0.338929 0.881083
-22.824 2.0761 42.2032 -0.324085 -0.350102 0.878851
-23.5673 1.94422 41.8783 -0.316048 -0.355995 0.879421
-24.4628 1.70789 41.4605 -0.317339 -0.355221 0.879269
-25.1755 1.56012 41.1454 -0.314119 -0.359691 0.878608
-25.9967 1.33411 40.7599 -0.309013 -0.36699 0.877399
-26.9232 1.00122 40.2948 -0.310698 -0.364663 0.877774
-27.8155 0.824356 39.9065 -0.308486 -0.36959 0.876493
-28.674 0.58587 39.5035 -0.308482 -0.371025 0.875888
-29.4459 0.340191 39.1276 -0.308543 -0.371006 0.875874
-30.2016 0.284214 38.837 -0.309212 -0.371434 0.875457
-30.6546 0.730018 38.8663 -0.308853 -0.372885 0.874965
-30.4906 1.51897 39.2618 -0.308685 -0.375673 0.873831
-30.0641 2.09568 39.6598 -0.305318 -0.375785 0.874966
-29.5753 2.73506 40.1044 -0.304439 -0.377974 0.87433
-29.1342 3.30464 40.5023 -0.300243 -0.376856 0.87626
-28.5082 3.83894 40.9451 -0.298086 -0.375084 0.877756
-27.9639 4.28064 41.3181 -0.297757 -0.374507 0.878115
-27.2475 4.79977 41.7801 -0.294601 -0.375108 0.878922
-26.485 5.29119 42.2394 -0.292265 -0.367662 0.882836
-25.893 5.68824 42.5993 -0.29006 -0.368723 0.883124
-25.0636 6.06784 43.0227 -0.287411 -0.362983 0.886352
-24.1609 6.40143 43.4466 -0.280428 -0.358635 0.890348
-23.2213 6.80566 43.9024 -0.284396 -0.348125 0.893268
-22.4933 7.02363 44.2087 -0.27148 -0.33906 0.900711
