14.2927 16.0342 42.6738 0.820729 -0.115131 0.559514
14.6703 16.7447 42.2415 0.842409 -0.11169 0.527136
15.0593 17.4647 41.7926 0.854732 -0.138333 0.500297
15.4179 18.1297 41.3777 0.85197 -0.183953 0.490144
15.7676 19.1998 41.1558 0.854282 -0.198016 0.480224
15.8706 19.2571 40.9891 0.869201 -0.196064 0.453702
15.6546 18.5268 41.1008 0.867046 -0.186295 0.462087
15.2882 17.4472 41.3968 0.854713 -0.1383 0.500339
14.9745 16.6598 41.7388 0.851438 -0.101925 0.514067
14.6681 15.9058 42.0693 0.843596 -0.0843664 0.529688
14.37 14.9203 42.405 0.830415 -0.0743605 0.552161
14.0669 13.8502 42.8052 0.823371 -0.0265246 0.566884
13.7592 13.0438 43.2596 0.809633 0.0126596 0.586799
13.4792 12.4296 43.6759 0.781777 0.0611184 0.620556
13.123 11.7636 44.1968 0.784505 0.0672593 0.616465
12.7246 11.0016 44.7841 0.73467 0.126856 0.666459
12.241 10.2371 45.4454 0.725962 0.114059 0.678211
11.8851 9.7259 45.9336 0.675308 0.192257 0.710971
11.3426 9.01113 46.6068 0.646694 0.201956 0.735527
10.8108 8.31525 47.2312 0.627414 0.223515 0.744965
10.2167 7.70246 47.8724 0.573979 0.250523 0.779607
9.52683 7.00282 48.5459 0.508332 0.262248 0.819526
9.10086 6.50769 48.938 0.469368 0.246035 0.848033
8.58165 5.92379 49.4182 0.44004 0.299045 0.846294
7.93628 5.13784 49.9777 0.358065 0.270793 0.892689
7.34293 4.475 50.3967 0.330451 0.299177 0.895151
6.79998 3.81332 50.7554 0.263491 0.283049 0.922172
6.30458 3.17802 51.0591 0.209536 0.274364 0.93852
5.5622 2.35115 51.4322 0.148559 0.26169 0.95365
4.49751 2.40526 51.5578 0.0933616 0.181926 0.97887
3.71461 2.66439 51.5823 0.0890156 0.17323 0.980801
2.89785 2.95914 51.6114 0.0680738 0.161605 0.984135
1.95756 3.39855 51.5513 0.0162965 0.17925 0.983644
2.2667 4.09849 51.4347 0.0321377 0.158386 0.986798
2.75367 4.66211 51.3175 0.0707534 0.195389 0.977648
3.25879 5.33174 51.1267 0.102931 0.201747 0.974014
3.71668 5.94417 50.9456 0.161287 0.212757 0.963617
3.87624 6.15034 50.8699 0.179006 0.203694 0.962228
2.97763 6.97746 50.8573 0.129339 0.17448 0.976129
2.47564 6.32025 51.0195 0.0761186 0.143899 0.98666
1.90267 5.57756 51.1725 0.0343547 0.156741 0.987042
1.33865 4.91187 51.2988 -0.00435741 0.152884 0.988234
0.788442 4.34172 51.3718 -0.0276672 0.131776 0.990893
0.144951 3.61357 51.4375 -0.0833532 0.115563 0.989766
-0.20835 2.66824 51.516 -0.0902704 0.118297 0.988867
0.541661 2.44738 51.6011 -0.0678257 0.11183 0.99141
1.60498 2.08978 51.7187 -0.0585427 0.131518 0.989584
2.53498 1.76351 51.79 -0.0021097 0.142256 0.989828
3.32931 1.48782 51.8098 0.0618856 0.140366 0.988164
4.19257 1.19901 51.8145 0.0507952 0.172496 0.9837
5.03902 0.927519 51.8194 0.0589741 0.177906 0.9822
5.84504 0.763416 51.7605 0.121926 0.211207 0.969807
6.53052 1.45115 51.4937 0.178874 0.232659 0.955968
6.98139 2.04238 51.2513 0.219248 0.28823 0.931858
7.43464 2.63916 50.9457 0.241006 0.293893 0.924952
7.87729 3.18298 50.6293 0.292632 0.310851 0.904289
8.40233 3.82987 50.2167 0.379 0.298388 0.87597
8.84398 4.32508 49.8492 0.395374 0.309086 0.864954
9.35975 4.92677 49.3753 0.44722 0.333918 0.829195
9.85875 5.50166 48.8684 0.467783 0.3074 0.828664
10.3518 6.02271 48.341 0.520593 0.317157 0.792713
10.7713 6.491 47.8885 0.570073 0.28765 0.769593
11.1816 6.94037 47.4081 0.577333 0.302982 0.758214
11.715 7.52732 46.7468 0.628277 0.253396 0.735567
12.2235 8.13649 46.0525 0.68126 0.254947 0.686013
12.6969 8.85814 45.3397 0.701881 0.23528 0.671476
13.1374 9.57009 44.6308 0.745861 0.171825 0.643558
13.433 10.1131 44.13 0.751059 0.180069 0.635205
13.912 11.1013 43.2885 0.805141 0.112186 0.582376
14.1803 11.7708 42.7992 0.802013 0.0662589 0.593617
14.4736 12.5442 42.2654 0.832209 0.0733299 0.549592
14.6838 13.2321 41.9051 0.842656 0.0297086 0.537631
14.9345 14.1541 41.4951 0.849608 -0.0218697 0.526839
15.1331 14.8774 41.1899 0.854207 -0.0418652 0.517593
15.393 15.7195 40.8493 0.864711 -0.0563529 0.499098
15.7202 16.7557 40.4453 0.874324 -0.0824557 0.478287
15.9755 17.5687 40.1754 0.87745 -0.133091 0.460346
16.3087 18.5753 39.8762 0.875144 -0.170232 0.452627
16.672 19.573 39.5818 0.874222 -0.186391 0.448324
16.9166 20.2702 39.4246 0.87929 -0.209134 0.427916
17.1948 21.0478 39.2614 0.876658 -0.233136 0.420853
17.4803 21.8107 39.0883 0.875879 -0.24643 0.414588
17.8262 22.7431 38.9434 0.874187 -0.261151 0.409386
18.205 23.749 38.8208 0.872246 -0.290705 0.393291
18.4895 24.4445 38.7054 0.870962 -0.308651 0.382308
18.8875 25.3748 38.5419 0.875711 -0.31023 0.369982
19.1937 26.2009 38.5228 0.872944 -0.322872 0.365635
19.5217 27.1133 38.5565 0.873064 -0.330339 0.358581
19.7846 27.8332 38.5948 0.870897 -0.336888 0.357835
20.0913 28.6721 38.6511 0.867764 -0.346101 0.35665
20.3988 29.4563 38.6613 0.868256 -0.349818 0.351794
20.7111 30.2306 38.6601 0.868232 -0.352135 0.349515
21.0921 31.2214 38.7216 0.865899 -0.356909 0.350469
21.3487 32.099 38.9854 0.866473 -0.357728 0.348218
20.9117 32.095 40.0636 0.864518 -0.36069 0.350018
20.5119 31.8733 40.8217 0.864129 -0.360303 0.351373
20.0113 30.9609 41.1207 0.864547 -0.358363 0.352328
19.7275 30.1955 41.0383 0.864434 -0.356693 0.354294
19.4447 29.4113 40.9437 0.865567 -0.352684 0.355532
19.1693 28.658 40.8696 0.86312 -0.352726 0.361399
18.8731 27.8893 40.8323 0.86462 -0.348799 0.361624
18.6003 27.1874 40.8177 0.865073 -0.3399 0.368934
18.3087 26.4497 40.8214 0.865609 -0.334379 0.372708
17.9337 25.5725 40.9037 0.864934 -0.335469 0.373295
17.5948 24.7898 41.0043 0.86635 -0.324359 0.379776
17.2356 23.9407 41.0996 0.862361 -0.314735 0.39658
16.8372 23.02 41.2573 0.859438 -0.301264 0.413046
16.4499 22.1218 41.4256 0.859976 -0.280064 0.426621
16.1438 21.4003 41.5873 0.865915 -0.26053 0.426985
15.7153 20.4837 41.8696 0.856157 -0.248781 0.452883
15.3977 19.8261 42.1054 0.853214 -0.217523 0.474036
14.9943 18.9934 42.4304 0.844507 -0.208991 0.492616
14.5169 18.0322 42.8583 0.834629 -0.200624 0.512976
14.1162 17.2785 43.247 0.822039 -0.175791 0.541618
13.6705 16.471 43.6765 0.809426 -0.152189 0.567158
13.2506 15.7583 44.1138 0.798381 -0.12777 0.588441
12.7882 15.018 44.5873 0.765776 -0.0628376 0.64003
12.2835 14.3357 45.1458 0.747358 -0.0477798 0.661284
11.8095 13.8212 45.5954 0.726422 -0.0318574 0.68597
11.2211 13.2096 46.1692 0.681487 -0.0170153 0.731633
10.5352 12.641 46.7867 0.643216 0.01774 0.765468
9.86201 12.1019 47.3433 0.59211 0.0385521 0.804032
9.06939 11.5311 47.9227 0.542933 0.0644537 0.836413
8.21768 11.0908 48.4702 0.486019 0.0786609 0.869663
7.32562 10.7177 48.9708 0.431477 0.104108 0.895193
6.63462 10.395 49.307 0.402094 0.118027 0.907821
5.95951 10.069 49.6253 0.339288 0.124777 0.93237
5.34299 9.68179 49.8892 0.280993 0.145708 0.948584
4.73069 9.24783 50.1313 0.273083 0.135445 0.952408
4.18035 8.70829 50.3438 0.234694 0.145694 0.961089
3.66645 7.98758 50.5786 0.190685 0.160075 0.968512
3.19233 7.28206 50.7812 0.125982 0.152183 0.98029
3.01194 7.02405 50.8445 0.127661 0.163331 0.97821
2.03064 7.77171 50.8458 0.079148 0.13996 0.986989
2.55307 8.57067 50.6679 0.125539 0.144738 0.981474
3.21152 9.56397 50.4347 0.168873 0.126814 0.977446
3.90265 10.2406 50.2092 0.226045 0.0872374 0.970203
4.65696 10.755 49.9615 0.271309 0.110761 0.956098
5.33399 11.1751 49.7289 0.313648 0.0660697 0.947238
6.03888 11.5584 49.451 0.349703 0.0737161 0.933956
6.90268 11.9367 49.072 0.404819 0.0480329 0.913134
7.78405 12.2728 48.6329 0.460371 0.0270362 0.887315
8.65579 12.7049 48.1313 0.517686 0.00665789 0.855545
9.43817 13.2634 47.6242 0.579944 -0.0294199 0.8136
9.97268 13.6516 47.2662 0.60734 -0.0809381 0.789067
10.7211 14.2645 46.6971 0.662694 -0.0465595 0.746167
11.3891 14.9504 46.1509 0.704319 -0.0808111 0.704385
11.936 15.4997 45.6767 0.719183 -0.146608 0.679178
12.5195 16.2864 45.1443 0.748687 -0.162146 0.640938
13.0966 17.0828 44.6497 0.785862 -0.179404 0.591754
13.4828 17.7125 44.3169 0.794825 -0.191234 0.575488
13.8582 18.3315 44 0.814755 -0.210004 0.540437
14.3279 19.1904 43.6339 0.822827 -0.245425 0.512565
14.6613 19.8206 43.3851 0.837161 -0.254 0.483585
15.0901 20.6095 43.0956 0.834964 -0.280454 0.473476
15.5444 21.4779 42.8048 0.843478 -0.300392 0.445319
15.9495 22.3652 42.6111 0.853395 -0.297144 0.428279
16.3638 23.2824 42.4542 0.852274 -0.319794 0.413957
16.7496 24.1222 42.2986 0.85853 -0.326024 0.395701
17.1124 24.9294 42.1895 0.856502 -0.336693 0.391207
17.4428 25.6971 42.1245 0.860315 -0.342741 0.377218
17.8001 26.497 42.0493 0.860588 -0.349539 0.37042
18.1662 27.384 42.0292 0.863469 -0.34561 0.367368
18.5031 28.2114 42.0306 0.864484 -0.35449 0.356375
18.7839 28.9247 42.0627 0.863656 -0.356803 0.356076
19.1521 29.9052 42.1525 0.864471 -0.358715 0.352155
19.5009 30.8422 42.2514 0.864264 -0.359202 0.352167
19.7831 31.6176 42.3501 0.864035 -0.359678 0.352243
20.2526 32.6539 42.2584 0.863769 -0.360449 0.352106
20.6474 32.9412 41.5858 0.863459 -0.361791 0.351489
20.9899 33.1195 40.9268 0.863911 -0.361723 0.350449
21.3449 33.2755 40.2112 0.864242 -0.361423 0.349941
21.7373 33.3982 39.3657 0.864908 -0.361563 0.348147
22.2014 33.5301 38.3461 0.865686 -0.361823 0.345935
22.074 32.6647 37.761 0.866056 -0.360939 0.345932
21.6546 31.488 37.5906 0.866802 -0.358645 0.346451
21.2715 30.4746 37.5114 0.869477 -0.352414 0.346126
20.917 29.5706 37.4896 0.870039 -0.349709 0.34747
20.6325 28.8179 37.4559 0.871188 -0.344074 0.350205
20.317 27.9173 37.3649 0.874143 -0.334238 0.352363
20.0609 27.2013 37.3201 0.876347 -0.32873 0.352007
19.6909 26.1974 37.3161 0.876089 -0.325187 0.35598
19.2865 25.139 37.3888 0.879189 -0.311297 0.360723
18.9779 24.3994 37.5254 0.878901 -0.298764 0.371851
18.6224 23.4709 37.6485 0.884232 -0.276904 0.376109
18.3662 22.7439 37.7252 0.885291 -0.257468 0.387244
18.0784 21.8998 37.8393 0.890858 -0.239817 0.385824
17.6938 20.8203 38.0664 0.884386 -0.221213 0.411006
17.3629 19.8649 38.2905 0.89198 -0.202461 0.404204
17.0749 18.9843 38.5142 0.883221 -0.173786 0.435568
16.7978 18.1314 38.7603 0.889047 -0.151616 0.431981
16.554 17.3703 39.0068 0.886101 -0.113259 0.449441
16.2615 16.359 39.3529 0.886126 -0.079047 0.456653
15.9893 15.3861 39.7309 0.882252 -0.0545115 0.46759
15.7369 14.4447 40.1247 0.879684 -0.0247109 0.474916
15.5255 13.6099 40.4982 0.867161 0.0218295 0.497406
15.2969 12.6035 40.9577 0.848596 0.0638198 0.525178
15.1329 11.9186 41.3204 0.852941 0.0822651 0.515484
14.9439 11.2642 41.7487 0.83542 0.119266 0.536403
14.7012 10.604 42.2729 0.82739 0.134175 0.545301
14.4023 9.79567 42.9443 0.813374 0.164899 0.55788
14.0408 9.00325 43.6913 0.768823 0.227286 0.597706
13.7474 8.46813 44.2615 0.759544 0.214756 0.613981
13.3885 7.81266 44.9573 0.724601 0.265822 0.635294
13.1013 7.3235 45.4743 0.708174 0.278222 0.648908
12.7209 6.81533 46.0925 0.673096 0.31195 0.670544
12.3108 6.34668 46.7034 0.645592 0.30342 0.700497
11.7486 5.75028 47.432 0.613293 0.3084 0.726936
11.3773 5.29237 47.9158 0.564332 0.329985 0.75673
10.8165 4.67739 48.5886 0.5174 0.353638 0.779254
10.3885 4.18359 49.0812 0.493657 0.334878 0.802595
9.94386 3.70272 49.5404 0.452437 0.33829 0.825143
9.41166 3.11872 50.041 0.381772 0.33681 0.860703
8.87915 2.44564 50.5184 0.342709 0.327046 0.880677
8.40853 1.8947 50.885 0.279229 0.318574 0.905838
7.74429 0.970268 51.3688 0.221084 0.280925 0.933918
7.29946 0.3175 51.6686 0.187966 0.274518 0.943022
6.87612 -0.307012 51.919 0.129558 0.251504 0.959146
6.1168 -0.688276 52.0766 0.0691147 0.225095 0.971882
5.26473 -0.51994 52.084 0.0184741 0.173735 0.984619
4.34499 -0.182885 52.0477 0.0317501 0.160149 0.986582
3.4176 0.136384 52.0072 -0.0062232 0.164554 0.986348
2.59888 0.41155 51.9736 0.00133465 0.125797 0.992055
1.82954 0.680115 51.9339 -0.0807842 0.125877 0.988384
1.04179 0.947864 51.8265 -0.0988987 0.105968 0.989439
0.229123 1.21819 51.7221 -0.0918419 0.107272 0.989973
-0.659425 1.46769 51.5726 -0.14952 0.0922975 0.984383
-1.38673 1.72166 51.4262 -0.193532 0.0857955 0.977335
-2.28351 2.01507 51.2041 -0.245015 0.0542474 0.968001
-3.022 2.25611 51.002 -0.250334 0.054339 0.966634
-2.37486 3.00422 51.1178 -0.236658 0.0796399 0.968323
-1.72992 3.50715 51.2161 -0.168275 0.101426 0.980411
-1.00324 4.25029 51.2593 -0.136736 0.0868411 0.986612
-0.414447 4.91777 51.2407 -0.0650786 0.120349 0.990484
0.310699 5.67772 51.1633 -0.0216825 0.116077 0.992466
0.882423 6.29396 51.1119 0.030244 0.13091 0.990933
1.43904 6.99131 51.0002 0.0694555 0.134809 0.98841
1.89112 7.56574 50.8862 0.0791481 0.13996 0.986989
0.922012 8.31051 50.8508 0.0678345 0.141055 0.98765
1.52671 9.30435 50.6919 0.0718175 0.0947271 0.992767
1.92818 10.0026 50.5775 0.129949 0.101871 0.986274
2.38705 10.6054 50.4645 0.154278 0.0806919 0.984727
3.01175 11.1623 50.3216 0.19451 0.0506025 0.979483
3.66302 11.6173 50.1639 0.222721 0.0523216 0.973293
4.47055 12.1351 49.947 0.241169 -0.00222838 0.97047
5.19325 12.5622 49.7288 0.312698 -0.00578685 0.949835
6.12011 12.9807 49.408 0.372563 -0.0319853 0.927456
6.94878 13.307 49.0717 0.420375 -0.0516593 0.905879
7.74162 13.6104 48.6956 0.48139 -0.0707279 0.873648
8.67844 14.1687 48.2064 0.537187 -0.12669 0.833895
9.42695 14.6851 47.7694 0.580797 -0.10047 0.807824
10.2047 15.2673 47.2719 0.635182 -0.142853 0.759037
10.7124 15.7075 46.9254 0.687982 -0.122859 0.715183
11.3327 16.3339 46.4882 0.696718 -0.223337 0.681692
11.8552 16.8757 46.1219 0.747263 -0.215714 0.628542
12.4302 17.5674 45.6939 0.756821 -0.252134 0.601774
12.9044 18.2329 45.3272 0.772039 -0.268572 0.575278
13.3262 18.8588 45.0353 0.805012 -0.276022 0.525136
13.7333 19.4997 44.7726 0.822749 -0.299483 0.483109
14.1407 20.2094 44.5176 0.82347 -0.298293 0.482617
14.549 20.9161 44.2654 0.834514 -0.309431 0.455893
14.9794 21.7003 44.0296 0.836775 -0.338922 0.430044
15.4071 22.4915 43.8196 0.84515 -0.326359 0.42304
15.8687 23.4629 43.6416 0.852759 -0.34077 0.395772
16.2095 24.1811 43.5138 0.853623 -0.334883 0.398969
16.6132 25.0079 43.3752 0.855125 -0.356734 0.376167
16.9543 25.7821 43.3195 0.858162 -0.356353 0.369466
17.2741 26.5136 43.2866 0.857951 -0.358675 0.367794
17.7106 27.4906 43.2232 0.858541 -0.363953 0.361081
18.0736 28.3576 43.2173 0.863186 -0.358456 0.355554
18.4546 29.3193 43.265 0.86391 -0.359286 0.352947
18.7427 30.1114 43.3705 0.864289 -0.360663 0.350607
19.003 30.8295 43.4646 0.865034 -0.358969 0.350511
19.2835 31.608 43.5698 0.865441 -0.35888 0.349596
19.5615 32.3161 43.6103 0.864284 -0.359687 0.351621
19.9759 33.3248 43.6238 0.864072 -0.359238 0.3526
20.3624 33.8372 43.199 0.863098 -0.360295 0.353905
20.7863 34.0396 42.3707 0.863229 -0.360451 0.353428
21.1971 34.2219 41.5509 0.86362 -0.360413 0.35251
21.592 34.4125 40.7759 0.863806 -0.361567 0.350866
22.0059 34.5538 39.8988 0.864529 -0.3615 0.349153
22.3404 34.6362 39.1546 0.86451 -0.361975 0.348706
22.848 34.8422 38.1039 0.865428 -0.362836 0.34552
23.2511 34.9511 37.2069 0.865785 -0.363072 0.344375
22.9983 33.9817 36.8188 0.866108 -0.362781 0.343869
22.7454 33.2184 36.6522 0.866637 -0.362319 0.343021
22.4793 32.4576 36.524 0.868242 -0.360189 0.341202
22.2007 31.6944 36.4284 0.869666 -0.357078 0.340848
21.873 30.8174 36.3459 0.87018 -0.354891 0.341809
21.4747 29.8053 36.3205 0.872029 -0.350784 0.341345
21.2016 29.0905 36.2933 0.873674 -0.345211 0.342816
20.7972 27.926 36.1651 0.87526 -0.3376 0.346332
20.4814 27.0483 36.1257 0.879461 -0.3245 0.348206
20.2176 26.3361 36.1324 0.880148 -0.321279 0.349456
19.9219 25.5128 36.143 0.882888 -0.312035 0.350905
19.4706 24.4018 36.3279 0.885466 -0.293729 0.360101
19.1084 23.3831 36.428 0.891818 -0.27063 0.36252
18.7331 22.2616 36.5417 0.892835 -0.248509 0.375617
18.3662 21.2183 36.7492 0.899547 -0.232162 0.370022
18.0843 20.3509 36.927 0.899861 -0.203581 0.385519
17.7451 19.3012 37.1814 0.902216 -0.183505 0.390297
17.4341 18.2928 37.4669 0.902488 -0.155809 0.401546
17.2193 17.5749 37.6847 0.905101 -0.119372 0.408088
16.9613 16.6805 37.9898 0.904359 -0.104069 0.41353
16.7544 15.88 38.269 0.89867 -0.0840936 0.430488
16.5418 15.054 38.607 0.898218 -0.0534183 0.436292
16.3342 14.159 38.9745 0.893466 -0.0270254 0.448318
16.139 13.2982 39.3824 0.887969 0.0150591 0.459657
16.0089 12.6268 39.6984 0.87737 0.0526578 0.476916
15.8645 11.8331 40.0829 0.870977 0.0916752 0.482605
15.6995 10.9888 40.5574 0.860894 0.122753 0.493638
15.4893 10.2422 41.1231 0.848842 0.151959 0.506147
15.265 9.55152 41.7159 0.842181 0.189702 0.504721
15.0426 8.89496 42.2981 0.824424 0.199134 0.529783
14.8316 8.26991 42.881 0.801485 0.230315 0.551885
14.5306 7.62423 43.6007 0.773897 0.251943 0.580995
14.214 6.98254 44.3223 0.753016 0.291428 0.58981
13.9306 6.46163 44.9236 0.7429 0.305041 0.595497
13.6261 6.02286 45.5046 0.71537 0.323224 0.619493
13.2941 5.62084 46.07 0.689925 0.32723 0.645697
12.8945 5.18776 46.68 0.668048 0.308697 0.677065
12.4573 4.6142 47.3727 0.589635 0.364849 0.720567
12.0009 4.05245 48.0174 0.578855 0.353987 0.734589
11.5475 3.57502 48.6011 0.530686 0.383613 0.755787
11.1281 3.1386 49.0974 0.477109 0.37647 0.793895
10.4622 2.42297 49.8204 0.422139 0.381953 0.822106
10.0056 1.87778 50.287 0.369233 0.364344 0.854939
9.51047 1.27505 50.7368 0.327922 0.360608 0.873172
8.92305 0.438154 51.2341 0.240953 0.324658 0.914625
8.55304 -0.144167 51.5363 0.199554 0.318472 0.92669
8.12336 -0.760379 51.827 0.184878 0.285775 0.940294
7.6594 -1.40432 52.0885 0.142037 0.231509 0.962341
7.14367 -1.91289 52.2572 0.0795133 0.181187 0.980229
6.35761 -2.06374 52.3303 0.0184239 0.15885 0.986706
5.52039 -1.94774 52.3132 -0.0178423 0.123804 0.992106
4.35846 -1.55253 52.2597 0.00136013 0.12147 0.992575
3.55796 -1.23477 52.2084 -0.0345074 0.12419 0.991658
2.77685 -0.968558 52.1397 -0.0431545 0.127218 0.990928
1.95254 -0.697434 52.0663 -0.0653037 0.0702241 0.995391
1.05879 -0.39727 51.9537 -0.149575 0.0556814 0.987153
0.132469 -0.10211 51.8094 -0.12084 0.0576306 0.990998
-0.872854 0.184928 51.6275 -0.204496 0.0460215 0.977785
-1.73532 0.492399 51.4218 -0.226669 0.0550113 0.972417
-2.52066 0.739946 51.2048 -0.254682 0.00929909 0.96698
-3.4192 1.03348 50.9524 -0.289562 -0.00232986 0.957156
-4.22357 1.30269 50.6985 -0.31268 0.0021623 0.949854
-5.14437 1.516 50.3769 -0.35556 0.00485251 0.934641
-5.84712 1.66295 50.1117 -0.354221 -0.0227644 0.934685
-6.67109 1.85491 49.7847 -0.386813 -0.0451407 0.921016
-7.38338 2.03806 49.4892 -0.392984 -0.0481838 0.918282
-8.29171 2.24408 49.1026 -0.398827 -0.0625983 0.914886
-9.10977 2.55696 48.7657 -0.396387 -0.0706171 0.915318
-9.81401 2.65222 48.4551 -0.414027 -0.107822 0.903856
-10.7703 2.83432 48.0533 -0.39722 -0.120687 0.909753
-11.6195 3.03527 47.7039 -0.411943 -0.146099 0.899421
-12.5286 3.17444 47.3219 -0.397858 -0.167551 0.902014
-13.3216 3.09319 46.9595 -0.400218 -0.180331 0.898388
-14.1005 3.11706 46.6217 -0.39171 -0.211177 0.895527
-14.9822 3.16785 46.2533 -0.385865 -0.224728 0.894743
-15.7961 3.13027 45.8929 -0.384028 -0.236658 0.89244
-16.669 3.0201 45.4896 -0.37886 -0.259855 0.888165
-17.6788 2.9347 45.0416 -0.373555 -0.266799 0.888412
-18.4072 2.88118 44.727 -0.359873 -0.286792 0.887809
-19.2757 2.82395 44.3548 -0.351992 -0.302875 0.885645
-19.9876 2.81184 44.0661 -0.349158 -0.309034 0.884601
-20.8429 2.72719 43.705 -0.3403 -0.315736 0.885711
-21.7579 2.61514 43.3216 -0.328911 -0.323192 0.887335
-22.5573 2.47319 42.9748 -0.322332 -0.335754 0.885083
-23.3055 2.31773 42.6416 -0.319619 -0.340953 0.884051
-24.2397 2.18481 42.2552 -0.319203 -0.347299 0.881756
-25.1804 2.21086 41.9285 -0.316686 -0.352322 0.88067
-25.1728 2.54772 42.066 -0.312318 -0.354921 0.881171
-24.6851 2.91885 42.3881 -0.31319 -0.352092 0.882011
-23.9464 3.26371 42.7828 -0.305563 -0.347855 0.886357
-23.2295 3.5823 43.1577 -0.309711 -0.341306 0.887462
-22.4429 3.86719 43.5395 -0.311277 -0.335971 0.888928
-21.7752 4.07025 43.8524 -0.314266 -0.331748 0.889483
-21.1179 4.28613 44.1627 -0.314192 -0.320357 0.893618
-20.328 4.56766 44.5473 -0.322548 -0.309284 0.894577
-19.6239 4.70777 44.8473 -0.318876 -0.295959 0.9004
-18.9416 4.83393 45.1376 -0.33509 -0.281299 0.89919
-18.209 4.89078 45.4279 -0.34443 -0.270004 0.899147
-17.4234 4.9542 45.7428 -0.335374 -0.259658 0.905546
-16.5414 4.93521 46.0677 -0.350753 -0.242864 0.904354
-15.407 4.88932 46.4947 -0.34812 -0.224087 0.910242
-14.4908 4.79524 46.8295 -0.354967 -0.197425 0.913796
-13.6701 4.63422 47.1249 -0.356657 -0.179753 0.916779
-12.9016 4.42622 47.3975 -0.375408 -0.165618 0.911943
-12.0592 4.14513 47.6917 -0.381945 -0.143546 0.912969
-11.1623 3.93314 48.0379 -0.388801 -0.139007 0.910775
-10.3204 3.70422 48.3575 -0.38625 -0.101185 0.916828
-9.52399 3.33379 48.652 -0.391973 -0.0897554 0.915495
-8.67107 3.1318 49.003 -0.392439 -0.0787791 0.916398
-7.81922 3.02621 49.3521 -0.381237 -0.035265 0.923805
-6.99513 2.95517 49.6832 -0.368849 -0.0371271 0.928748
-6.2591 2.95662 49.965 -0.352927 -0.00371052 0.935529
-5.28144 3.05697 50.3091 -0.301562 0.0325233 0.952892
-4.1551 3.43157 50.6341 -0.275219 0.0538468 0.959872
-3.51281 3.79069 50.7984 -0.236534 0.0375361 0.970448
-2.86667 4.21959 50.9208 -0.22404 0.0595943 0.972756
-2.23578 4.77368 51.0142 -0.187924 0.0506815 0.980875
-1.71654 5.33426 51.0641 -0.12494 0.104936 0.986462
-1.19479 5.88492 51.0551 -0.0704672 0.108694 0.991063
-0.550337 6.58641 51.0494 -0.0576572 0.0860134 0.994428
-0.0265777 7.13473 51.0262 -0.0178147 0.0987188 0.994526
0.650528 7.95618 50.9055 -0.0013545 0.147822 0.989013
0.878204 8.25262 50.8616 0.0304557 0.142356 0.98882
-0.162961 8.99412 50.7918 0.0102437 0.081951 0.996518
-0.626772 8.32382 50.8472 -0.0484359 0.0948793 0.9943
-1.37096 7.54009 50.8672 -0.0883033 0.0883593 0.991869
-2.14475 6.77482 50.8638 -0.118822 0.0832944 0.989416
-2.76219 6.01855 50.8381 -0.173325 0.0851775 0.981174
-3.38979 5.40367 50.759 -0.21673 0.0327673 0.975663
-4.25252 4.81094 50.568 -0.252643 0.0089721 0.967518
-5.13059 4.39393 50.3315 -0.274026 0.00817847 0.961688
-5.89662 4.26953 50.1039 -0.310496 -0.00551377 0.950463
-6.75701 4.23922 49.8097 -0.328501 -0.0138839 0.944402
-7.59683 4.26134 49.497 -0.356192 -0.0332683 0.93382
-8.60891 4.42332 49.1233 -0.361248 -0.0597384 0.930374
-9.50929 4.71038 48.7912 -0.357778 -0.0953443 0.928926
-10.2373 4.98847 48.5376 -0.363866 -0.0998704 0.926082
-11.1841 5.24209 48.2006 -0.364223 -0.111153 0.924557
-12.0023 5.47128 47.9145 -0.34978 -0.136824 0.926722
-12.7953 5.7096 47.6551 -0.349583 -0.157251 0.923571
-13.5224 5.9152 47.4223 -0.349042 -0.164776 0.922471
-14.3523 6.02739 47.1374 -0.340858 -0.183581 0.922016
-15.145 6.12128 46.8704 -0.328128 -0.198242 0.923597
-15.9006 6.17412 46.6127 -0.322428 -0.212993 0.922319
-16.6809 6.17637 46.3393 -0.326884 -0.223759 0.918119
-17.6654 6.1627 45.9941 -0.323242 -0.254573 0.91139
-18.3739 6.13245 45.7416 -0.307634 -0.272497 0.911651
-19.1147 6.07887 45.469 -0.308008 -0.285546 0.907424
-20.0401 5.91022 45.1043 -0.305858 -0.304888 0.901939
-20.8139 5.7202 44.781 -0.299401 -0.320348 0.898741
-21.5755 5.48476 44.4402 -0.305048 -0.322976 0.895897
-22.3165 5.2054 44.0902 -0.301868 -0.335407 0.8924
-23.0444 4.96885 43.7551 -0.295112 -0.345365 0.89086
-23.8114 4.70142 43.3946 -0.296511 -0.34863 0.889117
-24.6388 4.30447 42.96 -0.298742 -0.355155 0.885785
-25.3052 3.94483 42.5876 -0.303096 -0.358617 0.882908
-25.9611 3.54019 42.1986 -0.299716 -0.364815 0.881522
-26.5987 3.08318 41.7906 -0.303244 -0.366531 0.879601
-27.2542 2.61155 41.3691 -0.300543 -0.366695 0.880459
-27.8226 2.16802 40.9882 -0.305263 -0.367758 0.878389
-28.5776 1.52092 40.4535 -0.308685 -0.367993 0.877094
-29.1343 1.01102 40.043 -0.312983 -0.367969 0.87558
-29.54 0.470024 39.6721 -0.31166 -0.364967 0.877307
-29.9342 -0.124388 39.2842 -0.312016 -0.365959 0.876767
-29.1375 -0.0794351 39.5865 -0.3124 -0.36556 0.876796
-28.4258 0.0480856 39.894 -0.313707 -0.36421 0.876892
-27.5995 0.267892 40.278 -0.313752 -0.361648 0.877929
-26.8677 0.523735 40.6442 -0.313884 -0.358892 0.879019
-26.2094 0.708706 40.955 -0.318068 -0.356419 0.878508
-25.3406 0.858384 41.3315 -0.3184 -0.352153 0.880119
-24.5014 0.950318 41.6742 -0.32193 -0.346346 0.881139
-23.5607 1.04833 42.0587 -0.327571 -0.340969 0.881157
-22.7226 1.1843 42.4237 -0.336118 -0.333098 0.880948
-21.8352 1.34852 42.8225 -0.333467 -0.331954 0.882387
-21.0279 1.47401 43.183 -0.34565 -0.318589 0.882625
-20.3347 1.55538 43.4886 -0.358627 -0.312351 0.87966
-19.6379 1.61968 43.7931 -0.363447 -0.303656 0.880696
-18.8749 1.6333 44.1196 -0.368239 -0.297504 0.880839
-18.1574 1.67566 44.4381 -0.376404 -0.290157 0.879843
-17.4411 1.70653 44.761 -0.387307 -0.270049 0.881514
-16.5172 1.75565 45.1862 -0.393448 -0.268838 0.879161
-15.7974 1.88984 45.55 -0.39858 -0.251919 0.881856
-14.9901 1.97821 45.9418 -0.412039 -0.238694 0.879341
-14.2983 1.94419 46.2513 -0.404634 -0.216776 0.888414
-13.2841 1.83098 46.7011 -0.427674 -0.201313 0.881223
-12.4508 1.77692 47.0915 -0.421928 -0.171898 0.890178
-11.616 1.69637 47.4814 -0.431737 -0.158627 0.887941
-10.8035 1.57636 47.8543 -0.424661 -0.146325 0.893327
-10.107 1.44758 48.1654 -0.423807 -0.121081 0.897623
-9.13431 1.18809 48.6072 -0.44103 -0.103722 0.891476
-8.39808 0.968765 48.9439 -0.442723 -0.0969721 0.891365
-7.47022 0.722994 49.3649 -0.414467 -0.0689526 0.907389
-6.71498 0.533013 49.7053 -0.424868 -0.0315934 0.904704
-5.81014 0.340103 50.1114 -0.395177 -0.030306 0.917856
-4.9726 0.163742 50.4401 -0.339556 -0.00682314 0.94036
-4.27512 -0.0616689 50.6795 -0.325207 0.0100616 0.945589
-3.16975 -0.419891 51.0288 -0.282573 0.0124677 0.959165
-2.23172 -0.718873 51.3075 -0.259664 0.029086 0.965261
-1.54011 -0.950174 51.5032 -0.272847 0.0154574 0.96193
-0.47641 -1.27251 51.7551 -0.202064 0.0152403 0.978934
0.516114 -1.59166 51.9302 -0.148116 0.0467841 0.987863
1.48508 -1.87886 52.0905 -0.149151 0.0499935 0.98755
2.52826 -2.22439 52.2139 -0.105636 0.0679168 0.991732
3.52969 -2.58422 52.3232 -0.0783329 0.0729077 0.994258
4.25341 -2.88503 52.3794 -0.0522977 0.103922 0.99321
5.26514 -3.24419 52.464 -0.0395377 0.103786 0.993814
6.22652 -3.39604 52.513 0.00676993 0.142557 0.989763
6.99566 -3.42509 52.5128 0.0114327 0.156037 0.987548
7.93331 -3.20353 52.4342 0.0406875 0.18223 0.982414
8.46383 -2.49398 52.2466 0.0954613 0.259039 0.961138
8.93136 -1.81468 52.0076 0.162478 0.303105 0.93892
9.35202 -1.21482 51.7432 0.212192 0.353593 0.911014
9.83239 -0.52777 51.3661 0.244823 0.362843 0.898323
10.3113 0.294453 50.8648 0.309898 0.388612 0.866946
10.8204 0.922955 50.3704 0.378047 0.401973 0.832702
11.3454 1.51925 49.8032 0.444743 0.405367 0.797664
11.8178 2.05377 49.2258 0.475337 0.405982 0.780442
12.4062 2.62819 48.4904 0.548053 0.430794 0.716103
12.8696 3.10518 47.8401 0.569731 0.406036 0.714522
13.3692 3.73614 47.0102 0.616574 0.398935 0.678739
13.7492 4.27455 46.3101 0.671478 0.375434 0.638336
14.0816 4.70138 45.7173 0.702242 0.353275 0.617589
14.405 5.13643 45.0736 0.718384 0.348167 0.602229
14.7138 5.577 44.428 0.743002 0.345177 0.573411
15.0087 6.14327 43.7053 0.764839 0.331976 0.552099
15.2549 6.64968 43.0771 0.788633 0.303032 0.535005
15.4934 7.272 42.3716 0.804975 0.270685 0.527963
15.6551 7.79286 41.8127 0.82229 0.255225 0.507678
15.8646 8.5293 41.1178 0.838936 0.240023 0.488441
16.0401 9.17221 40.5402 0.858021 0.201123 0.472599
16.219 9.87085 39.9496 0.865554 0.150116 0.477747
16.3574 10.5035 39.4838 0.881948 0.139868 0.450004
16.4452 11.1833 39.1184 0.881744 0.108222 0.458601
16.5763 12.0367 38.6837 0.890499 0.0971356 0.444495
16.7466 13.0645 38.1892 0.900207 0.0620961 0.431013
16.8925 13.831 37.838 0.901547 0.0197625 0.432187
17.0469 14.5815 37.5227 0.906169 -0.0145644 0.422665
17.1969 15.259 37.2342 0.905972 -0.0570467 0.41944
17.3638 15.9793 36.9607 0.913515 -0.0556875 0.402976
17.5713 16.8052 36.6654 0.913487 -0.0859149 0.397693
17.8203 17.7412 36.3664 0.914172 -0.116872 0.388111
18.0758 18.6535 36.1097 0.911605 -0.160177 0.378272
18.2902 19.3812 35.9264 0.912677 -0.179617 0.366929
18.5871 20.3586 35.7009 0.908225 -0.207138 0.363383
18.9305 21.411 35.4711 0.908946 -0.216758 0.356137
19.2282 22.2862 35.3149 0.903009 -0.25037 0.349102
19.4821 23.0922 35.2539 0.896937 -0.269462 0.350482
19.8994 24.2625 35.1268 0.892032 -0.285826 0.350118
20.2543 25.1331 34.9616 0.883995 -0.307813 0.351807
20.5255 25.8719 34.9178 0.88608 -0.310623 0.343995
20.864 26.8002 34.9106 0.881866 -0.32208 0.344349
21.1555 27.6111 34.9379 0.878516 -0.334043 0.341505
21.4364 28.4347 35.0275 0.876457 -0.34215 0.338742
21.8613 29.5962 35.1157 0.873655 -0.348867 0.339135
22.2763 30.6517 35.1429 0.871076 -0.354861 0.339554
22.5612 31.4075 35.2061 0.870035 -0.356882 0.34011
22.9458 32.4547 35.3335 0.868067 -0.361206 0.340572
23.2796 33.4028 35.4933 0.866732 -0.363712 0.341305
23.5303 34.1345 35.6363 0.866286 -0.364372 0.341731
23.8254 35.0438 35.8575 0.865771 -0.36453 0.342868
24.0923 35.8794 36.0714 0.865449 -0.364045 0.344193
24.0657 36.4944 36.7882 0.86553 -0.363694 0.34436
23.6206 36.2911 37.6924 0.865651 -0.363463 0.344302
23.2095 36.0464 38.4642 0.865337 -0.362793 0.345793
22.7983 35.8316 39.262 0.864036 -0.363106 0.348705
22.3783 35.7385 40.2042 0.864363 -0.361908 0.349141
22.0502 35.6156 40.8838 0.863791 -0.360174 0.352335
21.7136 35.4658 41.5557 0.86357 -0.359371 0.353694
21.2324 35.2604 42.521 0.863272 -0.359604 0.354184
20.83 35.0479 43.2862 0.863495 -0.358374 0.354887
20.496 34.9428 43.9923 0.863722 -0.357853 0.35486
20.0897 34.764 44.8024 0.864838 -0.356816 0.353178
19.7228 34.0778 45.0099 0.865401 -0.356612 0.352009
19.3782 33.0466 44.8106 0.865023 -0.358699 0.350812
19.0245 32.1635 44.7806 0.866237 -0.358072 0.348451
18.7252 31.3694 44.7105 0.867176 -0.35763 0.346559
18.4298 30.5243 44.5744 0.866571 -0.358388 0.347294
18.1549 29.7665 44.4785 0.866501 -0.359522 0.346291
17.7926 28.8778 44.447 0.865723 -0.365378 0.342084
17.4489 28.0277 44.4123 0.864047 -0.365442 0.346229
17.0703 27.1977 44.4748 0.861102 -0.36728 0.351581
16.7566 26.505 44.5185 0.860739 -0.368178 0.351531
16.4305 25.7586 44.5257 0.856457 -0.3695 0.360324
16.059 24.9631 44.6011 0.856401 -0.363981 0.36617
15.6685 24.1957 44.7401 0.851396 -0.376321 0.365385
15.1932 23.2968 44.9345 0.836297 -0.362616 0.411238
14.8165 22.5464 45.0418 0.837628 -0.359431 0.411325
14.308 21.6594 45.2681 0.826353 -0.356079 0.436289
13.767 20.8046 45.5857 0.808659 -0.342633 0.477413
13.2462 19.9863 45.8459 0.800231 -0.337104 0.495976
12.8238 19.3964 46.0696 0.767669 -0.341086 0.542193
12.1287 18.5381 46.4843 0.734574 -0.319804 0.597627
11.3616 17.6991 46.95 0.692147 -0.288524 0.660849
10.7012 17.0848 47.3576 0.646457 -0.291668 0.704999
10.1679 16.6401 47.6617 0.615415 -0.246411 0.748618
9.57604 16.1757 47.9975 0.587627 -0.256978 0.766167
8.84747 15.6593 48.3605 0.550159 -0.162929 0.819011
8.143 15.2016 48.7029 0.490731 -0.181803 0.851762
7.44757 14.8485 49.0114 0.470951 -0.172658 0.865098
6.65795 14.5348 49.3183 0.388621 -0.156305 0.908043
5.61125 14.1093 49.6727 0.309312 -0.0737768 0.948095
4.83014 13.8021 49.9056 0.272329 -0.0668708 0.958941
4.16916 13.4761 50.0417 0.243476 -0.0463244 0.968556
3.39956 12.9622 50.1946 0.189239 -0.0398786 0.981121
2.66981 12.4904 50.334 0.178222 0.00268563 0.983987
2.00631 12.017 50.4356 0.118473 0.0330267 0.992107
1.28742 11.3294 50.5514 0.0956683 0.041603 0.994543
0.778874 10.5556 50.6398 0.0536272 0.0655627 0.996406
0.258387 9.68873 50.7337 0.0179335 0.0743469 0.99707
-0.0438074 9.20534 50.7743 0.0172806 0.0729271 0.997188
-1.1262 9.90451 50.7198 -0.0125363 0.0475636 0.99879
-1.60463 9.1568 50.746 -0.0629583 0.0529954 0.996374
-2.3596 8.36404 50.7083 -0.117499 0.0515096 0.991368
-2.94783 7.80328 50.6716 -0.142301 0.0556448 0.988258
-3.68118 6.97162 50.603 -0.186923 0.0652364 0.980206
-4.22877 6.34841 50.5257 -0.214013 0.0490829 0.975597
-5.09116 5.8166 50.3354 -0.250495 0.0184334 0.967933
-5.9445 5.54769 50.0924 -0.290506 -0.0107515 0.956813
-6.71819 5.53216 49.8472 -0.315267 -0.0250847 0.948671
-7.55264 5.53461 49.5637 -0.331272 -0.0477806 0.942325
-8.32781 5.66655 49.2988 -0.329154 -0.0482017 0.943045
-9.10909 5.95071 49.0396 -0.336974 -0.0702895 0.938887
-9.84013 6.22448 48.8036 -0.331559 -0.0808448 0.939939
-10.7314 6.43536 48.5037 -0.323143 -0.0978061 0.941254
-11.5992 6.71708 48.2329 -0.327079 -0.120194 0.937286
-12.3216 6.91102 48.0126 -0.319481 -0.123346 0.939531
-13.2188 7.09612 47.7311 -0.32688 -0.151638 0.93282
-14.146 7.27641 47.4458 -0.32248 -0.166428 0.931783
-15.1 7.365 47.145 -0.306009 -0.182623 0.934349
-15.8793 7.40281 46.9013 -0.295369 -0.214467 0.930921
-16.5968 7.47013 46.6864 -0.299927 -0.225619 0.926897
-17.4066 7.3906 46.4135 -0.288024 -0.245484 0.925601
-18.3209 7.38578 46.127 -0.279733 -0.268852 0.921631
-19.1432 7.33603 45.8558 -0.286689 -0.275058 0.917683
-20.0518 7.16192 45.5206 -0.286963 -0.296893 0.910725
-20.7613 7.00953 45.2467 -0.276434 -0.315304 0.907837
-21.5109 6.82629 44.9491 -0.284695 -0.32219 0.902843
-22.3794 6.51244 44.5601 -0.280941 -0.336698 0.898725
-23.0984 6.23697 44.2258 -0.284705 -0.344078 0.894718
-23.8757 6.01697 43.893 -0.285451 -0.349863 0.892252
-24.7747 5.63338 43.4509 -0.283877 -0.358838 0.889184
-25.5195 5.23999 43.0468 -0.290223 -0.361093 0.886218
-26.1891 4.90349 42.6882 -0.288887 -0.36727 0.884114
-26.9409 4.41358 42.2339 -0.295202 -0.37065 0.880606
-27.6097 3.91446 41.7978 -0.294105 -0.376253 0.878595
-28.2679 3.43063 41.3693 -0.298378 -0.374219 0.878024
-29.0626 2.77583 40.8162 -0.302295 -0.375592 0.876094
-29.6668 2.27753 40.3935 -0.305571 -0.373997 0.875643
-30.2725 1.55195 39.8719 -0.307974 -0.373041 0.87521
-30.8493 0.812245 39.3539 -0.3101 -0.371344 0.875181
-31.4307 -0.0164526 38.797 -0.314277 -0.367448 0.875335
-31.8998 -0.70835 38.3378 -0.3148 -0.367881 0.874965
-32.372 -1.48575 37.8433 -0.315869 -0.365398 0.87562
-32.4462 -2.06583 37.5766 -0.316612 -0.362317 0.876631
-31.6283 -2.03823 37.8823 -0.315011 -0.362571 0.877103
-30.9204 -1.81883 38.2266 -0.315792 -0.361563 0.877238
-30.1281 -1.60652 38.5996 -0.315154 -0.361371 0.877547
-29.3731 -1.35952 38.9719 -0.313481 -0.362598 0.87764
-28.6529 -1.20491 39.2942 -0.316304 -0.360301 0.877573
-27.9661 -1.10517 39.5838 -0.318647 -0.359234 0.877163
-27.2433 -0.928348 39.9175 -0.318945 -0.355933 0.878396
-26.5113 -0.681483 40.2849 -0.32138 -0.354668 0.878024
-25.7982 -0.487093 40.6242 -0.323962 -0.352212 0.87806
-25.0951 -0.349609 40.9402 -0.325508 -0.350635 0.878123
-24.1131 -0.234695 41.3532 -0.330836 -0.345488 0.878167
-23.2189 -0.149834 41.7241 -0.337261 -0.339394 0.878104
-22.4431 -0.0143905 42.075 -0.345267 -0.335229 0.876591
-21.7173 0.123841 42.4136 -0.345255 -0.328545 0.879122
-21.0233 0.235178 42.7311 -0.351057 -0.322844 0.878937
-20.2653 0.382673 43.094 -0.36469 -0.320122 0.87437
-19.4168 0.375252 43.4525 -0.377708 -0.310035 0.872476
-18.4539 0.410308 43.8869 -0.387847 -0.292174 0.87419
-17.6276 0.494054 44.2864 -0.397719 -0.291452 0.869986
-16.8994 0.514331 44.6271 -0.404983 -0.273627 0.87242
-16.1 0.559353 45.0196 -0.41708 -0.273119 0.866862
-15.3323 0.699909 45.4254 -0.416476 -0.25598 0.872366
-14.5174 0.756498 45.8389 -0.427372 -0.236379 0.872549
-13.791 0.64131 46.1631 -0.438671 -0.218899 0.871534
-13.0719 0.537094 46.5055 -0.450371 -0.211283 0.867482
-12.3948 0.485093 46.8464 -0.461554 -0.197227 0.864902
-11.5798 0.392417 47.2537 -0.451415 -0.172846 0.875412
-10.75 0.266424 47.6597 -0.458858 -0.155015 0.874882
-9.94023 0.110808 48.0517 -0.451336 -0.1313 0.882628
-9.14228 -0.156043 48.4396 -0.46178 -0.111606 0.879921
-8.33289 -0.376167 48.8393 -0.46409 -0.0904379 0.881151
-7.57625 -0.569307 49.2142 -0.466523 -0.0752692 0.881141
-6.89274 -0.742103 49.5527 -0.445054 -0.0453522 0.894355
-6.02482 -0.921664 49.9583 -0.415178 -0.0532507 0.90812
-5.25552 -1.1018 50.2942 -0.397989 -0.0324598 0.916641
-4.48224 -1.36813 50.5997 -0.345841 -0.0164442 0.937869
-3.64901 -1.63889 50.9023 -0.324706 0.0113518 0.945563
-2.78757 -1.88637 51.1825 -0.289914 0.00605978 0.95688
-1.90703 -2.18221 51.4292 -0.247075 0.0157769 0.968813
-0.85083 -2.53469 51.6961 -0.232284 0.0309856 0.972126
-0.137308 -2.76032 51.8435 -0.182458 0.0335298 0.982642
0.601454 -2.9637 51.9854 -0.168453 0.0313484 0.985193
1.44126 -3.23524 52.1416 -0.165038 0.0363079 0.985598
2.38462 -3.53201 52.2741 -0.127354 0.0289202 0.991183
3.32427 -3.92132 52.3983 -0.0968756 0.0735063 0.992578
4.1433 -4.24592 52.5081 -0.0840393 0.0712228 0.99376
4.99591 -4.5155 52.5856 -0.0654712 0.0767723 0.994897
5.93171 -4.68218 52.6515 -0.0481944 0.078886 0.995718
6.93804 -4.71142 52.6868 -0.0129886 0.100566 0.994843
7.70481 -4.73522 52.691 0.0148498 0.149265 0.988452
8.56839 -4.70932 52.6908 -0.00586895 0.15854 0.987335
9.23392 -3.79057 52.5043 0.0184143 0.234383 0.97197
9.55018 -3.12413 52.3252 0.045455 0.329332 0.943119
9.9417 -2.51108 52.0954 0.169891 0.331436 0.927447
10.5029 -1.8004 51.7103 0.203019 0.348166 0.915128
10.9738 -1.07599 51.2575 0.263874 0.384861 0.88445
11.3188 -0.403945 50.8115 0.320483 0.411995 0.852963
11.8961 0.178802 50.2374 0.389348 0.436315 0.811192
12.4636 0.877268 49.4888 0.461157 0.440749 0.769964
12.8798 1.29243 48.9408 0.538626 0.44473 0.71561
13.2704 1.66375 48.3951 0.562794 0.457889 0.688094
13.7097 2.16579 47.6807 0.604583 0.450981 0.656578
14.1031 2.65077 46.9847 0.63428 0.435109 0.639037
14.451 3.15225 46.2913 0.639066 0.436532 0.633257
14.757 3.56516 45.6512 0.704197 0.393323 0.591103
15.1422 4.1559 44.7836 0.736191 0.384448 0.556977
15.4172 4.54341 44.1593 0.747572 0.35922 0.558208
15.6725 4.96585 43.5155 0.758432 0.35189 0.548398
15.9283 5.63586 42.6769 0.787543 0.337128 0.515759
16.1201 6.24486 41.9619 0.816135 0.323134 0.47907
16.2905 6.69603 41.3646 0.823055 0.298553 0.482413
16.4599 7.35024 40.6716 0.839537 0.286884 0.461383
16.6065 8.07729 40.0049 0.857785 0.24084 0.454093
16.7578 8.74307 39.3675 0.878605 0.200039 0.433634
16.847 9.44974 38.8675 0.880059 0.173243 0.441502
16.9668 10.2704 38.3199 0.892505 0.143018 0.42742
17.0959 11.2153 37.7671 0.898554 0.105446 0.425451
17.214 12.2023 37.2985 0.906354 0.0717234 0.41595
17.3456 13.1736 36.8742 0.911521 0.0377247 0.40904
17.5293 14.0574 36.4119 0.919884 0.0173103 0.391549
17.6535 14.7597 36.1324 0.925505 -0.0184321 0.378118
17.8033 15.5396 35.8484 0.924141 -0.0571796 0.377749
18.0001 16.413 35.5383 0.923548 -0.0915585 0.372393
18.2177 17.2987 35.2473 0.924329 -0.117951 0.362908
18.4499 18.1981 34.9862 0.923082 -0.148135 0.35493
18.7044 19.1388 34.7539 0.919472 -0.175176 0.351973
19.0038 20.16 34.5166 0.91654 -0.199951 0.346373
19.3257 21.195 34.2985 0.911329 -0.225662 0.344319
19.6443 22.1563 34.1241 0.90498 -0.255109 0.340487
19.9138 23.0286 34.0753 0.903654 -0.266431 0.335297
20.1615 23.7279 33.9841 0.898005 -0.288057 0.332583
20.4613 24.5221 33.8593 0.895652 -0.295831 0.331967
20.7422 25.2335 33.7574 0.892308 -0.306353 0.331557
21.0629 26.0921 33.7097 0.887238 -0.317204 0.334949
21.4292 27.1151 33.7286 0.882537 -0.329118 0.335872
21.7879 28.1399 33.8093 0.878434 -0.341333 0.334434
22.0757 28.9932 33.9291 0.876269 -0.34811 0.333107
22.4338 29.8583 33.8999 0.874762 -0.350997 0.334055
22.8486 30.9438 33.9718 0.871884 -0.356282 0.335978
23.2225 31.9377 34.0696 0.869287 -0.361276 0.33737
23.5526 32.8669 34.2233 0.867514 -0.364312 0.338666
23.8769 33.7654 34.3636 0.865804 -0.366639 0.340528
24.2165 34.8006 34.6118 0.864869 -0.366811 0.342712
24.5404 35.7877 34.8473 0.864635 -0.365735 0.344447
24.7773 36.5107 35.0193 0.864959 -0.363863 0.345615
25.0135 37.3041 35.2634 0.865067 -0.364027 0.34517
25.0078 37.8414 35.8429 0.865855 -0.362506 0.344795
24.7256 37.8428 36.5526 0.865819 -0.363342 0.344007
24.3196 37.6367 37.3565 0.865696 -0.363432 0.344221
23.9651 37.4826 38.0836 0.864908 -0.363786 0.345824
23.5391 37.2179 38.8708 0.864346 -0.363902 0.3471
23.0991 36.9915 39.725 0.863696 -0.364542 0.348049
22.7922 36.9495 40.436 0.863044 -0.362677 0.351596
22.384 36.7863 41.2659 0.862042 -0.361918 0.35482
21.9537 36.6035 42.1277 0.862849 -0.359763 0.35505
21.6211 36.487 42.8153 0.863098 -0.358479 0.355744
21.1804 36.2184 43.6125 0.862678 -0.358017 0.357225
20.7387 36.0785 44.5437 0.863938 -0.356055 0.356139
20.4156 35.9993 45.2484 0.864296 -0.355613 0.355713
20.0455 35.8189 45.9688 0.865289 -0.354405 0.3545
19.6499 35.3221 46.4397 0.86536 -0.352727 0.356
19.267 34.2237 46.2801 0.867464 -0.354274 0.34928
18.9744 33.2046 45.9719 0.867024 -0.355246 0.349385
18.5828 32.2182 45.94 0.868505 -0.354977 0.345964
18.2538 31.3643 45.8905 0.869533 -0.354266 0.344104
17.9727 30.5468 45.7557 0.869668 -0.356491 0.341456
17.6608 29.7138 45.68 0.870028 -0.356901 0.340108
17.3753 28.9792 45.6296 0.867116 -0.367432 0.336309
16.9243 27.9364 45.6496 0.869009 -0.367345 0.331432
16.5918 27.2363 45.7231 0.864025 -0.379693 0.330596
16.2756 26.5263 45.7372 0.864904 -0.377365 0.330963
15.8778 25.6082 45.7166 0.861121 -0.381869 0.33563
15.4843 24.8544 45.8568 0.848383 -0.40003 0.346722
14.9157 23.8717 46.1066 0.838991 -0.410869 0.356413
14.444 22.9399 46.155 0.827405 -0.391664 0.402474
14.0445 22.2794 46.3045 0.810214 -0.404637 0.424055
13.618 21.6942 46.5612 0.793202 -0.402528 0.456948
13.1119 20.9501 46.776 0.769739 -0.396187 0.500537
12.57 20.2082 47.0297 0.743576 -0.404586 0.530437
12.0696 19.666 47.2609 0.724603 -0.39579 0.56357
11.45 19.034 47.5736 0.670643 -0.401269 0.623876
10.9083 18.5113 47.8347 0.620768 -0.36713 0.692721
10.3262 18.0211 48.1058 0.63295 -0.350761 0.690174
9.65299 17.5188 48.4313 0.608151 -0.315287 0.728523
9.05874 17.1096 48.6924 0.548835 -0.313662 0.774853
8.41358 16.7221 48.9475 0.505356 -0.247425 0.826678
7.71323 16.2925 49.2193 0.469364 -0.273134 0.8397
6.90869 15.9539 49.4881 0.382193 -0.235926 0.89273
5.83062 15.5247 49.8191 0.323406 -0.221281 0.920023
4.78663 15.1606 50.0729 0.250135 -0.127922 0.959723
3.98614 14.8092 50.2224 0.197524 -0.130836 0.971528
3.18459 14.3718 50.3231 0.156081 -0.117897 0.980683
2.51118 13.9026 50.3961 0.15659 -0.0456625 0.98615
1.72736 13.4456 50.4719 0.116271 -0.04614 0.991993
1.12909 12.987 50.5158 0.0726026 0.0123786 0.997246
0.467819 12.3014 50.5745 0.0674103 0.0191201 0.997542
-0.156426 11.4476 50.6342 0.0276071 0.0467073 0.998527
-0.601457 10.6986 50.6861 0.0115085 0.0548035 0.998197
-0.933867 10.1904 50.7086 -0.0125363 0.0475636 0.99879
-2.20438 10.5415 50.6556 -0.0354914 0.0426283 0.998421
-2.65736 9.84842 50.6379 -0.072102 0.0184874 0.997226
-3.19925 9.31125 50.5883 -0.115307 -0.00184702 0.993328
-3.75913 8.78425 50.524 -0.138821 0.0170524 0.990043
-4.40159 8.12316 50.4321 -0.163417 -0.0239068 0.985709
-4.92961 7.55191 50.3316 -0.201271 0.0350046 0.97891
-5.44965 7.0382 50.2376 -0.206419 0.0291 0.978031
-6.25745 6.81202 50.0152 -0.285709 -0.0143956 0.958208
-6.98422 6.83483 49.7974 -0.286019 -0.0248153 0.957902
-7.84728 6.84772 49.5237 -0.314263 -0.0447734 0.948276
-8.62489 7.13483 49.2837 -0.312099 -0.0554012 0.948431
-9.53968 7.42962 49.0039 -0.308771 -0.0535168 0.949623
-10.56 7.74639 48.6952 -0.308637 -0.0883243 0.947057
-11.4323 8.03889 48.4453 -0.294559 -0.0970465 0.950636
-12.1863 8.17721 48.2268 -0.301325 -0.121555 0.945731
-13.0286 8.31961 47.9787 -0.297979 -0.133264 0.945202
-13.7402 8.50094 47.7796 -0.300511 -0.142084 0.943136
-14.56 8.62726 47.5586 -0.267113 -0.186116 0.945522
-15.3133 8.63759 47.3378 -0.283554 -0.184669 0.941007
-16.0644 8.67461 47.1269 -0.266172 -0.205677 0.941697
-17.0911 8.69916 46.842 -0.257135 -0.231439 0.938247
-17.8936 8.57645 46.585 -0.267361 -0.250324 0.930505
-18.9378 8.64949 46.3152 -0.253033 -0.270921 0.92875
-19.7181 8.52206 46.0539 -0.252895 -0.284041 0.924753
-20.5586 8.33785 45.7628 -0.258295 -0.302502 0.917479
-21.3075 8.17004 45.4895 -0.260836 -0.322643 0.909871
-22.0154 7.94204 45.1998 -0.264041 -0.336344 0.903966
-22.8755 7.64937 44.8367 -0.27006 -0.345774 0.898614
-23.6008 7.3925 44.5191 -0.268582 -0.352573 0.896413
-24.2912 7.18162 44.2263 -0.270396 -0.35711 0.894056
-25.0344 6.91947 43.8938 -0.270829 -0.377675 0.885445
-25.6781 6.58741 43.5555 -0.280346 -0.370893 0.885347
-26.454 6.17054 43.1338 -0.283431 -0.374275 0.882941
-27.1168 5.83213 42.7759 -0.284278 -0.3774 0.881327
-27.9067 5.25498 42.2716 -0.287615 -0.378962 0.879583
-28.6569 4.73495 41.7991 -0.292596 -0.38361 0.875917
-29.4237 4.11454 41.271 -0.296965 -0.380035 0.876005
-29.9678 3.68039 40.8962 -0.300641 -0.381986 0.8739
-30.5515 3.21114 40.4897 -0.303082 -0.381479 0.873279
-30.9748 2.65795 40.1019 -0.30754 -0.377431 0.873479
-31.4952 2.01333 39.6403 -0.307911 -0.376206 0.873876
-31.9478 1.50217 39.26 -0.310079 -0.37784 0.872403
-32.3077 0.919195 38.8813 -0.312913 -0.374889 0.872665
-32.8263 0.148155 38.3661 -0.31568 -0.374367 0.871885
-33.3058 -0.573708 37.8872 -0.318298 -0.367975 0.873659
-33.7476 -1.39463 37.3823 -0.321276 -0.367072 0.872944
-34.1532 -2.31972 36.8495 -0.322902 -0.362856 0.87411
-34.2287 -3.16701 36.473 -0.321954 -0.358075 0.876426
-33.7237 -3.69016 36.4458 -0.321579 -0.35598 0.87742
-33.001 -3.52791 36.7754 -0.319452 -0.357258 0.877677
-32.1805 -3.44199 37.1074 -0.316361 -0.357859 0.878551
-31.5074 -3.2339 37.4346 -0.315725 -0.359831 0.877975
-30.751 -3.03615 37.7872 -0.315606 -0.360037 0.877933
-30.0916 -2.82063 38.113 -0.316112 -0.360489 0.877565
-29.1103 -2.55961 38.5743 -0.318049 -0.359438 0.877296
-28.4077 -2.3647 38.9085 -0.317278 -0.358567 0.877932
-27.552 -2.24463 39.2687 -0.320238 -0.358187 0.877011
-26.5335 -2.00531 39.74 -0.323166 -0.357323 0.876288
-25.7068 -1.78166 40.1376 -0.324662 -0.357149 0.875808
-24.9308 -1.60733 40.4973 -0.327412 -0.35166 0.877004
-24.2421 -1.49878 40.8002 -0.333521 -0.353056 0.874137
-23.5184 -1.44951 41.0992 -0.340071 -0.347168 0.873972
-22.7066 -1.32286 41.467 -0.345933 -0.340743 0.874199
-21.95 -1.16515 41.8295 -0.350961 -0.334682 0.874536
-21.2426 -1.101 42.1396 -0.35744 -0.332628 0.872694
-20.3796 -0.943853 42.5523 -0.358398 -0.328597 0.873828
-19.6705 -0.862315 42.8865 -0.376007 -0.329481 0.866039
-18.7939 -0.853313 43.2846 -0.393853 -0.314709 0.86359
-18.1186 -0.797879 43.6167 -0.397398 -0.308536 0.864222
-17.4078 -0.686429 43.9877 -0.404244 -0.299879 0.864094
-16.729 -0.676161 44.3172 -0.4125 -0.292453 0.862718
-15.9702 -0.630334 44.7072 -0.424736 -0.292766 0.856603
-15.1416 -0.540875 45.1537 -0.438084 -0.252862 0.862637
-14.3341 -0.48287 45.5831 -0.442868 -0.251584 0.860566
-13.609 -0.66076 45.9159 -0.462795 -0.23767 0.85401
-12.7842 -0.726611 46.3496 -0.472801 -0.206371 0.856662
-11.9737 -0.800175 46.7865 -0.48504 -0.205332 0.850044
-11.1473 -0.992494 47.2108 -0.481683 -0.160544 0.861514
-10.3965 -1.08202 47.6153 -0.478659 -0.152528 0.864651
-9.69174 -1.33003 47.9722 -0.498285 -0.137307 0.856072
-8.99942 -1.4981 48.3518 -0.494448 -0.0816975 0.865356
-8.32933 -1.69148 48.7145 -0.488257 -0.0690589 0.869863
-7.53407 -1.90407 49.1461 -0.475008 -0.0609485 0.877868
-6.61115 -2.07738 49.6184 -0.456265 -0.0553655 0.88812
-5.93861 -2.234 49.9379 -0.431576 -0.0286316 0.901622
-5.195 -2.47633 50.2963 -0.39627 0.0262294 0.917759
-4.13021 -2.83651 50.7398 -0.340931 0.0330603 0.939507
-3.31774 -3.04344 51.0321 -0.31615 0.0386812 0.94792
-2.46943 -3.35943 51.3082 -0.293995 0.0223305 0.955529
-1.5966 -3.60685 51.5533 -0.256469 0.0495847 0.965276
-0.757093 -3.93093 51.7617 -0.218336 0.0480573 0.974688
-0.0127067 -4.12335 51.9225 -0.184296 0.0562851 0.981258
0.847106 -4.42832 52.0928 -0.165872 0.0454766 0.985098
1.57441 -4.64861 52.2187 -0.148061 0.0452515 0.987942
2.4596 -4.97287 52.3576 -0.132501 0.045545 0.990136
3.19711 -5.21138 52.4778 -0.0971052 0.0673373 0.992994
4.02174 -5.54133 52.5766 -0.0808897 0.0575696 0.995052
4.78217 -5.78068 52.6478 -0.0685513 0.0457822 0.996597
5.77798 -5.96367 52.7269 -0.071109 0.0553413 0.995932
6.55047 -6.00482 52.7795 -0.0565904 0.10595 0.992283
7.48744 -5.96124 52.8311 -0.0589023 0.135435 0.989032
8.48984 -6.20994 52.8628 -0.0421941 0.0879594 0.99481
9.22892 -6.19265 52.9147 -0.171825 0.0810883 0.977964
9.94672 -5.59159 52.8991 -0.0562237 0.177452 0.982378
10.2812 -4.7403 52.7786 -0.0541031 0.226404 0.970808
10.5532 -3.70349 52.5161 -0.0714767 0.349095 0.927709
10.9779 -3.14335 52.2363 0.00646603 0.450677 0.892664
11.488 -2.53738 51.8362 0.134372 0.494933 0.858479
12.0353 -1.86311 51.3017 0.272509 0.498138 0.821024
12.386 -1.16113 50.7958 0.303925 0.486336 0.819211
12.9924 -0.62681 50.1611 0.408377 0.526242 0.74509
13.4944 0.0658282 49.3406 0.503149 0.501002 0.703696
13.958 0.597519 48.5856 0.558374 0.538628 0.627377
14.3422 1.05886 47.8818 0.603812 0.48788 0.629193
14.6547 1.41666 47.2966 0.623798 0.452432 0.637324
14.9981 1.85165 46.6396 0.635344 0.452154 0.626014
15.3445 2.29275 45.9361 0.642768 0.483122 0.594511
15.6281 2.66106 45.2836 0.69346 0.468809 0.547111
15.8845 3.08317 44.5958 0.740454 0.420288 0.524486
