19.6063 25.9817 38.6203 0.873695 -0.31907 0.36722
19.2858 25.16 38.6816 0.873132 -0.311173 0.375204
18.9861 24.4173 38.7659 0.87349 -0.301225 0.382434
18.5936 23.4696 38.9409 0.879734 -0.280751 0.383728
18.2089 22.5357 39.1277 0.873431 -0.269718 0.405364
17.9147 21.7251 39.2358 0.875728 -0.258381 0.407847
17.6659 21.0267 39.3622 0.880156 -0.224887 0.418032
17.3704 20.1789 39.5336 0.878552 -0.209521 0.42924
17.0732 19.3235 39.7368 0.874157 -0.188393 0.447613
16.7575 18.4735 40.0097 0.875541 -0.168159 0.452936
16.468 17.6816 40.2987 0.872678 -0.131661 0.470211
16.2044 16.927 40.5719 0.871436 -0.113253 0.476716
15.9138 15.9722 40.9065 0.862865 -0.0825099 0.498192
15.7025 15.3045 41.1894 0.860852 -0.0649278 0.504658
15.4599 14.4483 41.5344 0.857761 -0.0173282 0.513756
15.2752 13.76 41.8204 0.848798 0.0284349 0.527951
15.0018 12.877 42.2875 0.837819 0.0380908 0.544086
14.7109 12.1267 42.8101 0.822792 0.0619782 0.564813
14.3715 11.4499 43.3979 0.814032 0.0763265 0.575507
14.0978 10.9282 43.8681 0.792097 0.127217 0.596991
13.8008 10.4114 44.3491 0.768456 0.13799 0.624009
13.5147 9.90918 44.8389 0.764944 0.170036 0.621247
13.0697 9.27115 45.5112 0.743123 0.18863 0.640956
12.7689 8.77411 46.0096 0.690261 0.229248 0.686075
12.4297 8.3013 46.5015 0.669294 0.22491 0.70787
11.9095 7.76402 47.1663 0.639146 0.264175 0.721985
11.2342 7.19605 47.9379 0.625025 0.278308 0.728873
10.7971 6.68938 48.447 0.560333 0.293646 0.774467
10.3844 6.14303 48.9252 0.527351 0.274009 0.804167
9.7788 5.52741 49.5079 0.455691 0.285312 0.843141
9.34949 5.01453 49.92 0.448164 0.313249 0.836933
8.6921 4.2714 50.4815 0.38693 0.315584 0.866319
8.05007 3.45337 51.0237 0.343171 0.317295 0.884057
7.37912 2.60022 51.5135 0.264029 0.272846 0.924525
6.76422 1.79546 51.8967 0.196133 0.247419 0.947726
6.23827 1.13611 52.1262 0.1406 0.223701 0.964298
5.51234 0.672944 52.3128 0.091571 0.184482 0.978196
4.70413 0.761762 52.3835 0.103618 0.160861 0.981523
3.95405 0.998966 52.4293 0.129328 0.134404 0.982451
3.2287 1.28165 52.3837 -0.0521286 0.212247 0.975825
2.51572 1.52808 52.3312 -8.0813e-05 0.154148 0.988048
1.46694 1.85569 52.2486 -0.0750115 0.109942 0.991103
0.483025 2.15589 52.1154 -0.127024 0.10593 0.986227
-0.485835 2.47227 51.9614 -0.120861 0.0876269 0.988794
-1.46747 2.86102 51.7772 -0.189725 0.0525799 0.980428
-0.931554 3.49167 51.83 -0.147768 0.0720817 0.985806
-0.143041 4.11427 51.8583 -0.086214 0.0977966 0.991275
0.500372 4.61611 51.8329 -0.0311282 0.104742 0.994012
1.38719 5.33422 51.7329 0.00265118 0.144716 0.98947
1.97206 5.93587 51.6394 0.0331969 0.147284 0.988134
2.58788 6.68279 51.4757 0.0547045 0.189102 0.980433
3.09214 7.2344 51.3074 0.139806 0.161441 0.976929
3.14719 7.30819 51.2873 0.139803 0.161441 0.97693
2.06551 7.99832 51.3002 0.0953287 0.142835 0.985145
2.68411 8.86004 51.1127 0.134104 0.13814 0.981292
3.24715 9.56078 50.9204 0.175973 0.129699 0.975757
3.84805 10.0585 50.7405 0.195273 0.132243 0.971792
4.59054 10.5132 50.5067 0.2464 0.106792 0.963267
5.5402 10.9589 50.1898 0.296625 0.0922475 0.950528
6.44555 11.3025 49.845 0.354911 0.0738085 0.931982
7.29822 11.6492 49.4645 0.410431 0.0559585 0.910173
8.10976 12.042 49.0481 0.46078 0.0377656 0.886711
8.85943 12.4319 48.6152 0.510293 0.0102055 0.85994
9.45529 12.7472 48.2316 0.561405 -0.0095036 0.827042
10.0438 13.0982 47.8234 0.624681 -0.00744345 0.780844
10.712 13.6678 47.3221 0.637768 -0.0607434 0.766242
11.3382 14.3159 46.7911 0.666866 -0.0755396 0.740815
11.9674 14.9379 46.2482 0.720546 -0.0761709 0.688655
12.5102 15.5369 45.7477 0.733207 -0.134054 0.666661
13.1357 16.4542 45.1842 0.768464 -0.118734 0.628335
13.5672 17.0538 44.7911 0.794941 -0.181369 0.578872
13.9841 17.7561 44.4412 0.806387 -0.217765 0.549136
14.4365 18.5556 44.0517 0.818445 -0.22662 0.527648
14.8677 19.3681 43.7348 0.822622 -0.256609 0.50705
15.464 20.4817 43.3076 0.841096 -0.256617 0.476135
15.8756 21.2815 43.0669 0.848529 -0.28914 0.443166
16.2177 22.0061 42.8904 0.850336 -0.303383 0.429865
16.5823 22.7806 42.7068 0.84968 -0.315587 0.422432
16.9504 23.5464 42.5328 0.857627 -0.314505 0.406882
17.281 24.2809 42.4199 0.8577 -0.327591 0.396276
17.5857 24.9833 42.35 0.855142 -0.333694 0.396711
18.0053 25.9516 42.2703 0.859547 -0.346576 0.375585
18.4232 26.9242 42.2097 0.860007 -0.345446 0.375574
18.8119 27.8857 42.2132 0.862494 -0.352418 0.363189
19.1697 28.8412 42.2944 0.861574 -0.354828 0.363026
19.4926 29.7345 42.4052 0.861235 -0.357508 0.361196
19.9054 30.7584 42.4368 0.861085 -0.359563 0.359511
20.1904 31.4558 42.4524 0.860439 -0.36109 0.359526
20.5369 32.3588 42.5309 0.859768 -0.361275 0.360942
20.9117 32.7945 42.0734 0.860434 -0.362527 0.35809
21.3487 32.9988 41.2302 0.860428 -0.362535 0.358096
21.8181 33.1703 40.2691 0.861589 -0.363325 0.354481
22.1771 33.3015 39.5279 0.862141 -0.363449 0.353013
22.6649 33.4359 38.4686 0.863234 -0.364152 0.3496
22.5576 32.7897 38.0627 0.863626 -0.362486 0.350362
22.2483 31.8198 37.8249 0.865282 -0.359446 0.349405
21.9794 31.0205 37.6697 0.866968 -0.355493 0.349273
21.6622 30.1253 37.5468 0.868003 -0.352106 0.350117
21.2399 29.0319 37.5024 0.868051 -0.349992 0.352126
20.8733 28.0595 37.461 0.869535 -0.343825 0.354526
20.5183 27.1238 37.4434 0.871694 -0.336531 0.356226
20.2031 26.2569 37.4281 0.875198 -0.319982 0.362748
19.9355 25.5318 37.4478 0.877913 -0.314825 0.360768
19.5671 24.558 37.5183 0.879734 -0.305317 0.364486
19.2113 23.6764 37.6667 0.881317 -0.283414 0.377973
18.8922 22.8803 37.8349 0.881443 -0.275953 0.383254
18.595 22.0974 37.9785 0.883473 -0.251891 0.395001
18.2315 21.0065 38.141 0.892111 -0.222883 0.393016
17.889 19.9765 38.3392 0.889209 -0.197821 0.412457
17.6114 19.1227 38.5492 0.895113 -0.176045 0.409609
17.371 18.3897 38.7621 0.889614 -0.157159 0.428807
17.1204 17.6447 39.0076 0.892083 -0.136607 0.430114
16.7813 16.6254 39.4142 0.883357 -0.102484 0.457165
16.5566 15.7834 39.699 0.886663 -0.0649777 0.457759
16.2657 14.7581 40.1406 0.879739 -0.0277669 0.474372
16.0056 13.6992 40.586 0.866864 0.0250778 0.497913
15.7745 12.7229 41.0528 0.85528 0.0626149 0.514368
15.5882 12.0601 41.4512 0.857882 0.0720243 0.508774
15.3429 11.3625 41.971 0.83837 0.103283 0.535227
15.0317 10.6515 42.6097 0.821845 0.132759 0.554027
14.6965 9.92182 43.2991 0.804372 0.168944 0.569445
14.4293 9.39677 43.8127 0.7773 0.188413 0.599346
14.1631 8.89196 44.3455 0.769056 0.21493 0.601886
13.836 8.36286 44.9466 0.756098 0.250508 0.604614
13.5502 7.86576 45.4841 0.727431 0.257833 0.635898
13.2229 7.40554 46.0393 0.695827 0.272179 0.664638
12.7664 6.86056 46.718 0.661824 0.291603 0.69062
12.2383 6.35271 47.4232 0.625315 0.299942 0.720427
11.7476 5.88982 48.0284 0.582305 0.318019 0.748188
11.3176 5.39103 48.5749 0.582181 0.317738 0.748403
10.9392 4.91757 49.0338 0.517179 0.336159 0.786966
10.3308 4.22367 49.7074 0.454469 0.337841 0.824078
9.89989 3.76956 50.1376 0.408535 0.350253 0.841592
9.35381 3.10388 50.6381 0.366283 0.343539 0.864754
8.89119 2.48238 51.0541 0.325317 0.332217 0.885325
8.42982 1.95099 51.4062 0.259179 0.319334 0.911511
8.00527 1.41407 51.7135 0.231665 0.290743 0.927742
7.31536 0.459088 52.1451 0.201616 0.29568 0.933572
6.93574 -0.27558 52.4165 0.111036 0.247024 0.962627
6.32142 -0.946383 52.6219 0.0407109 0.202285 0.978135
5.42208 -0.816377 52.6171 -0.00739731 0.152973 0.988049
4.41015 -0.492265 52.5797 0.020845 0.134467 0.990618
3.59764 -0.209826 52.5639 -0.0150241 0.114941 0.993028
2.74423 0.122254 52.4996 -0.0433771 0.100477 0.993886
1.65441 0.463533 52.3959 -0.0694988 0.0997011 0.992587
0.891485 0.707752 52.3066 -0.135527 0.0760906 0.987848
-0.26013 1.05727 52.1196 -0.143844 0.0729256 0.986909
-1.24672 1.39294 51.9123 -0.222759 0.0548402 0.973319
-2.28921 1.73249 51.6486 -0.237232 0.0533228 0.969988
-3.44171 2.08805 51.3404 -0.254761 0.0211229 0.966773
-4.25779 2.22009 51.1173 -0.289038 0.0287914 0.956788
-4.87417 2.55076 50.9156 -0.296228 0.020261 0.954902
-5.58151 2.54785 50.6893 -0.335601 -0.00581189 0.941986
-6.05458 2.69994 50.5197 -0.358075 0.00396237 0.933685
-5.11347 2.79945 50.8356 -0.303184 0.0227372 0.952661
-3.97399 3.05706 51.1737 -0.283457 0.0342629 0.958373
-2.9472 3.52979 51.4114 -0.232514 0.0539631 0.971095
-2.29128 3.97935 51.5347 -0.213883 0.0693359 0.974396
-1.72074 4.48533 51.6274 -0.137325 0.0513281 0.98707
-1.07995 5.0005 51.6726 -0.113475 0.112318 0.986339
-0.352866 5.55923 51.6552 -0.0825914 0.140206 0.986669
0.413211 6.14515 51.6212 -0.0361141 0.102723 0.994054
0.966559 6.70037 51.5491 0.00498446 0.124082 0.992237
1.6177 7.40932 51.4247 0.0476528 0.130569 0.990277
1.96614 7.85406 51.3308 0.0953287 0.142835 0.985145
0.927201 8.54782 51.3049 0.0223983 0.118185 0.992508
0.19413 7.65112 51.4324 -0.0111031 0.124239 0.992188
-0.613897 6.9365 51.483 -0.0618003 0.100005 0.993066
-1.49421 6.29767 51.4766 -0.107893 0.113578 0.987653
-2.17882 5.70947 51.4502 -0.156377 0.0833559 0.984136
-2.9793 5.0147 51.3348 -0.220306 0.040834 0.974573
-3.72928 4.53016 51.1834 -0.246704 0.0395503 0.968066
-4.59314 4.21371 50.9585 -0.273038 0.0331237 0.961361
-5.35361 4.04973 50.7406 -0.276814 0.0156469 0.960757
-6.37755 3.97935 50.4145 -0.318072 -0.0190428 0.947875
-7.26685 4.0015 50.0943 -0.352442 -0.035177 0.935169
-8.21754 4.1497 49.7402 -0.35051 -0.0414045 0.935641
-9.20096 4.40243 49.3755 -0.371312 -0.0757105 0.925415
-10.1116 4.72279 49.0534 -0.361196 -0.0973328 0.927384
-11.0509 4.94462 48.7119 -0.355286 -0.103123 0.929052
-11.8433 5.07313 48.4176 -0.361268 -0.135235 0.922603
-12.6722 5.2447 48.1254 -0.359099 -0.155407 0.92027
-13.5128 5.42754 47.8361 -0.344142 -0.164805 0.924341
-14.2636 5.51619 47.5653 -0.342151 -0.187064 0.920837
-15.1993 5.59249 47.2321 -0.349108 -0.196723 0.916123
-15.958 5.57465 46.9477 -0.343165 -0.217 0.91384
-16.7848 5.54014 46.6348 -0.332139 -0.236238 0.913168
-17.5434 5.52392 46.3552 -0.324968 -0.254996 0.910664
-18.3382 5.39196 46.0274 -0.320374 -0.265483 0.909236
-19.3972 5.26519 45.6119 -0.323191 -0.292881 0.899871
-20.1443 5.10531 45.298 -0.31193 -0.304646 0.899939
-20.9591 4.87431 44.9333 -0.317596 -0.308385 0.896671
-21.7208 4.6243 44.5822 -0.309818 -0.326331 0.893021
-22.4769 4.36067 44.2215 -0.303862 -0.337679 0.890861
-23.1755 4.07561 43.8726 -0.307724 -0.339578 0.888813
-23.8872 3.78075 43.5146 -0.298695 -0.349239 0.888152
-24.7088 3.3344 43.0562 -0.309144 -0.349694 0.884375
-25.3438 2.92091 42.6695 -0.305127 -0.359022 0.882038
-25.9932 2.48874 42.2667 -0.308546 -0.357505 0.88147
-26.6713 2.0552 41.8539 -0.30477 -0.361933 0.880975
-27.3609 1.60925 41.4299 -0.306836 -0.364135 0.87935
-27.9251 1.18788 41.0577 -0.307698 -0.363568 0.879284
-28.6888 0.521519 40.5123 -0.310774 -0.3668 0.876851
-29.2368 -0.106673 40.0553 -0.312087 -0.364421 0.877382
-29.8101 -0.74397 39.5858 -0.311574 -0.365693 0.877035
-30.38 -1.48449 39.0764 -0.314567 -0.359306 0.878601
-30.8458 -2.02814 38.686 -0.318003 -0.358182 0.877827
-30.5309 -2.36404 38.6632 -0.31858 -0.355703 0.878625
-29.7648 -2.04461 39.069 -0.315408 -0.356104 0.879606
-29.0517 -1.8077 39.4221 -0.318608 -0.3551 0.878859
-28.3741 -1.5532 39.771 -0.320293 -0.355014 0.878281
-27.6462 -1.25557 40.1572 -0.318692 -0.355335 0.878731
-27.0194 -0.950755 40.5078 -0.321853 -0.35071 0.879439
-26.2381 -0.619731 40.9255 -0.321753 -0.352036 0.878946
-25.4682 -0.256896 41.3548 -0.325853 -0.348969 0.878658
-24.6819 0.0944022 41.7849 -0.323787 -0.346407 0.880432
-23.9014 0.399717 42.1938 -0.328684 -0.341766 0.880433
-23.1065 0.670538 42.5958 -0.336992 -0.335255 0.879796
-22.3279 0.92963 42.9918 -0.335417 -0.33165 0.88176
-21.5186 1.20309 43.4052 -0.348051 -0.321675 0.880556
-20.7196 1.38211 43.7849 -0.353023 -0.315106 0.880926
-20.0234 1.55652 44.1304 -0.356979 -0.306456 0.882411
-19.2183 1.7157 44.5187 -0.370333 -0.298141 0.879753
-18.36 1.83488 44.9193 -0.374515 -0.291224 0.8803
-17.6598 1.93903 45.2495 -0.381746 -0.27606 0.882041
-16.9517 2.04996 45.5959 -0.389256 -0.265801 0.881928
-16.2771 2.15726 45.9219 -0.391946 -0.257185 0.883271
-15.597 2.21625 46.2443 -0.395025 -0.233345 0.888541
-14.8217 2.26748 46.6026 -0.398842 -0.228601 0.888069
-14.0831 2.32183 46.9544 -0.409042 -0.206209 0.888823
-13.1901 2.35828 47.3673 -0.40485 -0.195217 0.893301
-12.2445 2.29878 47.799 -0.424033 -0.175874 0.888405
-11.4721 2.20404 48.1379 -0.414924 -0.144489 0.898286
-10.7496 2.10405 48.4582 -0.415735 -0.138823 0.898829
-10.0501 1.99822 48.7648 -0.416379 -0.105805 0.902989
-9.36852 1.8859 49.0691 -0.419302 -0.0998331 0.902341
-8.41478 1.71921 49.4927 -0.419289 -0.0838753 0.903961
-7.60172 1.55508 49.8469 -0.396277 -0.0549636 0.916467
-6.87971 1.41362 50.1453 -0.390683 -0.0562512 0.918805
-5.98147 1.27889 50.5168 -0.379558 -0.0183403 0.924742
-5.22429 1.17527 50.8072 -0.357143 -0.0205101 0.933811
-4.23912 0.93746 51.1322 -0.313862 -0.0127467 0.949375
-3.4359 0.705469 51.3798 -0.282878 -0.000453095 0.959156
-2.61228 0.485066 51.6103 -0.245915 0.0105627 0.969234
-1.70422 0.199951 51.8658 -0.282225 0.0311744 0.958842
-0.921823 -0.0874043 52.0761 -0.220099 0.0560686 0.973865
-0.0508299 -0.325288 52.2412 -0.11818 0.0476979 0.991846
0.848728 -0.607806 52.377 -0.1488 0.0500876 0.987598
1.85414 -0.956906 52.5232 -0.105195 0.0923034 0.990159
2.78466 -1.25021 52.6352 -0.0766131 0.0912141 0.992874
3.55838 -1.51223 52.7042 -0.0320085 0.0862118 0.995763
4.30235 -1.78616 52.7506 -0.0262214 0.0948812 0.995143
5.17326 -2.13248 52.8154 -0.0556608 0.091487 0.994249
5.90396 -2.38833 52.8585 -0.00641492 0.121377 0.992586
6.73296 -2.45005 52.8613 0.0119835 0.123499 0.992272
7.40312 -2.05984 52.7688 0.0786185 0.182396 0.980077
7.80152 -1.2801 52.5616 0.138259 0.226978 0.964036
8.1605 -0.649618 52.3306 0.174078 0.29459 0.939635
8.60582 0.0569944 52.0111 0.181549 0.325248 0.928038
9.20918 0.905101 51.5585 0.22302 0.32998 0.917265
9.74731 1.57111 51.1121 0.312588 0.369317 0.875154
10.1543 2.09067 50.7294 0.357065 0.375636 0.85522
10.5787 2.64154 50.2777 0.411606 0.395928 0.820851
11.1974 3.33429 49.6008 0.474086 0.388983 0.789638
11.6954 3.85349 49.017 0.537397 0.39621 0.744461
12.0915 4.35044 48.4725 0.571414 0.371143 0.731705
12.6292 4.96361 47.6927 0.62499 0.353206 0.695065
13.0636 5.3448 47.1369 0.629336 0.317262 0.709423
13.5379 5.87146 46.3987 0.69438 0.319527 0.644778
13.8661 6.32897 45.8201 0.729051 0.305816 0.612341
14.2166 6.82516 45.1416 0.733906 0.316458 0.60103
14.563 7.37553 44.4522 0.769387 0.271789 0.578078
14.8491 7.87651 43.8445 0.77711 0.241417 0.58115
15.1101 8.40348 43.2428 0.802241 0.230628 0.550604
15.3063 8.95582 42.7247 0.817096 0.21331 0.535239
15.5533 9.55204 42.1437 0.82968 0.182756 0.527001
15.8729 10.301 41.3783 0.841042 0.143157 0.521684
16.0857 10.9468 40.8313 0.856401 0.113768 0.503621
16.3022 11.8117 40.2546 0.870046 0.0839477 0.485771
16.4839 12.6334 39.7875 0.881166 0.0528772 0.46984
16.6437 13.4316 39.4054 0.889947 0.0208032 0.455589
16.8029 14.1964 39.0816 0.899412 -0.0135053 0.436893
16.9961 15.0396 38.7248 0.897829 -0.0395484 0.438242
17.2502 16.0037 38.3559 0.892739 -0.0809273 0.443247
17.4619 16.7796 38.0551 0.904913 -0.112496 0.410275
17.7773 17.8389 37.6749 0.903603 -0.143347 0.403247
18.0837 18.8704 37.3895 0.90487 -0.168634 0.3906
18.3937 19.8352 37.1319 0.899857 -0.197442 0.388856
18.6668 20.7256 36.9707 0.895922 -0.215782 0.388073
18.9105 21.5029 36.8657 0.894297 -0.228745 0.384589
19.2454 22.4415 36.6895 0.889156 -0.259353 0.377012
19.6131 23.3875 36.4851 0.889282 -0.279643 0.361907
20.0073 24.4053 36.3252 0.884534 -0.294161 0.362034
20.3469 25.3443 36.2742 0.884548 -0.308925 0.349485
20.6531 26.1969 36.2665 0.88082 -0.320411 0.348559
20.9336 26.9914 36.299 0.876967 -0.327157 0.351976
21.3023 27.9447 36.2889 0.872729 -0.342025 0.348341
21.6289 28.7969 36.302 0.873133 -0.343974 0.345406
22.0657 29.9233 36.3381 0.871093 -0.35003 0.344494
22.4422 30.9743 36.4703 0.868361 -0.356903 0.344339
22.7438 31.8861 36.661 0.866504 -0.360641 0.345121
23.1222 33.0278 36.9098 0.864799 -0.363908 0.345968
23.4792 34.0108 37.0537 0.863527 -0.365563 0.347395
23.6986 34.8671 37.4096 0.863112 -0.366056 0.34791
23.3126 34.7706 38.2629 0.862487 -0.365912 0.349606
22.7824 34.5687 39.3557 0.861963 -0.364503 0.35236
22.249 34.3595 40.4422 0.861127 -0.36459 0.354306
21.8803 34.2347 41.2076 0.860284 -0.364137 0.356808
21.4927 34.0663 41.9657 0.859974 -0.363427 0.358281
21.0296 33.8534 42.8554 0.858768 -0.361918 0.36267
20.6546 33.6801 43.5687 0.858965 -0.360373 0.363744
20.2789 33.0647 43.848 0.859963 -0.359063 0.36268
19.8656 31.933 43.7062 0.860404 -0.358992 0.361703
19.5509 31.1084 43.6343 0.861183 -0.359175 0.359661
19.1866 30.1961 43.5959 0.861372 -0.35971 0.358674
18.8731 29.3683 43.5209 0.861777 -0.358803 0.358609
18.5342 28.45 43.4215 0.861308 -0.356157 0.362356
18.2168 27.6417 43.3815 0.861141 -0.356273 0.362636
17.8658 26.8409 43.4204 0.856393 -0.356237 0.373747
17.4261 25.8537 43.4883 0.857667 -0.355147 0.371849
16.9574 24.8042 43.578 0.855812 -0.348059 0.382675
16.5415 23.9313 43.7028 0.853038 -0.341209 0.394514
16.0745 22.9694 43.8943 0.849439 -0.331924 0.410219
15.7321 22.2653 44.0471 0.842432 -0.330077 0.425427
15.318 21.521 44.2656 0.834325 -0.331422 0.440523
14.8668 20.6732 44.5103 0.83062 -0.304233 0.466383
14.4791 20.0131 44.725 0.818714 -0.301432 0.487991
14.0312 19.2179 45.0268 0.824135 -0.271304 0.497188
13.6357 18.5957 45.2789 0.798514 -0.240757 0.551735
13.0373 17.7232 45.7091 0.763444 -0.243195 0.597986
12.5189 17.068 46.1037 0.742426 -0.207966 0.636062
11.8844 16.3052 46.5887 0.713811 -0.205502 0.669509
11.2768 15.719 47.0636 0.666626 -0.135843 0.732909
10.7316 15.1827 47.4621 0.659291 -0.128241 0.740743
9.81704 14.4057 48.0814 0.621091 -0.118553 0.77472
9.07761 13.8994 48.5227 0.545887 -0.0828633 0.833751
8.45653 13.5583 48.881 0.477424 -0.076743 0.875057
7.8331 13.267 49.2099 0.460503 -0.055723 0.885401
7.01871 12.8721 49.5831 0.406261 -0.0449282 0.91202
6.11335 12.5123 49.9412 0.347697 -0.0289857 0.936493
5.14331 12.1759 50.2646 0.282837 -0.0104267 0.958219
4.14843 11.7259 50.5398 0.223001 0.0162882 0.973824
3.37201 11.2703 50.7227 0.183076 0.0530602 0.981354
2.49259 10.5808 50.9231 0.150921 0.0824265 0.985103
1.90543 9.99046 51.0701 0.104799 0.126983 0.986353
1.38819 9.27822 51.2006 0.0684701 0.121214 0.990262
1.12006 8.84523 51.2722 0.0436589 0.10922 0.992673
-0.0455585 9.3358 51.2449 -0.00240256 0.0919116 0.995556
-0.781165 8.4398 51.322 -0.046308 0.106932 0.99252
-1.4605 7.88067 51.319 -0.0775276 0.0896991 0.992946
-2.19102 7.36421 51.2963 -0.101189 0.0996532 0.989864
-2.7627 6.85536 51.2645 -0.180924 0.0681446 0.981081
-3.66238 6.08632 51.1372 -0.219307 0.0541601 0.974151
-4.38105 5.65822 50.9822 -0.2448 0.0272694 0.96919
-5.07295 5.40473 50.8106 -0.267152 -0.00223431 0.963652
-5.89382 5.2715 50.579 -0.289097 -0.00995063 0.957091
-6.69593 5.26489 50.3215 -0.311233 -0.0174054 0.950174
-7.5061 5.32157 50.0446 -0.333856 -0.0307139 0.942053
-8.32238 5.50138 49.7698 -0.323027 -0.043084 0.945408
-9.16597 5.77367 49.4877 -0.334026 -0.0663576 0.940225
-9.98773 6.04198 49.2196 -0.32942 -0.0772996 0.940969
-10.7485 6.18294 48.9576 -0.332445 -0.0883235 0.938923
-11.8252 6.37877 48.6024 -0.334204 -0.11995 0.934837
-12.6821 6.54502 48.3248 -0.336636 -0.144332 0.930482
-13.4842 6.69173 48.0661 -0.329562 -0.154376 0.931427
-14.2648 6.79118 47.8111 -0.330551 -0.176371 0.927162
-15.0606 6.85497 47.5503 -0.322265 -0.186124 0.928128
-15.7823 6.81578 47.2964 -0.317633 -0.206795 0.925363
-16.6535 6.78757 46.9934 -0.314927 -0.221898 0.92277
-17.3771 6.78119 46.7521 -0.311615 -0.238527 0.919741
-18.2057 6.70256 46.4584 -0.30341 -0.260249 0.916607
-19.0109 6.55976 46.1526 -0.293396 -0.279765 0.914124
-19.9196 6.43292 45.8161 -0.293828 -0.303076 0.906538
-20.8036 6.20061 45.4514 -0.296062 -0.31267 0.902537
-21.5509 5.98469 45.131 -0.285889 -0.326329 0.900987
-22.2255 5.77212 44.8348 -0.291132 -0.330836 0.897657
-23.0767 5.47056 44.4442 -0.288277 -0.34342 0.893845
-23.8125 5.15355 44.0797 -0.287755 -0.354541 0.889648
-24.5456 4.85023 43.718 -0.294317 -0.352425 0.888351
-25.3631 4.44092 43.2826 -0.291668 -0.362987 0.884962
-25.9981 4.01835 42.8965 -0.296982 -0.365603 0.882115
-26.6139 3.60584 42.5155 -0.295776 -0.368827 0.881173
-27.2641 3.18164 42.1173 -0.297636 -0.370121 0.880013
-27.8393 2.81073 41.7643 -0.300176 -0.368863 0.879674
-28.6077 2.26681 41.2716 -0.301407 -0.373085 0.877472
-29.1222 1.82661 40.9067 -0.303089 -0.372424 0.877176
-29.6471 1.36091 40.5258 -0.306136 -0.373266 0.875759
-30.1458 0.758504 40.0957 -0.306791 -0.370436 0.876731
-30.6714 0.185191 39.6684 -0.30956 -0.366946 0.877224
-31.2383 -0.489982 39.1844 -0.311373 -0.368333 0.876001
-31.8167 -1.22277 38.6704 -0.315571 -0.364876 0.875946
-32.3573 -2.03086 38.1406 -0.316521 -0.360677 0.87734
-32.8106 -2.88328 37.6283 -0.318414 -0.356151 0.878504
-33.2754 -3.71992 37.121 -0.321216 -0.353633 0.878501
-33.6331 -4.49781 36.6779 -0.322812 -0.351042 0.878955
-33.1505 -4.49153 36.8576 -0.321736 -0.350037 0.87975
-32.4765 -4.27864 37.189 -0.320097 -0.35246 0.879378
-31.673 -4.08599 37.5571 -0.319116 -0.351127 0.88027
-30.8765 -3.86288 37.9347 -0.320887 -0.349747 0.880176
-30.1369 -3.47124 38.3596 -0.319624 -0.350653 0.880275
-29.3304 -3.22768 38.75 -0.320097 -0.350863 0.880019
-28.5008 -2.95315 39.162 -0.321218 -0.351531 0.879343
-27.7538 -2.61726 39.5703 -0.323627 -0.350777 0.878761
-26.7372 -2.19599 40.1132 -0.325091 -0.351881 0.877778
-25.9953 -1.88153 40.514 -0.32478 -0.350019 0.878638
-25.1469 -1.49406 40.9838 -0.328388 -0.346241 0.878793
-24.3988 -1.13946 41.4065 -0.332368 -0.346635 0.877141
-23.638 -0.829883 41.8176 -0.336739 -0.3379 0.878881
-22.9327 -0.601515 42.1757 -0.341094 -0.335584 0.878074
-22.0846 -0.321596 42.6174 -0.347859 -0.33456 0.875822
-21.3334 -0.0696524 43.0142 -0.355382 -0.320583 0.878026
-20.5058 0.173111 43.4387 -0.364741 -0.316695 0.875596
-19.509 0.39058 43.9399 -0.377337 -0.309737 0.872739
-18.69 0.540475 44.3467 -0.384202 -0.293056 0.875499
-17.8831 0.64686 44.7406 -0.395009 -0.284379 0.87353
-17.0126 0.803246 45.1837 -0.398954 -0.279535 0.873324
-16.2252 0.915015 45.5819 -0.409248 -0.255967 0.875784
-15.3975 0.969712 45.9885 -0.415947 -0.256398 0.872495
-14.5853 1.02753 46.3917 -0.42285 -0.225596 0.87767
-13.7852 1.08585 46.7964 -0.430334 -0.22591 0.873944
-12.9783 1.07871 47.191 -0.43584 -0.191946 0.879318
-12.1615 1.00658 47.584 -0.442526 -0.191688 0.876029
-11.3314 0.917012 47.9827 -0.435089 -0.154517 0.88703
-10.5792 0.806655 48.3327 -0.435652 -0.15448 0.88676
-9.79597 0.667819 48.7061 -0.452385 -0.135888 0.881409
-8.84014 0.502051 49.1627 -0.440587 -0.0968657 0.892468
-8.01661 0.334791 49.5438 -0.427751 -0.0977263 0.898598
-7.29783 0.182667 49.8785 -0.43034 -0.0726936 0.899735
-6.35418 0.0109115 50.3051 -0.4078 -0.0446245 0.91198
-5.57369 -0.0727276 50.629 -0.36365 -0.0473944 0.930329
-4.61985 -0.296964 50.9955 -0.359155 -0.0329307 0.932697
-3.69538 -0.591461 51.301 -0.31061 -0.0042116 0.950528
-2.85604 -0.804844 51.5517 -0.289287 0.0208851 0.957015
-2.07379 -1.04596 51.7802 -0.268106 0.0178135 0.963225
-1.06799 -1.35213 52.0475 -0.238156 -0.00227298 0.971224
-0.139688 -1.63449 52.2455 -0.182588 -0.0163393 0.983054
0.769815 -1.9501 52.4107 -0.174264 0.00286821 0.984695
1.72797 -2.27702 52.5711 -0.143146 0.0418007 0.988818
2.47116 -2.47052 52.6792 -0.122327 0.0456096 0.991411
3.21906 -2.71284 52.7763 -0.0624369 0.0477967 0.996904
3.94439 -2.99674 52.8418 -0.0545703 0.0619316 0.996439
4.90916 -3.3855 52.9063 -0.0531467 0.0694521 0.996123
5.96703 -3.69942 52.9974 -0.068102 0.0725962 0.995034
7.11664 -3.7687 53.0241 -0.0249084 0.120546 0.992395
8.12601 -3.69275 53.0083 0.0179921 0.154358 0.987487
8.48335 -2.93039 52.8606 0.0241688 0.177691 0.983789
8.81279 -2.13598 52.6434 0.0834075 0.295847 0.951587
9.29742 -1.27121 52.3359 0.17594 0.317761 0.931516
9.66086 -0.62744 52.0355 0.196582 0.34195 0.918696
10.1591 0.072179 51.6152 0.260557 0.381944 0.886696
10.7232 0.808668 51.0818 0.330988 0.411563 0.849154
11.2594 1.50377 50.4971 0.410174 0.422788 0.808089
11.7848 2.1514 49.8655 0.474732 0.423634 0.771469
12.2197 2.61172 49.3242 0.535022 0.42805 0.728371
12.7907 3.21416 48.5313 0.57653 0.420278 0.700686
13.1568 3.62705 47.9831 0.599902 0.42632 0.676027
13.5874 4.06407 47.3173 0.639112 0.376539 0.670637
13.9305 4.44491 46.7452 0.665151 0.390078 0.63672
14.3593 5.02212 45.9415 0.697277 0.373318 0.611913
14.7255 5.54026 45.2086 0.743565 0.337164 0.577435
15.0373 5.97456 44.5626 0.755821 0.315107 0.573517
15.4125 6.626 43.6656 0.769288 0.295607 0.565652
15.6328 7.08612 43.0966 0.8068 0.277791 0.521447
15.9095 7.90988 42.2429 0.81832 0.268354 0.508271
16.1791 8.64195 41.4634 0.838122 0.234989 0.492272
16.4138 9.20311 40.8242 0.857854 0.201451 0.472762
16.6135 9.87967 40.2066 0.864852 0.153171 0.477977
16.7723 10.5065 39.6945 0.882955 0.144278 0.446645
16.8838 11.1959 39.2703 0.883462 0.110927 0.454621
17.0336 11.9763 38.8036 0.892336 0.0998507 0.440188
17.1446 12.6574 38.469 0.898393 0.0592362 0.435179
17.2518 13.3848 38.1619 0.902759 0.0127508 0.429867
17.3945 14.0754 37.8383 0.90737 0.0130458 0.420131
17.5535 14.7572 37.5216 0.913562 -0.0255283 0.405898
17.7243 15.5108 37.2209 0.909761 -0.0714911 0.408931
17.9625 16.4759 36.8638 0.913287 -0.0964781 0.395725
18.1429 17.1757 36.634 0.910122 -0.127774 0.394127
18.3494 17.9338 36.3962 0.90989 -0.140193 0.390162
18.5995 18.7939 36.1471 0.907741 -0.17451 0.381512
18.8686 19.6952 35.9218 0.911022 -0.190385 0.365776
19.124 20.5794 35.7801 0.90724 -0.216289 0.360742
19.3682 21.3798 35.668 0.904465 -0.242146 0.351153
19.6784 22.2689 35.4971 0.902121 -0.254341 0.348553
19.9749 23.0484 35.3121 0.896533 -0.27238 0.349205
20.3258 23.9734 35.1595 0.892814 -0.286889 0.347243
20.6526 24.8916 35.1017 0.887697 -0.304134 0.345683
21.0749 26.0722 35.0797 0.882798 -0.319368 0.344454
21.3496 26.8702 35.1257 0.880571 -0.32498 0.344931
21.7508 27.8734 35.0733 0.876244 -0.338292 0.343132
22.1058 28.7767 35.0746 0.873271 -0.346147 0.3429
22.4901 29.7993 35.1393 0.870543 -0.351935 0.343943
22.7564 30.5309 35.2188 0.868226 -0.356994 0.344584
23.0046 31.2474 35.3359 0.867412 -0.359244 0.34429
23.2865 32.1066 35.5299 0.86578 -0.362772 0.344705
23.5994 33.0628 35.7537 0.864618 -0.365028 0.345239
23.893 33.8466 35.8474 0.864159 -0.365869 0.345498
24.2386 34.7366 35.9272 0.863782 -0.366229 0.34606
24.5145 35.5394 36.0906 0.863061 -0.367087 0.346948
24.5469 36.2526 36.762 0.863129 -0.366257 0.347656
24.038 36.0758 37.8381 0.862954 -0.365794 0.348575
23.6256 35.934 38.707 0.862057 -0.36528 0.351325
23.1843 35.7681 39.6164 0.861307 -0.36561 0.352816
22.8298 35.6342 40.3411 0.861227 -0.365153 0.353484
22.4029 35.4538 41.1897 0.860393 -0.363244 0.35746
21.952 35.2483 42.0635 0.859121 -0.362617 0.361134
21.549 35.0844 42.8547 0.858342 -0.363017 0.362585
21.2095 34.9643 43.534 0.858172 -0.36122 0.364774
20.6961 34.7566 44.5347 0.857739 -0.361361 0.365653
20.2035 34.2842 45.2278 0.859239 -0.358946 0.364508
19.8687 33.3487 45.0991 0.860433 -0.35652 0.364071
19.5407 32.4026 44.9462 0.861198 -0.356409 0.362367
19.2637 31.6059 44.8186 0.862202 -0.356668 0.359715
18.9351 30.7601 44.7654 0.862808 -0.357479 0.357446
18.6227 29.9798 44.7433 0.863323 -0.358231 0.35544
18.2699 29.0436 44.6522 0.86365 -0.359266 0.353604
17.9106 28.0865 44.5543 0.861774 -0.362116 0.35527
17.5029 27.164 44.5985 0.85934 -0.36401 0.359209
17.1601 26.4101 44.653 0.858796 -0.365346 0.359155
16.7668 25.5545 44.7184 0.853621 -0.360525 0.375969
16.4438 24.8672 44.7903 0.851793 -0.364325 0.376453
16.0702 24.0855 44.8791 0.851468 -0.358762 0.382394
15.5847 23.1902 45.0898 0.836019 -0.36088 0.413325
15.2367 22.5321 45.2296 0.832656 -0.357087 0.423125
14.6773 21.5337 45.4807 0.81976 -0.355809 0.448279
14.0464 20.5139 45.8172 0.800635 -0.343944 0.489649
13.5694 19.8 46.0454 0.790295 -0.333498 0.513213
12.9197 18.8625 46.4057 0.751688 -0.337106 0.566855
12.4234 18.2667 46.7355 0.734577 -0.304391 0.606418
11.9155 17.68 47.0432 0.708076 -0.272078 0.651184
11.2854 17.0841 47.4446 0.699363 -0.24212 0.670973
10.7258 16.5737 47.7961 0.646837 -0.219193 0.73045
9.9487 15.8931 48.2528 0.590656 -0.203901 0.78063
9.39529 15.4713 48.5731 0.557899 -0.197795 0.804564
8.74928 15.091 48.9036 0.536274 -0.173842 0.825947
8.00377 14.6797 49.2425 0.462997 -0.136425 0.874729
7.36766 14.3963 49.5416 0.42006 -0.102199 0.9013
6.44681 13.9439 49.8896 0.389097 -0.100947 0.915649
5.526 13.6487 50.1903 0.329071 -0.0891402 0.940089
4.80491 13.4344 50.3798 0.258937 -0.0718816 0.963216
3.98888 13.0516 50.5616 0.178231 -0.0558143 0.982243
3.08288 12.6147 50.7255 0.18196 0.0147658 0.983195
2.20417 12.02 50.867 0.129495 0.0455393 0.990272
1.47579 11.4303 50.9684 0.112752 0.0672945 0.990845
0.838274 10.7564 51.078 0.0504721 0.0997773 0.993729
0.351596 10.0103 51.1713 0.0167903 0.0985902 0.994986
0.176795 9.69733 51.2053 0.0167966 0.0986135 0.994984
-0.824673 10.5088 51.1289 -0.0218922 0.0832273 0.99629
-1.34146 9.68734 51.1807 -0.0588111 0.0776089 0.995248
-1.88482 9.12254 51.1866 -0.0698793 0.0616825 0.995647
-2.67472 8.55758 51.1345 -0.127939 0.0474928 0.990644
-3.26944 8.0985 51.0861 -0.154387 0.0739051 0.985205
-3.80799 7.57657 51.0303 -0.181777 0.0485561 0.98214
-4.56842 6.94295 50.9026 -0.222766 0.032354 0.974335
-5.39661 6.58541 50.7122 -0.251331 0.0165948 0.967759
-6.41744 6.52147 50.43 -0.285439 -0.00439313 0.958387
-7.34947 6.59697 50.1419 -0.313195 -0.0323313 0.949138
-8.11587 6.77791 49.8974 -0.307855 -0.03323 0.950853
-8.86027 7.06428 49.6684 -0.313239 -0.0514178 0.948281
-9.7105 7.29604 49.4118 -0.310754 -0.0663174 0.948086
-10.5524 7.4859 49.1512 -0.309168 -0.0870103 0.947019
-11.3318 7.60183 48.9147 -0.305837 -0.0978772 0.946973
-12.3428 7.7694 48.6078 -0.305049 -0.117454 0.94506
-13.0567 7.87416 48.3911 -0.299375 -0.121719 0.94634
-14.0583 8.03066 48.0969 -0.288432 -0.151833 0.945324
-14.8045 8.15691 47.8859 -0.297387 -0.170411 0.939426
-15.6266 8.11421 47.628 -0.287828 -0.191111 0.93842
-16.4237 8.029 47.36 -0.287616 -0.219554 0.932146
-17.2273 8.02096 47.117 -0.285455 -0.231626 0.929981
-17.9937 8.01158 46.889 -0.269613 -0.253429 0.928992
-18.7694 7.87757 46.6209 -0.265878 -0.264467 0.926931
-19.6426 7.7157 46.3165 -0.275437 -0.289677 0.916599
-20.4294 7.60724 46.0486 -0.261089 -0.306798 0.915264
-21.2922 7.37497 45.7079 -0.268791 -0.319572 0.908589
-22.1206 7.06432 45.3483 -0.276446 -0.330761 0.902288
-23.079 6.82376 44.9665 -0.272521 -0.347068 0.897353
-23.8206 6.53152 44.6225 -0.280654 -0.351699 0.893042
-24.533 6.19389 44.2667 -0.278061 -0.361933 0.889748
-25.2155 5.94027 43.945 -0.279615 -0.366361 0.887458
-25.9271 5.61071 43.5818 -0.281746 -0.368656 0.88584
-26.5008 5.22721 43.2343 -0.287542 -0.370208 0.883326
-27.3458 4.66801 42.7218 -0.289343 -0.376743 0.879959
-28.0312 4.21174 42.2976 -0.294372 -0.376803 0.878272
-28.7135 3.77148 41.8783 -0.296203 -0.378846 0.876776
-29.3974 3.27232 41.4309 -0.29921 -0.377069 0.876521
-29.9092 2.79753 41.0496 -0.302379 -0.378096 0.874992
-30.5338 2.32186 40.6275 -0.304519 -0.376049 0.875131
-30.9431 1.67538 40.207 -0.305103 -0.375319 0.875241
-31.6271 1.03383 39.6924 -0.306909 -0.373512 0.875383
-32.1739 0.348284 39.2041 -0.310918 -0.373366 0.87403
-32.7301 -0.320841 38.7204 -0.312949 -0.369507 0.874944
-33.2888 -1.10917 38.187 -0.315094 -0.366493 0.875442
-33.7189 -1.87996 37.7093 -0.318253 -0.36183 0.876239
-34.0594 -2.55383 37.3075 -0.320423 -0.358132 0.876967
-34.4816 -3.13866 36.913 -0.323597 -0.356909 0.876292
-34.7837 -3.84504 36.517 -0.32441 -0.354091 0.877141
-35.1421 -4.49963 36.123 -0.323787 -0.349336 0.879276
-35.483 -5.26095 35.6958 -0.327047 -0.347865 0.878652
-35.7234 -5.96862 35.3312 -0.327013 -0.341467 0.881171
-34.8937 -6.37367 35.4798 -0.32421 -0.342274 0.881893
-34.181 -6.16775 35.8213 -0.32398 -0.341933 0.882111
-33.489 -5.91041 36.1746 -0.322135 -0.343434 0.882203
-32.7497 -5.68522 36.5333 -0.32226 -0.34502 0.881538
-31.9912 -5.42934 36.91 -0.32132 -0.344573 0.882056
-31.2303 -5.25261 37.2565 -0.320687 -0.346481 0.881539
-30.5109 -5.0815 37.585 -0.320836 -0.347526 0.881072
-29.9046 -4.76065 37.932 -0.320436 -0.347383 0.881275
-29.1876 -4.46039 38.3112 -0.320814 -0.348728 0.880605
-28.3801 -4.28231 38.6766 -0.32227 -0.347891 0.880405
-27.5719 -3.90451 39.1245 -0.324725 -0.349522 0.878856
-26.9372 -3.58111 39.488 -0.325421 -0.349272 0.878698
-26.0027 -3.25004 39.9673 -0.329094 -0.347308 0.878108
-25.255 -2.94064 40.3704 -0.330145 -0.347755 0.877537
-24.5005 -2.5438 40.8145 -0.334878 -0.348114 0.875599
-23.8052 -2.20715 41.2135 -0.337977 -0.345563 0.875419
-23.0739 -1.98124 41.5888 -0.344746 -0.344705 0.873115
-22.098 -1.66526 42.101 -0.354521 -0.331935 0.874148
-21.452 -1.41911 42.4565 -0.358502 -0.33093 0.872894
-20.7884 -1.22857 42.8047 -0.367118 -0.329671 0.869784
-20.1308 -1.02587 43.1607 -0.37136 -0.321842 0.870924
-19.429 -0.858364 43.5281 -0.384881 -0.312453 0.868469
-18.7625 -0.723371 43.8741 -0.39306 -0.311644 0.865066
-18.0038 -0.624786 44.2555 -0.399844 -0.300206 0.866001
-17.3219 -0.523513 44.6112 -0.402851 -0.292755 0.86714
-16.407 -0.345339 45.1029 -0.420352 -0.280753 0.862802
-15.5966 -0.288982 45.5174 -0.425651 -0.264679 0.865296
-14.7492 -0.262105 45.9519 -0.442024 -0.252711 0.860664
-13.991 -0.178217 46.3631 -0.442069 -0.233058 0.866169
-13.2756 -0.139506 46.7444 -0.455626 -0.222079 0.862017
-12.531 -0.215578 47.1173 -0.454644 -0.204385 0.866895
-11.7341 -0.308696 47.5229 -0.467323 -0.190736 0.863264
-10.8973 -0.406148 47.9533 -0.457064 -0.163854 0.874211
-10.1741 -0.556236 48.3174 -0.470844 -0.139229 0.871161
-9.26065 -0.704496 48.7948 -0.476702 -0.119599 0.870856
-8.50009 -0.862051 49.1789 -0.456549 -0.0982537 0.884252
-7.77992 -1.01907 49.5412 -0.46363 -0.0718134 0.883114
-6.98006 -1.18265 49.9369 -0.431545 -0.0605927 0.900016
-6.22992 -1.30217 50.28 -0.409344 -0.0606759 0.910324
-5.29374 -1.45141 50.6879 -0.405341 -0.035928 0.913457
-4.39 -1.73499 51.0424 -0.354593 -0.0247798 0.934649
-3.64418 -1.93618 51.3081 -0.318153 -0.00702496 0.947957
-2.84962 -2.16115 51.5629 -0.30767 -0.00997232 0.951441
-2.11477 -2.38648 51.7738 -0.270951 -0.00969167 0.962469
-1.35634 -2.61184 51.9703 -0.248315 0.00855402 0.968642
-0.492028 -2.87702 52.1745 -0.192841 0.00721132 0.981203
0.313214 -3.13654 52.3368 -0.194764 0.0161627 0.980698
1.07752 -3.43612 52.4889 -0.187529 0.0152628 0.982139
2.00239 -3.66375 52.6483 -0.15152 0.0218171 0.988184
2.78014 -3.90653 52.7647 -0.141878 0.0174904 0.98973
3.48167 -4.17152 52.8488 -0.10278 0.0300752 0.994249
4.31501 -4.53402 52.932 -0.067018 0.0375709 0.997013
5.27419 -4.85299 53.018 -0.0785801 0.0466658 0.995815
6.18737 -5.06223 53.0892 -0.0588347 0.0463191 0.997193
6.98619 -5.03501 53.1281 -0.0411248 0.0671454 0.996825
7.84633 -5.02835 53.1725 -0.052454 0.0735527 0.995909
8.79064 -5.11794 53.2305 -0.0458559 0.116528 0.992128
9.48693 -4.58859 53.1819 -0.0522621 0.188602 0.980662
9.58543 -3.83928 53.0335 -0.0148217 0.223828 0.974464
9.75547 -3.08369 52.8627 0.00954628 0.29175 0.954179
10.2156 -2.22004 52.5467 0.113157 0.33388 0.934385
10.6006 -1.51257 52.2027 0.188726 0.378063 0.90474
10.9895 -0.906224 51.8251 0.232829 0.401911 0.885584
11.5209 -0.226785 51.298 0.311544 0.428717 0.848019
12.0363 0.44434 50.6893 0.387223 0.444496 0.807756
12.4052 0.932434 50.1882 0.459236 0.457258 0.761589
12.9201 1.52625 49.4879 0.523546 0.460751 0.716664
13.3823 1.99179 48.8218 0.565737 0.461691 0.683215
13.7685 2.43084 48.1895 0.608345 0.454992 0.650255
14.1552 2.80239 47.5746 0.622011 0.448276 0.641754
14.5925 3.37835 46.7347 0.652666 0.408803 0.637879
14.9351 3.7903 46.0598 0.696374 0.410505 0.588684
15.3214 4.34225 45.2129 0.734031 0.390395 0.555689
15.589 4.70954 44.6014 0.735881 0.367881 0.567877
15.9651 5.26034 43.7044 0.764513 0.342062 0.546013
16.2871 6.02196 42.7002 0.795967 0.317709 0.514893
16.4275 6.59716 42.1143 0.820495 0.302528 0.48504
16.6192 7.10069 41.4983 0.833577 0.264579 0.484661
16.7745 7.65738 40.9014 0.841123 0.249886 0.47911
16.9894 8.12113 40.2693 0.859243 0.236974 0.453326
17.1388 8.62425 39.7178 0.879529 0.205032 0.429408
17.2271 9.32501 39.2018 0.880356 0.18174 0.43738
17.3466 9.96713 38.7096 0.89108 0.168357 0.421466
17.4751 10.7026 38.1867 0.897668 0.130745 0.420831
17.6421 11.7348 37.5518 0.906601 0.0927707 0.411666
17.7184 12.5131 37.2337 0.911409 0.0505779 0.40837
17.855 13.4495 36.806 0.914083 0.0267183 0.4038
18.0218 14.3119 36.3961 0.919763 -0.013191 0.391559
18.1671 15.05 36.098 0.922995 -0.0479849 0.381245
18.3168 15.7443 35.8431 0.92504 -0.0826252 0.370776
18.48 16.452 35.5968 0.922901 -0.100183 0.371587
18.716 17.3854 35.2835 0.930311 -0.113739 0.348689
18.9343 18.2161 35.0503 0.924403 -0.148792 0.351126
19.1387 18.9379 34.8493 0.919676 -0.171936 0.353036
19.3939 19.8425 34.6577 0.917044 -0.196299 0.347127
19.6419 20.7606 34.5542 0.91326 -0.220315 0.342661
19.9893 21.8159 34.3546 0.908109 -0.249301 0.336432
20.2558 22.513 34.1684 0.903969 -0.261831 0.337993
20.5763 23.4093 34.0285 0.900854 -0.272098 0.338267
20.9032 24.3356 33.9455 0.896442 -0.292282 0.333111
21.2871 25.3833 33.8788 0.889017 -0.312872 0.334237
21.5856 26.2277 33.8921 0.88589 -0.320327 0.335537
21.8658 27.0652 33.9748 0.880935 -0.330372 0.338833
22.2101 27.8928 33.9057 0.87619 -0.343722 0.337855
22.5366 28.7044 33.8862 0.874271 -0.349202 0.337188
22.893 29.6534 33.9544 0.872754 -0.351928 0.3383
23.2803 30.6927 34.0541 0.869802 -0.357082 0.340495
23.6154 31.6327 34.1979 0.866976 -0.362333 0.342149
23.8844 32.5146 34.4569 0.86534 -0.365295 0.343141
24.2482 33.5234 34.6156 0.864307 -0.366788 0.344151
24.531 34.2357 34.6641 0.863681 -0.367611 0.344842
24.8111 34.9736 34.7524 0.862786 -0.369202 0.345383
25.0698 35.7236 34.9061 0.8613 -0.370016 0.348209
25.2792 36.5255 35.2369 0.862033 -0.367706 0.348842
25.5315 37.3879 35.5189 0.862827 -0.365259 0.349451
25.2916 37.6639 36.399 0.863675 -0.364194 0.34846
24.7767 37.4177 37.4193 0.863034 -0.366368 0.347775
24.3402 37.1961 38.2681 0.86243 -0.366428 0.349205
23.9459 37.101 39.1391 0.861844 -0.366499 0.350574
23.5353 36.9306 39.9656 0.860955 -0.366212 0.353051
23.1341 36.7835 40.7885 0.859912 -0.365376 0.356444
22.669 36.5814 41.6995 0.858611 -0.365426 0.359515
22.248 36.3717 42.4895 0.85788 -0.363353 0.363341
21.8597 36.2311 43.2663 0.857654 -0.362449 0.36477
21.4338 36.0919 44.1251 0.857137 -0.361563 0.366864
20.9212 35.8979 45.1312 0.857303 -0.36115 0.366881
20.3763 35.618 46.1278 0.857484 -0.358958 0.368606
19.91 34.9805 46.5957 0.859406 -0.356311 0.366693
19.6113 34.0976 46.4398 0.861142 -0.354262 0.364599
19.3937 33.3896 46.2667 0.861417 -0.354828 0.363395
19.096 32.5393 46.1441 0.863409 -0.353265 0.36018
18.8216 31.7178 45.9959 0.863466 -0.355202 0.358127
18.5375 30.9593 45.9322 0.865661 -0.352692 0.355303
18.1497 30.0073 45.9293 0.866192 -0.354602 0.352092
17.8111 29.0944 45.8385 0.86713 -0.357242 0.347079
17.4882 28.2144 45.7294 0.864984 -0.363532 0.3459
17.0788 27.3263 45.8058 0.859404 -0.372834 0.349885
16.706 26.5193 45.8592 0.858602 -0.374725 0.349833
16.2136 25.4737 45.939 0.853482 -0.374981 0.36188
15.8307 24.6636 46.0094 0.847969 -0.376122 0.373148
15.337 23.7847 46.2081 0.838375 -0.401861 0.367966
14.8892 23.0038 46.3637 0.830482 -0.402437 0.385154
14.5058 22.3325 46.4873 0.808706 -0.398364 0.432782
13.9986 21.5729 46.7306 0.79111 -0.394627 0.467348
13.4626 20.8018 46.96 0.7853 -0.390533 0.479911
12.9173 20.0549 47.1845 0.745005 -0.399434 0.534247
12.2637 19.2832 47.5153 0.692925 -0.393916 0.603891
11.7126 18.7218 47.7815 0.705689 -0.353824 0.612348
11.0719 18.1485 48.1186 0.645879 -0.340685 0.683209
10.4786 17.6375 48.4098 0.622576 -0.310247 0.717778
9.7655 17.0948 48.7731 0.588454 -0.298184 0.751258
9.0395 16.583 49.0915 0.497589 -0.309672 0.810252
8.34585 16.1949 49.3971 0.466502 -0.246586 0.849454
7.69527 15.8595 49.644 0.392616 -0.233623 0.88899
6.88355 15.5236 49.9402 0.374763 -0.212883 0.901544
6.19513 15.1835 50.1547 0.366586 -0.145809 0.918888
5.48921 14.9511 50.3547 0.252523 -0.145333 0.956614
4.72034 14.7865 50.5389 0.235519 -0.122679 0.963533
3.83803 14.4555 50.6767 0.188293 -0.12336 0.974335
2.95727 14.054 50.7847 0.124502 -0.0409378 0.991375
2.14431 13.5609 50.8524 0.096389 -0.0526741 0.993949
1.50559 13.1224 50.9155 0.0746583 -0.00483589 0.997197
0.907084 12.6595 50.9614 0.0678059 0.0419197 0.996511
0.113898 11.9283 51.0215 0.0530675 0.0555519 0.996769
-0.413438 11.1803 51.0832 0.0142794 0.0667335 0.997651
-0.764074 10.6105 51.1217 -0.0218921 0.0832273 0.99629
-1.79187 11.4305 51.0427 -0.0145517 0.0409001 0.998724
-2.34215 10.4205 51.0731 -0.0530185 0.0667967 0.996348
-3.03902 9.81382 51.0374 -0.110493 0.0242597 0.993091
-3.88636 9.27101 50.9302 -0.139403 0.0310663 0.989748
-4.4396 8.71791 50.865 -0.160426 0.0431187 0.986106
-4.9716 8.17552 50.7837 -0.186571 0.00367015 0.982435
-5.66797 7.76352 50.6288 -0.228065 -0.00370504 0.973639
-6.55461 7.8336 50.4021 -0.25645 -0.013303 0.966463
-7.3748 7.93836 50.1702 -0.287856 -0.0305773 0.957185
-8.13527 8.19296 49.9478 -0.288266 -0.0345843 0.956912
-8.89447 8.43255 49.7318 -0.28901 -0.0547399 0.955754
-9.64774 8.57776 49.517 -0.279141 -0.0641586 0.958104
-10.4178 8.75576 49.3013 -0.2883 -0.0795169 0.954227
-11.4585 8.91678 49.0052 -0.282078 -0.0882106 0.955326
-12.3559 9.08938 48.7497 -0.29106 -0.0970712 0.951768
-13.3657 9.18457 48.4771 -0.273809 -0.132377 0.952531
-14.2652 9.3422 48.2487 -0.267843 -0.157793 0.950345
-15.2124 9.46445 48.0151 -0.265167 -0.172907 0.948497
-16.1274 9.32144 47.7331 -0.264478 -0.191037 0.945281
-17.1359 9.2331 47.4386 -0.249688 -0.230188 0.940569
-18.0347 9.24519 47.2057 -0.240033 -0.258903 0.935597
-18.847 9.15043 46.9689 -0.247978 -0.271284 0.929957
-19.7759 8.94087 46.663 -0.247504 -0.280192 0.927488
-20.6387 8.84837 46.4074 -0.235958 -0.322955 0.916528
-21.5412 8.64558 46.0933 -0.254987 -0.326183 0.910267
-22.325 8.28568 45.7416 -0.256428 -0.331793 0.907832
-23.2116 8.08362 45.4126 -0.251151 -0.354401 0.900735
-24.1686 7.75079 45.0062 -0.263505 -0.361983 0.894166
-24.9011 7.38878 44.6419 -0.265611 -0.366815 0.89157
-25.613 7.13755 44.3208 -0.273408 -0.373884 0.886261
-26.3 6.86366 43.9909 -0.277674 -0.375757 0.88414
-26.9646 6.4462 43.6034 -0.277532 -0.379438 0.882611
-27.6059 6.00159 43.2084 -0.280252 -0.383341 0.880062
-28.3614 5.55262 42.7677 -0.287909 -0.384846 0.876928
-29.1471 4.9895 42.2613 -0.29246 -0.382992 0.876233
-29.8283 4.54126 41.8363 -0.294957 -0.384353 0.874799
-30.4908 3.98833 41.369 -0.29619 -0.385202 0.874008
-31.0912 3.43121 40.9181 -0.298097 -0.388042 0.872102
-31.6493 2.99559 40.5307 -0.306468 -0.384814 0.870617
-32.0594 2.42769 40.1395 -0.306875 -0.377106 0.873853
-32.643 1.99815 39.7474 -0.310891 -0.378712 0.871735
-33.0895 1.29659 39.2832 -0.313208 -0.37694 0.871675
-33.5777 0.735706 38.8655 -0.313564 -0.375932 0.871982
-33.9108 0.165749 38.5002 -0.319301 -0.370652 0.87216
-34.3946 -0.405542 38.0801 -0.319829 -0.370029 0.872231
-34.8576 -1.01386 37.653 -0.321633 -0.368508 0.872212
-35.155 -1.83139 37.2031 -0.322523 -0.362778 0.874283
-35.7113 -2.52984 36.7068 -0.327853 -0.360599 0.873202
-35.9031 -3.21036 36.3578 -0.326204 -0.353868 0.876566
-36.2939 -4.07679 35.8632 -0.327194 -0.351599 0.877108
-36.6151 -4.80309 35.4545 -0.32793 -0.346534 0.878846
-36.9086 -5.53827 35.0561 -0.329766 -0.343146 0.87949
-37.079 -6.43909 34.6424 -0.331222 -0.342409 0.879231
-36.9722 -7.18995 34.3956 -0.331038 -0.336801 0.88146
-36.6178 -7.84249 34.28 -0.328274 -0.333983 0.883567
-35.8717 -7.78016 34.58 -0.326419 -0.335746 0.883586
-35.1477 -7.61896 34.909 -0.322748 -0.337392 0.884298
-34.3514 -7.56503 35.2215 -0.324005 -0.337558 0.883785
-33.5804 -7.26351 35.6175 -0.322105 -0.338977 0.883934
-32.7775 -7.00084 36.0108 -0.321253 -0.340723 0.883575
-32.0795 -6.79134 36.346 -0.32237 -0.342636 0.882427
-31.112 -6.46172 36.827 -0.321735 -0.343011 0.882514
-30.3394 -6.32961 37.1599 -0.321125 -0.342848 0.882799
-29.4942 -5.99945 37.5955 -0.321127 -0.343708 0.882463
-28.889 -5.63299 37.9596 -0.322316 -0.34515 0.881467
-28.1748 -5.47932 38.2802 -0.321537 -0.346535 0.881208
-27.359 -5.21954 38.6814 -0.323051 -0.348228 0.879986
-26.7417 -4.89326 39.0389 -0.325761 -0.348464 0.878893
-26.0432 -4.53646 39.4408 -0.328344 -0.349656 0.877457
-25.2103 -4.29908 39.849 -0.331002 -0.350439 0.876145
-24.4118 -3.98786 40.2764 -0.335931 -0.345573 0.876202
-23.664 -3.59542 40.7184 -0.336377 -0.346597 0.875626
-23.041 -3.34992 41.0599 -0.348578 -0.346641 0.870817
-22.2238 -3.05546 41.5071 -0.354576 -0.343619 0.86959
-21.3702 -2.76795 41.972 -0.358452 -0.342245 0.868551
-20.6348 -2.46832 42.3951 -0.363452 -0.337662 0.868267
-19.867 -2.25471 42.8086 -0.377802 -0.344071 0.859581
-19.1364 -2.09721 43.1986 -0.392112 -0.322517 0.861528
-18.3888 -1.935 43.6056 -0.402735 -0.323523 0.856234
-17.5021 -1.77803 44.0858 -0.408752 -0.321109 0.85429
-16.7327 -1.67024 44.5008 -0.424792 -0.297109 0.855127
-16.0732 -1.54228 44.8731 -0.437264 -0.292834 0.850322
-15.298 -1.51835 45.2798 -0.449448 -0.27088 0.851228
-14.5188 -1.49473 45.7011 -0.460974 -0.265036 0.846854
-13.7963 -1.4159 46.1217 -0.458258 -0.244225 0.854607
-13.0577 -1.36527 46.5411 -0.474805 -0.230951 0.849248
-12.2041 -1.524 46.9824 -0.480841 -0.200867 0.85349
-11.3315 -1.60781 47.4642 -0.495105 -0.197795 0.846019
-10.4445 -1.77716 47.9574 -0.50948 -0.171294 0.843261
-9.58213 -1.95902 48.4377 -0.505349 -0.110117 0.85586
-8.91551 -2.06709 48.8114 -0.499546 -0.0918783 0.861402
-8.16494 -2.27462 49.2251 -0.49338 -0.0828761 0.865773
-7.48206 -2.3411 49.5984 -0.471399 -0.0631282 0.879541
-6.69358 -2.51909 49.9967 -0.448578 -0.0391854 0.89252
-5.8695 -2.6461 50.3864 -0.461263 -0.0146827 0.886414
-5.11938 -2.88086 50.7188 -0.406821 -0.00217375 0.913463
-4.23587 -3.08036 51.0806 -0.346272 0.0104302 0.938076
-3.52073 -3.30001 51.3406 -0.323883 0.00917921 0.946022
-2.81914 -3.50974 51.5729 -0.296656 -0.00060466 0.954984
-2.03912 -3.72501 51.8 -0.261986 0.0155543 0.964946
-1.08764 -4.01177 52.0497 -0.233222 0.0242055 0.972122
-0.103194 -4.31718 52.2717 -0.199339 0.0196445 0.979734
0.702003 -4.65735 52.436 -0.187791 0.0147354 0.982099
1.49888 -4.84658 52.5857 -0.170434 0.0186248 0.985193
2.54318 -5.26504 52.763 -0.146141 0.028324 0.988858
3.55733 -5.59617 52.8976 -0.098672 0.0256598 0.994789
4.47286 -5.95778 52.9844 -0.0792795 0.00237905 0.99685
5.36966 -6.1776 53.0574 -0.0715875 0.0210921 0.997211
6.36018 -6.42089 53.1343 -0.0883713 -0.000553424 0.996087
7.15571 -6.3131 53.2008 -0.0803575 0.0433198 0.995805
8.20065 -6.42493 53.2921 -0.0785583 0.0486136 0.995724
8.91301 -6.66363 53.3591 -0.0885158 0.0277468 0.995688
9.71834 -6.4961 53.4435 -0.0991445 0.0554802 0.992508
10.4457 -5.73937 53.4023 -0.0508973 0.134649 0.989585
10.7681 -4.45501 53.2217 -0.117966 0.259937 0.958033
10.8585 -3.68177 53.0395 -0.00730683 0.288579 0.955934
11.403 -2.95402 52.7301 0.0876296 0.421467 0.9026
11.6854 -2.22196 52.3226 0.152363 0.467512 0.870757
12.0707 -1.58292 51.8627 0.227385 0.500727 0.835206
12.4613 -1.07133 51.4113 0.293075 0.52092 0.801717
12.9081 -0.494266 50.8271 0.379297 0.527376 0.760269
13.4168 0.121073 50.0925 0.439475 0.55305 0.707812
13.8385 0.620991 49.435 0.524419 0.507811 0.683456
14.2733 1.09996 48.7008 0.549542 0.535134 0.641588
14.7047 1.61498 47.8699 0.636285 0.449772 0.626774
15.1736 2.08977 47.0472 0.638284 0.455826 0.620335
15.4904 2.50013 46.3896 0.649351 0.487309 0.583844
15.8487 2.9161 45.6078 0.704944 0.44843 0.549512
16.0894 3.32793 44.9566 0.727788 0.433779 0.531187
16.3591 3.72543 44.2496 0.756873 0.394128 0.52135
16.5654 4.14857 43.6329 0.755409 0.404248 0.51544
16.8436 4.63796 42.8109 0.764537 0.412818 0.494911
17.0527 5.14882 42.03 0.818974 0.343436 0.459711
17.1422 5.71434 41.446 0.817378 0.326199 0.473925
17.3656 6.03298 40.8108 0.850661 0.292372 0.436914
17.4851 6.79735 40.0713 0.854813 0.284934 0.43368
17.6247 7.22507 39.4557 0.889943 0.2601 0.37263
17.7362 7.85016 38.8396 0.890796 0.209651 0.403149
17.839 8.80748 38.1227 0.894022 0.202615 0.39959
17.951 9.65865 37.4373 0.926524 0.136495 0.350604
18.039 10.4167 36.9595 0.922298 0.0937169 0.374945
18.1909 11.4466 36.3425 0.914236 0.100322 0.392565
18.2611 12.3183 35.9822 0.91879 0.0777597 0.387013
18.3957 13.2909 35.4854 0.935739 0.0386176 0.350572
18.505 14.148 35.1661 0.938589 0.00104346 0.344674
18.6656 14.9689 34.8067 0.940582 -0.04319 0.336314
18.8565 15.9636 34.4788 0.937444 -0.0957713 0.334704
