10.6955 12.1377 51.5198 0.478686 0.084345 0.87387
9.95369 11.7817 51.9398 0.423638 0.0923291 0.900983
9.25503 11.5061 52.2918 0.38601 0.14358 0.910769
8.32142 11.2522 52.6934 0.368251 0.154484 0.916584
7.36916 11.043 53.0516 0.309705 0.173216 0.934922
6.57415 10.8686 53.3126 0.240635 0.169416 0.955716
5.78872 10.7477 53.5375 0.215981 0.151053 0.963783
4.72684 10.7736 53.7404 0.195778 0.177457 0.964458
3.7502 10.7734 53.8906 0.141958 0.193986 0.970665
2.94261 10.6981 54.002 0.0990053 0.211765 0.972293
2.01561 10.5086 54.1225 0.0647721 0.211782 0.975168
1.05674 10.1156 54.261 0.0299768 0.212879 0.976619
0.351968 9.69806 54.3658 0.0114494 0.194184 0.980894
-0.439876 9.23425 54.4639 -0.0140716 0.186643 0.982071
-1.26459 8.83262 54.5079 -0.0395693 0.171287 0.984368
-2.10302 8.56223 54.4789 -0.0970054 0.145681 0.984468
-2.95026 8.25958 54.4276 -0.10981 0.141232 0.983867
-3.73314 8.03708 54.333 -0.149318 0.10054 0.983665
-4.47291 7.86715 54.2143 -0.197688 0.0891234 0.976205
-5.3586 7.78183 54.0333 -0.208892 0.0553691 0.97637
-6.09417 7.79463 53.8712 -0.219965 0.0552957 0.973939
-7.03921 7.83388 53.6346 -0.243603 0.0106713 0.969816
-7.8717 7.93271 53.4088 -0.263659 -0.00972306 0.964567
-8.79443 8.07242 53.1562 -0.284695 -0.0327184 0.95806
-9.55698 8.10512 52.9342 -0.267644 -0.0557729 0.961891
-10.6755 8.17979 52.6075 -0.286551 -0.0778221 0.954899
-11.5805 8.22088 52.3431 -0.290209 -0.0886741 0.952756
-12.3545 8.24017 52.1063 -0.290507 -0.109727 0.950561
-13.249 8.22368 51.8249 -0.29983 -0.11183 0.947416
-14.3415 8.15429 51.4846 -0.288501 -0.152977 0.945069
-15.0939 8.10589 51.2412 -0.291427 -0.174333 0.940535
-16.2882 7.93272 50.8498 -0.290577 -0.18979 0.937701
-17.0423 7.81172 50.5966 -0.27748 -0.223221 0.93444
-17.9222 7.6695 50.2947 -0.271472 -0.247437 0.930096
-18.8182 7.51432 49.9826 -0.276141 -0.266839 0.923231
-19.9539 7.23045 49.5636 -0.269945 -0.290003 0.918096
-20.9446 6.92589 49.1722 -0.278856 -0.310654 0.908699
-21.6137 6.70495 48.8966 -0.275264 -0.33232 0.902105
-22.2852 6.47531 48.6097 -0.267035 -0.340289 0.901579
-23.0481 6.2011 48.2747 -0.267216 -0.346982 0.898998
-24.0617 5.79575 47.812 -0.277728 -0.354671 0.892758
-24.7699 5.44387 47.4478 -0.275249 -0.358866 0.891881
-25.586 5.14832 47.07 -0.279033 -0.367178 0.887311
-26.3997 4.74263 46.6427 -0.28284 -0.369425 0.88517
-27.2333 4.22758 46.1576 -0.283337 -0.373374 0.883352
-28.0436 3.73552 45.684 -0.288187 -0.376472 0.880464
-28.8253 3.30335 45.2376 -0.293609 -0.379553 0.877344
-29.5296 2.88925 44.8208 -0.293717 -0.381709 0.876372
-30.135 2.46896 44.435 -0.301145 -0.376547 0.876084
-30.8182 1.90834 43.9569 -0.304159 -0.379241 0.873879
-31.5456 1.37374 43.4724 -0.304562 -0.376935 0.874735
-32.0968 0.907578 43.0775 -0.307349 -0.379049 0.872845
-32.6133 0.347963 42.6546 -0.311198 -0.374213 0.873567
-33.1662 -0.250043 42.2008 -0.311897 -0.375076 0.872948
-33.7526 -0.804402 41.7552 -0.315064 -0.371029 0.87354
-34.433 -1.4601 41.2319 -0.316817 -0.3681 0.874143
-34.866 -1.96287 40.8617 -0.318437 -0.366305 0.874306
-35.341 -2.52259 40.4552 -0.31975 -0.364587 0.874549
-35.9239 -3.24601 39.9428 -0.321647 -0.359933 0.875781
-36.6413 -4.09806 39.3308 -0.323304 -0.356194 0.876698
-37.2384 -4.94009 38.7697 -0.326948 -0.35129 0.877326
-37.7803 -5.82565 38.216 -0.328022 -0.345554 0.879201
-38.3301 -6.63305 37.6946 -0.330505 -0.3409 0.880087
-38.8231 -7.51724 37.1686 -0.330582 -0.337216 0.881476
-39.2879 -8.28862 36.7004 -0.331479 -0.332196 0.883045
-39.6696 -9.08191 36.2599 -0.333121 -0.328496 0.883811
-39.9189 -9.82588 35.8906 -0.332398 -0.326488 0.884826
-40.2218 -10.7463 35.4395 -0.334022 -0.322768 0.885579
-40.5855 -11.508 35.0252 -0.333813 -0.3204 0.886516
-40.6462 -12.2782 34.7255 -0.333339 -0.319434 0.887043
-39.6839 -12.87 34.8735 -0.332066 -0.316908 0.888426
-38.7494 -13.2439 35.0885 -0.331028 -0.316908 0.888814
-38.0634 -13.5252 35.2437 -0.330009 -0.316441 0.889359
-37.036 -13.9438 35.4764 -0.330427 -0.316059 0.889339
-36.297 -14.2234 35.6514 -0.33007 -0.316055 0.889474
-35.4011 -14.568 35.8615 -0.330347 -0.314919 0.889774
-34.4916 -14.8567 36.0962 -0.329206 -0.315089 0.890136
-33.6786 -15.1211 36.3043 -0.32945 -0.31297 0.890793
-32.7989 -14.9471 36.6904 -0.329256 -0.313426 0.890704
-32.4311 -14.203 37.0878 -0.327718 -0.313784 0.891146
-32.1429 -13.5319 37.4311 -0.326817 -0.314673 0.891162
-31.7314 -12.7395 37.8627 -0.325286 -0.31758 0.890691
-31.2766 -12.0144 38.2887 -0.324583 -0.319331 0.890322
-30.7751 -11.2682 38.7423 -0.323938 -0.324186 0.888801
-30.2817 -10.4426 39.2251 -0.32434 -0.327507 0.887436
-29.6779 -9.7402 39.7074 -0.324486 -0.332089 0.885675
-29.2375 -9.18269 40.0764 -0.323343 -0.333764 0.885464
-28.755 -8.52387 40.5032 -0.323157 -0.335674 0.884811
-28.263 -8.03142 40.8707 -0.322374 -0.340489 0.883257
-27.5472 -7.45767 41.3552 -0.32603 -0.341929 0.881356
-26.8235 -6.79784 41.8821 -0.329684 -0.343467 0.879397
-26.133 -6.25064 42.3585 -0.331976 -0.344436 0.878153
-25.5831 -5.82819 42.7331 -0.335742 -0.342893 0.877326
-25.0529 -5.4233 43.0947 -0.337376 -0.344799 0.875952
-24.5345 -4.96912 43.4753 -0.344147 -0.343612 0.873781
-23.7605 -4.40148 44.0031 -0.348592 -0.343238 0.872151
-22.8266 -3.87969 44.5838 -0.351311 -0.335584 0.874042
-22.141 -3.56954 44.9846 -0.362675 -0.33004 0.871516
-21.5321 -3.29654 45.3472 -0.370357 -0.32878 0.868743
-20.8531 -2.93958 45.7722 -0.375424 -0.326434 0.867466
-20.0051 -2.6083 46.2676 -0.382861 -0.316026 0.86807
-19.3518 -2.43026 46.6241 -0.396197 -0.313607 0.862937
-18.6304 -2.20263 47.0328 -0.394735 -0.300552 0.868245
-17.9694 -1.93796 47.432 -0.410617 -0.293703 0.863201
-17.1489 -1.77969 47.8785 -0.411461 -0.280077 0.867327
-16.5073 -1.60784 48.2471 -0.426469 -0.27072 0.863038
-15.7964 -1.47449 48.6388 -0.426078 -0.255876 0.867719
-14.9028 -1.2473 49.1485 -0.43249 -0.245234 0.867603
-13.9405 -1.12914 49.6656 -0.433128 -0.237724 0.869418
-13.2555 -1.0923 50.0257 -0.439349 -0.222129 0.87042
-12.4072 -1.10503 50.459 -0.453202 -0.206905 0.867031
-11.7228 -1.11152 50.8067 -0.442161 -0.190401 0.876493
-10.9733 -1.05956 51.1914 -0.4417 -0.182378 0.878387
-10.3023 -1.02861 51.5331 -0.436139 -0.17398 0.882901
-9.46454 -1.00339 51.9378 -0.417304 -0.158879 0.894771
-8.71126 -1.0703 52.2714 -0.412286 -0.146768 0.899068
-7.71159 -1.1857 52.7115 -0.39922 -0.128958 0.907735
-7.0195 -1.26715 53.0065 -0.389142 -0.124296 0.912647
-5.94379 -1.51653 53.4233 -0.388108 -0.110783 0.914931
-4.91448 -1.68048 53.8153 -0.367014 -0.106704 0.924075
-3.9914 -1.86091 54.1368 -0.336496 -0.114935 0.934632
-3.28215 -2.06977 54.3627 -0.331149 -0.116226 0.936392
-2.38401 -2.35077 54.6247 -0.283678 -0.104169 0.953132
-1.61417 -2.55 54.8186 -0.273985 -0.135184 0.952183
-0.661258 -2.75782 55.0548 -0.255679 -0.135699 0.957129
0.271049 -3.08184 55.2422 -0.23621 -0.136415 0.962079
0.502917 -3.17316 55.2845 -0.220893 -0.142444 0.96484
0.0487748 -4.39357 55.0003 -0.240804 -0.137109 0.960841
1.13538 -4.82152 55.2027 -0.227826 -0.133438 0.964495
1.81231 -5.1375 55.306 -0.209688 -0.138179 0.967955
2.5323 -5.41203 55.422 -0.195788 -0.136191 0.971093
3.23439 -5.77194 55.51 -0.188617 -0.1298 0.973435
4.02433 -6.1962 55.5964 -0.176263 -0.140425 0.974274
4.79002 -6.52878 55.682 -0.169962 -0.149417 0.974057
5.60816 -6.97024 55.7574 -0.175862 -0.147635 0.97327
6.47538 -7.48567 55.838 -0.179446 -0.157323 0.971107
7.43957 -8.05355 55.9315 -0.18133 -0.14974 0.971915
8.21882 -8.57528 55.9898 -0.182871 -0.168245 0.968634
9.16785 -9.28761 56.0682 -0.206346 -0.171954 0.963251
10.0445 -10.0081 56.1349 -0.224044 -0.186416 0.956584
10.6107 -10.5376 56.1579 -0.241802 -0.214754 0.946155
11.3385 -11.1768 56.2115 -0.252588 -0.21841 0.942573
12.2196 -11.8786 56.3022 -0.273416 -0.20635 0.939473
12.8596 -12.5915 56.3341 -0.281589 -0.208528 0.936595
13.3792 -13.1991 56.3603 -0.292596 -0.210382 0.932806
13.9632 -13.9459 56.3799 -0.301152 -0.208053 0.930603
14.4453 -14.6348 56.3838 -0.308587 -0.204059 0.92905
15.0874 -15.5851 56.3889 -0.311297 -0.20285 0.928406
15.678 -16.4952 56.3936 -0.316137 -0.200306 0.927326
16.0686 -17.1746 56.3812 -0.323858 -0.198298 0.925083
16.4435 -17.8569 56.3683 -0.323315 -0.195938 0.925784
16.9218 -18.7848 56.3397 -0.326982 -0.196363 0.924405
17.3953 -19.7537 56.3021 -0.329965 -0.195779 0.923468
17.8528 -20.763 56.2518 -0.332014 -0.19595 0.922697
18.2132 -21.8462 56.1514 -0.337905 -0.196267 0.920489
18.4851 -22.5977 56.0909 -0.338033 -0.200165 0.919598
18.8911 -23.7332 55.9984 -0.3445 -0.198218 0.91762
19.2348 -24.6907 55.9246 -0.349529 -0.19432 0.916552
19.3207 -25.7878 55.7241 -0.352118 -0.193644 0.915702
19.3959 -26.7094 55.5567 -0.354754 -0.195446 0.914303
19.596 -27.799 55.4028 -0.358099 -0.193005 0.913518
19.6995 -28.5963 55.2743 -0.36201 -0.191033 0.91239
19.9465 -29.5754 55.1682 -0.364162 -0.189339 0.911886
19.9257 -30.7207 54.9227 -0.366006 -0.188198 0.911384
19.919 -31.7319 54.7124 -0.368483 -0.185663 0.910906
19.8898 -32.5211 54.5402 -0.368521 -0.184724 0.911081
19.8628 -33.4491 54.3426 -0.371746 -0.182122 0.910295
19.7619 -34.1679 54.1578 -0.371706 -0.181079 0.910519
19.6895 -34.9355 53.977 -0.373218 -0.178809 0.910349
19.588 -35.6647 53.7928 -0.373579 -0.177493 0.910459
19.4396 -36.6568 53.5399 -0.373417 -0.176082 0.910799
19.2441 -37.8469 53.2318 -0.375112 -0.173749 0.91055
19.302 -38.6698 53.0999 -0.37486 -0.172218 0.910945
20.0849 -39.165 53.3282 -0.374613 -0.171505 0.911181
21.1043 -39.5313 53.6781 -0.37421 -0.171369 0.911372
22.0372 -39.967 53.9798 -0.374763 -0.171004 0.911214
22.8434 -40.3315 54.243 -0.374514 -0.170856 0.911344
23.6823 -40.5599 54.5452 -0.374877 -0.170169 0.911323
24.5572 -40.9576 54.831 -0.375116 -0.169605 0.91133
25.251 -41.2986 55.0532 -0.37556 -0.169543 0.911159
26.0437 -41.6065 55.3226 -0.375601 -0.169086 0.911226
26.7562 -41.8703 55.5678 -0.37592 -0.168729 0.911161
27.5283 -42.2405 55.8181 -0.376243 -0.168211 0.911124
28.3243 -42.6046 56.0797 -0.376472 -0.167928 0.911081
29.3094 -42.6073 56.4863 -0.376509 -0.167678 0.911112
29.5679 -41.7828 56.7449 -0.376599 -0.167652 0.91108
29.7541 -41.0349 56.9599 -0.376303 -0.1685 0.911045
29.9334 -40.3342 57.1636 -0.376288 -0.168591 0.911035
30.0187 -39.4885 57.3554 -0.376276 -0.168771 0.911006
30.0698 -38.5761 57.5462 -0.375848 -0.169559 0.911037
30.1626 -37.7911 57.7306 -0.375632 -0.169819 0.911077
30.2587 -36.5661 57.9985 -0.375197 -0.170399 0.911148
30.3229 -35.3382 58.2548 -0.374642 -0.170927 0.911278
30.3609 -34.0784 58.5071 -0.374233 -0.171676 0.911305
30.4035 -33.1274 58.7039 -0.373177 -0.171784 0.911718
30.4306 -32.1022 58.9084 -0.372291 -0.172195 0.912002
30.3271 -31.3045 59.0169 -0.371894 -0.172543 0.912099
30.2433 -30.2963 59.1732 -0.371898 -0.172134 0.912174
30.1869 -29.1964 59.3581 -0.369065 -0.172097 0.913331
30.0724 -28.24 59.492 -0.36907 -0.171955 0.913356
29.9501 -27.3896 59.6032 -0.367523 -0.172563 0.913865
29.8005 -26.6543 59.6816 -0.366514 -0.171347 0.914498
29.6391 -25.6931 59.7981 -0.365432 -0.172295 0.914753
29.4618 -24.9336 59.8701 -0.363339 -0.171396 0.915756
29.2374 -23.8502 59.9842 -0.361708 -0.171665 0.916351
29.0858 -23.0544 60.0731 -0.359096 -0.17108 0.917487
28.9096 -22.2728 60.1491 -0.35742 -0.170704 0.918211
28.6463 -21.3059 60.2258 -0.354994 -0.169746 0.919329
28.3511 -20.444 60.2708 -0.352283 -0.168543 0.920592
28.0268 -19.5121 60.3178 -0.349873 -0.168 0.92161
27.6303 -18.4991 60.3538 -0.344967 -0.168107 0.923438
27.297 -17.723 60.3721 -0.341184 -0.169287 0.924623
26.9719 -17.0078 60.3833 -0.337724 -0.171299 0.925526
26.6021 -16.1144 60.4132 -0.33505 -0.168374 0.927034
26.3048 -15.3706 60.4427 -0.33341 -0.172493 0.926868
25.9765 -14.6474 60.4589 -0.328995 -0.171556 0.928618
25.5982 -13.8397 60.474 -0.330132 -0.172645 0.928012
25.0344 -12.8905 60.452 -0.329025 -0.174409 0.928075
24.6752 -12.2326 60.4495 -0.327877 -0.179347 0.92754
24.2349 -11.2646 60.4811 -0.327615 -0.17939 0.927625
23.7554 -10.5348 60.452 -0.328491 -0.17786 0.92761
23.2141 -9.84924 60.3886 -0.335097 -0.1763 0.925542
22.8431 -9.16302 60.3829 -0.339247 -0.17256 0.924735
22.4058 -8.46308 60.3516 -0.344111 -0.169722 0.923462
21.7306 -7.71258 60.235 -0.347511 -0.163801 0.923258
21.1772 -7.00023 60.1447 -0.357665 -0.150927 0.921573
20.6318 -6.24039 60.0548 -0.358084 -0.141703 0.92287
20.1223 -5.62128 59.947 -0.363202 -0.127124 0.922984
19.3351 -4.76303 59.7472 -0.369364 -0.107035 0.9231
18.6578 -4.10582 59.5479 -0.369994 -0.0868043 0.92497
18.072 -3.48053 59.3667 -0.383847 -0.0647957 0.92103
17.4905 -2.9389 59.163 -0.390299 -0.0454941 0.919564
16.6416 -2.35379 58.8201 -0.394508 -0.00208934 0.91889
16.0192 -1.96136 58.5447 -0.406685 0.0275662 0.913153
15.2039 -1.52759 58.1487 -0.410089 0.0521038 0.910248
14.3888 -1.18807 57.7397 -0.442908 0.111224 0.889179
13.6905 -0.94275 57.3752 -0.392465 0.167273 0.904428
13.0215 -0.588698 56.9797 -0.442297 0.243427 0.863202
12.4789 -0.0742122 56.5838 -0.293107 0.433113 0.852351
12.0698 0.557696 56.1632 -0.203181 0.460735 0.860391
11.757 1.30051 55.6507 -0.0167374 0.479669 0.877197
11.728 2.06302 55.1312 0.108318 0.593223 0.797718
11.9709 2.92628 54.4589 0.34377 0.545638 0.764265
12.3323 3.54343 53.8773 0.388946 0.505218 0.768184
12.6823 4.07786 53.2928 0.434776 0.489743 0.754883
13.0794 4.61593 52.6979 0.493624 0.480147 0.725117
13.6304 5.10652 51.9956 0.553348 0.444708 0.704302
14.0442 5.4352 51.4589 0.607038 0.449579 0.655265
14.499 5.81716 50.8108 0.636527 0.375528 0.673656
14.8852 6.14724 50.2505 0.686877 0.371768 0.62449
15.3731 6.56274 49.481 0.69982 0.346968 0.623902
15.7823 6.89283 48.8071 0.715513 0.332743 0.614012
16.2446 7.281 48.0261 0.74909 0.320295 0.579731
16.647 7.6032 47.3261 0.769851 0.294266 0.566061
17.0381 7.8647 46.6292 0.783653 0.276605 0.55578
17.44 8.1648 45.887 0.811935 0.250519 0.527259
17.7736 8.42922 45.2357 0.826706 0.240198 0.508786
18.1431 8.76794 44.4778 0.847636 0.20714 0.488473
18.4782 9.09729 43.7725 0.855341 0.174772 0.487073
18.8169 9.43932 43.0098 0.868995 0.176845 0.462137
19.0849 9.79369 42.3731 0.873735 0.140687 0.465479
19.3546 10.2326 41.7041 0.889999 0.123805 0.438813
19.7044 10.7214 40.8663 0.898999 0.115086 0.421938
19.9799 11.3718 40.123 0.910856 0.0699277 0.406757
20.1623 11.9033 39.624 0.914597 0.0407437 0.402309
20.3715 12.4557 39.0884 0.914561 0.0282313 0.403462
20.619 13.1709 38.4986 0.922489 0.000190136 0.386024
20.8238 13.9382 38.0526 0.922746 -0.0353473 0.383472
21.0071 14.5781 37.6617 0.922709 -0.0601071 0.380783
21.2222 15.3274 37.2588 0.923765 -0.0653488 0.37729
21.4677 16.1782 36.8449 0.930157 -0.0958484 0.354431
21.6959 16.9383 36.5317 0.921056 -0.146545 0.360751
21.9101 17.6758 36.2979 0.918646 -0.160001 0.36112
22.2575 18.7627 35.953 0.912911 -0.190164 0.360924
22.6212 19.879 35.6816 0.906576 -0.221127 0.359236
22.9693 20.8706 35.4587 0.904703 -0.251219 0.34387
23.2137 21.5791 35.3606 0.899158 -0.259525 0.352273
23.6047 22.6932 35.2481 0.890427 -0.286104 0.353884
24.0283 23.8012 35.1225 0.884596 -0.304229 0.353415
24.2928 24.5121 35.1013 0.878626 -0.318166 0.35607
24.6665 25.554 35.1381 0.872252 -0.334697 0.356586
25.1237 26.6291 35.0466 0.867764 -0.347177 0.355604
25.4726 27.5248 35.0796 0.863963 -0.355347 0.356787
25.7277 28.2293 35.1663 0.861636 -0.361354 0.356361
26.0433 29.0341 35.2277 0.859872 -0.364366 0.357572
26.3359 29.7438 35.2559 0.856657 -0.370139 0.359356
26.6303 30.5939 35.4346 0.85453 -0.374252 0.360159
26.9396 31.4667 35.61 0.852601 -0.377859 0.360964
27.2957 32.4812 35.8349 0.850759 -0.38105 0.361954
27.5459 33.1798 35.9831 0.849143 -0.383213 0.36346
27.9645 34.2886 36.1709 0.848971 -0.382037 0.365098
28.1981 35.0509 36.4274 0.848054 -0.383252 0.365954
28.5092 35.9913 36.6877 0.848474 -0.381956 0.366335
28.3387 36.2653 37.3674 0.849544 -0.379634 0.366268
27.7977 36.1215 38.4763 0.849304 -0.382427 0.363913
27.3271 35.9292 39.3706 0.847685 -0.386184 0.363721
26.9525 35.7577 40.0571 0.846077 -0.386336 0.367285
26.3894 35.5365 41.1046 0.842714 -0.387816 0.373405
25.7946 35.3283 42.1972 0.835976 -0.389677 0.386389
25.2172 35.1287 43.222 0.83028 -0.390503 0.397672
24.6596 34.8984 44.1432 0.825426 -0.390224 0.407918
24.1393 34.7413 45.0262 0.819364 -0.391068 0.419177
23.6735 34.6276 45.8159 0.813302 -0.388706 0.432952
23.2238 34.4979 46.5427 0.809978 -0.387477 0.440177
22.6534 34.2353 47.3503 0.808484 -0.384487 0.445559
22.3418 33.3023 47.1189 0.811143 -0.374887 0.448895
22.0774 32.5992 47.0169 0.8152 -0.36718 0.447881
21.7683 31.8141 46.943 0.820782 -0.35596 0.446747
21.4845 30.9932 46.8099 0.825922 -0.348219 0.443392
21.171 30.066 46.6678 0.830346 -0.343601 0.438708
20.9188 29.3257 46.5693 0.835663 -0.338034 0.432881
20.6702 28.6085 46.4876 0.837198 -0.338119 0.429854
20.3041 27.7506 46.5398 0.841236 -0.332505 0.426336
19.8234 26.5894 46.6021 0.846539 -0.322968 0.423133
19.4798 25.6414 46.5649 0.849071 -0.324591 0.416796
19.1396 24.7748 46.5845 0.849359 -0.323674 0.416922
18.7669 23.9171 46.6725 0.84674 -0.328062 0.418768
18.4256 23.2522 46.8479 0.843827 -0.327934 0.424712
18.0761 22.5963 47.0284 0.84119 -0.324399 0.432622
17.7081 21.8936 47.2135 0.841704 -0.316832 0.437101
17.322 21.0379 47.3218 0.834877 -0.312637 0.45296
16.9677 20.3049 47.4538 0.819776 -0.320125 0.474855
16.4699 19.5243 47.786 0.805628 -0.318259 0.499675
16.0797 18.9402 48.0514 0.78124 -0.316257 0.538187
15.6165 18.2101 48.3234 0.791813 -0.291032 0.536966
15.1076 17.5122 48.6263 0.751231 -0.271408 0.600161
14.6688 16.9187 48.9269 0.726796 -0.261855 0.63498
14.2076 16.3159 49.22 0.719232 -0.186241 0.66892
13.5783 15.673 49.6646 0.671688 -0.197545 0.713793
12.9687 15.1274 50.0825 0.648693 -0.128875 0.749927
12.4436 14.702 50.4288 0.599987 -0.116415 0.791494
11.8063 14.2846 50.8381 0.556128 -0.0712897 0.826988
11.1989 13.9087 51.175 0.531823 -0.0372873 0.844651
10.4668 13.5327 51.575 0.455323 -0.000801706 0.890326
9.69143 13.1002 51.9628 0.400697 0.0495756 0.914868
9.00507 12.8464 52.2718 0.386661 0.0379471 0.921441
8.23205 12.6354 52.5764 0.334917 0.0523962 0.94079
7.54043 12.4341 52.8293 0.292604 0.0686196 0.953755
6.71175 12.2184 53.0963 0.244347 0.103038 0.964198
5.81932 12.0952 53.3263 0.222774 0.0845833 0.97109
4.9278 12.121 53.4899 0.185972 0.135241 0.973203
3.77302 12.0952 53.665 0.134123 0.131997 0.982126
2.82084 12.0132 53.7799 0.103335 0.133655 0.985616
2.06506 11.9099 53.8492 0.0686888 0.15118 0.986117
0.980428 11.5679 53.9621 0.0346308 0.17982 0.98309
0.306095 11.2188 54.0473 0.00219202 0.200981 0.979555
-0.537461 10.665 54.1648 -0.000887272 0.20879 0.97796
-1.40352 10.1949 54.2303 -0.0360362 0.191471 0.980754
-2.14554 9.87027 54.252 -0.0615082 0.176331 0.982407
-3.01282 9.61484 54.2205 -0.112243 0.150755 0.982178
-4.02172 9.30224 54.1518 -0.114432 0.103612 0.988013
-4.94155 9.08394 54.032 -0.173727 0.0714734 0.982197
-5.68423 9.07549 53.8932 -0.202066 0.0552362 0.977813
-6.69929 9.18982 53.6837 -0.203776 0.020528 0.978676
-7.52684 9.25768 53.5041 -0.225851 0.00543468 0.974034
-8.38256 9.39171 53.3021 -0.216309 -0.0294477 0.975881
-9.29678 9.47941 53.0786 -0.254979 -0.0467596 0.965789
-10.0732 9.4945 52.8737 -0.268002 -0.0654902 0.96119
-11.1022 9.55449 52.5908 -0.268018 -0.065488 0.961186
-12.2438 9.58452 52.273 -0.268573 -0.100348 0.958018
-13.1878 9.56871 52.0108 -0.258929 -0.101684 0.960529
-13.9536 9.51486 51.7896 -0.254224 -0.130281 0.95833
-14.7728 9.45894 51.5616 -0.259698 -0.132131 0.956608
-15.7181 9.38348 51.2923 -0.252738 -0.176172 0.951361
-16.5579 9.21533 51.0396 -0.256488 -0.193347 0.947011
-17.3054 9.09727 50.8187 -0.238387 -0.211518 0.947799
-18.3393 8.89487 50.4997 -0.259539 -0.238552 0.935665
-19.4017 8.72437 50.1735 -0.251904 -0.264788 0.930702
-20.1021 8.5322 49.9346 -0.234512 -0.283526 0.929848
-20.9523 8.28068 49.6309 -0.237912 -0.309884 0.920527
-21.871 7.9879 49.2821 -0.250378 -0.327848 0.910926
-22.8898 7.59806 48.8579 -0.253702 -0.346964 0.902901
-23.8347 7.29167 48.4736 -0.256913 -0.360255 0.896778
-24.5572 7.03068 48.1626 -0.258274 -0.364497 0.894655
-25.223 6.66095 47.8136 -0.263377 -0.369062 0.891305
-25.8812 6.40461 47.5081 -0.271191 -0.378418 0.885003
-26.7291 6.10588 47.121 -0.271342 -0.384753 0.882235
-27.4079 5.66084 46.7169 -0.277652 -0.379644 0.882485
-28.1552 5.21446 46.2864 -0.284261 -0.381341 0.879645
-28.8819 4.76324 45.8543 -0.288039 -0.381848 0.878195
-29.5035 4.40444 45.4933 -0.29163 -0.38469 0.875763
-30.3012 3.97215 45.0357 -0.292992 -0.383801 0.8757
-31.053 3.45059 44.5513 -0.29682 -0.388347 0.872396
-31.5992 2.9579 44.1477 -0.298837 -0.385911 0.872792
-32.2189 2.50709 43.7346 -0.301882 -0.386202 0.871615
-32.8403 2.01634 43.3014 -0.304538 -0.385433 0.871031
-33.5185 1.36709 42.7763 -0.308473 -0.380977 0.871608
-34.0015 0.775544 42.345 -0.311643 -0.380857 0.870532
-34.5271 0.304725 41.9528 -0.314794 -0.377749 0.870753
-35.084 -0.149071 41.5552 -0.316064 -0.373738 0.87202
-35.6694 -0.84575 41.042 -0.317718 -0.371975 0.872171
-36.1151 -1.34086 40.6687 -0.319797 -0.370849 0.871895
-36.6896 -2.09272 40.1396 -0.322374 -0.365365 0.87326
-37.3542 -2.87602 39.5675 -0.323266 -0.362086 0.874296
-37.8029 -3.41332 39.1781 -0.329761 -0.360979 0.872321
-38.223 -4.02158 38.7717 -0.331181 -0.354929 0.874268
-38.6477 -4.72771 38.3278 -0.329476 -0.35069 0.87662
-39.081 -5.36604 37.909 -0.33306 -0.346159 0.877066
-39.4912 -5.94878 37.5235 -0.331927 -0.343023 0.878726
-39.8118 -6.56241 37.1649 -0.331606 -0.340048 0.880002
-40.2119 -7.33009 36.7167 -0.333799 -0.33729 0.880235
-40.5833 -7.91006 36.3552 -0.334782 -0.33237 0.881732
-40.933 -8.67713 35.9345 -0.335547 -0.328635 0.88284
-41.1096 -9.39885 35.5989 -0.335182 -0.326286 0.883847
-41.4873 -10.3661 35.1009 -0.335243 -0.324222 0.884586
-41.9393 -11.2824 34.5963 -0.334953 -0.320628 0.886004
-42.0799 -11.9625 34.2987 -0.335998 -0.318063 0.886533
-42.1723 -12.733 33.9887 -0.333989 -0.316444 0.887871
-41.4633 -13.4248 34.0092 -0.33337 -0.314613 0.888753
-40.6332 -13.7878 34.1915 -0.333097 -0.315191 0.888651
-39.8001 -14.1189 34.3855 -0.331581 -0.315385 0.889149
-38.9458 -14.448 34.5874 -0.331659 -0.315304 0.889149
-38.0886 -14.8031 34.7807 -0.331009 -0.314966 0.889511
-37.2973 -15.1241 34.9614 -0.330426 -0.314557 0.889872
-35.98 -15.5907 35.286 -0.330266 -0.314247 0.890041
-35.1558 -15.9252 35.474 -0.330215 -0.312403 0.890709
-34.3427 -16.1613 35.6928 -0.330835 -0.31175 0.890707
-33.5155 -16.4636 35.8943 -0.3306 -0.310279 0.891308
-32.6194 -16.7916 36.1134 -0.331486 -0.309784 0.891151
-32.1031 -16.4292 36.4312 -0.331084 -0.30907 0.891548
-31.7782 -15.7869 36.7749 -0.329442 -0.310224 0.891755
-31.3334 -14.9559 37.2282 -0.327795 -0.311242 0.892008
-30.961 -13.9271 37.7244 -0.326224 -0.312993 0.891971
-30.5001 -13.1563 38.1643 -0.324737 -0.315726 0.89155
-30.0029 -12.4768 38.5858 -0.323683 -0.316486 0.891664
-29.6089 -11.838 38.9592 -0.323039 -0.322356 0.889793
-29.1718 -11.1988 39.3507 -0.321882 -0.327501 0.888333
-28.6863 -10.6782 39.7191 -0.323249 -0.329215 0.887202
-28.1738 -10.017 40.1502 -0.321806 -0.332257 0.886591
-27.6887 -9.41039 40.5553 -0.321957 -0.333734 0.885982
-27.1005 -8.74046 41.0236 -0.323724 -0.338395 0.883563
-26.5556 -8.33773 41.381 -0.328193 -0.341985 0.880531
-26.0098 -7.85938 41.7722 -0.331137 -0.344233 0.878551
-25.4819 -7.4109 42.1476 -0.3354 -0.345584 0.876401
-24.9444 -6.97321 42.5259 -0.335231 -0.346288 0.876187
-24.3386 -6.5438 42.9293 -0.340773 -0.346048 0.874139
-23.7667 -6.02587 43.3601 -0.343065 -0.347741 0.872573
-23.1565 -5.59174 43.7779 -0.350471 -0.347265 0.869815
-22.3289 -5.18701 44.2782 -0.359528 -0.348111 0.86577
-21.7592 -4.84889 44.6487 -0.367746 -0.33882 0.865988
-21.1701 -4.55687 45.0175 -0.376567 -0.339277 0.862026
-20.4202 -4.20171 45.4854 -0.383708 -0.332894 0.861365
-19.6677 -3.82826 45.9653 -0.391577 -0.32088 0.862382
-18.9296 -3.65773 46.3659 -0.3986 -0.319386 0.859697
-18.1777 -3.34679 46.8409 -0.411301 -0.315181 0.855274
-17.509 -3.15675 47.2366 -0.434293 -0.302915 0.848309
-16.7781 -2.99629 47.6622 -0.43134 -0.289949 0.854301
-15.9326 -2.78611 48.1627 -0.441437 -0.275025 0.854105
-15.0244 -2.57707 48.7007 -0.447158 -0.25249 0.858079
-14.2971 -2.45785 49.1161 -0.450473 -0.240525 0.85978
-13.511 -2.43112 49.5354 -0.456852 -0.233894 0.858191
-12.8044 -2.40879 49.9262 -0.46966 -0.226823 0.853212
-12.0601 -2.3836 50.333 -0.466331 -0.209865 0.859356
-11.3841 -2.38084 50.6979 -0.454139 -0.192928 0.869789
-10.4887 -2.39333 51.1692 -0.46104 -0.179498 0.869036
-9.76489 -2.31091 51.5538 -0.442884 -0.167489 0.880796
-9.05688 -2.31493 51.8997 -0.431073 -0.151068 0.889581
-8.26493 -2.46502 52.2556 -0.425828 -0.149997 0.892275
-7.44151 -2.54477 52.6264 -0.417264 -0.129477 0.899514
-6.62313 -2.69991 52.9787 -0.408543 -0.132393 0.903086
-5.92548 -2.8627 53.2604 -0.381946 -0.121395 0.916177
-5.19041 -2.96431 53.5459 -0.36621 -0.120325 0.92272
-4.3941 -3.0905 53.8326 -0.34017 -0.125035 0.932014
-3.5788 -3.36449 54.0901 -0.326619 -0.134159 0.935521
-2.62986 -3.64824 54.3587 -0.298357 -0.13669 0.944599
-1.68555 -3.85428 54.6156 -0.274984 -0.131427 0.952424
-0.958166 -4.02113 54.7956 -0.247543 -0.132746 0.959739
-0.257536 -4.2651 54.9418 -0.243563 -0.134561 0.960498
-0.195903 -4.29073 54.9536 -0.240804 -0.137109 0.960841
-0.620257 -5.50553 54.675 -0.254172 -0.134892 0.957706
0.241487 -5.94629 54.8401 -0.225567 -0.115582 0.967347
0.92982 -6.20953 54.9625 -0.210322 -0.133826 0.968429
1.66569 -6.50849 55.0774 -0.204826 -0.138226 0.968989
2.65198 -6.91233 55.2196 -0.185724 -0.134187 0.973396
3.5846 -7.39068 55.3213 -0.180024 -0.161679 0.970284
4.47751 -7.8175 55.4127 -0.191601 -0.177592 0.965272
5.17926 -8.21649 55.4786 -0.184489 -0.154206 0.970658
5.8819 -8.58144 55.5479 -0.182355 -0.176803 0.967206
6.64065 -9.03978 55.6057 -0.181861 -0.179497 0.966803
7.34411 -9.5665 55.6348 -0.181097 -0.190343 0.964828
8.04709 -10.0968 55.6663 -0.202858 -0.195144 0.959552
8.74202 -10.5638 55.7163 -0.207001 -0.20208 0.957234
9.34258 -11.0621 55.7369 -0.203851 -0.229815 0.951527
9.93582 -11.7003 55.7189 -0.238351 -0.235214 0.942265
10.7467 -12.3188 55.7773 -0.253271 -0.241048 0.936836
11.5397 -12.9716 55.8406 -0.280994 -0.235806 0.930287
12.2576 -13.785 55.8672 -0.288941 -0.223844 0.930801
12.9512 -14.7048 55.8741 -0.304178 -0.222299 0.926315
13.4866 -15.4399 55.8822 -0.312995 -0.214041 0.925318
14.0012 -16.1776 55.891 -0.312421 -0.20693 0.927132
14.538 -17.0621 55.8809 -0.316972 -0.201556 0.92677
15.0009 -17.7819 55.8833 -0.318291 -0.197755 0.927137
15.3711 -18.4495 55.8674 -0.322351 -0.201898 0.92483
15.8559 -19.4611 55.8194 -0.325886 -0.199007 0.924226
16.3338 -20.3878 55.7889 -0.327624 -0.1985 0.923721
16.7148 -21.3036 55.7258 -0.330471 -0.202573 0.921816
17.015 -22.1568 55.6482 -0.332977 -0.200902 0.921284
17.365 -23.291 55.5263 -0.339224 -0.20333 0.918468
17.6088 -24.0747 55.4423 -0.339895 -0.206058 0.917612
17.9247 -24.8696 55.3878 -0.348978 -0.197092 0.916171
18.0066 -25.6204 55.257 -0.348987 -0.198087 0.915953
18.0799 -26.6149 55.0677 -0.351409 -0.200112 0.914586
18.3526 -27.6546 54.9461 -0.357181 -0.199154 0.912556
18.4353 -28.6694 54.7581 -0.360735 -0.197608 0.911494
18.6964 -29.522 54.6801 -0.363811 -0.192744 0.911313
18.6215 -30.2646 54.4943 -0.364971 -0.192705 0.910855
18.6635 -31.0757 54.3397 -0.368607 -0.190601 0.909835
18.6754 -31.8429 54.1853 -0.370185 -0.187325 0.909875
18.6508 -32.7538 53.9894 -0.369672 -0.185637 0.910429
18.5822 -33.571 53.7958 -0.372068 -0.18431 0.909722
18.5526 -34.3049 53.6357 -0.373777 -0.181533 0.90958
18.4636 -35.1712 53.4278 -0.37399 -0.178214 0.910149
18.2596 -35.9079 53.1998 -0.37446 -0.177289 0.910136
18.14 -36.6427 53.0077 -0.376275 -0.175907 0.909656
18.052 -37.431 52.8194 -0.377058 -0.173304 0.909832
17.8451 -38.323 52.5649 -0.375673 -0.171525 0.910741
17.7448 -39.2206 52.3551 -0.375226 -0.170547 0.911109
18.1776 -39.6678 52.4497 -0.374909 -0.170516 0.911245
19.0902 -40.1512 52.7341 -0.374407 -0.171039 0.911353
19.8261 -40.4381 52.9827 -0.374618 -0.170949 0.911284
20.6182 -40.667 53.2654 -0.374676 -0.170629 0.91132
21.6586 -41.1753 53.5981 -0.374717 -0.170322 0.91136
22.6131 -41.6157 53.9084 -0.374957 -0.169933 0.911334
23.3529 -41.7733 54.1834 -0.374906 -0.169989 0.911345
23.9994 -42.0876 54.391 -0.375263 -0.169736 0.911245
24.7915 -42.5079 54.6394 -0.37567 -0.169026 0.911209
25.4734 -42.7324 54.879 -0.37589 -0.16854 0.911208
26.2167 -43.0445 55.1279 -0.376071 -0.168408 0.911158
26.9107 -43.3413 55.3597 -0.376789 -0.167945 0.910947
28.0147 -43.8262 55.7269 -0.376694 -0.16771 0.91103
28.7082 -44.1216 55.9593 -0.376807 -0.16773 0.910979
29.4338 -44.4884 56.1921 -0.376864 -0.167162 0.91106
30.1708 -44.4744 56.4995 -0.376693 -0.16699 0.911162
30.4525 -43.8489 56.7307 -0.376689 -0.167157 0.911133
30.5561 -43.089 56.9131 -0.376538 -0.167516 0.91113
30.7427 -42.3141 57.1327 -0.376515 -0.167668 0.911111
30.9593 -41.6118 57.3515 -0.376523 -0.167759 0.911091
31.1165 -40.6167 57.6002 -0.37642 -0.168321 0.91103
31.2436 -39.7682 57.8097 -0.376537 -0.168604 0.910929
31.2998 -38.8002 58.0121 -0.376038 -0.168648 0.911127
31.4155 -37.7707 58.2509 -0.375831 -0.169193 0.911112
31.4832 -36.7327 58.4718 -0.375237 -0.170171 0.911174
31.6226 -35.7657 58.7097 -0.375098 -0.170304 0.911207
31.6132 -34.969 58.855 -0.374864 -0.170344 0.911296
31.6498 -34.1429 59.0247 -0.374508 -0.170823 0.911353
31.6721 -33.1351 59.2226 -0.374017 -0.17047 0.91162
31.6337 -32.3362 59.3569 -0.373468 -0.170679 0.911806
31.5446 -31.3032 59.5141 -0.372216 -0.171595 0.912146
31.535 -30.4049 59.6787 -0.372133 -0.170919 0.912307
31.3952 -29.3581 59.8178 -0.370641 -0.170665 0.912962
31.3493 -28.3776 59.9825 -0.36947 -0.170757 0.913419
31.2063 -27.5973 60.0706 -0.369236 -0.170897 0.913487
31.1139 -26.8292 60.176 -0.36744 -0.169493 0.914472
30.9294 -26.0999 60.2379 -0.366652 -0.169731 0.914744
30.8188 -25.3481 60.3334 -0.365992 -0.169104 0.915124
30.5592 -24.3861 60.4078 -0.364201 -0.168631 0.915926
30.4258 -23.5858 60.5028 -0.36283 -0.167689 0.916641
30.2614 -22.8504 60.572 -0.360806 -0.168032 0.917379
30.0884 -22.0492 60.6501 -0.359935 -0.166502 0.918
29.9037 -21.2583 60.7209 -0.356042 -0.165197 0.919752
29.6705 -20.5279 60.7623 -0.354054 -0.165012 0.920553
29.3098 -19.5116 60.8054 -0.352757 -0.164787 0.92109
28.939 -18.4993 60.8441 -0.346367 -0.163251 0.923785
28.6368 -17.7892 60.8563 -0.345813 -0.160975 0.924389
28.3472 -16.9074 60.9051 -0.339245 -0.162718 0.926518
28.0028 -16.2362 60.8984 -0.335732 -0.165934 0.927227
27.6911 -15.305 60.951 -0.334821 -0.160915 0.928433
27.3295 -14.5993 60.945 -0.326737 -0.164422 0.930694
26.9719 -13.8209 60.9607 -0.325009 -0.167207 0.930811
26.5713 -12.9374 60.9838 -0.322494 -0.170744 0.931035
26.1518 -12.2723 60.9607 -0.325632 -0.174277 0.929296
25.7587 -11.5533 60.9595 -0.323399 -0.177677 0.929432
25.4469 -10.7884 60.9994 -0.32345 -0.181613 0.928653
24.924 -9.94741 60.981 -0.327302 -0.183987 0.926832
24.3159 -9.24253 60.9035 -0.335743 -0.181368 0.924328
23.9242 -8.53027 60.8982 -0.338094 -0.175811 0.924544
23.4413 -7.81641 60.8562 -0.344824 -0.172341 0.922708
22.8791 -7.07766 60.7845 -0.347925 -0.172934 0.921432
22.2169 -6.24021 60.6782 -0.364149 -0.154991 0.918354
21.7681 -5.58772 60.6074 -0.367028 -0.149171 0.918171
21.1697 -4.91795 60.4703 -0.372898 -0.136601 0.917762
20.5062 -4.1664 60.3028 -0.393864 -0.135741 0.909091
19.8595 -3.53414 60.1102 -0.391312 -0.108853 0.91379
19.2645 -2.92 59.9264 -0.399938 -0.0918404 0.911929
18.7765 -2.28979 59.771 -0.41295 -0.0863152 0.906654
18.1754 -1.8854 59.5288 -0.42403 -0.0730179 0.9027
17.4567 -1.33668 59.2125 -0.427725 -0.0338381 0.903275
16.8788 -0.899532 58.9393 -0.462533 0.00191911 0.886499
16.1417 -0.482297 58.5569 -0.455286 0.0369903 0.889577
15.3275 -0.068048 58.1049 -0.493272 0.0506291 0.8684
14.6731 0.149888 57.7244 -0.477446 0.103816 0.872473
13.9996 0.337251 57.31 -0.66208 0.171772 0.729482
13.5084 0.672289 56.7853 -0.655261 0.409775 0.564684
13.1393 1.203 56.0395 -0.355377 0.718144 0.566129
12.9436 1.6744 55.3292 0.120953 0.845846 0.464198
13.098 2.37589 54.4134 0.385777 0.62992 0.673278
13.6117 3.04083 53.522 0.412634 0.655921 0.626903
14.0177 3.64504 52.6946 0.497555 0.516902 0.694806
14.5823 4.08413 51.9094 0.579737 0.498003 0.644214
15.0251 4.45757 51.2301 0.614049 0.470736 0.632836
15.3887 4.82291 50.5859 0.658639 0.431496 0.616037
15.7358 5.12124 49.9787 0.672844 0.435479 0.598027
16.0786 5.46811 49.3299 0.703656 0.400377 0.586998
16.5868 5.86984 48.4133 0.734577 0.382426 0.560488
17.0169 6.26917 47.5792 0.757539 0.353121 0.549036
17.4461 6.58519 46.7491 0.781843 0.346343 0.518428
17.8182 6.88849 45.9893 0.813495 0.296583 0.500265
18.1768 7.1545 45.2418 0.834669 0.27907 0.474813
18.496 7.39036 44.5473 0.833451 0.27359 0.480112
18.8425 7.74481 43.7145 0.853407 0.246262 0.459404
19.212 8.17457 42.7955 0.875519 0.206855 0.436666
19.487 8.47718 42.0858 0.879575 0.215589 0.42411
19.7157 8.89865 41.3974 0.902949 0.145065 0.404524
19.9974 9.38924 40.6032 0.900314 0.142796 0.41115
20.2342 9.91764 39.8666 0.917649 0.0871144 0.387725
20.4551 10.5105 39.2104 0.914674 0.0912712 0.393753
20.637 11.0937 38.6624 0.921379 0.0736708 0.381462
20.8242 11.69 38.0663 0.932066 0.0535662 0.356803
21.0269 12.3161 37.509 0.931885 0.0227103 0.362043
21.1806 13.0268 37.0889 0.935878 -0.0268353 0.350469
21.3633 13.7958 36.622 0.940262 -0.0416344 0.337343
21.6205 14.8126 36.0815 0.946802 -0.0785227 0.311642
21.9164 15.9499 35.578 0.932835 -0.106073 0.343924
22.1756 16.9146 35.2305 0.934842 -0.145701 0.323518
22.4416 17.7798 34.9275 0.92873 -0.174771 0.326957
22.6797 18.5588 34.6987 0.926918 -0.196335 0.319806
22.9042 19.2574 34.5184 0.917721 -0.225258 0.32718
23.1825 20.0721 34.3139 0.918192 -0.240878 0.314486
23.4802 20.9572 34.1823 0.903335 -0.27113 0.332376
23.7554 21.775 34.1015 0.904674 -0.269795 0.329796
24.0174 22.5163 34.0313 0.899908 -0.289706 0.325939
24.336 23.3461 33.9081 0.894421 -0.306174 0.325988
24.6436 24.1328 33.8376 0.883632 -0.329203 0.332896
24.9503 25.0099 33.9012 0.875325 -0.337114 0.34664
25.4294 26.1164 33.7825 0.872065 -0.345562 0.346539
25.7018 26.8469 33.8301 0.868836 -0.353187 0.346964
25.9884 27.5682 33.8512 0.865125 -0.362807 0.346309
26.2554 28.2712 33.9244 0.86255 -0.366047 0.349309
26.6111 29.1715 33.9995 0.858429 -0.370178 0.35506
26.938 29.9938 34.07 0.856607 -0.374449 0.354984
27.2612 30.9608 34.3153 0.854594 -0.377905 0.356169
27.6532 32.0225 34.5101 0.850734 -0.382187 0.36081
28.0616 33.1501 34.7447 0.849204 -0.384036 0.362449
28.3348 33.8588 34.8577 0.84757 -0.386109 0.364065
28.6205 34.6722 35.052 0.846744 -0.386557 0.365507
28.866 35.4461 35.2972 0.847241 -0.383807 0.367253
29.1197 36.1944 35.4919 0.845875 -0.386139 0.367937
29.4326 37.046 35.6582 0.845762 -0.382697 0.371793
29.5675 37.7454 36.067 0.846379 -0.380595 0.372545
29.1147 37.6331 36.981 0.847542 -0.378936 0.371584
28.6288 37.4446 37.9125 0.850773 -0.375902 0.367263
28.2463 37.3227 38.681 0.852772 -0.373884 0.364679
27.8518 37.1673 39.4572 0.851374 -0.384452 0.356808
27.4342 36.9617 40.2196 0.848858 -0.389531 0.357352
26.9609 36.836 41.1808 0.844082 -0.394838 0.362801
26.5322 36.6142 41.9207 0.837251 -0.39814 0.374756
26.1536 36.5431 42.6748 0.833395 -0.400391 0.380973
25.5621 36.3012 43.6786 0.828231 -0.399355 0.393125
24.9876 36.0903 44.646 0.825046 -0.400858 0.398236
24.5906 35.9695 45.3203 0.813403 -0.407938 0.414604
24.1135 35.8679 46.1383 0.810239 -0.406193 0.422516
23.4196 35.669 47.2389 0.793475 -0.396421 0.460549
23.0096 35.6726 47.9787 0.797098 -0.409414 0.443863
22.4923 35.4322 48.6514 0.789788 -0.397481 0.466999
22.0574 34.7161 48.8027 0.798464 -0.382849 0.464625
21.8778 33.9774 48.5064 0.801146 -0.381763 0.460867
21.6998 33.232 48.2104 0.808858 -0.369757 0.457195
21.2674 32.208 48.1636 0.81266 -0.357623 0.460097
20.9804 31.3682 48.0233 0.817541 -0.347675 0.459073
20.7771 30.6652 47.8547 0.824469 -0.329067 0.460331
20.4392 29.7652 47.8121 0.834084 -0.323918 0.446453
20.2111 29.0266 47.6938 0.839653 -0.320452 0.438424
19.8436 28.1116 47.7172 0.841535 -0.320375 0.434947
19.5428 27.379 47.7703 0.850909 -0.31562 0.419887
19.1889 26.4293 47.7614 0.848974 -0.322241 0.418806
18.8156 25.4643 47.7838 0.8512 -0.320759 0.415416
18.4142 24.5302 47.8866 0.856588 -0.319599 0.405109
18.0928 23.8286 47.982 0.850292 -0.335915 0.405082
17.7004 23.0632 48.1667 0.849517 -0.339878 0.403489
17.2582 22.2298 48.37 0.841432 -0.359955 0.40302
16.8537 21.4403 48.4811 0.823552 -0.346781 0.448893
16.4978 20.7462 48.5896 0.811526 -0.345384 0.471312
16.0636 20.1989 48.8975 0.789667 -0.385855 0.477014
15.6044 19.5556 49.1312 0.759863 -0.345082 0.550933
15.1044 18.8654 49.3876 0.760764 -0.340944 0.552239
14.5921 18.2162 49.6456 0.725008 -0.364424 0.58443
14.0888 17.6391 49.9079 0.697166 -0.330517 0.636174
13.5259 17.0143 50.1859 0.676664 -0.308545 0.668525
12.8351 16.4471 50.5384 0.591889 -0.288235 0.750954
12.2033 15.9301 50.8852 0.564781 -0.259513 0.781319
11.5464 15.5771 51.205 0.506458 -0.16635 0.845446
10.7678 15.089 51.5321 0.399761 -0.154311 0.901724
9.98139 14.7596 51.8836 0.431602 -0.0736476 0.898982
9.29636 14.3272 52.168 0.387605 -0.115747 0.9128
8.32034 14.014 52.524 0.350527 -0.0168054 0.936394
7.47469 13.8414 52.7858 0.290574 0.00239555 0.956843
6.7485 13.6413 52.9906 0.232919 0.0115924 0.971926
5.79639 13.4927 53.2209 0.184256 0.0337216 0.9823
5.02511 13.533 53.3315 0.13116 0.066155 0.989151
4.27012 13.4757 53.4372 0.117749 0.103659 0.987604
3.43467 13.3905 53.5448 0.111097 0.102595 0.988421
2.63824 13.3872 53.6147 0.0366629 0.10139 0.994171
1.8644 13.3 53.6555 0.0262298 0.134451 0.990573
1.11898 13.0387 53.7121 0.0212557 0.147738 0.988798
0.366955 12.7093 53.7765 -0.00195632 0.135569 0.990521
-0.524318 12.3027 53.8399 -0.00850281 0.189365 0.98187
-1.19712 11.8714 53.9193 -0.00558244 0.193562 0.98107
-2.13546 11.2799 54.0125 -0.0222896 0.164456 0.98605
-2.93928 10.9417 54.0314 -0.0405271 0.146728 0.988346
-3.84148 10.7418 53.9981 -0.0739168 0.134258 0.988117
-4.56109 10.4817 53.9668 -0.113205 0.102422 0.988278
-5.3063 10.3325 53.8845 -0.152957 0.0729069 0.985324
-6.11784 10.4677 53.7413 -0.138016 0.0452154 0.988647
-6.86603 10.557 53.6274 -0.174278 -0.012885 0.984612
-7.70848 10.6663 53.4737 -0.193195 -0.00951605 0.981114
-8.45488 10.8385 53.3292 -0.203239 -0.0317818 0.978611
-9.21121 10.8257 53.1654 -0.21388 -0.0407823 0.975985
-10.1895 10.8732 52.9233 -0.249627 -0.0549575 0.966781
-10.9618 10.8949 52.7223 -0.254327 -0.061402 0.965167
-11.6983 10.898 52.5302 -0.252217 -0.0666836 0.96537
-12.5263 10.9011 52.3151 -0.247919 -0.0858104 0.964973
-13.261 10.8577 52.1243 -0.243811 -0.0851912 0.966074
-14.0812 10.8126 51.9203 -0.235995 -0.113859 0.964994
-15.1165 10.7949 51.6629 -0.230559 -0.134137 0.963701
-15.9768 10.7369 51.4518 -0.227445 -0.141878 0.963396
-16.8211 10.4851 51.2134 -0.23428 -0.172377 0.956715
-17.8849 10.393 50.9664 -0.190285 -0.21362 0.958206
-18.651 10.1952 50.7498 -0.208325 -0.234078 0.949581
-19.544 9.99926 50.5098 -0.188911 -0.269552 0.943974
-20.3075 9.80213 50.2823 -0.190174 -0.287957 0.938438
-21.2888 9.52947 49.9754 -0.201229 -0.321762 0.925165
-22.044 9.29241 49.7143 -0.220452 -0.332031 0.917128
-22.7927 9.08464 49.4547 -0.213554 -0.349718 0.912188
-23.6611 8.68014 49.0796 -0.235573 -0.356405 0.904091
-24.3963 8.48873 48.8048 -0.241866 -0.363291 0.899733
-25.4452 8.10095 48.3578 -0.247027 -0.379841 0.891431
-26.0327 7.69242 48.0207 -0.258437 -0.382685 0.886985
-26.8096 7.42459 47.6755 -0.2585 -0.393545 0.882203
-27.6772 7.06539 47.2555 -0.267698 -0.396035 0.878331
-28.3593 6.62117 46.8466 -0.272421 -0.391844 0.878773
-29.0174 6.27422 46.4826 -0.280237 -0.396361 0.87428
-29.6022 5.93161 46.1393 -0.285971 -0.39261 0.87411
-30.4127 5.42164 45.6442 -0.289212 -0.392454 0.873118
-31.1424 5.00419 45.2134 -0.291492 -0.393155 0.872045
-31.7544 4.51551 44.787 -0.297458 -0.392347 0.870392
-32.5571 3.96265 44.2661 -0.29746 -0.390071 0.871414
-33.1055 3.56489 43.8968 -0.30205 -0.389293 0.87018
-33.851 2.89467 43.3361 -0.307674 -0.390191 0.867798
-34.4668 2.39753 42.894 -0.309968 -0.386045 0.868843
-35.0027 1.71186 42.3977 -0.313925 -0.383027 0.868759
-35.5818 1.23407 41.9776 -0.314121 -0.383277 0.868578
-36.1666 0.699177 41.5284 -0.31763 -0.380107 0.868694
-36.5936 0.178773 41.1437 -0.321915 -0.37548 0.869129
-37.0563 -0.334257 40.7514 -0.323205 -0.372978 0.869727
-37.5046 -0.951201 40.3207 -0.323484 -0.370374 0.870736
-37.9604 -1.58079 39.8845 -0.322751 -0.368654 0.871737
-38.44 -2.07724 39.4941 -0.330028 -0.366683 0.869836
-39.0577 -2.88415 38.9233 -0.331505 -0.363879 0.870456
-39.5761 -3.59989 38.4298 -0.334451 -0.357041 0.872161
-40.0121 -4.27531 37.9915 -0.333125 -0.353167 0.874243
-40.3174 -4.86218 37.6388 -0.333292 -0.347479 0.876451
-40.7387 -5.42393 37.2569 -0.334363 -0.346014 0.876627
-41.1212 -6.26711 36.7807 -0.335835 -0.34127 0.877923
-41.4627 -6.92511 36.396 -0.336709 -0.33714 0.879182
-41.8971 -7.49242 36.0109 -0.338021 -0.33756 0.878519
-42.2439 -8.42661 35.5287 -0.33669 -0.328879 0.882314
-42.3992 -9.19102 35.1864 -0.337964 -0.326678 0.882644
-42.8855 -10.0529 34.6847 -0.336723 -0.322878 0.884515
-43.1885 -10.8501 34.2794 -0.33847 -0.321356 0.8844
-43.357 -11.5844 33.9498 -0.336629 -0.318125 0.886269
-43.53 -12.2768 33.6378 -0.335941 -0.314853 0.8877
-43.8005 -12.9083 33.3111 -0.337138 -0.314027 0.887538
-43.8038 -13.7229 33.023 -0.336176 -0.313152 0.888212
-43.0355 -14.0538 33.1961 -0.334085 -0.312656 0.889175
-42.2587 -14.4273 33.3563 -0.333648 -0.312973 0.889228
-41.45 -14.7501 33.5454 -0.332474 -0.313077 0.889631
-40.6388 -15.0969 33.7262 -0.332185 -0.314035 0.889402
-39.9081 -15.3655 33.9041 -0.331842 -0.314248 0.889454
-38.7048 -15.8346 34.1869 -0.331292 -0.314042 0.889732
-38.0071 -16.1206 34.3458 -0.331043 -0.31372 0.889938
-37.0983 -16.4706 34.5602 -0.331083 -0.313416 0.89003
-36.1756 -16.7858 34.7926 -0.331386 -0.312915 0.890094
-35.4392 -17.0971 34.9574 -0.331575 -0.31242 0.890197
-34.4711 -17.4097 35.2086 -0.331842 -0.312193 0.890178
-33.4672 -17.8256 35.4383 -0.333384 -0.310933 0.890043
-32.3259 -18.2834 35.7069 -0.334418 -0.308502 0.8905
-31.6592 -18.3241 35.9429 -0.334547 -0.306864 0.891017
-31.1971 -17.6504 36.348 -0.333091 -0.304898 0.892235
-30.8717 -16.8323 36.7499 -0.331771 -0.306662 0.892125
-30.5268 -16.1872 37.0989 -0.329699 -0.306161 0.893064
-30.0692 -15.3488 37.5553 -0.326191 -0.308403 0.893581
-29.8755 -14.6861 37.8554 -0.325973 -0.310183 0.893044
-29.5606 -14.0839 38.1798 -0.324295 -0.311449 0.893214
-29.1597 -13.5259 38.5194 -0.320235 -0.315285 0.893334
-28.7603 -12.8752 38.8944 -0.322637 -0.31804 0.891491
-28.364 -12.2765 39.2505 -0.319151 -0.323573 0.890754
-27.8109 -11.7215 39.6512 -0.319534 -0.324862 0.890148
-27.3881 -11.1549 40.0116 -0.319679 -0.327838 0.889003
-26.7902 -10.435 40.4951 -0.320203 -0.331569 0.88743
-26.3037 -9.91938 40.865 -0.319967 -0.335431 0.886063
-25.6879 -9.34146 41.3136 -0.327837 -0.344182 0.879808
-25.119 -8.91907 41.6915 -0.328734 -0.344581 0.879317
-24.6639 -8.40589 42.0653 -0.332842 -0.346995 0.876819
-23.8793 -7.83087 42.5931 -0.333622 -0.353833 0.873784
-23.1892 -7.36183 43.0533 -0.34495 -0.354449 0.869114
-22.6034 -6.85136 43.4925 -0.348541 -0.353649 0.868016
-21.9238 -6.50751 43.9146 -0.362396 -0.357037 0.860926
-21.079 -6.02591 44.4732 -0.3736 -0.349602 0.859187
-20.4495 -5.68972 44.8876 -0.38557 -0.349954 0.853731
-19.724 -5.39942 45.3313 -0.394126 -0.346525 0.851156
-19.0858 -5.09695 45.7509 -0.398714 -0.326544 0.856969
-18.2613 -4.75667 46.2721 -0.41644 -0.328168 0.84787
-17.4967 -4.58015 46.7309 -0.433807 -0.309324 0.846245
-16.853 -4.32364 47.1577 -0.446751 -0.303318 0.841652
-16.1196 -4.1395 47.6115 -0.456547 -0.294772 0.83943
-15.4388 -4.02962 48.0155 -0.467242 -0.28739 0.835958
-14.6919 -3.85372 48.4925 -0.46363 -0.257527 0.847778
-13.9712 -3.74497 48.9186 -0.463837 -0.244267 0.851568
-13.3094 -3.79456 49.2702 -0.47154 -0.24266 0.847801
-12.3695 -3.69021 49.83 -0.476259 -0.228765 0.848977
-11.517 -3.64243 50.3279 -0.485302 -0.202494 0.850574
-10.6232 -3.67052 50.8223 -0.487807 -0.193235 0.851217
-9.84899 -3.6638 51.2603 -0.46879 -0.154259 0.869736
-9.17469 -3.67862 51.6055 -0.441552 -0.147709 0.884994
-8.42846 -3.83183 51.9517 -0.440691 -0.147746 0.885417
-7.67106 -3.83098 52.3243 -0.426748 -0.117707 0.896541
-6.89995 -3.97632 52.6752 -0.420076 -0.107677 0.901023
-6.15488 -4.17968 52.9872 -0.408895 -0.111743 0.905714
-5.243 -4.26503 53.3492 -0.378829 -0.119925 0.917625
-4.3434 -4.48429 53.6655 -0.340697 -0.123156 0.931995
-3.64252 -4.82057 53.8676 -0.321346 -0.121015 0.939191
-2.9012 -4.94791 54.0972 -0.302386 -0.119021 0.945675
-2.0405 -5.18329 54.3303 -0.280262 -0.135326 0.95028
-1.30501 -5.28775 54.5255 -0.260852 -0.141278 0.954897
-0.707055 -5.47326 54.6566 -0.254172 -0.134892 0.957706
17.5728 -10.3235 58.2981 -0.314403 -0.161617 0.935431
17.626 -10.3973 58.3032 -0.314402 -0.161617 0.935431
18.3516 -11.279 58.3858 -0.320136 -0.175005 0.931063
18.5868 -12.012 58.3266 -0.322836 -0.181761 0.928836
18.4056 -11.6355 58.3376 -0.318597 -0.178528 0.930915
19.2947 -12.7439 58.4315 -0.326505 -0.180468 0.927807
19.3671 -12.884 58.4297 -0.327027 -0.183495 0.927024
19.355 -12.8604 58.4301 -0.326503 -0.18047 0.927807
23.0784 -20.4729 58.2558 -0.348663 -0.185159 0.918777
23.3542 -21.1772 58.22 -0.350623 -0.182947 0.918474
23.754 -21.9589 58.2169 -0.352688 -0.182523 0.917767
23.2622 -21.3036 58.1597 -0.350656 -0.18374 0.918303
23.0592 -20.7666 58.1894 -0.348659 -0.185159 0.918778
23.6433 -22.6262 58.0414 -0.353493 -0.183458 0.91727
24.1632 -23.2643 58.1141 -0.354012 -0.182384 0.917283
24.3572 -24.1006 58.0228 -0.357268 -0.183146 0.915869
24.5226 -25.1446 57.8792 -0.359911 -0.18266 0.914931
24.6574 -25.9677 57.7687 -0.361363 -0.181139 0.914661
24.2775 -25.3054 57.7509 -0.358829 -0.182612 0.915366
24.1426 -24.1362 57.932 -0.35686 -0.183102 0.916037
24.0232 -23.3647 58.04 -0.354388 -0.184862 0.916643
23.6718 -22.8041 58.0167 -0.354334 -0.184023 0.916833
24.3435 -26.2581 57.5868 -0.361989 -0.18164 0.914314
24.8362 -26.8232 57.6692 -0.362976 -0.181452 0.913959
24.976 -27.854 57.5216 -0.364392 -0.180994 0.913487
24.4841 -27.4629 57.4028 -0.364393 -0.180993 0.913487
24.3852 -26.6216 57.5309 -0.362049 -0.182636 0.914092
24.3767 -26.4829 57.5552 -0.362019 -0.182138 0.914203
24.6218 -28.2813 57.2953 -0.365101 -0.180504 0.913301
25.1119 -28.6369 57.4213 -0.366753 -0.179481 0.912841
25.301 -29.399 57.3474 -0.36674 -0.179869 0.91277
25.3939 -30.2459 57.2181 -0.368359 -0.178187 0.912448
25.4682 -31.1857 57.0646 -0.369569 -0.178313 0.911934
25.408 -31.9391 56.893 -0.37065 -0.177215 0.911709
25.3449 -32.9014 56.6805 -0.370781 -0.177336 0.911632
25.4411 -33.5559 56.5935 -0.373184 -0.175307 0.911044
25.3351 -34.4987 56.3688 -0.373139 -0.175099 0.911102
25.2551 -35.644 56.1172 -0.37359 -0.173926 0.911142
24.6206 -35.1673 55.9483 -0.373025 -0.17394 0.911371
24.5565 -34.385 56.0722 -0.372119 -0.175055 0.911528
24.642 -33.6393 56.2512 -0.371409 -0.176814 0.911478
24.6803 -32.6094 56.4669 -0.371023 -0.177651 0.911472
24.7559 -31.79 56.6575 -0.370087 -0.17863 0.911662
24.8468 -31.0836 56.8327 -0.368519 -0.179027 0.912218
24.9815 -30.2462 57.0518 -0.367433 -0.179987 0.912468
24.7764 -29.507 57.1154 -0.367069 -0.180096 0.912593
24.7485 -28.9164 57.2204 -0.365927 -0.179995 0.913071
24.702 -28.6509 57.2542 -0.365103 -0.180506 0.9133
17.2062 14.2243 44.9816 0.837433 -0.0462906 0.544538
17.4371 15.0128 44.6921 0.834777 -0.0679362 0.545793
17.9149 15.9931 44.0853 0.856899 -0.0980577 0.506072
18.2125 16.7132 43.7403 0.853562 -0.130873 0.503689
18.5223 17.4244 43.4141 0.860521 -0.145936 0.488065
18.9047 18.4111 43.0778 0.858796 -0.186274 0.477255
19.353 19.4745 42.7073 0.866076 -0.21865 0.449561
19.7412 20.5484 42.5063 0.866179 -0.246863 0.434503
20.0884 21.3904 42.3009 0.86266 -0.256046 0.436185
20.4392 22.0909 42.0424 0.862305 -0.27228 0.426958
20.882 23.1453 41.8483 0.860963 -0.292418 0.416177
21.2421 24.089 41.7799 0.858376 -0.307861 0.41038
21.5878 25.0444 41.788 0.856718 -0.318687 0.405552
21.873 25.8445 41.821 0.854239 -0.328606 0.402852
22.2159 26.6489 41.7534 0.853121 -0.3324 0.402101
22.5535 27.4664 41.7348 0.84724 -0.345679 0.403349
22.8762 28.3379 41.8036 0.848063 -0.353351 0.394882
23.1342 29.0538 41.8887 0.848028 -0.352691 0.395546
23.4502 29.815 41.909 0.842858 -0.361677 0.39847
23.9537 30.3953 41.3689 0.844 -0.367297 0.390841
24.371 30.5212 40.5779 0.847733 -0.366132 0.383791
