-4.13696 0.318064 80.8147 0.183393 -0.324869 0.927808
-4.32242 -0.356981 80.597 0.142335 -0.35863 0.922565
-4.32242 -0.356981 80.597 0.142335 -0.35863 0.922565
-5.04816 -0.427854 80.7055 0.184834 -0.375627 0.908055
-5.78289 0.0807118 81.0958 0.213112 -0.37358 0.902719
-6.47784 0.679328 81.5723 0.281053 -0.408985 0.868042
-6.93605 1.23809 81.9972 0.326438 -0.417725 0.847073
-7.23159 1.81277 82.4184 0.359856 -0.423994 0.831103
-7.43217 2.59265 82.9046 0.39345 -0.431469 0.810859
-7.28336 2.98445 83.0367 0.439651 -0.393774 0.806468
-6.691 2.56012 82.5458 0.409692 -0.384435 0.827262
-6.11274 2.11371 82.1062 0.336479 -0.375594 0.86349
-5.49162 1.60403 81.6674 0.272444 -0.356276 0.893779
-4.93368 1.15791 81.3135 0.266847 -0.325946 0.906063
-4.20851 0.53069 80.9051 0.232632 -0.334185 0.913347
-4.13862 0.32159 80.8163 0.183391 -0.324868 0.927808
-2.8563 -0.0479961 80.4641 0.149769 -0.3054 0.940372
-3.14828 -0.846731 80.2389 0.110196 -0.315882 0.942377
-3.4988 -1.6448 79.9766 0.0907204 -0.3726 0.923547
-3.947 -2.20896 79.784 0.0753648 -0.407867 0.909925
-4.94761 -1.93572 80.006 0.0944425 -0.422467 0.901444
-5.80888 -1.43567 80.3724 0.136132 -0.443771 0.88574
-6.5428 -0.983789 80.7545 0.185703 -0.43645 0.88022
-7.16283 -0.537475 81.1426 0.241058 -0.458645 0.855299
-7.80237 0.198476 81.7443 0.261492 -0.488401 0.832518
-8.22971 0.895715 82.3216 0.309213 -0.511562 0.801681
-8.4884 1.46049 82.7751 0.38052 -0.488244 0.785313
-8.77527 2.06196 83.2899 0.390401 -0.480408 0.785363
-8.99572 2.59871 83.7892 0.458717 -0.465794 0.756713
-9.24103 3.17192 84.2984 0.495296 -0.485688 0.72027
-9.45944 3.71104 84.8235 0.492771 -0.504155 0.709228
-9.67132 4.27338 85.4161 0.586009 -0.473739 0.657393
-9.91916 4.87898 86.1102 0.610542 -0.500587 0.613718
-10.1004 5.38315 86.7136 0.667253 -0.497238 0.554551
-10.2666 5.87939 87.3421 0.667209 -0.483971 0.566219
-10.4485 6.44565 88.1034 0.715567 -0.483431 0.504241
-10.6023 7.02839 88.8861 0.764696 -0.444179 0.466846
-10.6844 7.53643 89.5391 0.77075 -0.468256 0.432066
-10.7675 7.99821 90.1666 0.797877 -0.430182 0.422038
-10.8183 8.52675 90.8455 0.813778 -0.433033 0.38761
-10.7879 9.18965 91.5285 0.821035 -0.425328 0.380558
-10.7795 9.72916 92.1358 0.847121 -0.404816 0.344254
-10.7782 10.2747 92.7764 0.8609 -0.399494 0.315047
-10.7436 10.8456 93.3993 0.865202 -0.397043 0.305985
-10.6919 11.4346 94.0499 0.87096 -0.389743 0.298931
-10.6564 11.9594 94.6526 0.880878 -0.386999 0.272553
-10.6087 12.6244 95.452 0.893924 -0.373043 0.248472
-10.5445 13.1908 96.0987 0.898492 -0.373531 0.23047
-10.4395 13.8708 96.7612 0.902305 -0.369183 0.222328
-10.2976 14.5765 97.3449 0.910814 -0.351596 0.216328
-10.1698 15.1896 97.8421 0.912225 -0.357127 0.200734
-10.0287 15.8964 98.446 0.915122 -0.352516 0.195663
-9.90019 16.4859 98.9107 0.91763 -0.351161 0.186108
-9.67841 17.5155 99.7395 0.922206 -0.340457 0.183322
-9.49576 18.2802 100.26 0.923553 -0.341586 0.17427
-9.20919 19.1243 100.368 0.926701 -0.332953 0.174262
-8.93533 19.4152 99.4816 0.924502 -0.335721 0.180518
-8.9482 19.0184 98.8226 0.924845 -0.329969 0.189163
-9.08608 18.3316 98.2908 0.921512 -0.337586 0.191942
-9.26024 17.5873 97.8315 0.91968 -0.337589 0.200445
-9.42363 16.811 97.2845 0.913198 -0.34577 0.21567
-9.59672 15.9203 96.604 0.906441 -0.350617 0.23544
-9.68863 15.3458 96.1131 0.904057 -0.351461 0.243133
-9.76911 14.7368 95.5143 0.900889 -0.353782 0.251281
-9.83643 14.136 94.9313 0.898307 -0.354833 0.25911
-9.90303 13.4173 94.2103 0.887186 -0.36921 0.276738
-9.92562 12.9041 93.6448 0.880424 -0.361625 0.306725
-9.96611 12.3209 93.0668 0.869602 -0.374529 0.321745
-10.0367 11.6415 92.4809 0.869964 -0.36794 0.328304
-10.0743 10.9469 91.8008 0.846397 -0.388144 0.364631
-10.0993 10.1668 91.053 0.846897 -0.377104 0.37491
-9.97315 9.44105 90.0878 0.812848 -0.401863 0.421645
-9.8297 8.91801 89.3485 0.792478 -0.388312 0.470308
-9.62891 8.35801 88.5452 0.779277 -0.410861 0.472526
-9.42051 7.76433 87.7517 0.73727 -0.425411 0.524842
-9.13014 6.95197 86.7831 0.693405 -0.40388 0.596691
-8.87578 6.52544 86.2051 0.666542 -0.397119 0.629608
-8.52838 6.00035 85.5454 0.639726 -0.405459 0.652958
-8.19829 5.51059 84.9705 0.586285 -0.409039 0.699255
-7.71119 5.00118 84.322 0.54032 -0.366787 0.757312
-7.1848 4.57722 83.7627 0.518397 -0.341382 0.784043
-6.65359 4.13106 83.2408 0.460896 -0.341251 0.819219
-6.04925 3.65341 82.7035 0.420769 -0.332419 0.842793
-5.52766 3.25912 82.3247 0.381693 -0.334322 0.861707
-4.95342 2.83586 81.938 0.301702 -0.306458 0.902806
-4.34275 2.37037 81.5759 0.324971 -0.291553 0.89923
-3.67901 1.89928 81.2488 0.263207 -0.246251 0.932782
-3.00053 1.27809 80.8954 0.173775 -0.275893 0.945343
-2.76936 0.632791 80.6646 0.173775 -0.275893 0.945343
-2.7744 0.288875 80.5605 0.154088 -0.312515 0.93729
-1.50478 0.0831579 80.3289 0.0992457 -0.248756 0.963153
-1.26737 0.918556 80.5081 0.121314 -0.243193 0.962362
-1.43585 1.80826 80.7198 0.148107 -0.19243 0.97007
-2.08934 2.33464 80.9693 0.192051 -0.215126 0.957513
-2.66603 2.79583 81.2158 0.247287 -0.200381 0.947996
-3.42537 3.29756 81.5486 0.310834 -0.213807 0.926104
-4.05917 3.76566 81.888 0.353953 -0.246021 0.902312
-4.66045 4.20389 82.2541 0.366047 -0.26902 0.890864
-5.19468 4.62689 82.6458 0.435183 -0.258352 0.862479
-5.78851 5.10542 83.1171 0.468516 -0.288575 0.834996
-6.55322 5.76568 83.8391 0.514196 -0.313839 0.79819
-7.02849 6.21993 84.3777 0.574457 -0.342949 0.743226
-7.53433 6.79537 85.0723 0.634155 -0.345084 0.691907
-7.89113 7.27312 85.6321 0.657593 -0.343529 0.669606
-8.24647 7.89817 86.3573 0.681463 -0.360392 0.636966
-8.51583 8.54872 87.0867 0.7275 -0.379142 0.571835
-8.8089 9.25609 87.9644 0.789388 -0.35172 0.50315
-9.02587 9.85378 88.727 0.789433 -0.355619 0.500331
-9.20096 10.428 89.4898 0.811924 -0.366963 0.454002
-9.3279 11.0651 90.2673 0.841648 -0.362525 0.400256
-9.36444 11.7632 90.9959 0.842238 -0.373212 0.389034
-9.35857 12.4833 91.6794 0.865822 -0.356569 0.351015
-9.33017 13.1143 92.2636 0.866077 -0.364974 0.34162
-9.30629 13.7784 92.8889 0.878153 -0.347921 0.328328
-9.28606 14.3458 93.4692 0.885969 -0.351746 0.302215
-9.24702 14.8958 93.9925 0.892824 -0.343998 0.290724
-9.18579 15.5973 94.6634 0.901247 -0.340589 0.26787
-9.11414 16.2526 95.2838 0.90603 -0.339483 0.252473
-9.00541 17.0484 95.9571 0.910081 -0.337117 0.241047
-8.86854 17.7753 96.4585 0.912801 -0.337738 0.229623
-8.73964 18.4227 96.8898 0.918976 -0.325417 0.222528
-8.5507 19.3811 97.5554 0.922471 -0.329618 0.200906
-8.35809 20.3451 98.2436 0.925408 -0.327383 0.190796
-8.3491 20.7691 98.935 0.929475 -0.318473 0.186149
-8.54321 20.6878 99.7936 0.929936 -0.322557 0.176566
-8.81413 20.4082 100.717 0.929846 -0.328523 0.165684
-9.08566 20.1172 101.682 0.930648 -0.329116 0.159929
-9.40186 19.6169 102.479 0.929404 -0.334431 0.156091
-9.66397 18.6703 101.994 0.927721 -0.339285 0.155625
-9.85073 17.9578 101.567 0.925415 -0.34315 0.160796
-10.0282 17.2776 101.136 0.925131 -0.343424 0.161839
-10.2241 16.4733 100.545 0.920509 -0.351296 0.171041
-10.3733 15.8074 99.99 0.921031 -0.348655 0.173614
-10.5449 15.0506 99.3569 0.915692 -0.357868 0.182727
-10.6956 14.3693 98.7945 0.911229 -0.363838 0.192969
-10.9169 13.4324 98.0278 0.906717 -0.376423 0.190183
-11.079 12.6459 97.3109 0.898804 -0.386276 0.207223
-11.1627 12.0992 96.7064 0.896908 -0.379856 0.226417
-11.2369 11.544 96.0458 0.888916 -0.390066 0.240159
-11.3102 10.9906 95.4041 0.879057 -0.408012 0.246149
-11.3992 10.263 94.5719 0.874022 -0.413218 0.25539
-11.4769 9.49111 93.667 0.861579 -0.42534 0.276815
-11.5162 8.73908 92.7452 0.843674 -0.439597 0.307772
-11.5516 8.1188 92.0104 0.827597 -0.443768 0.343735
-11.5931 7.49539 91.2753 0.805585 -0.458501 0.375247
-11.5908 7.01818 90.6796 0.782184 -0.491993 0.381357
-11.5208 6.46549 89.8801 0.771236 -0.494347 0.400955
-11.4463 5.83753 89.0121 0.740377 -0.49621 0.45345
-11.3073 5.32034 88.192 0.699506 -0.521105 0.487872
-11.1572 4.77827 87.4316 0.677431 -0.536257 0.503504
-11.0363 4.28065 86.7881 0.644381 -0.524723 0.556156
-10.8914 3.79059 86.1897 0.610624 -0.527585 0.59056
-10.6459 3.15896 85.4035 0.560448 -0.525627 0.639878
-10.3072 2.34591 84.4831 0.497131 -0.535692 0.682012
-10.0906 1.72223 83.8181 0.45678 -0.53471 0.710938
-9.84445 1.20572 83.2798 0.402215 -0.525992 0.749262
-9.51248 0.533842 82.6283 0.357333 -0.553267 0.752449
-9.16302 -0.123058 82.0187 0.30292 -0.544392 0.782226
-8.71527 -0.807669 81.4099 0.243782 -0.5204 0.818339
-8.15471 -1.4607 80.8384 0.220378 -0.513438 0.829081
-7.31061 -1.99614 80.3305 0.165301 -0.48976 0.85549
-6.46984 -2.46324 79.9243 0.137877 -0.504068 0.852588
-5.79553 -2.8905 79.6221 0.0894617 -0.473334 0.876301
-5.16008 -3.24876 79.3807 0.0620237 -0.4585 0.886441
-4.48359 -3.54414 79.1939 0.0215208 -0.461017 0.88713
-3.74437 -3.76904 79.0567 0.0314026 -0.430163 0.902205
-3.07849 -3.65116 79.1025 -0.0145053 -0.426817 0.904222
-2.66669 -3.0456 79.3538 0.0238997 -0.372857 0.927581
-2.26123 -2.1098 79.7023 0.0436068 -0.349514 0.935916
-1.99251 -1.39631 79.9381 0.0779879 -0.29266 0.953031
-1.67756 -0.496851 80.1836 0.106199 -0.268674 0.957359
-1.57376 -0.141303 80.2719 0.0976905 -0.269716 0.957933
-0.284875 -0.414906 80.0911 0.0667949 -0.226544 0.971302
-0.0420187 0.312636 80.2217 0.0907456 -0.214557 0.972299
0.208592 1.34226 80.3951 0.120412 -0.183706 0.975578
0.138751 2.07188 80.5158 0.149181 -0.159873 0.9758
-0.338944 2.72712 80.6962 0.162826 -0.159508 0.973578
-1.30265 3.43451 81.0043 0.210219 -0.13986 0.967585
-2.0727 4.00231 81.301 0.260979 -0.182123 0.947755
-2.79843 4.44504 81.5979 0.299054 -0.175323 0.937647
-3.46488 4.93147 81.9456 0.355957 -0.190537 0.914872
-4.25439 5.56083 82.451 0.402769 -0.211875 0.890262
-4.9319 6.09188 82.94 0.461525 -0.248724 0.850966
-5.66226 6.73571 83.6028 0.517935 -0.282508 0.807175
-6.21581 7.27621 84.1953 0.563131 -0.275802 0.778097
-6.61267 7.70705 84.6844 0.62513 -0.281782 0.727881
-7.12404 8.37583 85.4363 0.678868 -0.301049 0.669707
-7.47682 9.03667 86.1184 0.726139 -0.303268 0.61705
-7.7624 9.62086 86.76 0.744943 -0.315959 0.587563
-7.99686 10.1264 87.347 0.773501 -0.339087 0.535459
-8.25257 10.7786 88.1439 0.79359 -0.339308 0.505059
-8.42923 11.3032 88.7986 0.815963 -0.332401 0.472984
-8.57233 11.8805 89.4749 0.826719 -0.346767 0.442652
-8.64414 12.5751 90.2032 0.838 -0.3622 0.408127
-8.66924 13.2936 90.859 0.854826 -0.337752 0.393949
-8.67647 13.9179 91.4363 0.870491 -0.337155 0.358432
-8.68728 14.5721 92.0608 0.876611 -0.33283 0.347304
-8.68755 15.1026 92.6091 0.882904 -0.335069 0.328674
-8.66582 15.6768 93.1179 0.893908 -0.325202 0.307864
-8.61756 16.3935 93.775 0.902894 -0.32282 0.283745
-8.56855 16.965 94.2884 0.904399 -0.323967 0.27767
-8.50661 17.5701 94.8143 0.910381 -0.322112 0.259713
-8.34162 18.5509 95.482 0.9172 -0.317208 0.240946
-8.20568 19.2995 95.979 0.919857 -0.315542 0.232908
-8.09743 19.938 96.4419 0.922552 -0.319308 0.216655
-7.99281 20.5427 96.8938 0.92476 -0.321541 0.203442
-7.77563 21.5894 97.5227 0.928478 -0.312024 0.201415
-7.69386 22.1645 98.0866 0.929511 -0.318258 0.186337
-7.85751 22.1315 98.8398 0.928826 -0.325583 0.176855
-8.14697 21.9314 100.001 0.929017 -0.327198 0.172824
-8.38436 21.7108 100.88 0.931356 -0.325936 0.162303
-8.61384 21.4706 101.715 0.931925 -0.32606 0.158703
-8.8422 21.2121 102.544 0.932412 -0.326414 0.155117
-9.06071 20.9561 103.33 0.932438 -0.329609 0.14802
-9.27136 20.6918 104.065 0.932075 -0.331391 0.146332
-9.56096 19.9107 104.148 0.931664 -0.333266 0.144664
-9.77852 19.1426 103.762 0.930719 -0.335398 0.145829
-9.9947 18.3492 103.3 0.928954 -0.340199 0.145972
-10.2127 17.5321 102.781 0.926781 -0.343489 0.15196
-10.376 16.916 102.378 0.924879 -0.347073 0.15537
-10.5387 16.2928 101.954 0.924852 -0.347225 0.155192
-10.7451 15.482 101.346 0.921194 -0.353701 0.162149
-10.9508 14.6429 100.662 0.917186 -0.363963 0.162135
-11.1512 13.8255 99.9815 0.914161 -0.368546 0.168684
-11.3015 13.2028 99.4443 0.910863 -0.371774 0.1792
-11.4666 12.5878 98.9824 0.908423 -0.376013 0.182577
-11.62 11.9465 98.3899 0.90271 -0.384546 0.192792
-11.7432 11.2791 97.6229 0.896208 -0.397523 0.196943
-11.88 10.484 96.678 0.885259 -0.411468 0.216515
-11.9809 9.88074 95.9892 0.879486 -0.420417 0.222574
-12.096 9.20635 95.2036 0.868588 -0.425453 0.254056
-12.173 8.68555 94.5645 0.85454 -0.440201 0.275652
-12.2307 8.09452 93.7684 0.842686 -0.457755 0.282821
-12.2874 7.52041 93.0624 0.832996 -0.469531 0.291976
-12.3674 6.82355 92.1885 0.81513 -0.477814 0.3275
-12.3977 6.03525 91.1046 0.78516 -0.505801 0.357176
-12.4098 5.52588 90.3816 0.762509 -0.524975 0.378129
-12.3766 5.05074 89.6551 0.752506 -0.532188 0.387645
-12.294 4.5326 88.8354 0.724789 -0.543977 0.422786
-12.1597 4.03303 87.9995 0.691968 -0.543123 0.474893
-12.036 3.38039 87.0762 0.667347 -0.572091 0.476823
-11.895 2.74903 86.2274 0.603076 -0.577085 0.549097
-11.7151 2.23793 85.5533 0.576218 -0.586738 0.568284
-11.5277 1.80146 84.9582 0.522387 -0.596274 0.609565
-11.3529 1.33496 84.3949 0.494638 -0.592257 0.635495
-11.1364 0.840145 83.7853 0.439905 -0.594545 0.673053
-10.8037 0.135657 82.9788 0.384264 -0.59118 0.709117
-10.5541 -0.409245 82.3883 0.359043 -0.592306 0.721291
-10.2448 -0.917166 81.8601 0.304364 -0.57581 0.758818
-9.88663 -1.43509 81.3331 0.223968 -0.576953 0.784961
-9.5028 -1.9747 80.8172 0.204066 -0.593551 0.778486
-8.99688 -2.45997 80.3482 0.155925 -0.582618 0.797649
-8.38304 -2.82466 79.9789 0.100435 -0.577586 0.810128
-7.46818 -3.31003 79.5331 0.095168 -0.547095 0.831643
-6.80252 -3.71955 79.2129 0.0430517 -0.525823 0.849504
-6.13831 -4.07885 78.9545 0.0204331 -0.542275 0.839953
-5.39765 -4.42969 78.7203 -0.00240682 -0.525363 0.850748
-4.62322 -4.75645 78.5305 -0.00406014 -0.517273 0.855811
-3.58485 -5.10782 78.3575 -0.0332171 -0.46505 0.884023
-2.68886 -5.33861 78.3111 -0.0726487 -0.446585 0.891787
-1.96473 -4.74122 78.6517 -0.0606207 -0.408784 0.910607
-1.65365 -4.07961 78.9512 -0.0210267 -0.357097 0.933831
-1.25892 -3.1941 79.2987 -0.015695 -0.365188 0.930746
-0.927074 -2.35135 79.5823 0.00877065 -0.320845 0.947091
-0.605686 -1.39675 79.8507 0.0404498 -0.282907 0.958175
-0.358999 -0.635618 80.0378 0.0558684 -0.251905 0.966138
0.925316 -0.997415 79.8959 0.0246248 -0.225715 0.973882
1.28867 0.0904548 80.0741 0.0504554 -0.173134 0.983604
1.57543 1.03938 80.1976 0.087046 -0.15439 0.984168
1.68111 1.89547 80.2899 0.113461 -0.128385 0.985213
1.45307 2.6408 80.4011 0.140992 -0.118048 0.982941
0.972449 3.37634 80.5537 0.163228 -0.0944583 0.982056
0.280971 4.00364 80.747 0.196737 -0.097631 0.975583
-0.343524 4.40162 80.9246 0.234487 -0.112271 0.965614
-1.10292 4.87232 81.1666 0.261905 -0.123739 0.956808
-1.6842 5.28973 81.3969 0.286967 -0.129464 0.949146
-2.47427 5.84543 81.7573 0.348446 -0.142593 0.926419
-3.11201 6.28228 82.0811 0.413239 -0.163509 0.895749
-3.67616 6.77206 82.438 0.433878 -0.179088 0.882717
-4.22128 7.19858 82.8229 0.481541 -0.192097 0.855113
-4.75407 7.64906 83.2491 0.53188 -0.212229 0.818792
-5.35636 8.24302 83.8545 0.590903 -0.249562 0.766692
-5.96291 8.92154 84.5806 0.634288 -0.258074 0.728149
-6.52752 9.70319 85.4036 0.659177 -0.274941 0.699924
-6.78278 10.2199 85.8934 0.722282 -0.311706 0.617371
-7.11319 10.8469 86.5654 0.726984 -0.282074 0.626042
-7.3373 11.342 87.1375 0.775133 -0.311892 0.549447
-7.56141 11.8592 87.7437 0.812201 -0.308525 0.495117
-7.72764 12.3865 88.3514 0.811997 -0.322487 0.48648
-7.89293 13.1037 89.1235 0.83546 -0.328028 0.440677
-7.98881 13.9385 89.9207 0.850497 -0.302545 0.430258
-8.01416 14.5249 90.4474 0.859769 -0.324814 0.394072
-8.03075 15.1806 91.0205 0.874302 -0.315277 0.369049
-8.05876 15.7189 91.5634 0.883133 -0.314794 0.347515
-8.07025 16.3067 92.1104 0.889972 -0.313662 0.331006
-8.05278 16.9825 92.7107 0.89841 -0.315544 0.305437
-8.03407 17.6124 93.2925 0.903355 -0.313138 0.292551
-7.97816 18.1917 93.7773 0.910499 -0.302072 0.282391
-7.84195 19.133 94.3803 0.916899 -0.308761 0.252832
-7.73575 19.8276 94.8249 0.919704 -0.306895 0.244657
-7.62081 20.6363 95.4296 0.924747 -0.30202 0.231577
-7.46525 21.5564 96.0556 0.928056 -0.308445 0.208712
-7.31636 22.2628 96.4374 0.930664 -0.308125 0.19729
-7.13549 23.0039 96.7167 0.934256 -0.300124 0.191955
-7.04405 23.6207 97.2968 0.932043 -0.311355 0.185349
-7.27593 23.5527 98.3564 0.931107 -0.317024 0.180376
-7.51059 23.3722 99.258 0.932067 -0.31605 0.177098
-7.69746 23.2334 100.001 0.931945 -0.320993 0.168615
-7.95351 22.9972 100.974 0.931807 -0.323959 0.163623
-8.14111 22.8093 101.685 0.932655 -0.325118 0.156375
-8.3835 22.5497 102.595 0.932998 -0.324448 0.155719
-8.6647 22.2042 103.584 0.934057 -0.323574 0.151121
-8.85955 21.9684 104.299 0.934728 -0.324062 0.145835
-9.07744 21.7539 105.232 0.934758 -0.325589 0.142189
-9.27049 21.5464 106.041 0.935865 -0.325276 0.135474
-9.51266 20.8184 105.964 0.935411 -0.326349 0.136027
-9.75986 19.9741 105.613 0.934024 -0.330876 0.13461
-9.95658 19.2941 105.299 0.932992 -0.333531 0.135211
-10.2104 18.3948 104.815 0.931068 -0.3377 0.138098
-10.4558 17.4914 104.235 0.928852 -0.343311 0.13916
-10.748 16.4376 103.572 0.926211 -0.348253 0.144338
-10.9768 15.6288 103.084 0.923631 -0.354759 0.145092
-11.1527 14.948 102.538 0.920519 -0.360044 0.1517
-11.321 14.2885 101.992 0.917725 -0.36665 0.152805
-11.5082 13.5818 101.434 0.916145 -0.369098 0.156256
-11.7153 12.7619 100.703 0.912016 -0.376473 0.16264
-11.9366 11.9361 100.007 0.907847 -0.384965 0.166076
-12.1003 11.356 99.541 0.905996 -0.388312 0.168479
-12.2331 10.8099 98.9849 0.900506 -0.399477 0.171643
-12.3354 10.2928 98.3348 0.894216 -0.407363 0.185516
-12.4769 9.67131 97.6363 0.886349 -0.418987 0.197067
-12.6111 9.11998 97.0208 0.879304 -0.431782 0.200531
-12.7214 8.61234 96.4537 0.877585 -0.42928 0.213455
-12.8592 7.94269 95.5789 0.859413 -0.456622 0.229163
-12.9325 7.33005 94.7068 0.852972 -0.455778 0.254371
-13.0528 6.69205 93.8726 0.836135 -0.488422 0.249647
-13.1257 6.2216 93.2669 0.815651 -0.512415 0.268598
-13.2018 5.72523 92.5775 0.805601 -0.505362 0.30922
-13.2145 5.28225 91.8787 0.79481 -0.526209 0.301533
-13.2592 4.80644 91.1561 0.781158 -0.536559 0.319213
-13.2765 4.32909 90.4164 0.754621 -0.557374 0.346239
-13.2467 3.89197 89.6748 0.726401 -0.564058 0.392657
-13.1881 3.52099 89.0178 0.725259 -0.572106 0.383008
-13.1171 3.10041 88.3129 0.695619 -0.583417 0.419212
-13.0662 2.66391 87.6499 0.657549 -0.591154 0.466585
-13.0082 2.20366 86.951 0.637094 -0.598568 0.484395
-12.8688 1.77807 86.2625 0.601663 -0.62853 0.492902
-12.7008 1.26694 85.4869 0.55189 -0.605768 0.572631
-12.5483 0.798647 84.8259 0.532639 -0.635059 0.55946
-12.3578 0.309561 84.1538 0.475017 -0.643378 0.600353
-12.0618 -0.325786 83.3051 0.412481 -0.625486 0.662267
-11.7535 -1.01027 82.4578 0.384455 -0.629331 0.674599
-11.484 -1.55882 81.8361 0.333677 -0.630653 0.700669
-11.1107 -2.02246 81.2504 0.245121 -0.60891 0.754131
-10.6988 -2.57201 80.6538 0.216931 -0.643071 0.734438
-10.2042 -3.08047 80.1064 0.156631 -0.623367 0.766081
-9.57472 -3.55946 79.6005 0.124107 -0.631915 0.765037
-8.83995 -3.89196 79.2507 0.0673711 -0.607417 0.791521
-8.03861 -4.36949 78.8373 0.0253956 -0.603851 0.796693
-7.18919 -4.84276 78.4655 0.0183077 -0.570895 0.820819
-6.39081 -5.2099 78.2059 -0.0153987 -0.560028 0.828282
-5.67692 -5.55772 77.9917 -0.027521 -0.553762 0.832185
-4.7724 -5.92443 77.8104 -0.0571993 -0.530934 0.845481
-3.89183 -6.29003 77.6661 -0.104769 -0.490252 0.865261
-3.08118 -6.60567 77.5919 -0.136531 -0.48611 0.862863
-2.19492 -6.66261 77.6898 -0.149811 -0.469225 0.870278
-1.23466 -6.16905 78.0812 -0.116268 -0.428604 0.89598
-0.649588 -5.22045 78.5723 -0.0898814 -0.376251 0.922148
-0.317089 -4.38821 78.9233 -0.0805627 -0.334439 0.938968
-0.0109301 -3.64062 79.2006 -0.0670879 -0.288819 0.95503
0.326989 -2.75363 79.4822 -0.030293 -0.259183 0.965134
0.60743 -1.95264 79.6864 -0.0050695 -0.213083 0.976743
0.77243 -1.44484 79.7961 0.0246283 -0.225721 0.973881
2.06971 -1.82957 79.7239 -0.00858562 -0.172904 0.984636
2.29686 -1.07857 79.8398 0.00945157 -0.13665 0.990574
2.56629 -0.27538 79.9462 0.031359 -0.112392 0.99298
2.87044 0.616238 80.0355 0.073105 -0.110533 0.991022
3.04882 1.38169 80.0956 0.0975919 -0.100193 0.990039
3.01104 2.4167 80.1899 0.113195 -0.0743899 0.990672
2.73292 3.12133 80.2702 0.134279 -0.0805302 0.987666
2.24967 3.97189 80.3909 0.14946 -0.0518654 0.987314
1.6057 4.70682 80.5484 0.187059 -0.0675788 0.980002
0.973518 5.19557 80.7071 0.205759 -0.0756793 0.975523
0.0192287 5.69478 80.9641 0.221388 -0.0760504 0.972216
-0.800757 6.28653 81.2471 0.271932 -0.0967608 0.95744
-1.3903 6.74606 81.4831 0.312984 -0.102112 0.944253
-2.13264 7.18519 81.8099 0.360374 -0.097358 0.927713
-2.754 7.67563 82.1364 0.425126 -0.116694 0.897127
-3.4596 8.24722 82.605 0.487002 -0.166955 0.857295
-4.05088 8.74159 83.0707 0.530124 -0.20092 0.823771
-4.65471 9.37173 83.6547 0.590046 -0.197057 0.782952
-5.13034 9.88185 84.1696 0.647273 -0.209887 0.732792
-5.61668 10.517 84.78 0.673186 -0.212015 0.70748
-5.92694 11.0404 85.2767 0.702241 -0.237314 0.671222
-6.31757 11.7338 85.9691 0.758281 -0.220386 0.613547
-6.62242 12.3182 86.5971 0.776111 -0.25707 0.575819
-6.85052 12.8419 87.186 0.813489 -0.256462 0.521979
-7.03321 13.367 87.7495 0.82246 -0.271341 0.499934
-7.19442 13.979 88.3908 0.842985 -0.280113 0.459252
-7.32002 14.6762 89.0753 0.862125 -0.283035 0.420275
-7.34918 15.3764 89.6365 0.869933 -0.288378 0.399833
-7.41679 16.1601 90.3566 0.880285 -0.293746 0.372574
-7.47797 16.8686 91.0682 0.892016 -0.288305 0.34812
-7.4652 17.5712 91.6227 0.895709 -0.292559 0.334564
-7.43618 18.1568 92.0982 0.903963 -0.294279 0.30989
-7.44856 18.7507 92.6746 0.909079 -0.28542 0.303414
-7.38898 19.3949 93.1201 0.912875 -0.290917 0.286116
-7.28418 20.1138 93.5253 0.919509 -0.289169 0.266176
-7.188 20.8322 94.0083 0.91996 -0.296338 0.256615
-7.10909 21.5669 94.5945 0.925567 -0.296436 0.23537
-6.99998 22.2444 95.0234 0.928897 -0.290655 0.2295
-6.80269 23.1307 95.3942 0.932979 -0.289649 0.213669
-6.65582 23.8221 95.7355 0.932066 -0.301056 0.201537
-6.55419 24.4345 96.1879 0.932899 -0.305748 0.190131
-6.40604 25.1868 96.7031 0.933325 -0.308711 0.183309
-6.53494 25.2369 97.4639 0.933828 -0.312269 0.174511
-6.78889 24.9304 98.2504 0.931987 -0.316516 0.176661
-6.98272 24.7555 98.9686 0.931315 -0.320174 0.173612
-7.1573 24.6425 99.7026 0.931714 -0.320695 0.170476
-7.37496 24.4363 100.519 0.932461 -0.321423 0.164937
-7.63419 24.1893 101.519 0.933287 -0.321444 0.160153
-7.90941 23.8841 102.524 0.933753 -0.322662 0.154903
-8.13485 23.6556 103.41 0.93439 -0.322266 0.151841
-8.34935 23.3656 104.123 0.934989 -0.321887 0.148938
-8.62621 23.0206 105.137 0.935752 -0.321667 0.144564
-8.78527 22.9431 106.011 0.936594 -0.321831 0.138623
-8.97575 22.7143 106.772 0.937702 -0.319553 0.136378
-9.2474 22.3127 107.707 0.938321 -0.31924 0.132816
-9.59624 21.307 107.736 0.936834 -0.323809 0.132251
-9.85 20.3582 107.194 0.935049 -0.328657 0.132918
-10.0975 19.5122 106.832 0.933836 -0.332978 0.130671
-10.401 18.4749 106.344 0.932654 -0.336654 0.12969
-10.5953 17.7892 105.96 0.930528 -0.34224 0.130346
-10.7751 17.1415 105.536 0.930011 -0.343104 0.131725
-10.9985 16.305 104.923 0.927596 -0.34918 0.13281
-11.2146 15.6053 104.591 0.924573 -0.355893 0.13603
-11.4272 14.872 104.116 0.924492 -0.356269 0.135599
-11.6199 14.1356 103.476 0.920194 -0.364783 0.142
-11.7865 13.5194 102.979 0.91761 -0.369084 0.147447
-12.0125 12.73 102.38 0.915848 -0.372675 0.149426
-12.1783 12.1013 101.801 0.91186 -0.382609 0.148731
-12.36 11.4136 101.145 0.907534 -0.390999 0.153302
-12.5473 10.8153 100.718 0.902103 -0.40237 0.155812
-12.7442 10.1292 100.086 0.898542 -0.409968 0.156677
-12.8562 9.61532 99.393 0.890937 -0.422999 0.165239
-12.9914 9.06423 98.7423 0.887032 -0.427786 0.173321
-13.1635 8.50276 98.1913 0.882105 -0.435753 0.178714
-13.3595 7.79521 97.4013 0.873068 -0.454383 0.176885
-13.4847 7.30719 96.798 0.86403 -0.466692 0.188815
-13.5887 6.77716 95.9924 0.849986 -0.48515 0.205314
-13.6783 6.31024 95.2693 0.85016 -0.48336 0.208786
-13.8346 5.67196 94.4418 0.821414 -0.517787 0.239113
-13.9438 5.13279 93.688 0.809142 -0.52654 0.260092
-14.0476 4.67976 93.0505 0.80101 -0.540037 0.258347
-14.0452 4.25466 92.2224 0.794845 -0.534551 0.287188
-14.1029 3.81134 91.4863 0.783063 -0.558783 0.273081
-14.1627 3.39753 90.8626 0.761561 -0.576029 0.297012
-14.1493 2.87318 89.8686 0.732872 -0.593289 0.333026
-14.1075 2.45824 89.0739 0.690671 -0.616651 0.377455
-14.0736 2.07689 88.3795 0.663506 -0.636223 0.392726
-14.0609 1.67413 87.7433 0.648113 -0.640594 0.411769
-14.025 1.24241 87.0449 0.626289 -0.64946 0.431013
-13.845 0.755123 86.1166 0.586101 -0.640731 0.494831
-13.7193 0.199952 85.2548 0.550286 -0.668764 0.499475
-13.5477 -0.370943 84.3446 0.485593 -0.66488 0.565665
-13.3133 -0.829586 83.6083 0.429735 -0.711774 0.555612
-13.0797 -1.39989 82.7728 0.381116 -0.68645 0.617934
-12.9045 -1.86844 82.1741 0.289958 -0.725376 0.624302
-12.5331 -2.46873 81.3358 0.245291 -0.707243 0.663053
-12.1164 -2.91114 80.7325 0.206963 -0.687237 0.695836
-11.731 -3.36771 80.1685 0.163394 -0.682713 0.712183
-11.1653 -3.88293 79.5674 0.111834 -0.692285 0.712905
-10.6407 -4.31445 79.0938 0.0788252 -0.667868 0.740093
-10.0558 -4.64926 78.7346 0.0632658 -0.655128 0.752864
-9.3685 -4.89263 78.4934 0.0260634 -0.647983 0.761209
-8.80583 -5.28024 78.1581 -0.00287649 -0.628122 0.778109
-7.86965 -5.79119 77.7597 -0.0108075 -0.614948 0.788474
-7.16982 -6.10716 77.536 -0.0394371 -0.589855 0.806546
-6.12382 -6.6316 77.2194 -0.0787312 -0.599585 0.796429
-5.12821 -7.01411 77.0499 -0.0895665 -0.553107 0.828282
-4.17533 -7.43449 76.9039 -0.144833 -0.538139 0.830299
-3.38549 -7.72688 76.8626 -0.170466 -0.532129 0.829325
-2.56532 -7.91587 76.9223 -0.200095 -0.493997 0.846126
-1.79392 -7.9673 77.0714 -0.201335 -0.475167 0.856551
-0.966754 -7.65588 77.429 -0.19992 -0.44189 0.874508
-0.223596 -7.12016 77.8534 -0.201549 -0.400437 0.893884
0.202732 -6.58188 78.1733 -0.177205 -0.355204 0.917839
0.542095 -5.92083 78.4947 -0.174706 -0.330955 0.926964
0.876954 -5.10947 78.822 -0.16057 -0.303174 0.939231
1.15115 -4.32493 79.0991 -0.12335 -0.291966 0.948441
1.54477 -3.26296 79.4048 -0.0515477 -0.240015 0.968906
1.83902 -2.51568 79.5796 -0.0311185 -0.217222 0.975626
1.99518 -2.05025 79.68 -0.0269113 -0.186302 0.982124
3.27834 -2.44337 79.661 -0.0481882 -0.146641 0.987942
3.49395 -1.63903 79.7826 -0.0223761 -0.119513 0.992021
3.79794 -0.911573 79.8585 -0.0483454 -0.0903552 0.994735
4.13682 0.11781 79.9098 0.0266211 -0.0586292 0.997925
4.37913 0.92229 79.9482 0.0772195 -0.0647539 0.994909
4.43892 1.71164 79.9992 0.0841947 -0.0723615 0.993818
4.44915 2.60981 80.0486 0.099032 -0.0419447 0.9942
4.14004 3.53487 80.1213 0.117591 -0.0324832 0.992531
3.68924 4.2098 80.1982 0.119984 -0.0353388 0.992147
3.30344 4.99642 80.278 0.158715 -0.0133699 0.987234
2.75611 5.54366 80.3822 0.179556 -0.0329121 0.983197
2.05927 6.04745 80.5318 0.210258 -0.0353219 0.976921
1.25005 6.64545 80.7273 0.217106 -0.023209 0.975871
0.473498 6.96409 80.9222 0.257005 -0.0397126 0.965194
-0.0880026 7.44134 81.1121 0.286952 -0.0285592 0.957498
-0.695741 7.86215 81.3331 0.328023 -0.0273589 0.944273
-1.33161 8.22661 81.5893 0.389911 -0.049796 0.919505
-2.06778 8.77667 81.9544 0.452999 -0.0852625 0.887424
-2.69204 9.26796 82.3128 0.488208 -0.0685912 0.868656
-3.25909 9.70732 82.7067 0.531838 -0.0749711 0.843516
-3.78711 10.3119 83.1876 0.589858 -0.112843 0.799478
-4.46227 10.9904 83.8355 0.636016 -0.0917591 0.766018
-4.9177 11.604 84.3798 0.688323 -0.165396 0.705606
-5.42856 12.2826 85.0856 0.730704 -0.133302 0.666342
-5.73471 12.9376 85.6563 0.793868 -0.15256 0.588642
-6.09954 13.6424 86.4113 0.834063 -0.188376 0.51851
-6.31984 14.1275 86.9419 0.834238 -0.178705 0.521545
-6.49659 14.8469 87.5924 0.859668 -0.21596 0.46296
-6.64526 15.3582 88.1398 0.874957 -0.243249 0.418643
-6.6868 15.9833 88.6016 0.873632 -0.254968 0.414423
-6.73634 16.5804 89.0841 0.88661 -0.250049 0.389099
-6.84558 17.2019 89.7509 0.891103 -0.255151 0.375277
-6.88515 17.8212 90.3101 0.897727 -0.263977 0.352558
-6.8597 18.5364 90.8108 0.901743 -0.273534 0.33472
-6.85038 19.2099 91.3381 0.904675 -0.27791 0.32276
-6.88284 19.8386 91.9757 0.913598 -0.275033 0.299492
-6.82085 20.49 92.3729 0.920844 -0.263465 0.287009
-6.71497 21.1822 92.6938 0.924046 -0.274294 0.266123
-6.65919 21.8905 93.2468 0.929419 -0.271587 0.249515
-6.55645 22.7192 93.822 0.932328 -0.28072 0.227948
-6.41979 23.4101 94.1247 0.931307 -0.28548 0.226206
-6.24459 24.3195 94.5711 0.937539 -0.285175 0.199237
-6.12538 24.9734 94.9483 0.937604 -0.286732 0.196675
-5.96493 25.7133 95.2987 0.939715 -0.29124 0.178832
-5.79134 26.4495 95.5815 0.938485 -0.309552 0.153046
-5.72496 26.9467 96.1559 0.935468 -0.311091 0.167681
-5.9133 26.8423 97.0145 0.933779 -0.31467 0.170411
-6.15126 26.5412 97.7634 0.933312 -0.316086 0.170343
-6.45589 26.1373 98.6752 0.933046 -0.317512 0.169133
-6.67783 26.0075 99.6554 0.932389 -0.320562 0.16699
-6.97446 25.6826 100.683 0.932027 -0.322161 0.16594
-7.18036 25.4888 101.482 0.933513 -0.319207 0.163246
-7.42895 25.2667 102.485 0.93436 -0.318988 0.158803
-7.63877 25.0199 103.233 0.935738 -0.317231 0.15414
-7.80418 24.882 103.96 0.935882 -0.318184 0.151274
-8.10573 24.4549 104.936 0.936296 -0.318833 0.14729
-8.30938 24.258 105.812 0.938541 -0.313727 0.143935
-8.54633 24.0144 106.829 0.93952 -0.312034 0.141163
-8.84846 23.6295 108.014 0.939466 -0.313288 0.13871
-9.01472 23.438 108.732 0.941233 -0.3099 0.134321
-9.19191 23.2039 109.444 0.942024 -0.309299 0.130095
-9.43146 22.5277 109.557 0.94113 -0.312291 0.129418
-9.66187 21.7667 109.368 0.940081 -0.317004 0.125521
-9.86866 21.0606 109.115 0.939426 -0.319784 0.123354
-10.0748 20.3054 108.703 0.937213 -0.325237 0.125906
-10.2912 19.508 108.237 0.935572 -0.330054 0.125558
-10.5575 18.6447 107.94 0.934721 -0.332985 0.124172
-10.7376 18.0058 107.576 0.933737 -0.335604 0.124516
-10.9822 17.1641 107.118 0.93194 -0.341173 0.122833
-11.161 16.5326 106.713 0.930675 -0.346069 0.118651
-11.3601 15.7661 106.063 0.928942 -0.347371 0.128055
-11.6386 14.9066 105.704 0.926156 -0.355249 0.126622
-11.8495 14.1666 105.154 0.922843 -0.365154 0.122271
-12.0506 13.436 104.507 0.919573 -0.369927 0.132399
-12.2636 12.7212 103.995 0.918029 -0.372932 0.134662
-12.505 11.8953 103.344 0.914493 -0.380153 0.138469
-12.703 11.1861 102.677 0.911503 -0.387704 0.137275
-12.8374 10.6732 102.133 0.9067 -0.400027 0.132803
-13.1216 9.82536 101.506 0.898865 -0.414369 0.142524
-13.3066 9.21267 100.903 0.894775 -0.423311 0.142075
-13.4087 8.74475 100.177 0.888994 -0.430238 0.156606
-13.6093 8.13244 99.5944 0.886252 -0.434942 0.159221
-13.8545 7.37217 98.8339 0.878506 -0.449276 0.16241
-14.0206 6.78968 98.1227 0.879962 -0.449306 0.153999
-14.1589 6.31439 97.4878 0.873909 -0.466646 0.134528
-14.2721 5.86 96.7265 0.855926 -0.492316 0.157555
-14.414 5.32448 95.9046 0.844806 -0.507948 0.167025
-14.6225 4.71892 95.1807 0.827372 -0.526421 0.195733
-14.7384 4.24707 94.4108 0.805891 -0.547736 0.224167
-14.8716 3.79962 93.7818 0.798939 -0.548615 0.246411
-14.8947 3.44892 93.0788 0.796078 -0.551717 0.248734
-14.9063 3.07354 92.2819 0.78346 -0.566569 0.255325
-15.0498 2.5593 91.5446 0.763071 -0.595284 0.251714
-15.073 2.14046 90.6231 0.729401 -0.622365 0.283964
-15.089 1.73529 89.7733 0.700188 -0.640715 0.314992
-15.0896 1.41701 89.0786 0.658749 -0.684397 0.309013
-15.0888 1.00646 88.3037 0.641407 -0.665665 0.380842
-15.1171 0.541255 87.5622 0.615626 -0.673308 0.409407
-15.0331 0.0936959 86.6922 0.611821 -0.676913 0.409223
-14.9011 -0.28082 85.912 0.539896 -0.716499 0.441748
-14.8059 -0.660737 85.1964 0.538286 -0.707971 0.457193
-14.7259 -1.12182 84.3933 0.41727 -0.771447 0.48037
-14.4973 -1.56299 83.5352 0.380028 -0.756868 0.531724
-14.2954 -2.03461 82.7374 0.325657 -0.760991 0.561106
-14.0433 -2.52048 81.9529 0.292134 -0.757294 0.584092
-13.8267 -2.93962 81.3214 0.260833 -0.750689 0.606986
-13.525 -3.31942 80.7497 0.235189 -0.733413 0.637802
-13.1007 -3.72073 80.158 0.178611 -0.732078 0.657389
-12.7408 -4.14229 79.6104 0.154061 -0.714031 0.682716
-12.1798 -4.59906 79.0303 0.107042 -0.714166 0.691721
-11.6005 -4.99842 78.5442 0.0357075 -0.704984 0.708324
-10.9123 -5.42681 78.1055 0.0289829 -0.669892 0.741784
-10.2092 -5.72316 77.8058 0.00722801 -0.656483 0.754306
-9.49527 -6.28684 77.3238 -0.0058782 -0.643558 0.765364
-8.79928 -6.55644 77.1062 -0.0373902 -0.644237 0.763911
-8.11071 -6.8939 76.8595 -0.0587188 -0.637068 0.768346
-7.31507 -7.23149 76.6356 -0.0736641 -0.643273 0.761958
-6.22716 -7.72369 76.38 -0.103684 -0.630922 0.768878
-5.12209 -8.23356 76.1694 -0.139648 -0.583474 0.799798
-4.36599 -8.54479 76.0943 -0.164927 -0.576079 0.800536
-3.53802 -8.85802 76.0809 -0.205295 -0.550103 0.809417
-2.78856 -9.00781 76.1861 -0.240895 -0.538411 0.807517
-1.88471 -9.24353 76.3038 -0.248643 -0.488927 0.836138
-1.0272 -9.13273 76.6246 -0.250382 -0.488927 0.835619
-0.230895 -8.74761 77.0758 -0.279223 -0.412535 0.867092
0.395483 -8.48587 77.4009 -0.276018 -0.412349 0.868206
0.922119 -7.90116 77.8166 -0.2633 -0.378756 0.88724
1.48653 -7.07876 78.2965 -0.26882 -0.303356 0.913534
1.8475 -6.4004 78.6053 -0.204605 -0.290961 0.934327
2.13876 -5.52764 78.9177 -0.190259 -0.278838 0.941274
2.46769 -4.6565 79.1855 -0.138793 -0.216552 0.966061
2.75099 -3.84229 79.3769 -0.108848 -0.18159 0.977332
