-4.30663 0.36396 81.9052 0.261673 -0.337185 0.904341
-4.85525 -0.135314 81.851 0.232624 -0.380944 0.894856
-4.85525 -0.135314 81.851 0.232624 -0.380944 0.894856
-5.46143 0.212779 82.1768 0.289292 -0.413051 0.863539
-6.17519 0.831015 82.6993 0.318664 -0.36943 0.872618
-6.64671 1.37587 83.1733 0.402371 -0.39541 0.825681
-7.13829 2.16443 83.8209 0.464068 -0.408614 0.785923
-7.41232 2.97441 84.41 0.491373 -0.420796 0.761833
-6.71563 2.76354 83.8828 0.4644 -0.41285 0.783495
-5.97005 2.11443 83.1938 0.411207 -0.353203 0.839397
-5.15593 1.58972 82.6412 0.340045 -0.331441 0.879399
-4.55549 1.19456 82.2851 0.294022 -0.323683 0.899091
-4.27436 0.490563 81.9431 0.261678 -0.337178 0.904343
-3.064 0.185143 81.5412 0.198776 -0.287624 0.936887
-2.86434 1.14051 81.7906 0.210367 -0.277764 0.937217
-3.20206 1.77077 82.0639 0.291565 -0.252713 0.922565
-4.04165 2.40272 82.5204 0.327877 -0.279944 0.902016
-4.89116 2.99617 83.0522 0.385107 -0.3063 0.87007
-5.49494 3.50033 83.5323 0.420265 -0.332483 0.844294
-6.1206 4.11988 84.1544 0.508991 -0.335896 0.791925
-6.50924 4.57054 84.6223 0.532447 -0.3431 0.77381
-7.07447 5.1682 85.3145 0.563856 -0.363414 0.741504
-7.4236 5.63028 85.8572 0.624364 -0.384384 0.679445
-7.88989 6.2746 86.6692 0.667189 -0.35312 0.654906
-8.21712 6.73826 87.3121 0.704094 -0.378342 0.600923
-8.48578 7.12545 87.9009 0.721957 -0.392451 0.569878
-8.74315 7.70468 88.6603 0.750248 -0.402025 0.524885
-8.95021 8.20407 89.3596 0.7915 -0.392656 0.468346
-9.0768 8.75783 90.022 0.805432 -0.382868 0.451223
-9.15456 9.32918 90.6917 0.82745 -0.372822 0.419729
-9.21322 9.8821 91.3346 0.845161 -0.381429 0.374335
-9.23575 10.5684 92.0783 0.849336 -0.377136 0.369319
-9.21522 11.1407 92.6638 0.862662 -0.379764 0.334056
-9.21735 11.6659 93.2522 0.872711 -0.367702 0.321202
-9.19491 12.1854 93.813 0.881801 -0.36326 0.30064
-9.15309 12.7626 94.3864 0.885618 -0.364077 0.288322
-9.08952 13.3186 94.8992 0.895023 -0.359611 0.263711
-8.97905 14.0636 95.5175 0.898455 -0.355325 0.257835
-8.89223 14.831 96.2666 0.906528 -0.344654 0.243574
-8.7738 15.6039 96.959 0.911324 -0.338281 0.2343
-8.65702 16.2315 97.4127 0.919635 -0.332705 0.208753
-8.50763 16.9561 97.911 0.919439 -0.333654 0.208106
-8.37893 17.578 98.3337 0.920978 -0.332154 0.203607
-8.21536 18.2801 98.7559 0.922475 -0.333895 0.19363
-8.07953 18.9092 99.2046 0.927544 -0.327111 0.180721
-8.1652 19.084 99.9653 0.928609 -0.328531 0.172409
-8.40709 18.8134 100.764 0.927871 -0.331936 0.169923
-8.6682 17.9562 100.504 0.926462 -0.335875 0.169874
-8.81595 17.3113 100.042 0.92597 -0.335297 0.173651
-8.94282 16.7101 99.5597 0.924867 -0.335651 0.178705
-9.15585 15.7661 98.9079 0.921499 -0.339435 0.188744
-9.34938 14.8779 98.2402 0.914495 -0.350049 0.202889
-9.48005 14.2411 97.7211 0.911529 -0.354835 0.207735
-9.59479 13.5183 97.0216 0.907796 -0.360328 0.214463
-9.74477 12.6508 96.2227 0.898019 -0.366503 0.24322
-9.8408 11.8966 95.45 0.889832 -0.369986 0.267039
-9.88188 11.2265 94.6622 0.877094 -0.387806 0.283394
-9.93967 10.6316 94.0457 0.873168 -0.387376 0.295701
-9.98967 10.0476 93.434 0.862596 -0.394108 0.317116
-10.02 9.50428 92.8248 0.8562 -0.398585 0.328322
-10.0177 8.82466 92.0299 0.834951 -0.422344 0.35282
-9.97684 8.22053 91.2774 0.824199 -0.424769 0.373963
-9.90368 7.55556 90.4137 0.79764 -0.425226 0.427334
-9.84349 7.04465 89.8076 0.780092 -0.421658 0.461452
-9.75498 6.53455 89.2127 0.757583 -0.42656 0.49357
-9.59896 5.9604 88.4979 0.725159 -0.465546 0.507218
-9.42981 5.34749 87.7911 0.683168 -0.452582 0.573107
-9.14583 4.62699 86.9072 0.643417 -0.455723 0.615086
-8.88054 3.77416 86.0243 0.610631 -0.445354 0.65337
-8.67634 2.9804 85.3065 0.533251 -0.488556 0.69062
-8.48482 2.28697 84.6924 0.500186 -0.473002 0.724344
-8.27685 1.73509 84.2179 0.422355 -0.501306 0.755188
-7.98693 1.15684 83.6837 0.372323 -0.492349 0.786745
-7.58608 0.538099 83.1192 0.344153 -0.470557 0.812428
-7.12098 -0.00174106 82.6311 0.320622 -0.44192 0.8378
-6.60316 -0.540666 82.1599 0.255745 -0.433044 0.86433
-5.87196 -1.04721 81.6906 0.237663 -0.43238 0.86961
-4.98421 -1.55777 81.241 0.187218 -0.410466 0.892178
-4.33274 -1.86127 80.9894 0.16018 -0.3975 0.903513
-3.74537 -1.56701 81.0264 0.147781 -0.379631 0.912946
-3.43744 -0.856185 81.2538 0.180419 -0.349914 0.918891
-3.14776 -0.0190576 81.496 0.184284 -0.310668 0.932104
-1.91864 -0.336284 81.1554 0.154256 -0.268137 0.950951
-1.59491 0.509844 81.3351 0.186645 -0.243518 0.95176
-1.34879 1.53163 81.5227 0.211994 -0.20721 0.954823
-1.8298 2.37028 81.8222 0.253192 -0.19421 0.94744
-2.46905 2.91376 82.1312 0.289537 -0.216039 0.932381
-3.24633 3.43316 82.5192 0.346669 -0.241187 0.906258
-3.86291 3.86473 82.8851 0.372756 -0.257229 0.891331
-4.44306 4.3356 83.3059 0.406585 -0.293198 0.865288
-5.11904 4.98038 83.885 0.495922 -0.263676 0.827367
-5.54568 5.44717 84.306 0.536673 -0.297781 0.789499
-6.0192 5.94185 84.8323 0.595774 -0.306439 0.741775
-6.56378 6.59786 85.5634 0.61819 -0.285053 0.73252
-6.87419 7.07056 86.0629 0.663764 -0.308227 0.681294
-7.32334 7.64197 86.8194 0.688896 -0.343517 0.638293
-7.62798 8.10959 87.4526 0.738897 -0.351771 0.574265
-7.8991 8.57449 88.0655 0.744376 -0.330699 0.580123
-8.1 9.00599 88.6545 0.776169 -0.343249 0.528664
-8.25306 9.49077 89.2087 0.792879 -0.354621 0.495567
-8.35385 10.0441 89.7958 0.820593 -0.35696 0.44595
-8.45076 10.5471 90.3645 0.836981 -0.361425 0.410895
-8.52606 11.1511 91.0277 0.848354 -0.343053 0.402606
-8.54625 11.8907 91.7691 0.862071 -0.357575 0.35897
-8.57064 12.409 92.3582 0.864754 -0.357488 0.352707
-8.55466 13.1412 93.0824 0.886487 -0.339932 0.313985
-8.50263 13.9044 93.7894 0.886904 -0.350432 0.300997
-8.42827 14.7016 94.484 0.897102 -0.33709 0.285619
-8.3364 15.5164 95.1876 0.911535 -0.32242 0.255245
-8.23885 16.2964 95.8494 0.911624 -0.330241 0.244708
-8.14401 16.9221 96.3348 0.91522 -0.328081 0.233753
-7.99557 17.7651 96.9684 0.917059 -0.330733 0.222753
-7.83074 18.5874 97.49 0.921128 -0.325137 0.214029
-7.69337 19.2315 97.8772 0.923515 -0.323828 0.20536
-7.51594 20.0592 98.4077 0.929112 -0.318951 0.187142
-7.48135 20.51 98.9943 0.929734 -0.316025 0.189002
-7.73458 20.3636 100.067 0.930371 -0.320848 0.17739
-7.99144 20.1202 101.017 0.931264 -0.325691 0.163214
-8.21525 19.8632 101.805 0.930463 -0.329769 0.159657
-8.43724 19.5458 102.472 0.932169 -0.329435 0.150109
-8.67762 18.8612 102.455 0.931285 -0.331584 0.150865
-8.86457 18.1678 102.081 0.930356 -0.333954 0.151357
-9.05541 17.4389 101.649 0.92856 -0.337176 0.155191
-9.22111 16.7505 101.159 0.928276 -0.335331 0.160802
-9.40767 15.9751 100.587 0.924731 -0.343489 0.163978
-9.56185 15.3518 100.158 0.919232 -0.351089 0.178139
-9.72046 14.7056 99.6908 0.918032 -0.352173 0.182137
-9.85224 14.0851 99.1593 0.914496 -0.359544 0.185514
-10.0324 13.2789 98.4991 0.909373 -0.363164 0.202848
-10.1341 12.7183 97.9425 0.906768 -0.369252 0.203471
-10.2543 12.161 97.4499 0.8987 -0.380236 0.218448
-10.3851 11.4169 96.703 0.894322 -0.383789 0.229924
-10.4674 10.8019 96.0137 0.893058 -0.383163 0.235867
-10.5617 10.0497 95.1593 0.879128 -0.398896 0.260799
-10.6708 9.25862 94.3265 0.86347 -0.416469 0.284559
-10.7486 8.56957 93.5682 0.849693 -0.428779 0.306872
-10.7617 7.98636 92.8168 0.833188 -0.445022 0.328257
-10.7424 7.4065 92.0176 0.831948 -0.433191 0.346709
-10.7233 6.76485 91.1876 0.797944 -0.456378 0.393707
-10.7175 6.22364 90.5449 0.786968 -0.459577 0.411023
-10.6587 5.73047 89.9051 0.775287 -0.467028 0.425223
-10.5586 5.28547 89.2843 0.738884 -0.484736 0.468062
-10.4804 4.81794 88.7025 0.711731 -0.482388 0.510367
-10.4116 4.31733 88.1105 0.690703 -0.484893 0.535015
-10.2145 3.82732 87.429 0.65568 -0.513841 0.553219
-10.0059 3.05827 86.5433 0.626849 -0.527005 0.572341
-9.84575 2.43493 85.8542 0.551517 -0.542109 0.633993
-9.70004 1.91539 85.3146 0.542999 -0.515876 0.662589
-9.47276 1.24611 84.6158 0.451943 -0.537025 0.712286
-9.14747 0.62576 83.9629 0.443913 -0.513612 0.734265
-8.79372 0.0830565 83.396 0.376797 -0.52961 0.759958
-8.45843 -0.407037 82.9103 0.327223 -0.504278 0.799087
-7.90186 -1.12221 82.2439 0.300678 -0.52696 0.793946
-7.1344 -1.75833 81.62 0.217157 -0.522404 0.824488
-6.52591 -2.11587 81.2708 0.17132 -0.511259 0.842178
-5.69029 -2.5817 80.8492 0.121599 -0.496268 0.859611
-5.03678 -2.97567 80.5416 0.0967697 -0.467221 0.878828
-4.03715 -3.48487 80.186 0.066013 -0.440035 0.895551
-2.9965 -3.20572 80.2404 0.035922 -0.406034 0.913152
-2.73473 -2.53236 80.4937 0.0730041 -0.346681 0.935138
-2.43251 -1.70393 80.7773 0.0791626 -0.344694 0.935349
-2.13747 -0.917551 81.0081 0.124445 -0.322174 0.938465
-2.0405 -0.657275 81.0846 0.139356 -0.295158 0.944707
-0.795358 -1.04365 80.8029 0.110347 -0.239944 0.964495
-1.11991 -1.96241 80.5596 0.0797089 -0.292996 0.952784
-1.44089 -2.88069 80.2827 0.0425931 -0.31176 0.949206
-1.82257 -3.9088 79.9 0.0324868 -0.364477 0.930645
-2.14173 -4.5401 79.6301 -0.00543277 -0.399394 0.916763
-2.94148 -5.1087 79.3502 -0.0476533 -0.436101 0.898635
-3.84765 -4.88286 79.4577 0.0175178 -0.458859 0.888234
-4.68834 -4.54805 79.6603 0.0418838 -0.471662 0.880602
-5.48423 -4.1507 79.9302 0.0700866 -0.496537 0.864911
-6.26104 -3.65705 80.294 0.088744 -0.5318 0.841543
-7.08357 -3.20871 80.7045 0.119691 -0.542364 0.831574
-7.7291 -2.85767 81.0593 0.16985 -0.561636 0.809763
-8.48838 -2.35928 81.5842 0.217325 -0.574741 0.788832
-9.03374 -1.83812 82.1296 0.239272 -0.584065 0.77543
-9.48489 -1.23098 82.753 0.311319 -0.55383 0.772239
-9.82758 -0.738595 83.3071 0.348913 -0.5989 0.720818
-10.2992 -0.0389544 84.1308 0.445148 -0.566215 0.693718
-10.6099 0.594319 84.869 0.472918 -0.589625 0.65421
-10.7781 1.13647 85.5192 0.502493 -0.609698 0.613
-10.9591 1.76922 86.2809 0.558338 -0.584016 0.589224
-11.114 2.43387 87.1202 0.614644 -0.558443 0.557094
-11.2614 3.04585 87.9643 0.65576 -0.567822 0.497036
-11.3839 3.57867 88.697 0.681765 -0.555069 0.47468
-11.4221 4.0581 89.3195 0.711246 -0.527552 0.464563
-11.4956 4.67351 90.1826 0.75647 -0.509884 0.409599
-11.5576 5.26727 91.0713 0.787886 -0.48627 0.377857
-11.56 5.8155 91.8345 0.803025 -0.488187 0.341227
-11.5165 6.46001 92.6323 0.821882 -0.469443 0.322274
-11.5061 7.01102 93.3939 0.828249 -0.465208 0.312386
-11.4739 7.52999 94.114 0.846005 -0.449041 0.287468
-11.4109 8.00431 94.7042 0.86071 -0.434672 0.265026
-11.3162 8.52671 95.2782 0.868029 -0.431919 0.244522
-11.2239 9.08182 95.8896 0.873806 -0.424593 0.236621
-11.1252 9.6114 96.4686 0.882837 -0.408018 0.232636
-11.0238 10.1924 97.1171 0.891564 -0.395776 0.22017
-10.8994 10.8592 97.8288 0.899031 -0.387799 0.203359
-10.7668 11.4947 98.4653 0.903971 -0.382526 0.191076
-10.6017 12.2627 99.2362 0.908305 -0.376207 0.182866
-10.4312 12.9954 99.8716 0.912831 -0.367137 0.178584
-10.2635 13.6656 100.412 0.915626 -0.362375 0.174109
-10.1064 14.2953 100.904 0.918645 -0.361805 0.158705
-9.93976 14.9752 101.455 0.922474 -0.352362 0.157742
-9.74759 15.7008 101.957 0.925551 -0.34636 0.15291
-9.59128 16.3184 102.402 0.92679 -0.343273 0.15239
-9.41954 16.9829 102.849 0.92778 -0.342359 0.148295
-9.23493 17.6667 103.259 0.929811 -0.337876 0.145915
-9.04724 18.363 103.661 0.930962 -0.334391 0.146602
-8.79914 19.2899 104.205 0.933489 -0.329628 0.141221
-8.59786 19.9998 104.527 0.934898 -0.325585 0.141245
-8.34655 20.4942 104.016 0.934381 -0.325681 0.144443
-8.09658 20.8027 103.103 0.933974 -0.324983 0.148591
-7.88698 21.0345 102.301 0.93289 -0.326559 0.151903
-7.60564 21.3492 101.269 0.932573 -0.324385 0.158373
-7.354 21.5979 100.326 0.931423 -0.322495 0.168668
-7.0984 21.8183 99.3459 0.931676 -0.32012 0.171764
-6.89788 21.9429 98.5159 0.930413 -0.316418 0.184959
-6.91657 21.4282 97.7445 0.931262 -0.308918 0.193186
-7.10531 20.498 97.1685 0.930078 -0.308833 0.198939
-7.23564 19.8508 96.7948 0.92556 -0.310227 0.21695
-7.36653 19.1963 96.4045 0.923524 -0.315078 0.218697
-7.53585 18.2068 95.7284 0.918488 -0.317907 0.235105
-7.64561 17.3918 95.0926 0.914698 -0.314039 0.254375
-7.75112 16.665 94.5632 0.910624 -0.319544 0.26198
-7.8061 16.0417 94.031 0.905768 -0.313515 0.285117
-7.86402 15.3022 93.4187 0.900069 -0.309349 0.306886
-7.89505 14.7264 92.9108 0.890223 -0.332024 0.311871
-7.92017 14.0409 92.2916 0.889231 -0.318706 0.328168
-7.89898 13.23 91.4865 0.864566 -0.335959 0.373708
-7.85788 12.6924 90.9214 0.862683 -0.321193 0.390656
-7.81113 12.1458 90.3725 0.847496 -0.346929 0.401734
-7.72677 11.4562 89.6905 0.833534 -0.321653 0.449177
-7.61447 10.9077 89.1147 0.824461 -0.311336 0.472304
-7.45608 10.2947 88.4858 0.793942 -0.307381 0.524268
-7.22169 9.73361 87.8138 0.767321 -0.310732 0.5598
-6.92431 9.25054 87.1915 0.750369 -0.311099 0.582976
-6.49058 8.58216 86.3442 0.717877 -0.304068 0.626197
-6.04109 7.94973 85.6266 0.674071 -0.285675 0.681177
-5.53942 7.3442 84.972 0.627133 -0.271876 0.729916
-5.10674 6.83394 84.4806 0.560546 -0.254905 0.787727
-4.6041 6.3102 83.9841 0.534281 -0.232265 0.812771
-3.96103 5.6677 83.4291 0.470289 -0.205261 0.85831
-3.21679 5.01979 82.8987 0.426078 -0.189462 0.884625
-2.35078 4.3898 82.4085 0.353326 -0.148135 0.923697
-1.76423 3.99748 82.128 0.282449 -0.159943 0.945716
-1.15632 3.62457 81.879 0.294797 -0.149626 0.943773
-0.47248 2.98423 81.6039 0.242963 -0.125776 0.961847
0.0587054 2.06936 81.3298 0.185802 -0.155017 0.970108
0.00170975 1.14114 81.1874 0.161159 -0.169518 0.972261
-0.282789 0.283488 81.0589 0.150559 -0.217318 0.96442
-0.671802 -0.696514 80.8751 0.110344 -0.239949 0.964494
0.627062 -1.00918 80.668 0.0482532 -0.191641 0.980278
0.930783 -0.238142 80.8076 0.122268 -0.17518 0.976842
1.2231 0.472161 80.8923 0.129315 -0.171485 0.976661
1.39033 1.20824 80.9834 0.148966 -0.134321 0.979677
1.46566 2.26593 81.1049 0.146883 -0.112114 0.98278
1.18383 3.09484 81.2526 0.200176 -0.0938431 0.975255
0.677218 3.7812 81.4333 0.217844 -0.109835 0.969784
0.0999038 4.36283 81.631 0.253358 -0.112066 0.96086
-0.543248 4.84606 81.8709 0.275326 -0.128494 0.952725
-1.36978 5.33189 82.2017 0.325825 -0.132707 0.93607
-2.11275 5.82014 82.5628 0.38438 -0.160044 0.909196
-2.86103 6.42024 83.0209 0.446097 -0.173457 0.878015
-3.582 7.10692 83.5619 0.504906 -0.186658 0.842751
-4.25757 7.78832 84.1527 0.554897 -0.20459 0.80637
-4.82657 8.41128 84.7382 0.610138 -0.215999 0.762284
-5.33412 9.04089 85.3594 0.65547 -0.227825 0.720038
-5.74356 9.60762 85.9698 0.704028 -0.258232 0.661559
-6.06835 10.0768 86.5104 0.755366 -0.247687 0.60669
-6.39997 10.5801 87.1497 0.762797 -0.270442 0.587369
-6.65587 11.085 87.7497 0.7896 -0.275549 0.548273
-6.83375 11.6531 88.3133 0.802782 -0.291369 0.520235
-6.98461 12.2923 88.9142 0.828487 -0.307186 0.467635
-7.10489 12.8745 89.5087 0.844577 -0.278891 0.457067
-7.18553 13.508 90.1 0.85769 -0.303016 0.414991
-7.28 14.3305 90.9491 0.874809 -0.302035 0.378624
-7.29796 15.0739 91.614 0.883883 -0.30902 0.350633
-7.26956 15.7458 92.1688 0.894695 -0.303052 0.327941
-7.26376 16.4086 92.7565 0.901121 -0.300586 0.312457
-7.25265 17.0098 93.326 0.905997 -0.308184 0.290038
-7.1762 17.6648 93.7953 0.910569 -0.304782 0.279234
-7.09332 18.3037 94.2233 0.916567 -0.310523 0.251953
-6.96389 19.303 94.9604 0.918635 -0.302183 0.254551
-6.8018 20.2563 95.5596 0.925591 -0.299229 0.231661
-6.66728 21.0006 95.9767 0.92759 -0.30566 0.214823
-6.5319 21.7459 96.4443 0.933554 -0.293845 0.205137
-6.39244 22.5061 96.9308 0.933134 -0.302173 0.194747
-6.25707 23.1493 97.2931 0.934226 -0.304241 0.186172
-6.28614 23.4791 97.9949 0.933374 -0.311293 0.178587
-6.55497 23.2282 98.9816 0.933667 -0.313176 0.173735
-6.80858 22.9987 99.9552 0.933499 -0.318296 0.16513
-7.00863 22.8063 100.717 0.933868 -0.319314 0.160971
-7.21267 22.5929 101.488 0.932999 -0.323154 0.158382
-7.40194 22.3856 102.201 0.934315 -0.322097 0.152667
-7.61042 22.1539 102.993 0.934431 -0.32233 0.151464
-7.84277 21.889 103.883 0.934581 -0.324075 0.146744
-8.13436 21.5589 105.048 0.935683 -0.323648 0.140531
-8.32982 21.3148 105.799 0.936883 -0.322603 0.134824
-8.57624 20.852 106.41 0.937662 -0.32095 0.133347
-8.8401 19.9788 106.133 0.935712 -0.326686 0.133112
-9.02186 19.2921 105.721 0.934889 -0.329084 0.132988
-9.23644 18.4852 105.227 0.933217 -0.334022 0.132396
-9.45331 17.7234 104.835 0.931995 -0.334609 0.13936
-9.67434 16.9243 104.372 0.930675 -0.339286 0.136854
-9.89862 16.0774 103.777 0.927883 -0.34522 0.140847
-10.092 15.3447 103.26 0.925337 -0.350895 0.143585
-10.3289 14.5 102.715 0.922978 -0.355994 0.146154
-10.5337 13.7142 102.079 0.921676 -0.358335 0.148695
-10.6793 13.1362 101.566 0.918541 -0.365137 0.151514
-10.9083 12.2739 100.879 0.911301 -0.377196 0.165086
-11.0927 11.5661 100.274 0.907421 -0.38574 0.166706
-11.2136 11.0132 99.6701 0.905481 -0.387792 0.172266
-11.3617 10.3677 98.9955 0.903509 -0.388491 0.180957
-11.5448 9.63185 98.2958 0.897487 -0.397016 0.192085
-11.6868 8.93994 97.4871 0.8887 -0.409069 0.207063
-11.8607 8.18056 96.6699 0.878378 -0.424693 0.219291
-12.0173 7.4576 95.8405 0.86661 -0.439788 0.235739
-12.1555 6.82207 95.1027 0.848749 -0.468354 0.245051
-12.221 6.37992 94.4647 0.843672 -0.47522 0.249765
-12.275 5.81505 93.621 0.825667 -0.496251 0.268345
-12.3741 5.10347 92.7115 0.803725 -0.518044 0.292671
-12.4289 4.44696 91.7882 0.779525 -0.529297 0.334351
-12.3996 4.046 91.13 0.766898 -0.541529 0.343601
-12.373 3.65026 90.4707 0.747586 -0.541943 0.383944
-12.368 3.14944 89.7274 0.715573 -0.590447 0.372677
-12.362 2.71225 89.111 0.670809 -0.594407 0.443504
-12.3032 2.29675 88.4563 0.669272 -0.600545 0.437516
-12.1771 1.69084 87.5186 0.636808 -0.611388 0.469767
-12.0601 1.11384 86.6904 0.579518 -0.621484 0.525995
-11.9383 0.654623 86.0504 0.537942 -0.632201 0.556894
-11.7839 0.051754 85.2452 0.519088 -0.640397 0.566073
-11.5965 -0.431681 84.6079 0.482147 -0.616387 0.622576
-11.2895 -0.992112 83.8624 0.397991 -0.635924 0.661214
-10.9464 -1.44546 83.2543 0.336156 -0.622434 0.706251
-10.6471 -1.9025 82.6855 0.310309 -0.627307 0.713475
-10.2386 -2.42623 82.0768 0.262708 -0.641429 0.720496
-9.78067 -2.919 81.5156 0.216458 -0.618924 0.754858
-9.14606 -3.42415 80.9537 0.172974 -0.601345 0.780029
-8.16594 -3.98802 80.3433 0.122422 -0.58562 0.801283
-7.27315 -4.48586 79.8808 0.0782044 -0.569585 0.818204
-6.42778 -4.98952 79.4731 0.0307417 -0.562119 0.826485
-5.70629 -5.36569 79.1987 0.0055904 -0.542374 0.84006
-5.01936 -5.68614 78.9954 -0.0107647 -0.532961 0.845975
-4.34085 -5.97558 78.8442 -0.0405884 -0.522148 0.851888
-3.5206 -6.23365 78.7437 -0.0700298 -0.487857 0.869447
-2.67732 -6.48846 78.6658 -0.0493901 -0.458309 0.887378
-1.85733 -6.34504 78.8257 -0.104906 -0.431166 0.896153
-1.19973 -5.56768 79.2487 -0.0665609 -0.386479 0.919873
-0.796423 -4.84093 79.5772 -0.0688099 -0.33841 0.93848
-0.485801 -4.1405 79.841 -0.0340973 -0.316369 0.948023
-0.0402661 -2.90519 80.2346 0.000120089 -0.269774 0.962894
0.203772 -2.17646 80.4335 -0.00173333 -0.262675 0.964883
0.471086 -1.39268 80.6007 0.0482532 -0.191641 0.980278
1.61022 -2.06109 80.4304 0.0295918 -0.17329 0.984426
1.28835 -3.16241 80.1893 -0.0043558 -0.218333 0.975865
1.00773 -3.91172 79.983 -0.0494754 -0.262541 0.963652
0.693656 -4.76628 79.7203 -0.0934437 -0.295425 0.950784
0.348577 -5.46886 79.4603 -0.109505 -0.329933 0.937632
0.032697 -6.1405 79.1816 -0.128458 -0.366391 0.920972
-0.435898 -6.99962 78.7509 -0.177413 -0.378734 0.907938
-0.978875 -7.45646 78.4428 -0.158222 -0.406219 0.899973
-1.66842 -7.74388 78.1595 -0.175609 -0.452936 0.873992
-2.54626 -7.7307 78.0024 -0.154359 -0.465252 0.871469
-3.36601 -7.55483 77.9918 -0.106657 -0.48154 0.86991
-4.09271 -7.31794 78.0319 -0.0780857 -0.570934 0.817274
-4.84353 -7.00629 78.1659 -0.0809583 -0.550402 0.830965
-5.75775 -6.60434 78.3761 -0.0347149 -0.563384 0.82534
-6.61747 -6.20141 78.6369 0.00212771 -0.579685 0.814747
-7.40661 -5.80675 78.9413 0.0245157 -0.597185 0.801712
-8.04564 -5.42075 79.2673 0.0559418 -0.60673 0.792838
-8.68629 -5.06563 79.593 0.091543 -0.617167 0.781489
-9.34914 -4.66661 79.987 0.115933 -0.624909 0.771539
-9.98946 -4.31703 80.396 0.141192 -0.647746 0.748517
-10.5478 -3.93103 80.8501 0.157812 -0.669455 0.725477
-11.0485 -3.41101 81.4586 0.215852 -0.6572 0.721983
-11.4499 -3.00117 82.0012 0.26564 -0.677103 0.68627
-11.8238 -2.60768 82.5483 0.315761 -0.682617 0.659037
-12.0688 -2.14437 83.1291 0.346332 -0.66273 0.662767
-12.449 -1.70085 83.8235 0.378885 -0.698067 0.60637
-12.6716 -1.31908 84.4375 0.4201 -0.689496 0.589337
-12.8317 -0.846105 85.1371 0.49928 -0.671691 0.547312
-12.9449 -0.365705 85.8382 0.543983 -0.666897 0.509246
-13.0583 0.0960293 86.5398 0.565526 -0.649367 0.507346
-13.1748 0.577567 87.3316 0.601697 -0.643045 0.472885
-13.2226 1.00697 88.0207 0.619933 -0.634523 0.461095
-13.2788 1.4134 88.711 0.657404 -0.634675 0.406211
-13.3533 1.82901 89.481 0.698517 -0.613317 0.368444
-13.3418 2.27956 90.2406 0.719246 -0.605648 0.339949
-13.3007 2.74387 90.9435 0.734949 -0.593502 0.327225
-13.3008 3.1068 91.6253 0.770566 -0.550455 0.321291
-13.2886 3.65165 92.5648 0.771701 -0.560725 0.300108
-13.2152 4.1058 93.2028 0.790671 -0.543537 0.281791
-13.1091 4.63831 93.9192 0.810152 -0.527602 0.255516
-13.0112 5.08036 94.5334 0.80898 -0.53193 0.250206
-12.9174 5.6364 95.38 0.838563 -0.499379 0.21779
-12.8374 6.04397 96.0065 0.844745 -0.486849 0.221749
-12.6307 6.76533 96.8193 0.862397 -0.468251 0.192389
-12.4912 7.36639 97.5863 0.873892 -0.445335 0.194761
-12.2686 8.13627 98.3414 0.881978 -0.432748 0.186424
-12.1699 8.58498 98.9531 0.886429 -0.425996 0.180654
-12.0046 9.23033 99.6677 0.890636 -0.422624 0.1678
-11.7669 10.0164 100.299 0.899055 -0.405459 0.165238
-11.6561 10.5388 100.974 0.90688 -0.393428 0.150938
-11.483 11.1969 101.641 0.912916 -0.380958 0.146476
-11.2354 12.025 102.24 0.919734 -0.366705 0.140063
-11.0597 12.6735 102.792 0.918147 -0.370246 0.141151
-10.9192 13.2529 103.379 0.92067 -0.364269 0.140269
-10.667 14.1319 103.987 0.92314 -0.358706 0.138355
-10.3805 15.1298 104.634 0.925925 -0.351732 0.137648
-10.2037 15.8167 105.206 0.930656 -0.342771 0.127998
-9.99959 16.5556 105.696 0.931325 -0.341086 0.127645
-9.80886 17.2123 106.048 0.933529 -0.334405 0.129219
-9.53258 18.1886 106.579 0.934681 -0.331791 0.127617
-9.28604 19.0889 107.099 0.935926 -0.327794 0.128814
-9.11171 19.7355 107.483 0.936454 -0.326803 0.127481
-8.92326 20.4056 107.806 0.937104 -0.324845 0.127715
-8.62254 21.3772 108.033 0.939816 -0.31749 0.126256
-8.37544 22.0045 107.767 0.939809 -0.31672 0.128247
-8.14856 22.2857 106.829 0.938747 -0.317611 0.133704
-7.92646 22.6103 106.06 0.937432 -0.319426 0.138524
-7.71903 22.8515 105.222 0.936614 -0.319767 0.143187
-7.47967 23.1059 104.23 0.936005 -0.320282 0.145974
-7.25049 23.3617 103.335 0.935786 -0.319942 0.148128
-7.0426 23.5949 102.542 0.936049 -0.317462 0.15176
-6.83223 23.8312 101.746 0.935302 -0.318395 0.154382
-6.64628 24.0205 101.024 0.93468 -0.317749 0.1594
-6.41638 24.2545 100.153 0.93392 -0.3185 0.162329
-6.17621 24.5063 99.2757 0.9341 -0.316314 0.165534
-5.91684 24.7768 98.3461 0.933547 -0.313719 0.173411
-5.69076 24.934 97.4277 0.935268 -0.307443 0.175364
-5.62684 24.6539 96.6103 0.935492 -0.302071 0.183323
-5.76623 24.0098 96.2603 0.933806 -0.306295 0.18484
-5.92762 23.3173 95.9505 0.934331 -0.29628 0.198102
-6.05796 22.6102 95.5302 0.933992 -0.287371 0.212312
-6.16203 21.8991 95.0201 0.932892 -0.28348 0.221856
-6.27458 21.1927 94.6279 0.929939 -0.284995 0.232208
-6.3947 20.5093 94.2663 0.927089 -0.278345 0.251058
-6.46637 19.8667 93.8185 0.92371 -0.289046 0.251169
-6.53658 19.1572 93.2957 0.917633 -0.283309 0.278721
-6.62536 18.4526 92.862 0.911482 -0.287554 0.294132
-6.68679 17.7679 92.3726 0.906102 -0.299315 0.298926
-6.68044 17.1772 91.8202 0.899994 -0.288313 0.326935
-6.65232 16.4522 91.1331 0.89225 -0.281035 0.353426
-6.69381 15.7266 90.6546 0.885769 -0.28248 0.367793
-6.66092 15.1298 90.1487 0.879102 -0.284989 0.381967
-6.51847 14.6264 89.4766 0.866513 -0.272632 0.418123
-6.42224 14.0322 88.9175 0.861208 -0.250708 0.442115
-6.29039 13.2394 88.2614 0.825031 -0.250968 0.506299
-6.05659 12.4224 87.5127 0.797897 -0.239073 0.553357
-5.83666 11.7809 86.9054 0.784552 -0.253531 0.565077
-5.4755 11.2557 86.2595 0.744132 -0.236448 0.624789
-5.11745 10.749 85.681 0.709092 -0.203826 0.675013
-4.78766 10.2748 85.1928 0.666197 -0.187007 0.721394
-4.27077 9.63818 84.5823 0.643715 -0.178533 0.744099
-3.69363 9.00607 84.0188 0.583722 -0.158667 0.796299
-3.19149 8.51685 83.5927 0.534857 -0.146739 0.832103
-2.68661 8.01623 83.2007 0.471649 -0.128164 0.872422
-2.07744 7.45836 82.7874 0.438396 -0.122795 0.889416
-1.54364 6.99901 82.4934 0.40558 -0.119139 0.90623
-0.819947 6.53996 82.1516 0.341644 -0.102126 0.934264
0.0497478 6.0707 81.8092 0.301161 -0.0738791 0.950707
0.742896 5.56945 81.5707 0.26283 -0.0496155 0.963566
1.4629 4.8968 81.3449 0.224192 -0.0559356 0.972939
1.94712 4.33022 81.2004 0.190374 -0.050546 0.980409
2.44524 3.69498 81.0709 0.187183 -0.0739067 0.979256
2.80847 2.75109 80.9451 0.136878 -0.0744844 0.987781
2.90265 1.98108 80.8671 0.130002 -0.0889379 0.987516
2.78829 1.20212 80.8108 0.119214 -0.101873 0.987501
2.56295 0.371396 80.7391 0.108429 -0.115313 0.987394
2.25722 -0.658217 80.6329 0.0781643 -0.140685 0.986964
1.90996 -1.35642 80.5454 0.0338122 -0.18296 0.98248
1.79172 -1.60787 80.5047 0.0295868 -0.173295 0.984425
2.93788 -2.33683 80.3848 -0.0199499 -0.139275 0.990053
2.71996 -3.07972 80.2565 -0.0473922 -0.178805 0.982743
2.48802 -3.78681 80.1148 -0.0641697 -0.201785 0.977192
2.11148 -4.78331 79.8668 -0.0829628 -0.225312 0.970564
1.86665 -5.50157 79.6462 -0.168895 -0.235277 0.957141
1.47749 -6.4416 79.3143 -0.182271 -0.290655 0.939306
0.995026 -7.30714 78.9256 -0.208188 -0.334034 0.919282
0.562776 -7.91248 78.5893 -0.234036 -0.371176 0.898585
-0.21954 -8.54397 78.0982 -0.257135 -0.399362 0.879995
-1.16358 -8.93843 77.6423 -0.225925 -0.481075 0.847068
-1.91504 -8.98726 77.4224 -0.207076 -0.493131 0.844853
-2.72064 -8.98672 77.2235 -0.198783 -0.505256 0.839763
-3.4684 -8.74252 77.2088 -0.181773 -0.556288 0.810865
-4.31298 -8.41592 77.2702 -0.131797 -0.57488 0.807553
-5.23974 -8.02136 77.4195 -0.0953329 -0.598812 0.795195
-6.23997 -7.58967 77.6413 -0.0767779 -0.617671 0.78268
-7.22139 -7.1323 77.9313 -0.04095 -0.628021 0.777118
-7.96526 -6.79779 78.178 -0.000217588 -0.647551 0.762022
-8.64793 -6.43151 78.4888 0.0325365 -0.63421 0.772476
-9.29858 -6.00814 78.8749 0.0616981 -0.637176 0.768245
-9.97895 -5.66508 79.227 0.0806378 -0.647642 0.757666
-10.5674 -5.2702 79.6484 0.108605 -0.666315 0.737719
-11.2162 -4.9169 80.0728 0.110326 -0.685214 0.719937
-11.8049 -4.46867 80.6314 0.151398 -0.713191 0.684425
-12.2623 -3.96956 81.2781 0.22768 -0.714215 0.66186
-12.8667 -3.4752 82.0634 0.249462 -0.742269 0.621937
-13.1653 -3.10374 82.6515 0.32374 -0.741719 0.585942
-13.3732 -2.59764 83.3568 0.341966 -0.717116 0.607289
-13.6529 -2.23857 83.9922 0.380093 -0.740008 0.554903
-13.8789 -1.85891 84.6977 0.432432 -0.736964 0.519506
-14.0189 -1.35669 85.5667 0.486189 -0.724439 0.48868
-14.131 -0.904119 86.3794 0.561328 -0.693487 0.45165
-14.2215 -0.535546 87.0635 0.590706 -0.687838 0.421837
-14.2694 -0.0450399 87.9062 0.600992 -0.681854 0.416492
-14.2787 0.35916 88.6088 0.623305 -0.67224 0.3991
-14.319 0.73529 89.3679 0.67714 -0.653824 0.337632
-14.3471 1.16049 90.2934 0.694784 -0.652193 0.302442
-14.2374 1.65601 91.0704 0.733235 -0.616696 0.286448
-14.1867 2.08725 91.8522 0.752214 -0.594389 0.284389
-14.223 2.37763 92.5442 0.76356 -0.582394 0.278913
-14.1489 2.81204 93.243 0.765134 -0.578806 0.282052
-14.0432 3.28623 93.944 0.78635 -0.559867 0.261156
-13.8903 3.85643 94.7526 0.79265 -0.568121 0.219084
-13.6963 4.44608 95.5631 0.825542 -0.528419 0.198119
-13.6185 4.81909 96.2325 0.831889 -0.525854 0.176443
-13.415 5.49041 97.1738 0.849735 -0.499722 0.167737
-13.2373 6.0094 97.7411 0.864866 -0.470416 0.175011
-13.1343 6.4437 98.3605 0.872532 -0.457314 0.171895
-12.9507 7.01157 98.9126 0.874737 -0.451833 0.175164
-12.814 7.51338 99.5376 0.879636 -0.443161 0.172477
-12.7205 7.94382 100.202 0.891019 -0.430044 0.145419
-12.5366 8.50594 100.726 0.8951 -0.420342 0.148667
-12.3016 9.18157 101.214 0.896447 -0.415621 0.153758
-12.114 9.93418 102.185 0.910134 -0.394084 0.127886
-11.8569 10.7696 102.921 0.913884 -0.384685 0.129446
-11.5803 11.6412 103.499 0.916308 -0.381142 0.122674
-11.4521 12.1764 104.093 0.920581 -0.367189 0.133054
-11.3117 12.7169 104.615 0.921207 -0.367014 0.129006
-11.1282 13.3382 105.055 0.923501 -0.36216 0.126439
-10.8922 14.072 105.417 0.927122 -0.353711 0.123824
-10.7417 14.6453 105.92 0.928062 -0.350728 0.125264
-10.5836 15.2213 106.376 0.930324 -0.347626 0.116714
-10.3694 15.9527 106.807 0.931192 -0.344172 0.120081
-10.1708 16.6224 107.159 0.933384 -0.338218 0.119974
-10.0022 17.2385 107.563 0.934865 -0.332871 0.123382
-9.77555 18.0371 107.988 0.935385 -0.331273 0.123747
-9.56298 18.799 108.414 0.935929 -0.329754 0.123688
-9.37416 19.4889 108.816 0.938179 -0.325005 0.11913
-9.12633 20.314 109.101 0.939235 -0.321393 0.1206
-8.89291 21.0982 109.358 0.94005 -0.317908 0.123448
-8.73541 21.7458 109.819 0.942055 -0.313824 0.118521
-8.52215 22.4546 109.979 0.944359 -0.305535 0.121796
-8.2153 23.065 109.178 0.943027 -0.307463 0.127137
-8.00436 23.2762 108.143 0.941903 -0.310074 0.129124
-7.84888 23.4368 107.415 0.941195 -0.309833 0.134727
-7.62249 23.7889 106.678 0.938626 -0.314334 0.142038
-7.42279 24.0128 105.857 0.937961 -0.315784 0.143204
-7.25467 24.1884 105.142 0.938746 -0.312501 0.145221
-7.00839 24.4452 104.122 0.937398 -0.314144 0.150286
-6.74545 24.7426 103.106 0.937542 -0.314816 0.14798
-6.47584 25.0366 102.063 0.936047 -0.314825 0.157109
-6.22851 25.2992 101.121 0.934957 -0.317072 0.15911
-6.00668 25.5438 100.314 0.935492 -0.312734 0.164424
-5.81085 25.7347 99.5686 0.934122 -0.317031 0.164035
-5.57649 25.9737 98.6995 0.934027 -0.315091 0.16826
-5.3213 26.2328 97.7651 0.934124 -0.315497 0.166954
-5.14192 26.3714 97.0103 0.936688 -0.308737 0.165217
-4.96929 26.4984 96.2512 0.939294 -0.304451 0.158228
-5.05454 25.9966 95.8153 0.940568 -0.297782 0.163251
-5.17866 25.3323 95.3693 0.943143 -0.284556 0.17178
-5.31466 24.664 95.0379 0.942519 -0.276163 0.187239
-5.51556 23.8779 94.8298 0.93625 -0.293662 0.192835
-5.64418 23.047 94.2713 0.938994 -0.273991 0.207891
-5.71919 22.4293 93.8107 0.940964 -0.266808 0.208327
-5.82099 21.7521 93.4552 0.933916 -0.266067 0.238767
-5.945 20.9999 93.1246 0.935423 -0.255904 0.24392
-5.99731 20.1965 92.5076 0.930074 -0.255736 0.263746
-6.06648 19.35 91.961 0.914566 -0.269491 0.301569
-6.13759 18.6226 91.5272 0.91056 -0.274793 0.308812
-6.10658 18.0821 90.9795 0.909102 -0.264335 0.321906
-6.04631 17.4254 90.2981 0.905783 -0.247824 0.343267
-6.05839 16.7715 89.8946 0.89688 -0.250984 0.363755
-6.05169 16.069 89.4006 0.881755 -0.259342 0.394018
-5.89855 15.6291 88.7971 0.88015 -0.244157 0.407063
-5.79056 15.033 88.2238 0.872234 -0.199079 0.446739
-5.68008 14.2584 87.6628 0.865029 -0.199981 0.459899
-5.36649 13.4896 86.8597 0.837235 -0.1547 0.522897
-5.15578 12.7463 86.3027 0.792026 -0.176854 0.583371
-4.81762 12.3194 85.7574 0.79109 -0.146148 0.593719
-4.48059 11.8474 85.2438 0.772008 -0.117542 0.62465
-4.1016 11.272 84.7377 0.714868 -0.08277 0.694343
-3.51686 10.5962 84.125 0.639003 -0.083179 0.764694
-2.92151 9.98976 83.5991 0.599976 -0.0478879 0.798584
-2.28628 9.37736 83.1303 0.514642 -0.0432548 0.854779
-1.78093 8.90483 82.7949 0.49327 -0.0910572 0.865091
-0.960985 8.21393 82.3355 0.429925 -0.0754471 0.899706
-0.231274 7.72867 82.0072 0.38741 -0.0285049 0.920885
0.521604 7.35999 81.7195 0.341277 -0.00462175 0.939951
1.15979 6.85263 81.5111 0.282033 -0.00892718 0.959363
1.90182 6.36796 81.3027 0.246129 -0.0148421 0.969124
2.55229 5.72645 81.1326 0.209851 -0.0364607 0.977053
3.0516 5.1124 81.0129 0.19589 -0.0164728 0.980487
3.70103 4.43622 80.8868 0.167504 -0.00944764 0.985826
3.95565 3.69921 80.8381 0.112148 -0.0376848 0.99296
4.16532 2.85954 80.7773 0.120762 -0.0665421 0.990449
4.32125 2.12209 80.7041 0.117978 -0.0780169 0.989946
4.28026 1.21163 80.6418 0.113252 -0.0533776 0.992074
3.94042 0.349368 80.6199 0.0702108 -0.0662755 0.995328
3.70412 -0.506657 80.567 0.0639408 -0.0889857 0.993978
