-4.57706 0.359964 83.5732 0.348951 -0.345508 0.870859
-5.19736 0.908394 84.0613 0.385124 -0.375899 0.842065
-5.19736 0.908394 84.0613 0.385124 -0.375899 0.842065
-5.76907 1.52066 84.6394 0.432482 -0.401847 0.806406
-6.16181 2.12156 85.1769 0.48297 -0.383432 0.786706
-6.52932 2.79218 85.77 0.558241 -0.390539 0.732015
-6.82619 3.44235 86.3457 0.590697 -0.399207 0.699854
-6.62389 3.99133 86.4881 0.590699 -0.399199 0.699855
-6.10369 3.44133 85.7918 0.558412 -0.392786 0.730676
-5.57075 2.96167 85.1949 0.529368 -0.360448 0.767291
-5.09065 2.54919 84.7229 0.48223 -0.318916 0.815933
-4.44177 2.00109 84.1645 0.421168 -0.304063 0.854496
-3.93775 1.14679 83.6319 0.370348 -0.305752 0.877131
-4.34785 0.428631 83.5137 0.330346 -0.340351 0.88036
-3.1537 -0.0573858 82.9347 0.270957 -0.311835 0.910507
-3.60856 -0.997699 82.7234 0.230072 -0.357274 0.90522
-4.23513 -1.4577 82.7096 0.22075 -0.411469 0.884286
-5.03577 -0.973736 83.1706 0.271587 -0.435055 0.858468
-5.64252 -0.449121 83.6417 0.328892 -0.428292 0.841321
-6.13205 0.0162843 84.0646 0.343936 -0.445896 0.825417
-6.55452 0.442277 84.5198 0.395191 -0.463248 0.793237
-6.94457 0.942231 85.0061 0.431265 -0.467058 0.770743
-7.19166 1.46098 85.4913 0.490813 -0.449925 0.746103
-7.44043 2.01538 85.9962 0.551581 -0.466966 0.691151
-7.76524 2.80317 86.7797 0.594019 -0.431108 0.679171
-7.93773 3.53345 87.4504 0.644251 -0.439118 0.626192
-8.10703 4.1966 88.0875 0.665874 -0.443961 0.598489
-8.29873 4.81893 88.786 0.692047 -0.425139 0.583377
-8.46237 5.33061 89.3982 0.73186 -0.421725 0.535284
-8.5955 5.85659 90.022 0.754664 -0.421753 0.502298
-8.71632 6.395 90.6659 0.768253 -0.428319 0.475736
-8.72695 7.11211 91.4034 0.786593 -0.431174 0.441997
-8.75489 7.6797 92.0629 0.832904 -0.406256 0.375038
-8.77572 8.22848 92.6731 0.843462 -0.384763 0.374871
-8.743 8.91628 93.3567 0.849595 -0.387307 0.357829
-8.73483 9.60544 94.1414 0.869351 -0.373744 0.323301
-8.72253 10.2279 94.881 0.879858 -0.376833 0.289564
-8.70113 10.8026 95.5807 0.883385 -0.371813 0.285117
-8.61211 11.479 96.2331 0.895323 -0.370874 0.246418
-8.51061 12.1758 96.9003 0.903206 -0.353115 0.243984
-8.39308 12.8381 97.4657 0.910722 -0.348117 0.222262
-8.26818 13.4994 98.0111 0.914672 -0.348448 0.204683
-8.16732 14.1361 98.6149 0.917025 -0.344261 0.201279
-8.03999 14.8205 99.212 0.922283 -0.334052 0.194431
-7.88221 15.5609 99.7732 0.922954 -0.339125 0.182072
-7.68091 16.5146 100.507 0.927653 -0.331576 0.171778
-7.55105 17.1137 100.962 0.928924 -0.332168 0.163598
-7.33671 17.8997 101.31 0.931386 -0.326663 0.160531
-7.04195 18.5286 100.885 0.931805 -0.321998 0.167503
-6.83124 18.7416 100.114 0.933094 -0.317103 0.169533
-6.76008 18.5355 99.3857 0.931008 -0.316777 0.181276
-6.8977 17.9019 98.9816 0.927982 -0.320844 0.189463
-7.09744 17.0392 98.503 0.927804 -0.31697 0.196748
-7.23855 16.3829 98.0988 0.923461 -0.328222 0.198697
-7.35035 15.7565 97.6104 0.920416 -0.325935 0.215871
-7.53171 14.8454 97.0065 0.916159 -0.326158 0.232939
-7.62978 14.1257 96.3682 0.91047 -0.339257 0.236534
-7.69358 13.5562 95.8437 0.905574 -0.339097 0.2548
-7.77062 12.8814 95.2498 0.9059 -0.330594 0.264673
-7.83671 12.0964 94.523 0.889792 -0.344905 0.29885
-7.86886 11.3513 93.7767 0.875475 -0.354801 0.328117
-7.87315 10.7578 93.1592 0.86782 -0.354278 0.34839
-7.84734 10.2305 92.5757 0.857847 -0.365732 0.361025
-7.82235 9.6252 91.9408 0.849343 -0.353603 0.391629
-7.75781 9.0946 91.3466 0.826838 -0.376268 0.418046
-7.61692 8.35137 90.4887 0.808933 -0.356776 0.467268
-7.46075 7.85916 89.8422 0.79249 -0.352745 0.496376
-7.17864 7.19866 88.9782 0.75953 -0.348039 0.548631
-6.87733 6.61119 88.2457 0.730957 -0.332878 0.595301
-6.52777 6.00757 87.5026 0.700096 -0.327814 0.63361
-6.0863 5.39176 86.7314 0.657712 -0.322781 0.679602
-5.70147 4.95227 86.1909 0.633599 -0.314257 0.706962
-5.31725 4.5268 85.6949 0.591523 -0.306013 0.74596
-4.83574 4.02989 85.142 0.525809 -0.292066 0.798853
-4.17638 3.41356 84.5195 0.470503 -0.273487 0.838911
-3.44696 2.74062 83.9423 0.402798 -0.262497 0.876834
-2.76534 1.98261 83.4403 0.340864 -0.250791 0.906044
-2.67027 0.989944 83.1194 0.295864 -0.264604 0.917651
-2.97344 0.290534 83.004 0.295734 -0.301313 0.906057
-1.85935 -0.119172 82.5737 0.220835 -0.251328 0.942177
-2.20634 -0.910738 82.4212 0.206774 -0.273373 0.939421
-2.58184 -1.76386 82.2029 0.193897 -0.326319 0.92512
-2.88588 -2.50584 81.9713 0.13375 -0.349503 0.927339
-3.31689 -3.26625 81.7279 0.105749 -0.405569 0.907686
-4.08124 -3.04677 81.9393 0.156606 -0.442281 0.883098
-4.89943 -2.60101 82.3206 0.195121 -0.442264 0.875403
-5.53377 -2.17669 82.7016 0.228033 -0.466091 0.854683
-6.27509 -1.60925 83.2501 0.261366 -0.489748 0.831766
-6.75448 -1.16244 83.6885 0.337208 -0.498324 0.798396
-7.29198 -0.674764 84.2039 0.372065 -0.496122 0.783284
-7.76189 -0.141865 84.7995 0.43233 -0.480612 0.762502
-8.04963 0.329712 85.309 0.487726 -0.49758 0.717313
-8.27527 0.899495 85.887 0.516864 -0.503694 0.6921
-8.52893 1.48752 86.4905 0.548469 -0.504291 0.665355
-8.76417 2.05518 87.1526 0.584919 -0.494827 0.642664
-8.92755 2.63848 87.7911 0.645911 -0.474911 0.597712
-9.07159 3.24764 88.4577 0.654958 -0.497579 0.568723
-9.20704 3.78344 89.074 0.687305 -0.470207 0.55364
-9.34405 4.41371 89.8368 0.732535 -0.458692 0.501788
-9.45398 5.04168 90.6349 0.754964 -0.447864 0.478427
-9.496 5.76677 91.4529 0.793743 -0.44412 0.415606
-9.52509 6.347 92.1971 0.802823 -0.455472 0.384735
-9.51738 6.85488 92.8175 0.826843 -0.441128 0.348148
-9.50869 7.41371 93.4736 0.837222 -0.431541 0.335905
-9.45883 8.13767 94.2794 0.846187 -0.426233 0.319227
-9.36399 8.97393 95.1514 0.872406 -0.39367 0.289678
-9.33056 9.51485 95.8243 0.881285 -0.387602 0.270374
-9.2837 10.0107 96.4203 0.890059 -0.383209 0.246871
-9.19666 10.6271 97.0918 0.891487 -0.389002 0.232224
-9.08095 11.2606 97.6903 0.898187 -0.383408 0.215075
-8.96301 11.8387 98.1822 0.903299 -0.367117 0.221981
-8.81168 12.5284 98.7492 0.911831 -0.356482 0.203677
-8.6781 13.2375 99.4232 0.916003 -0.356813 0.183184
-8.55088 13.9169 100.064 0.919911 -0.348199 0.180242
-8.33409 14.8281 100.72 0.924611 -0.339342 0.17292
-8.18657 15.4636 101.205 0.926125 -0.337667 0.168073
-7.99726 16.2808 101.817 0.928693 -0.33434 0.160425
-7.8061 17.0647 102.361 0.930534 -0.331954 0.15461
-7.60614 17.803 102.749 0.932161 -0.33143 0.145703
-7.3906 18.614 103.178 0.933846 -0.325522 0.148215
-7.15361 19.1535 102.867 0.934114 -0.324804 0.148097
-6.90974 19.4697 102.02 0.934193 -0.321979 0.153637
-6.66554 19.7566 101.14 0.935274 -0.318679 0.153968
-6.44599 19.9944 100.333 0.934667 -0.314929 0.164877
-6.24432 20.1833 99.5826 0.933895 -0.312149 0.174362
-6.17214 19.9585 98.7953 0.934137 -0.309108 0.178375
-6.2909 19.3409 98.3668 0.933796 -0.306657 0.184336
-6.44782 18.6559 98.0232 0.92951 -0.312162 0.196383
-6.65244 17.6866 97.4764 0.928038 -0.311933 0.203457
-6.7818 16.9408 96.919 0.926774 -0.309414 0.212964
-6.91238 16.1105 96.3089 0.919036 -0.315284 0.236576
-7.00223 15.4742 95.8314 0.919366 -0.305959 0.247295
-7.10483 14.7091 95.2403 0.912281 -0.317309 0.258956
-7.17154 14.0726 94.7225 0.906437 -0.32038 0.275187
-7.21709 13.2814 93.9926 0.894848 -0.325207 0.305758
-7.21326 12.6198 93.3088 0.893767 -0.310664 0.323524
-7.25195 12.0105 92.8275 0.880412 -0.339741 0.33056
-7.21603 11.3328 92.1375 0.861306 -0.337324 0.379954
-7.16271 10.6802 91.4531 0.850803 -0.330909 0.408167
-7.05668 10.0545 90.7581 0.846137 -0.314083 0.430586
-6.91758 9.49699 90.106 0.811662 -0.329928 0.48203
-6.72641 8.94811 89.4561 0.792369 -0.31773 0.520593
-6.50735 8.42604 88.8064 0.764166 -0.307415 0.567051
-6.26423 7.92447 88.2071 0.73695 -0.308788 0.601294
-5.98152 7.34762 87.568 0.736866 -0.304393 0.603633
-5.5692 6.67 86.8137 0.697243 -0.303599 0.649369
-5.13436 6.18366 86.2026 0.63742 -0.286915 0.714637
-4.65622 5.66157 85.6004 0.59056 -0.271238 0.759236
-4.11843 5.09281 85.0208 0.531013 -0.256212 0.806863
-3.65023 4.63993 84.5987 0.500086 -0.25155 0.828632
-3.16167 4.18779 84.2089 0.435759 -0.243292 0.866558
-2.56352 3.65346 83.7918 0.371724 -0.223652 0.901
-1.89345 3.00208 83.3527 0.336614 -0.214186 0.916053
-1.27133 2.19202 82.9757 0.302712 -0.213946 0.928682
-1.25419 1.44747 82.8041 0.263925 -0.206621 0.942152
-1.53454 0.621171 82.6838 0.256143 -0.242603 0.935575
-1.70458 0.239116 82.625 0.225745 -0.233153 0.945875
-0.623915 -0.296373 82.2528 0.191498 -0.207706 0.959264
-0.92074 -1.07245 82.1165 0.16512 -0.246463 0.954982
-1.2969 -1.99423 81.9129 0.139174 -0.291998 0.946239
-1.5757 -2.70011 81.723 0.115083 -0.343668 0.93196
-1.85423 -3.40174 81.5047 0.111164 -0.335298 0.935531
-2.15238 -4.05908 81.2696 0.0700608 -0.398379 0.914541
-2.61681 -4.67368 81.0293 0.0432815 -0.413507 0.90947
-3.29839 -4.8498 80.9812 0.04806 -0.459351 0.886896
-4.20315 -4.42256 81.261 0.0664341 -0.467823 0.881205
-4.85559 -4.05643 81.5487 0.115482 -0.502993 0.856541
-5.53749 -3.64394 81.8786 0.177765 -0.489956 0.853309
-6.21385 -3.2199 82.2746 0.200631 -0.501222 0.841545
-6.95511 -2.72574 82.7855 0.242243 -0.510412 0.825105
-7.43769 -2.32449 83.2097 0.274788 -0.535085 0.798768
-7.99077 -1.79093 83.7896 0.320958 -0.522847 0.789694
-8.58227 -1.17898 84.5237 0.379466 -0.540979 0.750253
-9.06384 -0.435939 85.4145 0.453286 -0.539997 0.70881
-9.33279 0.193974 86.1228 0.505856 -0.545669 0.668098
-9.53934 0.702424 86.7527 0.543501 -0.557239 0.626946
-9.74416 1.16153 87.3202 0.597549 -0.559546 0.574321
-9.9683 1.85986 88.2064 0.632747 -0.53687 0.556325
-10.03 2.34248 88.7914 0.658956 -0.531899 0.531502
-10.1541 3.09607 89.7114 0.706348 -0.525812 0.473891
-10.2627 3.80257 90.6685 0.72184 -0.527181 0.447463
-10.3275 4.45063 91.5442 0.770923 -0.497262 0.397319
-10.3101 4.9792 92.1667 0.796089 -0.469245 0.382167
-10.3046 5.53381 92.9053 0.817711 -0.473398 0.327324
-10.3109 5.96942 93.5299 0.825085 -0.470193 0.312558
-10.2466 6.46871 94.123 0.839305 -0.456854 0.294705
-10.1967 7.00416 94.7694 0.848313 -0.447297 0.282307
-10.1169 7.51726 95.3408 0.863836 -0.425287 0.270033
-9.9917 8.24002 96.0929 0.880603 -0.404288 0.247162
-9.92828 8.82083 96.8344 0.880179 -0.410607 0.238092
-9.85848 9.32146 97.4382 0.889036 -0.399106 0.224344
-9.7404 9.94408 98.0817 0.895699 -0.392345 0.209258
-9.59964 10.6039 98.716 0.902113 -0.386515 0.191827
-9.41655 11.3619 99.3492 0.9047 -0.377386 0.197732
-9.23782 12.145 100.066 0.915885 -0.36096 0.175678
-9.09493 12.8241 100.733 0.91809 -0.358692 0.168522
-8.91798 13.5797 101.365 0.921371 -0.354351 0.159674
-8.73968 14.2765 101.859 0.923388 -0.3484 0.16116
-8.57894 14.9192 102.339 0.927643 -0.341378 0.151459
-8.37025 15.7632 102.971 0.930633 -0.336974 0.142729
-8.2069 16.4129 103.43 0.931563 -0.333689 0.144368
-7.96131 17.3156 103.943 0.933322 -0.3312 0.138624
-7.70605 18.2562 104.449 0.935487 -0.327187 0.133441
-7.44978 19.2094 104.969 0.936297 -0.325271 0.132454
-7.13939 19.9449 104.579 0.93661 -0.322008 0.138106
-6.88381 20.2771 103.633 0.936199 -0.321685 0.141597
-6.68682 20.4914 102.831 0.935696 -0.320772 0.146892
-6.44895 20.7916 101.966 0.93562 -0.319466 0.150137
-6.17816 21.1054 100.968 0.935287 -0.317756 0.155769
-5.9496 21.3492 100.117 0.935588 -0.31451 0.160494
-5.73457 21.5753 99.3272 0.935853 -0.310123 0.167341
-5.59261 21.4582 98.349 0.935049 -0.307897 0.175736
-5.74052 20.5992 97.6703 0.933198 -0.303684 0.192141
-5.87888 19.9108 97.2671 0.93232 -0.300908 0.200563
-6.06338 19.0542 96.8276 0.931415 -0.30105 0.204481
-6.22945 18.1356 96.2654 0.925423 -0.3078 0.221025
-6.33828 17.3366 95.6471 0.923022 -0.309309 0.228605
-6.43335 16.6262 95.145 0.919719 -0.2986 0.254851
-6.51255 15.8595 94.5344 0.915818 -0.30197 0.264628
-6.61162 14.9846 93.9253 0.910268 -0.292286 0.293033
-6.6247 14.2482 93.2384 0.905658 -0.300228 0.29941
-6.61845 13.5709 92.6049 0.896929 -0.295936 0.328542
-6.57894 12.8961 91.9527 0.883418 -0.290841 0.367401
-6.57665 12.2663 91.449 0.857833 -0.306664 0.412407
-6.50075 11.7092 90.8769 0.857848 -0.306654 0.412384
-6.41066 11.1274 90.2878 0.839004 -0.299238 0.454454
-6.22449 10.4938 89.5743 0.819923 -0.282349 0.497657
-6.01678 9.95906 88.929 0.801655 -0.280361 0.52769
-5.76609 9.4117 88.3006 0.782984 -0.243456 0.572421
-5.51205 8.92087 87.7472 0.73391 -0.266085 0.62462
-5.15204 8.2596 87.0406 0.720877 -0.271485 0.637568
-4.79216 7.67076 86.4434 0.683722 -0.266402 0.679378
-4.41601 7.22548 85.9408 0.63904 -0.236916 0.730816
-3.97831 6.75066 85.4417 0.607003 -0.231325 0.760287
-3.53213 6.28767 84.9914 0.553231 -0.206282 0.807083
-2.91873 5.68212 84.4497 0.508312 -0.169542 0.844319
-2.2426 5.05185 83.9505 0.448881 -0.166719 0.877901
-1.69661 4.60704 83.611 0.392246 -0.160901 0.905521
-1.06686 4.07244 83.2561 0.350151 -0.162963 0.922408
-0.555157 3.57858 82.994 0.335386 -0.133524 0.93257
-0.101024 2.92384 82.7573 0.284811 -0.142213 0.947676
0.12108 2.01891 82.5449 0.249569 -0.157722 0.955227
0.0210884 1.22192 82.4228 0.240504 -0.189969 0.951795
-0.291048 0.459647 82.347 0.206611 -0.190041 0.959719
-0.469314 0.0635233 82.2999 0.191505 -0.207711 0.959261
0.656294 -0.389305 81.9973 0.168643 -0.17494 0.970028
0.363383 -1.15796 81.8879 0.146231 -0.195321 0.969539
0.0946678 -1.86537 81.7637 0.13319 -0.231032 0.963787
-0.27355 -2.91203 81.5325 0.0975928 -0.276782 0.955964
-0.625869 -3.92691 81.2435 0.045898 -0.313835 0.948367
-1.03685 -4.73895 80.9613 0.00791244 -0.37009 0.928962
-1.56538 -5.53146 80.6347 -0.0179447 -0.393188 0.919068
-2.1061 -6.08979 80.3817 -0.0383942 -0.431868 0.901119
-3.06548 -6.24707 80.2751 -0.0174988 -0.4682 0.883449
-3.85145 -5.99326 80.4063 0.00758461 -0.468832 0.883255
-4.68682 -5.54807 80.6808 0.0413748 -0.485112 0.873472
-5.64729 -4.99753 81.083 0.0871448 -0.512848 0.854043
-6.33203 -4.59246 81.4331 0.153108 -0.539047 0.828243
-7.00925 -4.18427 81.8412 0.175973 -0.556383 0.811653
-7.83493 -3.6734 82.4071 0.251164 -0.557895 0.790993
-8.34183 -3.25881 82.8648 0.277564 -0.572413 0.77127
-8.81548 -2.76862 83.4169 0.29716 -0.566979 0.768228
-9.26078 -2.34596 83.9495 0.357091 -0.593478 0.721297
-9.65964 -1.9502 84.4946 0.397091 -0.613571 0.681952
-10.1072 -1.3184 85.3358 0.434537 -0.622132 0.651252
-10.3619 -0.738895 86.0646 0.498727 -0.603628 0.622017
-10.5205 -0.26887 86.6743 0.514435 -0.634714 0.576624
-10.7439 0.299994 87.4682 0.572924 -0.603313 0.554771
-10.9777 0.945541 88.4455 0.631499 -0.588599 0.504738
-11.0276 1.57371 89.243 0.674912 -0.569394 0.469343
-11.0852 2.20002 90.0608 0.699336 -0.553776 0.450172
-11.1303 2.7739 90.8882 0.723011 -0.542671 0.427508
-11.1883 3.35293 91.7937 0.753855 -0.531327 0.386516
-11.1318 3.99392 92.5879 0.783571 -0.514558 0.346777
-11.0663 4.48681 93.2217 0.798883 -0.501712 0.331771
-11.0385 5.00711 94.0128 0.818803 -0.495216 0.289929
-10.9281 5.75929 94.9896 0.839434 -0.482261 0.250493
-10.8344 6.40299 95.8421 0.85852 -0.449952 0.24564
-10.6721 7.08225 96.5191 0.872439 -0.424506 0.242168
-10.547 7.83313 97.4716 0.88254 -0.41918 0.212731
-10.4709 8.31169 98.0587 0.887795 -0.412403 0.203767
-10.3379 8.91178 98.7065 0.896141 -0.398393 0.195483
-10.18 9.57546 99.3603 0.90276 -0.388912 0.183771
-10.0141 10.2199 99.9427 0.906345 -0.386157 0.171527
-9.8647 10.7852 100.426 0.91 -0.383308 0.158023
-9.72252 11.4196 101.095 0.914984 -0.371238 0.158071
-9.54168 12.1829 101.824 0.919201 -0.362518 0.153718
-9.35302 12.9087 102.415 0.922821 -0.355831 0.147534
-9.07977 13.8956 103.082 0.926183 -0.348956 0.142818
-8.88998 14.6223 103.63 0.928564 -0.343476 0.140686
-8.72817 15.2581 104.117 0.930845 -0.338569 0.137476
-8.5768 15.8512 104.57 0.931689 -0.337295 0.134793
-8.32857 16.7162 105.008 0.933029 -0.336192 0.128183
-8.08443 17.6062 105.512 0.935632 -0.328338 0.129561
-7.88827 18.346 105.961 0.936818 -0.324836 0.129822
-7.64374 19.2503 106.46 0.938133 -0.322204 0.126851
-7.45024 19.9223 106.732 0.939207 -0.31904 0.126901
-7.18591 20.6866 106.692 0.939599 -0.318118 0.126308
-6.99818 20.8999 105.865 0.938551 -0.318478 0.13302
-6.80914 21.1339 105.093 0.937942 -0.3179 0.138584
-6.55278 21.4545 104.097 0.937619 -0.318 0.140516
-6.37753 21.653 103.387 0.936827 -0.318676 0.144227
-6.17774 21.8979 102.632 0.936567 -0.31789 0.147604
-5.93394 22.1945 101.722 0.937488 -0.3142 0.149641
-5.74537 22.3966 100.988 0.936883 -0.313013 0.155798
-5.46516 22.7059 99.9285 0.937259 -0.309689 0.16012
-5.25535 22.9382 99.1505 0.937535 -0.308798 0.16022
-5.02184 23.1048 98.1522 0.937499 -0.304728 0.168034
-5.02972 22.7228 97.5305 0.938687 -0.297599 0.174073
-5.19313 21.9048 97.0284 0.938248 -0.290114 0.188454
-5.36072 20.971 96.4197 0.934299 -0.297093 0.197029
-5.5363 20.081 95.945 0.93319 -0.288123 0.214759
-5.68991 19.2824 95.5327 0.927645 -0.2969 0.226458
-5.81317 18.4638 95.0278 0.927799 -0.284106 0.241813
-5.90186 17.7257 94.488 0.925533 -0.287409 0.246548
-5.94655 17.0104 93.8932 0.916751 -0.287215 0.277368
-6.02223 16.283 93.3828 0.913621 -0.2881 0.286872
-6.0649 15.574 92.8554 0.908685 -0.278362 0.311136
-6.05259 15.0048 92.3145 0.900364 -0.2786 0.334203
-6.01213 14.3572 91.7081 0.892531 -0.267034 0.363329
-5.92749 13.4581 90.8632 0.885478 -0.258218 0.386333
-5.85308 12.5888 90.1387 0.852594 -0.269062 0.447984
-5.70089 11.8689 89.4212 0.839233 -0.257721 0.477825
-5.5149 11.3636 88.8654 0.824615 -0.259209 0.502747
-5.15718 10.6374 87.9841 0.79955 -0.230636 0.554419
-4.90428 10.0831 87.4285 0.766887 -0.20334 0.608642
-4.60771 9.46847 86.8626 0.753209 -0.196455 0.627466
-4.14895 8.80615 86.1776 0.707535 -0.21007 0.674733
-3.49689 8.02756 85.3972 0.623911 -0.173097 0.761206
-2.84844 7.35571 84.7604 0.596486 -0.168204 0.784801
-2.17526 6.71754 84.2047 0.499456 -0.156268 0.8507
-1.40226 6.00335 83.6856 0.434089 -0.109642 0.893086
-0.77049 5.49927 83.3513 0.404238 -0.103987 0.908724
-0.186395 5.02773 83.0599 0.359415 -0.102234 0.927561
0.43735 4.48471 82.777 0.313026 -0.103521 0.944086
0.925614 3.8855 82.565 0.279296 -0.0892784 0.956034
1.28709 3.0476 82.3767 0.268606 -0.107779 0.957025
1.44645 1.83035 82.1943 0.216565 -0.109831 0.970071
1.30537 0.907006 82.0904 0.206401 -0.144257 0.967757
0.913297 0.143682 82.0492 0.175679 -0.160915 0.971066
0.769065 -0.150516 82.0209 0.167461 -0.175278 0.970172
1.93362 -0.542355 81.7758 0.128698 -0.135621 0.982366
2.38077 0.185844 81.8071 0.147604 -0.10606 0.983343
2.71769 1.08526 81.8529 0.171655 -0.113963 0.978536
2.74344 2.02674 81.9409 0.188409 -0.0849981 0.978406
2.66194 3.24616 82.0569 0.225481 -0.0647879 0.972091
2.24925 4.23909 82.2237 0.255765 -0.0522544 0.965326
1.85622 4.92804 82.3761 0.286143 -0.0638391 0.955965
1.2862 5.50418 82.5759 0.306509 -0.0599654 0.949639
0.681478 5.97479 82.8113 0.32378 -0.0468122 0.944974
-0.101014 6.58415 83.1587 0.375038 -0.0517347 0.925565
-0.727254 7.115 83.4816 0.434879 -0.0694476 0.897456
-1.27473 7.58321 83.815 0.488092 -0.0969541 0.867149
-1.90414 8.15349 84.2543 0.530045 -0.114209 0.839342
-2.40922 8.66748 84.6724 0.562416 -0.113103 0.819082
-2.88017 9.14687 85.1152 0.626868 -0.133205 0.767654
-3.51362 9.90769 85.8283 0.683801 -0.164518 0.71088
-3.9047 10.455 86.346 0.759919 -0.147916 0.632595
-4.24543 11.0439 86.8874 0.766595 -0.173814 0.617093
-4.57181 11.7163 87.5232 0.804393 -0.186252 0.562953
-4.84242 12.2135 88.1309 0.823924 -0.202192 0.529404
-5.07306 12.8466 88.7944 0.849725 -0.222756 0.477857
-5.21067 13.4595 89.3455 0.871367 -0.238879 0.42855
-5.32987 14.2617 90.0332 0.878206 -0.24837 0.408025
-5.39628 14.9139 90.5983 0.89015 -0.252081 0.379355
-5.46175 15.4878 91.1546 0.9008 -0.24161 0.360804
-5.52306 16.0578 91.7575 0.9116 -0.254284 0.322995
-5.51616 16.656 92.2079 0.915334 -0.2576 0.309113
-5.45659 17.3046 92.6013 0.918581 -0.265844 0.292444
-5.41974 18.0387 93.1525 0.926748 -0.252846 0.277452
-5.39268 18.7363 93.7534 0.929309 -0.263665 0.258562
-5.31274 19.44 94.2193 0.93233 -0.27541 0.234307
-5.20107 20.107 94.5493 0.933024 -0.278593 0.22751
-5.02305 21.0405 94.9782 0.938397 -0.274129 0.21035
-4.9341 21.6728 95.4226 0.937809 -0.282488 0.201658
-4.81586 22.3226 95.7944 0.940306 -0.279484 0.194202
-4.68013 23.0165 96.1828 0.93957 -0.289906 0.182107
-4.4803 24.0058 96.7518 0.939941 -0.296431 0.169234
-4.43583 24.5808 97.5317 0.939407 -0.301586 0.162972
-4.61896 24.4352 98.3107 0.937696 -0.306212 0.164147
-4.83487 24.2183 99.1547 0.937816 -0.308445 0.159258
-5.06986 23.97 100.06 0.937731 -0.309943 0.156831
-5.26176 23.7626 100.804 0.938165 -0.310502 0.153073
-5.45117 23.5384 101.518 0.938575 -0.311065 0.149386
-5.63618 23.336 102.252 0.937859 -0.313735 0.148271
-5.87708 23.0534 103.195 0.938017 -0.314392 0.145883
-6.09177 22.7958 104.039 0.938209 -0.31563 0.141922
-6.28021 22.5709 104.792 0.938996 -0.314398 0.139425
-6.49243 22.2915 105.6 0.940049 -0.313103 0.135179
-6.68127 22.0752 106.41 0.939951 -0.313954 0.133875
-6.84163 21.8933 107.125 0.941547 -0.310662 0.130301
-7.04503 21.6397 108.004 0.941874 -0.311712 0.125317
-7.31095 21.0706 108.602 0.94154 -0.313486 0.123373
-7.57831 20.1305 108.23 0.941302 -0.315094 0.121078
-7.77617 19.4297 107.92 0.939102 -0.320608 0.123689
-7.97119 18.7533 107.64 0.937963 -0.324136 0.123135
-8.18311 18.0003 107.262 0.937463 -0.325488 0.123362
-8.35978 17.3048 106.759 0.936189 -0.328881 0.124044
-8.58743 16.4897 106.31 0.933701 -0.335061 0.126242
-8.89142 15.4617 105.815 0.932006 -0.339722 0.126306
-9.08541 14.7242 105.254 0.930267 -0.343735 0.128258
-9.29508 13.9408 104.671 0.927014 -0.351423 0.130947
-9.4848 13.2183 104.092 0.925445 -0.353977 0.134969
-9.71714 12.4449 103.617 0.923618 -0.357778 0.137498
-9.90628 11.7734 103.116 0.92147 -0.363988 0.13566
-10.0488 11.2227 102.603 0.918594 -0.367838 0.1445
-10.2051 10.632 102.058 0.914127 -0.378879 0.14429
-10.381 9.96834 101.418 0.912061 -0.381066 0.151203
-10.5871 9.1968 100.651 0.904272 -0.395273 0.161308
-10.769 8.52839 99.995 0.898087 -0.405528 0.170071
-10.9193 7.96122 99.4209 0.890831 -0.420099 0.173024
-11.0811 7.31307 98.7085 0.881675 -0.434134 0.184868
-11.2255 6.58872 97.7601 0.871664 -0.44533 0.204059
-11.3926 5.93351 96.9902 0.866252 -0.455951 0.204245
-11.5545 5.31571 96.2967 0.843893 -0.485101 0.229178
-11.6811 4.79444 95.6194 0.837826 -0.502609 0.213147
-11.7883 4.30872 94.97 0.819065 -0.521289 0.239564
-11.8178 3.86382 94.1705 0.802861 -0.526349 0.279676
-11.88 3.44979 93.5391 0.792884 -0.531728 0.296601
-12.0179 2.91431 92.9635 0.771745 -0.556285 0.307816
-12.0732 2.48595 92.3395 0.757518 -0.561804 0.332315
-12.0461 2.08547 91.6425 0.721735 -0.590847 0.360552
-12.0502 1.60714 90.8776 0.721805 -0.58643 0.367556
-12.0346 1.11327 90.1293 0.683873 -0.601763 0.412552
-12.0353 0.453379 89.1896 0.613856 -0.640961 0.460814
-11.971 -0.0274642 88.4549 0.61047 -0.629982 0.48005
-11.7942 -0.448873 87.7016 0.5626 -0.638342 0.525359
-11.6221 -0.976039 86.8975 0.518971 -0.658434 0.5451
-11.4823 -1.3995 86.283 0.497448 -0.632384 0.593831
-11.2878 -1.86523 85.596 0.478417 -0.652354 0.58759
-10.9884 -2.39528 84.827 0.391384 -0.654706 0.645766
-10.6577 -2.80363 84.2344 0.345572 -0.659796 0.666938
-10.0951 -3.36157 83.4357 0.306207 -0.631524 0.711599
-9.5311 -3.91751 82.7291 0.246478 -0.650974 0.717515
-9.03172 -4.38663 82.1771 0.208862 -0.639278 0.740067
-8.45934 -4.74594 81.7428 0.168847 -0.618767 0.767215
-7.77948 -5.11294 81.3127 0.147002 -0.607065 0.780937
-7.05962 -5.53161 80.8868 0.095341 -0.583422 0.806516
-6.48156 -5.89607 80.5751 0.0507346 -0.549293 0.834088
-5.86292 -6.24143 80.3104 0.0370135 -0.536993 0.842541
-5.20981 -6.63157 80.0517 0.0166543 -0.542416 0.839679
-4.32744 -7.08359 79.7783 -0.0284496 -0.524837 0.850569
-3.60161 -7.34173 79.6595 -0.034844 -0.502874 0.863496
-2.63998 -7.54694 79.601 -0.0867307 -0.489143 0.867178
-1.87728 -7.49769 79.7208 -0.0998815 -0.45247 0.886169
-1.21543 -7.18243 79.9436 -0.09219 -0.410687 0.907073
-0.669901 -6.55873 80.2751 -0.0755601 -0.381775 0.920646
-0.098363 -5.74672 80.6256 -0.0577551 -0.333378 0.940671
0.325954 -4.96034 80.9092 -0.0157734 -0.317263 0.947778
0.664921 -4.21543 81.1369 -0.00650272 -0.251329 0.967867
0.901966 -3.41574 81.3424 0.0157134 -0.257391 0.965825
1.29634 -2.34729 81.5568 0.0485351 -0.184876 0.981139
1.56135 -1.61897 81.6569 0.067375 -0.159215 0.984942
1.73636 -0.961426 81.7438 0.120914 -0.120594 0.985161
2.95696 -1.48203 81.5488 0.103198 -0.104193 0.989184
3.2891 -0.735062 81.5918 0.119625 -0.0904111 0.988694
3.73319 -0.0424087 81.5968 0.117169 -0.0697253 0.990315
4.00346 0.719343 81.6157 0.143553 -0.0393413 0.988598
4.02641 1.64918 81.6729 0.16743 -0.0735768 0.983135
4.13123 2.82642 81.7383 0.152737 -0.0630979 0.986251
3.89689 3.76751 81.8188 0.194908 -0.0144246 0.980302
3.45997 4.67929 81.9457 0.229591 -0.0442725 0.972122
3.06146 5.63212 82.0633 0.256324 -0.0105009 0.966513
2.46431 6.13967 82.2321 0.277235 -0.0259529 0.960137
1.89988 6.80528 82.4112 0.318165 -0.000841093 0.947944
1.04582 7.27226 82.712 0.359007 -0.02215 0.932467
0.49548 7.75993 82.965 0.406045 0.00512523 0.91251
-0.363145 8.4505 83.3838 0.500612 0.0212339 0.865411
-1.08858 9.05647 83.8163 0.551105 -0.0209457 0.833037
-1.64739 9.57665 84.1932 0.576887 0.00499393 0.816678
-2.26687 10.1975 84.7076 0.640253 -0.0220471 0.767781
-2.83835 10.8537 85.2792 0.683827 -0.0242332 0.728987
-3.33538 11.539 85.8769 0.755492 -0.0457097 0.653562
-3.78931 12.2879 86.5693 0.805735 -0.0668752 0.588448
-4.16651 13.0377 87.2966 0.823653 -0.126326 0.552308
-4.40279 13.5797 87.8776 0.86392 -0.140217 0.4818
-4.55574 14.2457 88.4152 0.889966 -0.169386 0.423401
-4.74397 15.0481 89.1937 0.899255 -0.204673 0.385422
-4.83349 15.7362 89.7575 0.910722 -0.186694 0.368401
-4.88334 16.4269 90.3201 0.9153 -0.219488 0.337714
-4.98726 16.9034 90.911 0.906333 -0.247059 0.342163
-4.94221 17.7734 91.4433 0.920782 -0.231874 0.313594
-4.89815 18.7061 92.0431 0.927735 -0.242002 0.284152
-4.92285 19.3645 92.7014 0.933355 -0.243064 0.264136
-4.86791 20.0477 93.1755 0.932676 -0.260424 0.24959
-4.71109 20.8816 93.4723 0.941191 -0.254017 0.222076
-4.60911 21.6592 93.8922 0.94558 -0.253415 0.203371
-4.51235 22.3323 94.3507 0.94279 -0.271074 0.194036
-4.36525 23.1822 94.8249 0.943186 -0.272076 0.190713
-4.23741 23.8731 95.1861 0.943547 -0.276711 0.181864
-4.09933 24.5985 95.6144 0.943645 -0.285228 0.167749
-3.90543 25.3559 95.8391 0.946421 -0.282638 0.156074
-3.79682 26.1542 96.7119 0.941182 -0.300447 0.154615
-4.03507 25.8906 97.6472 0.94028 -0.302904 0.155312
-4.27647 25.628 98.5998 0.936954 -0.312881 0.155636
-4.51178 25.3909 99.5181 0.937013 -0.309339 0.162193
-4.71593 25.1711 100.302 0.940024 -0.305116 0.15251
-4.90734 24.9891 101.118 0.938912 -0.309618 0.150268
-5.09578 24.7584 101.823 0.939782 -0.306926 0.150353
-5.33171 24.4711 102.721 0.938992 -0.311595 0.145613
-5.56981 24.2179 103.718 0.940321 -0.307923 0.144842
-5.82595 23.913 104.747 0.93943 -0.312619 0.140504
-6.04583 23.6525 105.641 0.939918 -0.311689 0.139298
-6.28708 23.3518 106.614 0.941057 -0.309459 0.136551
-6.50206 23.0873 107.512 0.94144 -0.308685 0.135658
-6.69435 22.833 108.304 0.944315 -0.3028 0.12877
-6.89907 22.627 109.342 0.945202 -0.302263 0.123408
-7.09854 22.3541 110.213 0.945751 -0.301818 0.120253
-7.32967 21.6996 110.381 0.945501 -0.30443 0.1155
-7.51666 20.9924 110.027 0.943948 -0.307959 0.118842
-7.77572 20.0814 109.676 0.941603 -0.31742 0.112213
-8.05775 19.0592 109.145 0.940442 -0.319509 0.116111
-8.33574 18.1054 108.747 0.939061 -0.323368 0.116606
-8.55805 17.3431 108.404 0.938297 -0.326269 0.114665
-8.73995 16.615 107.823 0.935876 -0.330949 0.12087
-8.93985 15.9184 107.452 0.935306 -0.333217 0.119029
-9.21196 15.0229 107.07 0.934723 -0.335091 0.118349
-9.42332 14.2116 106.4 0.933138 -0.340259 0.116094
-9.69067 13.2976 105.82 0.929017 -0.351881 0.114266
-9.87576 12.6096 105.221 0.925749 -0.357254 0.123922
-10.0734 11.9386 104.755 0.924948 -0.359455 0.12354
-10.2454 11.3422 104.306 0.924713 -0.359833 0.124199
-10.4549 10.6093 103.668 0.919917 -0.371158 0.126468
-10.6419 9.9634 103.095 0.915294 -0.381761 0.128433
-10.8891 9.12717 102.344 0.908067 -0.395906 0.136647
-11.0738 8.47003 101.644 0.904179 -0.404248 0.138002
-11.2853 7.77358 100.956 0.897916 -0.416777 0.141574
-11.4529 7.1942 100.319 0.883619 -0.43887 0.163104
-11.6274 6.62944 99.7425 0.878179 -0.450223 0.161189
-11.8094 5.93838 98.8958 0.875164 -0.449321 0.179424
-11.9619 5.29228 97.9831 0.875479 -0.453487 0.166993
-12.1889 4.61365 97.2661 0.842516 -0.50208 0.195145
-12.3102 4.16741 96.6296 0.840522 -0.507951 0.188438
-12.5053 3.55017 95.8184 0.828146 -0.52537 0.195346
-12.6037 3.12139 95.0849 0.794227 -0.560569 0.234096
-12.6285 2.77911 94.3797 0.785631 -0.557147 0.268353
-12.8855 2.07621 93.6006 0.755769 -0.591993 0.279924
-12.9368 1.65647 92.8904 0.757162 -0.579161 0.302122
-12.9613 1.24555 92.1536 0.723135 -0.610379 0.323284
-13.0267 0.806405 91.4705 0.723129 -0.610416 0.323229
-13.0339 0.371903 90.6921 0.67306 -0.641362 0.3683
-13.0323 -0.150384 89.8101 0.66279 -0.649276 0.372477
-13.0121 -0.728442 88.803 0.614694 -0.677868 0.403173
-12.9073 -1.11075 88.067 0.555548 -0.682088 0.474315
-12.7726 -1.66869 87.1589 0.516781 -0.696677 0.497184
-12.5904 -2.08746 86.4147 0.499777 -0.689897 0.523703
-12.4645 -2.49183 85.7531 0.415089 -0.726536 0.54737
-12.2395 -2.94379 84.9906 0.375403 -0.719741 0.582239
-11.8465 -3.37165 84.2681 0.334577 -0.712684 0.615671
-11.5082 -3.87661 83.5501 0.309852 -0.698826 0.644528
-10.978 -4.24296 82.9337 0.237619 -0.712907 0.659394
-10.4191 -4.86189 82.1426 0.197824 -0.670082 0.715441
-9.78464 -5.27788 81.6002 0.156021 -0.653188 0.740668
-9.12107 -5.69207 81.1071 0.144546 -0.632278 0.761138
-8.44258 -6.10448 80.6472 0.129239 -0.626556 0.768586
-7.69273 -6.54033 80.1979 0.0768694 -0.614022 0.785537
-6.95758 -7.05331 79.7915 0.0181366 -0.601736 0.798292
-6.04204 -7.5138 79.4454 -0.00289756 -0.593899 0.804534
-5.30255 -7.87003 79.2239 -0.0331689 -0.578949 0.814616
-4.57975 -8.19557 79.0544 -0.0683174 -0.562656 0.823863
-3.47653 -8.5111 78.9571 -0.112073 -0.547365 0.828826
-2.70082 -8.74128 78.9406 -0.137575 -0.524365 0.840306
-1.93908 -8.78082 79.0255 -0.140619 -0.472894 0.869619
-0.999018 -8.62736 79.2744 -0.156935 -0.456522 0.875718
-0.259539 -8.13946 79.6527 -0.190898 -0.375461 0.906966
0.285287 -7.55828 79.9833 -0.133045 -0.349594 0.92715
0.795345 -6.87663 80.3063 -0.0913527 -0.316334 0.944189
1.20182 -6.23749 80.5536 -0.0771573 -0.299179 0.950932
1.53324 -5.5732 80.7748 -0.0585251 -0.276773 0.959107
1.83223 -4.86262 80.9933 -0.0301283 -0.227054 0.973416
2.05022 -4.09758 81.1786 -0.0257237 -0.201335 0.978805
2.32065 -3.36978 81.321 -0.00540479 -0.185889 0.982523
2.72222 -2.48734 81.453 0.0324323 -0.161224 0.986385
