-4.30096 0.566081 84.1188 0.361916 -0.362973 0.858635
-5.05609 0.913382 84.6093 0.407304 -0.394287 0.823335
-5.05609 0.913382 84.6093 0.407304 -0.394287 0.823335
-5.5285 1.50798 85.1237 0.454478 -0.384551 0.803052
-5.88376 2.15726 85.6517 0.4988 -0.395548 0.770371
-6.24445 2.95648 86.3447 0.528418 -0.383273 0.756811
-6.4363 3.49018 86.7753 0.60372 -0.388762 0.695568
-6.71473 3.98452 87.3162 0.627157 -0.409134 0.662785
-6.96689 4.75447 88.0597 0.682063 -0.395699 0.614756
-6.52108 4.46015 87.4136 0.651832 -0.381464 0.655439
-6.12409 4.12555 86.8627 0.594975 -0.360059 0.718584
-5.59422 3.41592 86.0997 0.537699 -0.352541 0.765895
-5.19732 2.95823 85.6096 0.501406 -0.310141 0.806937
-4.46086 2.27756 84.8953 0.461301 -0.361594 0.810217
-3.95954 1.35732 84.3091 0.393858 -0.346996 0.850201
-4.06492 0.839559 84.1334 0.341648 -0.352305 0.87091
-2.91935 0.50978 83.5911 0.301584 -0.290709 0.908039
-2.63735 1.41304 83.7782 0.344199 -0.282538 0.895377
-2.70279 2.14114 84.0241 0.378293 -0.236488 0.894933
-3.37093 2.97181 84.5809 0.436924 -0.240156 0.866847
-3.85765 3.45004 84.9833 0.507564 -0.268785 0.818617
-4.45001 4.04301 85.5495 0.529051 -0.28402 0.799211
-4.94576 4.6043 86.1129 0.57968 -0.314952 0.750813
-5.4044 5.11147 86.7136 0.607339 -0.318679 0.727725
-5.89331 5.72614 87.4585 0.663947 -0.349735 0.660416
-6.22969 6.15071 88.0749 0.700197 -0.365902 0.613058
-6.48592 6.59948 88.6227 0.735433 -0.351213 0.579471
-6.77996 7.23153 89.3842 0.758597 -0.358135 0.542774
-6.94405 7.70132 89.97 0.78552 -0.382388 0.486557
-7.09179 8.36917 90.7334 0.800398 -0.349719 0.485562
-7.17842 8.97503 91.3516 0.836067 -0.332809 0.436153
-7.21748 9.5808 91.9317 0.838382 -0.356782 0.412095
-7.29531 10.2908 92.7398 0.86668 -0.341274 0.363865
-7.34812 10.9199 93.4838 0.879166 -0.335432 0.338456
-7.33438 11.6142 94.17 0.880278 -0.348704 0.321739
-7.33546 12.3937 95.0231 0.894479 -0.337176 0.293632
-7.22376 13.3949 95.8625 0.90752 -0.326877 0.263701
-7.11213 14.1305 96.3825 0.914953 -0.320158 0.245417
-6.97903 14.8551 96.8516 0.91786 -0.320317 0.234372
-6.86031 15.5367 97.3547 0.921419 -0.31722 0.224063
-6.74913 16.1849 97.801 0.926167 -0.314325 0.208217
-6.58232 17.0411 98.3816 0.926781 -0.318082 0.199753
-6.44196 17.775 98.9232 0.93068 -0.315861 0.184571
-6.33417 18.4014 99.4615 0.93019 -0.319076 0.181487
-6.38958 18.6535 100.224 0.932956 -0.318458 0.167843
-6.58874 18.4683 100.994 0.933659 -0.318486 0.163854
-6.86775 17.9545 101.593 0.93354 -0.323836 0.153729
-7.06338 17.2187 101.231 0.932458 -0.323998 0.159721
-7.25546 16.4625 100.807 0.929846 -0.327313 0.168044
-7.38162 15.8668 100.358 0.929674 -0.326043 0.171473
-7.50193 15.285 99.8804 0.925166 -0.331136 0.185519
-7.62451 14.581 99.2248 0.922664 -0.333736 0.193062
-7.72418 14.0027 98.6969 0.918988 -0.341112 0.197746
-7.82288 13.4265 98.2036 0.911976 -0.350656 0.212932
-7.9738 12.6853 97.6448 0.912221 -0.345539 0.220124
-8.07969 12.1047 97.1803 0.906244 -0.349125 0.238399
-8.16719 11.4122 96.4995 0.898817 -0.357519 0.253593
-8.20138 10.8011 95.791 0.885407 -0.371198 0.27976
-8.24178 10.13 95.0633 0.884571 -0.360859 0.295491
-8.3032 9.55783 94.5256 0.8721 -0.371028 0.319029
-8.34946 8.93885 93.9058 0.856782 -0.393732 0.33223
-8.36714 8.39466 93.3547 0.84847 -0.397341 0.349345
-8.35942 7.88552 92.7723 0.838604 -0.39858 0.371318
-8.32906 7.38169 92.1728 0.817236 -0.407052 0.407815
-8.2699 6.71705 91.4143 0.801678 -0.414013 0.430917
-8.21349 6.0127 90.6479 0.789446 -0.404085 0.462049
-8.16431 5.40728 90.0279 0.746587 -0.425341 0.511125
-8.01777 4.69204 89.2436 0.716671 -0.423894 0.553803
-7.83449 4.0331 88.524 0.679826 -0.456105 0.574117
-7.65492 3.37229 87.8476 0.637612 -0.451727 0.624015
-7.43022 2.67018 87.136 0.608931 -0.437371 0.660712
-7.20504 2.14066 86.6109 0.581341 -0.43392 0.688299
-6.78438 1.29938 85.7846 0.514132 -0.429192 0.742605
-6.33479 0.498416 85.0598 0.410624 -0.444763 0.794736
-5.86418 -0.0902391 84.4838 0.378237 -0.473599 0.795385
-5.25937 -0.568523 83.9974 0.336406 -0.423078 0.84133
-4.66926 -1.00673 83.5776 0.2982 -0.387406 0.872349
-3.96079 -1.3977 83.1906 0.252685 -0.363998 0.896469
-3.52536 -0.794609 83.3145 0.288615 -0.364079 0.884849
-3.15524 -0.0408695 83.4844 0.278685 -0.340765 0.897894
-3.04847 0.194101 83.533 0.301584 -0.290709 0.908039
-1.95791 -0.2797 83.0489 0.261473 -0.262338 0.928876
-2.41263 -1.29247 82.8334 0.243432 -0.306711 0.920037
-2.75969 -2.13972 82.6004 0.202199 -0.337724 0.91927
-3.05633 -2.80038 82.3762 0.165437 -0.398145 0.902281
-3.75012 -3.03406 82.4125 0.181886 -0.42187 0.88753
-4.51747 -2.67791 82.733 0.180968 -0.448567 0.874961
-5.06655 -2.28952 83.076 0.212191 -0.467431 0.858186
-5.83277 -1.69461 83.6231 0.262905 -0.47681 0.838769
-6.55657 -1.1738 84.184 0.327034 -0.497052 0.803734
-7.06597 -0.664445 84.7119 0.381346 -0.477073 0.791819
-7.46991 -0.101678 85.3074 0.444527 -0.502384 0.741272
-7.73654 0.446595 85.8663 0.490768 -0.518269 0.699852
-7.9932 0.98796 86.4423 0.512629 -0.493721 0.702461
-8.29638 1.61107 87.1605 0.583115 -0.491662 0.646719
-8.51971 2.23055 87.8776 0.632636 -0.495354 0.594773
-8.67507 2.84899 88.5445 0.647541 -0.486981 0.586123
-8.79357 3.37147 89.1511 0.695372 -0.471958 0.541755
-8.89889 3.88919 89.747 0.719069 -0.487506 0.495255
-8.9811 4.42383 90.3815 0.755946 -0.458933 0.466826
-9.02851 5.0144 91.0808 0.757895 -0.484541 0.436824
-9.05131 5.52025 91.6401 0.782877 -0.459199 0.419808
-9.06891 6.05753 92.2743 0.812461 -0.445256 0.376183
-9.08807 6.5604 92.9014 0.820632 -0.444469 0.35918
-9.09571 7.04266 93.4925 0.832768 -0.428358 0.3503
-9.08086 7.66707 94.241 0.850121 -0.415599 0.322537
-8.9879 8.44217 95.0366 0.865574 -0.405372 0.293558
-8.85806 9.34294 95.9035 0.881858 -0.384167 0.272927
-8.77866 10.0449 96.6627 0.890784 -0.368091 0.266483
-8.72153 10.5471 97.2223 0.897042 -0.373655 0.235884
-8.64298 11.091 97.7986 0.902452 -0.365492 0.227979
-8.54662 11.6444 98.3156 0.906901 -0.362454 0.214554
-8.38663 12.4138 98.9771 0.908868 -0.364214 0.20324
-8.23621 13.1524 99.6009 0.917859 -0.349071 0.188806
-8.084 13.9015 100.265 0.923523 -0.340933 0.175698
-7.93134 14.6537 100.947 0.9231 -0.345632 0.168595
-7.78707 15.3055 101.47 0.927422 -0.339083 0.157831
-7.62486 15.9475 101.888 0.928438 -0.335423 0.159667
-7.46192 16.6176 102.349 0.929702 -0.334443 0.154173
-7.25758 17.3932 102.791 0.933017 -0.328949 0.145846
-7.07565 18.0712 103.137 0.934443 -0.323834 0.148148
-6.82535 18.9019 103.382 0.935744 -0.322555 0.142626
-6.5652 19.2877 102.562 0.93587 -0.320353 0.146693
-6.28582 19.6013 101.491 0.935053 -0.31828 0.156122
-6.01965 19.8721 100.474 0.934504 -0.315135 0.165505
-5.81852 20.0847 99.739 0.934336 -0.314055 0.168441
-5.75915 19.7919 98.8832 0.935345 -0.309938 0.170442
-5.91242 18.9673 98.2751 0.93322 -0.308059 0.18493
-6.08685 18.042 97.6414 0.932527 -0.302828 0.19649
-6.23687 17.2076 97.067 0.927225 -0.309499 0.210853
-6.34993 16.5702 96.6546 0.924431 -0.304887 0.229062
-6.44993 15.8898 96.148 0.921853 -0.303523 0.240672
-6.53724 15.2557 95.715 0.918728 -0.305544 0.250047
-6.65754 14.3774 95.1054 0.914853 -0.300119 0.270135
-6.72555 13.4673 94.3395 0.899354 -0.317045 0.301072
-6.72283 12.6384 93.5156 0.892838 -0.309379 0.327018
-6.7166 12.0089 92.903 0.88568 -0.305137 0.349946
-6.68988 11.2893 92.2079 0.877981 -0.323025 0.352729
-6.58666 10.6276 91.4554 0.850295 -0.322676 0.415787
-6.5327 10.0284 90.8929 0.841298 -0.310327 0.442437
-6.42534 9.4807 90.3268 0.827158 -0.291422 0.479294
-6.20932 8.69312 89.4848 0.801633 -0.327082 0.500401
-5.95966 8.16686 88.8541 0.770654 -0.306647 0.558451
-5.62526 7.48767 88.0774 0.727737 -0.308211 0.612704
-5.25597 6.90954 87.3872 0.669499 -0.29095 0.683461
-4.8256 6.34438 86.7251 0.665878 -0.313635 0.676508
-4.4101 5.86649 86.2071 0.587595 -0.29431 0.753733
-3.87437 5.26989 85.5922 0.536622 -0.272409 0.798643
-3.42191 4.78571 85.129 0.506225 -0.246951 0.825633
-2.88579 4.2605 84.6734 0.475751 -0.228845 0.849147
-2.207 3.63013 84.1787 0.421386 -0.213775 0.881325
-1.73518 3.11795 83.848 0.383835 -0.190839 0.902917
-1.31078 2.34193 83.5224 0.354971 -0.190081 0.91535
-1.39502 1.33131 83.3122 0.318134 -0.203857 0.925869
-1.69876 0.37002 83.1571 0.271347 -0.247502 0.930008
-1.8688 -0.0938033 83.0763 0.261479 -0.262338 0.928874
-0.755662 -0.575078 82.6612 0.213009 -0.238183 0.947574
-0.455503 0.246275 82.7861 0.249994 -0.212945 0.944541
-0.181994 1.07644 82.884 0.2617 -0.177856 0.94862
0.0520964 1.90574 82.9731 0.29418 -0.170648 0.940392
-0.0121933 2.68967 83.1409 0.317456 -0.157277 0.934548
-0.385459 3.5633 83.3969 0.336229 -0.130517 0.932693
-0.979381 4.27526 83.745 0.396712 -0.153303 0.905051
-1.53229 4.73697 84.0818 0.432709 -0.15228 0.888343
-2.07385 5.19577 84.4486 0.485609 -0.164539 0.858552
-2.61994 5.73483 84.8817 0.543748 -0.16423 0.823023
-3.26246 6.43012 85.4874 0.608583 -0.195482 0.769034
-3.67998 6.88685 85.9315 0.629263 -0.191064 0.752698
-4.23579 7.55159 86.6067 0.651122 -0.192979 0.734001
-4.70748 8.17449 87.2933 0.717505 -0.24315 0.651676
-5.08633 8.85084 88.0235 0.745437 -0.263432 0.611973
-5.45666 9.56376 88.8403 0.800651 -0.219465 0.557488
-5.746 10.3784 89.7155 0.830371 -0.263027 0.491224
-5.89897 10.9789 90.3032 0.84585 -0.270753 0.459599
-5.98437 11.6019 90.8855 0.866308 -0.279037 0.414306
-6.05801 12.1876 91.4472 0.870778 -0.283709 0.401566
-6.12042 12.8825 92.1312 0.891546 -0.287225 0.350211
-6.14113 13.5396 92.7348 0.905002 -0.27587 0.323833
-6.1636 14.1808 93.3565 0.90966 -0.286925 0.300322
-6.15343 14.8317 93.9476 0.911993 -0.280405 0.299322
-6.09995 15.4665 94.4164 0.920211 -0.280639 0.272862
-6.02706 16.0891 94.8364 0.919007 -0.29248 0.26435
-5.92819 16.8922 95.4141 0.924333 -0.29607 0.24073
-5.80527 17.7821 96.0443 0.928353 -0.296472 0.224199
-5.70708 18.4399 96.5049 0.930588 -0.294809 0.21685
-5.56099 19.2177 96.9789 0.933473 -0.295126 0.203732
-5.39934 20.0806 97.5155 0.933839 -0.302557 0.190799
-5.21935 21.0307 98.165 0.936164 -0.30427 0.176115
-5.20422 21.5233 98.9549 0.936209 -0.308379 0.168566
-5.39684 21.3665 99.7472 0.937584 -0.306513 0.164275
-5.61753 21.13 100.584 0.936789 -0.31185 0.158669
-5.82501 20.908 101.38 0.937056 -0.313316 0.154143
-6.04597 20.6671 102.246 0.935963 -0.319409 0.148158
-6.25591 20.4234 103.061 0.937183 -0.317877 0.143674
-6.46588 20.1736 103.892 0.937785 -0.318083 0.139224
-6.69624 19.8572 104.724 0.937403 -0.320187 0.136953
-6.95958 19.2766 105.176 0.938109 -0.320777 0.130581
-7.22122 18.3248 104.707 0.936839 -0.323049 0.134062
-7.4075 17.6536 104.368 0.935036 -0.325261 0.141115
-7.59228 16.9765 104.022 0.933516 -0.330708 0.138489
-7.82658 16.098 103.489 0.931575 -0.335042 0.141122
-8.02621 15.3058 102.926 0.928856 -0.339673 0.147809
-8.28144 14.3225 102.264 0.9277 -0.342159 0.14933
-8.44709 13.6021 101.645 0.92206 -0.352743 0.159302
-8.589 12.9518 101.048 0.92265 -0.347984 0.166204
-8.7448 12.2698 100.449 0.918004 -0.357937 0.170733
-8.86898 11.7119 99.9471 0.915707 -0.36047 0.177439
-9.01929 11.0496 99.3807 0.908895 -0.370506 0.191402
-9.16558 10.3581 98.7254 0.903034 -0.376675 0.206508
-9.28673 9.72295 98.0773 0.894868 -0.3943 0.208982
-9.36006 9.21936 97.4856 0.887066 -0.39752 0.234719
-9.42422 8.69377 96.8753 0.879993 -0.403188 0.250462
-9.5851 7.93339 96.1481 0.871118 -0.415161 0.2617
-9.74373 7.09302 95.3151 0.861529 -0.434282 0.262944
-9.79972 6.47697 94.5469 0.849268 -0.445891 0.282336
-9.8273 5.86914 93.7557 0.834226 -0.455694 0.310234
-9.85065 5.28307 93.0322 0.812762 -0.470124 0.343874
-9.87699 4.62311 92.2258 0.787364 -0.47901 0.388082
-9.90469 4.07922 91.5993 0.766018 -0.498692 0.405067
-9.82628 3.52601 90.8192 0.749775 -0.514301 0.415291
-9.7568 2.96444 90.0818 0.707514 -0.528418 0.469254
-9.70896 2.47341 89.4723 0.68576 -0.517061 0.510651
-9.61534 1.9729 88.8724 0.656602 -0.545018 0.521373
-9.45146 1.27804 88.0104 0.605243 -0.53963 0.584839
-9.12826 0.476316 86.9824 0.557012 -0.529482 0.639833
-8.84739 -0.116345 86.2372 0.494317 -0.550453 0.672616
-8.62472 -0.616903 85.6825 0.468438 -0.530931 0.706172
-8.23947 -1.21507 84.9782 0.415993 -0.549357 0.724677
-7.87231 -1.66689 84.4556 0.379848 -0.533682 0.755327
-7.44673 -2.0776 83.9829 0.340911 -0.519725 0.783368
-6.93594 -2.45766 83.5559 0.289908 -0.520073 0.802951
-6.29697 -2.92674 83.0548 0.217585 -0.517474 0.827573
-5.52309 -3.51766 82.501 0.185184 -0.495689 0.848368
-4.93368 -3.89404 82.1717 0.135021 -0.465773 0.874543
-4.27463 -4.2094 81.902 0.147903 -0.459928 0.875437
-3.59318 -4.51818 81.6627 0.0944273 -0.443023 0.891523
-2.62661 -4.6063 81.5384 0.046619 -0.428036 0.902558
-2.08677 -3.84251 81.8253 0.0756938 -0.381138 0.921414
-1.69305 -2.91311 82.1356 0.137016 -0.334713 0.931681
-1.33557 -1.96011 82.3881 0.16444 -0.323716 0.931542
-0.996985 -1.12767 82.5689 0.196989 -0.27621 0.940693
-0.871792 -0.828156 82.6237 0.213009 -0.238183 0.947574
0.27342 -1.30394 82.2895 0.153502 -0.220747 0.963176
0.573072 -0.549663 82.3977 0.163695 -0.18073 0.969815
0.871354 0.338737 82.4966 0.219632 -0.168215 0.960971
1.22405 1.30744 82.5709 0.234478 -0.14028 0.961947
1.4208 2.26481 82.6463 0.242173 -0.111472 0.963808
1.31678 3.05588 82.781 0.286949 -0.101481 0.952281
1.02506 3.82483 82.9409 0.300133 -0.0801177 0.950521
0.550741 4.55143 83.1682 0.337825 -0.0984122 0.93605
-0.0813632 5.18869 83.4815 0.392212 -0.0963282 0.914817
-0.902069 5.83295 83.9267 0.436487 -0.0963641 0.894535
-1.69597 6.5368 84.4484 0.510487 -0.115671 0.85207
-2.33402 7.22992 84.9752 0.578095 -0.135032 0.804716
-2.95556 7.86652 85.5714 0.632147 -0.152559 0.759682
-3.50214 8.52011 86.1847 0.674559 -0.158756 0.720948
-4.00386 9.21003 86.8655 0.730219 -0.181463 0.658674
-4.32131 9.69927 87.3722 0.770798 -0.194416 0.60669
-4.61986 10.1892 87.9081 0.789414 -0.197898 0.580137
-4.91385 10.8079 88.5747 0.81387 -0.219735 0.537875
-5.12765 11.3664 89.1553 0.833079 -0.239172 0.498774
-5.27422 11.9659 89.687 0.84526 -0.242007 0.475677
-5.4103 12.7549 90.3887 0.875362 -0.233984 0.422965
-5.49578 13.3162 90.9168 0.884804 -0.250622 0.392797
-5.57506 14.1564 91.7085 0.898885 -0.263583 0.3499
-5.60203 14.7679 92.2603 0.904357 -0.268554 0.331562
-5.61707 15.4058 92.8534 0.907623 -0.277766 0.314748
-5.60075 16.0239 93.3508 0.91543 -0.275934 0.292956
-5.54007 16.6773 93.7944 0.917637 -0.285266 0.276705
-5.48128 17.3223 94.2631 0.924145 -0.287067 0.252089
-5.41077 17.9617 94.7131 0.926473 -0.277269 0.254497
-5.31647 18.6581 95.1807 0.928167 -0.2901 0.233129
-5.21893 19.3489 95.649 0.933075 -0.279344 0.226559
-5.09925 20.0084 96.0201 0.933494 -0.28996 0.210978
-4.98187 20.7069 96.4727 0.933372 -0.299449 0.197853
-4.83039 21.5733 97.0369 0.937788 -0.292299 0.187252
-4.65286 22.4351 97.5312 0.939535 -0.291347 0.179819
-4.60021 22.9097 98.0632 0.93937 -0.29981 0.166418
-4.77229 22.8792 98.9711 0.939067 -0.302672 0.162832
-5.05384 22.5675 100.046 0.93888 -0.306188 0.157332
-5.29298 22.3011 100.973 0.938527 -0.309637 0.152615
-5.48963 22.0874 101.745 0.938332 -0.311157 0.150684
-5.67244 21.8825 102.478 0.937675 -0.314996 0.146776
-5.89102 21.6247 103.334 0.938179 -0.315472 0.142472
-6.16186 21.2974 104.408 0.938772 -0.315582 0.138253
-6.33561 21.0886 105.115 0.93902 -0.315661 0.136374
-6.51483 20.8514 105.816 0.940228 -0.314231 0.13126
-6.71923 20.5362 106.519 0.939503 -0.317447 0.128654
-6.9848 19.9371 106.995 0.939921 -0.31731 0.125947
-7.2157 19.0963 106.584 0.938699 -0.321175 0.125258
-7.43354 18.2703 106.09 0.937392 -0.324261 0.127066
-7.63873 17.5364 105.728 0.936143 -0.327594 0.127745
-7.85426 16.7606 105.318 0.935108 -0.329554 0.13026
-8.10427 15.8708 104.828 0.932977 -0.335097 0.13137
-8.26072 15.2643 104.382 0.932264 -0.336849 0.131974
-8.43113 14.6278 103.951 0.929814 -0.340468 0.139741
-8.60801 13.9803 103.545 0.926728 -0.348804 0.139685
-8.79764 13.2528 102.99 0.926822 -0.348184 0.140604
-8.94089 12.657 102.438 0.922735 -0.356145 0.147276
-9.07643 12.0742 101.895 0.919959 -0.360095 0.154882
-9.22531 11.4926 101.411 0.917988 -0.365631 0.153661
-9.38789 10.8636 100.885 0.915641 -0.370944 0.154814
-9.56558 10.1136 100.161 0.907465 -0.382115 0.174632
-9.76116 9.29998 99.368 0.899283 -0.396237 0.184895
-9.92846 8.51702 98.5185 0.889928 -0.407909 0.203399
-10.0083 8.01865 97.9069 0.88365 -0.418807 0.209198
-10.1683 7.35087 97.2455 0.879629 -0.418005 0.226307
-10.3117 6.74627 96.6582 0.866726 -0.439458 0.235931
-10.4213 6.23061 96.0757 0.858236 -0.449497 0.247011
-10.4965 5.62344 95.2851 0.852544 -0.450937 0.264245
-10.5382 5.20426 94.6573 0.827062 -0.481612 0.288861
-10.5857 4.72942 94.0488 0.81533 -0.493397 0.302578
-10.6684 4.08993 93.2484 0.790663 -0.511583 0.335928
-10.7264 3.40872 92.3621 0.764566 -0.523701 0.375138
-10.7055 2.88952 91.5824 0.750006 -0.531085 0.394259
-10.6646 2.33499 90.7778 0.720273 -0.542736 0.432023
-10.6478 1.60686 89.8504 0.677267 -0.558962 0.478277
-10.5603 1.09348 89.1067 0.658091 -0.562648 0.49922
-10.4382 0.42241 88.1937 0.611951 -0.573216 0.543222
-10.2703 -0.0674168 87.5046 0.574523 -0.600416 0.556259
-10.0584 -0.507764 86.8816 0.531352 -0.600486 0.596762
-9.85465 -0.980789 86.2444 0.490304 -0.594194 0.637601
-9.58287 -1.53349 85.5656 0.438244 -0.592424 0.675325
-9.20245 -2.06396 84.8533 0.409252 -0.590742 0.695368
-8.69889 -2.61491 84.1395 0.334649 -0.586609 0.736432
-8.23746 -3.07406 83.6059 0.286085 -0.583904 0.759452
-7.74631 -3.43139 83.1634 0.260331 -0.573142 0.77685
-7.05607 -3.94983 82.5949 0.215727 -0.565287 0.796186
-6.3409 -4.51172 82.0637 0.163347 -0.543444 0.82339
-5.74481 -4.8439 81.7331 0.101945 -0.52412 0.845521
-5.10308 -5.19137 81.4397 0.106772 -0.501518 0.858193
-4.29138 -5.54719 81.1554 0.0713455 -0.485397 0.87115
-3.41809 -5.91825 80.9119 0.0278395 -0.468329 0.882967
-2.6094 -6.10629 80.8069 -0.0121965 -0.449025 0.893238
-1.82077 -5.75524 80.9778 0.00619742 -0.411379 0.911444
-1.24638 -4.97081 81.31 0.02235 -0.384451 0.922875
-0.793369 -4.15332 81.6021 0.0589319 -0.326825 0.943246
-0.490173 -3.34693 81.8472 0.105389 -0.291323 0.950802
-0.0799213 -2.21657 82.1194 0.156064 -0.250681 0.955407
0.15196 -1.62999 82.2341 0.146861 -0.207171 0.967093
1.4021 -1.94054 82.0039 0.0987267 -0.189258 0.976952
0.968594 -2.97787 81.821 0.0504911 -0.223297 0.973442
0.640523 -4.03432 81.5697 0.0560108 -0.278078 0.958924
0.329514 -4.82106 81.3453 0.010722 -0.301337 0.953457
-0.0669596 -5.52317 81.0987 -0.0132546 -0.351235 0.936193
-0.503363 -6.20461 80.8316 -0.0587674 -0.366748 0.92846
-0.988751 -6.8897 80.5177 -0.0753657 -0.420457 0.904177
-1.61468 -7.28287 80.2798 -0.0902092 -0.424023 0.901148
-2.40092 -7.41153 80.1405 -0.0590214 -0.445329 0.89258
-3.13606 -7.27745 80.185 -0.0343891 -0.467033 0.883571
-4.00685 -6.99859 80.3124 -0.0241601 -0.523389 0.851751
-4.92243 -6.55351 80.5929 0.0202991 -0.550368 0.834676
-5.81831 -6.13235 80.9184 0.0662545 -0.564657 0.822662
-6.4479 -5.80364 81.198 0.102274 -0.573552 0.8123
-7.21729 -5.33964 81.6589 0.124764 -0.586754 0.800093
-7.85828 -4.89108 82.1125 0.157484 -0.582841 0.79718
-8.61129 -4.32033 82.7533 0.227045 -0.613301 0.756149
-9.33527 -3.83559 83.4045 0.28041 -0.628151 0.725312
-9.71185 -3.39425 83.9624 0.320921 -0.653645 0.685389
-10.0756 -2.99988 84.5088 0.338506 -0.627824 0.700042
-10.447 -2.57282 85.1226 0.399564 -0.638843 0.657149
-10.7375 -2.11598 85.7818 0.455095 -0.653383 0.604326
-10.9199 -1.66811 86.3808 0.470227 -0.630478 0.617563
-11.1658 -1.11742 87.2199 0.538312 -0.632209 0.55644
-11.3811 -0.684744 87.966 0.550998 -0.642623 0.532384
-11.4696 -0.15654 88.7455 0.612673 -0.62342 0.485778
-11.5195 0.368942 89.5152 0.630738 -0.617529 0.469436
-11.6201 0.739191 90.1802 0.684663 -0.597764 0.417031
-11.607 1.20178 90.8129 0.702851 -0.584364 0.404604
-11.546 1.83972 91.6914 0.718877 -0.59049 0.366795
-11.5894 2.21726 92.3613 0.747966 -0.5667 0.34554
-11.546 2.69488 93.0771 0.769922 -0.555453 0.313905
-11.4631 3.29727 93.9417 0.799225 -0.532054 0.279567
-11.3755 3.75779 94.5451 0.813026 -0.512286 0.275924
-11.2449 4.3846 95.3569 0.828915 -0.497579 0.254984
-11.1993 4.82577 96.0967 0.844223 -0.482274 0.233191
-11.0803 5.32644 96.7582 0.852643 -0.471576 0.224253
-10.9612 5.83963 97.3659 0.863988 -0.461274 0.201867
-10.8189 6.39288 97.9883 0.870868 -0.446072 0.206213
-10.6586 6.96549 98.5126 0.88442 -0.427575 0.18703
-10.5263 7.51995 99.1613 0.884145 -0.429327 0.184299
-10.4014 8.10218 99.8862 0.894654 -0.414356 0.16704
-10.1717 8.9192 100.637 0.903505 -0.397676 0.159488
-9.99909 9.5943 101.363 0.908422 -0.387189 0.15765
-9.84824 10.1918 101.993 0.914864 -0.377683 0.142665
-9.58458 11.105 102.68 0.917342 -0.371161 0.143959
-9.42143 11.7498 103.279 0.923398 -0.360224 0.132566
-9.2661 12.3591 103.842 0.924747 -0.355921 0.134751
-9.06274 13.1397 104.512 0.927125 -0.35055 0.1324
-8.84253 13.8647 104.893 0.929977 -0.344493 0.128234
-8.60311 14.7426 105.492 0.932104 -0.340375 0.123745
-8.37097 15.6246 106.147 0.934308 -0.335713 0.119847
-8.09621 16.5811 106.646 0.935938 -0.331372 0.119213
-7.82289 17.5531 107.16 0.937447 -0.325779 0.122703
-7.6024 18.3488 107.582 0.93866 -0.32263 0.121766
-7.41429 19.0721 108.039 0.940627 -0.318469 0.117463
-7.21476 19.7899 108.38 0.941901 -0.314261 0.118584
-6.97201 20.5876 108.563 0.942753 -0.310664 0.121251
-6.73341 21.2268 108.345 0.942753 -0.310664 0.121251
-6.53023 21.5186 107.541 0.941547 -0.312353 0.126191
-6.2673 21.9358 106.632 0.941165 -0.311327 0.131466
-6.05366 22.2146 105.775 0.94022 -0.312797 0.134704
-5.8358 22.4561 104.827 0.93959 -0.313601 0.137202
-5.62077 22.7216 103.973 0.939238 -0.313305 0.140257
-5.44241 22.9342 103.256 0.939164 -0.311901 0.143837
-5.22072 23.1978 102.378 0.939004 -0.311333 0.146077
-5.01429 23.427 101.545 0.939723 -0.308714 0.147027
-4.82121 23.6501 100.789 0.93951 -0.307824 0.150207
-4.63569 23.8643 100.079 0.939138 -0.30723 0.153722
-4.41479 24.0948 99.1968 0.939305 -0.305479 0.156165
-4.22061 24.3076 98.4461 0.939222 -0.305569 0.15649
-4.03791 24.4407 97.6211 0.942029 -0.295394 0.159135
-4.05183 23.9417 96.8003 0.941753 -0.292573 0.165838
-4.21821 23.2097 96.4696 0.941671 -0.283818 0.180837
-4.40518 22.3502 96.089 0.941049 -0.285712 0.181094
-4.52007 21.6367 95.6293 0.94002 -0.28103 0.193223
-4.6139 20.9605 95.1353 0.939167 -0.273929 0.20719
-4.77764 19.936 94.5462 0.935517 -0.274188 0.222777
-4.897 19.1347 94.0868 0.932428 -0.268206 0.242046
-4.97424 18.4852 93.6621 0.92801 -0.266402 0.260083
-5.02298 17.6881 93.0639 0.924647 -0.267061 0.271416
-5.06832 16.6498 92.2835 0.921484 -0.245906 0.30013
-5.06564 15.9777 91.7538 0.912207 -0.25331 0.321812
-5.04755 15.2272 91.1397 0.901054 -0.249655 0.354648
-4.9873 14.6118 90.578 0.903697 -0.224687 0.364482
-4.87372 13.9741 89.9411 0.893372 -0.215348 0.394349
-4.76974 13.4142 89.432 0.875784 -0.194592 0.44173
-4.61575 12.742 88.8365 0.864105 -0.17311 0.471234
-4.39843 12.0603 88.2189 0.837382 -0.183134 0.514668
-4.05846 11.291 87.4992 0.796369 -0.159932 0.583282
-3.61976 10.6237 86.7793 0.755869 -0.142106 0.639115
-3.28004 10.1196 86.2894 0.70376 -0.127862 0.698837
-2.84586 9.53955 85.7482 0.672629 -0.112793 0.730028
-2.36263 8.96144 85.2614 0.642976 -0.113736 0.757315
-1.88972 8.51847 84.8322 0.581766 -0.0871511 0.808641
-1.26329 7.83944 84.3305 0.543329 -0.0975611 0.833694
-0.693461 7.27552 83.9538 0.477265 -0.0806406 0.875052
-0.0916703 6.79033 83.6097 0.413941 -0.0504059 0.908907
0.559564 6.29633 83.2842 0.383903 -0.0491448 0.921387
1.22259 5.76395 83.0105 0.354334 -0.0515019 0.933651
1.76793 5.09082 82.7928 0.306633 -0.0431414 0.95085
2.18834 4.43323 82.6224 0.275772 -0.0447634 0.96018
2.59682 3.58154 82.4578 0.252648 -0.0708692 0.964743
2.71554 2.65026 82.3745 0.237749 -0.0724916 0.968478
2.6529 1.86368 82.3176 0.225401 -0.101001 0.968879
2.41188 0.885867 82.2704 0.188626 -0.0873141 0.97815
2.08954 -0.117033 82.2054 0.157258 -0.118343 0.980437
1.79324 -0.888651 82.1392 0.133889 -0.145804 0.980212
1.52625 -1.62522 82.0525 0.0987309 -0.189253 0.976952
2.77669 -1.9028 81.862 0.105834 -0.113079 0.987577
3.05201 -1.11292 81.9378 0.132619 -0.10513 0.985575
3.40054 -0.215891 81.9877 0.136005 -0.104531 0.98517
3.65525 0.576213 82.0152 0.140191 -0.072273 0.987483
3.9026 1.4602 82.0183 0.211977 -0.0660931 0.975037
4.01615 2.29485 82.0484 0.221242 -0.0598301 0.97335
4.05548 3.17945 82.0873 0.195851 -0.0668196 0.978016
3.8307 4.02127 82.1708 0.235141 -0.0329616 0.971402
3.55052 4.71981 82.2629 0.250696 -0.0409692 0.967088
3.03191 5.56151 82.4186 0.26974 -0.0129934 0.962832
2.5637 6.17698 82.5621 0.296427 -0.0223264 0.954455
1.77093 7.01756 82.8252 0.329404 0.0351546 0.943432
0.816758 7.69296 83.2053 0.401528 -0.0148114 0.915018
-0.0747195 8.36699 83.6545 0.469813 -0.0299322 0.881362
-0.794348 9.10177 84.1063 0.548792 0.0290852 0.835439
-1.51514 9.71453 84.6188 0.609469 -0.0285213 0.791352
-1.94687 10.2618 85.0046 0.657747 -0.00326411 0.753215
-2.55716 10.918 85.6184 0.705331 0.0111199 0.70855
-3.00629 11.6189 86.1934 0.767118 -0.0321473 0.640676
-3.49196 12.2859 86.901 0.80745 -0.100485 0.579563
-3.76863 12.9632 87.4493 0.83822 -0.110815 0.533599
-4.01837 13.5241 88.0282 0.882052 -0.125306 0.454184
-4.19577 14.3176 88.663 0.90044 -0.156575 0.405824
-4.35739 14.968 89.2894 0.906803 -0.188367 0.37682
-4.49622 15.699 90.0259 0.912 -0.189483 0.363788
-4.52666 16.4027 90.5703 0.918532 -0.22058 0.328092
-4.54854 17.4168 91.3473 0.925788 -0.226378 0.302769
-4.5504 18.0228 91.8024 0.929409 -0.226784 0.290585
-4.52879 18.8674 92.4511 0.93273 -0.233631 0.274647
-4.4617 19.6832 92.9657 0.938033 -0.248367 0.241231
-4.35974 20.5152 93.4762 0.940305 -0.257519 0.22251
-4.26794 21.251 93.9041 0.951784 -0.236275 0.194338
-4.13958 22.1466 94.4864 0.947521 -0.256577 0.190252
-4.04548 22.7808 94.9132 0.94543 -0.266873 0.186924
-3.84998 23.6957 95.2559 0.945377 -0.270049 0.182552
-3.66365 24.5899 95.6672 0.94888 -0.276791 0.151429
-3.48753 25.4341 96.1588 0.947811 -0.280577 0.151342
-3.43897 25.9119 96.799 0.943011 -0.296988 0.150092
-3.61583 25.7485 97.5803 0.941393 -0.301681 0.150891
-3.76959 25.6261 98.3049 0.940058 -0.307187 0.148007
-3.99482 25.3616 99.165 0.937231 -0.311256 0.157065
-4.17637 25.1916 99.9034 0.939415 -0.304737 0.156957
-4.35815 24.9855 100.622 0.94039 -0.305598 0.149243
-4.55311 24.7644 101.402 0.939213 -0.309055 0.149523
-4.79194 24.4801 102.336 0.941803 -0.304348 0.142662
-5.02197 24.2058 103.258 0.939282 -0.311156 0.14466
-5.25546 23.9446 104.232 0.94138 -0.30733 0.139066
-5.51383 23.6111 105.241 0.939771 -0.311544 0.140593
-5.7185 23.3896 106.144 0.941532 -0.308092 0.136366
-5.94446 23.124 107.114 0.941699 -0.308297 0.134743
-6.21812 22.6788 108.027 0.943508 -0.304349 0.130994
-6.36958 22.5962 108.974 0.944995 -0.304033 0.120614
-6.52667 22.3981 109.704 0.945626 -0.30216 0.120364
-6.76521 21.9184 110.38 0.945235 -0.304196 0.1183
-6.9975 21.2146 110.432 0.945966 -0.30454 0.111324
-7.15222 20.5803 110.006 0.944008 -0.309582 0.114012
-7.35522 19.8618 109.718 0.943775 -0.311878 0.109621
-7.63032 18.9374 109.422 0.941993 -0.316203 0.112538
-7.84177 18.1581 108.971 0.940189 -0.321041 0.113915
-8.01475 17.4979 108.532 0.938221 -0.327341 0.112178
-8.31336 16.4636 108.032 0.93806 -0.327095 0.11424
-8.49141 15.829 107.664 0.936762 -0.330094 0.116255
-8.72178 15.0392 107.261 0.935701 -0.333717 0.114442
-8.9403 14.2588 106.754 0.933811 -0.338708 0.115203
-9.12797 13.5274 106.118 0.931416 -0.345058 0.115674
-9.41229 12.6188 105.674 0.928811 -0.351571 0.117079
-9.63043 11.8127 104.96 0.926356 -0.357081 0.119823
-9.81451 11.1594 104.417 0.921539 -0.369576 0.118777
-9.99687 10.4688 103.741 0.920148 -0.368707 0.131828
-10.2216 9.75927 103.29 0.916438 -0.377931 0.131553
-10.4058 9.15719 102.835 0.914581 -0.384418 0.125317
-10.5388 8.61834 102.098 0.909703 -0.393594 0.131843
-10.7407 7.91742 101.365 0.89909 -0.414809 0.139892
-10.9311 7.31763 100.807 0.894227 -0.428928 0.127668
-11.0962 6.75267 100.168 0.87947 -0.444048 0.171331
-11.2539 6.1356 99.3996 0.878791 -0.441282 0.181599
-11.4617 5.4752 98.7929 0.877878 -0.443889 0.179704
-11.5843 4.97713 98.1021 0.872086 -0.461622 0.162393
-11.767 4.38599 97.4145 0.856269 -0.48486 0.178083
-11.9268 3.79516 96.5709 0.834347 -0.510596 0.207741
-11.982 3.40638 95.8472 0.829976 -0.513385 0.218117
-12.1555 2.877 95.228 0.815948 -0.533747 0.222132
-12.3121 2.12798 94.0388 0.76803 -0.579683 0.272208
-12.3999 1.6754 93.3104 0.749864 -0.603745 0.270231
-12.4746 1.25871 92.6795 0.72713 -0.606026 0.322513
-12.466 0.785963 91.8003 0.719821 -0.603448 0.343085
-12.6044 0.224575 91.0744 0.670993 -0.640257 0.373952
-12.5864 -0.247165 90.2537 0.671804 -0.632274 0.385888
-12.4555 -0.671386 89.3689 0.620115 -0.662064 0.420866
-12.4646 -1.19853 88.5915 0.577358 -0.673478 0.460375
-12.3448 -1.69286 87.7077 0.528391 -0.688897 0.494954
-12.0956 -2.07937 86.9441 0.517188 -0.665663 0.536819
-11.9829 -2.60865 86.1716 0.473397 -0.679549 0.559704
-11.7746 -2.98554 85.5328 0.401298 -0.701312 0.587534
-11.3836 -3.43446 84.8002 0.373642 -0.700637 0.607349
-10.9208 -3.90705 84.0331 0.301914 -0.70307 0.643848
-10.6244 -4.39743 83.3945 0.273229 -0.675742 0.68463
-10.1621 -4.79177 82.8343 0.227949 -0.67255 0.703625
-9.58974 -5.07292 82.3827 0.195204 -0.642737 0.740478
-9.03132 -5.61205 81.8035 0.147334 -0.624465 0.767031
-8.32555 -5.98758 81.3704 0.139236 -0.613612 0.777163
-7.6107 -6.42855 80.9063 0.0965109 -0.615973 0.781833
-6.91672 -6.82274 80.5273 0.0672568 -0.591293 0.803622
-6.06468 -7.30518 80.1258 0.00743487 -0.583094 0.812371
-5.38969 -7.63095 79.8925 0.0183969 -0.555939 0.830763
-4.74342 -7.96617 79.6804 -0.0460943 -0.541038 0.839024
-4.0204 -8.31291 79.5277 -0.0690333 -0.502285 0.861942
-3.18997 -8.53304 79.4736 -0.0948606 -0.4732 0.875833
-2.3253 -8.76304 79.4489 -0.10699 -0.476839 0.872455
-1.4178 -8.62705 79.6501 -0.136117 -0.473376 0.87028
-0.623866 -8.24503 79.9541 -0.130129 -0.425604 0.895504
0.288967 -7.57773 80.3733 -0.150415 -0.333369 0.93072
0.668302 -6.79344 80.7148 -0.0840555 -0.314353 0.94543
1.22401 -6.05519 80.9863 -0.0612841 -0.283131 0.957121
1.50461 -5.38392 81.1982 -0.0383524 -0.282981 0.958358
1.78572 -4.66258 81.3957 -0.0149438 -0.235417 0.97178
2.03403 -3.79926 81.5909 -0.00909572 -0.194912 0.980779
