-4.48932 3.34109 86.5555 0.567078 -0.320977 0.758549
-3.94727 2.58751 85.8781 0.501696 -0.309608 0.80774
-3.94727 2.58751 85.8781 0.501696 -0.309608 0.80774
-3.70485 1.9682 85.4811 0.430823 -0.300556 0.850916
-3.79997 1.0794 85.2041 0.419403 -0.345065 0.839384
-4.37697 1.23919 85.5854 0.466216 -0.366385 0.805011
-4.83608 1.72412 86.0577 0.467267 -0.348885 0.812367
-5.24592 2.28797 86.6133 0.525577 -0.374935 0.76355
-5.53513 2.99777 87.2123 0.585753 -0.378548 0.71665
-5.71659 3.80169 87.8172 0.635653 -0.383532 0.66996
-5.9331 4.37733 88.3503 0.654154 -0.384787 0.650588
-6.14321 4.96012 88.9319 0.672658 -0.386739 0.630844
-6.46499 5.57651 89.7207 0.723736 -0.392164 0.567815
-6.18612 5.512 89.311 0.738091 -0.350894 0.57582
-5.89724 5.0538 88.7127 0.712333 -0.345116 0.611127
-5.5336 4.53359 88.0419 0.672588 -0.34232 0.656081
-5.11726 4.03687 87.3891 0.626876 -0.335259 0.703298
-4.52165 3.37833 86.5955 0.567082 -0.320973 0.758547
-3.77622 4.2744 86.3763 0.572194 -0.285173 0.76822
-4.26889 4.84667 87.0016 0.598431 -0.302005 0.742073
-4.83447 5.54445 87.8297 0.650033 -0.310978 0.693361
-5.28984 6.20818 88.6443 0.694835 -0.329764 0.639109
-5.59008 6.80318 89.3336 0.73592 -0.341176 0.584826
-5.8541 7.40753 90.0515 0.783958 -0.353453 0.510154
-6.06156 8.17956 90.9051 0.819649 -0.314401 0.47853
-6.23599 8.88168 91.7186 0.837322 -0.332566 0.433434
-6.30656 9.44231 92.3244 0.849384 -0.327946 0.413026
-6.38354 10.0199 92.9723 0.876715 -0.319173 0.35986
-6.43046 10.6899 93.699 0.88427 -0.321033 0.339123
-6.4278 11.2374 94.2308 0.885592 -0.333658 0.323109
-6.4002 11.9651 94.8916 0.898063 -0.324483 0.296974
-6.35928 12.557 95.4345 0.907848 -0.322789 0.267459
-6.30944 13.1325 95.9433 0.912154 -0.319131 0.256943
-6.2065 13.9428 96.5995 0.915612 -0.313392 0.251874
-6.06876 14.7136 97.0921 0.924059 -0.311976 0.220848
-5.9531 15.3994 97.5696 0.928072 -0.305771 0.212409
-5.81523 16.2436 98.2181 0.929512 -0.306397 0.205232
-5.70785 16.927 98.7933 0.932622 -0.309685 0.185218
-5.5798 17.5672 99.2232 0.93342 -0.306515 0.186402
-5.4449 18.269 99.7396 0.936472 -0.307159 0.169334
-5.6306 18.3026 100.853 0.936159 -0.313382 0.159368
-5.85577 18.0385 101.671 0.936308 -0.315982 0.153192
-6.16 17.238 101.864 0.935399 -0.317333 0.155975
-6.36372 16.4312 101.422 0.931441 -0.324224 0.165216
-6.55405 15.5898 100.832 0.930307 -0.327857 0.164436
-6.73456 14.6891 100.089 0.926239 -0.331208 0.1798
-6.87201 13.9038 99.374 0.922086 -0.336036 0.191811
-6.98439 13.2165 98.7421 0.920131 -0.338719 0.196426
-7.09135 12.6207 98.2497 0.916252 -0.337458 0.21588
-7.20333 12.0155 97.7545 0.909289 -0.345752 0.231621
-7.31025 11.3809 97.2147 0.904449 -0.353712 0.238236
-7.39365 10.7148 96.5791 0.900814 -0.357425 0.246378
-7.43314 10.1343 95.9467 0.890904 -0.360286 0.276556
-7.45316 9.59408 95.3567 0.885155 -0.362048 0.291903
-7.46894 9.03849 94.7269 0.878283 -0.360891 0.313651
-7.47554 8.48843 94.1265 0.862135 -0.360913 0.355467
-7.51735 7.67609 93.3556 0.843868 -0.39676 0.361155
-7.49369 7.10599 92.7189 0.829387 -0.393883 0.396199
-7.42456 6.42725 91.9094 0.796652 -0.41303 0.441307
-7.3737 5.67936 91.1491 0.795495 -0.392167 0.461944
-7.29349 5.05531 90.4931 0.744585 -0.427713 0.512499
-7.16527 4.53421 89.8766 0.726845 -0.416724 0.544859
-6.99497 3.97826 89.2671 0.708565 -0.410927 0.573651
-6.80705 3.35017 88.6264 0.656973 -0.406243 0.635097
-6.61266 2.63744 87.9661 0.637891 -0.405174 0.654327
-6.33438 1.82204 87.2025 0.574194 -0.451029 0.68328
-5.95924 1.20289 86.5641 0.516519 -0.429586 0.740719
-5.46894 0.592465 85.8839 0.446971 -0.422187 0.788279
-5.06653 0.0796665 85.3966 0.425294 -0.425326 0.798889
-4.43469 -0.581796 84.7624 0.374325 -0.380774 0.845074
-3.82663 -1.09435 84.2914 0.354298 -0.363914 0.861392
-3.26799 -0.307793 84.399 0.353394 -0.350113 0.867326
-2.85887 0.527116 84.5516 0.358289 -0.334892 0.871479
-2.58106 1.34122 84.7069 0.368811 -0.291086 0.882746
-2.46869 2.36761 84.9556 0.408621 -0.245443 0.879083
-2.83179 3.15913 85.3929 0.478739 -0.253635 0.840523
-3.30654 3.7435 85.8627 0.546146 -0.27398 0.791594
-3.63281 4.11399 86.2201 0.546886 -0.279638 0.789125
-2.81846 4.97751 85.9103 0.593126 -0.239212 0.768309
-2.17811 4.30258 85.3083 0.515022 -0.202976 0.832172
-1.61459 3.61285 84.8444 0.448423 -0.203024 0.870374
-1.17314 2.70237 84.4449 0.384599 -0.185714 0.904191
-1.2382 1.70954 84.2415 0.354244 -0.228989 0.906684
-1.52559 0.85648 84.1297 0.305928 -0.256063 0.916973
-1.85038 0.0545223 84.0098 0.32933 -0.287389 0.899416
-2.31443 -0.946243 83.8361 0.264769 -0.299287 0.916692
-2.69832 -1.87069 83.6138 0.242483 -0.350703 0.904549
-3.16826 -2.84705 83.3364 0.181919 -0.366073 0.912631
-3.78393 -2.82007 83.5107 0.243232 -0.401414 0.883008
-4.52616 -2.26267 83.9989 0.275995 -0.437846 0.855639
-5.03138 -1.77269 84.4385 0.337243 -0.441544 0.830894
-5.61288 -1.17003 85.0007 0.390539 -0.446797 0.80473
-6.02712 -0.728225 85.4569 0.40539 -0.44469 0.798693
-6.46638 -0.18626 86.0518 0.441156 -0.481821 0.757076
-6.94899 0.422812 86.7667 0.491307 -0.471176 0.732537
-7.22874 0.917943 87.3291 0.54154 -0.479425 0.69057
-7.45382 1.44367 87.9219 0.600687 -0.489515 0.632019
-7.60397 2.02185 88.5003 0.626672 -0.485573 0.608325
-7.71315 2.54889 89.0461 0.654225 -0.467841 0.594235
-7.87772 3.1653 89.7354 0.71787 -0.445362 0.535084
-7.99978 3.7182 90.393 0.72478 -0.468529 0.505148
-8.11967 4.30452 91.1134 0.77684 -0.445588 0.444939
-8.17259 4.96996 91.8559 0.7896 -0.43468 0.432472
-8.20282 5.73462 92.737 0.808511 -0.4413 0.38856
-8.21988 6.27902 93.4131 0.82139 -0.429683 0.375088
-8.22111 6.78179 94.0112 0.851731 -0.404947 0.332524
-8.17865 7.37141 94.6321 0.851367 -0.410548 0.326535
-8.11915 8.03313 95.3188 0.875218 -0.390763 0.285127
-8.06555 8.62559 95.9789 0.880512 -0.382876 0.279123
-8.01742 9.27495 96.7252 0.889064 -0.379885 0.255445
-7.93298 9.95429 97.434 0.899785 -0.36721 0.235582
-7.83614 10.5789 98.0503 0.903026 -0.368931 0.220077
-7.71463 11.2439 98.6526 0.909205 -0.36255 0.204704
-7.59256 11.8342 99.1388 0.914813 -0.355313 0.192017
-7.45524 12.5223 99.7255 0.917202 -0.346487 0.196692
-7.32335 13.2392 100.417 0.923086 -0.340123 0.179521
-7.19788 13.8645 100.963 0.923818 -0.342872 0.170293
-7.01785 14.6645 101.584 0.927169 -0.336918 0.163842
-6.84373 15.4346 102.178 0.93039 -0.332526 0.154275
-6.65809 16.1768 102.649 0.932151 -0.329994 0.14886
-6.44693 16.9764 103.101 0.93648 -0.320925 0.141467
-6.21844 17.8591 103.597 0.937133 -0.320034 0.139115
-6.01638 18.5215 103.748 0.937997 -0.317885 0.138241
-5.75463 18.9444 102.959 0.937864 -0.315926 0.143532
-5.54163 19.1742 102.089 0.938009 -0.313668 0.14744
-5.30612 19.4558 101.191 0.938068 -0.311036 0.152592
-5.08085 19.6971 100.314 0.938055 -0.307428 0.159816
-4.9062 19.7898 99.4747 0.939126 -0.30032 0.166881
-4.95415 19.2755 98.8283 0.937504 -0.299159 0.177738
-5.11021 18.5626 98.4662 0.936773 -0.298554 0.18254
-5.27038 17.7821 98.0116 0.935695 -0.297552 0.189443
-5.35163 17.1907 97.5138 0.931788 -0.301508 0.202147
-5.456 16.4677 96.934 0.93021 -0.295452 0.217756
-5.55206 15.7927 96.4156 0.927391 -0.297007 0.227223
-5.65694 15.0796 95.9392 0.925728 -0.295641 0.235846
-5.7553 14.2654 95.3393 0.918168 -0.303564 0.254593
-5.79738 13.5637 94.7297 0.915395 -0.29576 0.27309
-5.82588 12.9838 94.2369 0.899375 -0.312132 0.306103
-5.8446 12.3108 93.6531 0.896892 -0.292883 0.331367
-5.82708 11.5416 92.9393 0.888117 -0.296009 0.351605
-5.77399 11.0228 92.3875 0.87365 -0.281126 0.397119
-5.69889 10.4544 91.8088 0.857931 -0.299489 0.417244
-5.59248 9.87506 91.1901 0.84283 -0.303697 0.443777
-5.45906 9.35697 90.6262 0.828553 -0.297584 0.474282
-5.27183 8.77881 89.9941 0.814933 -0.265534 0.515147
-5.02163 8.14435 89.2829 0.774124 -0.283973 0.565766
-4.74126 7.53349 88.6335 0.757228 -0.253193 0.602079
-4.32135 6.79377 87.8431 0.687641 -0.275866 0.671601
-3.97952 6.32835 87.3048 0.657737 -0.261513 0.705257
-3.43953 5.6834 86.6142 0.629601 -0.262274 0.731296
-3.0938 5.28922 86.2187 0.576457 -0.257989 0.775332
-2.43993 6.32628 85.982 0.6104 -0.178817 0.770526
-2.94214 6.90211 86.5592 0.640627 -0.175768 0.747381
-3.3384 7.38034 87.0612 0.692151 -0.182915 0.69819
-3.71783 7.89534 87.5948 0.739847 -0.22397 0.633047
-4.13536 8.65645 88.3328 0.76055 -0.197241 0.618509
-4.40927 9.21517 88.9041 0.800268 -0.213781 0.56024
-4.64013 9.7555 89.4784 0.826873 -0.236134 0.510413
-4.84112 10.3719 90.1169 0.833762 -0.256001 0.489188
-5.01709 11.0547 90.8187 0.871194 -0.243116 0.426515
-5.15489 11.6953 91.4776 0.87791 -0.260256 0.401367
-5.22659 12.2235 92.0098 0.885056 -0.268147 0.380474
-5.27391 12.9444 92.6726 0.898602 -0.273947 0.342735
-5.29419 13.5647 93.2253 0.90111 -0.273996 0.335988
-5.27494 14.3644 93.8944 0.914551 -0.273739 0.297765
-5.23171 15.2107 94.5705 0.920435 -0.267781 0.284769
-5.15539 16.0003 95.147 0.924408 -0.280119 0.258813
-5.07632 16.6601 95.6185 0.928028 -0.288372 0.235808
-4.95792 17.5847 96.3006 0.934835 -0.283738 0.213485
-4.89293 18.1845 96.8226 0.936876 -0.291265 0.193357
-4.72635 19.0927 97.3653 0.939134 -0.285984 0.190371
-4.59371 19.7442 97.7151 0.939592 -0.288405 0.184319
-4.44259 20.4513 98.0626 0.93945 -0.294979 0.174417
-4.32351 21.0785 98.4934 0.939715 -0.296638 0.170122
-4.43928 21.1616 99.3107 0.940991 -0.298438 0.159594
-4.61935 20.9935 100.063 0.940354 -0.304197 0.152313
-4.83231 20.8126 101.015 0.940383 -0.305581 0.149291
-5.02778 20.5688 101.746 0.939716 -0.309328 0.145748
-5.29397 20.2542 102.808 0.939313 -0.312073 0.142468
-5.51947 20.009 103.778 0.939814 -0.312973 0.137096
-5.70866 19.7962 104.593 0.939009 -0.31638 0.134766
-5.92948 19.4605 105.359 0.940041 -0.315451 0.129645
-6.20331 18.6871 105.453 0.939185 -0.318285 0.128933
-6.49565 17.6043 104.897 0.937212 -0.32358 0.130113
-6.76799 16.5601 104.276 0.934885 -0.327998 0.13567
-7.01745 15.6232 103.719 0.932737 -0.332881 0.138521
-7.2103 14.8797 103.235 0.931385 -0.334819 0.142844
-7.36371 14.2287 102.729 0.929939 -0.337538 0.145804
-7.58882 13.3026 102.021 0.926762 -0.344368 0.149982
-7.75409 12.6216 101.503 0.9235 -0.347069 0.163373
-7.93092 11.796 100.745 0.920751 -0.35011 0.172165
-8.07008 11.1228 100.089 0.916499 -0.358081 0.178344
-8.19831 10.5574 99.6126 0.912807 -0.367886 0.177009
-8.36536 9.75203 98.8627 0.906009 -0.368898 0.207335
-8.50042 9.04411 98.1472 0.897535 -0.380126 0.223037
-8.60887 8.34685 97.3804 0.888235 -0.388707 0.24434
-8.65835 7.85999 96.8088 0.872203 -0.414045 0.260439
-8.76656 7.18451 96.0844 0.866469 -0.41994 0.269516
-8.83894 6.60922 95.4708 0.857965 -0.422189 0.29244
-8.9264 5.98933 94.7864 0.850917 -0.44348 0.281542
-8.96299 5.49888 94.2155 0.822513 -0.471975 0.31735
-8.96194 4.9044 93.3948 0.817764 -0.454836 0.352685
-8.9668 4.2632 92.5908 0.790268 -0.471845 0.390945
-8.95693 3.64103 91.8524 0.765222 -0.481103 0.427756
-8.88941 2.99756 91.0499 0.733314 -0.492919 0.467414
-8.78248 2.37204 90.2019 0.692334 -0.510303 0.508197
-8.63236 1.77489 89.4645 0.667037 -0.51636 0.536881
-8.53188 1.07659 88.691 0.616416 -0.527973 0.58416
-8.40189 0.575885 88.0939 0.594674 -0.527277 0.605988
-8.11463 -0.0125029 87.3389 0.54816 -0.514674 0.657994
-7.81629 -0.512376 86.7232 0.517161 -0.530414 0.671718
-7.34224 -1.16403 85.9229 0.448778 -0.519517 0.726407
-6.77017 -1.7915 85.1934 0.408226 -0.489646 0.770453
-6.2204 -2.37209 84.5835 0.32957 -0.491102 0.805568
-5.67439 -2.92056 84.032 0.272731 -0.488873 0.828553
-5.2017 -3.34883 83.6302 0.247894 -0.473955 0.844547
-4.44238 -3.90634 83.1342 0.199978 -0.445188 0.872571
-3.81146 -4.29453 82.8096 0.164865 -0.42845 0.888039
-3.10231 -4.61 82.5518 0.136495 -0.416718 0.89873
-2.34736 -4.19618 82.6347 0.126695 -0.388419 0.912732
-1.93248 -3.23922 82.9439 0.16098 -0.338673 0.926989
-1.59583 -2.3215 83.1941 0.198893 -0.31031 0.929541
-1.24136 -1.43608 83.3936 0.228175 -0.269293 0.935637
-0.879322 -0.629842 83.5277 0.250264 -0.261033 0.932325
-0.520775 0.187373 83.6384 0.262385 -0.220849 0.939351
-0.195284 1.02761 83.7192 0.292874 -0.190274 0.936891
0.0403049 1.75527 83.7925 0.327725 -0.158805 0.931331
0.113022 2.82827 83.9623 0.353611 -0.148031 0.922901
-0.216379 3.81542 84.2321 0.385847 -0.141433 0.911657
-0.633927 4.40683 84.514 0.443686 -0.127076 0.887127
-1.24961 5.0763 84.9351 0.467837 -0.135526 0.873362
-1.84073 5.66955 85.409 0.547052 -0.157893 0.821106
-2.26497 6.13195 85.813 0.578903 -0.169058 0.797675
-1.49565 7.02075 85.4085 0.576334 -0.127135 0.806059
-0.816337 6.34033 84.868 0.503854 -0.111252 0.855357
-0.313678 5.86413 84.5468 0.466631 -0.104428 0.87826
0.203007 5.28582 84.2266 0.421412 -0.0941652 0.901967
0.689017 4.69406 83.9524 0.381043 -0.0811484 0.920989
1.15063 4.04637 83.711 0.347974 -0.0810705 0.933992
1.38054 3.12908 83.5391 0.306643 -0.0921815 0.94735
1.40282 2.18589 83.4212 0.304634 -0.135454 0.942789
1.22961 1.33343 83.3544 0.273339 -0.139447 0.951728
0.88408 0.469973 83.3092 0.253567 -0.170697 0.952138
0.575153 -0.328142 83.2411 0.231266 -0.200205 0.951994
0.222778 -1.03582 83.1655 0.206488 -0.229189 0.951215
-0.145133 -1.89641 83.0333 0.1836 -0.249548 0.950788
-0.419531 -2.6443 82.8866 0.164133 -0.271895 0.94784
-0.771036 -3.64285 82.6321 0.144659 -0.292888 0.94514
-1.05563 -4.39161 82.4046 0.102958 -0.357355 0.928276
-1.35982 -5.0473 82.1881 0.0478775 -0.346588 0.936234
-1.9483 -5.72872 81.9485 0.0427305 -0.396135 0.916758
-2.65547 -6.00066 81.8588 0.056705 -0.418797 0.906308
-3.4914 -5.83893 82.0006 0.0623332 -0.476426 0.877002
-4.33737 -5.37959 82.3368 0.101712 -0.498335 0.860998
-5.02829 -4.97336 82.6764 0.161701 -0.501394 0.849468
-5.61619 -4.60285 83.0099 0.209764 -0.506945 0.836037
-6.16577 -4.20451 83.3938 0.216555 -0.505873 0.834983
-6.65171 -3.75785 83.8388 0.262555 -0.5375 0.80126
-7.12228 -3.26754 84.3561 0.298793 -0.567016 0.767604
-7.59035 -2.76652 84.9085 0.371048 -0.551618 0.746991
-8.05926 -2.30233 85.4887 0.377278 -0.550099 0.745019
-8.43005 -1.90301 86.0723 0.44329 -0.564888 0.695287
-8.78133 -1.33704 86.7775 0.498192 -0.567478 0.655571
-9.08966 -0.78176 87.521 0.540241 -0.568896 0.620078
-9.32466 -0.29219 88.2027 0.573783 -0.564952 0.59296
-9.50536 0.213322 88.9209 0.607041 -0.593499 0.528451
-9.56373 0.78855 89.5964 0.651855 -0.559164 0.511604
-9.63297 1.36819 90.3753 0.687845 -0.554058 0.468155
-9.75882 2.00538 91.3078 0.723704 -0.536621 0.433838
-9.77366 2.47726 91.9229 0.751183 -0.528761 0.394998
-9.76182 3.02871 92.641 0.769731 -0.513669 0.378601
-9.73608 3.67725 93.4805 0.795761 -0.501828 0.338825
-9.71872 4.34554 94.4663 0.818265 -0.493283 0.295026
-9.67921 4.81449 95.1183 0.827061 -0.486586 0.280651
-9.53999 5.47922 95.8261 0.838138 -0.46982 0.277076
-9.43047 6.17676 96.6334 0.868507 -0.429476 0.247393
-9.33642 6.70728 97.2589 0.874009 -0.432346 0.221701
-9.22501 7.42193 98.149 0.884986 -0.408291 0.22381
-9.0977 8.03637 98.8006 0.894113 -0.401884 0.197509
-8.94313 8.69522 99.4428 0.901063 -0.393833 0.181391
-8.82425 9.25347 100.028 0.904674 -0.388359 0.175063
-8.64542 9.95654 100.64 0.911145 -0.374436 0.172082
-8.49349 10.5674 101.183 0.919685 -0.361033 0.154311
-8.3674 11.1856 101.866 0.921445 -0.357563 0.151945
-8.19041 11.9143 102.503 0.924816 -0.349058 0.151241
-8.01213 12.5939 103.005 0.927157 -0.347091 0.14107
-7.80927 13.3643 103.568 0.929465 -0.342524 0.136914
-7.62739 14.109 104.175 0.930855 -0.339687 0.134618
-7.43925 14.825 104.669 0.933065 -0.336173 0.127976
-7.27009 15.4518 105.058 0.934798 -0.331432 0.127684
-7.08645 16.1167 105.44 0.935558 -0.329324 0.12758
-6.87108 16.9203 105.923 0.936846 -0.326486 0.125408
-6.70765 17.5455 106.31 0.938285 -0.323435 0.122521
-6.42055 18.5843 106.824 0.94035 -0.317366 0.122554
-6.1286 19.626 107.269 0.941857 -0.313087 0.121991
-5.88625 20.2617 107.029 0.942683 -0.310619 0.121896
-5.65549 20.5705 106.066 0.942103 -0.310507 0.126599
-5.44632 20.8483 105.219 0.941068 -0.311376 0.132045
-5.21508 21.1383 104.265 0.940922 -0.310532 0.135025
-4.95373 21.4363 103.149 0.940239 -0.310699 0.139329
-4.68542 21.7525 102.049 0.941182 -0.307187 0.140753
-4.45788 22.0158 101.128 0.940863 -0.305544 0.146358
-4.24676 22.2026 100.171 0.940511 -0.305114 0.149479
-3.96167 22.5053 99.0071 0.942379 -0.297411 0.153194
-3.78324 22.6849 98.2561 0.943864 -0.291314 0.155599
-3.86724 22.009 97.5322 0.943551 -0.289692 0.160591
-4.05634 21.08 97.0199 0.942046 -0.28377 0.178734
-4.2638 20.0752 96.5484 0.940124 -0.281103 0.192595
-4.41066 19.1946 96.0171 0.938365 -0.282006 0.199767
-4.48957 18.5376 95.5058 0.934123 -0.274732 0.227896
-4.57709 17.809 94.986 0.934226 -0.272785 0.229789
-4.65242 17.1258 94.5301 0.929797 -0.265911 0.254499
-4.71339 16.4837 94.0664 0.926071 -0.265702 0.267459
-4.74081 15.8275 93.5546 0.922967 -0.262244 0.281677
-4.7555 15.2157 93.0677 0.918262 -0.251678 0.305701
-4.76432 14.5449 92.5419 0.913766 -0.264885 0.307684
-4.71415 13.7436 91.839 0.899781 -0.254445 0.354475
-4.67485 13.1771 91.349 0.900515 -0.245545 0.35886
-4.51766 12.2656 90.47 0.883945 -0.235373 0.40403
-4.31269 11.5185 89.726 0.854022 -0.222951 0.469855
-4.07554 10.8349 89.0459 0.83072 -0.209898 0.515603
-3.71899 10.0221 88.2275 0.793959 -0.187703 0.57827
-3.32598 9.29276 87.5364 0.752456 -0.149526 0.641382
-2.98551 8.7426 87.0306 0.715182 -0.139123 0.684946
-2.4186 8.04731 86.3447 0.663988 -0.126893 0.736824
-1.79497 7.36652 85.7016 0.608579 -0.120778 0.784248
-1.75489 7.31999 85.6634 0.609803 -0.127912 0.782126
-1.01574 8.25993 85.2297 0.587377 -0.0662724 0.805979
-1.48388 8.71358 85.6229 0.620852 -0.0681386 0.780961
-1.97234 9.23375 86.1006 0.680393 -0.0565338 0.730664
-2.44113 9.82901 86.6341 0.729588 -0.0953959 0.677035
-2.774 10.3319 87.0955 0.754743 -0.0990685 0.648208
-3.17226 11.0675 87.7451 0.799228 -0.144262 0.582375
-3.43919 11.6191 88.2851 0.818256 -0.146929 0.55576
-3.67977 12.3031 88.9072 0.857322 -0.16829 0.486495
-3.94889 13.1001 89.7175 0.884531 -0.189954 0.426029
-4.12617 13.9639 90.5353 0.902491 -0.207353 0.377507
-4.1967 14.6019 91.0681 0.90716 -0.221363 0.357855
-4.23917 15.2471 91.5951 0.918511 -0.227803 0.322892
-4.26126 15.9134 92.1187 0.924391 -0.228299 0.30521
-4.25347 16.7205 92.748 0.925266 -0.247975 0.28668
-4.24714 17.3867 93.3193 0.931374 -0.244992 0.269242
-4.16854 18.1918 93.817 0.935957 -0.254928 0.242892
-4.07812 19.117 94.4405 0.93793 -0.259943 0.229132
-4.01161 19.8211 95.0094 0.940425 -0.262664 0.215891
-3.87666 20.6882 95.5302 0.944096 -0.267667 0.192448
-3.71484 21.478 95.8479 0.944659 -0.275389 0.178268
-3.55991 22.2921 96.2823 0.944861 -0.278164 0.172688
-3.38721 23.1839 96.8093 0.944845 -0.283917 0.163219
-3.25195 23.8333 97.1978 0.942923 -0.293115 0.158047
-3.26276 24.1957 97.9626 0.943627 -0.296123 0.147916
-3.48267 23.9008 98.7714 0.943266 -0.296643 0.149173
-3.68673 23.6649 99.602 0.942009 -0.302021 0.146295
-3.88575 23.433 100.398 0.941393 -0.303764 0.146634
-4.11567 23.1838 101.367 0.940972 -0.306141 0.144385
-4.2873 23.0358 102.186 0.941447 -0.306437 0.14062
-4.49091 22.7519 102.94 0.941133 -0.308561 0.138052
-4.67198 22.5467 103.72 0.941542 -0.308246 0.135953
-4.83475 22.3746 104.458 0.941572 -0.308107 0.136061
-5.03718 22.1134 105.277 0.941395 -0.309657 0.133747
-5.25538 21.8101 106.124 0.942105 -0.308843 0.130587
-5.42473 21.5962 106.854 0.942626 -0.308673 0.127187
-5.63028 21.3813 107.875 0.943696 -0.30703 0.123166
-5.82098 21.0954 108.635 0.94458 -0.306505 0.117576
-6.11144 20.3699 109.077 0.944551 -0.306579 0.117613
-6.31394 19.6116 108.701 0.943353 -0.310829 0.116062
-6.54891 18.7238 108.211 0.941709 -0.315634 0.116443
-6.80246 17.8655 107.918 0.939519 -0.321922 0.116918
-7.00681 17.1313 107.534 0.939328 -0.322105 0.117931
-7.1616 16.5271 107.102 0.937586 -0.326727 0.119087
-7.33973 15.88 106.728 0.937741 -0.327367 0.116043
-7.61978 14.8546 106.093 0.936017 -0.33177 0.117432
-7.90847 13.8378 105.511 0.934249 -0.336172 0.118998
-8.07174 13.1876 104.958 0.93142 -0.34104 0.127075
-8.30417 12.3213 104.315 0.928815 -0.346843 0.130336
-8.48465 11.6637 103.827 0.927567 -0.34883 0.133845
-8.73591 10.7554 103.142 0.924053 -0.358245 0.13335
-8.91254 9.99046 102.299 0.918264 -0.366873 0.148806
-9.10908 9.27791 101.694 0.911595 -0.382633 0.150291
-9.28783 8.68426 101.222 0.907361 -0.395279 0.143009
-9.44842 7.9497 100.308 0.899325 -0.407043 0.159785
-9.63011 7.26534 99.6339 0.892375 -0.416644 0.173422
-9.7951 6.68691 99.1134 0.882531 -0.429782 0.190858
-9.90949 6.07077 98.2733 0.878959 -0.42773 0.210301
-10.0181 5.56515 97.6781 0.865136 -0.451455 0.218466
-10.1734 4.85723 96.8562 0.852945 -0.461513 0.24349
-10.3159 4.27322 96.1635 0.835235 -0.497706 0.233818
-10.4366 3.75879 95.5375 0.822559 -0.505701 0.25992
-10.4858 3.21504 94.6423 0.805487 -0.515982 0.291378
-10.5264 2.77444 93.9556 0.795191 -0.51907 0.312311
-10.5902 2.14361 93.0952 0.774413 -0.52838 0.347253
-10.643 1.62832 92.4021 0.748601 -0.547481 0.37333
-10.6518 1.07493 91.5968 0.7207 -0.560346 0.406903
-10.5412 0.57242 90.7354 0.681135 -0.582038 0.443926
-10.5175 0.0763573 90.0244 0.657625 -0.591186 0.46568
-10.5475 -0.458476 89.3976 0.60884 -0.628959 0.48345
-10.3585 -0.91993 88.5976 0.589705 -0.607912 0.531094
-10.1668 -1.34012 87.9448 0.546819 -0.605662 0.578068
-9.96751 -1.84679 87.2515 0.508446 -0.630973 0.585965
-9.6408 -2.43274 86.4055 0.461897 -0.619786 0.634284
-9.40369 -2.88794 85.7976 0.423559 -0.634064 0.646665
-8.93331 -3.28991 85.15 0.35976 -0.597454 0.716674
-8.4869 -3.65118 84.6261 0.333301 -0.581908 0.741118
-7.99935 -4.23458 83.9661 0.27784 -0.593084 0.755335
-7.36199 -4.83476 83.3091 0.233819 -0.575757 0.783425
-6.76611 -5.32373 82.8008 0.180917 -0.55848 0.809549
-6.0532 -5.71641 82.3866 0.140967 -0.559636 0.816661
-5.43596 -6.09302 82.0472 0.101374 -0.532449 0.840369
-4.81992 -6.45476 81.7608 0.0721829 -0.522328 0.849529
-4.11977 -6.85257 81.4747 0.0308734 -0.506228 0.861837
-3.13338 -7.23828 81.2377 -0.00543912 -0.480486 0.876985
-2.10134 -7.18785 81.2701 -0.0315085 -0.441097 0.896906
-1.37426 -6.89181 81.4234 -0.00170984 -0.410065 0.911715
-0.761155 -6.38191 81.6376 -0.00154748 -0.389925 0.920845
-0.244396 -5.64687 81.9081 0.000749066 -0.344799 0.938499
0.137794 -4.78261 82.1871 0.0512727 -0.320067 0.946007
0.420255 -4.10148 82.3667 0.0838087 -0.263089 0.961124
0.698424 -3.21596 82.5726 0.131742 -0.234554 0.963135
0.945313 -2.47618 82.72 0.152152 -0.218638 0.963435
1.24194 -1.71089 82.8234 0.148422 -0.193105 0.969609
1.68136 -0.851776 82.9019 0.167372 -0.149319 0.974521
2.10845 0.197613 82.9699 0.213449 -0.131476 0.967724
2.37276 0.915362 83.0089 0.242299 -0.108071 0.964124
2.64161 1.75548 83.029 0.249757 -0.105023 0.962594
2.69376 2.6548 83.095 0.273792 -0.0806969 0.958398
2.60758 3.86394 83.198 0.294017 -0.0738993 0.952553
2.28371 4.65754 83.3457 0.321529 -0.0428814 0.945928
1.68329 5.43554 83.603 0.342735 -0.0315642 0.938593
1.0521 6.16067 83.8944 0.411343 -0.0587844 0.908904
0.591122 6.71027 84.1492 0.43138 -0.0444477 0.901075
-0.124515 7.3368 84.5665 0.493509 -0.0610297 0.867597
-0.721476 7.8964 84.9756 0.575755 -0.0875341 0.812857
-0.937082 8.16925 85.1625 0.579381 -0.0965962 0.809313
-0.280621 9.12618 84.7056 0.563626 0.00672966 0.825692
-0.884145 9.66599 85.1724 0.628583 0.0173503 0.776588
-1.30946 10.1677 85.5591 0.693008 0.0137111 0.7208
-1.97181 10.9171 86.2564 0.764757 -0.00545352 0.644295
-2.39684 11.594 86.773 0.801198 -0.0273453 0.595187
-2.74796 12.2475 87.3476 0.834822 -0.0437594 0.548725
-3.02907 12.8337 87.8794 0.854656 -0.0991183 0.508644
-3.23732 13.5111 88.4195 0.891198 -0.119542 0.43758
-3.42871 13.9995 88.9704 0.894513 -0.157009 0.418562
-3.61257 14.8809 89.7732 0.913314 -0.173419 0.367764
-3.70412 15.4639 90.274 0.934139 -0.174389 0.311217
-3.75232 16.1748 90.8386 0.937348 -0.175466 0.300983
-3.79673 16.8502 91.3899 0.941073 -0.205722 0.268401
-3.78803 17.5228 91.8848 0.942154 -0.206462 0.264046
-3.79741 18.1075 92.378 0.94329 -0.223147 0.245727
-3.74655 18.7636 92.7911 0.944164 -0.224852 0.240823
-3.70129 19.4226 93.2247 0.939997 -0.239296 0.242659
-3.61846 20.4861 94.0061 0.945169 -0.24666 0.213427
-3.48228 21.349 94.4835 0.949128 -0.252796 0.187389
-3.33223 22.0932 94.7604 0.949752 -0.260836 0.173018
-3.17557 23.0158 95.3182 0.948282 -0.269261 0.168105
-3.00201 23.9087 95.8009 0.950882 -0.273509 0.144968
-2.79491 24.8179 96.1918 0.948532 -0.283476 0.141167
-2.63097 25.5253 96.5473 0.945596 -0.29597 0.135092
-2.68702 25.7126 97.3207 0.944103 -0.298151 0.140623
-2.86855 25.5293 98.1417 0.943639 -0.298682 0.1426
-3.09073 25.1545 98.8255 0.941979 -0.303825 0.142695
-3.2921 24.9105 99.6328 0.941996 -0.302364 0.145671
-3.52019 24.7063 100.695 0.94171 -0.30375 0.144629
-3.72009 24.43 101.421 0.942026 -0.303503 0.143084
-3.89576 24.2678 102.245 0.942309 -0.304256 0.139578
-4.14694 23.9202 103.193 0.942328 -0.305463 0.136786
-4.33455 23.7131 104.023 0.941998 -0.306988 0.135637
-4.5394 23.5025 104.973 0.942204 -0.306815 0.134596
-4.79492 23.1498 105.963 0.942179 -0.307596 0.132977
-5.00069 22.8594 106.754 0.943247 -0.304734 0.131996
-5.15028 22.716 107.502 0.944693 -0.30187 0.128179
-5.36463 22.4718 108.519 0.946656 -0.297171 0.124626
-5.54224 22.2159 109.264 0.946973 -0.298201 0.119653
-5.73342 21.8915 109.973 0.946568 -0.299982 0.118379
-6.0072 21.28 110.635 0.947027 -0.300437 0.113479
-6.27014 20.4014 110.488 0.946541 -0.303108 0.110391
-6.50384 19.574 110.196 0.945283 -0.308257 0.106857
-6.66922 18.9134 109.742 0.943165 -0.312889 0.111984
-6.87113 18.1804 109.379 0.941395 -0.318289 0.111656
-7.11069 17.3852 109.122 0.941211 -0.319709 0.109122
-7.34031 16.5263 108.566 0.939918 -0.323424 0.109321
-7.51283 15.8866 108.154 0.938376 -0.328236 0.108184
-7.70963 15.2014 107.789 0.93775 -0.328491 0.11278
-7.94583 14.3376 107.221 0.936221 -0.332495 0.113746
-8.14388 13.6682 106.886 0.934756 -0.336548 0.113871
-8.34018 12.9433 106.356 0.934156 -0.338167 0.113981
-8.53382 12.2025 105.715 0.931553 -0.343419 0.119452
-8.80581 11.2651 105.074 0.928434 -0.350444 0.123198
-9.03893 10.4443 104.437 0.924501 -0.361486 0.120881
-9.2466 9.75531 103.966 0.921819 -0.36765 0.122671
-9.37463 9.2364 103.337 0.918417 -0.374196 0.128144
-9.54984 8.60181 102.709 0.912653 -0.386861 0.13192
-9.77194 7.92076 102.173 0.907691 -0.397199 0.135088
-9.91777 7.40255 101.609 0.902024 -0.409092 0.137827
-10.0432 6.85314 100.838 0.895802 -0.417484 0.152467
-10.3031 6.06579 100.176 0.886217 -0.433024 0.16465
-10.4608 5.491 99.47 0.877775 -0.448026 0.169012
-10.59 4.93888 98.7474 0.875529 -0.446104 0.18558
-10.7857 4.23464 97.9453 0.861486 -0.463106 0.208265
-10.9118 3.77964 97.3561 0.851825 -0.485023 0.197851
-11.0474 3.27022 96.6675 0.835947 -0.510893 0.199982
-11.1951 2.68383 95.8429 0.826455 -0.524035 0.205054
-11.2677 2.13035 94.831 0.805214 -0.530013 0.264527
-11.376 1.65356 94.1959 0.7763 -0.563084 0.283363
-11.4424 1.2572 93.5579 0.7388 -0.602318 0.299513
-11.5061 0.745537 92.7923 0.727329 -0.597004 0.338495
-11.5506 0.210082 91.9093 0.680319 -0.629657 0.374173
-11.4639 -0.357756 90.8454 0.67247 -0.613304 0.412836
-11.5762 -0.950261 90.1283 0.617891 -0.660087 0.427195
-11.5324 -1.34965 89.4849 0.608226 -0.645623 0.46177
-11.3277 -1.69917 88.757 0.570126 -0.650966 0.500589
-11.1527 -2.12548 88.0452 0.542284 -0.63472 0.550452
-10.9455 -2.58272 87.3 0.521577 -0.679166 0.516305
-10.6723 -3.26735 86.2925 0.452074 -0.679369 0.577883
-10.3921 -3.65481 85.6601 0.404562 -0.669241 0.622737
-10.0012 -4.13447 84.9434 0.353649 -0.65349 0.668772
-9.49049 -4.49099 84.3505 0.284128 -0.629294 0.722706
-9.17939 -4.9683 83.8051 0.263011 -0.623929 0.735892
-8.63122 -5.36942 83.2839 0.248064 -0.619447 0.744797
-8.18372 -5.7762 82.8196 0.189061 -0.643246 0.741951
-7.70573 -6.18283 82.368 0.120076 -0.615549 0.778898
-7.08946 -6.47582 82.0303 0.142434 -0.588649 0.795742
-6.51554 -6.81398 81.6927 0.0845066 -0.562551 0.822433
-5.91246 -7.19113 81.3721 0.0642517 -0.57411 0.816175
-5.20916 -7.55669 81.0699 0.0482676 -0.568207 0.821469
-4.37487 -8.00569 80.7618 -0.00344923 -0.532486 0.845972
-3.53764 -8.34148 80.5806 -0.0368428 -0.561086 0.826937
-2.79437 -8.49141 80.5472 -0.0706536 -0.525971 0.847563
-1.76372 -8.42789 80.6606 -0.0896231 -0.442012 0.892521
-0.927252 -8.14655 80.8609 -0.0463838 -0.420885 0.905927
-0.251105 -7.64417 81.124 -0.0748294 -0.380927 0.921572
0.485979 -6.85568 81.4878 -0.0878067 -0.319532 0.943498
0.878155 -6.1898 81.725 -0.0132705 -0.275976 0.96068
1.21006 -5.49292 81.9403 0.00959688 -0.26582 0.963975
1.6189 -4.54185 82.1818 0.0199676 -0.245088 0.969291
1.93149 -3.45083 82.4041 0.0818941 -0.222369 0.971517
2.31697 -2.31374 82.5671 0.124735 -0.183829 0.974994
2.80243 -1.41937 82.6317 0.143634 -0.126739 0.981235
3.12427 -0.572532 82.6763 0.161852 -0.111947 0.980445
3.51821 0.461409 82.7112 0.177097 -0.0839146 0.980609
3.83222 1.38636 82.7138 0.221454 -0.063754 0.973085
4.04755 2.12057 82.702 0.235312 -0.0365866 0.971231
4.04481 2.89068 82.7364 0.261148 -0.0398407 0.964476
3.91576 3.7451 82.8112 0.268669 -0.0420506 0.96229
3.73731 4.66715 82.8979 0.253451 -0.0394857 0.966542
3.25457 5.41166 83.0501 0.314322 -0.00425474 0.949307
2.79226 6.12103 83.2111 0.320219 -0.0121945 0.947265
2.24443 6.74244 83.4021 0.378352 0.0333044 0.925063
1.7302 7.28746 83.6073 0.422399 0.0457947 0.905253
1.14305 7.85467 83.8715 0.482333 0.0443381 0.874865
0.516572 8.35403 84.2022 0.530193 0.0437733 0.8466
-0.0747732 8.91601 84.5653 0.554219 -0.0127973 0.832272
-0.0996176 8.94567 84.5823 0.554227 -0.0127981 0.832267
-6.31928 15.081 98.7249 0.924928 -0.319411 0.206118
-6.21897 15.7859 99.4078 0.929814 -0.319626 0.182279
-6.24155 15.5057 99.0511 0.929049 -0.317033 0.190675
-6.31481 15.1041 98.7405 0.925863 -0.315773 0.207477
