-5.18602 6.05365 91.0755 0.772265 -0.373244 0.514097
-4.93907 5.55504 90.3826 0.753079 -0.344674 0.560312
-4.93907 5.55504 90.3826 0.753079 -0.344674 0.560312
-4.71146 5.09598 89.8163 0.737277 -0.324113 0.592768
-4.42644 4.47711 89.1424 0.687614 -0.337626 0.642803
-4.05208 3.95086 88.4922 0.673344 -0.312813 0.669892
-3.56856 3.39536 87.806 0.617238 -0.294155 0.729719
-3.19818 2.80934 87.2855 0.555417 -0.284539 0.78134
-3.22511 1.81071 86.9197 0.521219 -0.33434 0.78491
-3.69401 1.52744 87.1016 0.516555 -0.354629 0.779365
-4.1371 1.87025 87.5728 0.547203 -0.37283 0.749378
-4.60498 2.62216 88.3396 0.592805 -0.396883 0.700761
-4.92548 3.52613 89.1492 0.68307 -0.367225 0.631317
-5.02984 4.48696 89.8376 0.717419 -0.369862 0.590349
-5.16574 5.05103 90.3828 0.751146 -0.363093 0.550817
-5.2544 5.40654 90.7247 0.760314 -0.341701 0.552416
-5.2952 5.60449 90.9134 0.772262 -0.373245 0.5141
-6.12935 4.8416 91.6147 0.786824 -0.392912 0.475161
-6.17896 5.44755 92.2197 0.80403 -0.380857 0.456601
-6.25582 6.01692 92.8702 0.818319 -0.400648 0.411693
-6.36141 6.51425 93.5784 0.840271 -0.371921 0.394485
-6.53246 6.78628 94.2592 0.857166 -0.376812 0.35111
-6.34984 7.6564 94.7365 0.864564 -0.374183 0.334791
-6.26844 8.55618 95.5507 0.877544 -0.353902 0.323527
-6.25002 9.30475 96.3873 0.892422 -0.349202 0.285184
-6.2077 10.0035 97.1725 0.899015 -0.343647 0.271062
-6.168 10.6374 97.898 0.908055 -0.344809 0.23756
-6.08907 11.2981 98.5752 0.915137 -0.335882 0.222928
-5.99109 11.9991 99.2818 0.919419 -0.33848 0.200251
-5.85159 12.8225 100.021 0.922621 -0.330296 0.199049
-5.73201 13.4806 100.598 0.928907 -0.325585 0.176425
-5.61326 14.1069 101.124 0.930603 -0.324074 0.169997
-5.46865 14.8009 101.695 0.933215 -0.322985 0.157338
-5.26576 15.6918 102.309 0.93461 -0.322637 0.149696
-5.1103 16.3376 102.711 0.93732 -0.315992 0.146895
-4.9055 17.1585 103.178 0.937947 -0.316629 0.141346
-4.65601 17.7825 102.907 0.93928 -0.313197 0.140213
-4.43164 18.0879 102.107 0.939521 -0.308887 0.147914
-4.16357 18.4167 101.074 0.941174 -0.30304 0.149465
-3.99743 18.5575 100.332 0.941286 -0.30113 0.152646
-3.98297 18.2342 99.6544 0.942476 -0.291537 0.163539
-4.15225 17.4061 99.15 0.939062 -0.292684 0.180273
-4.33329 16.5414 98.6703 0.935678 -0.303452 0.180064
-4.49521 15.6347 98.0961 0.933364 -0.296207 0.202598
-4.66983 14.5798 97.3806 0.930539 -0.291352 0.221836
-4.77804 13.6708 96.6541 0.924187 -0.290499 0.247969
-4.88303 12.7736 95.9982 0.917953 -0.290795 0.269814
-4.94047 12.0272 95.3875 0.911628 -0.292226 0.289031
-4.97956 11.2799 94.7617 0.901908 -0.297139 0.313483
-4.99188 10.4371 94.0307 0.883279 -0.313262 0.348835
-4.94688 9.7088 93.3102 0.881083 -0.290813 0.372988
-4.85792 9.03531 92.5927 0.854216 -0.316842 0.412222
-4.73995 8.36293 91.8776 0.848171 -0.293037 0.441289
-4.57285 7.7011 91.1486 0.805324 -0.311465 0.504422
-4.32771 7.06791 90.4119 0.795564 -0.280292 0.537135
-4.02532 6.46216 89.6911 0.739105 -0.310224 0.5979
-3.70491 5.8398 89.0013 0.730401 -0.284641 0.620882
-3.3692 5.35007 88.4361 0.68807 -0.253554 0.679904
-2.87407 4.73435 87.7357 0.628452 -0.274 0.727992
-2.41737 4.19937 87.1884 0.582962 -0.23388 0.77811
-2.02078 3.62802 86.7351 0.521214 -0.23418 0.820668
-1.83846 2.96494 86.4305 0.52109 -0.233381 0.820974
-1.87068 2.2002 86.2345 0.4628 -0.223382 0.85784
-2.3115 0.945281 86.0543 0.422696 -0.266764 0.866086
-2.75214 -0.0374715 85.9176 0.432821 -0.311731 0.845866
-3.37541 -1.07296 85.7703 0.377026 -0.377039 0.845731
-3.91605 -0.612593 86.2509 0.413599 -0.41484 0.810459
-4.46282 0.109359 86.9266 0.501006 -0.381243 0.776947
-4.84363 0.612504 87.4265 0.527818 -0.401584 0.747902
-5.26582 1.1732 88.0605 0.565646 -0.418215 0.710586
-5.55914 1.69555 88.6368 0.611924 -0.450638 0.649981
-5.76659 2.30935 89.2395 0.651025 -0.443008 0.615144
-5.94967 3.17164 90.0734 0.69817 -0.439211 0.563941
-6.05856 4.03827 90.8894 0.746814 -0.393508 0.536083
-6.11966 4.69489 91.4847 0.767824 -0.390527 0.507833
-6.12195 4.75033 91.5303 0.77101 -0.391243 0.502399
-7.02002 3.93938 92.3162 0.778741 -0.436994 0.44973
-7.0388 4.46328 92.852 0.812228 -0.437621 0.385712
-7.05778 5.11385 93.619 0.813137 -0.430789 0.391445
-7.22368 5.53517 94.4776 0.840952 -0.413941 0.3485
-7.47503 5.67659 95.2891 0.849464 -0.421809 0.317
-7.16354 6.49546 95.5264 0.852319 -0.412405 0.321675
-6.96787 7.4134 96.1722 0.874254 -0.391655 0.286856
-6.92274 8.05555 96.8901 0.886083 -0.369953 0.27868
-6.87646 8.79514 97.8182 0.896266 -0.373648 0.238806
-6.80815 9.33776 98.4145 0.904027 -0.358836 0.232318
-6.7359 9.85323 98.9663 0.904126 -0.367836 0.217376
-6.65414 10.4571 99.6481 0.915387 -0.352002 0.195348
-6.55722 11.034 100.239 0.915089 -0.353927 0.193256
-6.43651 11.6267 100.754 0.922157 -0.345392 0.174156
-6.31395 12.2239 101.273 0.924435 -0.340177 0.172257
-6.1682 12.8934 101.838 0.926574 -0.337393 0.166109
-6.00326 13.658 102.487 0.931149 -0.33209 0.150592
-5.83907 14.3603 103.01 0.932965 -0.329666 0.144556
-5.63527 15.1986 103.589 0.935985 -0.322451 0.141221
-5.43525 15.9902 104.093 0.936718 -0.321562 0.138379
-5.26143 16.6652 104.491 0.937695 -0.320954 0.133105
-5.04977 17.4791 104.939 0.940211 -0.315464 0.128367
-4.84551 18.1793 105.167 0.940488 -0.315983 0.125047
-4.62013 18.6937 104.766 0.941513 -0.310941 0.129878
-4.45586 18.8719 104.013 0.941505 -0.310181 0.131723
-4.28814 19.0663 103.283 0.941799 -0.306425 0.13827
-4.07489 19.3829 102.54 0.941734 -0.305327 0.141101
-3.89697 19.6101 101.836 0.942162 -0.303135 0.142935
-3.64634 19.9109 100.815 0.943928 -0.298103 0.141898
-3.42234 20.1569 99.8804 0.945136 -0.291033 0.148385
-3.37069 19.9516 99.1554 0.94471 -0.288186 0.156433
-3.51661 19.1751 98.6252 0.946167 -0.281815 0.159212
-3.64416 18.5046 98.2163 0.944305 -0.281284 0.170782
-3.80064 17.6962 97.7706 0.940007 -0.285829 0.186247
-3.92628 16.9633 97.3087 0.941524 -0.275679 0.193734
-4.07733 16.0691 96.7996 0.936739 -0.275144 0.216351
-4.18141 15.3132 96.2795 0.931351 -0.28159 0.230396
-4.22259 14.627 95.6665 0.930065 -0.266599 0.252595
-4.29817 13.8284 95.1231 0.921855 -0.280883 0.266902
-4.32825 13.2369 94.6465 0.917271 -0.270091 0.292685
-4.3388 12.6112 94.1283 0.910536 -0.266382 0.316036
-4.32466 11.7002 93.3547 0.901405 -0.25482 0.350051
-4.28797 11.1318 92.8336 0.883333 -0.26266 0.388242
-4.20718 10.5723 92.2645 0.87529 -0.270462 0.400483
-4.08557 9.96392 91.6242 0.867472 -0.273215 0.415655
-3.90006 9.22135 90.876 0.847894 -0.235004 0.474564
-3.62646 8.42684 90.0464 0.80331 -0.252877 0.538428
-3.34233 7.77068 89.3639 0.782477 -0.209429 0.58483
-3.03154 7.23996 88.797 0.757209 -0.228452 0.611919
-2.62881 6.53192 88.0998 0.700893 -0.187286 0.686683
-2.12856 5.98559 87.4804 0.676767 -0.202122 0.707908
-1.69467 5.50379 87.0032 0.597409 -0.170108 0.783617
-1.22207 4.88921 86.5212 0.587598 -0.163471 0.792427
-0.806238 4.30094 86.1405 0.528807 -0.153913 0.83467
-0.531747 3.59531 85.8297 0.459115 -0.184169 0.86846
-0.469144 2.68784 85.6174 0.431355 -0.176675 0.884714
-0.672916 1.72611 85.4958 0.39885 -0.2142 0.891649
-1.02631 0.739823 85.3892 0.36365 -0.255326 0.895861
-1.43563 -0.147139 85.2938 0.35762 -0.269629 0.894096
-1.87676 -1.08278 85.1524 0.338499 -0.326095 0.882655
-2.20406 -1.80908 84.9953 0.296888 -0.347164 0.888897
-2.52932 -2.52061 84.8343 0.267001 -0.351719 0.896886
-3.03467 -3.32865 84.6377 0.253069 -0.377561 0.890732
-3.77396 -2.98136 85.0279 0.288415 -0.424773 0.858129
-4.30377 -2.41758 85.5259 0.339331 -0.459828 0.820617
-4.7158 -1.90789 85.9674 0.401623 -0.441449 0.802014
-5.24739 -1.2177 86.6478 0.445048 -0.454884 0.771094
-5.62315 -0.69527 87.2088 0.476033 -0.477148 0.73873
-6.00394 -0.171051 87.8104 0.544104 -0.452936 0.706258
-6.30152 0.283616 88.3314 0.577774 -0.461855 0.671162
-6.61082 0.923173 89.0984 0.63325 -0.470973 0.61315
-6.83116 1.64435 89.9229 0.676265 -0.476465 0.560522
-6.94762 2.42037 90.7676 0.713281 -0.466379 0.522704
-6.96445 3.01874 91.3626 0.743538 -0.456873 0.487545
-7.01072 3.54907 91.9018 0.764097 -0.443441 0.467768
-7.02034 3.91946 92.2964 0.772405 -0.453588 0.444578
-7.95667 3.18477 93.2498 0.791521 -0.476892 0.381888
-7.98099 3.70446 93.9653 0.807754 -0.46012 0.368532
-8.03697 4.23397 94.8213 0.832638 -0.454663 0.316221
-8.34827 4.29457 95.7482 0.848019 -0.440917 0.294033
-8.45568 4.55114 96.4723 0.850971 -0.446099 0.277171
-8.1854 5.24882 96.7446 0.864145 -0.436874 0.249789
-7.85292 6.05133 96.9569 0.874445 -0.413545 0.253625
-7.72326 6.73915 97.6158 0.875879 -0.40724 0.258826
-7.63488 7.27434 98.2007 0.887881 -0.399532 0.228055
-7.55013 7.78107 98.7602 0.890153 -0.399432 0.219277
-7.38799 8.65682 99.6852 0.901722 -0.383312 0.199925
-7.232 9.4889 100.596 0.916967 -0.358923 0.174202
-7.09316 10.1619 101.265 0.92036 -0.357217 0.159163
-6.94278 10.8223 101.866 0.920764 -0.35493 0.16192
-6.79552 11.4533 102.388 0.925993 -0.34563 0.15169
-6.64805 12.065 102.897 0.929208 -0.339226 0.146624
-6.49278 12.7355 103.491 0.931412 -0.337143 0.137004
-6.32835 13.4105 104.016 0.932932 -0.334198 0.133974
-6.12077 14.2185 104.579 0.936407 -0.327041 0.127226
-5.90657 15.0378 105.109 0.937689 -0.324235 0.124945
-5.72028 15.7373 105.532 0.939346 -0.320687 0.121598
-5.49397 16.5995 106.046 0.939933 -0.31983 0.119291
-5.26276 17.4481 106.484 0.941014 -0.316288 0.120208
-5.02845 18.2939 106.872 0.941535 -0.315807 0.117378
-4.78833 19.1542 107.214 0.943212 -0.31107 0.116523
-4.49946 19.7258 106.417 0.944109 -0.306109 0.122295
-4.32837 19.9383 105.641 0.943245 -0.30698 0.126693
-4.12918 20.121 104.612 0.942699 -0.307474 0.129534
-3.8394 20.4963 103.402 0.943419 -0.303483 0.133637
-3.64955 20.7739 102.69 0.943769 -0.301976 0.134554
-3.4003 21.0991 101.686 0.944404 -0.299688 0.13521
-3.23044 21.2976 100.946 0.945114 -0.295897 0.138571
-3.04978 21.5122 100.181 0.945531 -0.293209 0.141422
-2.87694 21.7138 99.438 0.946602 -0.287729 0.145456
-2.76088 21.637 98.5226 0.94776 -0.284503 0.144228
-2.93866 20.7844 98.0221 0.947166 -0.283707 0.149586
-3.0726 20.0808 97.5903 0.947194 -0.276445 0.162484
-3.21971 19.2907 97.1389 0.947143 -0.270113 0.173088
-3.38021 18.3265 96.5615 0.9438 -0.268298 0.192768
-3.47268 17.6188 96.0706 0.942589 -0.262084 0.206874
-3.60193 16.7632 95.6163 0.942841 -0.248153 0.222422
-3.67849 16.0945 95.1714 0.935489 -0.263536 0.23526
-3.71106 15.3795 94.5585 0.934059 -0.249517 0.255413
-3.73717 14.6157 93.968 0.931358 -0.23331 0.279532
-3.76147 13.7687 93.3644 0.919364 -0.236321 0.314519
-3.72708 13.0076 92.719 0.908042 -0.239554 0.343618
-3.65356 12.2807 92.0669 0.905429 -0.217336 0.364641
-3.49358 11.4657 91.2787 0.87962 -0.218969 0.421439
-3.31499 10.783 90.5763 0.851861 -0.213881 0.478108
-3.13472 10.1752 89.995 0.852735 -0.199203 0.482868
-2.80063 9.31 89.1698 0.824679 -0.184674 0.534603
-2.54196 8.80559 88.6678 0.781729 -0.143557 0.60687
-2.10146 8.06504 87.9599 0.741884 -0.143944 0.654896
-1.74506 7.56925 87.4829 0.691856 -0.130959 0.710033
-1.28775 7.04815 86.9622 0.651698 -0.0980869 0.75211
-0.71446 6.42242 86.4232 0.609567 -0.0845372 0.788214
-0.285349 5.91922 86.05 0.542093 -0.0606875 0.837974
0.248886 5.23987 85.6427 0.508513 -0.12757 0.851552
0.646016 4.50214 85.3335 0.460112 -0.0831206 0.883346
0.917914 3.64302 85.1176 0.419239 -0.11408 0.900397
0.860808 2.54237 84.9785 0.405527 -0.141692 0.903034
0.686782 1.7857 84.9214 0.385205 -0.166394 0.907706
0.47789 1.04183 84.8619 0.356303 -0.201847 0.912308
0.0791945 0.072199 84.7873 0.326171 -0.231094 0.916603
-0.343527 -0.864479 84.7021 0.304077 -0.258933 0.916439
-0.746782 -1.77739 84.5591 0.256616 -0.258254 0.931192
-1.10035 -2.54813 84.416 0.235372 -0.283248 0.929715
-1.55177 -3.60298 84.1522 0.206435 -0.350608 0.913332
-1.82857 -4.36284 83.9081 0.185052 -0.382182 0.904997
-2.45709 -5.03215 83.7237 0.165575 -0.405892 0.898797
-3.20474 -4.87696 83.9321 0.181409 -0.441221 0.878849
-4.1698 -4.45103 84.3848 0.240612 -0.458666 0.855413
-4.78896 -4.03076 84.8037 0.279257 -0.472492 0.835923
-5.2742 -3.48705 85.3099 0.318639 -0.513192 0.796934
-5.75975 -2.93017 85.8788 0.396196 -0.498159 0.771276
-6.1872 -2.37327 86.4619 0.455494 -0.496392 0.738778
-6.51881 -1.91428 86.9856 0.471495 -0.493365 0.730947
-6.90136 -1.37743 87.6188 0.510718 -0.513805 0.688102
-7.20894 -0.850224 88.2637 0.556232 -0.511637 0.654056
-7.47847 -0.435458 88.8705 0.611258 -0.52384 0.593229
-7.68423 0.0671165 89.5185 0.631635 -0.529029 0.565395
-7.78242 0.607869 90.1567 0.666636 -0.523212 0.530551
-7.89756 1.08042 90.796 0.697947 -0.530232 0.48127
-7.97873 1.70382 91.5792 0.731768 -0.500027 0.462781
-7.96658 2.42471 92.3792 0.748906 -0.487155 0.448489
-7.95899 2.84723 92.8536 0.790599 -0.468398 0.394407
-8.9297 1.86929 93.5414 0.767496 -0.518447 0.377045
-8.94084 1.41438 92.9386 0.75996 -0.535546 0.367717
-9.0035 0.871759 92.3007 0.73408 -0.53974 0.412076
-8.93872 0.282345 91.4352 0.690629 -0.565317 0.451035
-8.83271 -0.117302 90.7898 0.676076 -0.558456 0.48039
-8.78798 -0.722693 90.0799 0.638501 -0.567141 0.518815
-8.60428 -1.32884 89.1718 0.612521 -0.579285 0.537817
-8.3466 -1.72984 88.5392 0.557778 -0.588675 0.585103
-7.94836 -2.43052 87.5895 0.489964 -0.571023 0.658523
-7.54211 -2.95425 86.8542 0.462248 -0.558941 0.688412
-7.13298 -3.60605 86.1035 0.416567 -0.543082 0.729064
-6.74987 -4.03922 85.5744 0.323263 -0.539452 0.776675
-6.29515 -4.51598 85.0349 0.308543 -0.56864 0.762528
-5.86368 -5.04247 84.528 0.264352 -0.523359 0.810005
-5.27161 -5.42687 84.1038 0.219417 -0.523705 0.822775
-4.5548 -5.75674 83.7284 0.181186 -0.493794 0.849927
-3.876 -6.09296 83.4176 0.155699 -0.477544 0.864693
-3.20474 -6.39522 83.1621 0.112279 -0.449399 0.886247
-2.37685 -6.53549 82.9952 0.0912085 -0.432448 0.896984
-1.60437 -6.2719 83.0368 0.0965492 -0.422788 0.901066
-0.891151 -5.51871 83.2901 0.0783524 -0.379495 0.921861
-0.524592 -4.83394 83.5098 0.102517 -0.346718 0.93235
-0.294978 -4.10109 83.7304 0.170946 -0.324655 0.930256
0.0636634 -3.25667 83.9306 0.209085 -0.269588 0.940003
0.389981 -2.48631 84.0715 0.211814 -0.248884 0.945088
0.73001 -1.74147 84.1616 0.249121 -0.231396 0.940347
1.05072 -1.03957 84.2311 0.280601 -0.202803 0.938155
1.4561 -0.103881 84.2967 0.272844 -0.168823 0.94713
1.79999 0.786595 84.3411 0.308156 -0.145942 0.940075
2.01732 1.71076 84.4014 0.30973 -0.115235 0.943816
2.29205 2.66912 84.4112 0.378136 -0.100252 0.920306
2.36897 3.58181 84.4698 0.393761 -0.0649677 0.916626
2.20099 4.41173 84.5897 0.407224 -0.0387203 0.912448
1.71015 5.49735 84.8684 0.458347 -0.0280401 0.888141
1.19156 6.24612 85.1427 0.49069 -0.031048 0.869615
0.683631 6.85351 85.4828 0.52141 -0.0258785 0.852914
0.169821 7.40462 85.85 0.570964 -0.00145255 0.820974
-0.326129 7.92566 86.2526 0.645644 -0.0391235 0.762635
-0.95867 8.61259 86.8424 0.652947 -0.0598803 0.755033
-1.3864 9.16242 87.3638 0.731355 -0.085856 0.676571
-1.74432 9.74884 87.8509 0.776315 -0.103608 0.621479
-2.0347 10.2653 88.3224 0.801224 -0.121462 0.584948
-2.3205 10.8663 88.8836 0.835893 -0.13777 0.53044
-2.59143 11.5438 89.5318 0.861177 -0.155159 0.483235
-2.76955 12.0944 90.0566 0.883002 -0.157064 0.441734
-2.97829 13.0308 90.8722 0.901033 -0.1738 0.396587
-3.08261 13.5688 91.3872 0.910613 -0.193057 0.365395
-3.17972 14.3321 92.0633 0.923658 -0.207495 0.322111
-3.20367 15.099 92.6285 0.934175 -0.200161 0.294805
-3.18908 15.9085 93.191 0.93433 -0.223461 0.277364
-3.19105 16.6248 93.8089 0.936179 -0.227649 0.267854
-3.15326 17.2927 94.3317 0.942876 -0.242334 0.228497
-3.06539 18.0586 94.7598 0.945285 -0.242156 0.218323
-2.96258 18.8569 95.2441 0.945849 -0.248491 0.20886
-2.8434 19.7368 95.8136 0.950941 -0.250096 0.18211
-2.73273 20.4404 96.2242 0.949867 -0.263777 0.167853
-2.58068 21.2632 96.671 0.949765 -0.269426 0.159236
-2.39911 22.1393 97.135 0.949573 -0.278085 0.144845
-2.20865 23.055 97.6674 0.948647 -0.284357 0.138595
-2.19372 23.4166 98.3087 0.948191 -0.287394 0.135356
-2.33832 23.2962 99.0743 0.947434 -0.290565 0.133944
-2.55852 22.9943 99.9632 0.94582 -0.294655 0.136366
-2.76341 22.7306 100.828 0.945394 -0.296704 0.134892
-2.97116 22.4854 101.749 0.945141 -0.298685 0.132268
-3.20614 22.1898 102.759 0.944826 -0.30015 0.131197
-3.40895 21.9198 103.596 0.944244 -0.302572 0.129823
-3.65737 21.5262 104.483 0.943659 -0.304558 0.129427
-3.86283 21.3307 105.536 0.943773 -0.305135 0.127218
-4.06948 21.1373 106.622 0.944283 -0.304863 0.12405
-4.28144 20.8188 107.467 0.945373 -0.302494 0.121501
-4.45976 20.567 108.236 0.946879 -0.299796 0.116371
-4.64323 20.3056 109.059 0.947056 -0.300371 0.113411
-4.89927 19.5094 109.08 0.946207 -0.303622 0.111818
-5.13241 18.6495 108.693 0.945238 -0.307394 0.109701
-5.3237 17.9236 108.28 0.943418 -0.312455 0.111026
-5.51061 17.2269 107.915 0.942065 -0.315971 0.112544
-5.79757 16.234 107.501 0.941124 -0.319229 0.111251
-5.97186 15.5741 107.072 0.940284 -0.320765 0.113858
-6.13864 14.917 106.593 0.938122 -0.325822 0.117333
-6.35185 14.1533 106.165 0.936615 -0.329577 0.118877
-6.53534 13.4936 105.775 0.936104 -0.331459 0.117661
-6.73336 12.7678 105.294 0.93431 -0.335921 0.119245
-6.8913 12.1552 104.814 0.933247 -0.336841 0.124767
-7.02459 11.5874 104.275 0.930221 -0.343629 0.12887
-7.26909 10.673 103.578 0.929478 -0.346795 0.125716
-7.42551 10.0713 103.098 0.922933 -0.357346 0.142993
-7.55016 9.53118 102.527 0.920296 -0.363955 0.143499
-7.69032 8.94427 101.96 0.918554 -0.366227 0.148675
-7.85215 8.32458 101.392 0.912763 -0.377138 0.156943
-7.96889 7.80547 100.823 0.908837 -0.386734 0.156026
-8.09507 7.27838 100.257 0.899476 -0.396374 0.183929
-8.24432 6.67122 99.6592 0.896281 -0.407504 0.174987
-8.44867 5.85451 98.8589 0.883862 -0.421368 0.20277
-8.61045 5.2788 98.3469 0.878667 -0.430646 0.206126
-8.80117 4.65057 97.8463 0.867046 -0.446661 0.220738
-9.15537 3.78661 97.4903 0.860416 -0.455817 0.227848
-9.25222 3.33002 96.9909 0.845177 -0.473473 0.246568
-9.03905 3.25288 96.1006 0.832803 -0.491312 0.254702
-8.95873 2.96432 95.3708 0.819478 -0.494697 0.289361
-8.95612 2.57724 94.7099 0.798169 -0.50297 0.331583
-8.9327 1.99663 93.7226 0.776699 -0.525762 0.345198
-9.87678 0.839998 94.0589 0.763108 -0.570226 0.304152
-9.95511 0.374051 93.433 0.75315 -0.560638 0.343408
-10.0363 -0.32924 92.4603 0.720113 -0.595357 0.356307
-9.93365 -0.651273 91.7749 0.685252 -0.597862 0.41504
-9.89793 -1.22977 90.949 0.660593 -0.604259 0.44552
-9.90643 -1.83435 90.1478 0.616839 -0.632119 0.468973
-9.75256 -2.2277 89.4356 0.608711 -0.621523 0.493133
-9.4883 -2.59172 88.7211 0.549819 -0.60966 0.570371
-9.3323 -3.15427 88.0167 0.513797 -0.60363 0.609525
-8.96315 -3.44593 87.4327 0.481246 -0.602688 0.63653
-8.60795 -4.0022 86.6518 0.457242 -0.596572 0.659114
-8.23505 -4.56 85.8984 0.378141 -0.627787 0.679948
-7.82606 -4.97427 85.3433 0.352694 -0.608075 0.711225
-7.34114 -5.41682 84.769 0.294506 -0.597252 0.745731
-6.95142 -5.87391 84.3078 0.259272 -0.577896 0.773647
-6.28417 -6.37548 83.7373 0.211822 -0.56345 0.79826
-5.63862 -6.67962 83.3725 0.169771 -0.540341 0.823768
-5.0356 -7.04893 83.0251 0.109453 -0.5463 0.82978
-4.18989 -7.41893 82.6927 0.0968398 -0.497813 0.861538
-3.29272 -7.84365 82.3774 0.0505501 -0.48477 0.872868
-2.37892 -7.96059 82.2832 0.00364337 -0.477237 0.878246
-1.52914 -7.76353 82.3551 0.0343452 -0.415918 0.908726
-0.774008 -7.46904 82.4537 0.0248638 -0.390431 0.920074
-0.0803767 -6.7924 82.7226 0.00088421 -0.376744 0.926272
0.31684 -6.16568 82.9458 0.0126096 -0.339791 0.940416
0.704253 -5.48737 83.1502 0.0746296 -0.301344 0.950453
0.934122 -4.77669 83.368 0.0855208 -0.299481 0.950097
1.25759 -4.09292 83.5074 0.134317 -0.215643 0.966208
1.56293 -3.26158 83.6451 0.188303 -0.209025 0.959388
1.92594 -2.447 83.7321 0.185468 -0.190697 0.963873
2.23524 -1.7406 83.7913 0.206334 -0.16838 0.963885
2.57404 -0.888772 83.8465 0.245672 -0.146516 0.958216
2.87772 -0.144471 83.8786 0.243226 -0.136982 0.960248
3.17482 0.69644 83.9017 0.282261 -0.121845 0.951568
3.48441 1.63889 83.908 0.295767 -0.0842145 0.951541
3.76039 2.40795 83.8537 0.357299 -0.0301654 0.93304
3.81266 3.45756 83.888 0.351746 -0.0485608 0.93483
3.69229 4.31877 83.966 0.368103 -0.0215098 0.929536
3.4258 5.12525 84.0781 0.357171 0.0117299 0.933965
2.86847 6.18785 84.2964 0.415085 0.0327483 0.909193
2.29614 7.06044 84.5332 0.466748 0.0517528 0.882875
1.76636 7.62008 84.8029 0.521431 0.0555454 0.850462
1.13304 8.31188 85.1739 0.583658 0.0365505 0.811177
0.352621 9.02951 85.731 0.612704 0.0144272 0.790181
-0.121609 9.60083 86.118 0.68713 0.00890227 0.726206
-0.588942 10.0633 86.5383 0.717384 0.0028862 0.694536
-0.981242 10.6756 87.0056 0.753759 -0.0217945 0.656775
-1.30416 11.2137 87.4451 0.811455 0.00995574 0.58433
-1.64703 11.8016 88.0075 0.860582 -0.0645814 0.5052
-1.94665 12.4604 88.583 0.886278 -0.0314729 0.457142
-2.15234 13.0409 89.1154 0.892255 -0.0807329 0.444255
-2.31914 13.7082 89.6329 0.904411 -0.122637 0.408657
-2.49125 14.4563 90.2983 0.915223 -0.149097 0.374349
-2.62365 14.9745 90.8424 0.928229 -0.170236 0.330366
-2.68171 15.8838 91.4962 0.942687 -0.146727 0.299686
-2.69275 16.6252 92.0053 0.953151 -0.17486 0.246833
-2.72167 17.395 92.6992 0.948694 -0.198275 0.246307
-2.68819 18.1383 93.2191 0.947734 -0.221214 0.229923
-2.59676 18.9895 93.6923 0.956865 -0.216784 0.193429
-2.52783 19.7049 94.1818 0.95272 -0.235993 0.19135
-2.43546 20.4507 94.6389 0.951796 -0.243263 0.186547
-2.31773 21.2732 95.1214 0.954047 -0.246221 0.1705
-2.20267 21.9607 95.5278 0.953641 -0.260964 0.149877
-2.02925 22.7239 95.8012 0.953004 -0.266712 0.143651
-1.88788 23.3868 96.1295 0.953426 -0.271587 0.131224
-1.71906 24.2152 96.6425 0.951009 -0.279897 0.131296
-1.57247 24.9133 97.1062 0.948496 -0.290635 0.126042
-1.68433 24.8743 97.8518 0.948542 -0.289749 0.127726
-1.82701 24.7765 98.6788 0.947681 -0.291413 0.130294
-2.08135 24.4799 99.8681 0.946991 -0.295071 0.127039
-2.34577 24.095 100.909 0.943349 -0.302196 0.136765
-2.56895 23.8499 101.955 0.94683 -0.294796 0.128799
-2.83089 23.4802 103.017 0.943647 -0.302829 0.133417
-3.03933 23.243 103.984 0.945252 -0.300174 0.128022
-3.23595 22.9319 104.706 0.944232 -0.303502 0.12772
-3.4186 22.6895 105.482 0.944435 -0.303063 0.12726
-3.55699 22.6066 106.312 0.944566 -0.30294 0.126575
-3.78313 22.3229 107.325 0.944889 -0.301739 0.127034
-3.96362 22.058 108.052 0.946298 -0.297895 0.125612
-4.14325 21.8159 108.857 0.948165 -0.294576 0.119198
-4.29063 21.6418 109.616 0.948344 -0.29614 0.113761
-4.43749 21.4529 110.361 0.949188 -0.294812 0.110128
-4.6944 20.8916 111.072 0.949199 -0.294708 0.110306
-4.91126 20.1175 110.855 0.948653 -0.297857 0.106483
-5.15632 19.2154 110.495 0.947957 -0.301341 0.102819
-5.36113 18.4511 110.133 0.94604 -0.30661 0.104853
-5.56257 17.7272 109.822 0.945399 -0.309805 0.101203
-5.74428 17.0458 109.43 0.943264 -0.314589 0.106237
-5.94888 16.3142 109.064 0.942772 -0.316939 0.103575
-6.17781 15.5092 108.669 0.942131 -0.31913 0.102689
-6.39001 14.6976 108.072 0.940076 -0.323686 0.107163
-6.70779 13.5905 107.477 0.937777 -0.33026 0.107252
-6.88472 12.9369 107.018 0.936036 -0.333736 0.111601
-7.09751 12.1785 106.529 0.935752 -0.334199 0.112599
-7.30364 11.4308 106.006 0.934468 -0.337493 0.113439
-7.44406 10.8437 105.409 0.933807 -0.339878 0.111751
-7.60901 10.2526 104.969 0.929918 -0.350281 0.11203
-7.82282 9.53849 104.496 0.928894 -0.353125 0.111603
-7.97227 8.98128 103.967 0.923297 -0.363625 0.123694
-8.08859 8.49259 103.394 0.921683 -0.366751 0.126469
-8.29626 7.77567 102.784 0.915884 -0.377787 0.135753
-8.49172 7.08395 102.095 0.909491 -0.391889 0.138645
-8.65939 6.47344 101.427 0.902986 -0.402767 0.149349
-8.85913 5.77986 100.738 0.896283 -0.41512 0.15601
-9.01552 5.23776 100.199 0.892213 -0.422856 0.158551
-9.17081 4.68218 99.5961 0.883377 -0.436183 0.171196
-9.38692 3.99605 98.9122 0.877549 -0.442679 0.183444
-9.59215 3.3542 98.3038 0.862873 -0.464692 0.19861
-9.77133 2.64828 97.487 0.856026 -0.471748 0.21136
-9.7536 2.27612 96.5608 0.831949 -0.516843 0.201169
-9.82711 1.73005 95.6204 0.800983 -0.535651 0.267234
-9.91048 1.2016 94.8074 0.788881 -0.539525 0.293251
-9.89498 0.987173 94.3805 0.763107 -0.570228 0.304149
-5.86376 7.45088 93.4052 0.838769 -0.374286 0.395445
-5.60088 7.51722 92.9136 0.833798 -0.34755 0.428388
-5.76259 7.99997 93.67 0.847153 -0.347746 0.401751
-5.86863 7.48501 93.4478 0.842961 -0.361017 0.398597
-5.5796 10.7243 95.9814 0.899844 -0.334404 0.280097
-5.52502 11.0042 96.1402 0.904211 -0.322548 0.279653
-5.50956 11.5391 96.6978 0.90845 -0.320252 0.26862
-5.58035 11.832 97.334 0.915964 -0.319188 0.243163
-5.44642 12.561 97.8068 0.91679 -0.326242 0.230355
-5.3834 13.182 98.4575 0.924365 -0.317709 0.211078
-5.1439 13.9397 98.5189 0.928531 -0.307959 0.207343
-5.24777 13.2852 98.0111 0.923717 -0.311725 0.222651
-5.33534 12.6796 97.5327 0.920406 -0.317898 0.227383
-5.49502 11.9705 97.1944 0.916202 -0.318298 0.243431
-5.50518 11.6196 96.779 0.90845 -0.320254 0.26862
-5.13432 14.0028 98.5721 0.92776 -0.315174 0.199819
-5.29329 14.0035 99.3224 0.930508 -0.312966 0.190283
-5.18903 14.5918 99.7855 0.929818 -0.317328 0.186392
-5.08172 15.3306 100.52 0.932387 -0.317512 0.172743
-4.93412 16.0153 100.979 0.936402 -0.312967 0.158752
-4.74542 16.7086 101.237 0.936137 -0.31432 0.157642
-4.55491 16.9422 100.558 0.938921 -0.302671 0.163613
-4.65091 16.309 99.9562 0.937567 -0.304169 0.168671
-4.86852 15.3736 99.4899 0.932682 -0.309614 0.18505
