-7.21636 27.7879 48.4338 -0.201909 0.686216 0.698771
-6.2876 27.6968 48.7663 -0.177541 0.695465 0.696281
-6.2876 27.6968 48.7663 -0.177541 0.695465 0.696281
-5.53846 27.6642 48.9629 -0.141722 0.694197 0.705695
-4.67962 27.459 49.368 -0.14118 0.717224 0.682167
-3.55833 27.3726 49.6534 -0.0994403 0.721952 0.684685
-2.61607 27.5001 49.6439 -0.0892099 0.720255 0.687948
-1.83292 27.4784 49.732 -0.0513623 0.730915 0.680533
-0.867096 27.5607 49.6941 -0.00893294 0.724893 0.688804
-0.186361 27.6247 49.6344 -0.0074171 0.725678 0.687995
1.12942 27.9047 49.3064 0.0375039 0.727536 0.685043
1.91244 27.8576 49.3153 0.0611156 0.70239 0.709067
2.72235 27.6136 49.4757 0.081614 0.729306 0.679303
3.54804 27.5947 49.4093 0.0865171 0.701346 0.707351
4.37084 27.472 49.3894 0.126797 0.692699 0.709993
3.64806 27.2422 49.7624 0.109079 0.726633 0.677814
2.98167 26.9582 50.1477 0.0832813 0.72789 0.680618
2.23593 26.9252 50.2732 0.0624966 0.726523 0.684005
1.22446 26.9831 50.2761 0.0464924 0.731127 0.680559
0.279875 26.9347 50.3621 0.00915675 0.734894 0.67812
-0.532686 26.907 50.395 -0.0148664 0.734544 0.678399
-1.27892 26.9697 50.3106 -0.011904 0.729718 0.683602
-1.94759 26.9541 50.2909 -0.0436476 0.738486 0.672855
-2.71869 27.0538 50.1126 -0.104236 0.740783 0.663608
-3.56599 27.0669 49.9785 -0.0977611 0.733776 0.672302
-4.10193 27.5322 49.3965 -0.12457 0.715617 0.687295
-4.78307 27.1979 49.621 -0.141182 0.717227 0.682165
-5.38319 27.436 49.2285 -0.157791 0.718834 0.677038
-6.14091 27.1664 49.3376 -0.17263 0.71367 0.678767
-6.91367 27.3337 48.967 -0.180581 0.693011 0.697944
-7.59312 27.453 48.6554 -0.205721 0.690437 0.693524
-8.23508 27.6715 48.2575 -0.231416 0.671054 0.704367
-7.65041 27.7731 48.326 -0.198098 0.681994 0.704018
-8.76743 27.991 47.7791 -0.227674 0.662414 0.713608
-8.80317 27.9317 47.8237 -0.229815 0.670463 0.705453
-9.60259 26.825 48.5931 -0.276139 0.663176 0.695577
-10.3361 27.1221 48.0288 -0.27527 0.655119 0.703595
-10.906 27.4269 47.5226 -0.294701 0.632373 0.716418
-11.4711 27.8071 46.9682 -0.282997 0.622108 0.729996
-11.9299 28.337 46.3619 -0.272716 0.599789 0.752249
-12.1565 28.9886 45.7661 -0.264596 0.576713 0.772642
-11.5917 29.3929 45.6577 -0.264596 0.576714 0.772641
-10.8279 29.347 45.9614 -0.236513 0.599434 0.764684
-9.98282 29.3053 46.2555 -0.245193 0.609985 0.753315
-9.1298 29.2707 46.5482 -0.213848 0.62773 0.748481
-8.28935 29.2138 46.836 -0.215123 0.625412 0.750048
-7.5259 29.0867 47.1457 -0.190753 0.648655 0.73679
-6.73737 28.9618 47.4462 -0.160937 0.660463 0.733205
-5.91566 28.8536 47.7382 -0.16811 0.671336 0.721836
-5.15125 28.7852 47.946 -0.129967 0.672022 0.729037
-4.21183 28.6925 48.2092 -0.0994219 0.693673 0.713396
-3.38957 28.631 48.3836 -0.105605 0.698854 0.707354
-2.6223 28.6068 48.5059 -0.0732574 0.705195 0.705219
-1.79788 28.6074 48.5775 -0.0456162 0.70269 0.710033
-1.00028 28.645 48.5829 -0.0268775 0.709952 0.703737
-0.0430471 28.8335 48.4215 0.00706376 0.704396 0.709628
1.18556 29.1147 48.1225 0.0134031 0.6902 0.723495
2.07511 29.0687 48.1043 0.0566653 0.686059 0.725336
2.81475 28.8914 48.2147 0.071879 0.674524 0.73432
3.66567 28.6647 48.3173 0.101938 0.70506 0.701782
4.53548 28.4782 48.3784 0.114367 0.698879 0.705888
5.28456 28.3761 48.3275 0.139588 0.674287 0.725156
6.37365 28.45 48.025 0.176613 0.676034 0.715392
7.11069 28.6488 47.6552 0.169222 0.661979 0.729853
7.88949 28.9613 47.1826 0.193632 0.651157 0.733827
9.05247 29.133 46.6919 0.222454 0.629715 0.744066
10.0072 29.1704 46.3717 0.251932 0.613982 0.748035
10.9219 29.3786 45.908 0.255079 0.587836 0.767416
11.7043 29.6635 45.4126 0.271128 0.577824 0.769796
12.1997 29.4382 45.4091 0.26749 0.576096 0.772375
12.4535 28.8207 45.7785 0.299597 0.556244 0.77505
11.9754 28.0703 46.552 0.296639 0.587338 0.75302
11.5055 27.6554 47.0925 0.303819 0.613436 0.728966
10.9994 27.3149 47.5963 0.296925 0.627991 0.719349
10.3796 27.0649 48.0724 0.272741 0.656659 0.703144
9.80197 26.8422 48.5007 0.265899 0.655338 0.706987
9.06749 26.5865 49.023 0.247923 0.678157 0.691836
8.22903 26.4682 49.4297 0.225699 0.687275 0.690444
7.47966 26.3825 49.7605 0.20327 0.706713 0.677643
6.77245 26.2996 50.0559 0.198778 0.71027 0.675281
6.02947 26.2058 50.3496 0.16745 0.709552 0.684468
5.1683 26.1083 50.6797 0.169945 0.733024 0.658563
4.16349 26.0061 50.9999 0.123979 0.742169 0.658642
3.34499 25.979 51.1661 0.0945322 0.742492 0.663151
2.51769 25.9474 51.3199 0.0717977 0.740613 0.667671
1.29957 25.916 51.4427 0.0516645 0.746947 0.662758
-0.0914878 25.8722 51.5396 0.0202789 0.751263 0.659691
-1.10034 25.8884 51.5055 -0.0203488 0.753638 0.656975
-1.96619 25.9319 51.4137 -0.0408399 0.739073 0.672386
-2.71938 25.9472 51.3335 -0.0756285 0.743461 0.664489
-3.49598 26.047 51.1063 -0.110449 0.743727 0.659295
-4.40716 26.0781 50.9012 -0.132924 0.733133 0.666969
-5.31701 26.0963 50.6803 -0.164555 0.727771 0.665786
-6.18619 26.1485 50.4024 -0.179329 0.721155 0.669161
-6.91742 26.2314 50.1111 -0.204066 0.714892 0.66868
-7.62752 26.3233 49.7905 -0.207932 0.709031 0.673825
-8.2919 26.4615 49.4255 -0.22857 0.696396 0.680285
-9.15309 26.6866 48.895 -0.253752 0.672639 0.695102
-9.50464 26.7945 48.6622 -0.26505 0.671816 0.691571
-10.1868 25.6907 49.4637 -0.292748 0.682521 0.669674
-10.7948 25.8463 49.0383 -0.321832 0.659278 0.679461
-11.4993 26.1615 48.4217 -0.318648 0.64529 0.694308
-11.9977 26.4421 47.929 -0.322765 0.629824 0.706399
-12.6243 26.7738 47.3575 -0.332717 0.616353 0.713645
-13.0825 27.2452 46.7551 -0.337163 0.586407 0.73651
-13.4906 27.6915 46.2251 -0.319162 0.567746 0.758815
-13.8074 28.3879 45.5876 -0.306016 0.548807 0.777848
-13.9517 29.1059 45.0318 -0.286455 0.534164 0.795232
-13.9826 29.7699 44.5641 -0.274072 0.534897 0.799231
-14.0553 30.6625 43.9735 -0.251549 0.517034 0.818029
-13.2741 31.0406 43.9797 -0.253588 0.531277 0.808355
-12.4136 31.0096 44.2594 -0.233757 0.534771 0.812021
-11.7126 30.9225 44.518 -0.238981 0.543211 0.804762
-10.9616 30.7225 44.8856 -0.229928 0.562889 0.793907
-9.78907 30.5469 45.3513 -0.232252 0.58632 0.775957
-9.0135 30.4765 45.6096 -0.20506 0.590207 0.780772
-8.05733 30.4606 45.8606 -0.172917 0.609489 0.773533
-7.18409 30.3226 46.1797 -0.181123 0.619691 0.76366
-6.4886 30.189 46.4355 -0.140299 0.619436 0.772409
-5.72272 30.0916 46.6693 -0.153295 0.650155 0.744176
-4.96445 30.0214 46.8676 -0.123446 0.644837 0.754285
-4.22392 29.9367 47.0519 -0.105188 0.657966 0.74552
-3.21473 29.8325 47.2947 -0.0837175 0.674709 0.732851
-2.39736 29.737 47.4476 -0.0577678 0.678657 0.73218
-1.60458 29.7138 47.5364 -0.0523437 0.659451 0.749688
-0.764909 29.8017 47.4817 -0.0278532 0.683299 0.729607
0.0736061 30.1227 47.2131 -0.00266192 0.6807 0.732115
0.782347 30.306 47.0368 0.0132788 0.665016 0.746711
1.91154 30.3195 46.979 0.056833 0.661026 0.748208
2.81906 30.2161 47.0045 0.0702165 0.646015 0.759748
3.60096 29.8981 47.1894 0.0856432 0.65307 0.752439
4.32569 29.6947 47.2772 0.119835 0.6525 0.748241
5.21891 29.5467 47.2593 0.122797 0.6499 0.750034
5.94479 29.6376 47.0439 0.155462 0.654026 0.740325
6.64796 29.9381 46.6308 0.150533 0.639154 0.753918
7.44684 30.1937 46.244 0.178638 0.623888 0.760797
8.13477 30.3998 45.9119 0.198162 0.620634 0.758475
9.17381 30.3739 45.6574 0.198639 0.590636 0.782107
10.4229 30.5798 45.1361 0.239001 0.588223 0.772575
10.9781 30.9355 44.728 0.21894 0.559519 0.799377
11.645 31.2092 44.3342 0.240116 0.561138 0.792129
12.4987 31.3268 44.0021 0.245934 0.530343 0.811264
13.2807 31.1649 43.8621 0.254057 0.524374 0.812704
14.0352 30.8013 43.8614 0.251833 0.523212 0.813951
14.1372 30.0016 44.3436 0.284565 0.513697 0.809242
14.1283 29.3655 44.7499 0.298216 0.536151 0.789689
14.119 28.6958 45.2165 0.314048 0.542755 0.778967
13.9388 28.1025 45.7178 0.324902 0.559204 0.762712
13.4856 27.5037 46.3729 0.342406 0.578536 0.740307
12.8715 26.8793 47.1601 0.322204 0.617232 0.717781
12.211 26.451 47.8366 0.321759 0.636056 0.701359
11.562 26.0837 48.4699 0.318835 0.65201 0.687915
10.8822 25.8981 48.9556 0.310082 0.651949 0.691962
10.1813 25.5961 49.5544 0.288688 0.67527 0.678726
9.38547 25.4094 50.0753 0.265913 0.694984 0.668047
8.65448 25.3234 50.4518 0.243018 0.700463 0.671039
7.8774 25.2726 50.7904 0.245361 0.719168 0.649923
6.96965 25.1199 51.2662 0.214994 0.722998 0.656541
6.17219 25.0728 51.5576 0.192743 0.742561 0.641447
5.2333 25.0281 51.8659 0.151715 0.744448 0.650215
4.37968 24.974 52.128 0.133148 0.74892 0.648817
3.4046 24.8823 52.3989 0.103697 0.748562 0.654907
2.59759 24.9211 52.4666 0.0731874 0.756401 0.649855
1.59466 24.8419 52.6573 0.0461748 0.761325 0.646718
0.653064 24.887 52.6561 0.0247384 0.759768 0.649724
-0.143365 24.8352 52.7275 -0.003871 0.758068 0.652164
-1.25921 24.8677 52.6661 -0.0264934 0.764657 0.643893
-2.0488 24.8879 52.589 -0.069388 0.754135 0.652864
-2.80034 24.8778 52.5311 -0.0611934 0.746113 0.663001
-3.57592 24.935 52.3521 -0.123034 0.749828 0.650093
-4.28483 25.0135 52.1274 -0.125734 0.7482 0.651441
-5.34601 25.0449 51.8483 -0.162004 0.746536 0.645179
-6.46337 25.1227 51.4525 -0.181709 0.74139 0.645988
-7.39955 25.1918 51.0788 -0.208132 0.72369 0.657952
-8.16668 25.2649 50.7315 -0.232271 0.712909 0.661673
-8.93409 25.4048 50.2897 -0.268122 0.702448 0.659301
-9.66363 25.5468 49.8401 -0.294096 0.682855 0.668743
-9.98419 25.6415 49.6024 -0.293424 0.682685 0.66921
-26.6364 12.6802 47.3776 -0.604577 0.335783 0.722313
-27.0013 13.1706 46.8487 -0.579586 0.340111 0.740542
-27.4335 13.5549 46.3339 -0.573043 0.329218 0.750491
-27.8997 13.9903 45.7931 -0.557367 0.328493 0.762508
-28.7096 14.1926 45.1373 -0.525205 0.323372 0.78714
-29.3926 14.183 44.677 -0.527032 0.296344 0.796503
-30.0383 14.1611 44.2646 -0.51305 0.269872 0.814831
-30.7383 13.9321 43.8879 -0.522415 0.256114 0.813194
-30.996 13.1794 43.9591 -0.544109 0.248905 0.801244
-31.0788 12.2912 44.1755 -0.543768 0.241448 0.803753
-30.9941 11.5018 44.475 -0.559013 0.243371 0.792638
-30.9392 10.5949 44.7774 -0.585975 0.233366 0.775998
-30.8656 9.87054 45.0469 -0.593304 0.192967 0.781508
-30.7772 8.83855 45.3688 -0.605405 0.203761 0.769123
-30.5077 8.08948 45.7846 -0.623843 0.170394 0.762749
-30.1397 7.42481 46.2341 -0.635688 0.179118 0.750635
-29.9907 6.51674 46.57 -0.653098 0.14678 0.742912
-29.9222 5.74015 46.7843 -0.640885 0.15605 0.751608
-29.6956 4.97418 47.1205 -0.66199 0.128421 0.738429
-29.6177 4.14452 47.3179 -0.66143 0.100254 0.743277
-29.5931 3.30431 47.4559 -0.679397 0.0813197 0.729244
-29.3666 2.64184 47.7395 -0.680874 0.078961 0.728131
-29.4319 1.53512 47.7549 -0.675835 0.0479863 0.735489
-29.5581 0.431192 47.677 -0.690491 0.0114243 0.723056
-29.6123 -0.471358 47.6288 -0.67472 0.00320756 0.738066
-29.637 -1.33093 47.5774 -0.682234 -0.0228026 0.730778
-29.8028 -2.43302 47.3435 -0.673234 -0.0665256 0.736298
-30.0499 -3.2209 47.0537 -0.665303 -0.0878046 0.741392
-30.1403 -3.9706 46.8838 -0.662123 -0.092221 0.743675
-30.2641 -4.72052 46.6644 -0.637575 -0.116234 0.76157
-30.3674 -5.93226 46.371 -0.624153 -0.14901 0.766961
-30.4072 -6.79925 46.1705 -0.615319 -0.163198 0.77099
-30.3864 -7.66818 45.986 -0.607112 -0.178869 0.774223
-30.3827 -8.46131 45.8057 -0.601178 -0.19591 0.77452
-30.6004 -9.87265 45.2507 -0.595218 -0.212869 0.774856
-30.7113 -10.628 44.9538 -0.573151 -0.226261 0.787594
-30.8482 -11.3591 44.6442 -0.568695 -0.246951 0.78431
-31.0428 -12.3134 44.2012 -0.540145 -0.24541 0.804995
-30.9457 -13.2329 43.986 -0.53855 -0.255085 0.802991
-30.7978 -14.0927 43.8011 -0.538615 -0.259805 0.801481
-30.0386 -14.0922 44.2967 -0.514544 -0.283844 0.809048
-29.2848 -14.0983 44.7772 -0.529444 -0.292517 0.796318
-28.6276 -14.1591 45.2035 -0.538521 -0.335235 0.773054
-27.937 -13.8932 45.8074 -0.546883 -0.336004 0.766825
-27.446 -13.4735 46.3778 -0.574699 -0.362027 0.733933
-26.9575 -12.9797 46.9846 -0.60609 -0.325647 0.725589
-26.5753 -12.4056 47.5702 -0.616069 -0.325662 0.71722
-26.1611 -11.8459 48.1883 -0.639384 -0.315537 0.701159
-25.9092 -11.3163 48.6645 -0.648864 -0.323519 0.688702
-25.7032 -10.7349 49.1228 -0.666968 -0.305445 0.679583
-25.5401 -10.0438 49.5844 -0.674905 -0.284492 0.680839
-25.3888 -9.43088 49.9973 -0.692852 -0.281838 0.663719
-25.2375 -8.62401 50.4827 -0.704414 -0.25388 0.662831
-25.1304 -7.84703 50.8948 -0.710683 -0.241012 0.660776
-25.0763 -7.01254 51.2431 -0.732935 -0.218869 0.644121
-25.0046 -6.24819 51.5506 -0.729912 -0.194944 0.65509
-24.9819 -5.47085 51.7883 -0.738301 -0.171879 0.652203
-24.9075 -4.71912 52.0564 -0.751632 -0.149195 0.642487
-24.8701 -3.91154 52.2638 -0.750539 -0.115278 0.650694
-24.8948 -2.7016 52.4219 -0.760914 -0.0833153 0.643291
-24.884 -1.49397 52.5613 -0.779845 -0.0492762 0.62403
-24.8344 -0.447137 52.6803 -0.766394 -0.014278 0.642212
-24.8435 0.610615 52.6745 -0.76687 0.0204527 0.641476
-24.9249 1.54233 52.545 -0.764546 0.041886 0.643059
-24.8977 2.47043 52.4914 -0.764916 0.0730423 0.639814
-24.9256 3.25421 52.355 -0.759958 0.0844662 0.644461
-24.9515 4.10255 52.1756 -0.759674 0.122011 0.638756
-25.0336 5.11292 51.863 -0.752416 0.151976 0.640916
-25.0516 6.10208 51.5849 -0.735307 0.180111 0.653363
-25.1035 6.99 51.2594 -0.733469 0.212775 0.645562
-25.2259 7.8425 50.8385 -0.717933 0.232265 0.656209
-25.2911 8.56975 50.4949 -0.706978 0.269131 0.653988
-25.4116 9.26488 50.0871 -0.694725 0.266154 0.668075
-25.5115 9.91558 49.7084 -0.674534 0.300915 0.674132
-25.7076 10.6404 49.185 -0.664753 0.315694 0.677083
-25.9588 11.4442 48.5655 -0.64558 0.331476 0.688005
-26.2716 12.0422 47.9922 -0.61784 0.345411 0.706375
-26.5813 12.5947 47.4634 -0.604578 0.335787 0.722311
-27.578 11.5674 47.0779 -0.60752 0.30812 0.732107
-27.9819 12.0393 46.5504 -0.594638 0.301384 0.745317
-28.4786 12.4288 46.0061 -0.582223 0.290486 0.759276
-29.1647 12.6579 45.4046 -0.560547 0.298479 0.772313
-29.6192 12.0417 45.2953 -0.557971 0.270326 0.784597
-29.5618 10.8046 45.7577 -0.609552 0.247938 0.752976
-29.5104 9.69148 46.1668 -0.60985 0.249159 0.752332
-29.3247 8.89999 46.544 -0.633553 0.217251 0.742424
-29.1023 8.23663 46.9356 -0.646053 0.189236 0.739463
-28.8262 7.30938 47.4141 -0.660283 0.194685 0.725041
-28.7151 6.35293 47.7499 -0.682479 0.15121 0.715093
-28.5581 5.40384 48.0934 -0.680381 0.13728 0.719887
-28.4535 4.5192 48.3534 -0.688036 0.114263 0.716551
-28.3523 3.6887 48.5921 -0.693916 0.119581 0.710057
-28.1999 2.75745 48.8521 -0.696356 0.0592998 0.715242
-28.2746 1.756 48.8663 -0.716233 0.050944 0.695656
-28.3877 0.852726 48.7959 -0.712066 0.0352915 0.701225
-28.4395 -0.122598 48.7549 -0.712245 -0.00676724 0.701898
-28.4038 -1.10236 48.7665 -0.714821 -0.0272839 0.698775
-28.4225 -1.98856 48.7002 -0.707485 -0.0671021 0.703414
-28.598 -2.81169 48.4389 -0.68473 -0.0700484 0.725423
-28.8215 -3.65258 48.1304 -0.687486 -0.103569 0.718774
-28.9601 -4.37235 47.8941 -0.685361 -0.106374 0.720381
-29.1195 -5.3487 47.5697 -0.66365 -0.13699 0.735393
-29.2116 -6.33554 47.2879 -0.661978 -0.169248 0.730164
-29.2624 -7.18142 47.0481 -0.637644 -0.170904 0.751095
-29.2052 -8.37478 46.7893 -0.625433 -0.194794 0.755572
-29.2421 -9.24227 46.5081 -0.626467 -0.224138 0.746526
-29.3299 -9.9499 46.2133 -0.606536 -0.242737 0.757073
-29.402 -10.703 45.9198 -0.604303 -0.238408 0.76025
-29.4746 -11.4947 45.5947 -0.580764 -0.273784 0.766513
-29.2435 -12.4451 45.4418 -0.573858 -0.264207 0.775166
-28.6136 -12.4296 45.9096 -0.571419 -0.311931 0.758836
-28.0357 -11.9858 46.531 -0.592722 -0.297915 0.748186
-27.6333 -11.3825 47.1037 -0.620682 -0.294765 0.726545
-27.1947 -10.6906 47.7456 -0.636971 -0.27662 0.719217
-26.9113 -10.1221 48.2319 -0.653201 -0.277216 0.704613
-26.6572 -9.44903 48.7293 -0.667394 -0.25922 0.698133
-26.4734 -8.62578 49.2107 -0.67837 -0.24114 0.694004
-26.2436 -7.71347 49.7553 -0.700786 -0.232891 0.674282
-26.1419 -6.93436 50.1055 -0.710063 -0.201927 0.674564
-26.1123 -6.15025 50.3604 -0.715829 -0.167144 0.677898
-26.0269 -5.35061 50.6581 -0.721031 -0.17277 0.671017
-25.9598 -4.56188 50.9049 -0.727982 -0.128417 0.673462
-25.9246 -3.69991 51.1074 -0.727554 -0.128998 0.673813
-25.8959 -2.67236 51.2833 -0.745508 -0.0910796 0.660244
-25.853 -1.82904 51.4222 -0.746099 -0.0530257 0.663599
-25.9008 -0.995881 51.4201 -0.753212 -0.0449208 0.65621
-25.9406 0.196382 51.4009 -0.759106 0.0056757 0.650943
-25.8414 1.01306 51.5095 -0.756085 0.0130221 0.654287
-25.9053 2.18455 51.3589 -0.757613 0.0480426 0.650933
-25.9999 3.25723 51.1175 -0.749437 0.0987238 0.654673
-26.0595 4.13058 50.9176 -0.744977 0.108966 0.658027
-26.0671 4.86548 50.7525 -0.739295 0.144881 0.657611
-26.1675 5.64961 50.472 -0.717993 0.152085 0.679204
-26.2661 6.51392 50.1376 -0.707251 0.186086 0.682032
-26.3595 7.54248 49.7449 -0.689589 0.22708 0.687678
-26.4375 8.39682 49.3781 -0.68105 0.241878 0.691133
-26.5741 9.1052 48.9907 -0.675785 0.260943 0.689216
-26.7873 9.95639 48.4513 -0.653874 0.280294 0.70274
-27.0154 10.5708 47.9869 -0.644981 0.283051 0.709711
-27.3306 11.1803 47.4517 -0.624023 0.309996 0.717283
-27.4799 11.4248 47.2192 -0.607517 0.30812 0.73211
-28.2301 9.66269 47.2548 -0.63188 0.257102 0.731173
-27.8055 9.18759 47.7989 -0.647109 0.250465 0.720081
-28.1572 9.35303 47.4225 -0.648702 0.230789 0.725061
-28.1925 9.45292 47.3608 -0.636369 0.241508 0.732472
-27.5174 6.2008 48.94 -0.698159 0.182467 0.6923
-27.4632 6.19952 48.9951 -0.69816 0.182468 0.692299
-27.23 5.1416 49.4617 -0.708302 0.155329 0.688424
-27.2931 5.07573 49.4133 -0.700262 0.149167 0.69811
-27.2365 1.70708 49.9383 -0.724125 0.0660844 0.686338
-27.0132 0.961042 50.211 -0.740931 0.0229682 0.671188
-27.1847 -0.287462 50.0406 -0.736657 -0.00265642 0.676261
-27.3854 -0.359397 49.8258 -0.717035 -0.0144688 0.696887
-27.2978 0.487424 49.9259 -0.719775 0.020723 0.693847
-27.2412 1.67848 49.9356 -0.717469 0.0287659 0.695996
-27.2397 1.69125 49.9367 -0.716233 0.0509456 0.695656
-26.902 -1.23529 50.3141 -0.727806 -0.0534895 0.683694
-26.8999 -2.30066 50.2363 -0.722953 -0.070529 0.686968
-27.1087 -3.02737 49.9213 -0.720101 -0.0912724 0.68784
-26.961 -3.77931 49.9743 -0.727366 -0.130221 0.673781
-27.0561 -4.6501 49.7169 -0.70696 -0.125097 0.696102
-27.1512 -5.41664 49.4588 -0.706294 -0.165645 0.688266
-27.3284 -6.43971 49.0307 -0.693379 -0.159549 0.702401
-27.4291 -7.25027 48.7046 -0.667441 -0.208615 0.714844
-27.5656 -7.98956 48.3615 -0.665785 -0.20537 0.71731
-27.8517 -8.59116 47.9203 -0.646136 -0.248158 0.721752
-28.0411 -8.54256 47.7674 -0.655133 -0.22514 0.720764
-28.0832 -7.47323 48.0289 -0.665786 -0.205368 0.71731
-28.0432 -6.38632 48.3569 -0.682618 -0.183486 0.707366
-27.9203 -5.58453 48.6518 -0.680461 -0.153453 0.716537
-27.7094 -4.92883 49.0033 -0.706627 -0.14537 0.692185
-27.5933 -3.84479 49.3128 -0.709782 -0.121258 0.693906
-27.498 -3.31357 49.4857 -0.708575 -0.0816625 0.700894
-27.2456 -2.36375 49.866 -0.722953 -0.0705291 0.686968
-27.1664 -1.41336 50.0187 -0.726806 -0.0516368 0.684894
-12.1942 -26.402 47.8243 -0.331519 -0.622432 0.708995
-11.5686 -26.0926 48.3816 -0.313268 -0.644425 0.697403
-10.89 -25.8898 48.8755 -0.293999 -0.658921 0.692346
-10.2531 -25.6159 49.415 -0.299758 -0.669994 0.679156
-9.57097 -25.4635 49.8574 -0.270305 -0.697366 0.663597
-8.91153 -25.2718 50.3374 -0.268867 -0.708604 0.652373
-7.99975 -25.1985 50.7715 -0.25073 -0.70716 0.661088
-7.06418 -25.1175 51.1839 -0.218187 -0.715184 0.66393
-6.34531 -25.009 51.5271 -0.200765 -0.73521 0.647426
-5.5904 -24.953 51.7953 -0.166012 -0.734116 0.658417
-4.80209 -24.9185 52.0283 -0.143057 -0.748535 0.647447
-3.9425 -24.8596 52.2726 -0.114016 -0.75148 0.64973
-3.00492 -24.8448 52.4377 -0.0787359 -0.757683 0.647855
-2.12773 -24.8334 52.5489 -0.0673963 -0.754894 0.652375
-1.33749 -24.8118 52.6407 -0.0390415 -0.753471 0.656321
-0.374264 -24.8016 52.7008 -0.0164531 -0.758275 0.651647
0.533058 -24.7522 52.7662 0.00402476 -0.756643 0.653816
1.37583 -24.8121 52.6588 0.0440199 -0.761482 0.646689
2.21249 -24.7904 52.6063 0.0751908 -0.758599 0.647204
3.10423 -24.8468 52.4269 0.0973297 -0.749218 0.655133
3.8683 -24.9184 52.2194 0.123452 -0.746416 0.653768
4.63893 -24.9454 52.0452 0.138787 -0.751895 0.644193
5.63594 -24.9893 51.7612 0.16427 -0.741987 0.649855
6.4021 -24.9902 51.5512 0.177485 -0.730163 0.659819
7.33068 -25.064 51.1946 0.197642 -0.721883 0.663191
8.1646 -25.2048 50.7388 0.235975 -0.709447 0.663999
9.16617 -25.3604 50.1956 0.272246 -0.699876 0.65994
10.1016 -25.5816 49.5809 0.28685 -0.672753 0.681967
10.803 -25.7655 49.1 0.300278 -0.658327 0.690057
11.2995 -26.0487 48.6032 0.315545 -0.653522 0.687997
11.901 -26.4118 48.0009 0.30893 -0.641433 0.702196
12.6101 -26.6718 47.4511 0.334435 -0.609862 0.718486
13.0424 -27.1157 46.8977 0.318129 -0.596178 0.73712
13.4483 -27.5297 46.4017 0.307001 -0.58447 0.751096
13.7996 -28.0961 45.8294 0.314206 -0.549764 0.773799
14.0105 -28.6424 45.3537 0.325649 -0.541881 0.77478
14.1901 -29.2398 44.8871 0.307072 -0.526352 0.792693
14.1593 -30.0068 44.4013 0.275296 -0.514675 0.811986
13.7908 -30.7272 44.0552 0.256471 -0.518052 0.815993
12.7164 -30.8522 44.3117 0.250638 -0.54083 0.802922
11.8342 -30.8292 44.5927 0.22783 -0.552715 0.801586
10.6879 -30.7437 44.9875 0.219615 -0.561133 0.79793
9.96875 -30.6357 45.2553 0.211068 -0.580134 0.786587
9.12847 -30.544 45.5552 0.205805 -0.603767 0.769882
8.3787 -30.5358 45.7428 0.18654 -0.60754 0.772074
7.51634 -30.5519 45.9409 0.176634 -0.598143 0.781484
6.63799 -30.3279 46.3093 0.158302 -0.638104 0.753501
5.8223 -30.1244 46.653 0.137143 -0.635689 0.759344
5.0909 -29.909 46.9422 0.115986 -0.633274 0.765187
4.27684 -29.8336 47.1581 0.121193 -0.662315 0.739165
3.46641 -29.7048 47.3827 0.0782823 -0.670959 0.737351
2.63003 -29.5861 47.5744 0.0586338 -0.664021 0.745412
1.78958 -29.6767 47.5598 0.0506521 -0.667721 0.742629
1.03438 -30.1661 47.1531 0.0187949 -0.666432 0.745322
0.24262 -30.5172 46.8553 0.0124367 -0.658606 0.752273
-0.520522 -30.6879 46.6941 -0.0235661 -0.641557 0.766713
-1.4003 -30.6789 46.6712 -0.0487492 -0.644884 0.762672
-2.73026 -30.3886 46.8235 -0.0637412 -0.665239 0.743867
-3.79967 -29.8631 47.1682 -0.0932583 -0.667453 0.738789
-4.98749 -29.8263 47.0178 -0.127239 -0.664646 0.736245
-5.92615 -30.1013 46.6181 -0.143092 -0.645071 0.750605
-6.99381 -30.4722 46.0895 -0.158173 -0.630042 0.760282
-7.70462 -30.6072 45.8224 -0.182411 -0.615263 0.766847
-8.62471 -30.6141 45.6082 -0.17542 -0.609461 0.773166
-9.4358 -30.6463 45.3594 -0.206913 -0.58947 0.780705
-10.2436 -30.6935 45.1226 -0.22122 -0.576547 0.786155
-11.2312 -30.8562 44.6949 -0.245238 -0.570925 0.783519
-11.9944 -30.9809 44.3884 -0.243386 -0.543501 0.803091
-12.6893 -31.0887 44.0867 -0.263117 -0.540228 0.799327
-13.5455 -31.0293 43.8496 -0.267125 -0.515689 0.814048
-14.0723 -30.5241 43.9916 -0.27106 -0.513388 0.814215
-14.011 -29.7319 44.5197 -0.304442 -0.523481 0.79579
-14.1015 -29.0285 44.9547 -0.330878 -0.536356 0.776429
-14.0934 -28.3693 45.4188 -0.326518 -0.546411 0.771246
-13.7427 -27.8396 45.949 -0.332999 -0.563077 0.75625
-13.2756 -27.2674 46.5958 -0.3388 -0.579271 0.741269
-12.8836 -26.8669 47.1111 -0.334473 -0.603677 0.723559
-12.4171 -26.5317 47.6062 -0.331523 -0.622429 0.708995
-11.4479 -27.7039 47.0234 -0.283329 -0.610793 0.739202
-12.1048 -28.273 46.3047 -0.296229 -0.59086 0.750321
-12.4846 -28.8673 45.7039 -0.290576 -0.570167 0.768312
-12.2893 -29.6325 45.2258 -0.290032 -0.55737 0.777959
-11.0795 -29.4873 45.7403 -0.254947 -0.585956 0.768852
-10.2732 -29.3918 46.0994 -0.249926 -0.600983 0.759021
-9.46663 -29.3888 46.35 -0.223205 -0.610007 0.76016
-8.39031 -29.3664 46.6727 -0.215197 -0.620407 0.754179
-7.54821 -29.2691 46.9722 -0.191293 -0.637071 0.746692
-6.73973 -29.0057 47.404 -0.188962 -0.645862 0.73961
-6.10734 -28.781 47.7475 -0.153158 -0.67315 0.723472
-4.85024 -28.6135 48.1508 -0.13261 -0.674724 0.72606
-3.82906 -28.693 48.2474 -0.0948807 -0.682173 0.724936
-3.04082 -28.9372 48.1122 -0.085598 -0.679611 0.728561
-2.34614 -29.221 47.917 -0.0739469 -0.686623 0.723243
-1.46896 -29.44 47.773 -0.0375484 -0.689095 0.723697
-0.694812 -29.4412 47.8121 -0.0370004 -0.688705 0.724097
0.0247704 -29.2535 47.9972 -0.0013295 -0.686386 0.727215
0.648104 -28.9162 48.3168 -0.00302471 -0.69573 0.71823
1.50488 -28.6079 48.5732 0.0350298 -0.694224 0.718762
2.53426 -28.4448 48.6548 0.066344 -0.692445 0.718413
3.28845 -28.4352 48.5861 0.102619 -0.689388 0.717087
4.46212 -28.534 48.3223 0.103397 -0.689847 0.716533
5.24742 -28.6676 48.0448 0.142111 -0.681274 0.718102
5.93741 -28.889 47.7137 0.154494 -0.667422 0.728136
7.05897 -29.0633 47.2779 0.181189 -0.664653 0.72485
7.77604 -29.2448 46.956 0.188665 -0.627577 0.755142
8.5645 -29.2766 46.7132 0.207048 -0.62653 0.75139
9.53547 -29.3507 46.3727 0.220756 -0.611966 0.75945
10.3352 -29.4038 46.091 0.243499 -0.601494 0.760862
11.0848 -29.4909 45.7839 0.242706 -0.589175 0.770548
12.0421 -29.5352 45.4468 0.267002 -0.554405 0.788246
12.3743 -29.0436 45.6822 0.279091 -0.579605 0.765615
11.9137 -28.2195 46.4725 0.278567 -0.594546 0.753994
11.3342 -27.6845 47.1384 0.288725 -0.615434 0.733402
10.508 -27.2259 47.8527 0.272526 -0.649952 0.709431
9.98408 -26.8989 48.359 0.272526 -0.66224 0.697788
9.23065 -26.6044 48.918 0.260906 -0.667658 0.697253
8.5085 -26.4121 49.3649 0.241245 -0.691196 0.681212
7.76479 -26.2896 49.7399 0.219398 -0.692671 0.687075
6.88175 -26.162 50.1538 0.197537 -0.708593 0.677403
6.06701 -26.1039 50.437 0.16967 -0.715579 0.677602
5.18081 -26.0342 50.7201 0.152225 -0.721239 0.675752
4.37155 -26.0059 50.9147 0.122009 -0.731791 0.670435
3.3308 -25.9461 51.1645 0.101751 -0.734215 0.671249
2.60781 -25.8696 51.3468 0.0853983 -0.737814 0.66958
1.78633 -25.8423 51.4648 0.0517057 -0.741725 0.668708
0.922614 -25.8189 51.5457 0.0271403 -0.739569 0.672533
0.00435787 -25.8216 51.5537 -0.0125346 -0.74935 0.662056
-0.96769 -25.8965 51.4338 -0.038295 -0.743425 0.667722
-1.98469 -25.9265 51.3209 -0.0658253 -0.744171 0.664739
-2.85361 -25.9123 51.2462 -0.0842445 -0.736585 0.671078
-3.65199 -25.9119 51.1374 -0.104206 -0.735414 0.669558
-4.38171 -25.9587 50.9534 -0.132806 -0.737742 0.66189
-5.27904 -26.0601 50.655 -0.152236 -0.721923 0.675019
-6.06536 -26.1087 50.4079 -0.189336 -0.722027 0.665454
-6.86001 -26.1941 50.0994 -0.204565 -0.706056 0.677966
-7.71093 -26.2791 49.7359 -0.225721 -0.696099 0.681525
-8.534 -26.4564 49.261 -0.241548 -0.683015 0.689205
-9.39043 -26.7091 48.7007 -0.266017 -0.663202 0.69957
-10.2929 -27.1434 47.9663 -0.272664 -0.651716 0.707563
-10.9336 -27.3808 47.5042 -0.285889 -0.627593 0.724151
-11.0504 -27.4504 47.3977 -0.289178 -0.623004 0.726776
-8.75852 -27.9768 47.7621 -0.22801 -0.658234 0.717355
-7.86895 -27.5754 48.4096 -0.210668 -0.664954 0.716501
-7.23638 -27.3673 48.7968 -0.210419 -0.691336 0.691215
-6.44047 -27.2611 49.1299 -0.182462 -0.690631 0.699812
-5.68536 -27.2036 49.3677 -0.164311 -0.708165 0.686662
-5.88747 -27.4786 49.0406 -0.157659 -0.701292 0.695222
-6.66057 -27.6117 48.7265 -0.193924 -0.689979 0.697269
-7.44113 -27.9284 48.2037 -0.202069 -0.664599 0.719358
-8.11902 -28.0578 47.883 -0.219261 -0.665313 0.713641
-8.38507 -27.8695 47.9769 -0.21926 -0.665312 0.713642
-5.36265 -27.5382 49.0992 -0.1374 -0.705831 0.694923
-4.43521 -27.4738 49.3494 -0.138904 -0.704391 0.696089
-4.82805 -27.1364 49.6135 -0.135899 -0.707273 0.693755
-5.09154 -27.1601 49.5378 -0.135899 -0.707272 0.693756
-4.01401 -27.081 49.8179 -0.0969973 -0.711746 0.695617
-3.50841 -27.6214 49.341 -0.0910956 -0.705501 0.70283
-2.40979 -27.9594 49.1294 -0.0598114 -0.699524 0.712101
-1.61445 -28.2439 48.917 -0.0450686 -0.697179 0.715303
-0.568133 -28.1405 49.0722 -0.0203841 -0.709124 0.704544
0.624924 -27.6934 49.5228 -0.00734577 -0.719454 0.694251
1.4718 -27.4683 49.7139 0.0503418 -0.729952 0.681642
2.33986 -27.4367 49.691 0.0583534 -0.707932 0.703588
3.31601 -27.3318 49.676 0.0868414 -0.714758 0.693824
2.64484 -27.1291 49.9745 0.0885296 -0.726148 0.681802
1.86284 -26.822 50.3778 0.0488244 -0.731168 0.680448
0.867296 -26.8437 50.4105 0.0244377 -0.722951 0.690467
-0.215802 -26.9187 50.3393 -0.0178751 -0.729073 0.684171
-1.04081 -26.9673 50.2602 -0.0334932 -0.729259 0.683323
-1.78696 -27.0254 50.1495 -0.0562668 -0.7282 0.682919
-2.6727 -27.0284 50.0616 -0.0632981 -0.720319 0.690749
-3.54429 -27.0272 49.9443 -0.1029 -0.71799 0.688405
4.07718 -27.1252 49.7754 0.114716 -0.712191 0.692428
4.20112 -27.0824 49.7993 0.10845 -0.704804 0.701064
5.38937 -27.0869 49.5682 0.146822 -0.70937 0.689366
6.19454 -27.1512 49.3164 0.16881 -0.707579 0.686174
6.96933 -27.2824 48.9842 0.205291 -0.696177 0.687808
7.80859 -27.4657 48.5577 0.203115 -0.680965 0.703585
8.78914 -27.8801 47.863 0.225948 -0.657548 0.718734
8.10786 -27.9424 48.0208 0.208427 -0.655899 0.725245
7.16974 -27.7995 48.422 0.205954 -0.676745 0.706823
6.34927 -27.585 48.8439 0.17984 -0.68649 0.704549
5.52021 -27.3948 49.2248 0.141974 -0.700169 0.699595
26.4025 -12.0868 47.9754 0.632617 -0.318023 0.706157
26.7958 -12.5862 47.4076 0.59523 -0.33547 0.730179
27.2546 -13.1611 46.783 0.590347 -0.319622 0.74117
27.8737 -13.6156 46.113 0.572239 -0.319977 0.755087
28.2991 -14.0102 45.6329 0.553202 -0.325561 0.766797
29.1089 -14.1575 45.0143 0.535519 -0.317192 0.782588
29.8138 -14.0786 44.5842 0.501645 -0.29605 0.812839
30.4976 -14.038 44.1567 0.522499 -0.265934 0.809926
30.9295 -13.5072 44.0508 0.528985 -0.259719 0.807909
30.914 -12.3005 44.4504 0.534619 -0.259779 0.804159
30.9577 -11.3401 44.7133 0.565817 -0.241341 0.78842
30.9588 -10.4444 44.9698 0.565095 -0.218979 0.795434
30.8643 -9.58611 45.2643 0.585725 -0.202653 0.784598
30.7642 -8.82793 45.542 0.598088 -0.203939 0.775048
30.4008 -7.81903 46.0768 0.614808 -0.173456 0.769366
30.1786 -7.16255 46.3985 0.639295 -0.171517 0.749589
30.001 -6.11959 46.7731 0.637284 -0.148083 0.756267
29.961 -5.34793 46.9584 0.637593 -0.130236 0.759019
29.8606 -4.58231 47.1711 0.661857 -0.123922 0.739268
29.8373 -3.57487 47.3397 0.652511 -0.105994 0.75033
29.7904 -2.54836 47.4954 0.668277 -0.0828131 0.739289
29.8232 -1.71536 47.5228 0.669922 -0.0400058 0.741353
29.9239 -0.411649 47.4761 0.661245 -0.00777384 0.75013
30.0373 0.333816 47.3831 0.678703 0.0243656 0.734008
30.093 1.12048 47.3065 0.678077 0.0235352 0.734614
29.9896 1.95379 47.3632 0.673444 0.0523779 0.737343
29.6721 2.69734 47.596 0.67608 0.0587712 0.734481
29.4481 3.51739 47.7075 0.663575 0.0912354 0.742525
29.2131 4.59819 47.7652 0.664851 0.117952 0.737605
29.3119 5.72944 47.465 0.666417 0.152696 0.729775
29.6763 6.27533 47.0387 0.641354 0.157183 0.750732
29.9955 7.0691 46.5777 0.641491 0.17573 0.746732
30.1677 8.05222 46.1918 0.620187 0.197875 0.759087
30.2797 8.99106 45.8601 0.605467 0.217547 0.76556
30.5216 9.84314 45.4267 0.605485 0.217559 0.765543
30.7714 10.4936 45.0507 0.582214 0.229791 0.779887
31.0689 11.0973 44.6508 0.570217 0.222882 0.790488
31.2631 11.7828 44.3067 0.553539 0.246549 0.795492
31.2841 12.726 43.9955 0.541546 0.254244 0.801245
31.1217 13.6237 43.8213 0.533748 0.253105 0.806877
30.5629 14.111 44.0262 0.514566 0.24849 0.820655
29.8796 14.1558 44.4569 0.523714 0.28123 0.804135
29.0573 14.2046 44.9795 0.541166 0.308012 0.782422
28.2763 14.074 45.5769 0.530411 0.339312 0.77687
27.7337 13.7202 46.1349 0.561673 0.334448 0.756748
27.3149 13.2778 46.6551 0.586977 0.33064 0.738887
26.773 12.741 47.3441 0.597897 0.325109 0.732603
26.3822 12.1863 47.9305 0.616777 0.324963 0.716928
26.1128 11.5345 48.4687 0.631869 0.327108 0.702594
25.8446 10.9821 48.9788 0.639202 0.331358 0.693991
25.6171 10.1047 49.5963 0.681685 0.299845 0.667382
25.5028 9.30955 50.0413 0.684186 0.253085 0.683987
25.2938 8.5165 50.5576 0.703822 0.265014 0.658724
25.1968 7.65153 50.9841 0.710091 0.229974 0.665388
25.079 6.81977 51.3959 0.718354 0.209653 0.663143
25.0888 5.96415 51.6486 0.732236 0.204929 0.649488
25.0499 5.19048 51.9027 0.732915 0.163087 0.660282
24.9979 4.32572 52.163 0.750886 0.14279 0.644762
24.961 3.3853 52.3716 0.752424 0.117124 0.648154
24.9494 2.3189 52.5311 0.751924 0.0715978 0.655169
24.9336 1.44931 52.6251 0.760139 0.0528023 0.64757
24.951 0.368702 52.6533 0.760185 0.0174749 0.649376
24.9455 -0.633891 52.66 0.760952 -0.00609682 0.64876
24.9066 -1.45059 52.6534 0.749094 -0.0487941 0.660576
24.9281 -2.29054 52.5549 0.742683 -0.0715385 0.665597
24.9648 -3.10389 52.4035 0.74762 -0.102928 0.656102
25.0242 -3.88882 52.1993 0.743445 -0.126278 0.656767
25.075 -4.86644 51.9338 0.745582 -0.150146 0.649279
25.1147 -5.6807 51.6904 0.733963 -0.185072 0.653441
25.1795 -6.64294 51.3543 0.729421 -0.193941 0.655862
25.2362 -7.47207 51.0268 0.723721 -0.22206 0.653214
25.3712 -8.3779 50.5575 0.703518 -0.234048 0.670992
25.4924 -9.36775 50.0478 0.692732 -0.271648 0.668015
25.6695 -10.2356 49.5066 0.681486 -0.301932 0.666111
25.9834 -10.8494 48.9264 0.658407 -0.310175 0.685779
26.1892 -11.5004 48.4387 0.652098 -0.316817 0.688672
26.3305 -11.9736 48.0909 0.632616 -0.31802 0.706158
27.4634 -11.0667 47.4915 0.619548 -0.298784 0.725871
27.2152 -10.3753 47.9832 0.64537 -0.271604 0.713953
26.9638 -9.77164 48.4482 0.651319 -0.284866 0.703303
26.7298 -9.17557 48.8844 0.671769 -0.248334 0.697813
26.5175 -8.39996 49.3779 0.68002 -0.235894 0.693958
26.3889 -7.54082 49.7847 0.70203 -0.227797 0.674732
26.259 -6.44399 50.2435 0.708218 -0.18498 0.68133
26.2065 -5.23763 50.5998 0.722633 -0.152292 0.674153
26.1548 -4.51022 50.8206 0.717279 -0.137176 0.682885
26.0778 -3.51441 51.1012 0.732767 -0.125363 0.668788
26.0226 -2.7742 51.2848 0.736257 -0.0786668 0.672063
25.9754 -1.93409 51.4239 0.739929 -0.0484613 0.67087
25.9683 -1.09051 51.4818 0.743209 -0.0415311 0.667765
25.9846 0.0819066 51.4836 0.742419 0.00339415 0.669844
25.9736 1.26056 51.4531 0.747793 0.0374793 0.662873
26.0226 2.26782 51.3114 0.748259 0.0797874 0.658592
25.9849 3.25431 51.2346 0.747353 0.080868 0.659486
26.0869 4.11893 50.9741 0.718919 0.123173 0.684094
26.1543 5.06261 50.7247 0.716329 0.158047 0.679514
26.1743 5.83838 50.5112 0.709085 0.180176 0.681592
26.2168 6.67725 50.2232 0.705052 0.216289 0.67533
26.3453 7.44998 49.8431 0.695962 0.224434 0.682033
26.5487 8.23391 49.3843 0.685914 0.245245 0.685099
26.6546 8.92938 49.0378 0.663821 0.243054 0.707295
26.8969 9.93471 48.4328 0.653047 0.276267 0.705039
27.2619 10.7907 47.7636 0.632284 0.290335 0.718195
27.5963 11.408 47.2244 0.61485 0.295454 0.731046
28.0112 11.8516 46.7125 0.603308 0.301827 0.73808
28.4739 12.2526 46.1855 0.574952 0.305203 0.759132
29.1956 12.5936 45.5085 0.561247 0.29447 0.77343
29.7567 12.3671 45.1877 0.57094 0.26258 0.777869
29.7484 11.4244 45.512 0.577922 0.26808 0.77072
29.4963 10.7078 45.9502 0.587397 0.258096 0.767041
29.1077 9.67669 46.5969 0.626454 0.23524 0.743114
28.9493 8.90592 46.9701 0.624015 0.22507 0.748297
28.7099 7.84272 47.4896 0.632409 0.209839 0.745464
28.523 7.19435 47.8319 0.662395 0.192449 0.724014
28.2969 6.57255 48.204 0.662187 0.175017 0.728392
28.0349 5.47442 48.7165 0.687014 0.170933 0.706254
28.1145 4.09357 48.8889 0.683677 0.129482 0.718203
28.2722 3.30806 48.8443 0.694394 0.0964689 0.7131
28.5053 2.55526 48.7158 0.698445 0.0456434 0.714207
28.7109 1.8488 48.5599 0.695305 0.0489365 0.717027
28.8819 0.672215 48.4477 0.688932 0.0164601 0.724639
28.7854 -0.651131 48.5395 0.706535 -0.0174059 0.707464
28.6858 -1.71686 48.5952 0.698039 -0.0445736 0.714648
28.6452 -2.73103 48.5511 0.692124 -0.0842801 0.716841
28.6849 -3.61845 48.4016 0.690125 -0.110414 0.715121
28.7143 -4.51198 48.2446 0.683324 -0.104457 0.722605
28.7844 -5.47681 47.9863 0.671823 -0.13695 0.727789
28.8322 -6.27039 47.7724 0.662498 -0.164856 0.730697
28.9601 -7.61697 47.3123 0.644612 -0.194335 0.738965
29.1081 -8.29668 47.0216 0.62919 -0.195529 0.752192
29.3357 -8.93481 46.6555 0.630902 -0.204362 0.748464
29.5056 -9.7051 46.2783 0.605885 -0.235884 0.759726
29.6142 -10.5646 45.9351 0.602734 -0.229035 0.764366
29.5839 -11.5152 45.6435 0.577212 -0.27399 0.769177
29.2185 -12.4065 45.6087 0.573465 -0.265416 0.775044
28.611 -12.276 46.1021 0.556317 -0.30238 0.773874
27.9657 -11.7671 46.7956 0.592002 -0.298369 0.748546
27.4931 -11.1172 47.4452 0.619549 -0.298782 0.72587
27.745 -7.95845 48.3303 0.66163 -0.202066 0.722091
27.6286 -7.71381 48.5068 0.681081 -0.219375 0.698573
27.6351 -7.74121 48.4918 0.671355 -0.210721 0.710332
27.6938 -6.17099 48.869 0.683646 -0.177183 0.707974
27.27 -5.27112 49.4957 0.705574 -0.144581 0.693731
27.452 -5.17001 49.3345 0.69644 -0.151797 0.701376
27.6429 -5.77845 49.0168 0.682999 -0.159566 0.712512
27.5873 -4.32555 49.3706 0.699942 -0.113872 0.705063
27.4949 -3.35068 49.6296 0.713161 -0.103492 0.692992
27.4905 -2.23062 49.7706 0.712376 -0.0638078 0.698481
27.582 -1.09095 49.7481 0.718398 -0.0458209 0.694122
27.6717 -0.0190385 49.6746 0.722397 -0.0106571 0.691396
27.7939 0.538951 49.5384 0.707363 0.0193981 0.706584
27.6907 1.36265 49.616 0.710834 0.0427573 0.701932
27.3677 2.2247 49.8841 0.718278 0.0492769 0.694009
27.194 2.8873 49.997 0.715302 0.0871855 0.693355
27.0211 2.53226 50.2206 0.722169 0.0782513 0.687255
27.0978 1.76954 50.2031 0.728947 0.056931 0.682198
27.1553 0.966996 50.1879 0.725438 0.0276251 0.687731
27.0279 0.230743 50.351 0.724185 0.00800553 0.689303
27.0417 -0.7699 50.3213 0.728931 -0.00505128 0.684479
26.9897 -1.95148 50.3187 0.738326 -0.0395743 0.673282
27.4366 -2.78678 49.7568 0.715731 -0.0823691 0.693502
