3.75122 3.20604 23.9701 0.129658 0.155613 0.979162
4.65831 3.2388 23.81 0.174873 0.0960196 0.979898
4.65831 3.2388 23.81 0.174873 0.0960196 0.979898
4.65366 4.32209 23.645 0.158231 0.183642 0.970175
3.54371 4.78138 23.7348 0.126868 0.185474 0.974077
2.69499 4.33493 23.9053 0.102444 0.17932 0.978442
3.1587 3.68828 23.9635 0.115126 0.154804 0.981214
3.26618 3.54381 23.9737 0.115126 0.154804 0.981214
2.60623 2.49231 24.1595 0.0990421 0.0976959 0.990091
1.82816 2.91014 24.1537 0.0651508 0.140572 0.987925
0.625541 3.2532 24.167 0.0356464 0.151857 0.987759
-0.484732 3.31463 24.1438 -0.0515993 0.120973 0.991314
-1.70427 3.31846 24.0703 -0.0669655 0.116838 0.990891
-2.37975 2.96026 24.0535 -0.153245 0.108335 0.981932
-1.89792 3.84159 23.9796 -0.114681 0.15276 0.981587
-1.16249 4.49905 23.9344 -0.0292119 0.199011 0.979307
-0.396323 4.57917 23.926 -0.00902937 0.189748 0.981791
0.405035 4.79766 23.8966 0.00170971 0.167062 0.985585
1.12751 5.08726 23.8307 0.0267499 0.158058 0.987067
1.92861 5.50479 23.7207 0.0408351 0.178333 0.983099
2.91229 6.0882 23.5457 0.0692059 0.18564 0.980178
3.98722 6.55789 23.3348 0.108009 0.221839 0.968916
4.58723 6.07764 23.3325 0.150985 0.174087 0.973086
5.17169 5.59675 23.325 0.180906 0.146337 0.972553
5.83769 5.14128 23.2696 0.180906 0.146335 0.972553
6.58655 4.80596 23.1813 0.187382 0.140968 0.972074
7.36177 4.67297 23.044 0.195413 0.136296 0.971204
7.28854 4.44787 23.09 0.195716 0.134155 0.971441
6.32156 3.53435 23.4222 0.204928 0.144347 0.968075
5.93767 2.82406 23.6147 0.201779 0.118655 0.971703
5.6879 2.07264 23.7411 0.180372 0.109342 0.977502
5.55811 1.20084 23.8603 0.19302 0.0808979 0.977597
5.64287 0.328648 23.8696 0.164396 0.0155337 0.986272
5.92719 -0.575166 23.8207 0.166843 -0.0237815 0.985565
6.34569 -1.23951 23.7238 0.189823 -0.0805023 0.978171
6.80554 -1.86008 23.5677 0.21457 -0.08576 0.972936
6.7033 -2.82938 23.5008 0.218297 -0.0928333 0.971457
6.04763 -3.52185 23.5562 0.199684 -0.122689 0.972149
5.55269 -4.09236 23.5971 0.17338 -0.192221 0.965914
4.56039 -3.86158 23.7939 0.122012 -0.173241 0.977292
4.8307 -3.11755 23.8544 0.151088 -0.103741 0.982328
5.04256 -2.22589 23.8822 0.185935 -0.0610273 0.980665
5.13952 -1.42957 23.9134 0.161671 -0.0511865 0.985158
5.07048 -0.296912 23.9593 0.142591 -0.0305704 0.989309
4.68583 0.33856 24.0151 0.153475 0.00758979 0.988093
4.15451 0.95183 24.0939 0.0969182 0.0241032 0.994563
3.28002 1.91305 24.1283 0.0983942 0.0499784 0.993892
3.01578 2.1557 24.1422 0.103386 0.0654938 0.992348
2.05816 1.20725 24.3171 0.0834613 0.0816173 0.991911
1.10763 1.73132 24.3009 0.0419223 0.0825464 0.995605
-0.108093 1.99378 24.264 -0.0319198 0.0518289 0.998146
-0.878571 1.96424 24.2346 -0.0447783 0.0530135 0.997589
-1.74873 1.70951 24.2091 -0.0443314 0.0602023 0.997175
-2.46192 1.02223 24.1898 -0.0979693 0.0640661 0.993125
-2.90353 -0.171356 24.175 -0.116115 -0.00678544 0.993213
-2.86633 -1.37357 24.1196 -0.0973542 -0.0861451 0.991515
-2.61364 -2.10834 24.0747 -0.127449 -0.115249 0.984993
-1.88233 -3.18457 24.0633 -0.139306 -0.121843 0.982597
-0.849767 -3.95994 24.0383 -0.0504048 -0.158629 0.98553
0.117988 -4.32327 23.996 -0.0205744 -0.162949 0.986356
1.15367 -4.26744 24.022 -0.00848822 -0.190689 0.981614
2.07162 -4.16279 24.0282 0.0771452 -0.167967 0.982769
3.01756 -3.534 24.0268 0.113945 -0.117826 0.986413
3.46982 -2.92604 24.0457 0.123563 -0.12274 0.984717
3.73165 -2.1331 24.0683 0.118106 -0.0537327 0.991546
3.70028 -1.24222 24.1176 0.128327 -0.0352493 0.991096
3.40984 -0.365669 24.185 0.124265 -0.00803654 0.991884
2.76973 0.533655 24.2417 0.108099 0.0173443 0.993989
2.20302 1.07865 24.3067 0.124499 0.0356868 0.991022
1.1438 0.191621 24.3818 0.0244321 -0.0393761 0.998623
0.430079 0.502036 24.3656 -0.020381 0.0357475 0.999153
-0.369746 0.681577 24.3368 -0.0388006 0.0650686 0.997126
-1.26359 0.436629 24.3089 -0.0685951 0.0259812 0.997029
-1.55445 -0.394011 24.2911 -0.0584072 -0.00436504 0.998212
-1.51979 -1.30531 24.2637 -0.0783651 -0.0640161 0.994316
-1.15995 -1.99193 24.2466 -0.0941945 -0.0915947 0.991229
-0.514466 -2.52161 24.2386 -0.0471109 -0.0752521 0.996051
0.41698 -2.84254 24.2448 -0.0268639 -0.085241 0.995998
1.52331 -2.81081 24.2329 0.0578892 -0.0886524 0.994379
2.28449 -2.2949 24.221 0.0871505 -0.0687423 0.993821
2.27391 -1.28831 24.2664 0.0809566 -0.0120319 0.996645
1.61972 -0.248581 24.3379 0.0626795 -0.0375765 0.997153
1.56043 -0.170167 24.3445 0.0473996 -0.0480855 0.997718
2.06365 -5.21184 23.8477 0.0643463 -0.175777 0.981451
1.30601 -5.42416 23.8216 0.00220136 -0.16163 0.986849
0.05475 -5.77831 23.7581 -0.00800222 -0.164196 0.986395
-0.693087 -6.07187 23.6814 -0.0252586 -0.214168 0.976455
-1.66883 -6.74931 23.5009 -0.0552224 -0.200118 0.977764
-2.385 -7.21824 23.3339 -0.113946 -0.185448 0.976025
-3.22786 -7.79174 23.1332 -0.101558 -0.193504 0.975728
-3.84457 -8.33138 22.9514 -0.117829 -0.206649 0.971224
-4.35896 -9.24218 22.6719 -0.145348 -0.236621 0.960524
-4.58405 -9.95968 22.4499 -0.158811 -0.246505 0.956041
-4.69572 -10.7541 22.2265 -0.138274 -0.261671 0.954859
-4.98125 -11.6393 21.9297 -0.147526 -0.276351 0.949666
-5.93354 -11.571 21.7769 -0.181889 -0.254221 0.949888
-6.73035 -11.0285 21.7701 -0.18332 -0.250526 0.950582
-7.28515 -10.4577 21.8146 -0.175159 -0.239276 0.955022
-7.59911 -9.77454 21.9246 -0.210519 -0.209633 0.954848
-7.84282 -8.75972 22.1037 -0.209825 -0.225348 0.951416
-8.33207 -7.63998 22.2342 -0.23874 -0.201212 0.950009
-9.06496 -6.57317 22.2722 -0.237463 -0.193648 0.951899
-9.6655 -5.56625 22.3002 -0.265551 -0.154299 0.951669
-9.30759 -4.72005 22.5319 -0.275107 -0.113465 0.954676
-8.82299 -4.15681 22.7321 -0.260199 -0.114411 0.958753
-8.34002 -3.52279 22.9358 -0.253221 -0.0912135 0.962937
-7.84466 -2.69701 23.1292 -0.241232 -0.0661628 0.968093
-7.60029 -1.95984 23.2189 -0.228399 -0.0289467 0.973137
-7.5149 -1.14476 23.2626 -0.234649 -0.0108091 0.971903
-7.66212 -0.22605 23.2261 -0.244089 -0.00172586 0.969751
-7.9166 0.71004 23.1556 -0.249296 0.0133693 0.968321
-8.11327 1.45041 23.092 -0.253928 0.0450921 0.96572
-7.75915 2.1825 23.1276 -0.245854 0.0784227 0.966129
-6.51984 2.35468 23.41 -0.199652 0.062778 0.977763
-5.32713 2.64677 23.6184 -0.187351 0.0686986 0.979887
-4.59158 3.03847 23.6902 -0.153192 0.138771 0.978404
-3.74018 3.861 23.7109 -0.160569 0.134246 0.977852
-3.17021 4.67117 23.6804 -0.150834 0.165919 0.97444
-2.69818 5.31015 23.634 -0.139623 0.181938 0.973315
-1.84854 5.91406 23.6071 -0.0716634 0.204871 0.975782
-1.05378 6.01831 23.625 -0.0460013 0.194266 0.979868
-0.227919 6.1296 23.6369 -0.0247451 0.186874 0.982072
0.798182 6.47183 23.5772 0.00230658 0.20946 0.977815
1.46751 6.82541 23.4874 0.052989 0.222041 0.973216
2.16099 7.2461 23.3407 0.0537125 0.248536 0.967132
2.73007 7.71706 23.172 0.0748682 0.261808 0.962212
3.31387 8.48726 22.9169 0.0933686 0.262803 0.960321
3.96253 9.01956 22.7081 0.0913703 0.24627 0.964731
4.55005 8.32763 22.8118 0.143379 0.250046 0.957559
4.96155 7.69828 22.9145 0.153106 0.242726 0.957859
5.83421 6.78641 22.9793 0.160611 0.220131 0.962157
6.60472 6.32625 22.933 0.185526 0.20213 0.961625
7.34986 6.15483 22.8222 0.21013 0.19955 0.95696
8.10235 6.15116 22.647 0.223396 0.190835 0.955864
8.83535 6.10804 22.4857 0.207498 0.194432 0.958637
9.82505 5.6392 22.3698 0.222705 0.160257 0.961275
10.0575 4.65514 22.4665 0.246965 0.152432 0.95696
9.42595 3.97903 22.7062 0.216814 0.130731 0.967385
8.68628 3.53639 22.9255 0.208237 0.131709 0.96917
7.96794 3.16064 23.1309 0.201976 0.132932 0.970306
7.38231 2.61659 23.3284 0.210814 0.123215 0.96973
6.94644 1.68755 23.5335 0.200542 0.106198 0.973912
7.02416 0.53108 23.597 0.214365 0.0569028 0.975095
7.49406 -0.504814 23.5149 0.213398 0.00564749 0.976631
8.25269 -1.29107 23.2807 0.222642 -0.0685061 0.972477
8.92067 -1.73213 23.0911 0.240141 -0.0571062 0.969057
9.6073 -2.39237 22.869 0.254696 -0.0742807 0.964164
9.3974 -3.04346 22.87 0.240093 -0.0989912 0.965689
8.67082 -3.30458 23.0225 0.212603 -0.0993731 0.972072
7.80243 -3.73182 23.1688 0.200839 -0.122427 0.971599
7.11027 -4.30621 23.2234 0.214314 -0.146002 0.965791
6.68704 -4.96425 23.2179 0.209722 -0.151643 0.965903
6.4877 -5.72128 23.1369 0.207596 -0.165073 0.96415
5.59471 -5.95755 23.2881 0.180687 -0.151282 0.971495
4.73265 -5.599 23.4656 0.126924 -0.170549 0.97714
3.75757 -5.29764 23.6411 0.121807 -0.168297 0.978181
2.61966 -5.15196 23.7983 0.10527 -0.169556 0.979882
2.4586 -5.16871 23.8128 0.10527 -0.169557 0.979882
2.32953 -6.64081 23.5514 0.0838946 -0.235121 0.968124
3.13133 -6.62252 23.4702 0.103267 -0.228767 0.967988
3.9138 -6.79562 23.3519 0.0972695 -0.209297 0.972933
4.71195 -7.10641 23.1959 0.119251 -0.194937 0.973386
5.37908 -7.71103 22.9714 0.173039 -0.197764 0.964856
5.80303 -8.57869 22.7166 0.174441 -0.199176 0.964313
5.87036 -9.36349 22.5501 0.210498 -0.239778 0.947372
5.95324 -10.2821 22.2709 0.148062 -0.279362 0.948701
6.52003 -10.7495 22.0488 0.156815 -0.262168 0.952196
7.23169 -11.0651 21.8377 0.19814 -0.246227 0.948708
8.28907 -11.0331 21.6252 0.19814 -0.246227 0.948708
8.85409 -10.5482 21.6256 0.202382 -0.234947 0.950706
9.19743 -9.86766 21.7192 0.213002 -0.226 0.950555
9.29345 -9.1406 21.8696 0.212795 -0.224534 0.950948
8.96297 -8.28423 22.1325 0.207872 -0.181414 0.961186
8.05382 -7.51131 22.4778 0.211106 -0.184501 0.959893
7.73956 -6.48557 22.7357 0.197173 -0.170806 0.965367
7.84507 -5.69329 22.8561 0.193633 -0.172507 0.965789
8.53056 -4.90155 22.8462 0.196963 -0.154728 0.968124
9.26618 -4.71615 22.7072 0.232034 -0.149513 0.961148
10.169 -4.44108 22.5145 0.252425 -0.114345 0.960837
10.8666 -3.90485 22.3939 0.254809 -0.112907 0.960377
11.373 -2.78606 22.3828 0.26994 -0.0934621 0.958204
11.2581 -1.98884 22.4893 0.283635 -0.0867803 0.954998
10.8029 -1.26861 22.644 0.254685 -0.0280893 0.966616
10.2317 -0.783557 22.8071 0.242211 -0.0321189 0.969319
9.4733 -0.447599 22.99 0.231173 -0.00787351 0.972881
8.76974 -0.107079 23.16 0.237142 -0.00550035 0.971437
8.21364 0.979709 23.2633 0.278352 0.0519963 0.959071
8.35163 1.91324 23.1509 0.246925 0.0877804 0.964844
9.4308 2.2907 22.8648 0.231591 0.0779954 0.969672
10.2061 2.7238 22.6387 0.241721 0.0740647 0.967515
10.817 3.1135 22.4472 0.272837 0.085694 0.958233
11.3634 3.61945 22.2447 0.270643 0.0868843 0.958746
11.598 4.59411 22.0584 0.264103 0.1339 0.955155
11.4619 5.77846 21.9028 0.265182 0.178484 0.947509
10.9693 6.63159 21.8736 0.259247 0.182109 0.948487
10.3381 7.11518 21.9299 0.230042 0.21034 0.950178
9.36123 7.58472 22.054 0.217924 0.22271 0.950215
8.38102 7.70703 22.2517 0.214296 0.227924 0.949777
7.45828 7.5529 22.4887 0.198339 0.227013 0.953481
6.73656 7.70284 22.6031 0.198332 0.227019 0.953481
5.94231 8.63664 22.5143 0.177456 0.242331 0.953826
5.58278 9.29364 22.4141 0.167867 0.24072 0.955968
5.56366 10.3674 22.1444 0.168813 0.246668 0.954284
5.85528 11.0879 21.905 0.157332 0.254632 0.954152
6.23486 11.8998 21.6358 0.143368 0.248779 0.957891
6.71305 12.643 21.353 0.153209 0.270959 0.95032
6.93351 13.4692 21.0837 0.164838 0.268769 0.948965
6.6297 14.2084 20.9271 0.164839 0.268767 0.948965
5.81423 14.5253 20.9697 0.149455 0.272807 0.950389
4.92078 13.9291 21.2699 0.13271 0.260201 0.956391
4.4569 13.0291 21.576 0.11871 0.259502 0.958419
4.17329 11.9738 21.9121 0.118722 0.283843 0.951493
3.75949 11.2121 22.1733 0.101605 0.267642 0.958146
3.08863 10.5418 22.4125 0.0492288 0.257576 0.965002
2.4119 9.90722 22.6151 0.0491179 0.255864 0.965464
2.08166 9.21854 22.8127 0.045822 0.26138 0.964117
1.66472 8.60889 23.003 0.0458462 0.268848 0.962091
0.929879 8.11781 23.1542 0.0209223 0.253009 0.967238
0.125032 7.63951 23.2921 -0.00776612 0.248291 0.968632
-0.811985 7.43107 23.3323 -0.0301793 0.236067 0.971031
-1.64734 7.51128 23.2712 -0.0503292 0.224667 0.973135
-2.4753 7.39089 23.2263 -0.105012 0.209724 0.972049
-3.2163 6.96393 23.2341 -0.117033 0.212905 0.97003
-3.81136 6.41374 23.2748 -0.118531 0.179441 0.976602
-4.47801 5.41787 23.3568 -0.144578 0.161347 0.97625
-4.92073 4.65943 23.4076 -0.14648 0.14658 0.978293
-5.55098 4.05217 23.4042 -0.146582 0.140533 0.979146
-6.45622 3.749 23.2772 -0.195735 0.118833 0.97343
-7.54371 3.80156 23.032 -0.252424 0.104927 0.961841
-8.25954 3.71869 22.8466 -0.26118 0.111854 0.958787
-9.04269 3.4746 22.6724 -0.247488 0.115897 0.961934
-9.58823 2.85698 22.5914 -0.241629 0.0803526 0.966911
-9.70624 2.06714 22.6325 -0.226994 0.0844934 0.970224
-9.54867 1.23061 22.7329 -0.232726 0.0482203 0.971295
-9.16854 -0.129164 22.8762 -0.220177 0.0176444 0.97505
-8.9383 -0.932307 22.9239 -0.216862 -0.00490178 0.976189
-8.92757 -1.75924 22.8952 -0.252537 -0.0374163 0.966864
-9.25341 -2.47242 22.7763 -0.262237 -0.0788547 0.961717
-9.72844 -3.10337 22.5868 -0.271229 -0.0837646 0.958863
-10.362 -3.67792 22.3509 -0.267294 -0.120698 0.955938
-11.1697 -4.66623 22.0081 -0.25516 -0.124103 0.958901
-11.5655 -5.37622 21.8135 -0.251894 -0.140172 0.957356
-11.1595 -6.07491 21.802 -0.245491 -0.165427 0.95518
-10.3368 -7.12996 21.8307 -0.259416 -0.168341 0.950865
-9.79696 -7.75343 21.8387 -0.241835 -0.200735 0.949327
-9.39141 -8.61657 21.7608 -0.231126 -0.201534 0.951818
-9.09957 -9.41323 21.6612 -0.228546 -0.202672 0.952203
-8.98202 -10.1598 21.5308 -0.236677 -0.217405 0.946783
-8.71899 -10.9176 21.3944 -0.226121 -0.255411 0.940018
-7.97548 -11.8645 21.3048 -0.188911 -0.249954 0.94965
-7.40486 -12.363 21.2871 -0.188914 -0.249952 0.94965
-6.81927 -12.8702 21.2731 -0.180011 -0.238762 0.954248
-5.89923 -13.2878 21.3309 -0.156586 -0.25402 0.954439
-5.02605 -13.4707 21.4255 -0.151492 -0.251409 0.955933
-4.1446 -13.0788 21.6491 -0.1155 -0.271903 0.955368
-3.5301 -12.4596 21.8826 -0.0826251 -0.269532 0.95938
-3.25705 -11.1136 22.3003 -0.100273 -0.270228 0.957367
-3.26615 -10.2853 22.5292 -0.0957489 -0.265909 0.959231
-3.05655 -9.41208 22.7875 -0.100357 -0.245444 0.964061
-2.34657 -8.80638 22.9778 -0.0477467 -0.216907 0.975024
-1.67757 -8.44061 23.0919 -0.0528791 -0.228356 0.972055
-0.796988 -7.88412 23.263 -0.0323146 -0.23219 0.972133
-0.0961934 -7.44109 23.3985 -0.0354679 -0.212074 0.97646
0.599201 -7.15392 23.4733 -0.0203819 -0.211892 0.977081
1.39496 -6.9247 23.5587 0.00533267 -0.26867 0.955064
2.26973 -6.65687 23.5514 0.0645301 -0.241476 0.968259
2.20006 -10.6764 22.5544 0.0453262 -0.276753 0.959647
2.97235 -11.0169 22.4044 0.0678402 -0.276706 0.958557
3.13637 -11.7541 22.1808 0.0684011 -0.275439 0.958882
2.25487 -12.5684 22.005 0.0485853 -0.253161 0.966203
1.49926 -12.5228 22.055 0.0328877 -0.25987 0.964931
1.01279 -12.0565 22.193 0.017369 -0.273113 0.961807
1.43853 -10.829 22.5316 0.029372 -0.281198 0.959158
1.52657 -10.7917 22.5402 0.029468 -0.28981 0.956631
7.17377 -9.004 22.3574 0.180982 -0.207076 0.961439
7.41017 -9.5011 22.2017 0.205993 -0.220424 0.953404
7.26863 -9.34817 22.2654 0.180984 -0.207077 0.961439
-1.93704 -5.10898 23.7647 -0.0851335 -0.149133 0.985145
-2.85194 -4.14772 23.7941 -0.130752 -0.130575 0.982779
-3.4233 -3.35941 23.8228 -0.121993 -0.132271 0.983637
-3.80448 -2.70229 23.857 -0.135261 -0.129581 0.9823
-4.20509 -1.48417 23.9364 -0.153968 -0.08785 0.984163
-4.24447 -0.385521 23.9916 -0.149502 -0.0288595 0.98834
-4.11498 0.599234 24.0025 -0.189794 0.0779136 0.978614
-3.85901 1.40077 23.9792 -0.176816 0.0849796 0.980569
-3.94558 1.6139 23.9432 -0.176382 0.102448 0.978976
-4.69638 1.32938 23.8288 -0.194669 0.0658809 0.978606
-5.56399 1.0997 23.678 -0.186562 0.0609119 0.980553
-6.33155 0.659635 23.5311 -0.222884 0.0394888 0.974045
-6.23771 -0.159887 23.5647 -0.220389 -0.0200728 0.975206
-6.12893 -1.10269 23.5707 -0.215016 -0.0186069 0.976431
-6.16039 -1.99494 23.5334 -0.179336 -0.040684 0.982946
-6.43749 -2.88239 23.4292 -0.187547 -0.0778526 0.979136
-6.78779 -3.58712 23.3012 -0.196647 -0.106363 0.974351
-7.37065 -4.52291 23.0525 -0.20263 -0.133743 0.970079
-7.83579 -5.21315 22.8329 -0.213429 -0.179617 0.960305
-7.72454 -6.06194 22.7011 -0.214887 -0.172499 0.961284
-7.32954 -6.7502 22.6659 -0.201612 -0.177127 0.963212
-6.91639 -7.46907 22.6003 -0.185317 -0.198483 0.962425
-6.5394 -8.21086 22.5152 -0.200456 -0.225927 0.953276
-6.21246 -9.16404 22.3532 -0.195031 -0.228965 0.953697
-5.47734 -8.38597 22.6831 -0.186876 -0.223306 0.956667
-4.83389 -7.46843 22.9903 -0.15101 -0.176708 0.972554
-4.30839 -6.92514 23.1668 -0.129561 -0.17215 0.976411
-3.36376 -6.19634 23.4058 -0.130199 -0.174109 0.975999
-2.59436 -5.68355 23.6117 -0.133851 -0.160396 0.977734
-2.14071 -5.28238 23.7209 -0.0851345 -0.149135 0.985145
-4.26267 -5.14915 23.4695 -0.136816 -0.156937 0.978083
-4.96861 -5.68892 23.2828 -0.136715 -0.159249 0.977726
-5.59 -6.21857 23.0897 -0.160517 -0.176268 0.971166
-6.11886 -6.06449 23.0251 -0.176792 -0.171312 0.969225
-6.05243 -4.91814 23.2395 -0.173452 -0.163686 0.971111
-5.41905 -3.82014 23.5115 -0.145222 -0.149169 0.97809
-4.64449 -3.89289 23.6098 -0.119221 -0.121606 0.985296
-4.2884 -4.59085 23.5541 -0.136916 -0.154624 0.97844
-7.77361 7.8183 22.2528 -0.212977 0.215716 0.952857
-8.6532 7.87605 22.0318 -0.225103 0.211132 0.951184
-9.43154 8.2599 21.7592 -0.233429 0.212704 0.948809
-10.0774 8.95625 21.441 -0.235007 0.208164 0.949426
-10.1461 9.89792 21.2144 -0.22845 0.222669 0.947749
-9.61895 11.1736 21.0389 -0.225627 0.224363 0.948026
-8.8407 11.6437 21.1107 -0.205134 0.235308 0.949953
-7.66056 11.5998 21.3707 -0.201478 0.243498 0.948744
-7.03552 11.2433 21.5898 -0.185568 0.248855 0.950598
-6.4212 10.405 21.9234 -0.190247 0.23292 0.953701
-6.32811 9.6766 22.118 -0.189195 0.227948 0.95511
-6.62586 8.7517 22.2766 -0.192242 0.226906 0.95475
-7.23685 8.11526 22.2972 -0.200853 0.220301 0.954529
-7.3744 8.04042 22.2855 -0.200853 0.220301 0.954529
-8.13406 9.28265 21.8341 -0.214488 0.227968 0.949723
-7.83767 10.0435 21.7158 -0.206908 0.230265 0.950876
