2.24576 3.89751 36.0884 0.116695 0.26522 0.956582
1.48865 3.93139 36.0861 0.0028836 0.211899 0.977287
1.48865 3.93139 36.0861 0.0028836 0.211899 0.977287
0.699436 4.04364 36.0766 -0.00198209 0.257726 0.964789
-0.140706 4.09569 36.031 -0.059678 0.298687 0.952113
-1.39461 3.97151 35.9208 -0.165964 0.248261 0.954008
-1.47297 4.74807 35.692 -0.188392 0.26011 0.947022
-1.14128 5.42274 35.5496 -0.0727074 0.278803 0.957591
-0.769851 6.05972 35.3825 -0.103465 0.324891 0.940075
-0.0107421 5.69139 35.5453 0.00195311 0.283716 0.958906
0.72954 5.15145 35.7157 -0.0219807 0.319031 0.947489
1.45079 4.54503 35.9206 0.0289272 0.30833 0.950709
2.22486 3.91808 36.0844 0.0724621 0.295077 0.952079
3.27239 4.88142 35.6644 0.11043 0.299678 0.947628
3.84651 4.30396 35.7368 0.252503 0.280769 0.925274
4.7682 3.63669 35.6558 0.29866 0.23708 0.923565
5.6038 3.24934 35.4078 0.364139 0.151031 0.919017
6.38735 3.20662 35.1432 0.314352 0.166177 0.934649
7.15083 3.43219 34.8206 0.346102 0.186058 0.919563
7.79572 3.78921 34.5057 0.355789 0.200561 0.912599
8.40604 4.23772 34.1529 0.365479 0.215061 0.905634
9.03752 4.77382 33.7721 0.3797 0.248936 0.890987
9.73527 5.55159 33.2479 0.382812 0.270999 0.883158
10.3065 6.11277 32.8216 0.386543 0.267867 0.882494
10.6869 6.95617 32.4067 0.377413 0.25972 0.888862
10.954 7.64348 32.0661 0.362234 0.308302 0.879623
10.9956 8.6543 31.6821 0.364095 0.32677 0.872156
10.7366 9.86679 31.3257 0.350163 0.345081 0.870664
10.3077 10.8978 31.0731 0.334699 0.355546 0.872676
10.026 11.7242 30.8433 0.335274 0.365245 0.868406
10.6179 12.4208 30.3164 0.333128 0.372239 0.866293
11.2833 12.6164 29.9839 0.325909 0.368699 0.870543
12.1953 12.1983 29.7966 0.349926 0.348192 0.869663
12.6604 11.3714 29.9362 0.357619 0.336178 0.871259
12.6847 10.474 30.2735 0.358431 0.337631 0.870363
12.1457 9.65274 30.815 0.374436 0.334612 0.864773
11.8818 8.97199 31.1895 0.385736 0.314332 0.867395
11.9653 7.8653 31.559 0.397054 0.293506 0.869203
12.4517 6.82244 31.6554 0.414589 0.263101 0.871032
12.799 6.13395 31.6757 0.405187 0.230614 0.88467
13.2614 5.48157 31.6329 0.410688 0.221886 0.884365
12.5466 5.65779 31.9155 0.414098 0.2298 0.880692
11.4913 5.44796 32.4798 0.423357 0.229407 0.876437
10.7197 5.0939 32.9361 0.406988 0.243123 0.880324
10.2167 4.62776 33.2875 0.410908 0.228891 0.882465
9.77557 3.62066 33.7469 0.414269 0.208615 0.885924
9.54526 2.7155 34.0209 0.369369 0.156899 0.915942
9.51393 1.93285 34.1676 0.39798 0.14118 0.905821
9.50796 0.719377 34.2424 0.446658 0.0250526 0.893967
9.23296 -0.338166 34.3483 0.419283 -0.025395 0.9075
8.53506 -0.339519 34.6619 0.370191 0.0266464 0.92848
7.58237 0.650363 35.0233 0.381885 0.0303252 0.923712
6.91745 1.32172 35.2285 0.345724 0.0888015 0.933647
6.0272 1.9012 35.4691 0.323058 0.128219 0.937653
5.22127 2.05962 35.7314 0.343873 0.121651 0.931103
4.29839 1.91948 36.0809 0.307866 0.120643 0.943529
3.43568 1.75523 36.3114 0.190466 0.0687564 0.979283
2.38541 1.9294 36.422 0.107727 0.100799 0.989057
1.62228 2.2577 36.4104 0.0130641 0.167225 0.985746
0.90583 2.50745 36.3695 0.00608558 0.158374 0.987333
0.15662 2.65474 36.3554 0.00710642 0.15176 0.98838
-1.2261 2.54996 36.2855 -0.17583 0.179447 0.966345
-1.99395 2.3202 36.1518 -0.20368 0.136905 0.969418
-3.19869 1.94508 35.9517 -0.217664 0.0977065 0.970228
-3.83571 2.40114 35.708 -0.242758 0.180788 0.953092
-3.97294 3.16685 35.5278 -0.25097 0.191416 0.948776
-3.66935 3.94593 35.4399 -0.228903 0.223202 0.94707
-3.18134 4.64756 35.3714 -0.201993 0.233324 0.951188
-2.7589 5.37892 35.241 -0.182987 0.286324 0.940497
-2.43546 6.19052 35.054 -0.188942 0.311324 0.931321
-2.19204 7.0977 34.8032 -0.186547 0.307983 0.932924
-2.13705 7.85524 34.4952 -0.137059 0.391666 0.909832
-2.28007 8.5771 34.1663 -0.134783 0.388621 0.911486
-1.52171 9.04996 34.0423 -0.0974974 0.42314 0.90064
-0.894621 8.16419 34.5012 -0.0667056 0.402765 0.91287
-0.243408 7.62465 34.7868 -0.0595751 0.40316 0.91316
0.386142 7.18179 35.0043 -0.037176 0.397486 0.916855
1.00872 6.75952 35.1895 0.00716345 0.313059 0.94963
1.90217 6.13671 35.3992 0.000423946 0.304354 0.952502
2.68844 5.48514 35.5421 0.112517 0.296781 0.948294
3.0373 5.12755 35.614 0.11043 0.299678 0.947628
3.98935 6.25523 34.9971 0.180309 0.319579 0.930246
4.91771 5.27819 35.112 0.258846 0.319076 0.911696
5.89236 4.68445 34.9873 0.32565 0.222894 0.918808
6.9278 5.12835 34.538 0.304682 0.203452 0.930471
7.58853 5.78433 34.1042 0.395638 0.278121 0.875282
8.44602 6.53972 33.4948 0.375201 0.270235 0.886678
8.99279 6.97936 33.0988 0.358113 0.334578 0.871547
9.39012 7.61248 32.7061 0.347895 0.326668 0.878782
9.68428 8.24186 32.3545 0.352314 0.31997 0.879456
9.54283 9.18836 32.0458 0.328753 0.340903 0.880742
9.17839 10.0054 31.8694 0.324278 0.362872 0.873047
8.89998 10.8811 31.5944 0.302028 0.368682 0.87912
8.61584 11.6218 31.3813 0.301649 0.370748 0.878379
7.67996 11.8447 31.5933 0.287253 0.39037 0.874698
6.9897 11.5338 31.9543 0.284039 0.375315 0.882295
6.42661 11.1529 32.2925 0.226048 0.40699 0.885021
5.44746 10.8733 32.6744 0.232251 0.40862 0.88266
4.67444 11.0071 32.8157 0.198848 0.410901 0.889095
3.92477 11.6535 32.6305 0.158225 0.441106 0.883397
3.64003 12.2911 32.3487 0.117066 0.420514 0.89863
3.60076 13.1483 31.9667 0.155122 0.418451 0.894894
4.15702 13.8945 31.5292 0.145828 0.41053 0.900111
5.20043 14.2124 31.2015 0.16493 0.418774 0.892987
5.9916 13.9481 31.1411 0.215793 0.398079 0.891609
6.59997 13.4922 31.1915 0.27365 0.398785 0.875211
7.32545 12.7534 31.303 0.280245 0.399811 0.872685
8.08032 12.5945 31.1335 0.276681 0.38437 0.880742
8.72226 12.9825 30.7615 0.277406 0.390965 0.877603
9.31724 13.4295 30.3596 0.314562 0.376586 0.87134
9.93714 13.9674 29.914 0.305878 0.365064 0.879299
10.5658 14.1136 29.6294 0.315895 0.364914 0.875813
11.5875 14.1713 29.2353 0.324454 0.356232 0.876258
12.2971 14.1203 28.9932 0.33114 0.352292 0.875322
13.0668 13.3757 28.9949 0.334554 0.342776 0.87781
13.8079 12.7511 28.942 0.350508 0.333024 0.875335
14.0889 12.0391 29.0966 0.354961 0.327481 0.875644
14.2347 11.2057 29.3466 0.362209 0.320105 0.875365
14.2762 10.3719 29.6312 0.369726 0.317211 0.873316
14.2047 9.6957 29.9049 0.386397 0.303296 0.871036
13.6509 9.11758 30.3535 0.388485 0.303083 0.870184
13.3382 8.35087 30.7652 0.392307 0.30768 0.86685
13.5617 7.62058 30.9035 0.399459 0.279161 0.873213
14.0357 6.98705 30.8766 0.416821 0.249959 0.873789
14.5275 6.40152 30.8022 0.418421 0.226101 0.879598
15.5194 5.56053 30.5384 0.415721 0.217812 0.883025
15.9719 4.70781 30.5146 0.426125 0.197137 0.882924
15.7017 3.85369 30.8278 0.425641 0.15389 0.891088
14.9856 3.39155 31.2374 0.43506 0.123535 0.891879
14.1303 3.50749 31.6509 0.449536 0.120507 0.885096
13.5209 3.90363 31.8814 0.422123 0.186278 0.886941
12.8093 4.06251 32.1821 0.441583 0.213671 0.871406
11.9749 4.05257 32.6074 0.43271 0.2199 0.874231
11.3898 3.57499 33.0008 0.415828 0.207638 0.885423
11.0125 2.79411 33.3611 0.410176 0.159901 0.896531
10.8951 1.9091 33.5141 0.417533 0.09711 0.903458
10.85 0.864588 33.5714 0.437875 0.00851067 0.898951
11.0864 -0.0557589 33.4737 0.434012 0.0135795 0.90078
11.4516 -0.767677 33.2767 0.439022 -0.0358876 0.897759
12.0122 -1.25564 32.983 0.441513 -0.0560052 0.895272
12.7593 -1.18505 32.6077 0.452565 -0.0533996 0.890131
13.6119 -1.22739 32.1821 0.438842 -0.0425726 0.897524
14.4555 -1.75944 31.7425 0.441648 -0.0368561 0.896429
14.8298 -2.50404 31.4944 0.453204 -0.0872659 0.887125
14.9756 -3.58714 31.2994 0.450777 -0.134464 0.88204
14.9669 -4.37964 31.154 0.436786 -0.194984 0.878179
14.9409 -5.32899 30.9618 0.420472 -0.194203 0.886195
15.0276 -6.45121 30.6455 0.400783 -0.237289 0.884812
14.833 -7.66529 30.3896 0.400397 -0.250833 0.881342
14.3016 -8.318 30.4276 0.400164 -0.275022 0.874203
13.7962 -8.92665 30.4576 0.378226 -0.297859 0.876466
13.5473 -10.147 30.1421 0.372139 -0.300889 0.878026
13.5553 -10.8669 29.8776 0.359189 -0.320413 0.876538
13.6975 -11.5713 29.5601 0.355594 -0.331422 0.873874
13.7019 -12.5578 29.1781 0.347956 -0.331209 0.877046
13.4603 -13.3267 28.9763 0.332198 -0.342492 0.878831
12.8616 -14.1078 28.8982 0.332208 -0.34064 0.879544
12.0281 -14.5092 29.0464 0.323635 -0.347554 0.880038
11.37 -15.0195 29.078 0.310615 -0.359538 0.879915
10.4656 -15.3928 29.2416 0.306246 -0.363789 0.8797
9.66249 -15.6419 29.397 0.279046 -0.368019 0.886958
8.8919 -15.7681 29.5822 0.251647 -0.37265 0.8932
8.13048 -15.5073 29.91 0.252308 -0.384168 0.888119
7.59189 -15.0994 30.2324 0.227443 -0.383369 0.895152
6.93569 -14.4107 30.7097 0.237458 -0.398221 0.886021
6.76379 -13.7449 31.062 0.23056 -0.411646 0.881697
6.98531 -12.9701 31.3655 0.228369 -0.417123 0.879667
7.60309 -12.0569 31.6159 0.266714 -0.404499 0.874783
8.68431 -11.5349 31.4971 0.311135 -0.395822 0.864014
9.57808 -11.1915 31.3237 0.329696 -0.37679 0.865638
10.2586 -10.8725 31.2036 0.329388 -0.376782 0.865759
10.9351 -10.2423 31.1863 0.355257 -0.338826 0.871198
11.6003 -9.24683 31.2868 0.374329 -0.325015 0.86842
11.4843 -8.5231 31.6164 0.372127 -0.332322 0.866642
11.4112 -7.68911 31.951 0.375391 -0.302105 0.87625
11.4281 -6.71506 32.2574 0.403316 -0.270847 0.874058
11.6571 -5.75619 32.4328 0.423089 -0.222121 0.878137
11.7047 -5.01905 32.577 0.420069 -0.200308 0.885109
11.8117 -4.27002 32.6963 0.431303 -0.195077 0.880792
11.8646 -3.33062 32.8338 0.409541 -0.155169 0.898999
11.6828 -2.53345 33.0379 0.439551 -0.0747865 0.895084
11.251 -1.95092 33.3023 0.444004 -0.0761227 0.892785
10.2393 -1.67523 33.8148 0.428636 -0.0896934 0.899014
9.43091 -1.90203 34.1731 0.438976 -0.109937 0.891328
8.56812 -2.05867 34.6048 0.435417 -0.134338 0.889574
7.65193 -1.94191 34.9949 0.362499 -0.0991137 0.926699
7.02237 -1.2603 35.3178 0.389706 -0.0235487 0.919009
6.62493 -0.635268 35.4731 0.383175 0.0470149 0.922057
5.83802 0.361083 35.7098 0.345467 0.0796201 0.934793
4.75267 0.400516 36.0225 0.250986 0.0563282 0.966351
3.26358 0.139096 36.3231 0.140264 0.0419741 0.989224
2.44491 0.123845 36.4479 0.121319 -0.0236476 0.99164
1.75902 0.460912 36.5066 0.079338 -0.00930813 0.996804
1.06264 0.83103 36.5655 0.0299645 0.0372304 0.99655
0.0476712 1.20042 36.5367 0.0165932 0.0942909 0.995406
-0.890312 1.14378 36.4897 -0.158778 0.0937534 0.982611
-1.64044 0.753986 36.4193 -0.151598 0.114338 0.981807
-2.58144 0.305977 36.21 -0.262252 0.0651519 0.962551
-3.66961 0.293774 35.9266 -0.245796 0.0491453 0.968075
-4.599 0.581501 35.676 -0.252398 0.0455924 0.966518
-5.19967 1.41424 35.4426 -0.253673 0.0979454 0.962318
-5.45389 2.19988 35.2957 -0.268897 0.132977 0.953136
-5.67226 3.2096 35.0502 -0.272659 0.184933 0.943949
-5.47443 4.15102 34.9145 -0.255289 0.186244 0.948758
-5.00185 4.851 34.8906 -0.244426 0.237906 0.939321
-4.41407 5.38825 34.8915 -0.248922 0.274147 0.928911
-3.9638 6.20989 34.7675 -0.211446 0.275732 0.936964
-3.64107 7.18823 34.4938 -0.190974 0.365015 0.911204
-3.72608 8.00752 34.1449 -0.209126 0.395742 0.893626
-3.89403 8.68022 33.7848 -0.233984 0.412807 0.880251
-4.02728 9.37062 33.4386 -0.233997 0.39522 0.888283
-3.56701 10.381 33.0913 -0.190873 0.400037 0.896403
-2.63371 11.102 32.9361 -0.158055 0.437898 0.885022
-1.84512 11.155 33.0292 -0.129338 0.433955 0.891602
-1.14863 10.931 33.228 -0.0436173 0.454162 0.889844
-0.404214 10.1132 33.6858 -0.0748056 0.430178 0.898649
-0.0341497 9.43496 33.9837 0.00471449 0.402753 0.915296
0.620408 8.79108 34.306 -0.0277811 0.4431 0.896042
1.58434 8.07002 34.6122 0.0611306 0.380851 0.922614
2.30918 7.64908 34.7319 0.107844 0.378553 0.919275
2.93511 7.2311 34.8172 0.116702 0.361654 0.92498
3.88785 6.37631 34.9751 0.180306 0.319579 0.930247
-1.47308 -3.95078 36.1034 -0.167767 -0.245305 0.954487
-0.755615 -4.69682 35.9844 -0.108319 -0.267556 0.957434
-0.642746 -5.89933 35.5803 0.00433163 -0.368001 0.929813
-0.727884 -6.60905 35.2962 -0.0164755 -0.37644 0.926295
-0.945159 -7.37604 34.9609 -0.0404948 -0.399073 0.915864
-0.748962 -8.27952 34.5942 -0.0380862 -0.386981 0.921251
-0.354434 -9.03631 34.2606 -0.0186812 -0.42647 0.904309
0.372628 -9.51936 34.0372 0.0187387 -0.437769 0.898892
1.149 -9.92702 33.8139 0.0215442 -0.448324 0.893611
1.84143 -10.3346 33.5524 0.0638986 -0.443486 0.893769
1.69556 -11.0714 33.2144 0.0591678 -0.425914 0.902827
1.33537 -12.0618 32.7545 0.0439453 -0.437127 0.898325
0.911388 -12.9206 32.3573 0.0282946 -0.443163 0.895834
-0.205824 -13.3281 32.178 0.0172469 -0.436726 0.899429
-0.97663 -13.4575 32.0756 -0.0575811 -0.439531 0.89638
-1.79451 -13.4114 32.0325 -0.10862 -0.450417 0.886186
-2.69387 -13.3245 31.9466 -0.128862 -0.435136 0.891096
-3.41781 -13.0118 31.9904 -0.156975 -0.423682 0.8921
-4.38815 -12.0946 32.2671 -0.174797 -0.437563 0.881959
-5.06246 -11.2743 32.5175 -0.234848 -0.415305 0.878449
-5.72622 -10.8291 32.528 -0.251052 -0.395189 0.883628
-6.77531 -10.897 32.175 -0.284613 -0.379427 0.880196
-7.28227 -11.3802 31.7818 -0.306764 -0.388391 0.868935
-7.74925 -12.157 31.2807 -0.29856 -0.375743 0.877314
-7.9449 -12.8213 30.9296 -0.302287 -0.377763 0.875155
-8.05734 -13.577 30.551 -0.301854 -0.392404 0.868852
-7.69652 -14.2957 30.3536 -0.268206 -0.392716 0.879627
-6.86528 -14.8534 30.3437 -0.247552 -0.388157 0.887723
-6.04633 -15.1427 30.434 -0.230616 -0.395851 0.888886
-5.07923 -15.8885 30.3125 -0.183709 -0.422578 0.887513
-4.94354 -16.7922 29.9195 -0.186878 -0.404113 0.895416
-5.5629 -17.4566 29.4867 -0.192598 -0.408268 0.892314
-6.31634 -17.6235 29.2477 -0.209512 -0.401454 0.891407
-7.12271 -17.0596 29.294 -0.223297 -0.392673 0.892158
-7.4817 -16.3898 29.4884 -0.2538 -0.385367 0.887174
-8.01111 -15.6162 29.673 -0.261627 -0.378589 0.887758
-8.90562 -15.2895 29.5384 -0.275512 -0.37238 0.886219
-9.61972 -15.4701 29.2348 -0.288372 -0.366031 0.884742
-10.3419 -15.607 28.9375 -0.296678 -0.359749 0.884626
-11.0161 -15.7609 28.6488 -0.30471 -0.345084 0.887732
-12.0214 -15.4308 28.4337 -0.303878 -0.347815 0.886952
-12.9625 -15.1875 28.1889 -0.321733 -0.340472 0.883497
-13.6604 -14.8336 28.0725 -0.314221 -0.327758 0.890965
-14.0503 -13.9742 28.2478 -0.326337 -0.32912 0.886106
-14.4255 -13.1632 28.4108 -0.332551 -0.324068 0.885621
-14.2675 -12.3745 28.7601 -0.350299 -0.322184 0.879482
-13.8024 -11.3209 29.3299 -0.347271 -0.322523 0.880558
-13.6715 -10.5801 29.6433 -0.370061 -0.310179 0.87561
-13.8131 -9.66156 29.9148 -0.378627 -0.306971 0.873111
-14.4313 -8.96301 29.8751 -0.380291 -0.283022 0.880425
-15.0115 -8.40286 29.8113 -0.369978 -0.282401 0.88508
-15.4959 -7.53346 29.858 -0.380581 -0.249258 0.890476
-15.2552 -6.63894 30.1896 -0.39523 -0.219961 0.891858
-14.415 -5.831 30.7739 -0.411742 -0.220891 0.884124
-13.7353 -5.79829 31.0919 -0.419434 -0.204337 0.88434
-13.058 -5.97227 31.3869 -0.426478 -0.224493 0.875852
-12.3939 -7.06707 31.388 -0.396466 -0.269212 0.877521
-12.1446 -8.27021 31.111 -0.385309 -0.281829 0.878695
-11.343 -9.03232 31.2047 -0.371353 -0.289532 0.882195
-10.6893 -9.40965 31.3517 -0.343235 -0.345649 0.873325
-9.78064 -9.80033 31.5532 -0.335348 -0.35234 0.873681
-9.06583 -9.81393 31.8146 -0.326434 -0.35087 0.877673
-8.22806 -9.46377 32.2575 -0.314677 -0.350732 0.882023
-7.54268 -9.087 32.6515 -0.313184 -0.350137 0.882791
-6.92379 -8.65813 33.0412 -0.317107 -0.365506 0.874949
-6.10108 -8.51209 33.3949 -0.289375 -0.391846 0.873338
-5.17939 -8.44665 33.7276 -0.284947 -0.390188 0.875533
-4.1927 -7.93785 34.2194 -0.191084 -0.405266 0.893969
-3.89949 -6.63252 34.856 -0.20498 -0.338888 0.916101
-4.16739 -5.71435 35.115 -0.26674 -0.392952 0.880022
-4.93357 -4.73152 35.139 -0.339492 -0.240093 0.908925
-4.20311 -4.20188 35.4788 -0.242178 -0.171314 0.954842
-3.40173 -3.9283 35.7197 -0.224556 -0.178114 0.958045
-2.62606 -3.63861 35.9554 -0.188401 -0.196084 0.961465
-1.89589 -3.76984 36.0644 -0.185516 -0.227498 0.955944
-2.27537 -5.639 35.5431 -0.141573 -0.236664 0.961218
-2.32941 -6.41026 35.2555 -0.125384 -0.358156 0.925204
-2.46555 -6.35799 35.2529 -0.182491 -0.346004 0.920314
-2.676 -5.75431 35.4299 -0.2025 -0.303426 0.931089
-2.52162 -5.57506 35.5219 -0.173283 -0.269724 0.946061
-5.10388 -4.13854 35.2112 -0.344033 -0.21016 0.915136
-5.70863 -3.7333 35.0941 -0.315677 -0.22597 0.921567
-5.75959 -2.96821 35.198 -0.322935 -0.121731 0.93856
-6.05704 -1.81515 35.2434 -0.279413 -0.101501 0.954791
-6.65994 -1.04829 35.1204 -0.334608 0.00195858 0.941878
-7.43088 -0.410662 34.8168 -0.362719 0.00526098 0.931884
-8.26357 0.0107618 34.4335 -0.419295 0.0237303 0.90754
-9.4232 0.111386 33.9096 -0.405076 0.0041666 0.914273
-10.2571 0.329105 33.5308 -0.424699 0.0224549 0.905039
-10.7264 0.979605 33.2952 -0.436232 0.0312709 0.899096
-10.5619 1.69039 33.3262 -0.446458 0.0724298 0.891868
-10.172 2.33283 33.4631 -0.432404 0.139783 0.890679
-9.86392 3.14095 33.4764 -0.421417 0.14597 0.895042
-9.8346 4.21672 33.2873 -0.427143 0.194558 0.882625
-10.1786 4.89208 32.9351 -0.424134 0.239064 0.873472
-10.9114 5.42501 32.4341 -0.423597 0.228728 0.876447
-11.6717 5.47563 32.0604 -0.418019 0.222498 0.880769
-12.4458 5.35049 31.7258 -0.416723 0.222847 0.881295
-13.3868 4.67862 31.4445 -0.415835 0.212549 0.884254
-13.7626 3.70514 31.4907 -0.426621 0.190813 0.884073
-13.8121 2.95783 31.5912 -0.43349 0.114448 0.893861
-13.5283 2.17213 31.8106 -0.440602 0.0642227 0.895388
-12.8147 1.56606 32.2094 -0.442402 0.0605315 0.894761
-11.9788 0.966444 32.6578 -0.439936 0.0571567 0.896208
-11.4413 0.194875 32.9582 -0.458653 0.0196206 0.888399
-11.3124 -0.647236 33.0473 -0.443484 0.000354952 0.895828
-11.5622 -1.5387 32.8848 -0.42573 -0.0755244 0.901383
-11.6511 -2.70763 32.6912 -0.436974 -0.134031 0.889432
-11.6771 -3.47671 32.5608 -0.425526 -0.149831 0.892456
-11.3201 -4.20204 32.6092 -0.425415 -0.149897 0.892498
-10.793 -4.70697 32.7673 -0.424759 -0.211669 0.880214
-9.78665 -5.26392 33.1113 -0.399735 -0.183495 0.898065
-8.85156 -5.41341 33.4918 -0.391129 -0.221271 0.89256
-8.00499 -5.43873 33.8227 -0.349478 -0.275272 0.895595
-7.19381 -5.19304 34.2148 -0.348434 -0.243423 0.905174
-6.28506 -4.63548 34.684 -0.305838 -0.238687 0.921679
-5.42784 -4.23886 35.0664 -0.329855 -0.218067 0.918351
-5.26029 -4.39659 35.0931 -0.344033 -0.21016 0.915136
-7.34305 -3.42093 34.573 -0.367351 -0.188343 0.910813
-7.51209 -2.30166 34.6833 -0.404592 -0.115327 0.907196
-8.04229 -1.78054 34.504 -0.437618 -0.0711817 0.896339
-8.83213 -1.47454 34.1469 -0.429908 -0.0713201 0.900051
-9.64963 -1.3971 33.7596 -0.424538 -0.0188321 0.904926
-10.1513 -2.0694 33.4943 -0.416048 -0.0494912 0.907995
-10.2449 -2.8556 33.3739 -0.401277 -0.129866 0.906704
-9.58784 -3.63197 33.5243 -0.386659 -0.171489 0.906138
-8.8745 -3.80472 33.8281 -0.424935 -0.16318 0.890394
-8.14191 -3.76591 34.1794 -0.388892 -0.163648 0.906028
-7.64629 -3.62422 34.4086 -0.367354 -0.188344 0.910812
-2.67848 -8.36848 34.3458 -0.173095 -0.38849 0.905049
-3.15516 -8.94457 34.0074 -0.188241 -0.388674 0.901808
-3.75365 -9.36803 33.6866 -0.212048 -0.399631 0.891813
-4.37967 -10.0464 33.2338 -0.208132 -0.410264 0.887818
-3.84721 -10.6482 33.0702 -0.20422 -0.4209 0.88382
-3.26661 -11.2191 32.9153 -0.148202 -0.448006 0.881594
-2.40031 -11.8638 32.7216 -0.114513 -0.460023 0.879986
-1.26762 -11.9597 32.7945 -0.0778351 -0.435546 0.896522
-0.464105 -11.7686 32.9201 -0.0273328 -0.424711 0.904916
-0.0941177 -11.2088 33.1991 -0.0279864 -0.432143 0.901371
-0.767108 -10.3797 33.5833 -0.0240918 -0.444363 0.895491
-1.33678 -9.86075 33.8247 -0.0485773 -0.432202 0.900311
-2.16723 -8.88282 34.2228 -0.14073 -0.417612 0.896564
3.08201 -8.77735 34.199 0.129099 -0.40839 0.903514
3.86999 -8.74377 34.0963 0.160216 -0.421654 0.892113
4.65224 -8.84001 33.8867 0.193192 -0.412924 0.889945
5.54846 -8.5983 33.7699 0.2397 -0.400652 0.88432
6.31215 -7.71582 33.9213 0.29499 -0.336209 0.894213
6.47447 -6.74956 34.2279 0.312262 -0.334648 0.889103
6.11209 -6.01364 34.6005 0.312141 -0.292269 0.903962
5.10987 -5.35537 35.1062 0.223964 -0.307788 0.92472
4.26692 -5.40723 35.3179 0.239955 -0.266492 0.932033
3.47327 -5.91741 35.3511 0.143533 -0.287999 0.944287
2.83348 -6.76351 35.1135 0.0434021 -0.247755 0.962711
3.03864 -7.86216 34.6034 0.104301 -0.404074 0.908761
3.19337 -8.56751 34.2754 0.123348 -0.39651 0.909706
4.44258 -7.41604 34.5744 0.199434 -0.400885 0.894158
4.46276 -7.42406 34.5663 0.199434 -0.400885 0.894157
8.84519 -13.0472 30.7535 0.281105 -0.40054 0.872018
9.73234 -12.6226 30.6342 0.309162 -0.38827 0.868139
10.5335 -12.2808 30.5018 0.317725 -0.377957 0.869493
11.4472 -11.6611 30.4116 0.336416 -0.367859 0.866893
12.1515 -11.4704 30.2122 0.354731 -0.340868 0.870618
12.2562 -12.3287 29.8309 0.336415 -0.349257 0.874554
11.8357 -13.0366 29.7099 0.333218 -0.348932 0.8759
11.1838 -13.4977 29.7583 0.313638 -0.352813 0.881563
10.3936 -13.9339 29.8632 0.302316 -0.358789 0.883078
9.29569 -14.2311 30.1113 0.281674 -0.371807 0.884335
8.50175 -13.7752 30.5408 0.263555 -0.377311 0.887792
8.54185 -13.698 30.5617 0.273117 -0.383654 0.882073
3.57027 -15.7406 30.7684 0.129769 -0.416062 0.900029
3.02447 -15.255 31.0539 0.102506 -0.414368 0.904318
1.94642 -15.6346 30.9703 0.0433131 -0.419173 0.906842
1.8529 -16.629 30.5242 0.0417336 -0.413797 0.909408
2.58248 -16.9825 30.3028 0.0845112 -0.408514 0.908831
3.30206 -16.7208 30.3535 0.105764 -0.412717 0.904428
3.57977 -15.8502 30.7163 0.129769 -0.416062 0.900029
12.9909 -7.9619 31.1402 0.402203 -0.309051 0.861812
13.4582 -7.02303 31.2059 0.41833 -0.258925 0.870608
13.5548 -6.02805 31.4393 0.418608 -0.238378 0.876316
13.0796 -5.376 31.8436 0.42254 -0.219889 0.879111
13.4724 -6.00988 31.4834 0.415986 -0.24075 0.876924
12.9377 -6.89715 31.4934 0.417158 -0.249837 0.873766
12.9868 -7.94024 31.1494 0.401939 -0.279203 0.872061
12.9898 -7.9521 31.1442 0.402071 -0.294127 0.866937
13.5611 -4.09477 31.8986 0.430202 -0.148346 0.89046
13.0879 -3.3506 32.256 0.437052 -0.153646 0.886216
13.4999 -3.45231 32.0352 0.433626 -0.150994 0.888339
13.5252 -3.6873 31.9838 0.430204 -0.148344 0.89046
8.2354 17.2993 29.0215 0.254565 0.372092 0.892605
7.34892 17.6878 29.1054 0.219659 0.389693 0.894361
7.18338 18.4405 28.8256 0.208123 0.374811 0.903439
7.68102 19.1534 28.4001 0.227878 0.380203 0.896391
8.50445 18.9161 28.2779 0.253465 0.365936 0.895456
8.98004 18.1669 28.4494 0.253463 0.365936 0.895456
8.7356 17.4734 28.8063 0.254565 0.372092 0.892605
-7.45566 14.5492 30.1804 -0.251942 0.384101 0.88817
-7.99825 15.3638 29.6785 -0.270995 0.373561 0.887138
-8.60099 16.0052 29.2352 -0.26297 0.363786 0.893592
-9.19418 16.4801 28.869 -0.267745 0.353551 0.896179
-10.0877 16.5129 28.576 -0.280508 0.348635 0.894298
-10.8671 16.2587 28.4249 -0.288721 0.342069 0.89422
-11.5005 15.7343 28.4187 -0.293033 0.337441 0.894575
-12.501 15.4008 28.2065 -0.305733 0.335471 0.891059
-13.2853 14.7234 28.1846 -0.316698 0.326636 0.890512
-13.644 13.9309 28.3457 -0.3241 0.321561 0.889674
-13.9854 13.1202 28.5184 -0.3266 0.326441 0.887
-14.3838 12.2723 28.676 -0.329298 0.318527 0.888877
-14.8667 11.3146 28.8273 -0.342298 0.313637 0.8857
-15.0094 10.5918 29.0159 -0.348815 0.298343 0.888437
-14.493 9.61863 29.5493 -0.354288 0.297019 0.886713
-13.8104 9.5251 29.8534 -0.360447 0.298592 0.883669
-13.0303 9.75298 30.1005 -0.357235 0.310274 0.880865
-12.296 9.94429 30.3218 -0.354162 0.322563 0.877794
-11.4035 10.1758 30.5958 -0.351731 0.324076 0.878214
-10.2958 10.5378 30.8926 -0.333929 0.33794 0.879936
-9.49508 10.589 31.1795 -0.341499 0.347334 0.873343
-8.86013 11.2407 31.1406 -0.31416 0.359529 0.878659
-8.45717 11.8649 31.0293 -0.307465 0.369932 0.876617
-7.84216 12.761 30.851 -0.287429 0.380243 0.878978
-7.57717 13.58 30.5721 -0.260729 0.388208 0.88392
-7.50577 14.2772 30.287 -0.260732 0.3882 0.883923
-7.49607 14.3 30.2798 -0.258924 0.390856 0.883277
-9.16674 14.0836 29.8493 -0.2969 0.365676 0.882118
-9.3027 13.0819 30.22 -0.30202 0.370722 0.878265
-10.1141 12.1042 30.3344 -0.317752 0.351527 0.880603
-11.0427 11.7583 30.1325 -0.333503 0.33476 0.881284
-11.9689 11.4618 29.8909 -0.33662 0.328183 0.882599
-13.0762 11.5688 29.4271 -0.342516 0.322667 0.882336
-12.8067 12.2861 29.2656 -0.335611 0.324633 0.884296
-12.5386 13.0093 29.0964 -0.33124 0.336153 0.881636
-12.1487 13.7881 28.9421 -0.313865 0.344439 0.884781
-11.3108 14.3746 29.012 -0.305344 0.347014 0.886711
-10.6056 14.6917 29.1232 -0.29956 0.353858 0.88603
-9.59959 14.6604 29.4676 -0.289624 0.357005 0.888068
-9.34931 14.3784 29.6656 -0.2969 0.365676 0.882118
-11.7897 3.91775 32.3729 -0.430248 0.193133 0.881574
-11.298 3.46703 32.7261 -0.447513 0.165254 0.878366
-11.5848 2.57457 32.7184 -0.43605 0.141069 0.888708
-12.2331 3.02893 32.3352 -0.42632 0.1473 0.892498
-12.282 3.5322 32.2281 -0.419689 0.170041 0.891304
-12.1203 -10.1798 30.455 -0.374597 -0.339471 0.862807
-11.4013 -10.5172 30.6248 -0.357337 -0.34544 0.867745
-10.6176 -10.8783 30.7887 -0.336934 -0.361866 0.869212
-9.47227 -11.272 31.0532 -0.321107 -0.370463 0.871578
-9.36763 -12.0145 30.7753 -0.3209 -0.371802 0.871084
-9.52916 -13.1589 30.2274 -0.313457 -0.375792 0.872039
-9.85537 -13.9463 29.7854 -0.296216 -0.369841 0.88061
-10.6814 -14.1782 29.4013 -0.309643 -0.360934 0.879686
-11.4676 -14.1035 29.1554 -0.309428 -0.360807 0.879814
-12.485 -13.6698 28.9527 -0.331779 -0.351302 0.875505
-12.7938 -12.9097 29.1321 -0.336259 -0.340198 0.878177
-12.4293 -11.7252 29.7356 -0.335215 -0.346899 0.875952
