-0.397455 4.19673 37.217 -0.0857615 0.192998 0.977444
0.448974 4.24551 37.1662 0.081999 0.269267 0.959115
0.448974 4.24551 37.1662 0.081999 0.269267 0.959115
1.38123 4.22557 37.0993 0.0878896 0.224677 0.970462
0.891286 4.93195 36.9564 0.0691727 0.312175 0.945749
0.0331332 5.84765 36.6381 0.0480675 0.40334 0.913787
-0.635466 6.16931 36.4269 -0.106236 0.371755 0.922107
-1.17382 5.51538 36.6317 -0.11433 0.385829 0.91545
-1.48332 4.74198 36.8652 -0.219807 0.338751 0.91484
-1.44188 4.1896 37.0586 -0.218982 0.252637 0.942455
-0.705059 4.192 37.1909 -0.0896764 0.190795 0.977515
-0.547306 4.18764 37.2056 -0.0857616 0.192998 0.977444
-0.622355 2.76218 37.4401 -0.0336122 0.126091 0.989654
-1.51618 2.60006 37.3723 -0.104921 0.135792 0.985166
-2.37917 2.21759 37.266 -0.253096 0.0798681 0.962836
-3.31214 1.86861 37.0374 -0.242839 0.0356669 0.969378
-3.92619 2.78481 36.7547 -0.206423 0.186434 0.960537
-3.88255 3.67859 36.5906 -0.25401 0.172642 0.950323
-3.59665 4.42816 36.4618 -0.219314 0.260688 0.940183
-2.93492 5.46868 36.2828 -0.186865 0.329657 0.925423
-2.53959 6.19265 36.1085 -0.193651 0.340699 0.919899
-2.25758 7.46253 35.6887 -0.178075 0.341619 0.922814
-2.26521 8.22061 35.3538 -0.136327 0.414421 0.899812
-2.40348 8.90843 35.0136 -0.137933 0.416647 0.898543
-2.23897 9.7091 34.6509 -0.104691 0.401536 0.90877
-1.65836 9.31601 34.9247 -0.124506 0.436683 0.890958
-0.846027 8.49682 35.3818 -0.053815 0.424408 0.90387
-0.274829 7.95999 35.6668 -0.0600334 0.419751 0.905646
0.485713 7.39279 35.9632 -0.0327559 0.423839 0.905145
1.14057 6.92579 36.1634 0.0461614 0.351499 0.934728
1.75564 6.3672 36.3277 0.0706275 0.352185 0.933262
2.2732 5.67737 36.5667 0.102718 0.363974 0.924746
2.8056 5.00399 36.7274 0.151166 0.335704 0.929759
3.40616 4.42157 36.7992 0.220547 0.290116 0.931183
4.05292 3.9449 36.7891 0.243599 0.274766 0.929856
4.73009 3.58734 36.6987 0.265396 0.268418 0.926022
5.57089 3.32303 36.4886 0.292654 0.128962 0.947477
6.70782 3.34926 36.1357 0.289937 0.120341 0.94945
7.57441 3.69162 35.7582 0.396618 0.249427 0.88318
8.54488 4.25871 35.1416 0.404493 0.240524 0.882318
9.06515 4.7738 34.7669 0.391872 0.233599 0.889798
9.82293 5.34645 34.2959 0.408051 0.225034 0.884446
10.0869 4.63334 34.349 0.43051 0.224501 0.87422
9.64814 3.93861 34.7326 0.407073 0.207185 0.888867
9.49421 3.14675 34.9575 0.415997 0.172743 0.892808
9.44631 2.37967 35.1243 0.458744 0.117582 0.879853
9.46262 1.58187 35.1856 0.466877 0.0769028 0.880972
9.58126 0.809038 35.1902 0.475796 0.0444476 0.877781
9.58782 -0.426832 35.1791 0.462831 -0.0143334 0.886331
8.79078 -0.388647 35.5908 0.460112 0.00671657 0.887557
8.18318 -0.0518838 35.9089 0.476422 0.0216237 0.878944
7.57761 0.56229 36.1465 0.381052 0.068264 0.921388
6.70436 1.32311 36.4078 0.351035 0.100699 0.930797
6.05602 1.7225 36.5581 0.298219 0.133988 0.945046
5.27224 2.06044 36.752 0.28962 0.137419 0.947226
4.22814 1.94545 37.0553 0.257694 0.0925637 0.961783
3.33795 1.85341 37.2862 0.175638 0.0506342 0.982946
2.12681 2.16185 37.4614 0.159348 0.0814212 0.983607
1.30744 2.50893 37.427 0.0238941 0.178575 0.983636
0.50132 2.69566 37.4216 0.0422389 0.125766 0.990778
-0.313651 2.75769 37.4335 0.022633 0.106745 0.994029
-0.612485 1.25834 37.5471 -0.0129778 0.0190245 0.999735
0.490494 1.08866 37.5798 -0.00408042 0.129726 0.991541
1.37455 0.580632 37.6031 0.0971848 0.0659843 0.993039
2.06278 0.111872 37.5623 0.142457 0.0133234 0.98747
3.36752 0.0253821 37.3474 0.168518 -0.00655891 0.984728
4.15929 0.105973 37.1863 0.19234 0.0266994 0.980954
4.88748 0.331526 37.0406 0.21525 0.0574822 0.973991
5.76949 0.154997 36.818 0.278134 0.0793325 0.957261
6.32777 -0.376981 36.649 0.32042 0.0182602 0.946945
6.78271 -0.964 36.4619 0.34483 -0.0961841 0.933724
7.35995 -1.49797 36.1644 0.412152 -0.142872 0.899843
7.83411 -2.00876 35.8649 0.413232 -0.150843 0.898046
8.55403 -2.27985 35.5112 0.403908 -0.11892 0.906497
9.33541 -2.26942 35.1409 0.427179 -0.0994989 0.898676
10.0832 -2.13205 34.7959 0.438339 -0.0973527 0.893496
10.7667 -2.01576 34.4685 0.442965 -0.0927276 0.89173
11.4287 -2.16366 34.1319 0.434197 -0.0891134 0.8964
12.3451 -3.02032 33.5649 0.463145 -0.120102 0.878107
12.3772 -4.15034 33.3367 0.450463 -0.201742 0.869703
12.091 -4.95157 33.299 0.450467 -0.20174 0.869701
11.8079 -5.7532 33.2384 0.439443 -0.22098 0.870665
11.6627 -6.52518 33.1158 0.439385 -0.232218 0.867656
11.6082 -7.77966 32.728 0.393583 -0.307107 0.866156
11.8324 -8.81529 32.2294 0.395058 -0.32796 0.858121
11.7473 -9.5785 31.9776 0.385452 -0.338265 0.858367
10.9267 -10.5336 31.9484 0.37534 -0.34498 0.860282
10.3576 -11.0334 31.9656 0.338982 -0.364215 0.867432
9.70685 -11.5274 32.009 0.323123 -0.379938 0.86674
9.02172 -11.8133 32.1391 0.315236 -0.377251 0.87076
8.18259 -12.2244 32.2515 0.292279 -0.384923 0.875447
7.47761 -12.5087 32.3619 0.291593 -0.391605 0.872678
7.01952 -13.4385 32.0519 0.24691 -0.404048 0.880644
6.8907 -14.1567 31.7436 0.266805 -0.425821 0.864576
7.00444 -14.8484 31.3757 0.251518 -0.405425 0.878783
7.50573 -15.3785 30.9844 0.246204 -0.414086 0.876308
8.2305 -15.931 30.5318 0.255214 -0.395892 0.881835
8.9754 -16.1418 30.2027 0.274148 -0.386611 0.88053
9.81768 -16.0754 29.9624 0.29044 -0.371034 0.882031
10.9632 -15.7354 29.7135 0.309539 -0.369116 0.876321
11.7664 -15.361 29.5828 0.326033 -0.364733 0.872155
12.567 -14.8835 29.4855 0.322693 -0.362951 0.874149
13.5498 -14.1589 29.3973 0.33476 -0.349525 0.875075
13.9813 -13.544 29.4678 0.353047 -0.346379 0.869126
14.3158 -12.3833 29.7876 0.355539 -0.337153 0.871734
14.2235 -11.5375 30.1537 0.368629 -0.332296 0.868146
14.0109 -10.6749 30.5732 0.371827 -0.330266 0.867565
14.124 -9.92576 30.7888 0.389969 -0.313415 0.86585
14.2741 -9.20512 30.9813 0.393272 -0.296209 0.870401
14.6068 -8.52957 31.0506 0.417257 -0.270364 0.867641
15.0945 -7.83437 31.0386 0.403196 -0.261895 0.876736
15.3772 -6.76785 31.2103 0.410882 -0.251729 0.876221
15.3612 -5.85109 31.4617 0.440935 -0.21151 0.872261
15.3167 -5.04074 31.6807 0.439937 -0.210805 0.872934
15.2306 -4.11589 31.9112 0.455703 -0.164191 0.874858
15.0227 -3.41397 32.1512 0.455704 -0.16419 0.874858
15.0143 -2.44188 32.2979 0.455332 -0.117211 0.882468
14.8099 -1.71254 32.4703 0.453135 -0.0547838 0.889757
14.2621 -1.23918 32.7781 0.453776 -0.039783 0.890227
13.51 -1.20365 33.1237 0.415092 -0.0363981 0.909051
12.8409 -1.22806 33.4708 0.470448 -0.0308032 0.88189
12.0289 -0.79531 33.9101 0.456683 -0.0231948 0.88931
11.3032 -0.192464 34.2982 0.454008 -0.000846804 0.890562
11.0516 0.505862 34.4045 0.451325 0.0268431 0.891956
10.9618 1.36158 34.4166 0.45241 0.0655256 0.889253
10.9157 2.56371 34.3338 0.443605 0.0785917 0.89277
11.3905 3.63375 33.9387 0.437103 0.17833 0.880885
11.7682 4.29654 33.6083 0.416066 0.202709 0.886453
12.7815 4.71386 33.0001 0.454611 0.233326 0.859586
13.4679 4.46289 32.7052 0.438503 0.227611 0.869208
14.197 3.96878 32.4553 0.431463 0.1738 0.885231
14.8554 3.56945 32.1903 0.465799 0.149403 0.872187
15.5553 3.55647 31.8254 0.452971 0.151537 0.878552
16.1201 4.32246 31.4171 0.423712 0.15301 0.892659
16.1536 5.14752 31.214 0.414571 0.218866 0.883305
15.6447 5.76071 31.3044 0.417962 0.216427 0.882308
14.8281 6.42972 31.5351 0.427047 0.246187 0.869928
14.0868 7.28629 31.6397 0.415262 0.263897 0.870524
13.8183 8.10036 31.4901 0.400432 0.293849 0.867933
13.9455 8.82163 31.1814 0.402746 0.305356 0.862875
14.4006 9.64391 30.678 0.402728 0.305353 0.862885
14.4745 10.423 30.3601 0.379903 0.321536 0.867345
14.451 11.1529 30.0992 0.369276 0.330979 0.868381
14.4728 11.882 29.8135 0.368648 0.329492 0.869214
14.389 12.683 29.5409 0.356761 0.341584 0.869499
13.4699 13.4739 29.6082 0.355242 0.338639 0.871279
12.8896 14.1853 29.5495 0.338822 0.350596 0.873088
12.24 14.6266 29.6205 0.331227 0.361485 0.871548
11.3117 14.7409 29.9289 0.333667 0.364777 0.869255
10.4579 14.6342 30.2878 0.323143 0.370571 0.870763
9.87528 14.2365 30.6693 0.311338 0.375426 0.872997
9.26495 13.756 31.1041 0.301945 0.397011 0.866421
8.38557 13.0124 31.7347 0.280364 0.403898 0.870781
7.2179 13.4121 31.9151 0.266644 0.410297 0.8721
6.62176 14.0184 31.8103 0.243139 0.421844 0.873246
5.38221 14.5828 31.852 0.192845 0.428412 0.882296
4.64858 14.4732 32.043 0.16525 0.436213 0.88454
3.93392 14.085 32.3606 0.156427 0.42995 0.889198
3.52588 13.1361 32.8957 0.142887 0.441361 0.88588
3.60559 12.4069 33.2494 0.152343 0.457093 0.876275
3.93042 11.7859 33.5264 0.158604 0.467784 0.869377
4.75441 11.2129 33.6691 0.179176 0.448519 0.875431
5.51798 10.971 33.5848 0.244803 0.426305 0.870825
6.40775 11.0717 33.2883 0.260026 0.411457 0.872978
7.1471 11.5512 32.828 0.290166 0.395987 0.871198
8.36931 11.4959 32.4411 0.297334 0.392339 0.870417
9.02559 11.0056 32.4158 0.324632 0.38475 0.864049
9.50316 10.3518 32.5275 0.333637 0.367269 0.867985
9.80726 9.52634 32.7388 0.345197 0.349475 0.871038
9.87502 8.76212 33.0138 0.366317 0.33137 0.869465
9.56303 7.9985 33.4583 0.383051 0.345728 0.856589
9.20154 7.39065 33.8539 0.344282 0.356162 0.868682
8.69806 6.92302 34.2402 0.351916 0.330205 0.875854
8.1752 6.41512 34.6249 0.339549 0.291899 0.894116
7.47355 5.63033 35.1562 0.350085 0.307956 0.884501
6.83963 5.0394 35.6028 0.317482 0.317462 0.893545
5.77101 4.79597 36.0505 0.303558 0.256154 0.917735
5.10057 5.10807 36.1852 0.277642 0.251108 0.926865
4.4271 5.5866 36.1882 0.219213 0.338953 0.914908
3.60539 6.45051 36.0528 0.205324 0.35489 0.912083
3.26068 7.11697 35.8544 0.134983 0.367638 0.920017
2.33954 7.97516 35.6282 0.108712 0.380009 0.918364
1.69483 8.3462 35.5028 0.0652346 0.419689 0.905321
0.692706 9.16389 35.1383 -0.0198316 0.449701 0.892959
0.194414 9.67581 34.8694 -0.0115444 0.436755 0.899352
-0.150315 10.2867 34.5823 -0.00325342 0.423792 0.905754
-0.852427 11.1307 34.1374 -0.0780828 0.418874 0.904678
-1.66463 11.4623 33.9142 -0.0969006 0.436364 0.894067
-2.85034 11.5136 33.7277 -0.115589 0.469324 0.875428
-3.5499 11.0609 33.8371 -0.19427 0.417372 0.887282
-3.93883 10.443 34.0216 -0.231186 0.383743 0.894033
-4.09216 9.70694 34.2979 -0.238353 0.380012 0.893708
-4.00802 8.51495 34.8849 -0.190545 0.417539 0.888417
-3.78311 7.60877 35.3301 -0.198531 0.390408 0.898981
-3.82427 6.88285 35.6188 -0.170691 0.330153 0.928242
-4.419 5.96232 35.7994 -0.235649 0.317644 0.918462
-5.07021 5.27667 35.8773 -0.225254 0.273403 0.93353
-5.45479 4.45987 35.9451 -0.334002 0.240453 0.911098
-5.60134 3.74275 36.1173 -0.28072 0.277619 0.917718
-5.69108 2.92604 36.3112 -0.258758 0.237472 0.936297
-5.39896 1.68592 36.492 -0.240059 0.0628171 0.968724
-5.09494 0.972909 36.6082 -0.277616 0.0276623 0.960276
-4.58261 0.286288 36.7779 -0.25275 0.0455292 0.96646
-3.92342 -0.0315772 36.9653 -0.25774 0.0489464 0.964954
-3.21768 -0.279224 37.1712 -0.251401 0.0586481 0.966014
-2.2376 0.298973 37.356 -0.141083 0.0144139 0.989893
-1.66496 0.823812 37.4465 -0.157814 -0.0263203 0.987118
-0.688403 1.24709 37.5464 -0.0129814 0.0190234 0.999735
-2.32178 -3.7159 36.9636 -0.193501 -0.194719 0.961583
-1.53329 -4.11162 37.0089 -0.121433 -0.274752 0.953751
-0.848826 -4.86239 36.8866 -0.132397 -0.275676 0.952089
-0.626515 -5.56491 36.6743 -0.112011 -0.324858 0.939106
-0.882128 -6.46596 36.3466 -0.0377809 -0.367586 0.928807
-1.56191 -7.19282 36.0243 -0.0340735 -0.405595 0.913133
-1.66513 -8.19535 35.5508 -0.0502575 -0.415356 0.908229
-0.831033 -9.17953 35.1592 -0.0467997 -0.409199 0.911218
-0.235935 -9.6946 34.9171 -0.0251717 -0.450009 0.892669
0.65632 -10.1402 34.7002 0.0290093 -0.45639 0.889307
1.39937 -10.3171 34.5809 0.0324667 -0.462018 0.886276
2.20845 -10.3544 34.4956 0.089828 -0.463215 0.881682
2.10749 -11.221 34.0726 0.0824257 -0.438676 0.894857
1.71631 -12.1615 33.6092 0.0491391 -0.467718 0.882498
1.08281 -12.8215 33.3029 0.0527653 -0.440885 0.895883
0.217036 -13.5613 32.9713 0.0378869 -0.447385 0.893537
-0.699444 -13.8081 32.8193 -0.0333133 -0.444265 0.895276
-1.49543 -13.8706 32.7277 -0.0860492 -0.448191 0.889787
-2.63709 -13.7102 32.6509 -0.15369 -0.453859 0.877719
-3.37727 -13.5631 32.5971 -0.151157 -0.44115 0.884606
-4.14387 -12.7485 32.8595 -0.173987 -0.446068 0.877925
-4.7721 -12.0477 33.0612 -0.201655 -0.422375 0.883705
-5.36872 -11.4888 33.1964 -0.229463 -0.41265 0.880905
-6.09255 -11.2618 33.0871 -0.249211 -0.391143 0.885946
-7.21115 -11.4092 32.6802 -0.294865 -0.37832 0.877456
-7.82505 -12.0039 32.2008 -0.272236 -0.39938 0.875433
-8.01914 -12.6967 31.8244 -0.272583 -0.398566 0.875696
-8.16205 -13.6847 31.3352 -0.298822 -0.389943 0.871005
-8.06129 -14.5226 30.9657 -0.264035 -0.418558 0.868962
-7.47505 -15.1325 30.8637 -0.243246 -0.406158 0.880833
-6.66597 -15.3588 30.9828 -0.245678 -0.408106 0.879249
-5.69155 -15.8543 31.001 -0.216631 -0.424689 0.879039
-5.05817 -16.6369 30.787 -0.190121 -0.413146 0.890598
-5.32048 -17.4347 30.3627 -0.191697 -0.410697 0.89139
-6.1689 -17.9667 29.9328 -0.209696 -0.402595 0.890837
-7.28046 -17.4213 29.893 -0.224193 -0.392395 0.892056
-7.66713 -16.7801 30.0633 -0.245645 -0.38952 0.887605
-8.26929 -16.0541 30.2229 -0.252488 -0.39449 0.883499
-8.97647 -15.8097 30.1117 -0.290552 -0.372381 0.881039
-10.1203 -15.6889 29.7781 -0.300681 -0.368983 0.879456
-10.8067 -15.819 29.4889 -0.296208 -0.365321 0.882473
-11.6732 -15.8572 29.1724 -0.311137 -0.356008 0.881165
-12.386 -15.7961 28.9456 -0.318837 -0.354728 0.878884
-13.0844 -15.4627 28.8193 -0.326889 -0.352583 0.876829
-13.7671 -15.0396 28.7379 -0.319389 -0.338614 0.885051
-14.1942 -14.1924 28.8989 -0.332892 -0.335081 0.881421
-14.5108 -13.4048 29.0793 -0.3424 -0.338521 0.876451
-14.338 -12.7179 29.4097 -0.354122 -0.330768 0.874751
-14.3334 -11.7887 29.7557 -0.354477 -0.318629 0.879103
-14.3238 -10.9536 30.0668 -0.36829 -0.31315 0.875385
-14.2819 -10.2542 30.3346 -0.376093 -0.319035 0.869854
-14.6234 -9.49297 30.4501 -0.384479 -0.291615 0.87579
-15.2198 -8.86897 30.4024 -0.374323 -0.290458 0.880634
-15.9322 -7.86917 30.3995 -0.385873 -0.261436 0.884692
-15.8226 -6.91349 30.7032 -0.400183 -0.235026 0.885786
-15.4911 -6.24145 31.0301 -0.399941 -0.233737 0.886236
-14.8615 -5.88681 31.4176 -0.412238 -0.227392 0.882202
-14.0396 -5.91941 31.7887 -0.424546 -0.217125 0.878808
-13.0501 -6.07828 32.2497 -0.431914 -0.236645 0.86997
-12.8168 -6.81045 32.1411 -0.40481 -0.26484 0.875208
-12.5175 -7.82268 31.9529 -0.394294 -0.293715 0.870783
-12.1451 -8.7558 31.809 -0.378917 -0.29492 0.877117
-11.5012 -9.19323 31.9308 -0.382731 -0.308451 0.870647
-10.571 -9.51622 32.2215 -0.35308 -0.346767 0.868634
-9.63045 -9.83812 32.4549 -0.340288 -0.366492 0.86596
-8.73936 -9.68674 32.8657 -0.336374 -0.366881 0.867324
-8.24779 -9.20264 33.2601 -0.335584 -0.365704 0.868127
-7.62548 -8.91561 33.6045 -0.311305 -0.37525 0.873041
-6.68972 -8.74921 34.0181 -0.307044 -0.393666 0.866338
-5.93606 -8.81932 34.2432 -0.296112 -0.403157 0.865899
-5.21648 -8.86573 34.4711 -0.276557 -0.422014 0.862881
-4.35188 -8.49326 34.8894 -0.213772 -0.438671 0.872742
-4.15801 -7.81489 35.2902 -0.186312 -0.427052 0.883913
-4.00661 -6.96032 35.6437 -0.19938 -0.324183 0.924745
-4.12602 -6.02901 35.9411 -0.274204 -0.277722 0.920642
-4.43048 -5.28048 36.0691 -0.282812 -0.270916 0.920121
-5.32932 -4.73475 35.9166 -0.324292 -0.247868 0.912905
-6.5513 -5.09718 35.3963 -0.317754 -0.23733 0.91799
-7.09155 -5.65524 35.065 -0.324637 -0.269387 0.905993
-7.9037 -5.52807 34.7805 -0.360047 -0.288431 0.887228
-8.61047 -5.63865 34.4557 -0.390636 -0.293761 0.872415
-9.47116 -5.72055 34.0401 -0.394795 -0.290977 0.871475
-10.4754 -5.16976 33.7308 -0.415526 -0.233808 0.879018
-11.1156 -4.79802 33.5256 -0.431948 -0.232214 0.871483
-11.7132 -4.06812 33.3682 -0.439562 -0.161309 0.883609
-12.0061 -3.36464 33.3489 -0.439442 -0.134354 0.888167
-11.988 -2.41084 33.5081 -0.449296 -0.139748 0.882385
-11.8561 -1.667 33.6577 -0.448351 -0.0866837 0.889645
-11.4882 -0.775068 33.9002 -0.448164 -0.00595497 0.893913
-11.1246 0.0819338 34.0864 -0.449119 0.0344758 0.892055
-11.3609 0.776592 33.9129 -0.446237 0.070991 0.892095
-12.0229 1.24328 33.5323 -0.463687 0.0844149 0.881968
-12.702 1.39012 33.1612 -0.465717 0.0833152 0.880999
-13.5478 1.95769 32.6771 -0.454015 0.0801238 0.887384
-14.1514 2.81185 32.2668 -0.46176 0.129236 0.876741
-13.9392 3.875 32.1778 -0.45154 0.162491 0.87733
-13.5715 4.82164 32.1473 -0.433159 0.213782 0.875597
-12.8788 5.28369 32.3778 -0.43257 0.216962 0.875098
-12.1966 5.41923 32.6798 -0.422793 0.222486 0.878442
-11.15 5.4596 33.1769 -0.431952 0.240071 0.869358
-10.4219 4.9014 33.6848 -0.417995 0.247715 0.874024
-10.0033 4.30358 34.0531 -0.42257 0.207899 0.881733
-10.1228 3.22996 34.2251 -0.442174 0.191688 0.876206
-10.4986 2.42879 34.187 -0.432858 0.113816 0.894248
-10.9358 1.42515 34.0831 -0.460012 0.107542 0.881376
-10.6899 0.432625 34.2829 -0.450609 0.0559877 0.890847
-10.1585 -0.257069 34.5529 -0.422004 0.0109532 0.906528
-9.20753 -0.207248 35.0024 -0.43888 0.00965097 0.898494
-8.35203 -0.00425695 35.4086 -0.410457 0.0333547 0.91127
-7.59831 -0.160417 35.74 -0.382046 0.0187754 0.923952
-6.9486 -0.551496 36.0197 -0.374327 -0.0079069 0.926759
-6.42148 -1.25465 36.1525 -0.341501 -0.0917216 0.935395
-5.83159 -2.46573 36.241 -0.359178 -0.117474 0.925846
-5.48279 -3.21244 36.2676 -0.338389 -0.236035 0.910806
-5.03708 -4.06534 36.2002 -0.325616 -0.242334 0.913919
-4.48639 -4.5837 36.2571 -0.303553 -0.259393 0.916513
-3.63991 -4.19285 36.577 -0.2249 -0.201749 0.953267
-2.56632 -3.76077 36.9053 -0.193501 -0.194719 0.961583
-7.20266 -3.07118 35.6355 -0.356237 -0.167787 0.919203
-7.73034 -3.97557 35.263 -0.354478 -0.169716 0.919531
-8.7457 -4.09274 34.8388 -0.396357 -0.237229 0.886247
-9.67666 -3.91338 34.4015 -0.447152 -0.164282 0.879182
-10.3837 -3.25084 34.1762 -0.436047 -0.173466 0.883024
-10.4419 -2.3485 34.3274 -0.467099 -0.12348 0.874511
-9.86027 -1.93909 34.6293 -0.403176 -0.0833627 0.911119
-8.82186 -1.78533 35.105 -0.425797 -0.0665198 0.902029
-8.14606 -1.81668 35.4318 -0.436056 -0.0853688 0.895861
-7.50414 -2.46308 35.6278 -0.356188 -0.165058 0.919721
-7.3442 -2.75003 35.6383 -0.35619 -0.165056 0.91972
-12.0436 2.81117 33.331 -0.445235 0.156826 0.881478
-12.4128 3.58615 33.0071 -0.438161 0.166337 0.883357
-11.7192 3.77468 33.3342 -0.459082 0.179076 0.869651
-11.6772 3.22355 33.4507 -0.455768 0.150539 0.877276
-11.1189 10.3851 31.4959 -0.356045 0.326025 0.875751
-12.207 10.4069 31.0367 -0.367863 0.327791 0.87019
-13.0211 10.138 30.7872 -0.387971 0.312349 0.867131
-13.8317 9.7914 30.5665 -0.368734 0.307208 0.877302
-14.5404 9.4913 30.3646 -0.380759 0.298556 0.87515
-15.2029 9.81189 29.9771 -0.370637 0.294358 0.880896
-15.4197 10.4997 29.6577 -0.370212 0.292737 0.881617
-15.2724 11.2294 29.4773 -0.360089 0.302214 0.882502
-14.8446 11.9558 29.3882 -0.350449 0.314965 0.882033
-14.4902 12.6438 29.28 -0.33918 0.324407 0.883011
-14.0632 13.3149 29.1985 -0.335958 0.325849 0.883707
-13.7294 14.247 28.9765 -0.331224 0.333052 0.882812
-13.2726 15.3037 28.7452 -0.323198 0.340615 0.882863
-12.4819 15.6204 28.9058 -0.315248 0.334897 0.887954
-11.6531 16.1396 28.9946 -0.300998 0.346728 0.888358
-11.0257 16.5625 29.04 -0.290776 0.353704 0.889012
-10.1942 16.8632 29.1923 -0.29439 0.357898 0.886118
-9.41449 16.5792 29.5612 -0.278183 0.37746 0.883254
-8.71655 16.3497 29.8758 -0.270934 0.375328 0.886411
-8.04974 15.7938 30.3217 -0.266488 0.387177 0.882607
-7.87764 15.1098 30.6741 -0.265186 0.393364 0.880303
-7.85741 14.3388 31.0223 -0.266884 0.390869 0.880905
-8.03578 13.6543 31.281 -0.285551 0.407372 0.867385
-8.25756 12.522 31.7229 -0.294176 0.397241 0.869287
-8.86227 11.6549 31.873 -0.316803 0.370123 0.873296
-9.51524 10.9907 31.8982 -0.335604 0.355952 0.872163
-10.1194 10.5362 31.852 -0.355006 0.346904 0.867818
-10.828 10.4189 31.6016 -0.356045 0.326026 0.875751
-10.9175 11.9678 30.9575 -0.343914 0.350487 0.871076
-10.0081 12.581 31.0582 -0.336983 0.356519 0.871399
-9.54721 13.4036 30.8784 -0.32153 0.372236 0.870666
-9.41638 14.2321 30.5626 -0.31331 0.383248 0.868883
-9.78404 14.9657 30.1185 -0.304351 0.367761 0.878705
-10.8329 14.9602 29.7525 -0.313581 0.366204 0.876106
-11.7866 14.3665 29.6512 -0.325558 0.352604 0.877308
-12.3648 13.5636 29.7561 -0.339224 0.341198 0.876648
-12.7134 12.8217 29.9099 -0.339064 0.340209 0.877093
-13.0206 11.8529 30.1523 -0.353701 0.330343 0.875082
-12.2678 11.8466 30.4589 -0.346303 0.334781 0.87631
-11.5557 11.8706 30.7372 -0.352891 0.345337 0.869604
5.34041 12.8126 32.7158 0.183991 0.421777 0.887835
5.95622 12.5374 32.7071 0.21837 0.413825 0.883567
5.35137 12.8259 32.7072 0.193637 0.42376 0.884774
10.0717 11.871 31.6578 0.347449 0.376894 0.858591
10.7281 10.9484 31.7882 0.347209 0.36842 0.862381
11.1341 10.1892 31.9244 0.37944 0.345859 0.858141
11.3366 9.01991 32.2945 0.381521 0.330484 0.863263
11.2227 8.22806 32.642 0.391642 0.311503 0.865762
11.0157 7.5286 32.9912 0.396879 0.313211 0.862778
10.6558 6.86981 33.3804 0.391356 0.294444 0.871862
10.2711 6.3019 33.7579 0.422945 0.305188 0.853117
9.90007 5.57547 34.1903 0.435068 0.282639 0.854765
10.5599 5.71411 33.8017 0.445121 0.272462 0.853014
11.2747 5.93247 33.3909 0.410101 0.264742 0.87277
11.9208 6.14969 33.0168 0.426813 0.260937 0.865877
12.8048 6.45573 32.4903 0.425038 0.258924 0.867353
12.6403 7.14452 32.3653 0.420662 0.275711 0.864127
12.3664 8.02294 32.1994 0.41431 0.290669 0.862467
12.2568 8.76251 31.9779 0.393625 0.325855 0.85958
12.5639 9.66457 31.4984 0.391328 0.321448 0.862284
12.9658 10.4439 31.019 0.374633 0.341798 0.861866
13.0218 11.21 30.6937 0.372791 0.339436 0.863603
12.6563 12.2531 30.4239 0.363141 0.357979 0.860221
11.992 12.9052 30.4332 0.350343 0.350972 0.868353
11.2224 13.0453 30.6742 0.338868 0.381163 0.860165
10.4293 12.5945 31.1895 0.345476 0.383524 0.856479
10.2615 12.3878 31.3498 0.345476 0.383524 0.856479
8.65331 17.7472 29.5002 0.259184 0.384258 0.886098
7.91322 17.749 29.7173 0.247542 0.394198 0.884827
7.42725 18.4794 29.5192 0.216013 0.384613 0.897447
7.49922 19.2208 29.1841 0.229853 0.387197 0.892763
8.35415 19.4166 28.8714 0.238904 0.368022 0.898601
8.95963 18.9767 28.8874 0.26117 0.377946 0.888227
8.86314 17.8612 29.3894 0.259563 0.380827 0.887459
8.78587 17.7799 29.4473 0.259184 0.384258 0.886098
13.7313 -4.75475 32.5351 0.443284 -0.187709 0.876507
13.3167 -5.6958 32.5051 0.427081 -0.230545 0.874259
13.1167 -6.73074 32.3166 0.429272 -0.242284 0.870071
13.1285 -7.56623 32.0647 0.421234 -0.279768 0.862437
13.6829 -7.14279 31.9139 0.434484 -0.261944 0.861748
13.9182 -6.04772 32.1102 0.430763 -0.239998 0.869968
13.7821 -4.97493 32.4623 0.433342 -0.204401 0.877529
13.7696 -4.88994 32.4868 0.443284 -0.187709 0.876507
12.2468 -11.0976 31.1624 0.355715 -0.333759 0.872967
12.6603 -11.8836 30.6784 0.352413 -0.356987 0.864989
12.6692 -12.648 30.3581 0.345284 -0.357507 0.867728
12.2465 -13.274 30.2671 0.339133 -0.360442 0.868937
11.688 -13.7898 30.2675 0.336639 -0.363868 0.86849
10.9644 -14.1874 30.38 0.319087 -0.372666 0.87129
10.2595 -14.4759 30.5052 0.310959 -0.382149 0.87021
8.92896 -14.3342 31.0269 0.28654 -0.387767 0.876029
8.97457 -13.5396 31.3613 0.301369 -0.41266 0.859586
9.69243 -13.2041 31.2706 0.312889 -0.39917 0.861653
10.3449 -12.8194 31.1931 0.334422 -0.387306 0.85916
11.0521 -12.2427 31.1724 0.350226 -0.368087 0.861309
11.6376 -11.7383 31.1498 0.347983 -0.367822 0.862327
12.1823 -11.1587 31.1653 0.355715 -0.333759 0.872967
6.35064 -8.34297 34.6218 0.269076 -0.380275 0.884363
6.80837 -7.14814 34.9532 0.278851 -0.342913 0.896863
6.41352 -6.22472 35.4234 0.251927 -0.327923 0.91011
5.99426 -5.60595 35.7393 0.274321 -0.312199 0.908897
5.18935 -5.41216 36.0618 0.281233 -0.241834 0.928668
4.12058 -5.54688 36.3377 0.262327 -0.242697 0.933961
3.19166 -6.21133 36.2839 0.123498 -0.358739 0.924843
2.83624 -7.02701 36.0005 0.153132 -0.390269 0.907366
2.94416 -7.88758 35.574 0.132353 -0.447247 0.884563
3.04993 -8.55485 35.2639 0.131043 -0.39992 0.906971
2.77071 -9.21728 35.003 0.102463 -0.430345 0.896692
2.86185 -9.79672 34.7033 0.118444 -0.444145 0.88803
3.53593 -9.3674 34.8144 0.154723 -0.415148 0.8965
4.77067 -9.21489 34.6382 0.201424 -0.416956 0.886327
5.86498 -8.80702 34.5476 0.251936 -0.404183 0.879298
6.11283 -8.57304 34.5842 0.251934 -0.404183 0.879298
5.10095 -7.60257 35.2902 0.231661 -0.362737 0.901698
4.61358 -7.31839 35.5297 0.231656 -0.362737 0.901699
5.16685 -7.41962 35.338 0.254733 -0.329456 0.909159
-0.063644 -11.6985 33.8806 -0.00689699 -0.467412 0.884006
-0.648336 -11.101 34.1714 -0.0389662 -0.458345 0.88792
-1.36135 -10.5352 34.431 -0.0841137 -0.453343 0.886705
-2.13603 -9.90806 34.6669 -0.115789 -0.475319 0.872161
-2.67653 -9.35818 34.8541 -0.176414 -0.422973 0.888804
-3.52529 -9.72558 34.4952 -0.2159 -0.424612 0.879257
-4.35249 -10.2251 34.0512 -0.215668 -0.424297 0.879465
-3.60784 -11.2041 33.7486 -0.212151 -0.436398 0.874385
-2.92199 -11.8785 33.5239 -0.151069 -0.454699 0.877714
-2.21022 -12.235 33.4656 -0.132594 -0.456786 0.879375
-0.804701 -12.2157 33.5987 -0.0540581 -0.430715 0.900868
-0.178687 -11.8397 33.8055 0.0102429 -0.44208 0.89639
2.13598 -15.5942 31.8716 0.0641225 -0.434503 0.897785
3.26441 -15.6642 31.7188 0.0948983 -0.424109 0.900624
3.7151 -16.6731 31.1853 0.118847 -0.426162 0.896806
3.13295 -17.301 30.9631 0.100175 -0.425568 0.899029
1.96479 -17.2023 31.1077 0.0780372 -0.42981 0.899502
1.85545 -16.3524 31.5117 0.0342593 -0.425323 0.904393
2.09741 -15.6655 31.8376 0.0327381 -0.443878 0.895489
2.11468 -15.6166 31.8612 0.0327381 -0.443878 0.895489
-9.71064 -13.6667 30.8018 -0.319234 -0.379694 0.868287
-9.62822 -12.8986 31.1668 -0.317315 -0.374605 0.871196
-9.5181 -12.1541 31.5271 -0.320222 -0.370439 0.871899
-9.58722 -11.4491 31.7976 -0.323278 -0.366629 0.872396
-10.2987 -11.1489 31.6601 -0.329174 -0.358704 0.873428
-11.1421 -10.8347 31.4546 -0.349374 -0.353665 0.867675
-11.9127 -10.5154 31.2693 -0.358277 -0.350272 0.865416
-12.627 -10.1428 31.1081 -0.378477 -0.325661 0.866429
-12.84 -11.1319 30.6305 -0.366976 -0.339252 0.866147
-12.8109 -12.1258 30.2474 -0.358506 -0.338269 0.870016
-12.8058 -12.8697 29.958 -0.341916 -0.345408 0.873949
-12.7448 -13.6362 29.6769 -0.339771 -0.355931 0.870556
-12.067 -14.2374 29.6956 -0.331324 -0.360415 0.871914
-11.2246 -14.2994 29.9813 -0.319354 -0.363302 0.875218
