25.1817 40.9641 12.8919 -0.0166493 -0.948405 0.316593
25.7984 41.3605 14.1171 -0.00620662 -0.955542 0.293917
26.1581 41.6535 15.1606 0.0122132 -0.95861 0.283636
26.6485 42.1019 16.6232 0.0304065 -0.960474 0.276664
26.9433 42.4198 17.9735 0.090207 -0.975738 0.199492
27.2593 42.7429 19.4387 0.114663 -0.971304 0.206544
27.7002 43.1058 20.9086 0.153663 -0.971262 0.181765
27.9333 43.3646 22.3663 0.169945 -0.978829 0.114075
28.1301 43.543 23.5917 0.170632 -0.978365 0.116994
28.3485 43.7323 25.0659 0.225184 -0.970148 0.0893384
28.4915 43.8784 26.2334 0.232842 -0.967626 0.0946296
28.6542 44.0159 27.4602 0.268648 -0.962779 0.0267622
28.6571 44.0476 28.6924 0.249332 -0.967766 0.0355371
28.5849 44.0791 30.3148 0.254901 -0.966514 0.0296001
28.5225 44.0965 31.5712 0.28634 -0.95756 0.0329804
28.4454 44.113 32.9812 0.292238 -0.956117 0.0209122
28.382 44.129 34.2251 0.287044 -0.957298 0.034447
28.331 44.1532 35.4044 0.290159 -0.956751 0.0191357
28.1535 44.1167 36.8219 0.288583 -0.957348 0.0137121
27.9239 44.0512 38.2361 0.307311 -0.9516 0.00413286
27.6739 43.9681 39.8729 0.320121 -0.947273 -0.0128902
27.2972 43.8374 41.3336 0.306862 -0.951747 0.00300813
26.9087 43.6953 42.4639 0.332749 -0.942933 -0.0116878
25.6483 43.2458 42.5539 0.335043 -0.942077 -0.0154048
24.5545 42.8491 42.1044 0.351456 -0.936159 -0.00924325
23.5236 42.4559 41.7513 0.367389 -0.930038 -0.0073583
22.25 41.9482 41.215 0.375256 -0.926921 0.000520533
21.2164 41.5269 40.6831 0.377678 -0.925936 0.00156641
20.061 41.0526 40.1421 0.379481 -0.9252 0.000294069
18.7501 40.5134 39.6832 0.380337 -0.924848 0.000129624
17.8186 40.1327 39.0025 0.377509 -0.926003 -0.0022296
17.9463 40.1851 37.7544 0.374115 -0.927375 -0.00165817
18.3236 40.3385 36.3344 0.370043 -0.929014 0.00142701
18.6169 40.4539 35.0965 0.370865 -0.928686 0.000924873
18.7202 40.495 33.9574 0.371935 -0.928252 -0.00285629
18.8783 40.5672 32.4846 0.368831 -0.929461 -0.00808133
18.8721 40.5759 30.9884 0.36605 -0.930573 -0.00644199
18.7715 40.5396 29.7928 0.364253 -0.931289 -0.00361848
18.625 40.4884 28.5507 0.365196 -0.930915 -0.00535963
18.4104 40.4195 27.0454 0.357158 -0.933967 -0.0114579
18.202 40.3552 25.8379 0.352511 -0.935768 -0.00864511
17.9465 40.274 24.6938 0.340812 -0.940023 -0.0142225
17.6959 40.2013 23.5259 0.333708 -0.942537 -0.0158583
17.3434 40.0919 22.401 0.330502 -0.943663 -0.0158298
16.7711 39.9147 21.0542 0.319698 -0.94741 -0.0143299
16.3169 39.7837 19.9792 0.3058 -0.95192 -0.0178891
15.5428 39.5571 18.7477 0.299631 -0.953881 -0.0182366
14.8821 39.3823 17.5148 0.279202 -0.959712 -0.0312284
14.2019 39.2173 16.3981 0.2619 -0.964937 -0.0165176
13.5025 39.0589 15.4462 0.241847 -0.970076 -0.0214709
12.6672 38.8822 14.2154 0.217772 -0.975941 -0.0106846
11.9501 38.7512 13.1962 0.203303 -0.978672 -0.0294649
11.0198 38.595 12.2132 0.162771 -0.986595 -0.0116668
10.1635 38.4762 11.3535 0.143317 -0.989307 -0.0270577
10.5383 38.5421 10.3723 0.135033 -0.990816 0.00702305
11.49 38.6505 9.62621 0.127099 -0.990901 0.0442793
12.3661 38.7017 8.7107 0.125413 -0.988437 0.0852299
13.2121 38.6344 7.5698 0.073897 -0.979393 0.187934
14.2402 38.3873 6.26776 0.0469059 -0.964652 0.259318
15.0763 38.0388 5.14017 -0.0121906 -0.939487 0.342367
15.9817 37.4167 3.67906 -0.0645461 -0.913684 0.401268
17.245 37.2423 3.43847 -0.0767608 -0.892356 0.444756
18.6993 37.5239 4.2367 -0.0739926 -0.884543 0.460552
19.6232 37.8323 5.0044 -0.0973444 -0.882296 0.460473
20.7787 38.3232 6.16604 -0.0989385 -0.879213 0.466022
21.6672 38.773 7.23974 -0.0889419 -0.890917 0.445371
22.4998 39.1888 8.23231 -0.0795171 -0.890121 0.448653
23.1766 39.6181 9.17777 -0.0618922 -0.885295 0.460893
23.7987 40.0647 10.2242 -0.0921152 -0.924251 0.368095
24.37 40.4243 11.3785 -0.0602903 -0.932759 0.354174
24.8254 40.7374 12.2054 -0.0145514 -0.947185 0.320359
25.841 40.4977 11.7459 -0.0703548 -0.921092 0.382935
26.5206 41.0155 13.1494 -0.0557085 -0.936689 0.345703
26.9488 41.361 14.1452 -0.0188088 -0.93747 0.346402
27.3636 41.8364 15.6288 0.0318074 -0.957201 0.287562
27.7479 42.148 16.6753 0.0274579 -0.961564 0.273204
27.9979 42.49 17.8526 0.0437347 -0.96134 0.27187
28.2582 42.7798 18.9606 0.139566 -0.966105 0.21717
28.6188 43.0995 20.2049 0.120177 -0.97368 0.193662
28.9698 43.4423 21.8463 0.126885 -0.978732 0.161195
29.229 43.7455 23.6341 0.18437 -0.97525 0.122049
29.362 43.9112 24.7998 0.183352 -0.976975 0.109093
29.4866 44.0957 26.2866 0.179782 -0.978463 0.10143
29.6509 44.2522 27.6984 0.185588 -0.979051 0.0833986
29.6564 44.3068 28.9629 0.227458 -0.973373 0.0284169
29.6362 44.3512 30.1426 0.255091 -0.966462 0.0296607
29.6028 44.4012 31.5111 0.264951 -0.963362 0.0407494
29.4836 44.4153 32.7165 0.276803 -0.960347 0.0320326
29.4332 44.4268 33.8919 0.275362 -0.960902 0.0277012
29.346 44.4477 35.1395 0.27849 -0.960075 0.024391
29.2667 44.4442 36.2761 0.285994 -0.958038 0.0191599
29.0515 44.4013 37.4658 0.294337 -0.955613 0.0109312
28.8223 44.3392 38.7064 0.288272 -0.95749 -0.00469437
28.7391 44.3019 39.8392 0.281472 -0.959486 -0.0123279
28.4309 44.196 41.0022 0.284534 -0.958647 -0.000868648
28.121 44.107 42.1123 0.313348 -0.949524 -0.0134387
27.6683 43.9264 43.4644 0.31688 -0.948003 -0.0296131
26.8881 43.6416 44.1082 0.328483 -0.944092 -0.027964
25.661 43.2275 43.7262 0.329626 -0.943623 -0.0303514
24.6052 42.851 43.2948 0.350068 -0.936535 -0.0188287
23.3752 42.384 42.776 0.366885 -0.930147 -0.0149101
22.2787 41.9534 42.3329 0.373724 -0.927453 -0.0127223
21.3136 41.564 41.8701 0.380229 -0.924857 -0.00815727
20.3178 41.1565 41.3097 0.383086 -0.923691 -0.00627965
19.0516 40.636 40.8941 0.381742 -0.924264 -0.00286258
17.9116 40.1666 40.4443 0.381545 -0.924343 -0.00370701
16.9083 39.7584 39.8436 0.378306 -0.925659 -0.00634824
16.7157 39.6881 38.5457 0.369022 -0.929378 -0.00892538
17.0798 39.8429 37.1344 0.366714 -0.930323 -0.00449421
17.3553 39.9544 35.9927 0.367794 -0.929907 -0.00105491
17.6531 40.0712 34.6452 0.367138 -0.930164 0.00190485
17.8142 40.1387 33.2639 0.367122 -0.930146 -0.00680004
17.8686 40.1726 31.8321 0.368833 -0.929456 -0.00865067
17.8177 40.1674 30.1338 0.354232 -0.93515 -0.00381357
17.6876 40.1257 28.813 0.352562 -0.93576 -0.00728075
17.4892 40.0642 27.5413 0.35398 -0.935171 -0.0123989
17.291 40.0097 26.0743 0.35077 -0.936389 -0.0116448
16.9827 39.9234 24.7672 0.343426 -0.939005 -0.0177113
16.6502 39.8351 23.2859 0.333712 -0.942536 -0.015854
16.175 39.6949 22.2451 0.313008 -0.949536 -0.0201919
15.7427 39.5725 21.1571 0.305652 -0.951893 -0.0218329
15.2281 39.432 20.0984 0.301005 -0.9533 -0.024638
14.5603 39.2432 19.1367 0.295148 -0.955312 -0.0163247
14.0261 39.1142 18.1222 0.28337 -0.958548 -0.0295801
13.3194 38.9661 16.9344 0.254607 -0.966318 -0.0373865
12.6441 38.8272 16.0059 0.243091 -0.969063 -0.0413283
11.5649 38.6323 14.466 0.220892 -0.974268 -0.042839
10.5278 38.4792 13.2408 0.178069 -0.983646 -0.0270616
9.54786 38.3498 12.2348 0.151167 -0.987424 -0.0462888
8.6849 38.2653 11.3976 0.13977 -0.988879 -0.0508202
8.13706 38.2667 10.1655 0.109715 -0.991958 -0.0631035
9.26367 38.403 9.91134 0.111181 -0.993672 -0.0159582
10.25 38.5126 9.34731 0.0898297 -0.995349 0.0348089
11.3083 38.5683 8.44539 0.0899302 -0.992223 0.086061
12.0759 38.5244 7.466 0.0949481 -0.986414 0.133702
12.8549 38.3626 6.42235 0.0424889 -0.971701 0.232363
13.5677 38.1116 5.38077 0.0363631 -0.955532 0.292638
14.259 37.8005 4.45732 -0.010463 -0.939711 0.341804
15.0756 37.2461 3.14498 -0.0698443 -0.921813 0.380606
15.7818 36.8436 2.27789 -0.0864918 -0.91926 0.384032
16.7038 36.4647 1.75225 -0.132023 -0.897362 0.421083
17.6749 36.7465 2.58095 -0.0976476 -0.888669 0.448031
18.8547 36.958 3.20382 -0.0961082 -0.868132 0.486235
19.8988 37.1806 3.84121 -0.124334 -0.861666 0.492009
20.6442 37.5215 4.62663 -0.123173 -0.860611 0.494134
21.4795 37.8508 5.43084 -0.103281 -0.878653 0.466157
22.3413 38.2835 6.43953 -0.103802 -0.878986 0.465412
23.211 38.7411 7.46691 -0.0819369 -0.878492 0.470292
24.1075 39.3667 8.83891 -0.0750385 -0.886482 0.456639
24.7642 39.8084 9.90182 -0.105995 -0.908323 0.404616
25.7047 40.4048 11.4975 -0.0703528 -0.921093 0.382935
26.7229 40.1596 11.0948 -0.0759404 -0.910371 0.405934
27.3496 40.6167 12.2755 -0.0597698 -0.91808 0.391863
27.8608 41.0875 13.5183 -0.0219615 -0.927657 0.372788
28.1777 41.4968 14.6072 0.0043313 -0.945123 0.326012
28.5169 41.9262 15.8139 0.0201447 -0.945876 0.323904
28.8892 42.2497 16.8595 0.0437305 -0.961341 0.271867
29.2309 42.654 18.0968 0.0662497 -0.950188 0.304554
29.4634 42.9548 19.1671 0.0895913 -0.968825 0.230981
29.791 43.2714 20.4309 0.103154 -0.974043 0.201458
30.1218 43.6215 22.0377 0.129198 -0.977609 0.165978
30.2643 43.86 23.2912 0.139801 -0.977962 0.154013
30.4182 44.0692 24.6419 0.143597 -0.980547 0.133822
30.4622 44.2351 25.9897 0.169868 -0.979295 0.110121
30.5939 44.4127 27.4227 0.193479 -0.977193 0.0875201
30.5871 44.5137 28.5995 0.226726 -0.973256 0.0361605
30.6679 44.595 29.8405 0.239203 -0.969726 0.0491175
30.7154 44.6733 31.1604 0.242342 -0.969068 0.0465057
30.5599 44.6963 32.625 0.245403 -0.968639 0.0389403
30.5061 44.7326 33.8666 0.254694 -0.966057 0.0431801
30.3111 44.7208 35.0697 0.26902 -0.962539 0.0338751
30.261 44.7428 36.478 0.270438 -0.962568 0.016507
30.0337 44.6977 37.7233 0.285618 -0.958272 0.0106983
29.7735 44.6135 39.2887 0.269774 -0.962717 -0.0199372
29.4901 44.5131 40.7089 0.267611 -0.963499 -0.00732815
29.2145 44.4253 41.8851 0.267845 -0.963226 -0.0202316
28.8354 44.2875 43.213 0.270429 -0.962273 -0.0299868
28.4619 44.1425 44.4915 0.267886 -0.962905 -0.0324021
27.6984 43.8771 45.302 0.30504 -0.951658 -0.0360234
26.2693 43.3946 45.1236 0.332849 -0.942449 -0.0316339
25.2338 43.048 44.6937 0.328985 -0.943886 -0.0291101
24.0571 42.6171 44.272 0.3571 -0.933621 -0.0287159
22.9497 42.2025 43.7341 0.36822 -0.929654 -0.0123926
21.9612 41.8111 43.3344 0.374262 -0.927224 -0.0135569
20.9284 41.3971 42.8012 0.380153 -0.924871 -0.00957334
20.0191 41.0263 42.2426 0.381702 -0.924254 -0.00755208
18.7604 40.5107 41.8496 0.383206 -0.923626 -0.00816431
17.5599 40.015 41.4318 0.383284 -0.9236 -0.00755997
16.3774 39.5333 40.9617 0.378408 -0.92561 -0.00731265
15.7047 39.2733 39.9462 0.367457 -0.929969 -0.0110874
15.6028 39.2495 38.6888 0.363868 -0.93142 -0.00752868
16.0199 39.4231 37.3695 0.366449 -0.930398 -0.00823393
16.2891 39.533 36.2039 0.359368 -0.933184 -0.00464207
16.5773 39.6496 35.0945 0.359249 -0.933221 -0.00621371
16.802 39.7394 33.5462 0.364803 -0.931074 -0.0039997
16.8957 39.7885 32.348 0.360694 -0.932609 -0.0118148
16.8375 39.7836 30.9584 0.360091 -0.932832 -0.0126242
16.7806 39.7762 29.748 0.353586 -0.935383 -0.00565103
16.7223 39.7655 28.5961 0.345791 -0.93826 -0.00983952
16.4531 39.6912 26.7948 0.340949 -0.940011 -0.011523
16.0692 39.5904 25.222 0.333391 -0.942577 -0.0198763
15.7643 39.5099 24.083 0.320776 -0.946823 -0.0250903
15.2539 39.3756 22.7134 0.319886 -0.947068 -0.0271028
14.7199 39.2393 21.4636 0.303702 -0.952459 -0.024094
14.0113 39.0457 20.221 0.292169 -0.955864 -0.029808
13.4267 38.9081 19.0846 0.279938 -0.95964 -0.0263736
12.5116 38.7324 17.4789 0.257673 -0.965378 -0.0402464
11.4435 38.5365 16.0744 0.233163 -0.971544 -0.0416575
10.5444 38.3934 14.9269 0.20394 -0.977412 -0.0545209
9.48812 38.2669 13.5769 0.193945 -0.979056 -0.061922
8.12941 38.1235 12.3188 0.169258 -0.983002 -0.0711307
6.96398 38.0201 11.4878 0.138098 -0.986702 -0.0857228
5.53899 37.907 10.5798 0.13822 -0.983886 -0.113414
4.60626 37.8583 9.86588 0.138014 -0.983919 -0.113379
3.61395 37.793 9.24534 0.140955 -0.982421 -0.122338
2.40396 37.7034 8.54542 0.145142 -0.981436 -0.125366
1.45588 37.6827 7.59475 0.157711 -0.97927 -0.127114
0.594518 37.5929 7.2348 0.164098 -0.976703 -0.138283
1.78526 37.7321 7.62309 0.149176 -0.980496 -0.127667
2.85554 37.838 8.00844 0.142505 -0.981864 -0.125045
3.93085 37.9316 8.48134 0.134895 -0.983571 -0.119962
5.14492 38.0607 8.69871 0.121405 -0.985952 -0.114709
6.34566 38.1682 8.9284 0.105274 -0.989634 -0.0976873
7.50549 38.2816 9.12278 0.113817 -0.99004 -0.0827452
8.6734 38.3586 9.00735 0.0693384 -0.996662 -0.0220239
9.88015 38.4868 8.40458 0.0465528 -0.998736 -0.0189791
10.7567 38.4422 7.58858 0.0918389 -0.991866 0.0881318
11.3415 38.3351 6.66044 0.042052 -0.980216 0.193411
12.234 38.1292 5.61446 0.0371019 -0.967486 0.250189
12.8933 37.8788 4.65751 0.00459757 -0.953203 0.301865
13.6128 37.5424 3.7056 -0.0358447 -0.935181 0.352351
14.1298 37.1792 2.74777 -0.0944386 -0.93096 0.352698
14.7083 36.7492 1.79926 -0.0955342 -0.92107 0.377485
15.4497 36.1267 0.604457 -0.141604 -0.899585 0.413153
16.0767 35.5775 -0.375368 -0.136317 -0.903154 0.406973
16.7937 35.6375 0.0363396 -0.169434 -0.894299 0.414152
17.5447 35.9956 1.07966 -0.141021 -0.885866 0.441989
18.4956 36.2735 1.8877 -0.135082 -0.869867 0.47443
19.7553 36.4885 2.5984 -0.116341 -0.863807 0.490206
20.697 36.7409 3.27462 -0.130781 -0.853195 0.50493
21.5347 37.0721 4.06587 -0.123172 -0.860611 0.494135
22.5124 37.5763 5.17736 -0.119327 -0.86007 0.496025
23.6812 38.1023 6.4083 -0.0968838 -0.873812 0.476245
24.5926 38.6591 7.5748 -0.116939 -0.86693 0.48443
25.0885 39.1564 8.63965 -0.117968 -0.879262 0.4615
26.0775 39.7077 10.0221 -0.106714 -0.908074 0.404985
26.5366 39.9869 10.6972 -0.0815264 -0.899649 0.428934
19.327 40.7507 39.2904 0.380088 -0.92495 0.00091154
18.411 40.374 38.2335 0.375609 -0.926778 0.0011585
18.6863 40.4844 37.239 0.373113 -0.927785 0.000894988
19.615 40.8671 38.3107 0.379659 -0.925125 0.00160927
20.562 41.2581 39.4022 0.379657 -0.925127 -7.24633e-05
21.1593 41.5022 40.0899 0.376307 -0.926493 0.00164704
23.0594 42.2739 40.9592 0.368607 -0.929566 0.00593364
21.9426 41.8198 39.6774 0.374377 -0.927271 0.00333932
21.0042 41.4382 38.5988 0.377951 -0.925822 0.00249461
19.9398 40.9968 37.372 0.377816 -0.925874 0.00357985
18.88 40.5626 36.1533 0.37618 -0.926546 0.00036407
19.1974 40.6877 35.2093 0.373624 -0.927577 0.00253735
20.4223 41.1902 36.6151 0.376552 -0.926384 0.00468776
21.3436 41.572 37.6753 0.376833 -0.926259 0.00636175
22.2856 41.9581 38.7579 0.373396 -0.927672 -0.000699796
23.2774 42.3539 39.8927 0.366451 -0.930437 0.00104781
24.3995 42.7936 41.1719 0.356528 -0.934284 0.000104557
24.7748 42.9368 41.5978 0.354001 -0.935234 -0.00457053
26.261 43.4726 41.9555 0.332622 -0.94305 -0.00447101
25.2127 43.0995 40.7783 0.336673 -0.941614 0.00376841
24.0695 42.6655 39.4823 0.360012 -0.932946 0.00153255
23.1516 42.3019 38.4349 0.368444 -0.929637 0.00497837
22.0373 41.8493 37.1585 0.373861 -0.92747 0.00527221
21.0447 41.4405 36.019 0.376863 -0.926258 0.00447934
20.0459 41.0298 34.8731 0.376123 -0.926568 0.00163542
19.3459 40.7457 34.0721 0.373141 -0.927775 0.000291415
19.5171 40.82 32.9676 0.372822 -0.927888 -0.00531963
20.5611 41.2378 34.1559 0.375675 -0.926751 -0.000413388
21.6556 41.6834 35.4088 0.373718 -0.927536 0.00351182
22.6359 42.0844 36.5307 0.36864 -0.929532 0.00860238
23.638 42.4889 37.6747 0.361996 -0.932158 0.00629476
24.7081 42.9089 38.8916 0.358341 -0.933585 0.00330358
25.6464 43.2563 39.9516 0.342644 -0.93944 -0.00686352
26.6484 43.611 41.0769 0.334512 -0.942391 -0.000980878
26.6789 43.6218 41.1111 0.334512 -0.942391 -0.00098038
27.0377 43.7476 40.1973 0.331133 -0.94358 -0.00283828
25.8927 43.35 38.9146 0.342333 -0.939579 0.000260581
24.7808 42.9325 37.6583 0.355641 -0.934623 0.000511391
23.6414 42.4801 36.3627 0.366127 -0.930525 0.00859796
22.5468 42.0397 35.1183 0.371151 -0.928565 0.00365742
21.499 41.615 33.9198 0.373197 -0.92775 0.00172071
20.4581 41.1975 32.7345 0.372459 -0.928047 -0.0015249
19.499 40.8179 31.6571 0.370807 -0.928702 -0.00380757
19.4807 40.8108 31.6368 0.366052 -0.930572 -0.00644349
19.3805 40.7782 30.2437 0.366133 -0.93056 -0.00203547
20.3608 41.1625 31.3344 0.367374 -0.930072 -0.00163641
21.526 41.6241 32.6446 0.36966 -0.929167 0.000482496
22.5833 42.0472 33.8486 0.36577 -0.930699 0.00347669
23.6139 42.4585 35.0185 0.364211 -0.931299 0.00575805
24.631 42.8665 36.1715 0.354612 -0.934956 0.0103836
25.6917 43.274 37.3722 0.335638 -0.94197 0.00631748
26.6296 43.6129 38.4242 0.335092 -0.942184 0.00159775
27.258 43.8327 39.1281 0.325788 -0.945412 -0.00766787
27.421 43.8852 37.9925 0.31154 -0.950189 0.00918273
26.4304 43.5338 36.8851 0.336604 -0.941601 0.00929151
25.3361 43.1251 35.6547 0.349883 -0.936753 0.00867296
24.3823 42.7504 34.5747 0.359402 -0.933111 0.0115772
23.1704 42.2745 33.2066 0.356607 -0.934229 0.00688214
22.1588 41.8731 32.0587 0.362338 -0.932037 0.00426054
20.9799 41.4076 30.7354 0.367112 -0.930177 -0.000207123
19.973 41.0126 29.6148 0.366158 -0.930548 -0.00277068
19.226 40.7229 28.7824 0.365155 -0.930931 -0.00536699
18.8996 40.6075 27.1334 0.360264 -0.932792 -0.0104655
20.0113 41.0316 28.3646 0.363411 -0.931625 -0.00270673
21.0056 41.4181 29.4705 0.362939 -0.931813 -3.68099e-05
21.9535 41.7872 30.5284 0.363592 -0.931554 0.00273528
22.907 42.1613 31.5979 0.359392 -0.93317 0.00556441
23.8718 42.5384 32.6864 0.356705 -0.934199 0.00584378
24.8544 42.9181 33.7909 0.345277 -0.938425 0.0119604
25.8403 43.2967 34.9023 0.338514 -0.940829 0.0158086
26.8164 43.6602 35.999 0.333683 -0.942566 0.014984
27.6239 43.9438 36.9012 0.315666 -0.948849 0.00629991
27.6819 43.9529 35.6448 0.323258 -0.946102 0.0199026
26.5147 43.52 34.3361 0.325951 -0.94523 0.0172229
25.5647 43.1728 33.2718 0.338726 -0.940786 0.0136561
24.6167 42.812 32.209 0.348328 -0.937299 0.0117523
23.6657 42.4473 31.1429 0.346583 -0.937967 0.00990244
22.561 42.0202 29.909 0.359645 -0.933084 0.00309886
21.581 41.6395 28.8142 0.359666 -0.933078 0.00221598
20.3836 41.1781 27.4891 0.358227 -0.933633 -0.00170261
19.1561 40.7128 26.1366 0.355443 -0.934687 -0.00460046
18.6621 40.5307 25.5978 0.353086 -0.935551 -0.00858407
18.2754 40.4064 23.8964 0.34138 -0.939884 -0.00880356
19.2331 40.7499 24.9418 0.35156 -0.936156 -0.0040559
20.2252 41.12 26.0285 0.353319 -0.935502 0.000790125
21.2615 41.5136 27.1695 0.353693 -0.935356 0.00314416
22.3992 41.9478 28.4256 0.350319 -0.936602 0.00727369
23.3852 42.3306 29.5239 0.347825 -0.937469 0.0130685
24.3118 42.6798 30.5531 0.344972 -0.938606 0.00371412
25.3804 43.0824 31.747 0.331673 -0.943233 0.017471
26.5302 43.5057 33.0341 0.320617 -0.946979 0.0208657
27.5465 43.8686 34.1688 0.321165 -0.946649 0.0266008
27.8046 43.9643 34.4582 0.304156 -0.952133 0.0305291
27.8111 43.9224 33.1331 0.291916 -0.956226 0.0204287
26.7949 43.5741 32.0063 0.310591 -0.950429 0.0147716
25.8439 43.2312 30.946 0.332301 -0.943037 0.0160538
24.7706 42.8412 29.753 0.338402 -0.940879 0.0151764
23.7904 42.4629 28.6638 0.344175 -0.938775 0.01568
22.7696 42.0813 27.5386 0.345198 -0.938517 0.00479832
21.7203 41.6841 26.3861 0.348722 -0.937203 0.00662453
20.7401 41.3141 25.3076 0.350543 -0.936546 0.000931503
19.7626 40.9499 24.2353 0.346914 -0.937893 -0.00265999
18.732 40.5795 23.1194 0.34138 -0.939884 -0.00881203
17.7192 40.2277 22.0437 0.330767 -0.943671 -0.00884409
16.8503 39.9564 19.8736 0.309629 -0.950836 -0.0063095
17.9858 40.3301 21.0627 0.326539 -0.945172 -0.00459638
19.0376 40.6931 22.1798 0.334784 -0.942284 -0.00452904
20.1369 41.089 23.3553 0.342513 -0.939512 0.00160369
21.0856 41.4379 24.398 0.344287 -0.938856 0.00394059
22.0784 41.81 25.4845 0.343923 -0.938984 0.00514267
23.1329 42.2032 26.6373 0.335217 -0.942064 0.0120744
24.1561 42.5821 27.761 0.332467 -0.943046 0.0113876
25.1967 42.9709 28.9113 0.324386 -0.945611 0.0243768
26.3631 43.3976 30.2029 0.316422 -0.94848 0.01618
27.3473 43.7418 31.295 0.302267 -0.953028 0.0192866
27.6923 43.8518 31.6733 0.282359 -0.958926 0.0271143
27.9528 43.9053 30.6285 0.279887 -0.959945 0.0129885
26.938 43.5767 29.5148 0.315871 -0.948351 0.0292439
25.9319 43.2119 28.4061 0.314693 -0.948891 0.0239599
24.9601 42.854 27.3354 0.325769 -0.945261 0.0188812
23.9376 42.4828 26.2174 0.322588 -0.946327 0.0200685
22.7761 42.0524 24.9497 0.329154 -0.944135 0.0163294
21.782 41.6875 23.8685 0.332001 -0.943251 0.00720616
20.7096 41.2949 22.6903 0.333138 -0.942706 0.0180186
19.5019 40.8573 21.4035 0.328325 -0.944564 0.0013343
18.2535 40.4244 20.0812 0.319562 -0.947558 0.00379382
17.0493 40.0333 18.8412 0.302906 -0.952937 -0.0125769
15.7567 39.6451 17.5104 0.286483 -0.958036 -0.00973448
15.13 39.4665 16.8749 0.270198 -0.962726 -0.012355
12.8219 38.9253 13.3317 0.200306 -0.979729 0.00284816
14.0562 39.2043 14.5547 0.24095 -0.970523 -0.00533631
15.182 39.4918 15.6945 0.261669 -0.965154 0.00245268
16.2495 39.7953 16.7651 0.287259 -0.95785 -0.00233325
17.4926 40.1732 18.0483 0.290807 -0.956755 0.00708118
18.6045 40.5418 19.1939 0.31196 -0.950034 0.0108232
19.7044 40.9201 20.344 0.322944 -0.946364 0.0101473
20.8944 41.3455 21.6094 0.327115 -0.944921 0.010978
22.0273 41.7622 22.8391 0.327614 -0.944542 0.0225807
23.0592 42.1304 23.9548 0.318085 -0.947992 0.0115531
24.1815 42.5401 25.1743 0.31558 -0.948669 0.0208971
25.3692 42.9661 26.4683 0.302222 -0.952797 0.028978
26.4374 43.3519 27.638 0.308847 -0.950319 0.0388294
27.4567 43.7085 28.7553 0.295689 -0.954421 0.0406102
28.0768 43.9202 29.4357 0.268993 -0.962829 0.0245682
27.9595 43.8374 27.9786 0.275308 -0.96065 0.0368375
26.9576 43.4825 26.8855 0.298628 -0.952813 0.0544783
25.8604 43.0985 25.6882 0.295634 -0.954442 0.0405055
24.819 42.7368 24.5572 0.281286 -0.959112 0.0313528
23.7975 42.3635 23.449 0.305441 -0.951587 0.0344626
22.7371 41.9905 22.3098 0.312918 -0.949523 0.0221099
21.695 41.6034 21.1804 0.32111 -0.946622 0.0281986
20.6155 41.2245 20.0332 0.311234 -0.949977 0.0260283
19.2797 40.7468 18.6315 0.307038 -0.951448 0.0217854
18.2029 40.3871 17.5221 0.296026 -0.955006 0.0182413
17.0158 40.0209 16.299 0.281777 -0.959407 0.0118302
15.7968 39.6569 15.0738 0.261664 -0.965156 0.0024476
14.6502 39.3505 13.9078 0.239836 -0.970533 0.0233151
13.4143 39.053 12.6919 0.213135 -0.97702 0.0022834
12.1703 38.8005 11.4831 0.162227 -0.986396 0.0265748
11.2223 38.6376 10.554 0.145434 -0.989358 0.00443182
11.9211 38.7232 10.0156 0.127096 -0.990902 0.0442802
13.144 38.9579 11.2086 0.181908 -0.98282 0.0312058
14.4972 39.2826 12.5249 0.215999 -0.975698 0.0368371
15.6757 39.6036 13.6959 0.239583 -0.970223 0.0356139
17.0304 40.0003 15.0663 0.262885 -0.964162 0.0358175
18.1565 40.3529 16.211 0.272992 -0.961728 0.0235638
19.2948 40.7126 17.3805 0.280316 -0.959552 0.0261487
20.4249 41.1037 18.5522 0.289358 -0.955617 0.0554013
21.4708 41.4848 19.6548 0.299293 -0.953452 0.0367801
22.5908 41.8902 20.8504 0.314879 -0.948298 0.0397846
23.8745 42.344 22.2269 0.281273 -0.958519 0.0461225
24.9744 42.738 23.4106 0.290404 -0.955698 0.0480328
26.0578 43.0972 24.5797 0.271793 -0.961303 0.0450047
27.093 43.4567 25.709 0.270866 -0.960978 0.0561472
27.9965 43.7882 26.6944 0.263563 -0.961177 0.0816861
27.7072 43.5741 25.0443 0.235571 -0.967474 0.0921998
26.4574 43.1638 23.6857 0.23201 -0.971616 0.0462023
25.3076 42.767 22.4522 0.277402 -0.957629 0.0774251
24.1802 42.3801 21.2462 0.255457 -0.964794 0.0625632
23.0643 41.9909 20.0548 0.277531 -0.957974 0.0725418
21.9146 41.5765 18.8342 0.289807 -0.955288 0.0586226
20.8315 41.1786 17.6973 0.280247 -0.95789 0.0625207
19.7148 40.7958 16.5397 0.264475 -0.963334 0.045184
18.598 40.4443 15.3991 0.264327 -0.963791 0.03518
17.5029 40.0954 14.2902 0.251245 -0.966081 0.059695
16.3288 39.73 13.1007 0.23964 -0.969549 0.0504704
15.2091 39.4157 11.9954 0.20304 -0.977425 0.0584436
14.0692 39.115 10.8821 0.176707 -0.982345 0.061429
12.8394 38.8447 9.6865 0.137903 -0.988548 0.0612818
12.5618 38.7869 9.41857 0.125055 -0.988622 0.0835985
13.1144 38.7906 8.73249 0.115515 -0.986148 0.119031
14.1941 39.0492 9.77376 0.167142 -0.981746 0.0907603
15.264 39.349 10.8195 0.189885 -0.977349 0.093454
16.5648 39.7173 12.0937 0.22748 -0.971385 0.0682978
17.6354 40.0532 13.1612 0.233523 -0.968876 0.0821361
18.6789 40.3948 14.2155 0.245734 -0.967479 0.059994
19.745 40.736 15.2964 0.247597 -0.966835 0.0626569
20.884 41.1175 16.468 0.261709 -0.962482 0.0716722
22.0031 41.5096 17.6335 0.27596 -0.958505 0.0715159
23.1325 41.9194 18.8236 0.252755 -0.960827 0.113694
24.2833 42.3289 20.0445 0.235357 -0.968664 0.0793484
25.4672 42.7175 21.3014 0.238174 -0.968533 0.0722222
26.5071 43.0996 22.4162 0.268922 -0.95737 0.10547
27.4805 43.4014 23.4561 0.235077 -0.969521 0.0690491
26.9659 43.0864 21.5665 0.186237 -0.968813 0.163456
25.8823 42.7063 20.4126 0.189296 -0.97185 0.140268
24.8505 42.3843 19.327 0.183911 -0.971486 0.149637
23.8188 42.0012 18.2388 0.192257 -0.9665 0.170046
22.6767 41.62 17.0344 0.208209 -0.973092 0.0986996
21.4379 41.21 15.752 0.224034 -0.969613 0.0982813
20.2889 40.8095 14.574 0.216638 -0.971087 0.100291
19.1294 40.4287 13.3999 0.224589 -0.970369 0.0891252
18.068 40.0811 12.3392 0.206608 -0.970035 0.127847
16.9936 39.7383 11.2741 0.209595 -0.973553 0.0909089
15.8725 39.4068 10.1803 0.180642 -0.97616 0.120334
14.7956 39.0906 9.13122 0.170139 -0.976385 0.133135
13.7295 38.792 8.10517 0.12185 -0.976895 0.17558
14.3291 38.7177 7.47792 0.111297 -0.967858 0.225529
15.4601 39.1105 8.54973 0.159721 -0.973936 0.16105
16.6914 39.5079 9.74231 0.188001 -0.974888 0.119373
17.8052 39.851 10.826 0.1807 -0.976439 0.117957
18.8822 40.1877 11.8893 0.192931 -0.972699 0.128974
19.9506 40.5553 12.9523 0.206245 -0.97037 0.125879
21.0392 40.9055 14.0516 0.183209 -0.972975 0.14055
22.1031 41.2747 15.1382 0.209214 -0.969916 0.124465
23.2568 41.6502 16.3289 0.179643 -0.971341 0.155645
24.579 42.0557 17.7158 0.138654 -0.975435 0.171177
25.702 42.447 18.8972 0.134883 -0.97842 0.156527
26.7118 42.7686 19.9654 0.155373 -0.97636 0.150266
26.224 42.3822 18.1147 0.0899874 -0.976123 0.197702
24.9453 41.9394 16.7564 0.138651 -0.975435 0.171177
23.783 41.5809 15.5622 0.0952447 -0.977336 0.189058
22.7209 41.2768 14.4673 0.15354 -0.975818 0.15558
21.5275 40.8793 13.2572 0.174931 -0.97232 0.154893
20.4229 40.5213 12.1528 0.17034 -0.969168 0.178038
19.3608 40.162 11.1001 0.176088 -0.973603 0.145224
18.1575 39.774 9.92463 0.13374 -0.973405 0.186001
17.004 39.3999 8.81412 0.105346 -0.963928 0.244427
15.9232 38.9895 7.78692 0.12868 -0.957902 0.256641
15.004 38.6417 6.93299 0.0959246 -0.95522 0.279916
15.5151 38.4833 6.24542 0.0542262 -0.941926 0.331413
16.6921 38.9237 7.33113 0.078337 -0.945603 0.31575
17.9445 39.3912 8.50277 0.0735145 -0.950553 0.301737
19.0839 39.8003 9.5842 0.11437 -0.959113 0.258886
20.4715 40.2838 10.9287 0.102337 -0.972773 0.20794
21.6991 40.7037 12.146 0.103594 -0.962667 0.250079
22.9824 41.115 13.4329 0.0373684 -0.966663 0.25331
24.0355 41.4044 14.5105 0.044765 -0.974367 0.220465
25.4693 41.8137 15.9757 0.0616142 -0.97482 0.21431
25.9347 41.9886 16.453 0.108635 -0.961856 0.251061
25.1621 41.4103 14.3615 0.0429325 -0.971156 0.23455
24.0714 41.1009 13.246 -0.0137615 -0.94723 0.320258
22.9287 40.758 12.1047 -0.053593 -0.954969 0.291825
21.8229 40.3831 11.0004 0.0540079 -0.948283 0.312799
20.6604 40.01 9.86974 -0.00571592 -0.956176 0.292738
19.5566 39.6097 8.81404 0.0569291 -0.945458 0.32073
18.1611 39.0632 7.52982 0.0495472 -0.940939 0.33493
16.8618 38.5572 6.34546 0.00361936 -0.925048 0.379834
15.8287 38.16 5.41419 0.0246726 -0.931659 0.362496
16.3312 37.8975 4.75201 -0.010848 -0.922768 0.385203
17.7942 38.4432 6.05891 0.00102386 -0.922402 0.38623
18.8857 38.853 7.04875 -0.028901 -0.911446 0.410404
20.1881 39.3696 8.22525 -0.0193366 -0.896661 0.442295
21.3564 39.8081 9.35114 -0.0466376 -0.927152 0.371771
22.5796 40.2468 10.4965 0.0486537 -0.921041 0.386414
23.6542 40.549 11.5644 -0.0638896 -0.945681 0.318757
23.8546 40.6038 11.7664 -0.013765 -0.947231 0.320255
22.5184 39.7246 9.29387 -0.0621106 -0.894033 0.443675
20.9974 39.1364 7.83298 -0.0884418 -0.890381 0.446542
19.6906 38.6326 6.64961 -0.0593454 -0.897692 0.436608
18.5464 38.2086 5.61643 -0.0438162 -0.908497 0.415587
17.4266 37.8178 4.62457 -0.070437 -0.890292 0.449909
16.7578 37.5716 4.04892 -0.0171515 -0.906577 0.421692
