-32.6331 24.3479 15.4034 0.345233 -0.924722 -0.160324
-33.1434 24.0065 16.2756 0.344981 -0.924897 -0.159855
-33.5942 23.6862 17.1575 0.344792 -0.925033 -0.159475
-34.3558 23.3001 17.7502 0.344779 -0.925087 -0.15919
-35.233 23.0364 17.3826 0.34478 -0.925075 -0.159255
-36.2576 22.7194 17.0055 0.344631 -0.925126 -0.159283
-37.457 22.3616 16.4883 0.344748 -0.925078 -0.159311
-38.5496 22.0334 16.029 0.344906 -0.925029 -0.15925
-39.5223 21.7409 15.6218 0.344882 -0.925057 -0.15914
-40.595 21.4212 15.1545 0.344989 -0.92499 -0.1593
-41.6713 21.0991 14.6937 0.345183 -0.924937 -0.159187
-42.3547 20.9599 14.0209 0.345222 -0.924905 -0.159287
-42.0333 21.2423 13.0782 0.34542 -0.924751 -0.159753
-41.6688 21.5233 12.2415 0.345262 -0.924759 -0.160047
-41.3029 21.8076 11.39 0.345205 -0.9247 -0.160509
-40.8716 22.1653 10.2593 0.345189 -0.924606 -0.161084
-40.4146 22.506 9.28304 0.345146 -0.924536 -0.16158
-39.8788 22.8325 8.56037 0.344845 -0.924583 -0.16195
-39.3563 23.1683 7.75677 0.344689 -0.924619 -0.162078
-38.8252 23.5061 6.9613 0.344402 -0.924649 -0.162514
-38.274 23.8822 5.98978 0.344214 -0.92463 -0.163023
-37.5744 24.2978 5.10706 0.34362 -0.92485 -0.163028
-36.7951 24.7503 4.17686 0.342488 -0.925338 -0.162637
-36.0858 25.1753 3.24957 0.341545 -0.92575 -0.162276
-35.4436 25.5494 2.46298 0.341053 -0.925961 -0.162106
-34.7495 25.9173 1.8161 0.340867 -0.926226 -0.160985
-34.1252 26.2613 1.14801 0.33802 -0.927581 -0.159171
-33.4295 26.6296 0.479943 0.338107 -0.927817 -0.157597
-32.6188 27.0314 -0.154969 0.337136 -0.928184 -0.157519
-31.9423 27.398 -0.889582 0.334238 -0.929711 -0.154667
-31.2331 27.7429 -1.43847 0.333148 -0.930715 -0.150933
-30.4271 28.1297 -2.04688 0.332767 -0.931124 -0.149243
-29.51 28.5238 -2.47856 0.33109 -0.932464 -0.144529
-28.7931 28.8792 -3.14272 0.328428 -0.934044 -0.140343
-28.0755 29.2064 -3.65067 0.327739 -0.935036 -0.135261
-27.1402 29.5979 -4.1059 0.324808 -0.936392 -0.132923
-26.2815 29.955 -4.53112 0.324964 -0.936623 -0.130902
-25.4154 30.307 -4.95629 0.322373 -0.93872 -0.121982
-24.3181 30.7354 -5.39293 0.316736 -0.941405 -0.115912
-23.3262 31.1106 -5.7469 0.313176 -0.943099 -0.111739
-22.4635 31.4404 -6.13605 0.308989 -0.945374 -0.103896
-21.6119 31.7562 -6.47222 0.308734 -0.946068 -0.098171
-20.521 32.1404 -6.77962 0.305892 -0.947805 -0.0899804
-19.6201 32.4604 -7.11323 0.299754 -0.950282 -0.0843312
-18.5224 32.8216 -7.30905 0.293934 -0.953035 -0.0728387
-17.641 33.1162 -7.57465 0.288126 -0.955171 -0.0680541
-16.6499 33.4233 -7.69625 0.28711 -0.956112 -0.0584584
-15.6512 33.7236 -7.81904 0.285265 -0.957142 -0.0500243
-14.4943 34.0671 -7.97306 0.273264 -0.960855 -0.0453781
-13.3343 34.3976 -8.03517 0.273308 -0.961325 -0.0340279
-12.3739 34.6614 -8.07956 0.259315 -0.965468 -0.0233202
-11.412 34.9114 -8.00106 0.256948 -0.966263 -0.0177203
-10.3636 35.1783 -7.94773 0.245295 -0.969405 -0.00917545
-9.09672 35.4866 -7.8865 0.235125 -0.971964 -0.00143502
-7.9354 35.7557 -7.75712 0.216194 -0.976273 0.0123144
-7.01359 35.958 -7.55184 0.205524 -0.978402 0.0221052
-6.06227 36.1512 -7.3629 0.173478 -0.98398 0.0405846
-5.00159 36.3304 -7.1644 0.149985 -0.987763 0.042757
-3.95024 36.4842 -7.05739 0.127927 -0.990633 0.0475091
-2.66956 36.6149 -7.15407 0.0913674 -0.994156 0.0574906
-1.67589 36.6794 -7.54306 0.0529478 -0.998047 0.0331349
-0.73133 36.6954 -8.07445 0.0239949 -0.997743 0.0627121
0.288252 36.6656 -8.67928 -0.0178294 -0.996368 0.0832694
1.12102 36.6005 -9.16759 -0.0439245 -0.994277 0.0973856
2.01575 36.5176 -9.58038 -0.0479033 -0.993643 0.101872
3.15064 36.4098 -9.75532 -0.0875967 -0.989683 0.113379
4.09402 36.3023 -9.86171 -0.112311 -0.985446 0.127602
5.17129 36.1616 -9.88639 -0.133773 -0.982231 0.131631
6.12595 36.0158 -9.91555 -0.153123 -0.979585 0.130254
7.09992 35.8525 -9.93289 -0.172524 -0.975689 0.13515
8.04382 35.6656 -10.0108 -0.191497 -0.970986 0.143231
9.03426 35.466 -10.0084 -0.205773 -0.968771 0.138345
9.99698 35.2562 -9.9714 -0.224907 -0.965454 0.131589
11.07 34.9897 -10.0098 -0.255326 -0.959721 0.116996
11.9596 34.7074 -10.2812 -0.280965 -0.953883 0.105672
13.1211 34.3199 -10.5028 -0.31712 -0.943335 0.0964365
14.0524 33.9673 -10.717 -0.350691 -0.934041 0.0641026
14.9914 33.5991 -10.9125 -0.375088 -0.926294 0.035897
15.9063 33.2049 -11.2786 -0.397241 -0.916828 0.0381518
16.7097 32.8207 -11.7192 -0.420784 -0.906789 0.0199052
17.7581 32.3198 -12.304 -0.432015 -0.90185 -0.00550299
18.5937 31.906 -12.7845 -0.451664 -0.891845 -0.0247383
19.4558 31.4745 -13.3258 -0.474873 -0.878489 -0.0521118
20.2607 31.0604 -13.7351 -0.483615 -0.871156 -0.0839842
21.0912 30.6389 -14.3313 -0.509358 -0.856685 -0.0815246
21.3665 30.4954 -14.534 -0.507261 -0.856434 -0.0959563
21.3405 30.4552 -13.9618 -0.523387 -0.848008 -0.0833639
20.888 30.6515 -13.0496 -0.505996 -0.861332 -0.0455589
20.3077 30.9574 -12.1868 -0.499945 -0.865842 -0.0187596
19.6542 31.3175 -11.2551 -0.490523 -0.871415 0.00486507
19.1193 31.6447 -10.4726 -0.472489 -0.880015 0.0482433
18.4963 32.0456 -9.49592 -0.477431 -0.87495 0.0806251
17.8545 32.4821 -8.62495 -0.476109 -0.873557 0.0998413
17.3659 32.8214 -7.83235 -0.445487 -0.886453 0.124896
16.7081 33.2868 -6.89529 -0.446123 -0.883701 0.14159
16.1677 33.7118 -6.03787 -0.429824 -0.885042 0.178751
15.6852 34.1138 -5.31962 -0.419834 -0.880065 0.219687
15.2285 34.5107 -4.56656 -0.403745 -0.882125 0.242581
15.9095 34.3766 -3.91797 -0.433866 -0.867375 0.243763
15.2557 34.8575 -3.32595 -0.357473 -0.891322 0.278852
14.6297 35.3656 -2.42316 -0.33836 -0.902139 0.267689
14.0621 35.8148 -1.52898 -0.320095 -0.915551 0.243528
13.5913 36.182 -0.74924 -0.293261 -0.925194 0.240861
12.8954 36.6143 0.257741 -0.214479 -0.951182 0.221393
12.4533 36.946 1.22169 -0.187023 -0.95147 0.244391
11.8931 37.2213 2.00122 -0.156839 -0.957431 0.240852
11.2609 37.5214 2.91557 -0.10671 -0.97203 0.207331
10.7469 37.7362 3.78543 -0.0556375 -0.976342 0.20893
10.1239 37.906 4.52236 -0.0276427 -0.984083 0.174172
9.02138 38.0484 5.50916 0.032393 -0.989558 0.139098
8.19501 38.113 6.18022 0.0476016 -0.991171 0.123553
7.18709 38.1041 6.49601 0.056149 -0.992701 0.106735
5.69278 38.0159 6.43545 0.0542409 -0.994178 0.0930987
4.77053 37.936 6.14389 0.0567041 -0.994969 0.0825972
3.62551 37.8524 5.92712 0.0638874 -0.994721 0.0799293
2.50912 37.7447 5.51181 0.0716188 -0.994697 0.0735049
1.33957 37.6283 5.15839 0.0798112 -0.994382 0.0694769
0.201928 37.4896 4.63545 0.0998688 -0.992467 0.0703475
-0.765631 37.3781 4.50699 0.116944 -0.990923 0.0651798
-1.76343 37.2323 4.25989 0.128674 -0.989632 0.0638001
-2.73488 37.0763 4.06342 0.155262 -0.985938 0.0618078
-3.90841 36.8561 3.79094 0.190705 -0.979807 0.0579345
-4.82585 36.661 3.62134 0.215954 -0.975366 0.0402759
-6.10829 36.3434 3.49368 0.252872 -0.966577 0.0395114
-7.06732 36.0781 3.50686 0.290856 -0.956621 0.0166903
-8.01445 35.7874 3.49072 0.298273 -0.954382 0.0137274
-9.09762 35.4314 3.31719 0.318962 -0.94774 0.00156577
-10.21 35.0488 3.30822 0.33831 -0.94089 -0.00717733
-11.1082 34.7146 3.46106 0.351289 -0.935905 -0.0239872
-12.1886 34.3018 3.45755 0.362767 -0.930828 -0.0442724
-13.2788 33.877 3.46714 0.363755 -0.929696 -0.057771
-14.2316 33.4864 3.71397 0.368679 -0.9272 -0.0661542
-15.0765 33.1295 3.96263 0.377403 -0.922463 -0.0814183
-16.318 32.6033 4.18828 0.378469 -0.921473 -0.0872159
-17.2122 32.2197 4.396 0.374283 -0.921681 -0.101957
-18.2773 31.746 4.74067 0.375467 -0.920447 -0.108603
-19.0541 31.373 5.17816 0.379589 -0.916552 -0.125873
-19.962 30.9463 5.55884 0.37534 -0.917512 -0.131499
-20.8255 30.527 6.00733 0.374175 -0.917288 -0.136294
-21.7386 30.0973 6.38454 0.371574 -0.91697 -0.145257
-22.6549 29.6529 6.85167 0.369824 -0.916651 -0.151596
-23.4812 29.2355 7.39334 0.365247 -0.918 -0.154501
-24.2157 28.8564 7.92117 0.36102 -0.919251 -0.156964
-25.1282 28.3869 8.57813 0.357543 -0.920053 -0.160192
-25.9108 28.007 9.02358 0.355698 -0.920485 -0.161817
-26.5792 27.6321 9.69832 0.353746 -0.921223 -0.161901
-27.3607 27.2124 10.3833 0.35141 -0.92206 -0.162222
-28.0009 26.8391 11.1164 0.349898 -0.922471 -0.163149
-28.5857 26.498 11.7901 0.348932 -0.922647 -0.164222
-29.3823 26.0511 12.6184 0.347063 -0.92362 -0.162707
-30.0965 25.6441 13.4084 0.346496 -0.923805 -0.162863
-30.7028 25.2581 14.3169 0.345271 -0.924474 -0.161666
-31.3788 24.8413 15.2566 0.345073 -0.924633 -0.161175
-32.0032 24.4411 16.221 0.344653 -0.924966 -0.160166
-32.5203 24.1002 17.0785 0.344682 -0.925038 -0.159684
-32.9215 23.7943 17.9849 0.344675 -0.925093 -0.159378
-33.4879 23.4377 18.8304 0.344782 -0.925086 -0.159187
-34.4949 23.0727 18.7707 0.344711 -0.925119 -0.159151
-35.4647 22.7929 18.2957 0.344804 -0.925086 -0.159139
-36.6423 22.436 17.8198 0.344636 -0.925152 -0.159122
-37.6156 22.1364 17.4532 0.344736 -0.925114 -0.159127
-38.6498 21.8323 16.9809 0.344746 -0.925115 -0.159097
-39.7894 21.4874 16.5165 0.344811 -0.925104 -0.159025
-40.9142 21.1511 16.0334 0.344952 -0.925073 -0.158899
-41.9626 20.8376 15.5821 0.345029 -0.925059 -0.158812
-43.0004 20.5278 15.1311 0.345295 -0.924934 -0.15896
-43.4583 20.5155 14.2075 0.345657 -0.924786 -0.159038
-43.131 20.7948 13.2955 0.345659 -0.924738 -0.159309
-42.7961 21.0847 12.3422 0.345787 -0.924538 -0.160189
-42.3687 21.4162 11.3508 0.345507 -0.92461 -0.16038
-41.9629 21.7233 10.4562 0.345595 -0.924448 -0.16112
-41.4837 22.107 9.28237 0.345332 -0.924485 -0.16147
-40.9722 22.4391 8.47631 0.345165 -0.924427 -0.16216
-40.4472 22.7858 7.61919 0.344938 -0.924471 -0.162393
-39.9268 23.1177 6.83417 0.344711 -0.924451 -0.162987
-39.4308 23.4361 6.0782 0.344308 -0.924492 -0.163605
-38.7999 23.8615 4.99993 0.343643 -0.924764 -0.163463
-38.1132 24.246 4.2676 0.342835 -0.924965 -0.164024
-37.4603 24.6483 3.35793 0.342036 -0.925335 -0.163605
-36.6664 25.1095 2.40237 0.341477 -0.925675 -0.162844
-35.9268 25.5334 1.53849 0.340354 -0.926283 -0.161734
-35.2153 25.8983 0.94081 0.338418 -0.92704 -0.161462
-34.5335 26.276 0.195952 0.338277 -0.92738 -0.159799
-33.5354 26.7865 -0.668307 0.336648 -0.928255 -0.15815
-32.8327 27.1719 -1.45431 0.334311 -0.929477 -0.155912
-31.9852 27.5845 -2.11296 0.331555 -0.930932 -0.15309
-31.0111 28.0589 -2.89808 0.330431 -0.931779 -0.150337
-30.0432 28.4682 -3.33051 0.327839 -0.933116 -0.147706
-29.371 28.798 -3.9466 0.325973 -0.934479 -0.143126
-28.569 29.1619 -4.51473 0.323834 -0.936035 -0.137733
-27.7566 29.4996 -4.91453 0.320995 -0.937325 -0.135591
-26.8 29.8936 -5.38694 0.319447 -0.938485 -0.131144
-25.9353 30.2458 -5.82487 0.318277 -0.939756 -0.124734
-25.0755 30.5918 -6.27193 0.312201 -0.942422 -0.119878
-24.0731 30.9562 -6.53132 0.31291 -0.94285 -0.114545
-23.2405 31.2705 -6.87949 0.307925 -0.945261 -0.108002
-22.4374 31.5795 -7.32314 0.303504 -0.947336 -0.102175
-21.4745 31.9063 -7.4986 0.303947 -0.94768 -0.097537
-20.3894 32.2848 -7.87317 0.297273 -0.950857 -0.0865877
-19.3774 32.6271 -8.16403 0.294778 -0.95181 -0.0846388
-18.178 33.0128 -8.397 0.290171 -0.953924 -0.0763529
-17.029 33.3707 -8.65313 0.283089 -0.957067 -0.0623224
-15.774 33.7447 -8.82581 0.277839 -0.95904 -0.0552097
-14.6173 34.0737 -8.91937 0.26765 -0.962453 -0.0452052
-13.6318 34.35 -9.03896 0.26071 -0.964634 -0.0385288
-12.7034 34.6011 -9.10503 0.248634 -0.968256 -0.0257386
-11.778 34.8357 -9.04398 0.239979 -0.970666 -0.0147328
-10.7311 35.0966 -8.97265 0.239892 -0.970728 -0.0105497
-9.61187 35.366 -8.94672 0.227942 -0.973638 -0.00393036
-8.32976 35.6599 -8.7766 0.214507 -0.976617 0.0084306
-7.25519 35.8852 -8.63964 0.197131 -0.980051 0.0252951
-6.08781 36.1145 -8.32374 0.178761 -0.98356 0.0255621
-4.81088 36.3214 -8.16531 0.147751 -0.98863 0.0279504
-3.67154 36.4867 -8.01569 0.134711 -0.990558 0.0254333
-2.71815 36.579 -8.12641 0.0907174 -0.99559 0.0238321
-1.75141 36.6321 -8.57664 0.0393005 -0.997999 0.0495295
-0.891952 36.6141 -9.20885 0.0029717 -0.998916 0.0464503
0.284001 36.5664 -9.82479 -0.034366 -0.997001 0.0693398
1.10382 36.4969 -10.3202 -0.0531557 -0.995384 0.0799122
2.04404 36.4178 -10.6021 -0.0730541 -0.992586 0.0966917
3.30927 36.2864 -10.7922 -0.0908557 -0.990911 0.0992044
4.35078 36.1632 -10.8451 -0.130234 -0.985285 0.110541
5.3314 36.0118 -10.918 -0.145441 -0.981741 0.122607
6.32194 35.8502 -10.9241 -0.164963 -0.977777 0.129194
7.50572 35.643 -10.9118 -0.180215 -0.974308 0.135081
8.70983 35.4018 -11.0002 -0.188562 -0.974222 0.123783
9.72396 35.2047 -10.9543 -0.213684 -0.970598 0.109119
10.8782 34.9268 -11.0177 -0.237113 -0.96701 0.0919791
11.8071 34.6604 -11.2662 -0.269219 -0.958558 0.0914208
12.7156 34.3772 -11.4029 -0.297032 -0.953245 0.0556342
13.6675 34.0601 -11.6385 -0.318281 -0.947559 0.0288016
14.7617 33.6583 -11.9123 -0.358801 -0.933323 0.0130201
15.7537 33.2507 -12.3283 -0.401431 -0.915777 0.0119466
16.6122 32.8749 -12.7332 -0.425711 -0.90461 -0.0212445
17.3972 32.5164 -13.202 -0.43274 -0.900691 -0.0375289
18.5237 32.0001 -13.8438 -0.452803 -0.88955 -0.0605902
19.3336 31.6142 -14.2966 -0.469752 -0.87963 -0.0747295
20.2821 31.1603 -14.8934 -0.478075 -0.873501 -0.0917948
21.0622 30.7768 -15.4361 -0.502573 -0.857204 -0.111231
22.0516 30.3258 -16.2958 -0.503174 -0.85523 -0.124086
22.8431 29.9611 -16.8966 -0.504617 -0.850004 -0.15118
23.2015 29.6484 -16.3091 -0.511276 -0.8475 -0.142208
22.8546 29.7121 -15.3882 -0.515226 -0.848452 -0.120921
22.4596 29.8275 -14.4909 -0.518724 -0.848611 -0.103854
21.9232 30.0372 -13.2625 -0.529897 -0.845333 -0.0679767
21.4533 30.2732 -12.3164 -0.521704 -0.852751 -0.025306
20.7946 30.6577 -11.242 -0.519443 -0.8545 0.00286518
20.0907 31.0996 -10.2272 -0.5023 -0.863342 0.0483284
19.5003 31.5095 -9.24702 -0.506716 -0.858543 0.0783794
19.0004 31.8818 -8.46814 -0.477625 -0.871647 0.110024
18.3612 32.3297 -7.69471 -0.462131 -0.87905 0.117066
17.7765 32.755 -6.80976 -0.455808 -0.880981 0.12693
17.3198 33.115 -6.00085 -0.456719 -0.875171 0.157637
16.7989 33.5495 -5.23225 -0.475188 -0.858462 0.190637
16.2581 34.0207 -4.496 -0.460546 -0.856058 0.233191
16.0368 34.256 -4.12054 -0.448947 -0.857427 0.250787
16.7465 34.052 -3.51645 -0.471461 -0.831544 0.291365
16.1739 34.6758 -2.70723 -0.373232 -0.870096 0.321918
15.6266 35.1044 -2.03795 -0.339544 -0.900308 0.272317
15.0221 35.5767 -1.17339 -0.325374 -0.91008 0.256681
14.3056 36.1723 -0.0339818 -0.286458 -0.911152 0.29475
13.7502 36.5679 0.852062 -0.206383 -0.944622 0.255136
13.202 36.9767 1.81464 -0.153617 -0.941424 0.297534
12.61 37.306 2.69963 -0.137048 -0.953922 0.266795
12.071 37.583 3.53696 -0.0934664 -0.966395 0.23925
11.434 37.8621 4.51006 -0.0274197 -0.971896 0.233808
10.7128 38.0639 5.36156 -0.00446611 -0.965729 0.255115
9.91717 38.1837 6.12847 0.0541901 -0.984598 0.166221
8.9335 38.2615 6.97319 0.0559147 -0.987546 0.146937
8.01011 38.2386 7.31634 0.0888327 -0.990991 0.0956509
6.95807 38.194 7.4941 0.0640334 -0.992771 0.101345
5.89873 38.122 7.4735 0.0635666 -0.993633 0.0929468
4.78121 38.0314 7.24961 0.0659958 -0.994242 0.0843321
3.69943 37.9392 6.97246 0.0602732 -0.994799 0.0820419
2.81465 37.8494 6.6456 0.0765116 -0.994585 0.0702097
1.83926 37.752 6.33461 0.0790201 -0.994058 0.0748204
0.680453 37.6314 6.02614 0.089488 -0.993256 0.0737233
-0.269066 37.5077 5.59701 0.103855 -0.991201 0.0820692
-1.28319 37.3765 5.45512 0.124945 -0.98916 0.0771405
-2.39563 37.1962 5.1085 0.144018 -0.986804 0.0740031
-3.36298 37.0304 4.95239 0.172087 -0.982669 0.0677207
-4.49013 36.791 4.6945 0.202225 -0.977128 0.0657725
-5.51719 36.5426 4.6161 0.252053 -0.965428 0.066464
-6.46682 36.2873 4.50215 0.258102 -0.964939 0.0477019
-7.50971 35.9686 4.47862 0.300571 -0.953095 0.0355955
-8.45674 35.6523 4.42804 0.323578 -0.945871 0.0208198
-9.54921 35.2782 4.25167 0.32625 -0.945203 0.0123205
-10.4675 34.9339 4.38487 0.352459 -0.935616 -0.0198679
-11.4309 34.5638 4.46215 0.360935 -0.932457 -0.0158033
-12.6235 34.0781 4.4777 0.372654 -0.926603 -0.0503611
-13.7405 33.6217 4.61218 0.370451 -0.927072 -0.0574688
-14.6973 33.2149 4.82455 0.384071 -0.920997 -0.0652208
-15.5897 32.8252 4.9926 0.383893 -0.919622 -0.0831962
-16.4535 32.4289 5.3132 0.384086 -0.917548 -0.102878
-17.2951 32.0549 5.52879 0.376517 -0.920203 -0.107055
-18.5942 31.4519 5.97379 0.384727 -0.913728 -0.130648
-19.5559 30.9879 6.4177 0.379593 -0.915587 -0.132701
-20.3678 30.5855 6.84462 0.379529 -0.914029 -0.143209
-21.1749 30.1923 7.2167 0.372632 -0.915783 -0.149956
-22.0359 29.7578 7.72618 0.372005 -0.91492 -0.156631
-22.9735 29.2935 8.23893 0.364304 -0.917958 -0.156957
-23.9592 28.7829 8.92667 0.36136 -0.918259 -0.161907
-24.832 28.3328 9.54654 0.358285 -0.919454 -0.161971
-25.5874 27.9326 10.158 0.354291 -0.920673 -0.163827
-26.3714 27.5011 10.8821 0.353016 -0.92083 -0.165687
-27.0175 27.1454 11.4933 0.350953 -0.921766 -0.164861
-27.6768 26.7718 12.1816 0.349237 -0.922348 -0.16525
-28.2174 26.4403 12.8942 0.347503 -0.923085 -0.16479
-28.837 26.0956 13.5249 0.347164 -0.923391 -0.163787
-29.4769 25.729 14.2455 0.345795 -0.924138 -0.162464
-30.1286 25.3144 15.2196 0.345009 -0.924536 -0.161868
-30.7713 24.9243 16.0817 0.34415 -0.924983 -0.161143
-31.3452 24.5666 16.9118 0.344173 -0.925078 -0.160547
-31.8072 24.2458 17.7727 0.344407 -0.925121 -0.159796
-32.3556 23.8348 18.9742 0.344399 -0.925242 -0.159114
-32.8935 23.4952 19.784 0.344752 -0.925125 -0.159028
-33.7444 23.1219 20.111 0.344835 -0.925094 -0.159028
-34.8399 22.7924 19.6525 0.344841 -0.925069 -0.15916
-35.8181 22.5068 19.1933 0.344783 -0.925091 -0.159159
-36.8155 22.2087 18.7661 0.344611 -0.925155 -0.159159
-37.7321 21.9241 18.4351 0.344707 -0.925132 -0.159083
-38.5901 21.6756 18.0214 0.344715 -0.925125 -0.159106
-39.6488 21.3504 17.6184 0.34473 -0.925141 -0.158986
-40.5773 21.0881 17.1314 0.344804 -0.925142 -0.158814
-41.5007 20.7929 16.8456 0.344876 -0.925129 -0.158738
-42.4963 20.5032 16.3704 0.344942 -0.925116 -0.15867
-43.378 20.2278 16.0576 0.345226 -0.925012 -0.158656
-44.2464 19.9728 15.6547 0.345191 -0.925071 -0.158389
-44.7173 19.9152 14.9644 0.345583 -0.924903 -0.158517
-44.4526 20.1742 14.0311 0.345708 -0.924796 -0.158863
-44.0526 20.482 13.1106 0.345814 -0.924729 -0.159028
-43.7784 20.7422 12.1984 0.345843 -0.924608 -0.159666
-43.336 21.1006 11.0847 0.345936 -0.924449 -0.160382
-42.927 21.4004 10.2403 0.346022 -0.924313 -0.160978
-42.5521 21.7097 9.27032 0.34584 -0.924357 -0.161114
-41.9322 22.1109 8.30368 0.345562 -0.92423 -0.162437
-41.3325 22.5332 7.17542 0.345192 -0.924356 -0.162505
-40.7347 22.8821 6.46349 0.344556 -0.924442 -0.163364
-40.3005 23.1941 5.61446 0.344659 -0.924361 -0.163609
-39.6817 23.6215 4.50494 0.343652 -0.924624 -0.164239
-38.9445 24.0239 3.78214 0.343406 -0.924547 -0.165185
-38.4153 24.3525 3.03526 0.342088 -0.925085 -0.164903
-37.9291 24.6676 2.27323 0.341001 -0.925466 -0.165018
-37.2159 25.062 1.52739 0.340279 -0.925888 -0.164141
-36.6355 25.4049 0.789615 0.338858 -0.926617 -0.162959
-35.8985 25.7812 0.181399 0.338187 -0.926899 -0.162752
-35.1282 26.215 -0.702427 0.337307 -0.927585 -0.160653
-34.2866 26.6351 -1.37641 0.335255 -0.928691 -0.158547
-33.4844 27.0704 -2.24286 0.33281 -0.929773 -0.157351
-32.577 27.5047 -2.90604 0.330018 -0.931198 -0.154786
-31.9231 27.8433 -3.55539 0.32889 -0.932067 -0.151918
-30.9686 28.2406 -3.94053 0.325552 -0.933659 -0.149303
-30.0206 28.6955 -4.74507 0.323953 -0.935189 -0.143096
-29.1846 29.0622 -5.26191 0.320453 -0.936627 -0.14156
-28.2398 29.4636 -5.81015 0.319434 -0.93766 -0.136923
-27.0473 29.9474 -6.37415 0.317024 -0.939277 -0.131353
-26.2132 30.289 -6.83627 0.312517 -0.941286 -0.127709
-25.1265 30.7043 -7.27891 0.305665 -0.944315 -0.121718
-24.2591 31.0168 -7.52858 0.305393 -0.945272 -0.11484
-23.3242 31.3703 -8.00587 0.301227 -0.947594 -0.106407
-22.1435 31.7875 -8.4129 0.295351 -0.950239 -0.0990643
-21.0282 32.1665 -8.74188 0.295152 -0.951052 -0.0915724
-20.0869 32.482 -8.97898 0.287678 -0.953364 -0.0908036
-19.0678 32.8102 -9.24278 0.28978 -0.953872 -0.0784637
-18.0763 33.1259 -9.52283 0.278509 -0.957796 -0.0711308
-17.0576 33.429 -9.64813 0.268263 -0.961125 -0.0646166
-16.131 33.6983 -9.82913 0.26862 -0.961755 -0.0535381
-15.1802 33.9639 -9.90771 0.263309 -0.963451 -0.0492945
-14.2593 34.22 -10.0262 0.260099 -0.964834 -0.0379944
-13.3149 34.4747 -10.1196 0.255275 -0.966217 -0.0354756
-12.3131 34.7235 -10.0509 0.244309 -0.969355 -0.0253254
-11.3369 34.9629 -10.1051 0.229485 -0.973201 -0.0147174
-10.2196 35.229 -9.95604 0.229497 -0.973256 -0.00801443
-8.93143 35.5217 -9.83913 0.214192 -0.976756 -0.00464764
-7.89079 35.7406 -9.67836 0.190865 -0.981528 0.00736197
-6.95795 35.9176 -9.61299 0.180834 -0.983193 0.0243796
-6.02779 36.0945 -9.29046 0.163456 -0.986165 0.027241
-4.8968 36.2805 -9.22186 0.161333 -0.986634 0.0229015
-3.78412 36.4548 -8.97758 0.149589 -0.988475 0.0229456
-2.81821 36.5562 -9.02439 0.0842997 -0.996415 -0.00717005
-2.07874 36.5767 -9.60029 0.0390391 -0.998273 0.0397426
-1.27871 36.5658 -10.2243 0.00762228 -0.998844 0.0461427
-0.32429 36.5271 -10.7268 -0.0377451 -0.997381 0.0613112
0.924993 36.4405 -11.2384 -0.0642464 -0.995767 0.0622537
1.82879 36.3414 -11.6074 -0.0739263 -0.994293 0.0769141
2.80067 36.2318 -11.8528 -0.10213 -0.990555 0.0912868
4.03349 36.1049 -11.8029 -0.118734 -0.988346 0.0952589
5.39098 35.8838 -11.9052 -0.164797 -0.979582 0.114766
6.35771 35.7141 -11.8848 -0.170954 -0.977564 0.122811
7.51187 35.5098 -11.9016 -0.174419 -0.976286 0.128201
8.46865 35.3379 -11.9373 -0.182228 -0.977208 0.108888
9.47049 35.1483 -11.9424 -0.187764 -0.977324 0.0978938
10.5026 34.9222 -12.0642 -0.216905 -0.973564 0.0715988
11.4306 34.6936 -12.2252 -0.23924 -0.969334 0.056175
12.3696 34.426 -12.3994 -0.269389 -0.960613 0.0682014
13.3585 34.1426 -12.5697 -0.305272 -0.952107 -0.00745409
14.3528 33.8034 -12.8291 -0.314966 -0.948934 -0.012819
15.2078 33.4903 -13.1503 -0.374235 -0.926689 -0.0345789
16.096 33.1416 -13.5684 -0.406208 -0.912583 -0.0467605
17.1389 32.708 -14.1787 -0.43026 -0.89807 -0.0913597
18.007 32.3287 -14.5988 -0.44479 -0.890032 -0.100024
18.8484 31.9527 -15.0957 -0.459547 -0.882697 -0.0982998
19.8632 31.4882 -15.7284 -0.47641 -0.872088 -0.111784
20.7587 31.0899 -16.3682 -0.468208 -0.873624 -0.132522
21.5495 30.7375 -17.0538 -0.492211 -0.86017 -0.133551
22.3011 30.4147 -17.646 -0.493895 -0.855305 -0.156463
23.083 30.0558 -18.1467 -0.494512 -0.853494 -0.16433
23.9743 29.602 -18.4489 -0.49837 -0.849294 -0.173964
24.2782 29.2548 -17.6575 -0.50796 -0.84371 -0.173562
24.1507 29.1405 -16.6896 -0.515217 -0.84114 -0.164274
23.8523 29.13 -15.6664 -0.535712 -0.830817 -0.150354
23.3677 29.2662 -14.5193 -0.540115 -0.833888 -0.113573
22.9534 29.4103 -13.5455 -0.549393 -0.831155 -0.0857249
22.5412 29.5974 -12.6943 -0.554224 -0.829728 -0.0645513
22.1004 29.8442 -11.7382 -0.560819 -0.827704 -0.0196945
21.6052 30.1545 -10.8315 -0.530854 -0.847246 0.011689
21.1266 30.4785 -10.0463 -0.517799 -0.854965 0.0303068
20.4784 30.9438 -9.00265 -0.528845 -0.844267 0.0868048
19.94 31.393 -8.061 -0.513925 -0.848603 0.124988
19.3995 31.8147 -7.39421 -0.471747 -0.871775 0.132149
18.7652 32.2909 -6.40479 -0.462784 -0.878295 0.120117
18.276 32.6534 -5.70066 -0.479309 -0.866987 0.136368
17.7906 33.0378 -4.97681 -0.545041 -0.823834 0.136491
17.2191 33.579 -4.16932 -0.5418 -0.807919 0.224647
17.0037 33.8111 -3.84463 -0.463205 -0.847533 0.259091
-36.2556 22.8339 16.3456 0.344689 -0.925087 -0.159382
-34.7995 23.3968 16.2296 0.345033 -0.924923 -0.159592
-33.8083 23.7814 16.1428 0.344987 -0.92493 -0.159651
-33.3888 24.1049 15.1776 0.345164 -0.924771 -0.16019
-34.8235 23.5497 15.2924 0.345036 -0.924845 -0.160034
-36.3328 22.9688 15.3971 0.344863 -0.924987 -0.159589
-37.8488 22.3865 15.4957 0.344939 -0.924998 -0.15936
-38.3106 22.2089 15.5274 0.344926 -0.925003 -0.159359
-40.3388 21.592 14.7181 0.345007 -0.924985 -0.159286
-38.505 22.2978 14.5908 0.344893 -0.925009 -0.159395
-36.8755 22.9242 14.4832 0.344975 -0.924919 -0.159741
-35.2915 23.534 14.3743 0.345055 -0.924818 -0.160149
-33.6635 24.1604 14.2662 0.34529 -0.924699 -0.160333
-32.4348 24.6364 14.168 0.345651 -0.924492 -0.160747
-31.7914 25.0446 13.2078 0.345971 -0.924288 -0.161234
-33.2342 24.489 13.2978 0.345726 -0.924446 -0.160853
-35.0255 23.7989 13.4174 0.345355 -0.92471 -0.16013
-36.4969 23.2338 13.5094 0.345127 -0.924826 -0.159947
-38.2923 22.5442 13.6232 0.345073 -0.924866 -0.159833
-40.1639 21.8245 13.7485 0.345059 -0.92488 -0.159786
-41.6636 21.246 13.8575 0.345157 -0.924917 -0.159359
-41.0584 21.6457 12.8512 0.345218 -0.924788 -0.159975
-39.4475 22.2659 12.7408 0.344979 -0.924889 -0.159907
-37.974 22.8316 12.648 0.345211 -0.924735 -0.160295
-36.4329 23.4226 12.5564 0.345163 -0.924786 -0.160105
-34.7986 24.0498 12.4587 0.345529 -0.924601 -0.160381
-33.3568 24.604 12.3725 0.345836 -0.924437 -0.160664
-31.8425 25.1857 12.2882 0.346515 -0.924067 -0.161328
-31.1149 25.4647 12.255 0.346628 -0.923954 -0.161736
-30.2205 25.9688 11.2935 0.347323 -0.92366 -0.161921
-31.7846 25.3685 11.3652 0.34686 -0.923993 -0.161011
-33.6258 24.6635 11.4508 0.346101 -0.924327 -0.160727
-35.17 24.0712 11.5361 0.345353 -0.924628 -0.160607
-36.6766 23.4936 11.6223 0.345134 -0.924718 -0.16056
-38.1559 22.928 11.7007 0.34515 -0.92472 -0.160515
-39.6605 22.3512 11.7897 0.345097 -0.924753 -0.160438
-40.7425 21.9359 11.8563 0.345213 -0.924696 -0.160513
-40.48 22.2047 10.8723 0.345124 -0.924723 -0.160549
-38.9796 22.7796 10.7862 0.345046 -0.924726 -0.160702
-37.3327 23.4087 10.7017 0.345072 -0.924657 -0.161041
-35.6929 24.0347 10.6207 0.34538 -0.924645 -0.160449
-34.2319 24.5944 10.543 0.345814 -0.924469 -0.160532
-32.5464 25.2381 10.4712 0.346596 -0.924147 -0.160695
-30.9524 25.8489 10.4032 0.347538 -0.923716 -0.161139
-29.3739 26.4574 10.3263 0.349249 -0.92304 -0.161314
-28.6447 26.8988 9.38317 0.350446 -0.922795 -0.160114
-30.0948 26.3393 9.44318 0.348768 -0.923385 -0.160378
-31.8118 25.6806 9.51193 0.347186 -0.923977 -0.160403
-33.4595 25.0514 9.5758 0.346234 -0.924302 -0.160588
-34.9142 24.4967 9.63591 0.345717 -0.924494 -0.160596
-36.5887 23.8584 9.71238 0.344817 -0.924775 -0.160911
-38.2608 23.2212 9.79037 0.344978 -0.924683 -0.161096
-39.8026 22.6322 9.86864 0.344803 -0.924752 -0.161076
-40.0148 22.5514 9.87777 0.345044 -0.924638 -0.161211
-39.2616 23.0075 8.87591 0.344838 -0.924625 -0.161728
-37.7757 23.5741 8.80409 0.344833 -0.92472 -0.161192
-36.2997 24.1349 8.74409 0.344838 -0.924721 -0.161175
-34.4815 24.8257 8.67429 0.345299 -0.924612 -0.160816
-32.8235 25.4564 8.61597 0.346692 -0.924127 -0.160606
-31.2693 26.0489 8.56369 0.347638 -0.923859 -0.160102
-29.7545 26.63 8.50544 0.349141 -0.923367 -0.15967
-28.0562 27.2856 8.441 0.350674 -0.922876 -0.159147
-27.7473 27.4052 8.43061 0.353244 -0.921824 -0.159562
-26.2235 28.1537 7.46779 0.354956 -0.921954 -0.154945
-27.7636 27.5549 7.52169 0.352357 -0.922685 -0.156517
-29.2678 26.9762 7.56596 0.349563 -0.923345 -0.158869
-30.7736 26.3993 7.61522 0.347568 -0.924054 -0.159125
-32.2282 25.8443 7.66348 0.346823 -0.924245 -0.159643
-33.8098 25.2443 7.70915 0.345539 -0.924629 -0.160199
-35.2981 24.6811 7.7522 0.345076 -0.924666 -0.160984
-36.8842 24.0806 7.80609 0.344442 -0.924813 -0.161493
-38.7655 23.3681 7.87325 0.344524 -0.924697 -0.161982
-37.8946 23.8685 6.86962 0.344229 -0.924758 -0.16226
-36.3642 24.4455 6.82703 0.344082 -0.924911 -0.161701
-34.6285 25.099 6.78522 0.344541 -0.92484 -0.161127
-33.1151 25.6706 6.74856 0.345572 -0.924562 -0.160515
-31.61 26.2406 6.70936 0.346219 -0.924603 -0.158876
-30.0992 26.8163 6.66315 0.347406 -0.924391 -0.157512
-28.4028 27.4656 6.61733 0.350084 -0.923511 -0.156746
-26.8117 28.0781 6.5809 0.353393 -0.922642 -0.154419
-25.3567 28.6459 6.53144 0.355245 -0.922428 -0.151417
-24.9114 28.8216 6.51067 0.359407 -0.920713 -0.152032
-23.4756 29.5341 5.57808 0.360751 -0.921355 -0.144789
-25.1502 28.8774 5.60126 0.356723 -0.922467 -0.147661
-26.6032 28.3112 5.6555 0.352054 -0.923804 -0.15048
-28.1253 27.7268 5.6882 0.350836 -0.923674 -0.154082
-29.737 27.112 5.72487 0.347933 -0.924389 -0.156357
-31.5067 26.4412 5.76525 0.346124 -0.924752 -0.158216
-33.307 25.7616 5.80631 0.345181 -0.924923 -0.159271
-35.0101 25.1216 5.83909 0.343901 -0.92514 -0.160772
-36.6076 24.522 5.87286 0.343728 -0.924976 -0.162079
-37.5945 24.1531 5.88598 0.343551 -0.924918 -0.162784
-36.6513 24.6758 4.90338 0.343321 -0.925063 -0.162448
-34.9588 25.3079 4.8788 0.34323 -0.925437 -0.160497
-33.3405 25.9142 4.85156 0.344112 -0.925293 -0.159437
-31.7048 26.5273 4.82571 0.344506 -0.925535 -0.157164
-30.0429 27.1529 4.79728 0.346157 -0.925367 -0.154505
-28.5401 27.7216 4.76948 0.348034 -0.925042 -0.152216
-27.042 28.2928 4.74114 0.350055 -0.924487 -0.15095
-25.3879 28.9309 4.69883 0.35516 -0.923104 -0.147444
-23.8314 29.5369 4.66738 0.359093 -0.922113 -0.144085
-22.3077 30.1375 4.64642 0.364422 -0.921031 -0.137474
-21.6028 30.4204 4.62623 0.367301 -0.920152 -0.135682
-19.4672 31.4001 3.65799 0.368491 -0.922424 -0.115536
-21.0812 30.7574 3.69313 0.361999 -0.922944 -0.130883
-22.5373 30.1826 3.72879 0.358388 -0.924286 -0.13135
-24.1105 29.5699 3.7535 0.355747 -0.923946 -0.140598
-25.7585 28.9332 3.78558 0.35133 -0.925405 -0.142104
-27.2899 28.3488 3.81705 0.350019 -0.924755 -0.149383
-28.7436 27.7975 3.84251 0.348034 -0.925042 -0.152216
-30.3926 27.1785 3.8644 0.344964 -0.925672 -0.155342
-31.9429 26.5987 3.88397 0.343892 -0.925713 -0.157462
-33.4797 26.0266 3.89616 0.343118 -0.925705 -0.159187
-35.0331 25.4481 3.91356 0.342477 -0.925594 -0.161201
-35.8422 25.1469 3.92379 0.342556 -0.925443 -0.161898
-34.9537 25.648 2.93528 0.341694 -0.925958 -0.16077
-33.1629 26.3091 2.93411 0.342057 -0.926143 -0.158924
-31.6337 26.8747 2.9296 0.343177 -0.926176 -0.156295
-29.9651 27.4939 2.91887 0.344538 -0.926279 -0.152646
-28.43 28.0675 2.90408 0.345145 -0.926333 -0.150935
-26.7749 28.6913 2.88063 0.347181 -0.926592 -0.144546
-24.8481 29.4252 2.84334 0.352249 -0.925369 -0.140048
-23.3638 29.994 2.81469 0.353769 -0.925955 -0.132118
-21.9211 30.5532 2.78738 0.357123 -0.925599 -0.12542
-20.2338 31.2112 2.75067 0.361438 -0.925036 -0.11692
-18.7189 31.8096 2.71475 0.362244 -0.926125 -0.105223
-17.0559 32.4627 2.66784 0.36341 -0.926923 -0.0935249
-16.4468 32.7025 2.65858 0.359305 -0.928947 -0.0891979
-10.6865 34.907 1.90941 0.326368 -0.944948 -0.0235887
-12.0233 34.4378 1.80482 0.342233 -0.938674 -0.0420385
-13.4537 33.9122 1.71912 0.344784 -0.93706 -0.0551556
-15.0169 33.3276 1.70216 0.355615 -0.932588 -0.0617931
-16.3823 32.8126 1.71988 0.355096 -0.930971 -0.0848565
-17.6376 32.3304 1.75106 0.356889 -0.929264 -0.0953812
-18.9052 31.8408 1.79237 0.353929 -0.929423 -0.10444
-20.4086 31.2589 1.8286 0.355519 -0.9277 -0.113928
-22.0299 30.6355 1.86137 0.355439 -0.926695 -0.122065
-23.6009 30.0367 1.89182 0.351019 -0.926825 -0.133347
-25.1323 29.4554 1.92073 0.346623 -0.927996 -0.136659
-26.6778 28.8725 1.94934 0.346179 -0.927286 -0.142483
-28.1164 28.3337 1.96574 0.343871 -0.927467 -0.146822
-29.578 27.793 1.9721 0.341435 -0.928063 -0.148735
-30.8322 27.3284 1.97997 0.341704 -0.927241 -0.153173
-32.2539 26.8061 1.97798 0.340726 -0.927221 -0.15546
-33.5086 26.3451 1.97601 0.340529 -0.926613 -0.15946
-34.0301 26.1548 1.96877 0.339872 -0.926823 -0.159645
-32.9027 26.7306 1.01541 0.339393 -0.927404 -0.15727
-31.6339 27.1932 1.02252 0.339041 -0.927726 -0.156124
-30.3083 27.6768 1.03244 0.339286 -0.928536 -0.150686
-28.9773 28.1651 1.02911 0.341392 -0.928081 -0.148722
-27.5071 28.7075 1.02358 0.342115 -0.928796 -0.14246
-26.2533 29.1741 1.00568 0.343669 -0.928506 -0.140597
-24.9913 29.6447 0.985755 0.344356 -0.929536 -0.131842
-23.4427 30.2256 0.957584 0.347339 -0.929115 -0.126888
-21.8872 30.8087 0.928688 0.349685 -0.929253 -0.119206
-20.2926 31.4162 0.898138 0.351985 -0.929735 -0.108159
-18.7094 32.0162 0.855286 0.348904 -0.932073 -0.0974998
-17.3977 32.5122 0.812847 0.350394 -0.932425 -0.0883608
-16.082 33.0051 0.780916 0.344805 -0.935369 -0.0787081
-14.7619 33.4896 0.771403 0.339439 -0.938365 -0.065206
-13.4442 33.9701 0.795492 0.344782 -0.937061 -0.0551612
-11.8928 34.5188 0.877504 0.333387 -0.942036 -0.0377142
-10.571 34.9689 0.976125 0.315445 -0.948687 -0.0220833
-9.14847 35.4324 1.11952 0.304836 -0.9522 -0.0197418
-7.85716 35.8153 1.26566 0.277474 -0.960714 -0.00603097
-6.3698 36.2375 1.46084 0.258211 -0.965909 0.0186443
-4.80557 36.6027 1.69326 0.215667 -0.976393 0.0120265
-3.23181 36.8969 1.94759 0.16504 -0.985226 0.0457339
-1.55794 37.1671 2.24478 0.145913 -0.988405 0.0420221
-0.133904 37.3343 2.48861 0.0853972 -0.995481 0.041524
1.47538 37.491 2.80889 0.0763374 -0.995141 0.0621839
2.82581 37.5929 3.10366 0.0621837 -0.995611 0.0699374
4.18469 37.6911 3.52648 0.0345524 -0.995985 0.0825875
5.57344 37.81 4.24366 0.0383285 -0.995089 0.0912582
6.62301 37.9197 4.99034 0.0378075 -0.994043 0.102219
7.50732 37.8892 4.4933 0.0140006 -0.993439 0.113499
6.42166 37.7765 3.65927 0.0275979 -0.993816 0.107553
5.16296 37.6662 2.90462 0.0294988 -0.994549 0.100009
3.69423 37.5759 2.31597 0.0344807 -0.996035 0.0820055
1.95068 37.4619 1.89726 0.056209 -0.996616 0.0599824
0.5616 37.3506 1.63548 0.0791325 -0.995412 0.0537806
-1.07579 37.1869 1.34891 0.113852 -0.992406 0.0465706
-2.84369 36.9323 1.04239 0.151854 -0.988052 0.0263408
-4.16315 36.7062 0.823124 0.182642 -0.982965 0.0205446
-5.61805 36.4076 0.603117 0.22743 -0.973608 0.0190442
-7.18516 36 0.39065 0.259318 -0.965738 0.0102514
-8.68098 35.5849 0.211833 0.280673 -0.959762 -0.00891635
-9.99719 35.1758 0.0847438 0.309118 -0.950839 -0.0187528
-11.4469 34.7061 -0.0353216 0.321175 -0.94656 -0.0295005
-12.8496 34.2251 -0.113835 0.328046 -0.943527 -0.0462866
-14.2436 33.7387 -0.15081 0.329334 -0.942798 -0.0516887
-15.7072 33.2127 -0.15275 0.334762 -0.939806 -0.0685524
-17.0853 32.7121 -0.124605 0.341835 -0.93609 -0.0829701
-18.77 32.0896 -0.0756796 0.342859 -0.934778 -0.0929435
-20.3396 31.5018 -0.0322513 0.347855 -0.931986 -0.101977
-21.8133 30.9548 -0.00413994 0.345227 -0.931077 -0.11796
-23.2136 30.4347 0.020844 0.343256 -0.931172 -0.122856
-24.5987 29.9242 0.0424935 0.34037 -0.93132 -0.129583
-25.9684 29.419 0.0635829 0.340618 -0.930474 -0.134899
-27.2956 28.9296 0.0767474 0.34162 -0.929506 -0.138976
-28.8588 28.3578 0.0859567 0.338742 -0.929411 -0.146453
-30.1181 27.8994 0.0849631 0.339043 -0.928786 -0.14969
-31.4956 27.401 0.0740854 0.336499 -0.929283 -0.152322
-32.1441 27.1688 0.0566471 0.337808 -0.928341 -0.155139
-31.0447 27.7177 -0.866068 0.334713 -0.930379 -0.149539
-29.7633 28.18 -0.866122 0.3355 -0.930332 -0.14806
-28.476 28.6445 -0.861207 0.338181 -0.93011 -0.14328
-27.0472 29.1624 -0.87193 0.336498 -0.931483 -0.138232
-25.7617 29.6292 -0.880091 0.337184 -0.932268 -0.131085
-24.3257 30.1521 -0.898537 0.338528 -0.932394 -0.126649
-22.8155 30.701 -0.921953 0.335861 -0.93435 -0.119112
-21.2793 31.2634 -0.949425 0.341724 -0.933409 -0.109413
-19.9185 31.7602 -0.976555 0.340186 -0.934977 -0.100457
-18.5974 32.2435 -1.01196 0.341867 -0.935546 -0.0887696
-17.3381 32.7036 -1.04677 0.339792 -0.93653 -0.0863289
-15.9915 33.1843 -1.07841 0.331078 -0.940777 -0.0729776
-14.7061 33.6315 -1.08841 0.330825 -0.941555 -0.063471
-13.4161 34.0788 -1.07122 0.324913 -0.944273 -0.0527325
-11.9793 34.5617 -1.00858 0.315336 -0.948418 -0.0326577
-10.5524 35.0192 -0.906778 0.299287 -0.953866 -0.0237899
-9.23338 35.4292 -0.792922 0.287695 -0.957633 -0.0130482
-7.57726 35.8971 -0.622698 0.257809 -0.966182 -0.00521107
-6.08901 36.2728 -0.429783 0.234849 -0.971788 0.0217734
-4.78811 36.5675 -0.244252 0.195641 -0.980448 0.0211181
-3.4325 36.8095 -0.027605 0.146298 -0.988531 0.0374616
-1.99879 37.0218 0.21026 0.126054 -0.991284 0.0382924
-0.430011 37.2073 0.476629 0.0848782 -0.994901 0.0544794
0.90973 37.3233 0.717058 0.0744262 -0.995394 0.060434
2.22103 37.4145 0.963159 0.0456349 -0.996449 0.0707527
3.80908 37.4957 1.32478 0.018669 -0.996827 0.0773825
5.23362 37.5672 1.85476 0.00981609 -0.99423 0.106822
6.43334 37.6503 2.50468 0.0100661 -0.992733 0.119913
7.78351 37.7739 3.51655 -0.0130662 -0.991492 0.129514
8.12469 37.8087 3.81735 -0.010037 -0.991274 0.131438
8.68369 37.7018 3.10682 -0.0327587 -0.986963 0.157579
7.53317 37.5907 2.07688 -0.0372526 -0.989037 0.142889
6.34213 37.5097 1.32791 -0.0190377 -0.990969 0.132731
4.89646 37.4506 0.67546 0.00178797 -0.99642 0.0845264
3.54862 37.4083 0.265788 0.0150765 -0.99653 0.0818547
2.1731 37.3458 -0.0301573 0.0392017 -0.997141 0.0645999
0.556478 37.2361 -0.33226 0.0716847 -0.995673 0.0591356
-0.994207 37.1037 -0.599372 0.0755678 -0.995979 0.0481153
-2.42226 36.9244 -0.835818 0.136232 -0.99006 0.0349511
-3.95983 36.6943 -1.08856 0.172646 -0.984733 0.0222269
-5.39012 36.4221 -1.30539 0.219473 -0.975443 0.0185194
-6.75895 36.1011 -1.48909 0.242313 -0.970188 0.0044631
-8.20233 35.7301 -1.64869 0.264233 -0.964449 -0.00434103
-9.64058 35.3173 -1.78108 0.286483 -0.958049 -0.00831037
-11.0574 34.888 -1.88618 0.295731 -0.95471 -0.0327548
-12.4028 34.4617 -1.96937 0.310112 -0.949998 -0.0365145
-13.7312 34.0231 -2.00973 0.319048 -0.946521 -0.048026
-15.2537 33.5064 -2.02081 0.323113 -0.944385 -0.061123
-16.8565 32.9519 -1.99232 0.327067 -0.942308 -0.0712913
-18.3018 32.4401 -1.95319 0.328615 -0.940474 -0.0867241
-19.7376 31.9277 -1.91766 0.333617 -0.937635 -0.0976711
-21.103 31.4349 -1.8907 0.335131 -0.936256 -0.105415
-22.8492 30.8071 -1.8622 0.333998 -0.935517 -0.115124
-24.4445 30.2346 -1.83773 0.335593 -0.933837 -0.123799
-25.8042 29.7486 -1.83394 0.332084 -0.934554 -0.127785
-27.5812 29.1116 -1.82265 0.33356 -0.932918 -0.13565
-28.8766 28.6469 -1.81595 0.33252 -0.932248 -0.142633
-29.4952 28.4263 -1.81767 0.333754 -0.930996 -0.147835
-28.3655 28.9763 -2.78838 0.329601 -0.933614 -0.140457
-26.7924 29.5315 -2.78876 0.32959 -0.934865 -0.131901
-25.4023 30.0213 -2.78398 0.329107 -0.935682 -0.127232
-24.1175 30.4744 -2.78877 0.32911 -0.936609 -0.120207
-22.6748 30.9841 -2.80935 0.332324 -0.93631 -0.113504
-21.3421 31.4556 -2.82755 0.328576 -0.93864 -0.104849
-19.8478 31.9835 -2.85481 0.330002 -0.939351 -0.0933723
-18.3429 32.5123 -2.89063 0.32391 -0.942225 -0.0854084
-17.0372 32.9619 -2.92291 0.324971 -0.942697 -0.0756036
-15.5195 33.4788 -2.95193 0.318687 -0.945533 -0.0663785
-14.0519 33.9649 -2.94696 0.314409 -0.94788 -0.0516721
-12.4509 34.485 -2.90474 0.306292 -0.951103 -0.0398534
-11.1067 34.899 -2.83167 0.2875 -0.957373 -0.0279554
-9.78349 35.2874 -2.74187 0.279786 -0.95995 -0.0147231
-8.15773 35.7388 -2.60303 0.252869 -0.967393 0.0144445
-6.63023 36.1203 -2.44214 0.231703 -0.972679 0.0144391
-5.04187 36.4665 -2.22772 0.193081 -0.98079 0.0277759
-3.41198 36.7552 -1.97348 0.14532 -0.988842 0.0327763
-1.96393 36.9559 -1.73522 0.111134 -0.993211 0.0343689
-0.564194 37.0973 -1.50482 0.0795011 -0.996031 0.0400196
1.32254 37.2337 -1.17838 0.0497122 -0.996717 0.0639057
2.64284 37.2927 -0.920938 0.0158861 -0.997446 0.0696293
4.03107 37.3363 -0.611207 0.00280272 -0.995889 0.0905416
5.36996 37.3663 -0.210433 -0.0168655 -0.99517 0.0967065
6.69144 37.3947 0.378787 -0.0171281 -0.994174 0.106414
7.83609 37.4402 1.11874 -0.0581558 -0.988571 0.139086
8.91437 37.5273 2.05979 -0.0502786 -0.984611 0.167373
9.52828 37.6036 2.7074 -0.0612758 -0.983437 0.170575
10.0018 37.4344 1.91771 -0.0962531 -0.975762 0.196528
9.02108 37.338 0.907492 -0.0776187 -0.983036 0.16618
7.98545 37.2861 0.0546444 -0.0729646 -0.986726 0.145078
6.57218 37.2577 -0.758722 -0.0567904 -0.99015 0.127975
5.30471 37.2558 -1.24879 -0.0293852 -0.99355 0.109519
3.96509 37.2491 -1.61882 -0.0139097 -0.995325 0.09558
2.44732 37.2183 -1.94608 0.0189782 -0.996914 0.0761699
0.772123 37.1333 -2.25511 0.0479281 -0.997095 0.0592067
-0.670444 37.0421 -2.49862 0.0651999 -0.996514 0.0520406
-2.15702 36.8958 -2.74146 0.118866 -0.991963 0.043364
-3.50917 36.7174 -2.95989 0.151597 -0.988027 0.0286433
-5.14707 36.432 -3.2159 0.186812 -0.982316 0.0125459
-6.51972 36.1369 -3.39727 0.228938 -0.973405 0.00832842
-7.84009 35.816 -3.53389 0.236359 -0.971631 0.00815866
-9.38167 35.4085 -3.66396 0.26585 -0.963988 -0.00718244
-10.6853 35.0446 -3.74886 0.280345 -0.959699 -0.0196146
-11.9884 34.658 -3.81685 0.293511 -0.955696 -0.0222749
-13.6099 34.1532 -3.87297 0.301231 -0.952604 -0.0424985
-14.9436 33.7282 -3.88881 0.306689 -0.950145 -0.0562716
-16.4037 33.2489 -3.87399 0.314234 -0.946979 -0.0669957
-17.7864 32.7841 -3.84505 0.318138 -0.944787 -0.078527
-19.3352 32.2542 -3.80821 0.324846 -0.941495 -0.0897926
-20.8512 31.7286 -3.77747 0.321292 -0.942083 -0.0961839
-22.3367 31.2134 -3.7579 0.32532 -0.939515 -0.107138
-23.6779 30.7482 -3.7451 0.324784 -0.938518 -0.117046
-24.9789 30.297 -3.7361 0.325199 -0.937495 -0.123888
-26.5461 29.7536 -3.74667 0.324949 -0.936623 -0.130938
-24.699 30.5168 -4.68857 0.320059 -0.93975 -0.120136
-23.4327 30.949 -4.69762 0.31987 -0.940642 -0.113475
-22.1485 31.386 -4.70078 0.322592 -0.940179 -0.109531
-20.6963 31.8789 -4.72419 0.315415 -0.943873 -0.0980616
-19.1081 32.4169 -4.7562 0.315021 -0.945191 -0.0858859
-17.5799 32.9299 -4.78884 0.310895 -0.947686 -0.0723583
-16.2793 33.3533 -4.81576 0.308643 -0.948935 -0.0652907
-14.8598 33.8047 -4.82303 0.301868 -0.951993 -0.0508486
-13.3992 34.259 -4.8003 0.287847 -0.95707 -0.034079
-11.7763 34.7442 -4.74832 0.277399 -0.960528 -0.0208684
-10.4581 35.1189 -4.68211 0.264705 -0.964267 -0.0109535
-8.97482 35.5195 -4.58865 0.25178 -0.96778 0.00292756
-7.30499 35.9385 -4.44982 0.233578 -0.972229 0.0145665
-5.94299 36.242 -4.29743 0.208241 -0.97785 0.0210951
-4.62326 36.5021 -4.11257 0.172606 -0.984448 0.0326899
-3.19267 36.7224 -3.88003 0.134968 -0.989797 0.045659
-1.72407 36.8977 -3.64327 0.0976473 -0.993323 0.0614295
-0.159746 37.0248 -3.38464 0.0662235 -0.995874 0.0620424
1.41803 37.1001 -3.11565 0.027243 -0.996978 0.0727479
2.74055 37.1452 -2.86706 0.0108021 -0.996286 0.085426
4.16354 37.16 -2.56088 -0.0175108 -0.996059 0.0869463
5.52734 37.1408 -2.18783 -0.0473402 -0.99274 0.110575
6.83503 37.1243 -1.68527 -0.0725585 -0.987884 0.137191
8.20964 37.1215 -0.926071 -0.0839691 -0.984901 0.151393
9.54472 37.1668 0.12919 -0.113865 -0.977557 0.177251
10.599 37.2397 1.23146 -0.126042 -0.973496 0.190837
11.0184 37.0071 0.39447 -0.158361 -0.966396 0.202486
9.92942 36.9531 -0.725809 -0.127462 -0.978065 0.164751
8.85159 36.9496 -1.61684 -0.100725 -0.982193 0.158592
7.49517 36.9599 -2.44922 -0.110999 -0.98158 0.155496
6.18803 37.0022 -2.9743 -0.0821478 -0.988255 0.128852
4.56817 37.0499 -3.44028 -0.0485826 -0.992825 0.109264
3.01512 37.0567 -3.79513 -0.00289177 -0.995457 0.0951705
1.52174 37.0349 -4.07194 0.010282 -0.997037 0.0762319
0.00572817 36.9694 -4.32858 0.0376777 -0.997128 0.0656949
-1.6819 36.8438 -4.61094 0.0739261 -0.994704 0.071408
-3.31423 36.6575 -4.87441 0.120698 -0.991936 0.0386648
-4.70947 36.4567 -5.09677 0.168699 -0.9852 0.0303547
-6.09545 36.1846 -5.29118 0.208275 -0.977653 0.0285639
-7.6821 35.8302 -5.44822 0.222366 -0.974946 0.00576273
-9.0153 35.5096 -5.54392 0.247166 -0.968964 0.00422569
-10.4282 35.1395 -5.62552 0.262473 -0.964783 -0.0174011
-11.717 34.7816 -5.68554 0.273983 -0.961551 -0.0187835
-13.0504 34.3979 -5.73348 0.280008 -0.959608 -0.0273399
-14.6107 33.9326 -5.76057 0.296126 -0.954133 -0.0440447
-15.9302 33.5221 -5.76156 0.299179 -0.952494 -0.0569802
-17.3591 33.0698 -5.73518 0.30538 -0.949654 -0.0699998
-18.7275 32.6246 -5.70747 0.308194 -0.948029 -0.0791068
-20.2972 32.1083 -5.67941 0.3086 -0.947098 -0.0881562
-21.8641 31.5867 -5.65625 0.314346 -0.943737 -0.102701
-22.0813 31.5141 -5.65351 0.314344 -0.943737 -0.102702
-19.3395 32.508 -6.64168 0.302169 -0.949518 -0.0843148
-17.9847 32.9406 -6.66478 0.297759 -0.951654 -0.075459
-16.6912 33.3438 -6.68352 0.294913 -0.953363 -0.0642232
-15.1231 33.8242 -6.70192 0.288333 -0.956358 -0.0473623
-13.8356 34.2019 -6.69605 0.277366 -0.960023 -0.0377341
-12.3232 34.634 -6.65519 0.271178 -0.962125 -0.0279088
-10.9468 35.0146 -6.59732 0.25484 -0.9669 -0.0126922
-9.50051 35.3856 -6.52472 0.243031 -0.970016 0.00226527
-8.19653 35.707 -6.44679 0.231318 -0.972856 0.00662677
-6.79672 36.0203 -6.34092 0.204735 -0.978785 0.00799347
-5.42717 36.2965 -6.17511 0.188564 -0.981967 0.0135768
-3.78605 36.553 -5.92363 0.12228 -0.99146 0.0453329
-2.42332 36.7113 -5.70365 0.0942589 -0.993944 0.0564774
-0.775939 36.8506 -5.4398 0.0576372 -0.995852 0.0704058
0.878141 36.9376 -5.15999 0.0289479 -0.996645 0.0765578
2.24598 36.9535 -4.92246 -0.00851586 -0.995602 0.0932972
3.71102 36.952 -4.62087 -0.0433073 -0.991774 0.120456
5.28056 36.9119 -4.24233 -0.0732458 -0.988527 0.132093
6.59466 36.8462 -3.85802 -0.0930973 -0.985347 0.142914
8.01908 36.7712 -3.26592 -0.110999 -0.98158 0.155496
9.19578 36.7486 -2.51782 -0.119118 -0.97632 0.18058
10.3249 36.7333 -1.60803 -0.176833 -0.967407 0.181256
11.3096 36.7556 -0.590609 -0.159472 -0.967043 0.198485
11.3954 36.7623 -0.488852 -0.180917 -0.961645 0.206175
11.872 36.4892 -1.24772 -0.203961 -0.953977 0.219836
10.9663 36.4916 -2.2444 -0.199877 -0.962235 0.184806
9.85621 36.5208 -3.17314 -0.166751 -0.966941 0.192923
8.73695 36.5542 -3.94055 -0.164302 -0.971917 0.168468
7.34265 36.6556 -4.60133 -0.107656 -0.984283 0.139992
5.89391 36.7356 -5.08727 -0.0960705 -0.985003 0.143319
4.32869 36.8173 -5.45816 -0.0812882 -0.989439 0.120009
2.74865 36.866 -5.79967 -0.0242229 -0.994432 0.102558
1.21464 36.8568 -6.08034 -0.0104671 -0.996009 0.0886379
-0.502408 36.8001 -6.37232 0.034038 -0.996873 0.071317
-1.90383 36.7112 -6.59457 0.0551615 -0.997109 0.0522539
-2.03693 36.7005 -6.61583 0.0877838 -0.994822 0.0512094
-0.790796 36.7355 -7.38711 0.0430243 -0.997755 0.0513287
0.852061 36.7743 -7.1202 -0.0177917 -0.996698 0.07922
2.56379 36.7689 -6.80866 -0.0390374 -0.994392 0.0982863
3.87298 36.7175 -6.54447 -0.0734444 -0.988733 0.13043
5.41649 36.6275 -6.1945 -0.0896198 -0.986811 0.134802
6.87607 36.5261 -5.80014 -0.118825 -0.981027 0.153186
8.13548 36.413 -5.30394 -0.164576 -0.970528 0.176041
9.42523 36.3027 -4.62829 -0.168288 -0.968587 0.183078
10.5841 36.2513 -3.76922 -0.189852 -0.957606 0.21667
11.5908 36.2349 -2.88095 -0.22188 -0.956245 0.190694
12.5091 36.2238 -1.83514 -0.23267 -0.951881 0.199469
12.9153 35.8938 -2.69187 -0.289637 -0.929292 0.229188
11.9165 35.9172 -3.78477 -0.272479 -0.93186 0.239565
10.9172 35.9697 -4.688 -0.230067 -0.950559 0.20858
9.76262 36.0628 -5.52714 -0.210374 -0.958408 0.192866
8.50432 36.1942 -6.19687 -0.183528 -0.96665 0.178618
7.17294 36.3419 -6.70626 -0.165461 -0.974913 0.148889
5.85027 36.4506 -7.07629 -0.115703 -0.984704 0.130274
4.16996 36.5874 -7.46 -0.0809814 -0.990637 0.109912
2.58068 36.6581 -7.78266 -0.060133 -0.991911 0.111788
1.07722 36.6968 -8.05776 -0.0230532 -0.997041 0.0733285
0.593459 36.7015 -8.14265 -0.0225663 -0.997055 0.073289
1.97958 36.5918 -8.8693 -0.0442075 -0.994406 0.0959297
3.31568 36.525 -8.61915 -0.064535 -0.99263 0.102567
4.80238 36.4172 -8.29658 -0.117363 -0.985832 0.119837
6.16889 36.2841 -7.98174 -0.126203 -0.982514 0.136892
7.75374 36.1082 -7.50522 -0.186284 -0.970258 0.154588
9.15763 35.9288 -6.96181 -0.194391 -0.965015 0.175951
10.5038 35.7653 -6.153 -0.240746 -0.954136 0.177947
11.5665 35.6519 -5.32865 -0.268848 -0.941652 0.202514
12.6746 35.5689 -4.22778 -0.300036 -0.928601 0.218355
13.3619 35.5498 -3.42556 -0.309128 -0.918878 0.245161
13.8234 35.1933 -4.15141 -0.342177 -0.909644 0.235505
12.8816 35.2638 -5.26667 -0.309179 -0.928702 0.204745
11.8849 35.3627 -6.2692 -0.277642 -0.942616 0.185444
10.7971 35.5071 -7.09079 -0.254443 -0.950287 0.179483
9.53741 35.6968 -7.80197 -0.220753 -0.959301 0.176099
8.24752 35.8796 -8.33559 -0.191137 -0.96917 0.155485
6.31992 36.1278 -8.91241 -0.146153 -0.977987 0.148931
4.92658 36.2785 -9.24268 -0.127047 -0.984096 0.124156
4.3562 36.3367 -9.36499 -0.11968 -0.9848 0.125878
7.70127 35.8079 -9.50461 -0.185101 -0.972083 0.144197
9.29232 35.5661 -8.92219 -0.221996 -0.962585 0.155393
10.7466 35.3232 -8.21457 -0.257095 -0.955552 0.144301
12.0278 35.1113 -7.34344 -0.282275 -0.944718 0.166817
13.1006 34.9585 -6.31233 -0.326786 -0.92561 0.190937
14.1511 34.8364 -5.06966 -0.360677 -0.906521 0.219389
14.2544 34.8281 -4.936 -0.357513 -0.907312 0.221289
14.7912 34.4436 -5.5755 -0.395437 -0.894911 0.206795
13.8042 34.5929 -6.80826 -0.356098 -0.916087 0.184336
12.7606 34.7715 -7.90711 -0.323124 -0.931754 0.165604
11.69 34.9805 -8.75083 -0.280018 -0.950133 0.137248
10.6111 35.1863 -9.36292 -0.248198 -0.961721 0.116144
11.9041 34.7844 -9.73278 -0.280614 -0.954016 0.105406
13.0141 34.5369 -8.92285 -0.319306 -0.940202 0.118589
13.9923 34.3219 -7.90399 -0.361 -0.922813 0.134515
15.069 34.1172 -6.55356 -0.387554 -0.905256 0.174109
