11.9001 39.3814 9.87936 0.160429 -0.986328 0.0364694
12.4794 39.4231 9.0625 0.146084 -0.986195 0.0779477
13.1689 39.4298 8.15378 0.148 -0.982481 0.113145
13.8428 39.3416 7.07765 0.128301 -0.974177 0.185505
14.18 39.122 5.96812 0.0837015 -0.966021 0.24351
14.7696 38.8424 4.89958 0.044088 -0.952147 0.302445
15.3192 38.55 4.0882 0.00696464 -0.92815 0.37168
15.8558 38.2239 3.35606 -0.0685166 -0.907786 0.413775
16.8252 38.1619 3.37061 -0.0642775 -0.907587 0.414916
17.7744 38.3434 3.86486 -0.0499919 -0.893634 0.445984
18.6749 38.574 4.41888 -0.0457977 -0.893691 0.44634
19.3161 38.8839 5.10047 -0.0622626 -0.895357 0.440447
20.2608 39.2713 6.08167 -0.0691057 -0.89645 0.437587
21.1335 39.6798 7.02456 -0.073632 -0.892368 0.445176
21.9814 40.1428 8.10412 -0.0807654 -0.890957 0.446847
22.4803 40.4489 8.85828 -0.033727 -0.928102 0.369967
23.0879 40.7947 9.59188 0.0942514 -0.903666 0.417737
23.7784 41.2974 10.8757 -0.0291321 -0.930632 0.364795
24.1561 41.6331 11.7371 0.00193127 -0.923723 0.382873
24.6776 41.9938 12.6178 0.009304 -0.927266 0.374288
25.0535 42.3426 13.4725 -0.0196167 -0.928803 0.368878
25.3424 42.5712 14.3478 0.0201628 -0.976784 0.205014
25.6975 42.7967 15.2847 0.105856 -0.980803 0.161393
26.0242 43.0071 16.2168 0.129229 -0.977291 0.167785
26.271 43.1892 17.1281 0.105806 -0.981871 0.155463
26.5538 43.4103 18.2466 0.165909 -0.97674 0.13584
26.9398 43.6576 19.3528 0.182371 -0.96472 0.189884
27.3154 43.9075 20.3826 0.190551 -0.969915 0.151511
27.444 44.0753 21.4551 0.206583 -0.972489 0.107651
27.5796 44.2023 22.4145 0.227651 -0.97072 0.0766648
27.7765 44.3412 23.4214 0.253986 -0.96342 0.0824317
27.9402 44.4662 24.6357 0.266088 -0.961766 0.0648374
28.0761 44.5823 25.7342 0.25804 -0.96383 0.0666909
28.2297 44.6819 26.7601 0.271261 -0.961005 0.053721
28.3385 44.74 27.7812 0.275485 -0.961249 0.0104425
28.3547 44.7751 29.0263 0.266362 -0.963489 0.0272153
28.2853 44.7848 30.2833 0.270431 -0.96246 0.0231735
28.2694 44.8144 31.6788 0.298391 -0.954059 0.0270854
28.1955 44.8248 33.1118 0.304589 -0.952323 0.0175235
28.1654 44.8357 34.0611 0.300293 -0.953464 0.027011
28.0974 44.8448 35.2862 0.297976 -0.954447 0.0138557
27.9603 44.8118 36.3853 0.293726 -0.955864 0.00702024
27.8188 44.7725 37.3899 0.319039 -0.947735 0.00344195
27.6055 44.7066 38.5819 0.312897 -0.949783 0.00294011
27.452 44.6548 39.8931 0.324764 -0.945709 -0.0116942
27.1699 44.5533 40.9281 0.311396 -0.950276 0.00302102
26.8366 44.4395 41.9352 0.334785 -0.942274 -0.00622569
26.2738 44.2288 42.8228 0.338451 -0.940885 -0.013655
25.4065 43.9202 42.5937 0.338391 -0.940906 -0.013655
24.5036 43.5895 42.2646 0.355515 -0.934644 -0.00699843
23.5939 43.2424 41.9843 0.369915 -0.929052 -0.000506293
22.5133 42.8087 41.5118 0.37967 -0.925112 -0.000521836
21.538 42.4034 40.9821 0.384212 -0.92324 0.00300969
20.4593 41.9512 40.4805 0.386666 -0.922217 0.00209833
19.324 41.4746 39.9379 0.386926 -0.92211 0.000848235
18.0877 40.9561 39.3898 0.385047 -0.922893 -0.00137859
17.5537 40.7371 38.5633 0.382177 -0.92408 0.000262806
17.7572 40.8182 37.5192 0.378868 -0.925446 0.00254895
17.929 40.8843 36.5753 0.379538 -0.925168 0.00382826
18.1012 40.9536 35.6278 0.383008 -0.923745 0.000484758
18.3643 41.0665 34.5895 0.375209 -0.926922 -0.00574905
18.4943 41.1221 33.2174 0.378043 -0.92578 -0.00204333
18.5296 41.1433 32.1387 0.378738 -0.925484 -0.00614025
18.5288 41.1546 31.1074 0.37611 -0.926526 -0.00900461
18.48 41.1438 30.0055 0.368861 -0.929452 -0.00778053
18.328 41.0926 28.597 0.371372 -0.928422 -0.0103337
18.1907 41.0556 27.319 0.362435 -0.931877 -0.015101
17.9761 40.993 26.0829 0.359726 -0.932961 -0.0134258
17.8106 40.9433 25.1239 0.3558 -0.934424 -0.0160617
17.5811 40.8761 24.121 0.343505 -0.939003 -0.0166663
17.3394 40.8097 22.9917 0.336254 -0.941645 -0.015427
16.9144 40.6781 21.9056 0.32795 -0.944618 -0.0120638
16.4742 40.5398 20.9993 0.324764 -0.945651 -0.0165184
16.072 40.4214 20.0859 0.310554 -0.950319 -0.0212055
15.6465 40.3044 19.0347 0.311345 -0.950104 -0.0191362
15.075 40.1446 18.066 0.291015 -0.95651 -0.0199633
14.4936 39.9881 17.2819 0.284063 -0.95856 -0.021268
13.9015 39.8376 16.3228 0.270141 -0.962472 -0.0259138
13.2871 39.6964 15.4074 0.251984 -0.967337 -0.0274235
12.5465 39.5353 14.2355 0.232466 -0.972459 -0.0168114
11.8386 39.397 13.3134 0.218619 -0.975257 -0.0328498
10.9746 39.238 12.3581 0.1801 -0.983524 -0.0156429
10.2661 39.1343 11.3783 0.170137 -0.984963 -0.0300098
10.9511 39.2496 10.6585 0.161417 -0.986872 0.00155366
11.8152 39.3719 9.96952 0.151265 -0.987746 0.0384341
11.1917 39.2615 9.24665 0.133844 -0.990838 0.018054
10.3247 39.1638 9.92503 0.129088 -0.991357 0.000808899
9.25077 39.0085 10.4273 0.128704 -0.991503 -0.0189003
8.39596 38.855 11.1111 0.130414 -0.990297 -0.0480036
9.21137 38.9397 11.9702 0.165956 -0.985387 -0.037312
9.95783 39.0276 12.8135 0.180817 -0.982526 -0.0419494
10.9258 39.1819 13.9474 0.197284 -0.979879 -0.0302737
11.7066 39.3207 14.8219 0.238163 -0.970535 -0.0359096
12.3034 39.4308 15.7675 0.24311 -0.969127 -0.0411164
12.9123 39.5542 16.6222 0.257166 -0.965515 -0.0405812
13.6354 39.7185 17.7888 0.278419 -0.95991 -0.0310847
14.2706 39.885 18.6174 0.286649 -0.95764 -0.0275431
14.7442 40.0084 19.4613 0.295142 -0.955171 -0.0232258
15.1924 40.1219 20.629 0.310452 -0.950356 -0.0210419
15.7113 40.2734 21.6296 0.31516 -0.948923 -0.014834
16.1841 40.4054 22.6522 0.32389 -0.945777 -0.0228532
16.4805 40.4855 23.8039 0.337865 -0.940933 -0.0221649
16.7964 40.5757 24.8533 0.346017 -0.937973 -0.0215815
16.9928 40.6205 25.9526 0.348551 -0.93698 -0.0240981
17.2345 40.6879 27.3992 0.35609 -0.93432 -0.015642
17.3155 40.7034 28.3788 0.353204 -0.935512 -0.00347776
17.4478 40.742 29.4638 0.356341 -0.934297 -0.0104507
17.495 40.7477 30.4689 0.370558 -0.928764 -0.00920128
17.5503 40.7551 31.619 0.369533 -0.929093 -0.0152003
17.5402 40.7389 32.6139 0.366426 -0.930395 -0.00988593
17.5371 40.7343 33.6138 0.375289 -0.926908 -0.000513969
17.3446 40.6526 34.8174 0.36995 -0.929013 -0.00841096
17.0697 40.5346 35.9057 0.369544 -0.929195 -0.00581362
16.9117 40.4713 36.8454 0.372928 -0.927832 0.00723823
16.6508 40.3705 37.8446 0.373131 -0.927778 0.000943942
16.3711 40.2453 39.0654 0.381182 -0.924478 -0.00562881
16.917 40.4669 39.9739 0.383796 -0.923397 -0.0062618
17.781 40.8263 40.3685 0.388026 -0.92164 -0.00386954
18.7711 41.242 40.7645 0.388728 -0.921348 -0.00281923
19.9148 41.7215 41.3126 0.38871 -0.921338 -0.0060202
21.0143 42.1838 41.8258 0.38874 -0.921315 -0.00770525
22.0001 42.5916 42.3448 0.384364 -0.923099 -0.0123642
23.0229 43.0012 42.9045 0.376194 -0.926453 -0.0122376
24.1015 43.4253 43.2219 0.355136 -0.934693 -0.0145009
25.3438 43.8788 43.6823 0.336277 -0.941439 -0.0235691
26.2364 44.1818 44.0389 0.330614 -0.943298 -0.0297174
27.2129 44.5244 43.9255 0.317033 -0.948011 -0.0274068
27.549 44.6682 42.9341 0.317569 -0.94795 -0.0223516
27.8915 44.7977 41.9932 0.316829 -0.948454 0.000464013
28.1969 44.8844 41.0061 0.290823 -0.956755 0.00122751
28.4867 44.984 39.8985 0.288756 -0.95731 -0.0132958
28.5643 45.0195 38.7838 0.294707 -0.955537 -0.00547782
28.7435 45.0696 37.6686 0.30462 -0.952454 0.00574259
28.9565 45.1231 36.5921 0.294992 -0.955399 0.0134029
29.0983 45.146 35.3903 0.280843 -0.959622 0.0159138
29.1494 45.1394 34.3482 0.286637 -0.957785 0.0213051
29.1995 45.1382 33.3975 0.290057 -0.956851 0.0173625
29.2573 45.1248 32.2831 0.283995 -0.958309 0.0314891
29.3179 45.1068 31.2211 0.274527 -0.960797 0.0387803
29.3007 45.0642 30.079 0.269158 -0.962827 0.0227588
29.3364 45.0381 29.0389 0.251179 -0.96745 0.0293911
29.3532 45.0135 27.9612 0.246008 -0.96868 0.0337361
29.2829 44.9551 27.0126 0.201798 -0.977807 0.056308
29.1346 44.8604 26.0537 0.2222 -0.972276 0.0728518
29.0041 44.7536 25.0344 0.210182 -0.973981 0.0847619
28.8885 44.644 23.9731 0.194703 -0.978094 0.0734761
28.7433 44.5258 22.9745 0.205399 -0.973741 0.0981814
28.511 44.331 21.7938 0.122048 -0.982474 0.14089
28.4013 44.1732 20.8575 0.122011 -0.977214 0.173682
28.2538 43.9878 19.9268 0.138557 -0.969107 0.204042
27.8397 43.7207 18.873 0.121901 -0.970531 0.205982
27.6024 43.4635 17.8313 0.109327 -0.970848 0.213312
27.2977 43.2006 16.6361 0.0511767 -0.976299 0.201301
26.9382 42.9578 15.7332 0.01412 -0.968746 0.247544
26.496 42.5947 14.4163 0.00672137 -0.95859 0.284712
26.0287 42.1516 13.0974 -0.0322413 -0.935116 0.352871
25.5521 41.7379 12.0122 -0.0246089 -0.921362 0.387926
24.8601 41.1874 10.6478 -0.0129842 -0.930113 0.367044
24.3976 40.7658 9.68124 -0.059486 -0.889878 0.452277
23.8627 40.4016 8.90379 -0.0551819 -0.889051 0.454469
23.0287 39.8967 7.80237 -0.0729085 -0.891191 0.447732
22.4261 39.5307 6.96416 -0.081486 -0.891712 0.445204
21.381 39.0234 5.74971 -0.0736294 -0.89237 0.445173
20.5355 38.6438 4.86939 -0.106162 -0.870833 0.479978
19.7118 38.28 4.01185 -0.110943 -0.874926 0.471376
18.8728 37.9579 3.2831 -0.0763253 -0.876432 0.475436
17.3978 37.7186 2.53581 -0.0934472 -0.889159 0.447596
16.6384 37.5136 1.98694 -0.0899966 -0.897689 0.431027
15.4983 37.6058 1.90671 -0.0874942 -0.907904 0.409457
15.0317 37.9748 2.66266 -0.0499237 -0.914112 0.401528
14.4668 38.3125 3.46035 -0.00394145 -0.933303 0.359068
13.9387 38.6375 4.41354 0.0556193 -0.944247 0.324505
13.4146 38.8582 5.25151 0.0853192 -0.955653 0.281866
13.0942 39.0735 6.18204 0.0778684 -0.97028 0.229114
12.6454 39.227 7.18905 0.0995954 -0.982892 0.154935
12.0136 39.2725 8.09773 0.119165 -0.986697 0.110445
11.5216 39.2775 8.86171 0.119603 -0.990437 0.0687625
10.7619 39.1491 8.32583 0.11864 -0.990504 0.0694779
11.3078 39.1498 7.539 0.0533616 -0.995966 0.0721453
11.8309 39.027 6.44632 0.100859 -0.98379 0.148275
12.127 38.8856 5.55662 0.0329371 -0.959015 0.281436
12.5198 38.6544 4.72102 0.045533 -0.956507 0.288134
13.1215 38.4303 3.93167 0.0626184 -0.948292 0.310779
13.5236 38.1627 3.10931 0.0234013 -0.933384 0.358114
14.2052 37.8309 2.20658 -0.0438992 -0.933405 0.356129
14.8192 37.3761 1.18674 -0.152229 -0.915064 0.364677
15.4073 36.8255 0.191568 -0.129423 -0.904137 0.407168
16.2327 36.535 -0.15136 -0.141782 -0.893519 0.426045
17.0885 36.9909 1.04437 -0.137856 -0.883881 0.446935
18.0643 37.2317 1.75044 -0.110253 -0.880627 0.460805
19.0357 37.3925 2.26475 -0.101726 -0.866181 0.4883
19.83 37.6034 2.82515 -0.127168 -0.855459 0.502014
20.6176 37.8571 3.45192 -0.124531 -0.854762 0.503859
21.5515 38.262 4.40151 -0.100111 -0.871047 0.480851
22.1338 38.5751 5.0814 -0.094063 -0.87126 0.481724
22.9455 38.9839 6.00713 -0.100179 -0.877926 0.468199
23.4988 39.3174 6.72471 -0.0693523 -0.879973 0.46923
24.2286 39.767 7.73953 -0.0634121 -0.887125 0.456943
24.9408 40.229 8.69708 -0.0545505 -0.886055 0.460311
25.612 40.766 9.85385 -0.0662039 -0.897738 0.435209
26.2001 41.2906 11.0562 -0.0531131 -0.903496 0.425293
26.7441 41.6992 12.0229 -0.0552962 -0.908121 0.415039
27.1257 42.0333 12.8825 -0.0313449 -0.93504 0.353153
27.4464 42.4341 14.0144 -0.0377718 -0.944276 0.326981
27.7302 42.7727 15.0144 -0.0178087 -0.944972 0.326634
28.3663 43.176 16.4723 0.0142571 -0.967338 0.253088
28.6792 43.4757 17.456 0.0316356 -0.956629 0.289585
28.9413 43.8282 18.8306 0.103256 -0.968479 0.226687
29.2176 44.0899 19.8941 0.0904975 -0.977279 0.191665
29.4837 44.3549 21.1199 0.105411 -0.977127 0.183928
29.6945 44.5646 22.25 0.141024 -0.977794 0.155021
29.934 44.7932 23.6884 0.165244 -0.980236 0.108779
30.0485 44.938 24.9018 0.175581 -0.980216 0.0912961
30.1516 45.0933 26.3216 0.190316 -0.978115 0.0822561
30.3494 45.2048 27.3027 0.215081 -0.974208 0.0682618
30.2867 45.2641 28.3486 0.231218 -0.9713 0.0509305
30.3299 45.3249 29.6784 0.253155 -0.966718 0.0369876
30.2644 45.3473 30.6837 0.253014 -0.966625 0.0402555
30.2993 45.4032 31.9741 0.257714 -0.965665 0.0327896
30.2346 45.4373 33.4334 0.261499 -0.964497 0.0369333
30.1362 45.4402 34.6627 0.283538 -0.95844 0.0316064
30.1031 45.4595 35.7183 0.292114 -0.95621 0.0178068
29.9142 45.4179 36.7951 0.291394 -0.956504 0.0137751
29.7274 45.3756 37.8536 0.292983 -0.956069 0.00806161
29.5571 45.3246 38.8422 0.285005 -0.958318 -0.0170289
29.4214 45.2622 39.9453 0.275392 -0.961105 -0.0208921
29.2315 45.1995 40.9971 0.273168 -0.961949 -0.00575431
28.9485 45.1104 41.9011 0.272915 -0.961832 -0.0183236
28.5946 44.9832 43.0851 0.275201 -0.960973 -0.0282023
28.3136 44.8745 44.0743 0.272834 -0.961621 -0.0289791
28.0235 44.7595 44.9801 0.290804 -0.955925 -0.0364982
27.0674 44.4316 45.3975 0.319586 -0.946511 -0.043744
26.1445 44.1164 45.0895 0.33669 -0.941084 -0.0316282
24.9898 43.7241 44.6286 0.332454 -0.942646 -0.0298707
23.8741 43.3082 44.247 0.36059 -0.932229 -0.0303358
22.8307 42.9131 43.9154 0.366773 -0.930022 -0.0204061
21.8522 42.5163 43.436 0.382258 -0.923974 -0.012307
20.945 42.1445 42.8909 0.387734 -0.9217 -0.0115081
20.1249 41.8012 42.5238 0.389326 -0.921061 -0.00845367
19.2768 41.448 42.0744 0.388187 -0.921529 -0.0097115
18.3869 41.0756 41.6744 0.390754 -0.920454 -0.008738
17.5737 40.7339 41.3388 0.388771 -0.921287 -0.00929583
16.5568 40.3093 41.0082 0.38555 -0.922633 -0.00955977
15.7371 39.9783 40.6233 0.377687 -0.925878 -0.00897412
15.243 39.7844 39.7771 0.37036 -0.928818 -0.0114358
15.3409 39.835 38.7521 0.369063 -0.929379 -0.00685037
15.869 40.0553 37.3226 0.367733 -0.929892 -0.00834724
16.0616 40.1351 36.3236 0.366147 -0.930551 -0.00331191
16.2159 40.1992 35.3715 0.366174 -0.930541 -0.00325886
16.403 40.2807 34.4476 0.370179 -0.928925 -0.00807885
16.5555 40.3476 33.286 0.364625 -0.931137 -0.00292545
16.5898 40.3724 32.2975 0.35534 -0.934623 -0.0145774
16.4875 40.3581 30.7094 0.355894 -0.934419 -0.0141534
16.4533 40.3635 29.3308 0.352038 -0.935883 -0.012728
16.4514 40.3788 28.3168 0.346499 -0.937893 -0.0169951
16.2691 40.3352 26.9245 0.342274 -0.939501 -0.0136716
16.0303 40.2741 25.8586 0.334843 -0.941899 -0.0265394
15.7126 40.187 24.8536 0.336469 -0.94148 -0.0201218
15.4922 40.1341 23.8991 0.322907 -0.945991 -0.028858
15.0267 40.0194 22.5105 0.322305 -0.946145 -0.0304933
14.5018 39.8855 21.3518 0.308847 -0.950498 -0.034176
13.848 39.7107 20.1288 0.298132 -0.954218 -0.0241459
13.4766 39.6261 19.2231 0.28948 -0.956611 -0.0331304
12.9018 39.4906 18.4148 0.268442 -0.962709 -0.0336092
12.3156 39.3591 17.4989 0.268239 -0.962762 -0.0337108
11.7398 39.2494 16.7001 0.24422 -0.968764 -0.0430547
10.9417 39.1051 15.5885 0.221063 -0.974224 -0.0449431
9.92217 38.9404 14.4794 0.208625 -0.97614 -0.0600875
9.19485 38.8555 13.5635 0.18338 -0.980907 -0.0639383
8.47057 38.7635 12.7953 0.18193 -0.981836 -0.0538428
7.4642 38.6497 12.0168 0.157245 -0.98513 -0.0692171
6.64896 38.5648 11.5105 0.149599 -0.985341 -0.0819382
5.86167 38.4954 11.0029 0.155153 -0.983503 -0.0930022
5.11444 38.4533 10.3263 0.13991 -0.984918 -0.101796
4.12802 38.3666 9.77765 0.145762 -0.982669 -0.114521
3.21924 38.3292 8.97247 0.143168 -0.982426 -0.119697
4.03334 38.477 8.74734 0.136543 -0.982999 -0.122513
4.97776 38.5704 9.04512 0.139047 -0.984517 -0.106733
6.06737 38.7082 9.07599 0.111112 -0.988707 -0.100561
7.24307 38.8197 9.28992 0.133658 -0.989611 -0.0477272
8.16682 38.9199 9.51621 0.121777 -0.990106 -0.069713
9.16324 39.015 9.4022 0.130381 -0.991344 -0.0154489
10.0949 39.1366 8.94805 0.0769468 -0.996392 -0.0358025
10.5646 39.1402 8.53712 0.118637 -0.990504 0.0694753
26.4144 44.2907 41.5217 0.338756 -0.940874 0.00113745
25.9129 44.1097 42.0884 0.33842 -0.940896 -0.0136515
25.2491 43.8714 41.6401 0.340599 -0.940205 -0.00268414
25.975 44.1317 40.8183 0.33835 -0.941018 0.00189409
26.6955 44.3903 40.0042 0.334097 -0.942521 -0.00584257
26.9377 44.4782 39.7304 0.330581 -0.943754 -0.00669117
27.0393 44.5184 38.4145 0.320287 -0.947281 0.00862962
26.0079 44.1492 39.5788 0.334096 -0.942521 -0.00583925
25.3447 43.9015 40.3324 0.347693 -0.937592 -0.00563541
24.5539 43.6125 41.2311 0.360348 -0.932807 0.00447591
24.2923 43.5122 41.5309 0.361042 -0.932544 0.00320409
23.5164 43.209 41.2209 0.367023 -0.930205 0.00345892
24.2407 43.4868 40.3905 0.358429 -0.933551 0.00341003
24.9256 43.7492 39.607 0.349188 -0.937048 -0.00294128
25.66 44.0233 38.7717 0.34781 -0.937565 0.000393318
26.3441 44.2703 37.9979 0.340552 -0.940226 -0.000599668
27.0152 44.5008 37.2445 0.321694 -0.946835 0.00402923
27.3378 44.608 36.8847 0.320226 -0.947329 0.00489103
27.3716 44.6139 35.6472 0.329126 -0.944201 0.0126475
26.6696 44.3782 36.4326 0.33484 -0.942216 0.0105766
25.973 44.1317 37.2182 0.343087 -0.939277 0.00709846
25.2228 43.8565 38.0691 0.356783 -0.934185 0.0021263
24.3119 43.5132 39.1083 0.363758 -0.931487 0.00345386
23.5884 43.2317 39.9382 0.372747 -0.927929 0.00287818
22.8571 42.9442 40.7804 0.369766 -0.929083 0.00880982
22.779 42.914 40.8702 0.374542 -0.927172 0.00837529
22.1493 42.6521 40.4002 0.377962 -0.925803 0.00572917
22.8256 42.9245 39.6175 0.372427 -0.928058 0.0024232
23.4889 43.1887 38.8521 0.370198 -0.928944 0.00392383
24.2195 43.4731 38.0133 0.365883 -0.930651 0.00435414
25.0455 43.7931 37.0685 0.349711 -0.936857 0.000608585
25.7665 44.0497 36.2517 0.340695 -0.940139 0.00816818
26.5491 44.3234 35.3715 0.334844 -0.942214 0.0105805
27.2916 44.5688 34.5414 0.331284 -0.943342 0.0188953
27.4073 44.6067 34.4121 0.315939 -0.948483 0.0236971
27.6955 44.6612 32.9053 0.303221 -0.952796 0.015403
26.8643 44.404 33.8254 0.331036 -0.943413 0.0196908
26.0392 44.1295 34.7492 0.336581 -0.941479 0.0181649
25.1139 43.8042 35.792 0.353456 -0.935406 0.00922094
24.4312 43.5508 36.571 0.364178 -0.931318 0.00459884
23.6992 43.2636 37.4105 0.369723 -0.929136 0.00328819
23.0085 42.9932 38.205 0.374963 -0.927023 0.0056061
22.0876 42.6229 39.2708 0.379893 -0.92503 0.000887586
21.418 42.3492 40.0482 0.383812 -0.923399 0.00479142
21.2542 42.2821 40.2387 0.38381 -0.9234 0.00479473
20.6971 42.0495 39.6846 0.386138 -0.92244 0.00148185
21.5297 42.3932 38.7153 0.38139 -0.924414 0.000632717
22.2455 42.6824 37.8852 0.380493 -0.924766 0.00575439
22.8971 42.9414 37.1327 0.37505 -0.926982 0.00645434
23.5777 43.209 36.3506 0.372489 -0.928006 0.00748893
24.2742 43.4795 35.5515 0.366317 -0.930437 0.00996377
25.0123 43.7515 34.7119 0.351811 -0.935966 0.0140155
25.7678 44.0219 33.8579 0.342616 -0.939405 0.011474
26.4518 44.2519 33.0907 0.322889 -0.946303 0.0159268
27.3733 44.5451 32.0663 0.300811 -0.953447 0.0212469
27.709 44.6397 31.6984 0.298389 -0.95406 0.0270851
27.5763 44.5792 30.6518 0.292571 -0.956207 0.00836898
26.823 44.3575 31.481 0.314557 -0.949117 0.0152114
26.1433 44.1346 32.2398 0.329693 -0.944031 0.0103784
25.4295 43.8872 33.044 0.338568 -0.940847 0.0133677
24.7676 43.6488 33.7928 0.353584 -0.935366 0.00827394
24.0362 43.3763 34.6253 0.366435 -0.930399 0.00917549
23.2253 43.062 35.5555 0.37195 -0.928237 0.00543573
22.5268 42.786 36.3598 0.37544 -0.926817 0.00741855
21.7953 42.4935 37.2053 0.380843 -0.924628 0.00471939
21.0137 42.176 38.1128 0.383661 -0.923456 0.00586422
20.3464 41.9008 38.8902 0.386806 -0.922155 0.00330341
20.0091 41.7605 39.2835 0.386946 -0.922097 0.00307773
19.0796 41.3711 39.1634 0.385526 -0.922691 0.00321492
19.8416 41.6867 38.2755 0.386768 -0.922167 0.00422136
20.6614 42.0241 37.32 0.384383 -0.923156 0.00572435
21.3188 42.2928 36.5561 0.381634 -0.924294 0.00597014
21.9822 42.5601 35.7883 0.376688 -0.926327 0.00494354
22.6974 42.848 34.9621 0.371125 -0.928572 0.00441082
23.5575 43.1832 33.9739 0.364913 -0.931018 0.00665378
24.453 43.5212 32.9538 0.355121 -0.934786 0.00796519
25.1263 43.767 32.19 0.34286 -0.939309 0.0120885
25.8271 44.0108 31.4006 0.342162 -0.93957 0.0115437
26.551 44.2481 30.5921 0.323877 -0.945947 0.0169724
27.2527 44.4685 29.8153 0.299332 -0.954027 0.0152513
27.7059 44.6008 29.3172 0.283643 -0.958736 0.0192617
27.6347 44.5511 28.209 0.289363 -0.956822 0.0275934
26.8338 44.317 29.0888 0.307736 -0.95093 0.032092
26.0721 44.0752 29.9341 0.330579 -0.943653 0.0153845
25.3405 43.8244 30.7543 0.343037 -0.939234 0.0128605
24.6526 43.5845 31.5289 0.349686 -0.936782 0.012613
23.9791 43.3352 32.2945 0.35758 -0.933836 0.00932215
23.1111 43.0041 33.2861 0.364872 -0.931042 0.00534692
22.1533 42.6263 34.3875 0.37612 -0.926563 0.00384846
21.4638 42.3462 35.1861 0.380827 -0.924644 0.00217436
20.5491 41.9722 36.2472 0.384245 -0.923226 0.00306824
19.7282 41.6344 37.2033 0.384878 -0.922961 0.00339369
19.0068 41.3368 38.0444 0.385254 -0.922804 0.0036058
18.46 41.1106 38.6816 0.382979 -0.92375 0.00347191
18.211 41.0046 37.7667 0.378872 -0.925445 0.00255133
18.9792 41.3211 36.871 0.384677 -0.923046 0.00296459
19.7596 41.6428 35.9615 0.383791 -0.923414 0.00314642
20.5756 41.9801 35.0123 0.382452 -0.923974 0.00127351
21.232 42.2487 34.2518 0.380559 -0.924754 0.00202882
21.9346 42.5349 33.4375 0.375878 -0.926666 0.00222463
22.6376 42.8144 32.6295 0.371391 -0.928469 0.00378496
23.4244 43.1172 31.7279 0.357478 -0.933903 0.00599211
24.1662 43.392 30.8845 0.354687 -0.934968 0.00559156
25.0309 43.7093 29.9066 0.335501 -0.942002 0.00849894
25.7145 43.937 29.1421 0.326934 -0.944892 0.0171008
26.4286 44.16 28.351 0.317402 -0.94812 0.0179903
27.1221 44.3716 27.5867 0.305133 -0.952151 0.0174179
27.5808 44.5051 27.0837 0.293681 -0.95561 0.0236919
27.5408 44.4468 25.9484 0.285199 -0.957324 0.0468147
26.7263 44.2231 26.8373 0.308672 -0.950587 0.0332498
26.0348 44.0139 27.5995 0.3217 -0.946497 0.0255293
25.2683 43.766 28.4511 0.336783 -0.941457 0.0153844
24.4841 43.4979 29.3305 0.348429 -0.937179 0.0171163
23.6023 43.1768 30.328 0.354639 -0.935001 0.00203269
22.748 42.8508 31.302 0.366478 -0.930421 0.00331308
22.0918 42.5932 32.0566 0.370863 -0.928673 0.005196
21.3247 42.2854 32.9408 0.377924 -0.925837 0.00060203
20.6389 42.0046 33.7354 0.37977 -0.925081 -0.000635972
19.8687 41.6859 34.6298 0.382735 -0.923858 -0.000866249
19.1421 41.3846 35.4749 0.382772 -0.923841 0.00164311
18.4804 41.1116 36.2463 0.384439 -0.923149 0.0018525
18.8561 41.2666 34.6016 0.382295 -0.92404 -0.000645417
19.6605 41.6012 33.6663 0.382796 -0.923831 -0.00201659
20.5689 41.977 32.6119 0.38037 -0.924833 -0.00160267
21.2461 42.2534 31.8293 0.377442 -0.926033 -0.000841753
21.9808 42.5474 30.9821 0.369485 -0.929232 0.00305185
22.7258 42.8391 30.1274 0.367404 -0.930061 0.00141647
23.5962 43.1636 29.1399 0.356001 -0.934383 0.0138727
24.3064 43.4161 28.3385 0.348137 -0.93735 0.0132501
25.1456 43.7062 27.3976 0.337774 -0.941146 0.0123882
25.8343 43.9214 26.636 0.314869 -0.948943 0.0191148
26.6143 44.1512 25.7779 0.299067 -0.953723 0.0311675
27.3649 44.3322 24.9674 0.278103 -0.957932 0.070895
27.4575 44.3518 24.8684 0.27036 -0.960074 0.0718582
27.2103 44.2193 23.9652 0.271839 -0.960368 0.0616212
26.4642 44.0602 24.763 0.291287 -0.954927 0.0571483
25.7236 43.8554 25.5739 0.31306 -0.948806 0.0419593
24.77 43.5597 26.6275 0.328389 -0.944315 0.0207224
23.8853 43.2546 27.6187 0.342083 -0.939614 0.0102106
23.1813 42.9985 28.4144 0.35187 -0.936021 0.00727592
22.4145 42.7153 29.2843 0.364274 -0.931285 0.00348273
21.7531 42.4548 30.0429 0.368394 -0.929669 0.000789159
21.0342 42.1684 30.8711 0.372442 -0.928054 -0.00133543
20.2395 41.8441 31.7894 0.376729 -0.926317 -0.00359352
19.5437 41.5567 32.5956 0.378191 -0.925722 -0.00325236
19.0166 41.3371 33.2079 0.380652 -0.924711 -0.0036968
19.0524 41.3589 31.9588 0.37611 -0.926531 -0.00900816
19.8942 41.7068 30.9846 0.376728 -0.926317 -0.00359447
20.7178 42.0428 30.0325 0.372898 -0.927865 -0.00366967
21.4296 42.3267 29.2129 0.367025 -0.930211 -0.000566613
22.1027 42.588 28.4426 0.358738 -0.933432 0.00344699
22.7834 42.8453 27.6685 0.348986 -0.937126 0.00170685
23.5462 43.123 26.807 0.346058 -0.93817 0.00896794
24.3757 43.4041 25.88 0.333162 -0.942647 0.020505
25.1384 43.6407 25.0362 0.308791 -0.950669 0.0296069
25.8345 43.8332 24.2742 0.294799 -0.954691 0.0407278
26.5464 44.0039 23.5058 0.26798 -0.961784 0.0561925
26.9805 44.0977 23.0415 0.264248 -0.962263 0.0649928
26.7584 43.9676 22.1133 0.257283 -0.96385 0.069275
25.9767 43.8085 22.9463 0.28197 -0.957594 0.0592175
25.1348 43.602 23.8573 0.300214 -0.953266 0.0339914
24.3895 43.3863 24.6761 0.328891 -0.944195 0.0180503
23.6426 43.1405 25.5079 0.329668 -0.943971 0.0154227
22.7914 42.8422 26.464 0.344337 -0.938826 0.00614214
22.1149 42.5903 27.2308 0.358961 -0.933353 0.000114784
21.1357 42.2111 28.3488 0.367064 -0.930196 -0.000344603
20.364 41.9033 29.2362 0.370552 -0.928799 -0.00475026
19.7181 41.6407 29.9825 0.37329 -0.927702 -0.00485967
19.0406 41.3634 30.7658 0.373935 -0.927439 -0.00541835
18.9579 41.3365 29.6552 0.373612 -0.927571 -0.00513875
19.6423 41.6173 28.8631 0.371301 -0.928491 -0.00636581
20.4337 41.9356 27.9518 0.365341 -0.930869 -0.00302955
21.3085 42.2804 26.9509 0.361355 -0.932428 -0.000482661
21.9989 42.5429 26.1657 0.35513 -0.934797 0.00603271
22.8107 42.8367 25.2492 0.339007 -0.940713 0.011532
23.5799 43.098 24.3889 0.329963 -0.943794 0.0194167
24.3273 43.3323 23.5608 0.323701 -0.945433 0.03707
25.0505 43.5195 22.7744 0.295896 -0.953266 0.061069
25.8143 43.6931 21.9537 0.282735 -0.956916 0.0661277
26.5951 43.8341 21.1275 0.248723 -0.96251 0.108222
26.6463 43.8413 21.074 0.248725 -0.962509 0.108225
26.5746 43.6806 20.006 0.221278 -0.965854 0.134767
25.8164 43.5927 20.7922 0.255984 -0.960666 0.10767
25.0353 43.4485 21.6194 0.278378 -0.958891 0.0550882
24.2746 43.2676 22.4403 0.292188 -0.955324 0.0445257
23.554 43.0616 23.2313 0.311509 -0.950052 0.0190465
22.8818 42.8433 23.9789 0.328369 -0.944521 0.00736069
22.0546 42.5557 24.9072 0.348024 -0.937423 0.0108575
21.3511 42.2969 25.7035 0.357999 -0.933721 0.00113791
20.4297 41.9401 26.7546 0.360544 -0.932738 -0.00283476
19.6744 41.6391 27.62 0.366017 -0.930596 -0.00465341
19.0168 41.3705 28.3785 0.368814 -0.929461 -0.00889108
19.0034 41.365 28.394 0.371368 -0.928428 -0.0103264
18.723 41.2626 27.51 0.368185 -0.929709 -0.00905024
19.4948 41.5749 26.623 0.365285 -0.930868 -0.00724114
20.1613 41.8391 25.86 0.360591 -0.93272 -0.00281926
20.8473 42.1052 25.078 0.355918 -0.934515 -0.00217974
21.6184 42.3929 24.2037 0.342733 -0.939424 0.00415317
22.3992 42.6705 23.325 0.326316 -0.945173 0.0128538
23.1851 42.9232 22.4518 0.318745 -0.947498 0.025462
23.8911 43.1186 21.6793 0.285779 -0.9574 0.0414268
24.6778 43.3013 20.832 0.267119 -0.961826 0.0594756
25.5082 43.4469 19.9554 0.214877 -0.971457 0.100498
26.2836 43.4966 19.1651 0.201944 -0.965836 0.162418
25.6959 43.3101 18.6217 0.178743 -0.974594 0.134973
24.8162 43.2441 19.5204 0.236865 -0.967136 0.0924273
24.0926 43.1052 20.2883 0.267113 -0.961828 0.0594739
23.3809 42.9364 21.0566 0.296456 -0.953779 0.0491886
22.4817 42.6757 22.0447 0.318749 -0.947497 0.0254652
21.7557 42.4342 22.8546 0.338246 -0.940939 0.0149184
21.0217 42.1716 23.6817 0.350423 -0.936591 -0.000960169
20.3258 41.9086 24.4717 0.354269 -0.935138 -0.00318048
19.6634 41.6508 25.2267 0.356534 -0.934256 -0.00702973
19.006 41.3909 25.9779 0.360565 -0.932672 -0.0107355
18.7649 41.2945 26.2541 0.361128 -0.932468 -0.00947495
18.4951 41.2005 25.3568 0.359254 -0.933177 -0.0108573
19.2328 41.4921 24.5145 0.355184 -0.934738 -0.0104831
20.131 41.8372 23.4935 0.351255 -0.936278 -0.00213631
20.8249 42.0941 22.7083 0.341951 -0.93963 0.012834
21.5314 42.3385 21.9165 0.334774 -0.9421 0.0193413
22.2201 42.5579 21.1518 0.324467 -0.945355 0.0320011
22.9773 42.773 20.3212 0.296318 -0.953801 0.0495998
23.7919 42.9612 19.4436 0.284153 -0.956533 0.0655834
24.5236 43.073 18.6767 0.218795 -0.968151 0.121706
25.4157 43.1341 17.7685 0.188626 -0.971364 0.144475
25.5187 43.1386 17.6646 0.1882 -0.973603 0.129141
25.3841 42.9953 16.6579 0.158338 -0.977783 0.137367
24.4466 42.9286 17.6104 0.191375 -0.977668 0.086844
23.7047 42.8454 18.3765 0.226347 -0.966032 0.124699
23.0027 42.7185 19.1205 0.279478 -0.959091 0.0451297
22.3029 42.54 19.8803 0.289825 -0.955774 0.0499739
21.4683 42.2931 20.8001 0.316808 -0.94835 0.0163139
20.7953 42.0738 21.5488 0.331269 -0.943449 0.0128458
19.9748 41.7832 22.4706 0.345895 -0.938273 0.000237716
19.2818 41.5205 23.2563 0.349528 -0.936917 -0.00403693
18.4156 41.1851 24.2415 0.349074 -0.936964 -0.0156795
18.1645 41.0863 24.5277 0.353214 -0.935464 -0.0120956
18.007 41.0447 23.5 0.347904 -0.937445 -0.0126329
18.6966 41.3088 22.7176 0.343369 -0.939179 -0.00631538
19.4313 41.5812 21.8879 0.340137 -0.940375 0.0014031
20.1131 41.8282 21.1202 0.335858 -0.941911 0.00167838
20.9223 42.0998 20.2179 0.321177 -0.946839 0.0184938
21.6536 42.314 19.4128 0.302022 -0.952314 0.0433653
22.5845 42.5396 18.4049 0.266747 -0.961203 0.0702449
23.3595 42.6903 17.5814 0.230872 -0.970423 0.0705459
24.2761 42.7924 16.6371 0.170594 -0.979492 0.107206
25.0126 42.831 15.8924 0.11082 -0.983767 0.14114
25.1779 42.8204 15.7307 0.0819836 -0.985586 0.147984
24.9486 42.6495 14.8249 0.0902272 -0.978522 0.185349
24.1867 42.6752 15.5757 0.155908 -0.983258 0.094319
23.472 42.6136 16.3059 0.213254 -0.971593 0.102618
22.6263 42.4709 17.1955 0.247902 -0.966168 0.0711688
21.6311 42.2514 18.2629 0.296738 -0.953119 0.0592504
20.8338 42.0396 19.1326 0.310958 -0.949789 0.0347152
20.1068 41.8175 19.9357 0.319861 -0.94718 0.0231983
19.3233 41.546 20.8119 0.335859 -0.941911 0.00167804
18.5597 41.2686 21.6705 0.340073 -0.940376 -0.00662985
17.8974 41.0211 22.4182 0.339498 -0.940513 -0.0132797
17.8137 40.9891 22.5131 0.340316 -0.940163 -0.0167035
17.4274 40.8602 21.7452 0.336339 -0.941651 -0.0129964
18.1195 41.115 20.9668 0.33501 -0.942188 -0.00704161
18.9202 41.4014 20.0692 0.332604 -0.943064 0.00227713
19.6953 41.6589 19.2069 0.32396 -0.945794 0.0228642
20.4655 41.8847 18.3601 0.301787 -0.952606 0.0382915
21.2381 42.0895 17.5185 0.289741 -0.955999 0.0459884
22.0216 42.272 16.6744 0.279025 -0.95787 0.0680431
22.7833 42.4029 15.8713 0.234692 -0.967228 0.0969024
23.5492 42.5002 15.0757 0.19677 -0.976169 0.0915229
24.3774 42.4953 14.2515 0.0757589 -0.976834 0.200142
24.5777 42.4687 14.06 0.058609 -0.971716 0.228764
24.1317 42.2481 13.3841 0.0870919 -0.953677 0.287949
23.222 42.3415 14.2592 0.184503 -0.962552 0.198628
22.4264 42.2447 15.0879 0.230553 -0.968916 0.0897074
21.7135 42.13 15.8391 0.255743 -0.962652 0.0888648
20.8929 41.9465 16.7203 0.289525 -0.956046 0.046389
20.1177 41.7425 17.5634 0.299942 -0.953025 0.0421806
19.3302 41.5221 18.4244 0.313707 -0.949151 0.0264793
18.5079 41.2587 19.3348 0.323784 -0.946119 0.00476231
17.6997 40.9739 20.2374 0.328529 -0.944449 -0.00924284
17.1373 40.7689 20.8685 0.32631 -0.945175 -0.0128539
16.9006 40.7023 19.9306 0.317058 -0.948257 -0.0168276
17.6719 40.9708 19.0723 0.321208 -0.946959 -0.00970723
18.5991 41.2746 18.0449 0.309406 -0.950873 0.0104314
19.3919 41.508 17.1756 0.292103 -0.955979 0.027924
20.1656 41.7076 16.3366 0.289525 -0.956046 0.0463899
20.9309 41.8893 15.5106 0.271041 -0.95943 0.077663
21.6834 42.0092 14.7169 0.255265 -0.959553 0.118736
22.3948 42.0901 13.9762 0.239501 -0.95668 0.165535
23.2153 42.0913 13.1546 0.108119 -0.953528 0.281239
23.7059 42.0025 12.6977 0.0654718 -0.942961 0.326401
23.45 41.6729 11.8777 0.010478 -0.937506 0.347811
22.6925 41.8503 12.565 0.118408 -0.958982 0.257552
21.7504 41.8545 13.5065 0.229128 -0.959678 0.162845
20.959 41.774 14.3278 0.238474 -0.964758 0.111233
20.209 41.6537 15.1196 0.271035 -0.959432 0.0776593
19.4493 41.4816 15.9366 0.277652 -0.95979 0.0413872
18.6771 41.2797 16.7743 0.291873 -0.956281 0.018339
17.8921 41.0401 17.6368 0.309409 -0.950872 0.0104341
17.2069 40.8207 18.392 0.306057 -0.952011 0.00182844
16.3554 40.5302 19.3361 0.310899 -0.950371 -0.0116986
15.978 40.4196 18.553 0.306186 -0.951881 -0.0131458
16.7467 40.6747 17.7066 0.301748 -0.95337 -0.00576606
17.597 40.9425 16.7724 0.295917 -0.955197 0.00567094
18.3593 41.1591 15.941 0.28192 -0.959113 0.0249689
19.0469 41.3276 15.1987 0.269359 -0.961628 0.0521345
19.8737 41.4903 14.3168 0.251649 -0.963691 0.0892899
20.6196 41.5876 13.5362 0.216403 -0.969697 0.113386
21.3651 41.6376 12.771 0.229179 -0.959647 0.162956
22.1023 41.6221 12.0395 0.155539 -0.952095 0.263291
22.918 41.4546 11.2887 0.00933334 -0.942337 0.334535
22.8505 41.0927 10.2901 0.0640468 -0.906243 0.417877
21.8513 41.3403 11.195 0.12525 -0.94197 0.311455
21.0628 41.4338 11.9485 0.162994 -0.960894 0.223865
20.3014 41.4208 12.7169 0.201659 -0.969829 0.136988
19.5431 41.3348 13.5072 0.238601 -0.966186 0.0977419
18.7917 41.2097 14.3016 0.255342 -0.964667 0.064946
18.0428 41.0443 15.1048 0.2743 -0.960873 0.0384932
17.2829 40.8426 15.9286 0.288071 -0.957509 0.0138424
16.5193 40.6106 16.7636 0.295446 -0.955352 -0.00367802
15.6082 40.314 17.7637 0.292779 -0.955958 -0.0206081
15.3639 40.2535 16.8366 0.283472 -0.958833 -0.0168018
16.1896 40.5083 15.936 0.290227 -0.956957 -0.00084659
16.9522 40.7244 15.1079 0.278726 -0.960068 0.0241159
17.7187 40.9128 14.2812 0.2675 -0.962339 0.0484528
18.4588 41.0578 13.4931 0.242672 -0.967167 0.0754876
19.1635 41.1494 12.7569 0.225334 -0.966033 0.12651
19.9966 41.2067 11.9018 0.205212 -0.962334 0.178327
20.7988 41.1704 11.1116 0.107555 -0.97119 0.212657
21.541 41.0367 10.4185 0.0236582 -0.947146 0.319929
22.273 40.8308 9.76748 0.0337789 -0.907988 0.417631
21.9185 40.5372 9.03745 -0.0364783 -0.937136 0.347052
21.1097 40.8052 9.73815 0.0157233 -0.956915 0.289941
20.1287 40.9864 10.6521 0.140657 -0.966456 0.214891
19.3002 40.9996 11.4775 0.187195 -0.971872 0.142907
18.4887 40.9423 12.3095 0.211741 -0.969806 0.121002
17.7346 40.8416 13.0979 0.251595 -0.964874 0.0756172
17.0069 40.6957 13.8736 0.262414 -0.96384 0.04639
16.2829 40.5207 14.6517 0.276664 -0.960619 0.0258588
15.4246 40.2807 15.5807 0.279275 -0.960211 0.00029671
14.6814 40.0596 16.3865 0.283709 -0.958762 -0.0168908
14.175 39.9301 15.7416 0.264961 -0.964069 -0.0191658
14.9251 40.1456 14.9326 0.267425 -0.963565 -0.00523454
15.8954 40.3986 13.8895 0.252098 -0.96734 0.0264613
16.7177 40.5745 13.012 0.247706 -0.966537 0.0666917
17.5834 40.7134 12.1002 0.220768 -0.967854 0.120498
18.5353 40.7927 11.121 0.17971 -0.977201 0.113061
19.2964 40.7992 10.3582 0.131448 -0.968091 0.213358
20.0821 40.766 9.58421 0.183016 -0.935844 0.301167
21.284 40.3541 8.54215 -0.0309773 -0.919068 0.392879
20.9654 40.0403 7.78286 -0.0401216 -0.919589 0.390828
20.1963 40.3528 8.42496 0.00644237 -0.93592 0.352153
19.33 40.5348 9.22261 0.101578 -0.952641 0.28663
18.5914 40.6186 9.93062 0.145165 -0.97041 0.192956
17.669 40.5983 10.8613 0.193681 -0.974752 0.11111
16.811 40.5056 11.7509 0.228189 -0.969355 0.0909941
15.9636 40.3579 12.6464 0.23324 -0.970553 0.0602113
15.1054 40.1836 13.5567 0.252859 -0.967172 0.025294
14.209 39.9535 14.5173 0.254858 -0.966965 -0.00502683
13.8826 39.8618 14.8677 0.260647 -0.965383 -0.00998349
13.2738 39.713 14.3313 0.242548 -0.969961 -0.0185751
14.0088 39.9 13.5482 0.244296 -0.969698 0.00235183
14.7712 40.0735 12.7375 0.230376 -0.972645 0.0298082
15.5018 40.2102 11.9661 0.222685 -0.973037 0.0600818
16.2545 40.3246 11.1771 0.221527 -0.971967 0.0787811
17.0498 40.414 10.3504 0.201224 -0.972742 0.115245
18.1683 40.4102 9.23089 0.147185 -0.968027 0.203126
18.9182 40.2832 8.52611 0.10029 -0.95401 0.282501
19.8034 40.0574 7.73163 0.0174326 -0.907343 0.420029
20.3548 39.829 7.27289 -0.0154502 -0.914302 0.404737
19.7684 39.604 6.74228 -0.0154505 -0.914301 0.40474
18.9391 39.9101 7.44871 -0.00426309 -0.9348 0.355149
18.0476 40.1308 8.25462 0.0801734 -0.952846 0.292672
17.1237 40.24 9.14168 0.132899 -0.972228 0.19264
16.2993 40.2139 9.9776 0.202679 -0.972134 0.117796
15.5393 40.138 10.7639 0.201686 -0.976272 0.0788345
14.7956 40.0299 11.5413 0.216063 -0.975075 0.050449
14.0513 39.8909 12.3254 0.229558 -0.972889 0.0281188
13.3536 39.7394 13.0628 0.230686 -0.973028 -0.00012427
12.8404 39.6185 13.607 0.237619 -0.971328 -0.0076687
12.4045 39.5219 12.8854 0.205801 -0.978592 -0.00211827
13.1894 39.6935 12.058 0.209928 -0.977351 0.0267389
14.0962 39.85 11.1092 0.219469 -0.973908 0.0577631
14.8087 39.9472 10.3669 0.200106 -0.975582 0.090538
15.5294 40.0146 9.6234 0.192871 -0.973985 0.11897
16.2892 40.0418 8.85219 0.159886 -0.974627 0.156646
17.1323 39.9698 8.03256 0.107697 -0.952845 0.283705
18.0341 39.7782 7.2029 0.0623747 -0.938573 0.339397
18.8602 39.5226 6.47815 -0.0393702 -0.920422 0.388939
19.4414 39.2945 5.98481 -0.0617529 -0.913068 0.403104
18.7087 39.1508 5.56704 -0.0271105 -0.906586 0.421148
17.7426 39.4785 6.40784 0.046184 -0.930203 0.364128
16.8155 39.7161 7.2443 0.0638165 -0.942933 0.326809
16.0224 39.8355 7.99588 0.136528 -0.961322 0.239208
15.071 39.8497 8.94533 0.178192 -0.975183 0.131396
14.1151 39.7673 9.92968 0.196409 -0.976971 0.0833689
13.2307 39.6608 10.8449 0.187175 -0.980963 0.0517344
12.4317 39.526 11.6784 0.185397 -0.982486 0.0187106
11.7471 39.3874 12.3936 0.195377 -0.980577 -0.0172431
11.394 39.3313 11.583 0.189046 -0.981967 0.00126282
12.1196 39.451 10.8302 0.185395 -0.982486 0.0187056
12.9364 39.5642 9.98456 0.182404 -0.982082 0.0473764
13.7692 39.6324 9.13062 0.155246 -0.98342 0.093721
14.571 39.6685 8.31397 0.174121 -0.974451 0.141867
15.4498 39.6275 7.44689 0.123282 -0.965561 0.229115
16.456 39.4495 6.5043 0.0286405 -0.952124 0.304368
17.2847 39.2044 5.76561 0.024939 -0.935066 0.353595
18.1801 38.8865 4.99378 -0.0451184 -0.892353 0.449076
17.2098 38.8344 4.78059 -0.0239721 -0.913221 0.406758
16.3469 39.1178 5.53854 0.0148241 -0.942049 0.335147
15.2911 39.3659 6.50302 0.0970554 -0.964376 0.246087
14.5265 39.4564 7.23641 0.119436 -0.974368 0.190637
14.1468 39.4826 7.60812 0.128307 -0.974227 0.185522
14.8734 39.128 5.81019 0.0875632 -0.948503 0.304426
15.7538 38.9194 5.00699 0.0394657 -0.952791 0.30105
16.5231 38.655 4.33743 -0.023974 -0.913222 0.406756
16.7214 38.5619 4.17486 -0.0541877 -0.893577 0.445628
