21.5299 41.3522 7.74022 -0.00490229 -0.937204 0.348033
20.8694 41.015 6.93192 -0.075081 -0.88662 0.455797
20.1688 40.6524 6.12073 -0.0222982 -0.901953 0.431258
19.447 40.3336 5.38044 -0.0175003 -0.905379 0.424245
18.6586 39.8733 4.58305 0.0238438 -0.83868 0.544102
17.7377 39.532 4.04654 0.0193487 -0.90332 0.423703
16.1594 39.0911 3.22136 -0.0193407 -0.893341 0.447437
15.5523 39.1501 3.33927 0.0413058 -0.937758 0.344825
15.0015 39.5023 4.30441 0.068491 -0.938085 0.336933
14.668 39.8424 5.52197 0.128182 -0.948763 0.288822
14.1658 40.1366 6.98422 0.1492 -0.96473 0.216874
13.7091 40.253 8.10937 0.171557 -0.975985 0.130968
13.076 40.2447 9.1353 0.179509 -0.979035 0.0962648
12.2945 40.1613 10.1654 0.19386 -0.980668 0.0266347
11.4733 40.0155 10.9246 0.191203 -0.981547 -0.00260613
10.5623 39.8337 11.5264 0.193064 -0.98076 -0.0289072
10.7786 39.8593 12.3586 0.200067 -0.979614 -0.018129
11.5381 40.0013 13.2098 0.235221 -0.971335 -0.0343328
12.1649 40.1275 14.1016 0.240286 -0.97039 -0.0246019
12.801 40.2708 15.058 0.265841 -0.963518 -0.0310158
13.4841 40.4313 16.0028 0.281817 -0.958933 -0.0320461
14.2585 40.6311 17.159 0.294488 -0.955403 -0.0219606
14.7854 40.7678 18.1372 0.300446 -0.953463 -0.0253149
15.5593 40.9846 19.5193 0.320359 -0.947003 -0.0235748
16.0342 41.1164 20.5567 0.329794 -0.943804 -0.021244
16.5989 41.2918 21.7461 0.335891 -0.941761 -0.0162276
17.0337 41.4258 22.8136 0.343979 -0.938775 -0.0195028
17.3366 41.5084 24.1061 0.350652 -0.936286 -0.0203048
17.561 41.5681 25.2451 0.363516 -0.931385 -0.0194477
17.7858 41.6322 26.6144 0.367086 -0.930045 -0.0162381
17.9135 41.6596 27.6965 0.360269 -0.932382 -0.0276271
18.0672 41.7037 28.7958 0.378312 -0.925643 -0.00749657
18.2231 41.7557 30.2952 0.375907 -0.926611 -0.00930763
18.1821 41.723 31.5189 0.386737 -0.922104 -0.0126202
18.1992 41.7181 32.6446 0.387113 -0.922007 -0.00676195
18.1745 41.7044 34.1955 0.382855 -0.923809 -0.000362392
18.0316 41.636 35.332 0.387884 -0.921678 -0.00473104
17.712 41.503 36.6668 0.386889 -0.922114 0.00446946
17.481 41.4122 37.7777 0.386322 -0.922358 0.00335911
17.4248 41.3927 39.0071 0.391687 -0.920098 -0.000924994
18.3911 41.8079 39.4862 0.396196 -0.918128 0.00825533
19.3969 42.2365 39.109 0.393881 -0.919111 0.00960761
20.3679 42.6462 38.4856 0.392794 -0.919591 0.00800664
21.525 43.1315 37.9208 0.38726 -0.921932 0.00842079
22.5715 43.5664 37.7104 0.382976 -0.923729 0.00739362
23.836 44.083 37.6705 0.374942 -0.927029 0.00498174
24.8878 44.4998 37.6382 0.359755 -0.93299 0.00442403
26.1109 44.9615 37.9292 0.341352 -0.939812 0.010541
26.9734 45.265 38.2565 0.321161 -0.946952 0.0117253
27.4398 45.4131 37.0074 0.325083 -0.945657 0.00725974
27.6326 45.4689 35.9315 0.298734 -0.95433 0.00337752
27.8045 45.5107 34.6706 0.306906 -0.951561 0.0184775
27.9088 45.525 33.3508 0.314184 -0.94933 0.00784562
27.9793 45.5286 31.9988 0.294923 -0.955361 0.0174921
28.0096 45.5128 30.5824 0.291509 -0.956443 0.015456
27.9757 45.4839 29.4853 0.286733 -0.957687 0.0249101
27.9069 45.4307 28.2514 0.287171 -0.957533 0.0257627
27.8454 45.3896 27.0827 0.297795 -0.954369 0.0223017
27.7821 45.3174 25.9563 0.282502 -0.958245 0.0442682
27.6839 45.212 24.803 0.274802 -0.959101 0.0678916
27.5208 45.0899 23.6335 0.27168 -0.960616 0.0583736
27.262 44.9421 22.5493 0.238469 -0.968569 0.0707523
27.041 44.7761 21.2218 0.25148 -0.96367 0.0899893
26.8414 44.5911 19.9528 0.23761 -0.964558 0.114757
26.5762 44.385 18.7845 0.21002 -0.969209 0.128555
26.2754 44.1967 17.715 0.164754 -0.979071 0.119483
25.9149 44.0103 16.6532 0.161114 -0.980289 0.114346
25.5459 43.7555 15.5892 0.110332 -0.973964 0.197523
25.1299 43.4894 14.4759 0.0669203 -0.975232 0.210769
24.5501 43.1451 13.2704 0.0999999 -0.963528 0.248221
23.9307 42.7278 12.0677 0.0508271 -0.947889 0.313853
23.3912 42.4002 11.03 -0.0024261 -0.963097 0.264761
22.8461 42.0679 9.85946 -0.0519987 -0.964756 0.257956
22.3547 41.7579 8.90198 0.0361109 -0.94068 0.337368
21.6734 41.4155 7.92853 -0.0161128 -0.943867 0.329933
22.6774 41.1531 7.5675 -0.139686 -0.879205 0.455286
21.896 40.7468 6.57811 -0.102192 -0.875299 0.471238
21.0813 40.3163 5.62147 -0.124432 -0.856404 0.501045
20.1747 39.8975 4.7067 -0.0993603 -0.838127 0.535225
19.4135 39.3984 3.87515 -0.000543591 -0.836707 0.54765
18.3601 39.0159 3.15541 -0.0513002 -0.870332 0.489787
17.4352 38.7493 2.58184 -0.0397342 -0.899787 0.434068
16.5609 38.4621 1.92668 -0.0662652 -0.895618 0.439174
15.6633 38.2107 1.21731 -0.0875339 -0.898395 0.430375
14.8647 38.6904 2.21436 -0.0240049 -0.914453 0.403967
14.3991 39.0617 3.23693 0.0413092 -0.937759 0.344822
13.8947 39.4432 4.40675 0.0730412 -0.95264 0.29513
13.5072 39.7769 5.72352 0.103114 -0.963122 0.248521
13.1553 39.9774 6.90111 0.119967 -0.978322 0.165661
12.6742 40.0742 8.0835 0.146298 -0.983193 0.10748
11.9018 40.0355 9.13391 0.172089 -0.983146 0.0617214
10.8348 39.8922 10.2347 0.161206 -0.986836 0.0124946
9.65767 39.6877 10.7102 0.164745 -0.985902 -0.0252632
8.51729 39.4475 11.6127 0.178081 -0.982823 -0.0482192
9.40268 39.5709 12.5367 0.191981 -0.980501 -0.0417733
10.2435 39.7075 13.2995 0.20259 -0.978437 -0.0392304
10.9409 39.8264 14.1528 0.223055 -0.973806 -0.0440897
11.7089 39.9706 15.2852 0.251358 -0.967314 -0.0335017
12.417 40.1207 16.274 0.267295 -0.962694 -0.042114
13.1596 40.2987 17.2312 0.279466 -0.959573 -0.0330579
13.6876 40.4218 18.2089 0.295678 -0.954789 -0.0308712
14.3912 40.6032 19.43 0.305456 -0.951753 -0.0293882
14.9986 40.7676 20.5802 0.317905 -0.947808 -0.0244136
15.4739 40.9038 21.6286 0.322094 -0.946522 -0.0187286
15.9845 41.0451 22.7275 0.331503 -0.943023 -0.0269423
16.2478 41.113 23.8125 0.345542 -0.938057 -0.0254969
16.612 41.2061 25.3286 0.355668 -0.934209 -0.0274581
16.7982 41.2486 26.5025 0.361337 -0.932269 -0.0175644
16.9706 41.2944 27.5628 0.362593 -0.93177 -0.0181609
17.0908 41.3193 28.9267 0.361368 -0.932346 -0.012026
17.2439 41.3555 30.4536 0.361542 -0.932207 -0.0166314
17.1851 41.3142 31.6935 0.372337 -0.927994 -0.013888
17.2893 41.3382 33.0697 0.377952 -0.925773 -0.00749735
17.2362 41.3189 34.1572 0.374759 -0.927097 -0.00335628
17.0037 41.2122 35.4261 0.376992 -0.926174 -0.0089103
16.657 41.0642 36.7328 0.376581 -0.926354 0.00248267
16.4333 40.9796 37.9066 0.383957 -0.923324 -0.00253396
16.1522 40.8507 39.1628 0.389702 -0.920921 -0.00439612
16.7913 41.1214 40.0057 0.392187 -0.919883 -0.00224764
18.0658 41.6756 40.5986 0.398008 -0.917365 0.0056094
19.044 42.0996 40.4591 0.397094 -0.917704 0.0116227
19.9033 42.462 39.8693 0.393909 -0.919076 0.0116111
20.7896 42.833 39.2986 0.391878 -0.919975 0.00879599
21.6927 43.2102 38.8518 0.386955 -0.922064 0.00799965
22.9979 43.7507 38.6567 0.379611 -0.925096 0.0094048
24.1501 44.2184 38.6625 0.370159 -0.928887 0.0111133
25.1484 44.6095 38.5688 0.356591 -0.934091 0.0146859
26.3681 45.0718 39.1484 0.337324 -0.941179 0.016007
27.0885 45.3285 40.109 0.321824 -0.946798 0.00196914
27.7781 45.5453 40.8089 0.293227 -0.956028 0.00409909
28.0475 45.6273 39.7517 0.297411 -0.954749 0.000398782
28.2375 45.6843 38.6686 0.296454 -0.95502 0.00719472
28.5464 45.7647 36.9857 0.302916 -0.952956 0.0107786
28.7408 45.8082 35.4983 0.287621 -0.957699 0.00928074
28.8743 45.8341 34.1974 0.297522 -0.954699 0.00556841
28.956 45.8442 32.7434 0.295202 -0.955264 0.0180458
29.017 45.8388 31.4645 0.294516 -0.955474 0.018182
28.9854 45.8036 30.213 0.285564 -0.958103 0.0221855
28.9193 45.7481 28.8757 0.281588 -0.959207 0.0250791
28.8587 45.7056 27.6564 0.275918 -0.961072 0.0144941
28.7771 45.6329 26.529 0.265833 -0.962753 0.0493962
28.7311 45.5429 25.3522 0.253936 -0.964986 0.06571
28.6121 45.4212 24.141 0.224554 -0.972017 0.0689783
28.4692 45.2929 23.0324 0.227035 -0.969293 0.0944753
28.1598 45.0881 21.7692 0.225121 -0.967897 0.111785
28.0058 44.868 20.326 0.196895 -0.969228 0.147751
27.7049 44.6196 19.1566 0.157263 -0.971589 0.176868
27.4405 44.3886 17.982 0.126303 -0.982023 0.140281
27.08 44.1723 16.862 0.0839996 -0.98059 0.177164
26.7058 43.9481 15.8357 0.0771813 -0.978435 0.191191
26.2433 43.5794 14.5497 0.0473709 -0.959635 0.276911
25.8878 43.2904 13.5703 0.00326799 -0.948612 0.316425
25.229 42.8431 12.2855 0.0206513 -0.943162 0.331246
24.6731 42.4062 11.1442 0.00345655 -0.934267 0.356556
24.0238 42.0405 9.95811 -0.0259191 -0.953341 0.300648
23.3918 41.564 8.66911 -0.091433 -0.908313 0.40814
22.8132 41.2169 7.779 -0.153604 -0.915634 0.362966
22.7413 41.2021 7.68601 -0.177208 -0.905607 0.377481
23.6134 40.8355 7.22744 -0.107448 -0.867967 0.484859
24.2662 41.2702 8.21413 -0.104437 -0.892497 0.437633
24.8109 41.6728 9.23877 -0.0907234 -0.910162 0.404197
25.3436 42.0268 10.1849 -0.0946096 -0.916139 0.389535
25.9009 42.4302 11.2167 -0.0352263 -0.924553 0.377839
26.5541 42.898 12.4901 -0.0174425 -0.938742 0.344167
27.1252 43.4254 13.9551 -0.0191303 -0.937456 0.347578
27.5502 43.8271 15.1957 0.0577596 -0.960807 0.271133
28.0322 44.1431 16.3767 0.056369 -0.979463 0.193584
28.5276 44.4736 17.8631 0.122774 -0.971719 0.201716
28.7648 44.7702 19.1818 0.130175 -0.975212 0.178909
29.1309 45.0527 20.4352 0.145308 -0.973632 0.175747
29.286 45.2583 21.5907 0.178668 -0.971176 0.157781
29.4928 45.4761 22.755 0.18413 -0.974633 0.127225
29.612 45.6418 24.0037 0.19674 -0.97519 0.0977203
29.7043 45.7849 25.2819 0.230026 -0.96877 0.0925878
29.7354 45.8907 26.5332 0.249323 -0.965913 0.069651
29.8491 45.9794 27.6561 0.261183 -0.964207 0.0456719
29.9018 46.0319 28.8263 0.270904 -0.962209 0.0275881
29.9661 46.09 30.0534 0.27117 -0.962008 0.0317232
30.0019 46.1169 31.2316 0.275257 -0.961248 0.0149181
30.0157 46.1393 32.4119 0.270871 -0.962464 0.0169242
30.0032 46.16 33.5075 0.271468 -0.962177 0.0228273
29.8398 46.1317 34.7412 0.288517 -0.957282 0.0191944
29.7007 46.1081 35.8564 0.29421 -0.955686 0.00983345
29.6493 46.1004 36.9499 0.292433 -0.956245 0.00864601
29.3638 46.0229 38.1266 0.288845 -0.957339 0.00825218
29.3179 46.0141 39.2282 0.278481 -0.960431 -0.00432517
28.9557 45.9013 40.4963 0.280989 -0.959655 -0.00459993
28.634 45.7961 41.6928 0.274642 -0.961504 -0.00904501
28.2749 45.6823 42.7559 0.271256 -0.962412 -0.0135381
27.941 45.5753 43.8892 0.269645 -0.962918 -0.00896451
27.6981 45.4798 45.0309 0.258952 -0.965455 -0.0279674
26.8529 45.2569 45.1602 0.238003 -0.970347 -0.0399242
26.8159 45.2571 43.9075 0.259612 -0.965573 0.0164555
26.7283 45.2389 42.7818 0.272502 -0.962064 0.0132328
26.6403 45.2071 41.5452 0.297675 -0.95435 -0.024599
26.3033 45.0827 40.5198 0.300067 -0.953203 0.0369362
25.2448 44.6632 39.5012 0.352903 -0.933848 0.0516909
24.2242 44.2608 39.6124 0.366333 -0.930395 0.0128671
23.0126 43.7663 39.5946 0.381685 -0.924224 0.0112069
21.7856 43.2592 39.8491 0.386743 -0.92213 0.0103084
20.7176 42.8178 40.3554 0.393104 -0.919312 0.0183231
19.5928 42.3503 41.1826 0.395912 -0.918032 0.0206953
18.5293 41.8937 41.8801 0.404722 -0.914349 0.0128877
17.2133 41.3083 41.4849 0.40536 -0.914123 0.00796144
16.1571 40.8477 40.9387 0.393102 -0.919451 -0.00461827
15.0983 40.4064 40.2676 0.382517 -0.923906 -0.00545587
15.0902 40.416 39.1138 0.377834 -0.925815 -0.0103943
15.3733 40.5388 38.0865 0.376813 -0.926267 -0.00647786
15.6759 40.6696 36.7347 0.373171 -0.927757 -0.00331493
16.003 40.8052 35.6038 0.373236 -0.927731 -0.00325217
16.1103 40.8575 34.4704 0.37711 -0.926127 -0.00874154
16.324 40.9512 33.3701 0.371097 -0.928573 -0.00319711
16.2156 40.9276 32.1003 0.360688 -0.932547 -0.0161443
16.232 40.9582 30.7325 0.361264 -0.93232 -0.0163368
16.2012 40.966 29.4895 0.35692 -0.933997 -0.0147985
16.1088 40.9515 28.3793 0.351557 -0.936011 -0.0170742
15.8821 40.8983 26.7458 0.346975 -0.937748 -0.0154007
15.6502 40.8458 25.6004 0.340585 -0.939755 -0.0293609
15.3637 40.7707 24.5276 0.335309 -0.94176 -0.0241623
15.1099 40.7191 23.3794 0.32927 -0.943647 -0.0333364
14.6346 40.6006 22.0716 0.322208 -0.945956 -0.0359821
14.0782 40.46 20.9303 0.310941 -0.949884 -0.0312923
13.4574 40.2903 19.8572 0.301631 -0.952849 -0.0327148
12.8168 40.1479 18.5524 0.276313 -0.960434 -0.0349076
12.0898 39.9789 17.46 0.276118 -0.960474 -0.0353308
11.0313 39.7662 16.1387 0.249223 -0.967707 -0.0374754
10.4024 39.6425 15.2715 0.236165 -0.970525 -0.0471174
9.72787 39.5468 14.3141 0.218498 -0.973679 -0.0648727
8.92171 39.4199 13.592 0.193152 -0.97967 -0.0542096
8.01576 39.293 12.739 0.186426 -0.980721 -0.0585885
7.09716 39.1775 11.9436 0.172755 -0.982413 -0.0708479
6.09861 39.0664 11.2253 0.162574 -0.983739 -0.0763321
5.05073 38.9885 10.4353 0.127462 -0.987053 -0.0973674
4.2134 38.9413 9.76791 0.144439 -0.982406 -0.118385
4.29769 38.9888 9.47102 0.142412 -0.983077 -0.115236
5.89156 39.204 9.47987 0.102009 -0.988739 -0.105376
7.21374 39.3433 9.48241 0.147424 -0.987535 -0.0538537
8.14577 39.4653 9.99192 0.157083 -0.986389 -0.0485579
9.26477 39.6365 9.80355 0.157857 -0.987418 -0.00936538
10.5352 39.8353 9.29992 0.0870438 -0.990048 0.0603825
11.4147 39.907 8.28346 0.0912294 -0.99477 0.0459368
11.9716 39.8662 7.24565 0.130866 -0.983927 0.121499
12.3938 39.7686 6.16747 0.00261916 -0.990617 0.136644
12.6214 39.5071 5.05043 0.0273708 -0.954139 0.28548
12.7921 39.2515 4.03829 0.0669784 -0.947908 0.31071
13.3814 38.9438 3.02939 0.0479377 -0.947161 0.316329
14.0109 38.5448 1.79724 0.0326979 -0.956721 0.289163
14.6977 38.1071 0.742173 -0.150644 -0.925122 0.348506
15.3078 37.5834 -0.171095 -0.134506 -0.882993 0.449577
16.2395 37.5962 0.117581 -0.126055 -0.886597 0.445035
17.007 38.0233 1.13036 -0.105797 -0.877582 0.467409
17.9784 38.2495 1.73901 -0.0913459 -0.877062 0.471613
19.1509 38.576 2.46746 -0.0533163 -0.86566 0.497786
20.499 39.1229 3.56824 -0.101824 -0.834436 0.541617
21.2995 39.6379 4.52345 -0.11474 -0.848838 0.515725
22.116 39.951 5.26866 -0.15835 -0.849689 0.502825
22.8867 40.3802 6.22249 -0.145051 -0.861847 0.485872
23.3191 40.6135 6.76472 -0.107448 -0.867967 0.484858
18.1385 41.6859 37.4742 0.38915 -0.921164 0.00432385
19.0765 42.0933 38.576 0.39385 -0.91914 0.00802447
19.9188 42.4513 38.2009 0.393832 -0.919162 0.00613703
18.9901 42.0479 37.1123 0.392701 -0.919659 0.0036402
18.5608 41.8626 36.6089 0.39259 -0.919709 0.00292117
18.646 41.8966 35.351 0.389921 -0.920848 0.000168704
19.5435 42.2809 36.3998 0.39187 -0.920009 0.0045685
20.4409 42.6688 37.4496 0.391559 -0.920124 0.00734951
20.5658 42.7232 37.5958 0.391558 -0.920124 0.00734985
21.4098 43.0784 37.2191 0.388386 -0.921481 0.00548988
20.2432 42.577 35.8582 0.392062 -0.919934 0.00294696
19.3353 42.1892 34.8 0.390912 -0.920427 -0.00122513
18.8418 41.981 34.2268 0.382713 -0.923861 -0.00335301
18.7568 41.9516 32.7841 0.388813 -0.9213 -0.00560618
19.7586 42.3706 33.9401 0.390963 -0.920403 -0.002462
20.7025 42.77 35.0362 0.388364 -0.921505 0.00130353
21.5999 43.1515 36.0804 0.386251 -0.922371 0.00647579
22.5266 43.5436 37.1531 0.382489 -0.923937 0.00645227
23.5768 43.9735 37.0016 0.378108 -0.925748 0.0050676
22.6644 43.5924 35.9533 0.379221 -0.925296 0.00443183
21.7195 43.197 34.8614 0.386005 -0.922494 0.00235571
20.8161 42.8168 33.8128 0.387434 -0.921896 -0.0014331
19.8533 42.4132 32.7015 0.387424 -0.921896 -0.00324336
18.7832 41.9747 31.4743 0.381311 -0.924405 -0.00877547
18.7021 41.9421 31.3817 0.381311 -0.924405 -0.00877579
18.8616 42.0174 30.2294 0.381458 -0.924362 -0.00672875
19.9341 42.4535 31.4527 0.38632 -0.922349 -0.00547775
21.0197 42.9028 32.6972 0.385232 -0.92282 -0.000584846
22.1044 43.3545 33.9511 0.380462 -0.924795 0.00175497
23.1124 43.7721 35.1105 0.37861 -0.92555 0.00345226
24.1986 44.2183 36.3542 0.366332 -0.930388 0.0133711
24.8332 44.4742 37.08 0.352111 -0.935932 0.00703451
26.3833 45.0515 37.4713 0.331372 -0.943488 0.00471776
25.3221 44.6523 36.2778 0.348338 -0.937341 0.00723724
24.3857 44.285 35.2115 0.360307 -0.932779 0.0101319
23.366 43.8683 34.0447 0.373319 -0.92769 0.00488945
22.3022 43.4334 32.8246 0.379986 -0.924991 0.00172388
21.3486 43.0406 31.7287 0.380379 -0.92483 0.000904881
20.2472 42.5874 30.4702 0.383013 -0.923736 -0.00352388
19.2535 42.1859 29.3407 0.381318 -0.92441 -0.00790935
18.8634 42.03 28.8994 0.38016 -0.92487 -0.00970226
18.5843 41.9378 27.2568 0.374029 -0.927252 -0.0174914
19.686 42.3711 28.4963 0.378515 -0.925565 -0.00745591
20.6213 42.7468 29.5568 0.380267 -0.924866 -0.00448262
21.7319 43.1974 30.8215 0.377633 -0.925954 0.00135844
22.6505 43.5717 31.8705 0.376414 -0.926447 0.00289696
23.5818 43.9506 32.9366 0.369071 -0.929385 0.00541198
24.7162 44.4027 34.2272 0.36278 -0.931861 0.0051055
25.6325 44.7593 35.2669 0.34895 -0.937105 0.00826221
26.6183 45.1291 36.3787 0.331776 -0.943352 0.00356189
26.8136 45.1965 36.5961 0.327798 -0.944747 -0.00150235
26.9587 45.2416 35.4006 0.335865 -0.941874 0.00827397
25.8646 44.8344 34.1704 0.342702 -0.939444 0.000529544
24.892 44.4634 33.0684 0.351194 -0.936271 0.00766918
23.9471 44.0879 31.9946 0.36731 -0.930072 0.00701823
23.0296 43.7196 30.9498 0.364755 -0.931095 0.003929
22.0811 43.3381 29.8739 0.375302 -0.926903 -0.000262056
21.1305 42.956 28.7929 0.374905 -0.927058 -0.00311993
20.0568 42.5295 27.583 0.373419 -0.92763 -0.00782228
18.8248 42.0501 26.2052 0.369466 -0.929171 -0.0116669
18.0686 41.7636 25.3675 0.364546 -0.931034 -0.0167988
17.9005 41.7284 23.864 0.356143 -0.934251 -0.018361
18.9276 42.107 24.9991 0.36725 -0.930055 -0.0111952
19.9116 42.4845 26.0922 0.368553 -0.929585 -0.00638503
20.9159 42.8768 27.216 0.36956 -0.929199 -0.00386282
21.9152 43.2701 28.3387 0.367277 -0.930112 0.000165254
22.9842 43.6973 29.5483 0.365406 -0.930796 0.0099206
24.2176 44.185 30.9452 0.364754 -0.931096 0.00392853
25.1321 44.5433 31.982 0.353761 -0.935276 0.010573
26.1698 44.9339 33.1565 0.332861 -0.942907 0.0114005
27.0358 45.2504 34.1284 0.308956 -0.950831 0.0216148
27.3252 45.3296 33.0865 0.314184 -0.94933 0.00784562
26.3944 45.0054 32.05 0.335804 -0.941923 0.00401173
25.4705 44.661 31.0068 0.355025 -0.934802 0.0100921
24.4707 44.2781 29.8767 0.359494 -0.933105 0.00889325
23.3771 43.8418 28.6394 0.36136 -0.932362 0.0109263
22.3932 43.4595 27.5357 0.358432 -0.933555 -0.00155913
21.4537 43.0933 26.4859 0.3652 -0.930928 -0.0012249
20.4354 42.6976 25.3479 0.366427 -0.930425 -0.00634347
19.4617 42.3248 24.2648 0.362393 -0.931971 -0.0101017
18.4005 41.9329 23.1018 0.356491 -0.934176 -0.015156
17.3826 41.5703 22.0056 0.346186 -0.938029 -0.0160552
16.1045 41.1729 19.3614 0.319816 -0.947148 -0.0250542
17.1073 41.498 20.4133 0.338862 -0.940659 -0.0182681
18.0759 41.8355 21.4468 0.34612 -0.938133 -0.0104131
19.017 42.1736 22.4624 0.35482 -0.934877 -0.0103747
19.9822 42.5334 23.5109 0.359634 -0.933071 -0.00644585
21.156 42.9811 24.8201 0.362485 -0.931989 -0.00143235
22.1181 43.3515 25.8889 0.36243 -0.932011 -0.000453338
23.1266 43.7397 27.0116 0.355876 -0.934522 0.00453165
24.0605 44.0977 28.0565 0.35564 -0.934599 0.00673295
25.0266 44.4724 29.1448 0.347396 -0.937602 0.0147767
26.2339 44.9309 30.5044 0.339431 -0.940601 0.00746103
27.2457 45.2836 31.6323 0.308055 -0.951296 0.0117036
27.2472 45.2841 31.634 0.311316 -0.950155 0.0169799
27.2268 45.2659 30.2481 0.312736 -0.949801 0.00864313
26.182 44.8865 29.0789 0.336605 -0.941217 0.0284215
25.2391 44.5361 28.0227 0.338271 -0.940943 0.0141039
24.2847 44.172 26.9526 0.349645 -0.936859 0.00660632
23.3463 43.8162 25.9116 0.345282 -0.938442 0.0102847
22.2556 43.3983 24.7031 0.352962 -0.935614 0.00664286
21.3068 43.0417 23.6538 0.349016 -0.937114 -0.00244447
20.2611 42.646 22.4923 0.348973 -0.937133 -0.000191867
19.1655 42.2404 21.3116 0.347082 -0.937796 -0.00847477
18.0675 41.8475 20.1335 0.339266 -0.940655 -0.00822389
17.1002 41.5198 19.1124 0.324996 -0.945531 -0.0186613
16.0088 41.1687 17.986 0.316628 -0.94838 -0.0179236
14.7602 40.7963 16.6944 0.294151 -0.95551 -0.0218187
14.2431 40.6491 16.1699 0.288431 -0.957153 -0.0258124
27.4308 45.3109 29.1062 0.286956 -0.957609 0.0253359
26.3628 44.9255 27.9131 0.322255 -0.946533 0.0150986
25.2508 44.5122 26.6707 0.330555 -0.943697 0.0130084
23.9257 44.0175 25.2024 0.339344 -0.940584 0.0121217
22.8717 43.6173 24.0387 0.342464 -0.939495 0.00815485
21.6907 43.18 22.7416 0.346495 -0.937991 0.0106523
20.3389 42.6736 21.2583 0.337484 -0.941306 0.00692178
19.1178 42.2305 19.947 0.341098 -0.940018 -0.00433776
17.9625 41.8194 18.7214 0.327608 -0.944814 0.000423575
16.7236 41.4124 17.4369 0.314662 -0.949139 -0.011095
15.6128 41.0671 16.2816 0.296122 -0.955119 -0.0077598
14.2574 40.68 14.9075 0.27986 -0.959966 -0.0119886
13.059 40.3706 13.6836 0.247389 -0.968901 -0.00541955
11.8209 40.0814 12.4442 0.222003 -0.975 -0.00952075
11.3504 39.9865 11.9728 0.215054 -0.976393 -0.0202269
11.8934 40.1036 11.2498 0.203337 -0.979032 0.0122696
13.1159 40.3943 12.4729 0.236342 -0.971664 0.00350564
14.3884 40.7231 13.7501 0.265912 -0.963986 0.00460194
15.5029 41.0432 14.9018 0.288879 -0.957246 0.0151357
16.6669 41.4037 16.0857 0.305153 -0.952293 -0.00451884
17.9439 41.8143 17.4093 0.314176 -0.949354 0.00445522
19.1034 42.2183 18.6224 0.330211 -0.943891 0.00557976
20.2004 42.6167 19.7887 0.329878 -0.943907 0.014845
21.4008 43.0531 21.085 0.337485 -0.941305 0.00692242
22.5411 43.4824 22.3367 0.333841 -0.942571 0.0105317
23.6333 43.8792 23.53 0.333556 -0.942223 0.0309076
24.7133 44.281 24.7182 0.310897 -0.950213 0.0209638
25.9144 44.7275 26.0468 0.31258 -0.949508 0.0269897
27.2038 45.1957 27.4792 0.312463 -0.949674 0.0220333
27.3763 45.257 27.6714 0.305138 -0.95205 0.0221682
27.2489 45.1656 26.1552 0.310935 -0.949428 0.0436664
26.0679 44.7338 24.8525 0.318733 -0.946639 0.0477905
24.925 44.3191 23.5954 0.310849 -0.949954 0.0309831
23.6961 43.8667 22.2499 0.309052 -0.950624 0.0282954
22.4081 43.4035 20.8485 0.317848 -0.947747 0.0273358
21.3218 43.0051 19.6695 0.325532 -0.945388 0.0164765
20.2451 42.6056 18.5162 0.319332 -0.947207 0.0287579
19.1287 42.2071 17.3419 0.311639 -0.950152 0.00966857
17.9891 41.8225 16.1571 0.297336 -0.954581 0.0191344
16.8557 41.4534 14.9914 0.294295 -0.955601 0.0147594
15.6686 41.0809 13.7744 0.266193 -0.963464 0.0296462
14.2928 40.6816 12.3788 0.245222 -0.969286 0.0187392
12.9383 40.3259 11.0264 0.218333 -0.975344 0.0321708
12.6 40.2418 10.6869 0.203125 -0.978425 0.0377402
13.2057 40.3337 10.0186 0.18846 -0.979313 0.0736771
14.3793 40.6634 11.1942 0.234846 -0.971101 0.0425355
15.5402 40.9952 12.3546 0.239387 -0.969781 0.0471054
16.7861 41.3924 13.625 0.278158 -0.959897 0.0350048
18.0565 41.8135 14.9268 0.280888 -0.958928 0.0394821
19.1807 42.1937 16.0881 0.297979 -0.954319 0.0219969
20.3051 42.5854 17.261 0.311704 -0.949632 0.0322612
21.3825 42.9872 18.4051 0.31503 -0.948126 0.0425918
22.5759 43.4223 19.6862 0.307795 -0.951164 0.0234408
23.9169 43.8966 21.1384 0.289758 -0.956609 0.0306423
25.0123 44.2807 22.3272 0.290168 -0.955421 0.0545215
26.3887 44.7734 23.8303 0.27731 -0.959264 0.0539678
27.1005 45.0284 24.6099 0.283422 -0.956968 0.0623181
26.7665 44.8285 22.8642 0.267972 -0.961032 0.0678889
25.6667 44.4408 21.6666 0.285015 -0.957236 0.0496544
24.4846 44.0353 20.3949 0.276478 -0.959839 0.04763
23.3972 43.6665 19.2282 0.299849 -0.953381 0.0339804
22.2144 43.2355 17.9599 0.293324 -0.955126 0.041179
21.1123 42.8276 16.7905 0.295498 -0.953879 0.0528776
19.9966 42.4226 15.6225 0.298413 -0.953464 0.0430838
18.8784 42.0339 14.4673 0.266288 -0.961308 0.0705577
17.7688 41.654 13.332 0.2668 -0.961813 0.0611078
16.5182 41.2399 12.0608 0.251673 -0.965894 0.0608976
15.2143 40.8313 10.7524 0.220824 -0.973196 0.0642423
14.0789 40.4853 9.61968 0.2182 -0.973283 0.0714748
13.6559 40.3566 9.19713 0.191475 -0.975238 0.110668
14.2873 40.416 8.56324 0.211216 -0.970101 0.119551
15.5029 40.8093 9.7663 0.21541 -0.971527 0.0986635
16.6887 41.1981 10.9468 0.231161 -0.969689 0.0791733
17.8183 41.567 12.0846 0.240771 -0.96592 0.0950113
18.952 41.9665 13.2333 0.252695 -0.962838 0.0953287
20.0732 42.3607 14.3847 0.265348 -0.961286 0.0743011
21.1823 42.7761 15.5368 0.274435 -0.957692 0.086663
22.3356 43.2015 16.7496 0.281997 -0.957655 0.0580889
23.5419 43.619 18.0261 0.267068 -0.961351 0.0669222
24.6206 43.9987 19.1777 0.231397 -0.969251 0.0837157
25.7848 44.3783 20.4181 0.258125 -0.962423 0.0843453
26.4467 44.6128 21.1329 0.25148 -0.96367 0.0899892
25.9916 44.3133 19.2632 0.223034 -0.970069 0.0960366
24.6865 43.9002 17.881 0.211506 -0.973726 0.0843928
23.5295 43.5136 16.6566 0.231844 -0.967642 0.0995913
22.3709 43.0981 15.4456 0.252419 -0.963968 0.0839679
21.2716 42.6755 14.2995 0.258175 -0.959357 0.113929
20.156 42.269 13.1523 0.236544 -0.967356 0.0909343
18.9945 41.8445 11.9696 0.230333 -0.965542 0.121144
17.8873 41.464 10.8595 0.217477 -0.971698 0.0922305
16.7611 41.0973 9.73706 0.224385 -0.969772 0.0958878
15.5994 40.6888 8.59225 0.199881 -0.970937 0.13164
14.5209 40.2929 7.54638 0.172761 -0.968509 0.179286
15.0336 40.2276 6.80998 0.153196 -0.960294 0.233165
16.2008 40.6896 7.92444 0.18426 -0.961687 0.202995
17.3291 41.1055 9.02248 0.193796 -0.969116 0.152504
18.4859 41.5162 10.1663 0.212205 -0.967972 0.134165
19.8345 41.9873 11.5107 0.230338 -0.965541 0.121144
21.0133 42.4191 12.7081 0.21806 -0.968323 0.121654
22.1012 42.8386 13.8295 0.223328 -0.962928 0.151307
23.451 43.3449 15.2264 0.220923 -0.97073 0.0942131
24.5762 43.7259 16.3943 0.200011 -0.973883 0.107457
25.6686 44.074 17.5463 0.162936 -0.979685 0.116916
24.9228 43.6552 15.3953 0.0964079 -0.975992 0.19531
23.6413 43.2148 14.0807 0.16756 -0.969285 0.180026
22.2526 42.6969 12.6563 0.145402 -0.967201 0.208281
21.1388 42.2595 11.5114 0.184167 -0.965187 0.185734
19.8403 41.8022 10.21 0.202049 -0.967267 0.153525
18.6237 41.3502 9.0152 0.194205 -0.962567 0.189075
17.4327 40.8959 7.86133 0.175743 -0.959186 0.221531
16.2761 40.4126 6.76136 0.120559 -0.956686 0.264985
15.5442 40.1297 6.07685 0.107695 -0.947169 0.302113
15.6472 39.778 4.99241 0.0869052 -0.949002 0.303056
16.8008 40.2596 6.04256 0.117839 -0.938777 0.323747
17.945 40.7939 7.10556 0.165963 -0.951266 0.259901
19.194 41.3083 8.29179 0.180761 -0.961552 0.206746
20.3528 41.7752 9.41771 0.143024 -0.974633 0.172148
21.6695 42.1818 10.7161 0.128371 -0.965605 0.226116
22.7725 42.5977 11.8604 0.0367673 -0.95777 0.285175
23.5508 42.8801 12.6546 0.108999 -0.967444 0.22841
22.2204 42.0773 9.94081 0.108175 -0.966057 0.234588
20.9647 41.6709 8.72096 0.0675104 -0.962142 0.264054
19.792 41.2226 7.5967 0.0901929 -0.9446 0.31559
18.5155 40.6751 6.41407 0.137002 -0.9356 0.325397
17.2505 40.059 5.27138 0.103887 -0.918596 0.381299
16.0757 39.5228 4.21718 0.0425441 -0.928148 0.369773
15.914 39.4577 4.07256 0.0425483 -0.928148 0.369771
18.0092 39.909 4.83282 0.0783034 -0.893922 0.44133
19.0336 40.4673 5.68851 0.0229211 -0.933569 0.357665
