13.6474 36.8991 -3.69182 0.306126 0.91825 -0.250944
13.0468 37.3256 -2.7236 0.259804 0.936679 -0.234807
12.5281 37.6613 -1.92781 0.218219 0.946531 -0.237511
11.8056 38.0675 -0.872539 0.145677 0.962621 -0.225183
11.3225 38.3276 0.0723732 0.108228 0.96924 -0.220746
10.6251 38.6225 1.25135 0.0713865 0.977324 -0.199353
9.97876 38.8455 2.27081 0.0260923 0.983928 -0.175725
9.41524 39.0101 3.24055 -0.0238379 0.989296 -0.143966
8.94566 39.1376 4.21302 -0.0379249 0.990263 -0.133192
8.26968 39.1952 5.05764 -0.0637942 0.992732 -0.102049
7.45972 39.2144 5.86872 -0.0738975 0.993935 -0.0814397
6.31581 39.1472 6.1479 -0.0770103 0.994906 -0.0650462
5.30953 39.062 6.05364 -0.0767854 0.995167 -0.061205
4.07031 38.938 5.5768 -0.077331 0.995576 -0.0533641
2.93939 38.8271 5.13787 -0.0773361 0.995803 -0.0489463
1.94412 38.7314 4.86973 -0.0905406 0.99454 -0.0518917
0.911133 38.622 4.63452 -0.0960845 0.993847 -0.0550936
-0.246105 38.4835 4.26904 -0.107961 0.993097 -0.045858
-1.23373 38.3548 3.93551 -0.125687 0.991368 -0.0373251
-2.56381 38.1476 3.64572 -0.162719 0.985642 -0.0450774
-3.6568 37.9522 3.4532 -0.179853 0.982922 -0.0389617
-4.72885 37.7366 3.24578 -0.199379 0.979581 -0.025864
-5.82255 37.493 3.04796 -0.219301 0.975333 -0.0237597
-6.90501 37.2239 2.90392 -0.263409 0.964662 -0.00615673
-7.93257 36.9412 2.78041 -0.264778 0.964299 -0.00442486
-8.90079 36.6462 2.83348 -0.303581 0.952775 0.00458734
-9.91381 36.3245 2.82644 -0.32245 0.946356 0.020881
-10.9909 35.9576 2.80307 -0.332299 0.942729 0.0279432
-12.0891 35.5609 2.83708 -0.344796 0.937928 0.0367646
-13.3213 35.0928 3.01881 -0.355504 0.933357 0.0486209
-14.4299 34.6668 3.05742 -0.361071 0.930527 0.0607952
-15.3377 34.3015 3.23328 -0.359032 0.930853 0.0678923
-16.338 33.8804 3.53669 -0.368465 0.926219 0.079697
-17.4464 33.4062 3.88349 -0.364044 0.927006 0.0901799
-18.573 32.9154 4.18868 -0.375909 0.920376 0.107702
-19.4783 32.5093 4.53755 -0.372208 0.920023 0.12255
-20.3677 32.0963 4.95524 -0.36837 0.920821 0.127952
-21.6874 31.5009 5.42894 -0.366675 0.920214 0.136845
-22.4594 31.1192 5.90706 -0.365874 0.919986 0.140579
-23.3703 30.6623 6.50268 -0.363695 0.920058 0.145666
-24.3658 30.1571 7.19257 -0.362856 0.919148 0.153288
-25.3837 29.6598 7.78773 -0.359137 0.920011 0.156835
-26.2594 29.1809 8.5965 -0.356737 0.920641 0.158616
-27.068 28.7624 9.21192 -0.353676 0.921552 0.160168
-27.8563 28.3347 9.93192 -0.352055 0.921954 0.16142
-28.5946 27.924 10.6701 -0.35006 0.922484 0.162727
-29.1799 27.5756 11.3901 -0.349379 0.922698 0.162983
-29.7796 27.2121 12.1684 -0.348165 0.92321 0.162676
-30.4424 26.8299 12.9249 -0.34697 0.923738 0.162232
-31.0722 26.4735 13.6092 -0.346316 0.924096 0.161592
-31.6889 26.0884 14.4923 -0.345653 0.924448 0.160999
-32.11 25.7704 15.4156 -0.345071 0.924758 0.160464
-32.7799 25.3871 16.1841 -0.344946 0.924842 0.160247
-33.2492 25.07 17.0061 -0.344741 0.924992 0.159826
-33.6607 24.7548 17.9442 -0.344716 0.925047 0.159557
-34.6527 24.3811 17.9677 -0.344744 0.925075 0.159333
-35.8425 24.0293 17.4353 -0.344844 0.925043 0.159302
-36.7255 23.7565 17.1086 -0.344853 0.925053 0.15923
-37.666 23.4915 16.6115 -0.344793 0.925066 0.159279
-38.6027 23.2035 16.2566 -0.344834 0.925055 0.159258
-39.5713 22.9127 15.8485 -0.344851 0.925063 0.159173
-40.7245 22.5666 15.3608 -0.344951 0.925048 0.159047
-41.734 22.2644 14.9289 -0.345088 0.924937 0.159389
-42.8358 21.9498 14.3672 -0.345384 0.924852 0.159245
-42.9414 22.0393 13.619 -0.345482 0.924795 0.159361
-42.6572 22.2989 12.7301 -0.345273 0.924815 0.159702
-42.3199 22.6079 11.6724 -0.345475 0.924656 0.16018
-41.8766 22.931 10.7645 -0.345323 0.924561 0.161056
-41.2808 23.3401 9.69416 -0.345273 0.924549 0.16123
-40.8045 23.6926 8.69481 -0.344808 0.924623 0.161802
-40.1 24.1487 7.59463 -0.344686 0.924505 0.162732
-39.5978 24.4792 6.78011 -0.344303 0.924595 0.163033
-38.9898 24.8585 5.91228 -0.344154 0.924629 0.163151
-38.269 25.2716 5.08755 -0.343191 0.925001 0.163074
-37.5898 25.6634 4.29421 -0.342672 0.925238 0.162818
-37.0292 26.0132 3.48339 -0.342154 0.925431 0.162812
-36.2333 26.463 2.59099 -0.340805 0.925999 0.162411
-35.6031 26.81 1.92857 -0.339605 0.926718 0.160819
-34.7913 27.2354 1.18895 -0.339151 0.927138 0.159347
-34.0348 27.6206 0.549479 -0.337374 0.928025 0.157951
-33.3679 27.9681 -0.0718512 -0.336867 0.928511 0.156164
-32.5987 28.372 -0.82651 -0.334754 0.929594 0.154254
-31.8539 28.7445 -1.46108 -0.333763 0.930489 0.150973
-30.9823 29.1588 -2.09236 -0.330773 0.931788 0.149508
-30.0186 29.6007 -2.73368 -0.328522 0.933264 0.145209
-28.9944 30.0541 -3.34896 -0.326445 0.934695 0.140614
-28.0392 30.467 -3.88664 -0.325493 0.935709 0.136
-27.1838 30.8285 -4.33492 -0.324485 0.936748 0.131163
-26.3754 31.1802 -4.86591 -0.323117 0.937981 0.125605
-25.302 31.6114 -5.37251 -0.318573 0.940357 0.119332
-24.3522 31.9776 -5.74387 -0.314092 0.942727 0.112288
-23.1272 32.4404 -6.24752 -0.30978 0.945004 0.104898
-22.168 32.7849 -6.54931 -0.305899 0.946852 0.099485
-21.241 33.1167 -6.8747 -0.304173 0.947969 0.0939886
-20.0699 33.5304 -7.29546 -0.303719 0.948718 0.0876818
-18.9198 33.9108 -7.54638 -0.300073 0.950725 0.0778789
-17.8868 34.241 -7.6678 -0.295385 0.952819 0.0698818
-16.9359 34.5407 -7.90711 -0.283041 0.957168 0.0608959
-16.016 34.8222 -8.03158 -0.278195 0.959242 0.0495436
-14.9724 35.1311 -8.19248 -0.270968 0.961687 0.0414955
-13.9938 35.4123 -8.30858 -0.26687 0.963072 0.0354304
-12.827 35.7283 -8.37433 -0.261539 0.964879 0.0246285
-11.5753 36.0572 -8.33747 -0.245734 0.969182 0.0156947
-10.4888 36.3276 -8.39637 -0.236242 0.97164 0.00642668
-9.47266 36.563 -8.33028 -0.2192 0.975678 0.0019825
-8.48145 36.7836 -8.28152 -0.213804 0.976814 -0.0110648
-7.4616 36.9938 -8.05941 -0.189342 0.981708 -0.0199893
-6.32545 37.2037 -7.93185 -0.168406 0.985529 -0.0192823
-5.02996 37.4233 -7.8481 -0.157365 0.986901 -0.0355245
-3.88514 37.5817 -7.83389 -0.128588 0.990977 -0.03759
-2.76866 37.691 -7.81456 -0.0835508 0.994819 -0.0579107
-1.46201 37.7725 -7.93743 -0.0591138 0.996505 -0.0589275
-0.38206 37.7947 -8.37941 -0.0333278 0.996596 -0.0752433
0.605942 37.7716 -8.84819 0.00866406 0.995568 -0.0936446
1.64306 37.7133 -9.11623 0.0404713 0.993418 -0.107161
2.73898 37.633 -9.26317 0.0781156 0.990929 -0.109354
3.92961 37.5432 -9.1798 0.0861967 0.988407 -0.124988
4.89667 37.4581 -9.1302 0.115261 0.98321 -0.141335
5.93549 37.34 -9.0889 0.129007 0.977726 -0.165554
6.94345 37.2104 -9.01768 0.141081 0.976528 -0.162752
8.04736 37.0243 -9.04214 0.169082 0.969625 -0.176693
9.19097 36.8095 -9.0483 0.188298 0.965839 -0.17804
10.4805 36.5204 -9.07616 0.211631 0.962807 -0.167943
11.4838 36.2582 -9.10659 0.266956 0.94867 -0.169588
12.8074 35.8472 -9.23384 0.281261 0.945159 -0.165508
13.8016 35.4608 -9.52488 0.343391 0.927957 -0.144612
14.7123 35.0979 -9.73179 0.355756 0.924393 -0.136472
15.6744 34.6874 -9.98469 0.383784 0.918926 -0.0903956
16.6657 34.23 -10.2678 0.402289 0.911967 -0.0804051
17.4855 33.8241 -10.5981 0.440165 0.895608 -0.0643486
18.3404 33.3951 -10.6731 0.46066 0.885212 -0.0618816
17.8524 33.7195 -9.73206 0.441995 0.891839 -0.0962424
17.305 34.0771 -8.95976 0.426071 0.897104 -0.116907
16.5662 34.6089 -7.83476 0.43083 0.889032 -0.154945
16.0389 35.0098 -7.02192 0.40477 0.893271 -0.195522
15.5633 35.4317 -6.20814 0.422585 0.877018 -0.228607
15.0064 35.8937 -5.41775 0.384802 0.889901 -0.244012
14.3135 36.4043 -4.58995 0.346985 0.903465 -0.251699
13.7829 36.7901 -3.91256 0.310526 0.914118 -0.260696
14.6118 36.6383 -3.38916 0.343057 0.900738 -0.266428
15.1513 36.2104 -4.10055 0.372322 0.888066 -0.269657
15.8615 35.6425 -4.91244 0.427196 0.865417 -0.26175
16.3988 35.1501 -5.74086 0.451609 0.862519 -0.228278
16.8713 34.7132 -6.51673 0.44014 0.874326 -0.20412
17.5638 34.1444 -7.70291 0.448711 0.880719 -0.151514
18.1465 33.721 -8.49766 0.449103 0.884212 -0.127545
18.6949 33.3241 -9.35063 0.468629 0.876744 -0.107756
19.2559 32.9118 -10.4047 0.496768 0.865468 -0.0634108
19.6079 32.6739 -11.3392 0.498538 0.866396 -0.0285911
19.6193 32.6552 -12.1957 0.490839 0.871165 0.0122031
18.7155 33.1353 -12.0492 0.462792 0.886386 -0.0119797
17.6692 33.6748 -11.6921 0.430103 0.901882 -0.0402507
16.8034 34.0899 -11.3606 0.412649 0.909349 -0.0522025
15.759 34.5588 -10.9954 0.372824 0.925664 -0.0644132
14.8676 34.9327 -10.7512 0.34422 0.93505 -0.0847012
13.8957 35.3024 -10.5256 0.31215 0.944184 -0.105116
12.8437 35.6856 -10.2544 0.30194 0.946256 -0.114948
11.8049 36.0168 -10.0563 0.274066 0.952917 -0.129759
10.3565 36.3795 -10.051 0.229767 0.962536 -0.143892
9.35332 36.6006 -10.0215 0.190258 0.967724 -0.165257
8.29839 36.8072 -10.0045 0.177189 0.96998 -0.166562
7.00866 37.0272 -10.0068 0.156007 0.974663 -0.160203
5.81442 37.2057 -10.0444 0.141295 0.977921 -0.153969
4.53826 37.3508 -10.1397 0.109484 0.983584 -0.143443
3.29816 37.4783 -10.1895 0.101848 0.988706 -0.109943
2.04245 37.5853 -10.2337 0.0765736 0.990814 -0.111464
0.967211 37.6602 -9.9767 0.039728 0.994954 -0.0920987
-0.0101773 37.6933 -9.80731 -0.0019544 0.996688 -0.081296
-1.22751 37.7164 -9.10215 -0.0250492 0.997964 -0.0586531
-2.21856 37.675 -8.83498 -0.0525272 0.997628 -0.0430749
-3.47647 37.5881 -8.79563 -0.0951829 0.994203 -0.0454674
-4.5151 37.4667 -8.79733 -0.122686 0.991591 -0.040069
-5.541 37.3142 -8.87202 -0.153604 0.987901 -0.0214057
-6.59298 37.1373 -8.97978 -0.168227 0.985553 -0.019631
-7.56808 36.9582 -9.06767 -0.184391 0.982726 -0.0155018
-8.76869 36.7164 -9.29249 -0.203206 0.979108 -0.00448745
-9.78176 36.4955 -9.32314 -0.216362 0.976306 -0.000298246
-10.7845 36.2637 -9.39765 -0.225732 0.974139 0.00992972
-11.79 36.018 -9.32748 -0.237852 0.971162 0.0163673
-12.7857 35.7654 -9.33284 -0.251251 0.967552 0.0266027
-13.8245 35.4916 -9.26937 -0.255279 0.966235 0.0345789
-14.7637 35.2338 -9.19972 -0.26776 0.96259 0.0415323
-15.6937 34.9698 -9.07238 -0.271291 0.961079 0.0519443
-16.7527 34.6637 -9.0139 -0.272856 0.960381 0.0567058
-17.7816 34.3419 -8.66247 -0.283366 0.956862 0.0640319
-19.0605 33.9436 -8.49694 -0.291936 0.953279 0.0776689
-20.0585 33.6199 -8.28434 -0.291115 0.952666 0.0876361
-20.9974 33.3077 -8.04929 -0.297711 0.950416 0.0898731
-21.9588 32.9698 -7.69353 -0.29981 0.949272 0.0948474
-22.8458 32.6513 -7.35866 -0.305188 0.947063 0.0996554
-23.9897 32.2439 -7.01076 -0.305666 0.945552 0.111801
-24.841 31.9158 -6.58396 -0.31139 0.942579 0.120725
-25.7105 31.5838 -6.22719 -0.311482 0.942873 0.118192
-26.5698 31.2546 -5.91356 -0.316314 0.940373 0.125062
-27.3612 30.9195 -5.42479 -0.320956 0.93807 0.130407
-28.4596 30.4527 -4.79722 -0.323341 0.936454 0.136032
-29.3419 30.0784 -4.32654 -0.324459 0.935454 0.140187
-30.4428 29.595 -3.66291 -0.325179 0.934211 0.146657
-31.2792 29.2117 -3.08566 -0.327901 0.93262 0.150664
-31.9865 28.8697 -2.51794 -0.331289 0.931121 0.152513
-32.7509 28.5121 -1.99873 -0.332001 0.930526 0.154583
-33.4553 28.1542 -1.36655 -0.333974 0.929464 0.156708
-34.1206 27.7992 -0.682542 -0.335992 0.928624 0.157368
-34.9522 27.3682 0.0755877 -0.336122 0.92819 0.159636
-35.7267 26.9915 0.624714 -0.337979 0.927236 0.161251
-36.3781 26.6302 1.33106 -0.338831 0.926787 0.162048
-37.231 26.1571 2.24078 -0.340872 0.925819 0.163295
-37.8563 25.7991 2.96442 -0.341432 0.925562 0.163586
-38.4821 25.401 3.90691 -0.342173 0.925249 0.163802
-39.3695 24.9085 4.8303 -0.343445 0.924796 0.163699
-40.0201 24.5094 5.71869 -0.343734 0.9247 0.163634
-40.6008 24.1454 6.55382 -0.344315 0.924508 0.1635
-41.1336 23.7944 7.41809 -0.344981 0.924401 0.1627
-41.7471 23.3926 8.39895 -0.345458 0.924289 0.162323
-42.1176 23.0914 9.32897 -0.345399 0.924483 0.161337
-42.6021 22.7665 10.1525 -0.345639 0.924429 0.161139
-43.0689 22.4501 10.9678 -0.345813 0.924435 0.160727
-43.4359 22.1065 12.1589 -0.345809 0.924591 0.159834
-43.8751 21.7856 13.067 -0.34567 0.92473 0.159331
-44.2842 21.4681 14.023 -0.345671 0.924763 0.159136
-43.9119 21.4318 15.0445 -0.345336 0.924972 0.158652
-42.6721 21.8082 15.5473 -0.345127 0.925006 0.158907
-41.5194 22.1537 16.0382 -0.344977 0.925036 0.15906
-40.6129 22.4236 16.434 -0.344829 0.925105 0.158977
-39.684 22.711 16.7763 -0.344768 0.925123 0.159001
-38.8249 22.967 17.1494 -0.344703 0.925128 0.159115
-37.7201 23.3009 17.6018 -0.344741 0.925111 0.159132
-36.7331 23.5898 18.0604 -0.344664 0.925133 0.159174
-35.6529 23.9111 18.5325 -0.344791 0.925085 0.159174
-34.5488 24.2422 18.9989 -0.344694 0.925109 0.159246
-33.4611 24.5842 19.3671 -0.344774 0.925099 0.159132
-32.8432 24.9663 18.4846 -0.344697 0.925093 0.159332
-32.3698 25.3338 17.376 -0.344533 0.925099 0.159653
-31.6579 25.7975 16.2307 -0.34486 0.924839 0.160453
-31.0754 26.1578 15.4088 -0.34536 0.924519 0.161216
-30.6867 26.4518 14.5574 -0.345476 0.924328 0.16206
-29.937 26.8635 13.8112 -0.346296 0.923922 0.162624
-29.2012 27.2965 12.9225 -0.347412 0.923351 0.163484
-28.6167 27.6578 12.1271 -0.348718 0.922761 0.164039
-27.7607 28.1469 11.2051 -0.351084 0.921865 0.164023
-26.9702 28.5829 10.4483 -0.352693 0.92111 0.164817
-26.2976 28.9474 9.8498 -0.354544 0.920452 0.164521
-25.3252 29.4692 9.02411 -0.35959 0.919167 0.160706
-24.3687 29.9632 8.3324 -0.361072 0.918761 0.159694
-23.3429 30.482 7.66486 -0.363756 0.918195 0.156835
-22.4633 30.933 7.0594 -0.369265 0.916855 0.151697
-21.6117 31.3591 6.5439 -0.371365 0.917298 0.143709
-20.7469 31.7732 6.12735 -0.377145 0.915232 0.141818
-19.6676 32.2698 5.7418 -0.376273 0.917352 0.129941
-18.8408 32.6733 5.27045 -0.382674 0.916029 0.120213
-17.768 33.1493 4.99606 -0.375792 0.9203 0.108754
-16.925 33.5319 4.69221 -0.38151 0.919173 0.0978359
-15.7857 34.0199 4.45562 -0.378451 0.921736 0.0846228
-14.9378 34.3928 4.11098 -0.368907 0.927233 0.0642792
-13.761 34.8626 4.03392 -0.361066 0.930529 0.0607911
-12.5253 35.3486 3.94081 -0.367968 0.928898 0.0418004
-11.6054 35.7064 3.71437 -0.35254 0.935417 0.0265782
-10.6655 36.0487 3.76055 -0.344101 0.938741 0.0189816
-9.28206 36.5261 3.78302 -0.322082 0.946694 0.00582877
-8.3148 36.8299 3.74007 -0.29791 0.954508 -0.0109776
-6.86819 37.2575 3.88858 -0.25486 0.96649 -0.0249559
-5.86156 37.5097 4.01852 -0.233907 0.971478 -0.0389518
-4.80879 37.7554 4.25711 -0.202077 0.97814 -0.0490674
-3.57578 38.0129 4.46513 -0.183042 0.981917 -0.0483199
-2.5827 38.1913 4.65416 -0.157411 0.986603 -0.042779
-1.51876 38.3561 4.82793 -0.131312 0.990045 -0.0501083
-0.325306 38.5222 5.234 -0.116542 0.992092 -0.0462967
0.727739 38.6531 5.58063 -0.101027 0.993693 -0.0484825
1.80816 38.7676 5.8406 -0.0867166 0.994955 -0.0504519
2.89001 38.8748 6.13831 -0.0807252 0.995276 -0.053944
3.80846 38.9718 6.55749 -0.080568 0.995339 -0.0529979
4.8192 39.0741 6.92159 -0.0816416 0.995193 -0.0540839
5.85044 39.1738 7.18078 -0.0827391 0.995072 -0.0546433
6.86125 39.2571 7.07397 -0.0881153 0.993608 -0.070566
7.93077 39.3429 6.85438 -0.0950132 0.991961 -0.0835829
8.70002 39.3353 6.00614 -0.0865046 0.99123 -0.0998979
9.4475 39.2909 5.16553 -0.0761913 0.987666 -0.136304
10.1884 39.1405 4.00188 -0.0478827 0.983961 -0.171326
10.7753 38.9193 2.82284 0.00956482 0.978827 -0.204466
11.4757 38.6543 1.70996 0.072075 0.977208 -0.199674
12.0002 38.4196 0.814508 0.102192 0.973949 -0.202436
12.4608 38.1495 -0.106247 0.146596 0.956601 -0.251778
13.0081 37.8279 -0.910534 0.191256 0.945448 -0.263722
13.5434 37.4498 -1.74531 0.26137 0.932378 -0.249715
14.113 37.0377 -2.58789 0.302392 0.914643 -0.268305
14.4336 36.7804 -3.13841 0.343052 0.900739 -0.266429
15.1435 36.6942 -2.50958 0.346013 0.89993 -0.265331
15.8497 36.1665 -3.24915 0.389278 0.875328 -0.28678
16.4494 35.5932 -4.14397 0.426299 0.858409 -0.285312
16.978 35.0873 -4.87409 0.465015 0.851418 -0.242586
17.4733 34.5703 -5.70239 0.509738 0.839523 -0.188064
18.1148 34.0414 -6.58778 0.467341 0.87509 -0.12574
18.5568 33.6583 -7.57904 0.452144 0.879985 -0.145491
19.155 33.2216 -8.23677 0.498319 0.857341 -0.129012
19.6254 32.8214 -9.16319 0.493796 0.863392 -0.102841
20.0873 32.4601 -10.0216 0.520933 0.849183 -0.0865755
20.3638 32.2444 -10.9455 0.509704 0.860239 -0.0137916
20.7424 32.0069 -11.8949 0.523815 0.851731 0.0130952
20.7258 32.0461 -12.8683 0.505188 0.86237 0.0332097
20.1358 32.3985 -13.4023 0.488709 0.870981 0.0504161
19.0497 32.9673 -13.1259 0.45455 0.889842 0.0358518
18.1106 33.4367 -12.8308 0.425985 0.903966 0.0231695
17.2321 33.8607 -12.5349 0.422098 0.906543 0.00271797
16.3771 34.2402 -12.2292 0.394661 0.917979 -0.0394594
15.1627 34.7518 -11.8127 0.353677 0.934505 -0.0391897
14.0417 35.154 -11.5359 0.313937 0.946447 -0.0753814
12.8323 35.5634 -11.2825 0.288375 0.953016 -0.0918951
11.7865 35.9069 -11.0119 0.279408 0.955569 -0.0939104
10.7102 36.1549 -11.0421 0.216526 0.968951 -0.118982
9.66632 36.3776 -10.973 0.173118 0.972145 -0.156902
8.6853 36.5752 -10.9423 0.186175 0.968975 -0.16245
7.69195 36.7547 -10.9636 0.175898 0.971154 -0.160995
6.71161 36.9258 -10.9653 0.1655 0.976414 -0.138653
5.66212 37.0906 -11.0837 0.157262 0.980348 -0.11911
4.45121 37.2467 -11.132 0.123659 0.985531 -0.115904
3.40732 37.3617 -11.1722 0.101376 0.989552 -0.10252
2.21204 37.4567 -11.3206 0.0865106 0.991087 -0.101253
1.11805 37.5518 -11.0601 0.051051 0.994358 -0.0929072
0.157079 37.5979 -10.8534 0.0126485 0.995854 -0.0900839
-0.785899 37.6282 -10.5785 -0.00700156 0.997684 -0.0658224
-1.82228 37.6566 -9.98874 -0.0186896 0.998693 -0.0357263
-2.97444 37.5896 -9.79266 -0.0873291 0.995867 -0.0249554
-4.21051 37.4721 -9.73483 -0.110872 0.993442 -0.0269096
-5.36341 37.3195 -9.77314 -0.145117 0.989164 -0.0222612
-6.37872 37.1518 -10.0094 -0.164109 0.986201 -0.0218136
-7.61443 36.936 -10.0856 -0.183966 0.98287 -0.0109451
-8.58191 36.7527 -10.3138 -0.194544 0.980852 0.00908375
-9.55763 36.5494 -10.3344 -0.216258 0.976318 0.00603594
-10.5603 36.3229 -10.3241 -0.222419 0.97493 0.00609843
-11.5697 36.0886 -10.3002 -0.233597 0.97219 0.0153432
-12.5393 35.8515 -10.3084 -0.239803 0.970516 0.0243698
-13.7049 35.5574 -10.3237 -0.250032 0.967761 0.0303741
-14.8614 35.253 -10.1855 -0.252424 0.96653 0.0458546
-15.8806 34.9666 -10.0676 -0.26521 0.963013 0.0476209
-17.0761 34.6314 -9.9798 -0.268126 0.961677 0.0569843
-17.97 34.3589 -9.703 -0.280843 0.957366 0.0676505
-18.8981 34.0807 -9.62435 -0.277709 0.957978 0.0715919
-19.8381 33.7852 -9.37014 -0.281463 0.955981 0.082937
-20.9663 33.4134 -9.03681 -0.28991 0.952599 0.0921573
-21.9106 33.0946 -8.77061 -0.296054 0.950422 0.0951359
-22.8977 32.749 -8.41372 -0.297779 0.949371 0.100106
-23.811 32.4292 -8.13696 -0.300558 0.947531 0.108862
-24.7408 32.0947 -7.79756 -0.303556 0.945619 0.11687
-25.7279 31.7155 -7.29244 -0.308402 0.943944 0.11753
-26.7291 31.3298 -6.86413 -0.311292 0.941764 0.127136
-27.748 30.922 -6.38952 -0.317908 0.938847 0.132293
-28.5338 30.5856 -5.8948 -0.318844 0.938302 0.133894
-29.3908 30.2374 -5.49124 -0.316952 0.9381 0.139601
-30.3737 29.807 -4.87905 -0.321862 0.935632 0.144907
-31.1933 29.4479 -4.39081 -0.323859 0.934546 0.14744
-31.9773 29.0878 -3.83584 -0.324756 0.934097 0.14831
-32.7947 28.717 -3.33117 -0.330606 0.931138 0.153886
-33.524 28.3381 -2.60833 -0.330445 0.930708 0.156804
-34.6001 27.7937 -1.66557 -0.332625 0.929676 0.158315
-35.3771 27.3965 -0.983672 -0.33528 0.928532 0.159422
-36.2849 26.9354 -0.220663 -0.337257 0.927437 0.16161
-37.0582 26.5159 0.563215 -0.338982 0.926638 0.162582
-37.6669 26.171 1.25555 -0.339935 0.926025 0.164079
-38.3598 25.7784 2.03374 -0.340928 0.925586 0.164493
-38.921 25.4374 2.78579 -0.341583 0.925269 0.164919
-39.4562 25.105 3.5426 -0.342639 0.924906 0.16476
-40.1375 24.7389 4.17708 -0.343602 0.924622 0.164355
-40.7006 24.3764 5.03925 -0.344187 0.92447 0.16398
-41.3015 24.0028 5.88328 -0.344842 0.924313 0.163489
-41.801 23.6771 6.67081 -0.344872 0.924311 0.163438
-42.2799 23.3598 7.45433 -0.345411 0.924153 0.163192
-42.8053 22.996 8.40465 -0.345689 0.924211 0.162276
-43.2223 22.6851 9.29028 -0.345776 0.924338 0.161364
-43.6887 22.3665 10.1159 -0.345839 0.9244 0.160875
-44.1257 22.0432 11.0347 -0.345908 0.924422 0.1606
-44.4134 21.7728 11.9734 -0.345986 0.924538 0.159761
-44.9418 21.3868 13.0676 -0.346086 0.924583 0.159285
-45.421 20.9771 14.4069 -0.345886 0.924705 0.159006
-45.4804 20.7874 15.3857 -0.34551 0.92499 0.158166
-44.4623 21.0864 15.8602 -0.3452 0.925067 0.15839
-43.4071 21.4127 16.2536 -0.345176 0.925033 0.158643
-42.4235 21.7011 16.7109 -0.344963 0.925092 0.15876
-41.5195 21.9797 17.0512 -0.344817 0.925148 0.15875
-40.4794 22.3034 17.423 -0.345569 0.924814 0.159059
-39.2809 22.6414 18.0551 -0.344637 0.925158 0.159086
-38.2699 22.9639 18.3701 -0.344732 0.925117 0.159117
-37.1676 23.2813 18.9123 -0.344676 0.925136 0.159131
-36.2368 23.5669 19.2685 -0.344656 0.925136 0.159173
-35.3732 23.8225 19.6527 -0.344745 0.925093 0.15923
-34.4452 24.1025 20.0356 -0.344782 0.925079 0.159232
-33.5492 24.3582 20.4904 -0.344852 0.925072 0.159118
-32.586 24.7623 20.2285 -0.344853 0.925087 0.159031
-32.2187 25.0467 19.37 -0.344805 0.925121 0.158933
-31.6911 25.424 18.3188 -0.344199 0.925246 0.159522
-31.2059 25.7732 17.3425 -0.344449 0.924982 0.160506
-30.6392 26.1422 16.4307 -0.344249 0.924977 0.160964
-30.1101 26.5033 15.4927 -0.344794 0.924612 0.161893
-29.3035 26.9634 14.5897 -0.345202 0.924254 0.163064
-28.6553 27.3485 13.7845 -0.34638 0.92356 0.164492
-27.9512 27.7924 12.7797 -0.346515 0.923374 0.165249
-27.1543 28.2468 11.9337 -0.350349 0.92167 0.166675
-26.4395 28.6424 11.2524 -0.353277 0.920706 0.165813
-25.6789 29.0495 10.6101 -0.354212 0.920537 0.164757
-24.8906 29.4694 9.98664 -0.360556 0.917873 0.165841
-24.0623 29.9087 9.34211 -0.362893 0.918046 0.159686
-23.239 30.3221 8.83626 -0.363579 0.917943 0.158714
-22.5109 30.7156 8.24705 -0.368179 0.915932 0.159726
-21.6208 31.155 7.78619 -0.373925 0.915268 0.149882
-20.8185 31.5809 7.18069 -0.372167 0.916931 0.143975
-19.7996 32.0533 6.88018 -0.383413 0.913327 0.137218
-18.7612 32.5636 6.32481 -0.38355 0.914591 0.128112
-17.7392 33.0455 5.94011 -0.382394 0.917021 0.113349
-16.7386 33.5039 5.67046 -0.387936 0.916244 0.100011
-15.8672 33.8903 5.45775 -0.390671 0.916048 0.0902129
-14.9406 34.3127 5.17538 -0.389764 0.918154 0.0709776
-13.9517 34.7197 5.07754 -0.373325 0.926092 0.0546101
-12.6864 35.2379 4.92998 -0.376736 0.924842 0.0521469
-11.7426 35.6215 4.78319 -0.368625 0.928881 0.0354454
-10.5759 36.0617 4.75224 -0.344272 0.938687 0.0185189
-9.30578 36.5222 4.73818 -0.320649 0.947135 -0.0109435
-8.28061 36.8598 4.79211 -0.299715 0.953815 -0.0202136
-7.09304 37.2236 4.87486 -0.284561 0.95812 -0.0320976
-6.06465 37.5086 5.00208 -0.243404 0.968499 -0.0525586
-4.91285 37.7869 5.23604 -0.203689 0.975601 -0.0819383
-3.92028 37.9923 5.38119 -0.184614 0.980805 -0.0627665
-2.73821 38.2143 5.70487 -0.154942 0.986389 -0.055036
-1.70358 38.3824 5.78971 -0.144049 0.987772 -0.0578442
-0.186599 38.5953 6.27743 -0.111876 0.991935 -0.0588902
0.881674 38.7212 6.58263 -0.0916128 0.994394 -0.0527937
1.97173 38.8398 7.00108 -0.0851577 0.995103 -0.050163
3.05869 38.9474 7.29483 -0.0849988 0.995163 -0.0492426
3.99995 39.0481 7.6857 -0.0821027 0.995164 -0.0539215
5.07537 39.1544 7.98655 -0.0820822 0.995006 -0.056795
6.16528 39.2554 8.18732 -0.0908457 0.994924 -0.0432718
7.1636 39.3436 8.03031 -0.0935248 0.993954 -0.0575258
8.31757 39.4623 8.00319 -0.1058 0.992582 -0.0598696
9.00662 39.4738 7.0604 -0.114995 0.989089 -0.0920853
9.73142 39.4835 6.41127 -0.0947756 0.987409 -0.125386
10.3861 39.4298 5.69016 -0.0661355 0.987937 -0.140002
10.9102 39.3184 4.82058 -0.0466798 0.980263 -0.19211
11.3318 39.1339 3.90468 -0.00870359 0.986405 -0.159841
11.9702 38.9196 3.01178 0.0381945 0.969708 -0.241261
12.4234 38.6657 2.05224 0.09322 0.97064 -0.221738
12.9584 38.3872 1.07605 0.0934965 0.968938 -0.228949
13.3916 38.098 0.186782 0.114664 0.951067 -0.286483
14.0606 37.6232 -0.681359 0.269786 0.902834 -0.330494
14.8013 37.0724 -1.72416 0.289067 0.916535 -0.276412
15.0761 36.7501 -2.40779 0.360967 0.865987 -0.336618
17.055 34.0962 -9.82829 0.421054 0.901944 -0.0959698
16.8708 34.2416 -9.27985 0.429329 0.894986 -0.121147
15.8512 34.6645 -9.50583 0.394815 0.912061 -0.110751
15.5253 35.0829 -7.80737 0.387837 0.902391 -0.187812
15.4662 35.2617 -7.05658 0.408157 0.893983 -0.184938
14.527 36.0269 -5.64957 0.354406 0.90177 -0.247402
14.4305 35.6646 -7.23176 0.366808 0.909587 -0.195201
14.5535 35.2854 -8.86975 0.345457 0.923996 -0.163984
14.5631 35.2658 -8.96799 0.343403 0.927989 -0.144609
13.333 35.8219 -8.42157 0.331743 0.926434 -0.177951
13.3336 36.1938 -6.72173 0.330934 0.91627 -0.225679
13.5812 36.5707 -4.92791 0.297107 0.923593 -0.242287
13.6019 36.6068 -4.76525 0.302635 0.919069 -0.252438
12.9863 37.0693 -3.79345 0.269633 0.934013 -0.234345
12.5194 36.8087 -5.31337 0.287619 0.930994 -0.224779
12.2133 36.5102 -6.89171 0.278794 0.934668 -0.220613
11.9973 36.2382 -8.43143 0.2821 0.941166 -0.18608
10.6624 36.5952 -8.46893 0.242347 0.951501 -0.189511
11.0068 36.8533 -6.83974 0.251192 0.942916 -0.218659
11.5022 37.1075 -5.26281 0.244317 0.941593 -0.231758
12.1486 37.353 -3.60415 0.253764 0.940246 -0.227026
12.4538 37.4322 -2.9464 0.245618 0.940387 -0.235254
11.9871 37.7378 -2.11715 0.198182 0.959295 -0.20119
11.2203 37.59 -3.52939 0.202995 0.951479 -0.231258
10.4881 37.4043 -4.97442 0.202768 0.955751 -0.213131
9.76081 37.1539 -6.77418 0.203513 0.956793 -0.207675
9.18021 36.9524 -8.33085 0.182418 0.964496 -0.190974
9.16093 36.9427 -8.39817 0.182418 0.964496 -0.190974
7.65261 37.2 -8.43782 0.163974 0.969546 -0.181915
8.40559 37.3664 -6.94542 0.158304 0.969275 -0.18827
9.12071 37.5429 -5.48108 0.158643 0.971953 -0.17361
10.0334 37.713 -3.84533 0.135536 0.972765 -0.188039
10.8925 37.8738 -2.41913 0.144549 0.971408 -0.188339
11.5364 37.983 -1.40673 0.111132 0.971295 -0.210322
11.015 38.1451 -0.931749 0.110207 0.971356 -0.210529
10.0585 38.0198 -2.21955 0.111229 0.976665 -0.183724
9.03075 37.8554 -3.79802 0.133254 0.974625 -0.179858
8.0808 37.7325 -5.20177 0.110261 0.978802 -0.172595
7.12334 37.5974 -6.65652 0.126046 0.97698 -0.172114
5.88774 37.5268 -7.9208 0.104807 0.983079 -0.150235
5.05607 37.5329 -8.4895 0.109309 0.983946 -0.141071
1.83644 37.769 -8.5208 0.0425178 0.993521 -0.105394
3.32223 37.7701 -7.77845 0.0497693 0.989861 -0.133036
4.82416 37.7809 -6.95053 0.0859003 0.986972 -0.136041
6.09065 37.82 -5.91808 0.0749876 0.98739 -0.139421
7.50584 37.9464 -4.29656 0.0723636 0.986509 -0.146847
8.65371 38.0688 -2.82895 0.0879897 0.981891 -0.167772
9.66406 38.188 -1.51708 0.108609 0.979046 -0.172256
10.74 38.3472 -0.108019 0.0888302 0.976609 -0.195818
10.355 38.5124 0.557667 0.0888355 0.977922 -0.189147
9.14877 38.3412 -0.92622 0.0847461 0.982444 -0.166197
8.04485 38.2253 -2.20314 0.0686633 0.985572 -0.154705
6.93517 38.1087 -3.47343 0.0696683 0.986699 -0.146875
5.72444 38.0125 -4.69595 0.0595836 0.990292 -0.125588
4.42851 37.9674 -5.71467 0.0702228 0.989488 -0.126423
2.98135 37.9505 -6.47578 0.0340837 0.990876 -0.130399
1.48568 37.8938 -7.24691 0.010194 0.996606 -0.0816882
0.0418548 37.8354 -7.99622 -0.0286807 0.996834 -0.0741524
-0.065413 37.8295 -8.03338 -0.0286574 0.996839 -0.0740991
-3.54362 37.6525 -7.31764 -0.114161 0.992042 -0.0531032
-1.72306 37.8122 -7.02282 -0.0670869 0.995703 -0.0638406
-0.156333 37.9318 -6.49343 -0.0460679 0.996315 -0.0723511
1.51324 38.0295 -5.78263 -0.00297764 0.995593 -0.0937322
3.0556 38.1098 -5.08855 0.0344347 0.994583 -0.0980803
4.63079 38.1337 -4.19434 0.0377282 0.993341 -0.108854
6.13164 38.225 -2.94713 0.0454072 0.990744 -0.127924
7.34685 38.3389 -1.67576 0.0448676 0.990148 -0.132643
8.60857 38.4756 -0.31252 0.0342338 0.988808 -0.145215
9.76073 38.6288 0.997551 0.0564948 0.983618 -0.171186
9.85756 38.6435 1.11519 0.0556061 0.984157 -0.168356
9.5996 38.7964 1.9629 0.0181417 0.986366 -0.163566
8.36139 38.6269 0.624075 0.0339533 0.987913 -0.151243
7.06602 38.4736 -0.693306 0.0336416 0.991311 -0.127166
5.7893 38.3612 -1.92807 0.0189126 0.993672 -0.11072
4.25167 38.2616 -3.13132 0.0195518 0.993662 -0.110696
2.64672 38.1992 -4.01256 -0.00813143 0.996944 -0.0776929
0.897828 38.1136 -4.71632 -0.0401348 0.996844 -0.0684878
-0.67615 37.9985 -5.22511 -0.065061 0.99591 -0.0626916
-2.61293 37.8046 -5.79444 -0.099758 0.993669 -0.0516694
-4.73565 37.5257 -6.22198 -0.142327 0.988559 -0.0499456
-6.70779 37.1656 -6.43771 -0.191027 0.981504 -0.0125811
-8.76289 36.7253 -6.49826 -0.220916 0.975281 -0.00478975
-10.6309 36.2742 -6.60605 -0.250523 0.967944 0.0179717
-12.4024 35.8017 -6.66663 -0.262783 0.964612 0.0216495
-14.0208 35.3433 -6.74664 -0.281698 0.958653 0.0403868
-15.6023 34.875 -6.79629 -0.284228 0.957332 0.0522463
-17.1543 34.4087 -6.85195 -0.292676 0.954081 0.0637948
-18.7801 33.9057 -6.92152 -0.299931 0.951014 0.0749217
-19.2801 33.7483 -6.94095 -0.302395 0.95022 0.0750921
-22.1016 32.7518 -6.01707 -0.306738 0.946822 0.0971575
-20.425 33.2916 -5.93679 -0.307757 0.94737 0.0881773
-18.4676 33.9211 -5.85052 -0.309757 0.947527 0.0790082
-16.7767 34.4523 -5.77703 -0.302147 0.95105 0.0648954
-15.2356 34.9296 -5.70844 -0.291795 0.955106 0.0512578
-13.6241 35.414 -5.64421 -0.285585 0.957509 0.040207
-11.8449 35.926 -5.5435 -0.264169 0.964138 0.0255341
-9.9331 36.4392 -5.42977 -0.249777 0.96829 0.00499263
-8.0877 36.8916 -5.30529 -0.235582 0.971765 -0.0131606
-6.48815 37.239 -5.16291 -0.198516 0.979868 -0.0212254
-4.63718 37.5875 -4.90241 -0.156245 0.987374 -0.026072
-2.79887 37.8578 -4.50108 -0.120732 0.991676 -0.0447555
-0.910624 38.0545 -4.04122 -0.0701876 0.995833 -0.0582315
0.678806 38.1872 -3.51724 -0.0493884 0.996824 -0.0624665
2.25188 38.288 -2.91337 -0.00759911 0.995452 -0.0949658
3.88965 38.3732 -2.0705 -0.00328391 0.995757 -0.0919595
5.30645 38.4619 -1.03381 -0.000588461 0.995444 -0.0953455
6.59504 38.5828 0.118206 0.00383218 0.992975 -0.118259
8.032 38.7512 1.45902 0.0116272 0.9902 -0.139168
9.18986 38.9143 2.62818 0.0181341 0.986366 -0.163563
8.74277 39.0079 3.33655 -0.0172638 0.990014 -0.139906
7.50959 38.8386 2.21376 -0.0177151 0.993955 -0.108346
6.15477 38.6774 1.00289 -0.0224042 0.994329 -0.103957
4.83688 38.5463 -0.136274 -0.0186593 0.995939 -0.0880725
3.43164 38.4492 -1.06008 -0.0189145 0.996759 -0.0781932
1.80118 38.3488 -1.89215 -0.0469314 0.997138 -0.0592791
0.168192 38.2198 -2.48062 -0.0668026 0.996677 -0.0466188
-1.58462 38.0514 -2.99739 -0.0839631 0.99568 -0.0396371
-3.20528 37.863 -3.34864 -0.136564 0.990501 -0.0160368
-4.90862 37.5798 -3.69523 -0.175192 0.983968 -0.033382
-6.48799 37.2639 -3.93023 -0.197836 0.979891 -0.0259636
-8.05615 36.9136 -4.11682 -0.248532 0.968602 0.00647414
-9.61741 36.5133 -4.24661 -0.25081 0.968009 0.0072873
-11.2669 36.0651 -4.38116 -0.282699 0.958945 0.0225138
-13.0246 35.5513 -4.52401 -0.288129 0.956987 0.0340184
-14.5993 35.0703 -4.60307 -0.298215 0.953271 0.0484069
-16.2503 34.5491 -4.68485 -0.299988 0.951973 0.0612746
-18.0637 33.9649 -4.77274 -0.312957 0.946719 0.0760336
-19.6116 33.4587 -4.84265 -0.315863 0.945004 0.0848466
-21.4528 32.8535 -4.93104 -0.313378 0.944898 0.0946631
-23.2774 32.2534 -5.02792 -0.316256 0.942173 0.110872
-24.4155 31.8769 -5.0916 -0.320437 0.940214 0.115401
-26.2783 31.1187 -4.16913 -0.325201 0.937045 0.127246
-24.7167 31.6462 -4.07015 -0.324131 0.93839 0.119847
-23.1484 32.1743 -3.96943 -0.321456 0.940497 0.110145
-21.5269 32.7181 -3.88956 -0.317717 0.943011 0.0989266
-19.9508 33.2489 -3.80269 -0.323293 0.941828 0.0918759
-18.2027 33.8333 -3.71535 -0.321071 0.943633 0.0804364
-16.3119 34.4593 -3.62827 -0.319186 0.945285 0.0675082
-14.5476 35.0294 -3.51608 -0.310034 0.949502 0.0482196
-12.7109 35.6043 -3.40241 -0.29559 0.954873 0.0290521
-11.1786 36.0683 -3.27906 -0.275663 0.961006 0.0218567
-9.58863 36.5103 -3.11042 -0.25757 0.966244 0.00541809
-7.72322 36.9932 -2.9235 -0.239754 0.970803 -0.00776277
-6.02995 37.378 -2.67919 -0.200503 0.97963 -0.0111312
-4.44061 37.6938 -2.39286 -0.18263 0.982623 -0.0331243
-2.72638 37.9539 -2.08075 -0.125802 0.991757 -0.0243359
-0.91468 38.172 -1.5826 -0.100762 0.994177 -0.0382085
0.89884 38.3474 -1.00755 -0.0830361 0.995381 -0.0481875
2.4962 38.4719 -0.310743 -0.0409383 0.9976 -0.0558353
3.98385 38.5805 0.513534 -0.0366339 0.996725 -0.0720972
5.39589 38.7159 1.55845 -0.042214 0.99528 -0.0873771
7.01019 38.9039 2.90561 -0.0435091 0.994428 -0.096022
8.23588 39.073 3.99282 -0.0428842 0.991774 -0.120608
7.79005 39.1303 4.71079 -0.0564255 0.993163 -0.102189
6.53802 38.9569 3.65259 -0.0464894 0.993908 -0.0999314
5.01626 38.7777 2.47255 -0.0423536 0.995715 -0.0822103
3.67724 38.6414 1.49563 -0.0442903 0.996612 -0.0693092
2.07432 38.5109 0.685615 -0.058481 0.996496 -0.059799
0.535149 38.3751 0.136935 -0.0821583 0.995354 -0.0502138
-1.07271 38.2046 -0.417257 -0.0950193 0.994661 -0.0402638
-2.74624 37.9821 -0.839193 -0.133823 0.990697 -0.0247208
-4.32889 37.7471 -1.21224 -0.160858 0.986879 -0.0139306
-6.02811 37.3972 -1.49325 -0.220312 0.975298 -0.0159824
-7.71591 37.0059 -1.75571 -0.240088 0.97069 -0.0109233
-9.29701 36.5809 -1.95425 -0.269261 0.963013 0.0102194
-11.2108 36.0276 -2.16791 -0.288082 0.957241 0.0264444
-12.8712 35.5109 -2.3172 -0.302897 0.952234 0.0387928
-14.5077 34.9853 -2.43912 -0.315892 0.947315 0.0529855
-16.2797 34.3962 -2.55598 -0.322578 0.944292 0.0652349
-17.8606 33.8604 -2.64172 -0.32648 0.941557 0.082953
-19.4898 33.3057 -2.72893 -0.323921 0.941954 0.0883062
-21.0903 32.7567 -2.8161 -0.329692 0.938544 0.102172
-22.8038 32.1664 -2.90247 -0.330849 0.937076 0.111479
-24.3464 31.6361 -2.99712 -0.330274 0.936493 0.117896
-25.8805 31.1114 -3.09847 -0.330995 0.934697 0.129555
-27.4288 30.5808 -3.19844 -0.329052 0.934456 0.136073
-27.9729 30.3945 -3.23304 -0.32768 0.934914 0.13624
-29.5452 29.6992 -2.29285 -0.330008 0.932757 0.145115
-27.8381 30.2878 -2.18255 -0.332847 0.932758 0.138474
-26.3219 30.813 -2.08084 -0.332354 0.933994 0.131136
-24.5438 31.4337 -1.96211 -0.335644 0.933581 0.125575
-22.9712 31.9824 -1.86781 -0.336016 0.934495 0.117529
-21.1458 32.6212 -1.76878 -0.333772 0.936517 0.107389
-19.4159 33.2278 -1.67309 -0.331304 0.939136 0.0908856
-17.8016 33.7899 -1.58244 -0.337847 0.937619 0.0820357
-16.1033 34.3798 -1.47974 -0.326196 0.942989 0.0660946
-14.4967 34.926 -1.36693 -0.315931 0.947082 0.0567646
-12.9643 35.4339 -1.23065 -0.312597 0.948889 0.0435016
-11.3845 35.9435 -1.08426 -0.296866 0.954387 0.0318789
-9.58231 36.4861 -0.891966 -0.288395 0.957297 0.0202787
-7.98211 36.932 -0.669785 -0.256213 0.966597 0.00674975
-6.43673 37.3118 -0.430419 -0.227238 0.973836 -0.00265638
-4.72832 37.6823 -0.1274 -0.183154 0.983084 0.000211449
-3.14356 37.9489 0.242698 -0.15028 0.988288 -0.0264996
-1.58915 38.1847 0.655277 -0.127193 0.991064 -0.0401792
0.0520467 38.384 1.17133 -0.0904023 0.994834 -0.0461864
1.68616 38.543 1.6776 -0.066054 0.996454 -0.0521233
3.16201 38.6784 2.40407 -0.0515634 0.996366 -0.0677988
4.55233 38.8253 3.35706 -0.0613094 0.995404 -0.0735629
5.95756 38.9845 4.33956 -0.0624915 0.994655 -0.0822008
7.00318 39.1224 5.17904 -0.0745252 0.993679 -0.0839515
5.93941 39.074 5.50977 -0.0754403 0.994414 -0.0738158
4.59812 38.9134 4.59837 -0.0702463 0.995616 -0.0617653
3.10225 38.7471 3.58304 -0.066325 0.995468 -0.0681488
1.33456 38.5684 2.6762 -0.0872218 0.99504 -0.0478366
-0.392546 38.3775 2.18486 -0.106369 0.993039 -0.0505928
-1.99265 38.1636 1.73114 -0.144302 0.989096 -0.0294149
-3.55101 37.9118 1.30855 -0.164959 0.986086 -0.0205743
-5.26963 37.5822 0.926877 -0.191733 0.981404 -0.00916712
-6.83157 37.2227 0.622328 -0.241579 0.970358 -0.00672587
-8.38982 36.813 0.396671 -0.262254 0.964899 0.0138897
-9.93291 36.36 0.179347 -0.290646 0.956676 0.0172316
-11.4682 35.8804 -0.00534652 -0.313063 0.949069 0.035483
-13.1545 35.3224 -0.175165 -0.323342 0.945207 0.0450887
-14.6961 34.7919 -0.308357 -0.332062 0.941457 0.0582469
-16.3015 34.2287 -0.426221 -0.33408 0.939669 0.0735735
-17.9031 33.661 -0.526963 -0.337847 0.937619 0.0820357
-19.4893 33.0923 -0.620265 -0.340605 0.935646 0.0924959
-21.1241 32.5105 -0.714197 -0.339018 0.934785 0.106035
-22.8052 31.9111 -0.810709 -0.339722 0.933327 0.116149
-24.5853 31.2782 -0.921078 -0.339775 0.932391 0.123288
-26.2078 30.7062 -1.03054 -0.338246 0.931426 0.134296
-27.7492 30.1643 -1.13559 -0.335974 0.931713 0.137954
-29.6849 29.4899 -1.26606 -0.334766 0.930884 0.14624
-31.0993 28.9994 -1.36385 -0.333462 0.930689 0.150402
-32.1927 28.4487 -0.404015 -0.335621 0.929394 0.153578
-30.4368 29.0643 -0.285083 -0.335297 0.930366 0.148308
-28.9213 29.5961 -0.17967 -0.33689 0.930572 0.143322
-27.2952 30.1711 -0.0667649 -0.340864 0.929536 0.140623
-25.5483 30.7923 0.0559954 -0.341732 0.930566 0.1314
-23.771 31.4303 0.175247 -0.34448 0.930534 0.124257
-21.896 32.1069 0.290934 -0.343638 0.932243 0.113297
-20.2326 32.7122 0.391827 -0.347001 0.932437 0.100758
-18.6449 33.2924 0.483069 -0.348916 0.932714 0.0911229
-17.0217 33.8836 0.58017 -0.344111 0.935544 0.0796563
-15.5095 34.4302 0.687027 -0.341629 0.937568 0.0652353
-13.9936 34.9728 0.811144 -0.340831 0.938474 0.0556786
-12.3129 35.558 0.993478 -0.326121 0.94456 0.0380967
-10.7589 36.0778 1.15843 -0.310291 0.950281 0.0261714
-8.81439 36.6798 1.43331 -0.28411 0.958781 0.00445833
-7.06521 37.1712 1.72017 -0.257632 0.966227 -0.00556608
-5.4781 37.5508 2.0386 -0.210567 0.977478 -0.0141022
-3.85378 37.8839 2.40747 -0.185247 0.982234 -0.0299895
-2.20692 38.1726 2.84593 -0.153381 0.987214 -0.0433995
-0.528328 38.4104 3.2654 -0.120934 0.991519 -0.047602
1.19247 38.6095 3.82408 -0.095351 0.994515 -0.0429946
2.42284 38.7458 4.37394 -0.0784487 0.995308 -0.0566428
-13.9281 35.4104 -7.80319 -0.269368 0.962263 0.0385962
-12.9849 35.6703 -7.77407 -0.261248 0.964956 0.0246742
-11.8409 35.9754 -7.73385 -0.254164 0.966932 0.0210683
-10.7644 36.2507 -7.69896 -0.24213 0.970209 0.00825009
-9.80568 36.4868 -7.68283 -0.219639 0.97558 0.00149907
-8.75981 36.7216 -7.65601 -0.217568 0.976044 0.00140905
-8.02144 36.8885 -7.64621 -0.209345 0.97783 -0.00475709
-10.0359 36.2936 2.33821 -0.31147 0.950133 0.0152747
-11.7468 35.7118 2.11169 -0.332926 0.94196 0.0432677
-13.5997 35.0518 1.90539 -0.346225 0.936611 0.0537368
-15.2202 34.4576 1.76602 -0.351578 0.933798 0.0664341
-17.0192 33.7914 1.62923 -0.349251 0.933435 0.0819909
-18.684 33.1723 1.52509 -0.351312 0.931327 0.0959635
-20.3006 32.5677 1.43727 -0.351963 0.929771 0.107925
-21.9139 31.9699 1.33533 -0.349845 0.929352 0.117953
-23.665 31.328 1.22337 -0.34802 0.928707 0.128002
-25.2942 30.7363 1.11228 -0.345985 0.92858 0.134291
-26.9935 30.1233 0.990029 -0.343406 0.928601 0.140611
-28.8367 29.4658 0.859252 -0.339669 0.929629 0.142883
-30.7333 28.7938 0.726482 -0.338426 0.928785 0.151086
-32.5651 28.1468 0.602305 -0.338285 0.928239 0.15471
-33.3194 27.8796 0.555438 -0.337783 0.928136 0.156418
-34.3301 27.3455 1.52974 -0.338356 0.927486 0.159012
-32.5957 27.9632 1.63197 -0.340282 0.927372 0.155528
-30.891 28.5697 1.74808 -0.341176 0.927758 0.151208
-29.2133 29.1675 1.86407 -0.343647 0.927336 0.14817
-27.5982 29.748 1.98132 -0.34455 0.927445 0.145368
-25.9301 30.3532 2.10308 -0.348986 0.926532 0.140526
-24.1007 31.0236 2.23051 -0.352564 0.926369 0.132434
-22.2153 31.7229 2.35757 -0.354091 0.927234 0.121888
-20.5634 32.3443 2.46111 -0.359308 0.926274 0.113638
-18.8125 33.0094 2.55834 -0.357969 0.927937 0.103884
-16.9713 33.7109 2.67901 -0.35838 0.929179 0.0905062
-15.6249 34.2243 2.77032 -0.355711 0.931904 0.0708818
-18.6468 32.9541 3.60609 -0.368181 0.923183 0.110345
-20.2949 32.3157 3.51309 -0.362462 0.924755 0.115976
-21.8884 31.7065 3.41409 -0.361037 0.923829 0.127249
-23.5548 31.0799 3.3024 -0.354317 0.925949 0.130682
-25.4891 30.36 3.16686 -0.352037 0.925752 0.138036
-27.4565 29.6387 3.02539 -0.348604 0.925721 0.146683
-29.2015 29.0069 2.89626 -0.343647 0.927336 0.148171
-31.3205 28.246 2.75029 -0.343055 0.926728 0.153261
-33.0522 27.6261 2.63815 -0.34178 0.926642 0.156593
-34.8245 26.992 2.52914 -0.34056 0.926638 0.159252
-34.97 26.94 2.5205 -0.340562 0.926637 0.159251
-36.1968 26.322 3.47495 -0.34173 0.925871 0.161193
-34.5045 26.929 3.57644 -0.341999 0.926073 0.159452
-32.7143 27.5723 3.68921 -0.342482 0.926247 0.157393
-30.9753 28.1985 3.80376 -0.344045 0.92627 0.15381
-28.8942 28.9516 3.94921 -0.347536 0.925523 0.150417
-27.1103 29.603 4.08037 -0.35077 0.924604 0.148555
-25.2548 30.2897 4.2119 -0.35333 0.924533 0.142815
-23.6634 30.8861 4.32897 -0.359594 0.922442 0.14069
-21.9294 31.5477 4.43687 -0.364262 0.921704 0.133323
-20.9613 31.9219 4.50161 -0.368374 0.92083 0.127953
-22.6753 31.1089 5.41224 -0.364995 0.920143 0.141827
-24.3146 30.482 5.30672 -0.358803 0.921803 0.146763
-26.0096 29.8466 5.18426 -0.354808 0.923213 0.147608
-27.6431 29.242 5.06637 -0.351856 0.92371 0.151515
-29.2389 28.6576 4.9507 -0.348298 0.924879 0.152602
-30.8667 28.0658 4.83791 -0.34593 0.925283 0.155514
-32.6674 27.4143 4.72032 -0.344789 0.92538 0.157456
-34.4105 26.7854 4.61034 -0.343202 0.92552 0.160078
-36.0771 26.1853 4.5094 -0.34263 0.925489 0.161478
-37.0068 25.851 4.45427 -0.342703 0.925315 0.162317
-37.7793 25.3923 5.4346 -0.343549 0.924936 0.162688
-36.1534 25.979 5.53141 -0.343618 0.925131 0.161427
-34.2542 26.6645 5.64685 -0.343804 0.925363 0.159694
-32.6132 27.2586 5.75032 -0.345222 0.925125 0.158004
-30.9255 27.8715 5.85988 -0.346848 0.924611 0.157452
-29.3068 28.4624 5.96991 -0.349525 0.924015 0.155009
-27.7088 29.0499 6.08639 -0.351069 0.923687 0.153472
-26.1016 29.6469 6.19956 -0.356049 0.921972 0.152306
-24.1437 30.3849 6.33806 -0.362324 0.91974 0.150996
-25.6239 29.6559 7.2533 -0.357231 0.921194 0.154235
-27.3245 29.0211 7.1357 -0.353932 0.922264 0.155441
-29.4618 28.2328 6.98378 -0.350007 0.923612 0.15632
-31.098 27.6338 6.87327 -0.347699 0.924179 0.15811
-32.7895 27.0184 6.76459 -0.346185 0.924548 0.159269
-34.4919 26.4006 6.65784 -0.344742 0.924866 0.16055
-36.2434 25.7673 6.551 -0.344403 0.924819 0.161545
-37.8521 25.1858 6.45498 -0.343641 0.924906 0.162664
-38.5026 24.9508 6.4163 -0.343879 0.924767 0.16295
-39.4027 24.4451 7.38613 -0.344336 0.924673 0.16252
-37.6523 25.0783 7.49014 -0.344243 0.924775 0.162135
-35.9266 25.7033 7.59364 -0.344782 0.924764 0.161052
-34.3319 26.281 7.69246 -0.345318 0.924711 0.160202
-32.6792 26.8816 7.79594 -0.346349 0.924384 0.159863
-30.9307 27.5193 7.90823 -0.348402 0.923749 0.159069
-29.2784 28.1256 8.01926 -0.350398 0.92303 0.158862
-27.4607 28.7968 8.1451 -0.353181 0.922245 0.157248
-26.8068 29.0399 8.19077 -0.35362 0.921867 0.158475
-28.0057 28.4186 9.12661 -0.352668 0.922017 0.159719
-29.6847 27.8001 9.01252 -0.350288 0.92292 0.159738
-31.3734 27.1813 8.90144 -0.347912 0.923885 0.159355
-32.9679 26.5995 8.80069 -0.346767 0.92415 0.160308
-34.5918 26.0093 8.69959 -0.345633 0.924513 0.160666
-36.4255 25.3441 8.58649 -0.345233 0.924635 0.160826
-38.2625 24.6786 8.47652 -0.344496 0.924772 0.161612
-39.4968 24.2315 8.40334 -0.344731 0.924553 0.162364
-40.523 23.6803 9.36521 -0.345124 0.924582 0.161364
-38.9228 24.2606 9.46001 -0.344971 0.924619 0.161476
-37.2427 24.8697 9.56003 -0.344864 0.924751 0.16095
-35.3012 25.5739 9.67885 -0.345321 0.924583 0.160932
-33.535 26.2157 9.78805 -0.346088 0.924416 0.160243
-31.6353 26.9083 9.90656 -0.347708 0.923738 0.160645
-29.9651 27.5196 10.0142 -0.349104 0.923122 0.16116
-28.7281 27.9743 10.0975 -0.351156 0.922393 0.160872
-29.7713 27.4121 11.0476 -0.348783 0.923016 0.162457
-31.4446 26.8002 10.9404 -0.347491 0.923737 0.161117
-33.0362 26.22 10.84 -0.346464 0.924186 0.160759
-34.7231 25.6061 10.7369 -0.34594 0.924378 0.160782
-36.3755 25.006 10.6361 -0.345312 0.92461 0.160797
-38.184 24.3504 10.5264 -0.344919 0.924725 0.16098
-40.1372 23.6419 10.4104 -0.344826 0.924727 0.16117
-41.0073 23.3264 10.3587 -0.345112 0.924641 0.161049
-41.5685 22.9448 11.3473 -0.345447 0.924615 0.160477
-39.6197 23.6521 11.463 -0.344854 0.924845 0.160427
-37.8558 24.2917 11.5688 -0.345007 0.924791 0.160411
-36.0628 24.9421 11.6766 -0.345397 0.924632 0.160488
-34.4095 25.5426 11.7773 -0.345877 0.924422 0.160664
-32.2538 26.3272 11.9106 -0.346443 0.924136 0.161092
-30.5209 26.9589 12.0206 -0.347384 0.923582 0.162236
-30.3547 27.0196 12.0311 -0.347697 0.923392 0.162649
-31.2639 26.5094 12.9928 -0.346643 0.923917 0.161912
-32.9564 25.8935 12.8877 -0.346275 0.924239 0.160863
-34.6019 25.2955 12.787 -0.345748 0.924585 0.160003
-36.2155 24.7094 12.6892 -0.344796 0.924938 0.16002
-37.9239 24.09 12.5865 -0.345101 0.924784 0.160248
-39.9344 23.3608 12.4663 -0.344941 0.924904 0.1599
-41.5694 22.7674 12.3691 -0.345237 0.924764 0.160073
-41.8974 22.6484 12.3496 -0.345328 0.924714 0.160164
-42.1333 22.3862 13.3574 -0.345343 0.924802 0.159621
-40.4709 22.9895 13.4563 -0.345051 0.92489 0.159742
-38.7811 23.6023 13.557 -0.344993 0.924911 0.159748
-36.8596 24.2992 13.6723 -0.345049 0.924886 0.159771
-35.0111 24.9699 13.7836 -0.345525 0.924636 0.16019
-33.2027 25.6266 13.894 -0.345479 0.92462 0.160384
-32.05 26.0453 13.965 -0.345685 0.924417 0.161108
-32.6593 25.6465 14.9483 -0.34518 0.924685 0.160648
-34.38 25.0223 14.8434 -0.345242 0.924753 0.160124
-36.1477 24.3809 14.7365 -0.345103 0.924895 0.159606
-37.7647 23.7945 14.6395 -0.345094 0.924872 0.159758
-39.4865 23.1702 14.5366 -0.34489 0.925016 0.159364
-41.2227 22.5405 14.4333 -0.34494 0.924998 0.15936
-41.4231 22.4678 14.4214 -0.345013 0.924968 0.159376
-38.7654 23.2556 15.6013 -0.344873 0.925045 0.159231
-37.1103 23.8556 15.7003 -0.344907 0.924991 0.15947
-35.4041 24.4742 15.8028 -0.345057 0.924887 0.159752
-33.7398 25.0777 15.9032 -0.345061 0.924838 0.160026
-33.4338 25.1887 15.9217 -0.345091 0.924791 0.160228
-33.9703 24.8177 16.9103 -0.344824 0.924991 0.159651
-35.6399 24.2126 16.81 -0.344849 0.925002 0.159531
-35.8134 24.1497 16.7996 -0.344849 0.925002 0.159529
