10.7936 37.2582 -8.24217 0.228789 0.948929 -0.21635
9.59063 37.5158 -8.26261 0.18749 0.960212 -0.206485
8.10552 37.7601 -8.35816 0.158579 0.967935 -0.194736
6.71904 37.9695 -8.35706 0.145295 0.972301 -0.183086
5.61807 38.0784 -8.43752 0.110162 0.982347 -0.151054
4.45623 38.1822 -8.58114 0.0822174 0.986791 -0.138174
3.27357 38.2587 -8.59596 0.0579646 0.990693 -0.1219
1.76022 38.3223 -8.60472 0.030087 0.994181 -0.102553
0.622341 38.3589 -8.516 0.0226342 0.994885 -0.0978497
-0.667256 38.3699 -8.1238 -0.0392346 0.995446 -0.0868811
-1.78266 38.3235 -7.87623 -0.0645348 0.995456 -0.0700247
-2.96387 38.245 -7.73944 -0.0908266 0.994021 -0.0606065
-4.34189 38.0905 -7.71622 -0.121808 0.992035 -0.0320776
-5.40382 37.941 -7.83058 -0.168045 0.985454 -0.0252974
-6.66804 37.7219 -7.86583 -0.175074 0.984209 -0.0261165
-7.81515 37.4938 -8.07986 -0.204496 0.97884 -0.00726698
-9.17002 37.2048 -8.21058 -0.212507 0.977155 -0.00283878
-10.4807 36.9049 -8.29641 -0.232497 0.972567 0.00758661
-11.6161 36.626 -8.28958 -0.248969 0.968346 0.0178869
-12.7776 36.3198 -8.13985 -0.252455 0.967317 0.0237442
-14.0762 35.965 -8.01764 -0.259094 0.96536 0.0308176
-15.2612 35.6239 -7.95244 -0.277724 0.959704 0.0428716
-16.4768 35.26 -7.77931 -0.285437 0.956592 0.0588089
-17.5901 34.9218 -7.65405 -0.284968 0.956221 0.0665859
-18.6373 34.5838 -7.38429 -0.294951 0.95253 0.0754281
-19.8785 34.1673 -7.04641 -0.298165 0.951015 0.0816548
-20.8906 33.8189 -6.75858 -0.302392 0.948815 0.0910572
-21.9582 33.4443 -6.45979 -0.306851 0.946683 0.0981489
-23.1666 33.0064 -6.04187 -0.310876 0.94458 0.105472
-24.2148 32.6038 -5.57569 -0.315039 0.942146 0.1145
-25.5703 32.0818 -5.0497 -0.320821 0.939087 0.123249
-26.4977 31.7009 -4.55845 -0.319535 0.939072 0.126583
-27.4247 31.323 -4.13076 -0.32443 0.936917 0.130095
-28.3273 30.9368 -3.63002 -0.326522 0.935302 0.13634
-29.4328 30.445 -2.93075 -0.328206 0.933719 0.143002
-30.4897 29.9639 -2.23591 -0.331673 0.932141 0.145283
-31.3854 29.5572 -1.68357 -0.333508 0.930815 0.149523
-32.3345 29.0972 -0.946138 -0.335329 0.929699 0.152351
-33.2413 28.6326 -0.121186 -0.336268 0.92896 0.154776
-34.2829 28.1142 0.708512 -0.337789 0.927847 0.158112
-34.9981 27.729 1.43767 -0.338613 0.927381 0.159075
-35.7682 27.3289 2.12042 -0.340157 0.926565 0.160534
-36.5004 26.9283 2.8748 -0.341096 0.926103 0.161205
-37.4323 26.3806 4.03648 -0.342049 0.925497 0.162661
-38.1897 25.9366 4.96671 -0.343021 0.925073 0.163024
-38.9108 25.5241 5.78778 -0.343669 0.924852 0.162911
-39.5767 25.0935 6.82638 -0.344219 0.924677 0.162747
-40.2091 24.6489 8.01516 -0.344632 0.924564 0.162514
-40.9703 24.1752 9.09658 -0.344897 0.924583 0.161844
-41.6108 23.7455 10.1872 -0.345139 0.924596 0.161247
-42.0674 23.4079 11.147 -0.345432 0.924618 0.160494
-42.5211 23.0753 12.0883 -0.345232 0.92477 0.160049
-43.0048 22.6939 13.2496 -0.345523 0.924738 0.159604
-42.8416 22.5666 14.3422 -0.345376 0.924854 0.159249
-41.7037 22.895 14.9018 -0.345036 0.924994 0.159174
-40.6455 23.2229 15.2892 -0.344897 0.925052 0.159136
-39.4449 23.5803 15.8131 -0.344839 0.925057 0.159235
-38.3524 23.902 16.3097 -0.344812 0.925074 0.159194
-37.0738 24.298 16.7785 -0.344762 0.92507 0.159325
-35.7853 24.6891 17.2963 -0.344863 0.925041 0.159276
-34.7789 24.9783 17.7956 -0.344733 0.925057 0.159465
-33.8525 25.3459 17.6657 -0.344728 0.925057 0.159472
-33.3416 25.6965 16.7374 -0.344927 0.92491 0.159897
-32.7923 26.0736 15.7426 -0.345162 0.924751 0.160306
-32.1314 26.4826 14.8097 -0.345286 0.924598 0.160925
-31.4356 26.899 13.9137 -0.346161 0.924225 0.161186
-30.8358 27.2839 12.9981 -0.346427 0.924011 0.161842
-30.0955 27.7098 12.157 -0.347345 0.923587 0.162293
-29.2644 28.196 11.1777 -0.349098 0.922886 0.162517
-28.6067 28.5851 10.3864 -0.350669 0.922429 0.161728
-27.6796 29.1053 9.43676 -0.353101 0.921679 0.160706
-26.7515 29.5897 8.69579 -0.35575 0.920988 0.158816
-25.7905 30.09 7.9451 -0.358269 0.920157 0.157955
-24.9069 30.5482 7.27084 -0.358142 0.920961 0.153507
-24.1176 30.9566 6.66085 -0.361365 0.920265 0.150093
-23.1926 31.4172 6.05655 -0.364266 0.920023 0.144456
-22.2006 31.8832 5.59599 -0.367188 0.919477 0.140479
-21.2059 32.3547 5.08273 -0.368315 0.920311 0.131757
-20.1049 32.8655 4.56406 -0.369764 0.920874 0.123525
-19.0563 33.3457 4.06082 -0.366136 0.923678 0.112971
-18.0558 33.7784 3.78931 -0.37304 0.921771 0.105691
-17.0537 34.1957 3.56122 -0.369393 0.92476 0.0912798
-16.0483 34.6209 3.29109 -0.370681 0.925043 0.0829797
-14.8654 35.101 3.02462 -0.362934 0.929319 0.0680414
-13.7687 35.5324 2.82513 -0.354466 0.933184 0.059284
-12.5466 35.991 2.67441 -0.340096 0.939347 0.0442928
-11.305 36.4351 2.71224 -0.332778 0.942532 0.0298655
-10.1836 36.8132 2.60741 -0.303448 0.952711 0.010097
-8.93391 37.1973 2.62205 -0.286148 0.958083 0.00888629
-7.63108 37.5739 2.80414 -0.269764 0.96287 -0.00509735
-6.2842 37.9201 2.94471 -0.241145 0.97036 -0.0158225
-5.11246 38.1944 3.06219 -0.205325 0.978471 -0.0208837
-4.07708 38.4096 3.28243 -0.191835 0.980939 -0.0309593
-2.84314 38.6328 3.62914 -0.15528 0.986835 -0.0452241
-1.4965 38.84 3.80939 -0.128805 0.991035 -0.0354793
-0.432625 38.9839 4.07283 -0.114491 0.992555 -0.0415124
0.767634 39.1317 4.49411 -0.100848 0.993928 -0.0439566
1.84241 39.256 4.88745 -0.0987809 0.994234 -0.0417331
2.89749 39.3664 5.23968 -0.0835602 0.995692 -0.0401805
4.05179 39.4828 5.65363 -0.0821181 0.995543 -0.046367
5.38879 39.6165 6.07926 -0.0830957 0.995178 -0.052111
6.45557 39.7281 6.44136 -0.101398 0.993055 -0.0596619
7.74181 39.8902 6.87646 -0.105674 0.991532 -0.0754773
8.37597 39.9383 6.55728 -0.131811 0.988424 -0.0751256
8.32424 39.811 5.20302 -0.0853661 0.992479 -0.087743
8.59814 39.7188 4.16922 -0.0637973 0.990665 -0.120463
9.11627 39.6138 3.09872 -0.0388862 0.990103 -0.13485
9.81275 39.4147 1.73473 0.00541591 0.986198 -0.165201
10.442 39.1699 0.462434 0.0618232 0.981523 -0.181082
10.9573 38.9556 -0.464257 0.0678734 0.977645 -0.199008
11.6662 38.642 -1.59058 0.118583 0.967396 -0.222636
12.2831 38.3397 -2.47106 0.160462 0.962914 -0.216909
12.8727 37.9473 -3.45441 0.251702 0.929383 -0.268721
13.5764 37.4073 -4.52593 0.314486 0.908995 -0.273543
14.2361 36.9023 -5.47725 0.348156 0.902136 -0.254829
14.789 36.4492 -6.34734 0.379991 0.896426 -0.228096
15.4277 35.9157 -7.40018 0.400125 0.895612 -0.19409
16.1408 35.3856 -8.47802 0.408008 0.898645 -0.161115
15.9032 35.4237 -8.86732 0.408004 0.898646 -0.16112
14.9051 35.8611 -8.77344 0.37061 0.912135 -0.175093
13.8431 36.2798 -8.66443 0.330886 0.921969 -0.200294
12.6054 36.6946 -8.57659 0.271029 0.941779 -0.198981
11.418 37.0621 -8.38817 0.246544 0.950114 -0.191047
11.2983 37.0988 -8.36036 0.247176 0.947249 -0.203611
11.033 36.9578 -9.3816 0.234416 0.953252 -0.190681
9.82212 37.2499 -9.29758 0.20825 0.957997 -0.197163
8.75214 37.4396 -9.39998 0.178894 0.965234 -0.190499
7.57695 37.6428 -9.41248 0.161834 0.969408 -0.184548
6.50772 37.8075 -9.42524 0.136591 0.975238 -0.173934
5.27962 37.9574 -9.5056 0.123607 0.981393 -0.146847
4.04066 38.0612 -9.63415 0.0945366 0.986877 -0.130754
2.58878 38.1714 -9.63554 0.0711378 0.991745 -0.106654
1.21632 38.2227 -9.73354 0.0417643 0.994604 -0.0949637
0.18768 38.2715 -9.43563 0.0123728 0.99723 -0.0733433
-1.29792 38.2741 -9.08759 -0.0228277 0.997404 -0.0682909
-2.66229 38.2145 -8.80045 -0.0613965 0.996992 -0.0450567
-3.9039 38.1056 -8.74854 -0.11354 0.992667 -0.0414921
-5.02929 37.9646 -8.80621 -0.131055 0.990686 -0.0369309
-6.11982 37.7928 -8.84609 -0.166081 0.985802 -0.0244912
-7.25809 37.5905 -9.08149 -0.183354 0.982831 -0.020632
-8.47072 37.3507 -9.22447 -0.202812 0.979217 0.00105898
-9.77257 37.0719 -9.34426 -0.217749 0.975924 0.0125823
-11.0824 36.7726 -9.42549 -0.229849 0.973132 0.013524
-12.258 36.483 -9.34606 -0.245374 0.969216 0.0202753
-13.4033 36.184 -9.1741 -0.254789 0.966519 0.0304012
-14.6803 35.84 -9.08835 -0.262795 0.964188 0.0356851
-16.0417 35.4494 -8.92826 -0.273994 0.960478 0.049086
-17.3612 35.0628 -8.77652 -0.277734 0.958324 0.0669303
-18.4366 34.736 -8.59526 -0.281955 0.95656 0.0741255
-19.7115 34.3115 -8.11469 -0.295933 0.951894 0.0794311
-21.0325 33.8789 -7.87592 -0.298306 0.950466 0.087335
-22.0241 33.5321 -7.53296 -0.300361 0.949133 0.0944978
-23.0533 33.181 -7.32303 -0.302545 0.947319 0.105138
-24.1892 32.7465 -6.72687 -0.307111 0.944804 0.114142
-25.3866 32.3061 -6.339 -0.311862 0.942238 0.122186
-26.5125 31.8623 -5.8072 -0.314726 0.940433 0.128585
-27.5815 31.4255 -5.2577 -0.318567 0.938826 0.130848
-28.4801 31.052 -4.78454 -0.320824 0.937322 0.135977
-29.5936 30.5801 -4.19837 -0.323087 0.935501 0.14301
-30.401 30.1896 -3.48557 -0.327283 0.933778 0.144708
-31.4486 29.7386 -2.95832 -0.328213 0.932597 0.15013
-32.3845 29.3009 -2.30193 -0.33113 0.931137 0.152753
-33.3695 28.8113 -1.46551 -0.332871 0.930244 0.154405
-34.2724 28.3504 -0.659712 -0.335408 0.92884 0.157345
-35.1008 27.9412 -0.0178057 -0.336723 0.928116 0.158802
-35.8705 27.5109 0.852425 -0.337898 0.927457 0.160151
-36.757 27.0597 1.5832 -0.340079 0.92638 0.16176
-37.4358 26.6777 2.33821 -0.341332 0.92576 0.162667
-38.2613 26.1922 3.36643 -0.341621 0.925467 0.163723
-38.9689 25.7683 4.28282 -0.342595 0.92506 0.163987
-39.6687 25.3758 5.03334 -0.343491 0.924735 0.163945
-40.342 24.9437 6.06004 -0.344107 0.924577 0.163548
-40.928 24.5189 7.23012 -0.344649 0.924525 0.162699
-41.5741 24.1267 8.0894 -0.345164 0.924351 0.162595
-42.1856 23.7354 9.01639 -0.345486 0.92434 0.161971
-42.8773 23.2335 10.4104 -0.345284 0.924581 0.161023
-43.3888 22.8502 11.5156 -0.345653 0.924561 0.160348
-43.843 22.5007 12.5542 -0.345797 0.924635 0.159607
-44.2734 22.1598 13.5995 -0.345639 0.924771 0.159164
-44.3217 21.9318 14.8208 -0.345439 0.924904 0.15882
-42.8087 22.3944 15.4155 -0.345187 0.925004 0.158788
-41.662 22.7229 15.9925 -0.344887 0.925058 0.159126
-40.5261 23.0661 16.4592 -0.344805 0.925125 0.158912
-39.4606 23.3878 16.8979 -0.344715 0.925124 0.159115
-38.498 23.6739 17.32 -0.34476 0.925115 0.15907
-37.4388 23.9984 17.7284 -0.344713 0.925119 0.159148
-36.3793 24.3268 18.1148 -0.344787 0.925103 0.159078
-35.2061 24.6634 18.6996 -0.344726 0.925101 0.159225
-34.0024 25.0168 19.2523 -0.344753 0.925096 0.159196
-33.1448 25.4041 18.8585 -0.344774 0.925065 0.15933
-32.5903 25.8174 17.6592 -0.344635 0.925061 0.159651
-32.1516 26.1411 16.7332 -0.344767 0.924893 0.160338
-31.4872 26.5711 15.6833 -0.344775 0.924769 0.161037
-30.8367 26.9637 14.8257 -0.345265 0.924402 0.16209
-30.0708 27.4536 13.6661 -0.346346 0.92388 0.162755
-29.3932 27.8398 12.9207 -0.347795 0.923125 0.163949
-28.6922 28.2364 12.1752 -0.348819 0.922782 0.163703
-28.0661 28.6307 11.2926 -0.350597 0.922208 0.163138
-27.3293 29.0382 10.5778 -0.35166 0.921548 0.164575
-26.2029 29.6488 9.57434 -0.355752 0.920221 0.163192
-25.0355 30.2507 8.72843 -0.360092 0.919354 0.158499
-24.1128 30.7326 8.02788 -0.363033 0.918886 0.154451
-23.2082 31.2131 7.28942 -0.366434 0.918192 0.1505
-22.2408 31.6778 6.81589 -0.371031 0.917318 0.144439
-21.2843 32.1435 6.31125 -0.371508 0.917999 0.138776
-20.3079 32.6072 5.85273 -0.374895 0.917803 0.130682
-19.219 33.1252 5.30596 -0.377671 0.917995 0.120915
-18.1178 33.6268 4.89457 -0.372494 0.921793 0.107409
-17.1099 34.0618 4.69856 -0.380153 0.92003 0.0946983
-16.1146 34.4928 4.42535 -0.371626 0.924314 0.0866696
-15.0933 34.9244 4.20893 -0.378334 0.922675 0.07428
-13.9767 35.3855 3.9444 -0.360573 0.930634 0.0619326
-12.658 35.8987 3.77631 -0.352293 0.934442 0.0516234
-11.4547 36.345 3.83029 -0.35141 0.935794 0.0281209
-10.3178 36.754 3.69108 -0.313965 0.949434 0.000425235
-9.23476 37.1047 3.64515 -0.29706 0.954832 -0.00711135
-8.05513 37.4645 3.8614 -0.282893 0.958948 -0.0164758
-6.84157 37.7994 3.92783 -0.242186 0.970059 -0.0181957
-5.76333 38.0737 4.04407 -0.241827 0.969266 -0.0446205
-4.43404 38.3723 4.31123 -0.207026 0.977515 -0.0383174
-3.30265 38.6046 4.64119 -0.157955 0.986642 -0.0398403
-2.19949 38.7772 4.81259 -0.142858 0.988917 -0.0404381
-1.14431 38.9326 5.02711 -0.125774 0.99098 -0.0462588
0.0658338 39.0943 5.33146 -0.113097 0.9927 -0.0416715
1.31142 39.2467 5.84296 -0.0953513 0.994405 -0.0454578
2.47853 39.3734 6.22709 -0.0895951 0.995081 -0.0422691
3.5876 39.4912 6.65386 -0.0873122 0.995242 -0.0431767
4.92382 39.6232 7.05429 -0.0857342 0.995423 -0.042209
6.28658 39.7647 7.50137 -0.0933348 0.994661 -0.0440341
7.6717 39.9396 7.96077 -0.126216 0.991099 -0.0423459
8.68467 40.0934 8.33622 -0.14298 0.988586 -0.0474926
9.76092 40.2897 8.89476 -0.166687 0.984796 -0.04892
10.7575 40.5033 9.35026 -0.20682 0.977782 -0.0341865
11.5997 40.6886 9.38579 -0.226631 0.972887 -0.0452507
10.9015 40.487 8.52674 -0.188626 0.980017 -0.0627393
10.1654 40.289 7.6995 -0.186012 0.979583 -0.076267
9.49831 40.0889 6.62987 -0.127494 0.985814 -0.109161
9.2849 39.9483 5.55324 -0.105935 0.98699 -0.118533
9.55222 39.8294 4.48685 -0.0868785 0.987688 -0.130094
10.2235 39.7018 3.39085 -0.0210723 0.985734 -0.166989
10.8298 39.467 2.083 0.011264 0.983667 -0.179636
11.2976 39.2529 1.10127 0.0584457 0.977231 -0.203698
11.865 39.0066 0.128928 0.0748705 0.972068 -0.222435
12.4808 38.6961 -0.878365 0.129063 0.963269 -0.235491
13.1839 38.2902 -1.9358 0.195718 0.953655 -0.228523
13.7291 37.8719 -2.82599 0.309526 0.90689 -0.285873
14.3237 37.4065 -3.65992 0.366197 0.884263 -0.289404
14.9578 36.8856 -4.50672 0.376519 0.886121 -0.269774
15.5388 36.3958 -5.31716 0.409084 0.875626 -0.256744
15.9744 35.955 -6.19759 0.404104 0.888286 -0.218285
16.5916 35.4472 -7.10864 0.41508 0.887592 -0.199723
17.2739 34.9018 -8.17857 0.44103 0.882183 -0.16506
17.8127 34.4721 -9.16636 0.442058 0.887756 -0.12835
18.1175 34.1935 -10.1678 0.458832 0.882418 -0.103975
17.0747 34.6968 -10.3154 0.419208 0.902017 -0.101821
16.0376 35.1791 -10.1198 0.398128 0.910354 -0.112914
14.8419 35.7088 -9.86005 0.351446 0.924571 -0.144587
13.8344 36.0821 -9.74259 0.319279 0.932935 -0.16523
12.801 36.4242 -9.62757 0.271121 0.94714 -0.17138
11.7441 36.7434 -9.53101 0.260633 0.947461 -0.185433
11.173 36.9175 -9.4105 0.234414 0.953252 -0.190685
10.8588 36.7979 -10.447 0.240045 0.954362 -0.177682
12.3055 36.3886 -10.6784 0.259671 0.953655 -0.152033
13.8451 35.9043 -10.8903 0.301653 0.945282 -0.124144
14.8975 35.5506 -10.9821 0.318166 0.942328 -0.10387
15.9563 35.0871 -11.2624 0.368736 0.925715 -0.0792592
16.9438 34.6655 -11.3859 0.418069 0.907041 -0.048933
17.8873 34.2121 -11.7087 0.432278 0.901006 -0.025968
18.9748 33.6638 -11.4081 0.465396 0.884718 -0.023258
19.2849 33.54 -10.4248 0.49791 0.865501 -0.0547221
18.886 33.8934 -9.29813 0.486863 0.866772 -0.108032
18.4597 34.2906 -8.16717 0.467865 0.870259 -0.154117
17.8305 34.8209 -7.1404 0.459847 0.871405 -0.17086
17.2574 35.3213 -6.22759 0.439258 0.870433 -0.222258
16.7114 35.8275 -5.35212 0.434857 0.865357 -0.249112
16.1783 36.3561 -4.45435 0.398234 0.875809 -0.272703
15.4318 37.0142 -3.3996 0.40935 0.869076 -0.277709
14.8598 37.538 -2.6492 0.349222 0.866061 -0.350762
14.278 38.0686 -1.70995 0.29635 0.896937 -0.326399
13.6968 38.5286 -0.798558 0.16839 0.917772 -0.349921
13.0996 38.8824 0.131363 0.0748465 0.957253 -0.279402
12.4353 39.2444 1.33458 0.0376419 0.971266 -0.235
11.9002 39.4887 2.27241 0.0222981 0.97614 -0.215939
11.4336 39.7316 3.33667 -0.0713295 0.974113 -0.214515
10.8692 39.8804 4.27241 0.00176734 0.982788 -0.183408
10.3408 40.0015 5.24418 -0.0856824 0.986403 -0.139928
10.497 40.1923 6.35447 -0.12571 0.972322 -0.196946
11.2605 40.4627 7.24024 -0.203497 0.975521 -0.0833555
11.9819 40.6946 8.09121 -0.218707 0.972632 -0.078451
12.6217 40.9048 8.95904 -0.236728 0.970173 -0.0519893
13.3057 41.1296 9.89508 -0.260918 0.96426 -0.0429875
13.9719 41.3418 10.9606 -0.269571 0.9627 -0.0221054
14.2694 41.4418 11.9579 -0.272172 0.962112 -0.0162191
13.6912 41.2798 12.2655 -0.273781 0.961774 -0.0029052
12.7885 41.032 11.5183 -0.259948 0.965599 0.00110116
11.7987 40.7789 10.9635 -0.236158 0.971502 -0.0195278
10.8192 40.5511 10.5914 -0.216762 0.976048 -0.0182962
9.78871 40.3337 10.093 -0.184054 0.982683 -0.0197542
8.59592 40.1145 9.45499 -0.16108 0.986868 -0.0120145
7.46115 39.9492 8.98691 -0.131969 0.991098 -0.0175599
6.19476 39.7954 8.64333 -0.112161 0.993146 -0.0328709
5.08979 39.6868 8.36758 -0.0804668 0.996282 -0.030768
3.91715 39.5705 7.83987 -0.0869734 0.99533 -0.0418106
2.84791 39.461 7.53584 -0.0895251 0.995305 -0.0367173
1.80126 39.3508 7.11196 -0.0881552 0.995109 -0.0442259
0.539252 39.2082 6.7151 -0.10206 0.993573 -0.0489617
-0.807912 39.0342 6.2778 -0.123552 0.990916 -0.0531009
-2.29902 38.8146 5.88344 -0.146351 0.986586 -0.0723137
-3.42457 38.6356 5.70448 -0.162821 0.984858 -0.057128
-4.49018 38.4196 5.38805 -0.185496 0.980841 -0.059518
-5.68259 38.1489 5.17711 -0.229371 0.971224 -0.0641308
-6.88309 37.8285 4.94159 -0.252114 0.966683 -0.043904
-8.03471 37.4932 4.92292 -0.296227 0.953997 -0.043425
-9.17128 37.1339 4.7885 -0.295543 0.955286 -0.00912314
-10.3549 36.7351 4.79434 -0.344133 0.938919 0.00182477
-11.4485 36.3185 4.89219 -0.356974 0.933961 0.0169113
-12.9506 35.7365 4.85617 -0.371808 0.9273 0.0419313
-14.1696 35.2356 5.0991 -0.369643 0.927595 0.0539304
-15.4283 34.6976 5.3607 -0.391866 0.917403 0.0680158
-16.4072 34.263 5.57898 -0.388993 0.916733 0.0908065
-17.5593 33.736 5.92464 -0.388738 0.914713 0.110149
-18.6611 33.2337 6.25677 -0.382711 0.916194 0.118832
-19.9506 32.6084 6.88053 -0.377907 0.91653 0.130991
-20.9441 32.1169 7.37522 -0.374128 0.915764 0.146299
-22.0447 31.5782 7.90257 -0.3752 0.914384 0.152054
-22.9962 31.0739 8.62227 -0.366231 0.917281 0.156416
-24.0204 30.5529 9.28796 -0.362992 0.918051 0.159432
-24.9291 30.0723 9.98481 -0.359929 0.918697 0.162627
-25.7935 29.627 10.5849 -0.356738 0.919224 0.166628
-26.5891 29.1788 11.3759 -0.352513 0.920988 0.16588
-27.3351 28.7728 12.0504 -0.349481 0.922229 0.165399
-28.0651 28.3314 12.9719 -0.348405 0.92244 0.16648
-28.776 27.9111 13.8258 -0.347231 0.923154 0.164975
-29.4704 27.508 14.6328 -0.345342 0.924249 0.162798
-30.0732 27.1277 15.5166 -0.344589 0.92468 0.161941
-30.7396 26.7175 16.4433 -0.344627 0.924723 0.161614
-31.4086 26.2699 17.5874 -0.344422 0.925023 0.16033
-31.8351 25.9365 18.5997 -0.344411 0.925199 0.159337
-32.4849 25.4861 19.8115 -0.344609 0.92518 0.15902
-33.3305 25.0324 20.6175 -0.344924 0.925066 0.158998
-34.3178 24.7323 20.2226 -0.34483 0.925059 0.15924
-35.7096 24.3272 19.5623 -0.344768 0.925078 0.159266
-36.887 23.9872 18.9888 -0.344708 0.925112 0.159202
-37.9179 23.6576 18.6717 -0.344699 0.92513 0.159114
-39.0078 23.33 18.2153 -0.344746 0.925118 0.159079
-40.0123 23.0426 17.7097 -0.344579 0.925199 0.15897
-41.1489 22.6854 17.3245 -0.344737 0.925164 0.158834
-42.2411 22.3559 16.8723 -0.344929 0.925122 0.158662
-43.1818 22.1011 16.3132 -0.345066 0.925036 0.158865
-44.1929 21.7645 16.0764 -0.345108 0.925057 0.15865
-45.3217 21.4332 15.5512 -0.345314 0.925016 0.158443
-45.7593 21.4133 14.7118 -0.345909 0.924811 0.158341
-45.3596 21.7835 13.4255 -0.345835 0.92476 0.158797
-44.8995 22.1291 12.4181 -0.345905 0.924655 0.159255
-44.4605 22.4779 11.35 -0.346105 0.92441 0.160239
-43.794 22.9819 9.88762 -0.346091 0.924272 0.161064
-43.2317 23.3892 8.76076 -0.345613 0.924292 0.161976
-42.7356 23.7634 7.68589 -0.345691 0.924183 0.16243
-41.9425 24.2049 6.86474 -0.344976 0.924276 0.16342
-41.5323 24.5271 5.90781 -0.344722 0.924367 0.163439
-40.7424 25.0217 4.77873 -0.344141 0.924417 0.164378
-40.0591 25.4325 3.89681 -0.343279 0.924698 0.164598
-39.1504 25.9745 2.73914 -0.341739 0.925344 0.164173
-38.4174 26.3954 1.89119 -0.340389 0.925831 0.16423
-37.7386 26.8011 1.00893 -0.339251 0.926275 0.164084
-36.8301 27.2556 0.31348 -0.338523 0.926747 0.162917
-36.1438 27.6569 -0.56316 -0.336628 0.927927 0.160103
-35.3625 28.0617 -1.27101 -0.33533 0.928479 0.159624
-34.2495 28.5944 -2.04635 -0.332447 0.92957 0.159306
-33.5469 28.9692 -2.78579 -0.329609 0.931109 0.156176
-32.7393 29.357 -3.40034 -0.329461 0.931484 0.15425
-31.7112 29.8264 -4.08506 -0.324239 0.934375 0.147687
-30.7393 30.2524 -4.64555 -0.323456 0.935076 0.144943
-29.642 30.7421 -5.38506 -0.319399 0.936895 0.142172
-28.7046 31.1364 -5.91273 -0.318426 0.938526 0.133319
-27.6242 31.5823 -6.48835 -0.316321 0.939455 0.131778
-26.5793 32.0001 -7.01539 -0.308651 0.942387 0.129002
-25.3508 32.4671 -7.5368 -0.306163 0.944885 0.116002
-24.1947 32.8906 -7.97515 -0.299814 0.947533 0.110875
-23.174 33.2608 -8.41007 -0.296551 0.949493 0.102567
-22.055 33.6353 -8.64827 -0.296683 0.949897 0.0983602
-20.429 34.1814 -9.15533 -0.289736 0.953215 0.086198
-19.3744 34.5263 -9.43627 -0.281078 0.956541 0.0776127
-18.0617 34.9308 -9.76303 -0.275063 0.958692 0.0724524
-16.9917 35.2413 -9.92231 -0.268098 0.96135 0.0626807
-15.7133 35.6043 -10.1176 -0.261795 0.963745 0.0512292
-14.5213 35.9292 -10.2426 -0.248557 0.967991 0.0348233
-13.2501 36.2604 -10.3044 -0.245299 0.96894 0.0306563
-12.1845 36.5295 -10.4916 -0.234913 0.971818 0.0187547
-11.0808 36.7888 -10.5504 -0.222838 0.974782 0.0117586
-9.92187 37.0509 -10.3705 -0.213855 0.976796 0.00623082
-8.69307 37.309 -10.35 -0.198274 0.980111 0.00841343
-7.23879 37.5779 -10.1826 -0.17782 0.984059 3.6568e-05
-5.91044 37.8033 -9.86385 -0.163279 0.986251 -0.0254626
-4.62751 37.9747 -9.87401 -0.127676 0.990981 -0.0406818
-3.37611 38.1128 -9.81066 -0.0798731 0.995876 -0.0427283
-1.8995 38.2064 -10.0419 -0.0457048 0.998828 -0.0159082
-0.777938 38.2027 -10.2656 -0.00339071 0.997011 -0.0767224
0.245621 38.1657 -10.6283 0.0209739 0.995373 -0.0937695
1.34162 38.1086 -10.8636 0.0367483 0.993799 -0.104947
2.46502 38.0613 -10.7816 0.073055 0.992601 -0.0969886
3.64554 37.9612 -10.7893 0.100507 0.990123 -0.0977453
4.78439 37.8535 -10.6356 0.115175 0.986812 -0.113737
5.9481 37.7092 -10.5302 0.146521 0.977575 -0.151255
7.14577 37.5255 -10.4699 0.167532 0.973277 -0.15705
8.20485 37.3285 -10.4963 0.177381 0.967283 -0.181373
9.40194 37.1124 -10.4383 0.182904 0.964961 -0.188137
10.4793 36.9066 -10.3573 0.221832 0.958711 -0.177944
10.6509 36.8554 -10.4193 0.230946 0.956534 -0.177817
12.748 36.7828 -7.99396 0.274662 0.933939 -0.228734
14.6126 36.1378 -7.95982 0.374725 0.904953 -0.201596
15.0639 35.9408 -8.02198 0.369961 0.910248 -0.185952
14.4466 36.4544 -6.90718 0.361144 0.905446 -0.223032
12.4776 37.0812 -7.07028 0.272264 0.931866 -0.239786
10.5853 37.4748 -7.49024 0.205873 0.955228 -0.212499
9.71221 37.6104 -7.71209 0.187506 0.960311 -0.206505
6.34959 38.0915 -7.86215 0.104222 0.981892 -0.158197
8.41247 37.9288 -7.26938 0.149296 0.969213 -0.195799
10.5704 37.6779 -6.62439 0.209364 0.952479 -0.221247
12.7277 37.2606 -6.06398 0.295249 0.926719 -0.232422
13.8459 36.945 -5.8593 0.32364 0.912511 -0.250159
13.1523 37.4199 -4.97149 0.292045 0.91788 -0.268711
11.0402 37.8226 -5.61298 0.209784 0.946938 -0.243516
9.06801 38.0511 -6.20731 0.153284 0.966292 -0.206844
7.14201 38.1992 -6.76206 0.115914 0.978112 -0.172803
4.98433 38.3108 -7.35792 0.0828379 0.986671 -0.140067
2.86969 38.3536 -7.92514 0.0443408 0.991211 -0.124641
-0.00650897 38.4366 -7.59145 -0.0213769 0.996771 -0.0774021
1.96537 38.4652 -7.1725 0.00866016 0.993672 -0.11199
4.32353 38.454 -6.62504 0.0647655 0.989065 -0.132495
6.4063 38.383 -6.08652 0.0699616 0.987009 -0.144629
8.32148 38.2841 -5.53523 0.103202 0.980296 -0.168434
10.259 38.1235 -4.97118 0.144295 0.966555 -0.212016
12.25 37.8614 -4.31354 0.233233 0.938191 -0.255736
12.5308 37.8265 -4.19228 0.25179 0.929698 -0.268819
12.1452 38.1454 -3.37371 0.225989 0.942738 -0.245305
10.2011 38.3224 -4.10028 0.126362 0.972202 -0.197119
8.16342 38.4457 -4.70108 0.101671 0.979896 -0.171656
6.18512 38.5202 -5.24716 0.0709 0.987564 -0.140321
4.14869 38.5679 -5.76589 0.0437883 0.992814 -0.111372
2.03079 38.5589 -6.22223 -0.00746569 0.995001 -0.0995873
0.0784882 38.503 -6.58427 -0.0387021 0.997435 -0.0602078
-2.01892 38.3698 -6.94355 -0.0665066 0.996175 -0.0566797
-3.53872 38.2154 -7.14967 -0.133915 0.989943 -0.0456016
-15.906 35.4013 -7.26976 -0.284711 0.95708 0.054208
-14.2913 35.8675 -7.14166 -0.276401 0.960469 0.0331999
-12.4268 36.3842 -6.97569 -0.264521 0.964093 0.0235196
-10.826 36.8033 -6.84243 -0.248686 0.968533 0.00998212
-9.28189 37.1827 -6.69863 -0.232785 0.972528 0.000429712
-7.65461 37.5487 -6.56708 -0.208441 0.977968 -0.011456
-5.96069 37.8879 -6.40564 -0.170241 0.984898 -0.0315191
-3.99442 38.1972 -6.18462 -0.132606 0.990281 -0.0419386
-2.08431 38.4233 -5.94324 -0.0911487 0.995099 -0.0383382
-0.0764512 38.5581 -5.63027 -0.040867 0.996806 -0.0686138
1.60983 38.6378 -5.36808 -0.024194 0.996347 -0.0818956
3.24558 38.6723 -5.05017 0.0224798 0.99574 -0.089428
4.86016 38.6672 -4.6935 0.033067 0.992976 -0.113605
6.48423 38.6407 -4.26106 0.0513765 0.988407 -0.14287
7.99836 38.5967 -3.86193 0.0900326 0.982477 -0.163198
9.92782 38.5122 -3.28475 0.102795 0.976934 -0.187172
11.4386 38.459 -2.65838 0.161936 0.966739 -0.197972
11.6546 38.4368 -2.55887 0.192466 0.960047 -0.203142
11.0785 38.6776 -1.79501 0.126117 0.975969 -0.177703
9.56714 38.7138 -2.44087 0.0934651 0.977765 -0.187721
8.07986 38.7422 -2.93025 0.0598084 0.987342 -0.146894
6.48151 38.7683 -3.3566 0.036454 0.991629 -0.123867
4.69106 38.7741 -3.79205 0.0267529 0.994529 -0.100972
3.02478 38.7605 -4.16376 -0.00809037 0.995402 -0.0954453
1.29216 38.6984 -4.46755 -0.0400586 0.996992 -0.0663437
-0.599491 38.5938 -4.73803 -0.0600489 0.996066 -0.0651621
-2.42396 38.4307 -4.97537 -0.103714 0.993567 -0.0454746
-4.26329 38.1982 -5.19875 -0.139115 0.989796 -0.0308355
-5.87314 37.9363 -5.36772 -0.16938 0.985058 -0.0311573
-7.42046 37.6134 -5.5378 -0.213986 0.976807 -0.00762673
-8.99614 37.2498 -5.6799 -0.230049 0.973179 0.000757748
-10.6179 36.8432 -5.82893 -0.255147 0.966865 0.00851302
-12.262 36.4048 -5.96706 -0.269001 0.962843 0.0239154
-13.7961 35.9692 -6.1078 -0.281413 0.95901 0.0332656
-15.7209 35.4013 -6.26811 -0.291119 0.955472 0.0482037
-17.4965 34.8671 -6.41864 -0.295766 0.952841 0.0679512
-19.0935 34.3768 -6.55399 -0.299276 0.95116 0.0756857
-19.3528 34.2957 -6.57598 -0.303595 0.94977 0.0759418
-22.1699 33.3111 -5.83172 -0.307273 0.946658 0.0970617
-20.5421 33.8322 -5.69518 -0.308755 0.947016 0.0884886
-18.7151 34.4157 -5.53912 -0.30994 0.947331 0.0806241
-17.1496 34.9055 -5.40511 -0.301664 0.951365 0.0624738
-15.1241 35.5301 -5.23364 -0.299845 0.952335 0.056137
-13.5158 36.0138 -5.09255 -0.285706 0.957743 0.0331792
-11.6581 36.548 -4.9215 -0.268789 0.963113 0.0128752
-10.0845 36.9727 -4.77595 -0.246633 0.969077 0.00788919
-8.51223 37.3697 -4.63947 -0.241817 0.970321 -0.000888108
-6.88866 37.7485 -4.47909 -0.210134 0.977543 -0.0159452
-5.13075 38.0921 -4.28295 -0.182239 0.983012 -0.0218396
-3.44592 38.349 -4.09296 -0.131599 0.990764 -0.03268
-1.78981 38.54 -3.90382 -0.0939847 0.995 -0.0337873
-0.241326 38.6745 -3.71678 -0.0627269 0.996828 -0.0489863
1.66215 38.7825 -3.45219 -0.0389978 0.995939 -0.0811438
3.34991 38.8587 -3.16292 -0.0274695 0.995692 -0.0885556
5.11613 38.8817 -2.75999 0.0140378 0.993997 -0.108499
6.82188 38.8866 -2.34008 0.0345527 0.990569 -0.132588
8.6996 38.8804 -1.78267 0.0470745 0.986687 -0.155666
10.2789 38.888 -1.1138 0.0964784 0.980438 -0.17156
10.4462 38.8865 -1.02819 0.0959695 0.979798 -0.175457
10.0861 39.0836 -0.115576 0.051074 0.986211 -0.157416
8.3598 39.0404 -0.904417 0.0261059 0.990038 -0.138362
6.55335 39.0082 -1.46001 0.0153647 0.993448 -0.113243
4.84843 38.9791 -1.86559 -0.00292623 0.996028 -0.0889937
2.97843 38.9288 -2.26614 -0.0284992 0.995569 -0.0896133
1.43054 38.8487 -2.52879 -0.0473854 0.995739 -0.0791115
-0.26406 38.7212 -2.74522 -0.0691135 0.996738 -0.0416654
-2.2567 38.5215 -2.9653 -0.108383 0.993582 -0.0323846
-4.01083 38.2929 -3.1545 -0.156513 0.987478 -0.0197851
-5.67959 38.0068 -3.33858 -0.182233 0.983097 -0.0176441
-7.20402 37.6848 -3.50846 -0.229358 0.97334 -0.00226977
-9.13696 37.2051 -3.69516 -0.24425 0.969708 0.00294864
-10.8982 36.7424 -3.85851 -0.268205 0.963185 0.0184779
-12.6983 36.2199 -4.02984 -0.288615 0.956676 0.0383682
-14.4374 35.6928 -4.18032 -0.297734 0.953667 0.0432927
-15.9557 35.2164 -4.31483 -0.305669 0.950128 0.0618371
-17.4473 34.7421 -4.44545 -0.305995 0.949632 0.0675706
-18.9334 34.2632 -4.57223 -0.310894 0.947246 0.0779123
-20.4328 33.7728 -4.70038 -0.312692 0.945745 0.0882633
-22.0219 33.2549 -4.83851 -0.319221 0.942169 0.102056
-23.5392 32.7598 -4.96376 -0.318152 0.941691 0.109532
-24.0524 32.5914 -5.00566 -0.317834 0.941788 0.109624
-25.8416 31.8768 -4.17671 -0.325049 0.937265 0.126005
-24.315 32.3874 -4.04981 -0.322416 0.939462 0.116018
-22.781 32.8963 -3.92133 -0.31998 0.941261 0.107892
-21.1661 33.4334 -3.78215 -0.323488 0.941444 0.0950717
-19.6447 33.941 -3.64792 -0.317171 0.944475 0.0858403
-17.7828 34.558 -3.48524 -0.317329 0.945197 0.0768429
-16.1801 35.0839 -3.34985 -0.31463 0.947182 0.0620805
-14.6549 35.5717 -3.20589 -0.306957 0.950391 0.0503335
-12.8699 36.1324 -3.05045 -0.299403 0.953234 0.0412729
-11.096 36.6638 -2.88936 -0.278655 0.960019 0.0267403
-9.5357 37.0962 -2.74201 -0.258352 0.966009 0.0089529
-7.88846 37.5181 -2.58698 -0.23638 0.971661 0.000264565
-6.1241 37.9248 -2.38973 -0.21029 0.977624 -0.00536264
-4.43729 38.2421 -2.20093 -0.158625 0.987199 -0.0166218
-2.78954 38.4861 -2.03579 -0.119747 0.992545 -0.0226754
-1.2064 38.6734 -1.87367 -0.0998702 0.993996 -0.0447054
0.615363 38.8496 -1.66924 -0.0758392 0.995322 -0.0598485
2.23207 38.9621 -1.4292 -0.0570271 0.995898 -0.0702457
3.91153 39.0386 -1.09983 -0.023399 0.996556 -0.0795571
5.74403 39.0926 -0.693673 -0.0107363 0.995381 -0.0953999
7.29822 39.1453 -0.251363 0.00984391 0.991113 -0.132657
8.80548 39.2068 0.331048 0.0235855 0.989451 -0.142939
9.70594 39.2448 0.707597 0.0172143 0.988827 -0.148072
9.31888 39.3898 1.57328 0.00739669 0.98464 -0.174442
7.7295 39.303 0.952718 -0.0100795 0.992113 -0.124938
6.21059 39.2189 0.442683 -0.0222012 0.994433 -0.10301
4.46882 39.1367 -0.00196602 -0.0247071 0.996627 -0.0782594
2.619 39.052 -0.382088 -0.0489601 0.996816 -0.0629377
0.777953 38.9148 -0.670834 -0.0670726 0.996104 -0.0572608
-1.02689 38.7331 -0.872607 -0.101291 0.994291 -0.033544
-2.66363 38.5296 -1.03694 -0.132607 0.99079 -0.0273923
-4.49688 38.2532 -1.21302 -0.172297 0.984963 -0.0126786
-6.10076 37.9331 -1.3901 -0.216335 0.976309 -0.00453635
-7.78178 37.545 -1.57592 -0.239079 0.970998 -0.00201809
-9.40842 37.1155 -1.74472 -0.262594 0.964805 0.0140219
-10.9069 36.6894 -1.88012 -0.283172 0.95864 0.0286775
-12.4454 36.2221 -2.01637 -0.305294 0.951484 0.038404
-14.0404 35.7169 -2.15555 -0.310688 0.949323 0.0475246
-15.655 35.1904 -2.31516 -0.317396 0.946212 0.0627935
-17.2906 34.6412 -2.45794 -0.326659 0.942016 0.0768055
-18.9022 34.0994 -2.59944 -0.324081 0.942118 0.0859357
-20.6674 33.5014 -2.75746 -0.326899 0.940311 0.0946136
-22.278 32.9541 -2.89749 -0.326638 0.939409 0.104009
-23.8122 32.4342 -3.02815 -0.327649 0.937548 0.116832
-25.4469 31.881 -3.16854 -0.327709 0.93694 0.121447
-27.0532 31.3359 -3.30846 -0.326946 0.935825 0.131672
-27.4687 31.1953 -3.34459 -0.329577 0.934546 0.134176
-29.0272 30.5241 -2.51256 -0.329801 0.933396 0.141431
-27.304 31.1129 -2.35706 -0.330637 0.934424 0.132404
-25.6836 31.6679 -2.21375 -0.333536 0.934433 0.124853
-24.1993 32.18 -2.08602 -0.333382 0.935299 0.118627
-22.7263 32.6863 -1.95567 -0.332399 0.936671 0.11026
-21.1868 33.2168 -1.8214 -0.332851 0.937417 0.102271
-19.6015 33.7668 -1.67932 -0.330949 0.939235 0.0911611
-18.0076 34.3157 -1.53546 -0.336976 0.937928 0.0820838
-16.2214 34.9308 -1.37658 -0.325114 0.943293 0.0670798
-14.6916 35.447 -1.2287 -0.320434 0.945403 0.0594521
-13.206 35.9369 -1.08893 -0.310686 0.94971 0.0390564
-11.6904 36.4252 -0.96172 -0.299959 0.953335 0.0343106
-10.0663 36.9108 -0.818028 -0.280647 0.95949 0.0248405
-8.29625 37.41 -0.638049 -0.268516 0.963252 0.00665532
-6.66207 37.8087 -0.459726 -0.223195 0.974765 0.00407572
-5.05363 38.1643 -0.281366 -0.193913 0.980999 -0.00618969
-3.41741 38.4441 -0.126617 -0.147104 0.989005 -0.015143
-1.78053 38.675 0.0344716 -0.122804 0.991966 -0.030378
-0.117319 38.8774 0.211768 -0.0994029 0.993877 -0.0482426
1.77508 39.0425 0.464997 -0.0673081 0.996537 -0.0488318
3.38476 39.1569 0.767418 -0.0495615 0.997129 -0.0572412
5.23484 39.2604 1.20413 -0.0474664 0.995643 -0.0802638
7.07229 39.3775 1.76638 -0.0315484 0.994678 -0.0980832
8.63341 39.4872 2.29536 -0.031786 0.990607 -0.132992
8.89749 39.5108 2.39635 -0.0377083 0.990371 -0.133204
8.3813 39.5977 3.22179 -0.0487743 0.992442 -0.11261
6.62917 39.4503 2.65105 -0.052506 0.994371 -0.0920251
5.05965 39.3338 2.19984 -0.0489461 0.995275 -0.0838597
3.28713 39.2098 1.76208 -0.0581706 0.996513 -0.0598235
1.34235 39.0515 1.40494 -0.0846113 0.995509 -0.04245
-0.261576 38.8983 1.18077 -0.0958094 0.994903 -0.0314464
-2.01668 38.6778 1.00006 -0.134642 0.990478 -0.0287325
-3.72851 38.4052 0.829069 -0.174285 0.984539 -0.0175403
-5.50694 38.0717 0.658418 -0.211895 0.977266 -0.00723329
-7.02255 37.7231 0.48802 -0.232415 0.972616 -0.00138686
-8.59718 37.3184 0.317979 -0.269061 0.963022 0.013941
-10.4502 36.7754 0.13326 -0.293665 0.955704 0.019775
-12.1361 36.2427 -0.012859 -0.311065 0.949629 0.0379988
-13.9542 35.6406 -0.168983 -0.326988 0.943582 0.0522753
-15.4312 35.1316 -0.310076 -0.328209 0.942769 0.0588599
-17.0148 34.5801 -0.459329 -0.334778 0.938985 0.0789303
-18.5896 34.0238 -0.60096 -0.340945 0.935514 0.0925791
-20.2667 33.4307 -0.752609 -0.336053 0.936296 0.102071
-21.7761 32.9013 -0.889443 -0.339135 0.933964 0.112687
-23.3185 32.3592 -1.03046 -0.337797 0.933318 0.121702
-24.9091 31.8047 -1.17217 -0.335717 0.933384 0.126843
-26.5507 31.2337 -1.31579 -0.336566 0.931905 0.135187
-28.1266 30.6874 -1.45935 -0.33291 0.932528 0.139866
-29.6796 30.1529 -1.6012 -0.332118 0.932281 0.143348
-29.919 30.0714 -1.62269 -0.331115 0.93234 0.145276
-31.6517 29.3212 -0.814346 -0.33431 0.930301 0.150917
-30.0686 29.8677 -0.668215 -0.335081 0.930764 0.146286
-28.3409 30.4687 -0.508315 -0.337326 0.930848 0.140473
-26.8166 31.0004 -0.367381 -0.339953 0.930774 0.134504
-25.2342 31.5575 -0.225124 -0.340894 0.931041 0.13021
-23.6493 32.1172 -0.0803981 -0.339322 0.933046 0.119526
-21.9616 32.7176 0.0744931 -0.340906 0.933277 0.113036
-20.4506 33.2581 0.215107 -0.346099 0.932795 0.100541
-18.909 33.8135 0.355055 -0.348128 0.932978 0.0914296
-17.2407 34.4139 0.503 -0.342664 0.936004 0.0804845
-15.7254 34.9553 0.645518 -0.339799 0.938216 0.0654692
-14.2601 35.4744 0.785431 -0.338873 0.939178 0.0557678
-12.6166 36.0458 0.935673 -0.322088 0.946079 0.0345453
-10.8834 36.615 1.08029 -0.306872 0.95132 0.0286261
-9.24604 37.1171 1.238 -0.278539 0.960321 0.0141359
-7.74232 37.537 1.40377 -0.261915 0.965069 -0.00654705
-5.93359 37.9851 1.60397 -0.234194 0.972119 -0.0117268
-4.02604 38.3773 1.78825 -0.185115 0.982373 -0.0259848
-2.45694 38.6396 1.94144 -0.145248 0.988775 -0.0350228
-0.829827 38.8678 2.10956 -0.120435 0.992349 -0.0271897
0.841806 39.0484 2.33921 -0.0971729 0.994457 -0.0401631
2.40972 39.2031 2.62389 -0.0749182 0.99598 -0.0491089
4.24361 39.3465 3.0319 -0.0676911 0.995804 -0.06158
5.768 39.4674 3.42669 -0.0602708 0.995419 -0.0742255
7.53917 39.629 3.94955 -0.0676676 0.993557 -0.0909128
7.64167 39.6389 3.98191 -0.0676645 0.993557 -0.0909144
7.52774 39.7195 4.94307 -0.0887967 0.99235 -0.0857735
6.01118 39.5688 4.51086 -0.0686265 0.99477 -0.0756483
4.29533 39.4154 4.07642 -0.0686702 0.995651 -0.0629639
2.59801 39.2697 3.68925 -0.0813451 0.995415 -0.0503099
0.937669 39.1022 3.38763 -0.0999529 0.994099 -0.0421402
-0.60855 38.9295 3.12875 -0.116334 0.99265 -0.0333617
-2.19862 38.7134 2.9566 -0.145145 0.988796 -0.0348613
-3.7756 38.4533 2.80014 -0.180972 0.98293 -0.0331335
-10.6927 36.6561 2.08581 -0.313064 0.94949 0.0214433
-12.2453 36.1326 1.95256 -0.328748 0.943534 0.0408544
-13.6729 35.6256 1.81997 -0.339952 0.938995 0.0521658
-15.3411 35.0215 1.6661 -0.350709 0.934084 0.0670096
-16.8663 34.4623 1.51736 -0.349819 0.933092 0.0834596
-18.3412 33.9233 1.38326 -0.35122 0.931287 0.0966879
-20.0762 33.2837 1.23254 -0.349567 0.931121 0.104004
-21.779 32.6633 1.07093 -0.35029 0.929571 0.114866
-23.2332 32.1378 0.93536 -0.34423 0.930726 0.123512
-24.799 31.5764 0.78792 -0.345592 0.929151 0.131315
-26.2796 31.05 0.652105 -0.341962 0.930063 0.134335
-27.7625 30.5242 0.514402 -0.340785 0.929653 0.140037
-29.6454 29.8625 0.338313 -0.339203 0.929347 0.145795
-31.4729 29.2257 0.168088 -0.337974 0.928776 0.152143
-32.5966 28.8351 0.0641444 -0.336181 0.929151 0.153821
-33.4371 28.3811 0.950778 -0.338922 0.927662 0.156764
-32.0091 28.8799 1.08385 -0.338557 0.928455 0.152809
-30.4932 29.4117 1.22551 -0.339702 0.928377 0.15073
-29.0365 29.9256 1.36258 -0.342882 0.927729 0.147478
-27.476 30.4792 1.50957 -0.343967 0.928323 0.141075
-26.0202 31.0002 1.64637 -0.346154 0.928004 0.137788
-24.2384 31.6429 1.81716 -0.345805 0.929425 0.128793
-22.7926 32.1678 1.95034 -0.349078 0.928881 0.123791
-21.2093 32.7482 2.10441 -0.354683 0.927797 0.115731
-19.4979 33.388 2.25867 -0.355681 0.928636 0.105484
-18.0396 33.9336 2.38593 -0.35455 0.930304 0.093963
-16.5536 34.4925 2.52517 -0.356706 0.931022 0.0772005
-15.609 34.8442 2.61283 -0.355428 0.931864 0.0728012
-18.5495 33.6373 3.31512 -0.360869 0.927392 0.0985765
-20.0168 33.0749 3.19038 -0.361469 0.925121 0.116149
-21.6139 32.4723 3.03983 -0.358053 0.925521 0.123322
-23.1574 31.9017 2.88835 -0.354445 0.925532 0.13326
-24.8303 31.2881 2.73037 -0.350925 0.926948 0.132736
-26.7388 30.5962 2.54797 -0.347416 0.926832 0.142422
-28.3541 30.0156 2.39361 -0.345638 0.927026 0.145458
-29.7979 29.5016 2.25673 -0.343788 0.927173 0.148864
-31.4062 28.9328 2.10445 -0.342043 0.927186 0.152752
-32.8315 28.4309 1.97152 -0.339931 0.927535 0.155324
-34.3091 27.9129 1.83533 -0.339574 0.92702 0.159136
-35.0586 27.4841 2.72845 -0.340755 0.926458 0.159878
-33.404 28.0675 2.88086 -0.341569 0.926414 0.15839
-31.9505 28.5806 3.01659 -0.342589 0.926739 0.154235
-30.4861 29.1002 3.15473 -0.343853 0.92657 0.152426
-29.0696 29.6055 3.28961 -0.345915 0.926372 0.148919
-27.6156 30.1286 3.43047 -0.349679 0.925277 0.146923
-26.0819 30.685 3.57784 -0.350759 0.925688 0.141669
-24.6252 31.2189 3.71839 -0.35345 0.925309 0.137388
-22.9383 31.8452 3.87986 -0.358128 0.923873 0.134916
-21.4686 32.3982 4.02402 -0.361968 0.923569 0.126489
-20.4801 32.7764 4.11664 -0.364773 0.923244 0.120668
-22.3533 31.9264 4.9027 -0.362325 0.922959 0.129877
-23.8825 31.3483 4.75654 -0.356925 0.923543 0.140259
-25.7581 30.6537 4.57404 -0.353897 0.924078 0.144351
-27.3754 30.0618 4.41825 -0.35142 0.924474 0.147824
-28.8813 29.5167 4.27174 -0.348174 0.92514 0.151298
-30.3496 28.9899 4.13031 -0.345294 0.925978 0.152765
-32.1338 28.3541 3.96222 -0.343391 0.925987 0.156944
-33.6133 27.8292 3.82386 -0.342448 0.926156 0.158002
-35.1821 27.2747 3.67883 -0.342274 0.925818 0.16034
-36.3488 26.8626 3.57169 -0.341948 0.925698 0.161727
-36.9818 26.4704 4.47516 -0.342594 0.925374 0.162208
-35.1321 27.1257 4.64514 -0.34258 0.925706 0.160335
-33.6187 27.663 4.78535 -0.343818 0.925497 0.158882
-31.9252 28.2658 4.94421 -0.345359 0.925477 0.155628
-30.3141 28.8427 5.09664 -0.347193 0.924867 0.155174
-28.9009 29.3514 5.23294 -0.348099 0.924981 0.152437
-27.2783 29.942 5.39096 -0.352754 0.923435 0.151108
-25.7524 30.5025 5.53841 -0.355793 0.922554 0.149347
-24.2836 31.0484 5.68089 -0.359998 0.921812 0.143748
-23.9298 31.1809 5.7152 -0.359386 0.921887 0.144798
-25.1447 30.5725 6.55907 -0.357147 0.921954 0.14982
-26.6541 30.0129 6.41451 -0.354468 0.92272 0.151462
-28.1193 29.4764 6.27162 -0.351369 0.923273 0.155267
-29.8642 28.843 6.1014 -0.348482 0.92439 0.155127
-31.395 28.2927 5.95593 -0.346539 0.924714 0.15753
-32.81 27.7865 5.82259 -0.344929 0.925255 0.157886
-34.4809 27.1906 5.66662 -0.343614 0.925436 0.159678
-35.9022 26.6855 5.53552 -0.343405 0.92523 0.161315
-37.5343 26.1061 5.38569 -0.343021 0.925156 0.162549
-37.6811 26.054 5.37229 -0.343426 0.924983 0.16268
-38.3816 25.6362 6.26874 -0.343936 0.924794 0.162678
-36.7102 26.2308 6.42184 -0.343769 0.925033 0.16167
-35.2922 26.7353 6.55251 -0.34441 0.924933 0.160878
-33.7445 27.2871 6.69639 -0.345045 0.924813 0.160203
-31.9231 27.9392 6.86734 -0.34679 0.92447 0.158407
-30.3438 28.5074 7.01695 -0.347759 0.924261 0.157498
-28.8847 29.0364 7.15826 -0.350895 0.923155 0.157027
-27.2666 29.6271 7.3162 -0.354018 0.92236 0.154672
-26.2261 30.0117 7.41558 -0.356727 0.921227 0.155195
-27.2715 29.4622 8.27487 -0.352937 0.92212 0.158525
-28.7322 28.9285 8.13277 -0.351869 0.92242 0.159152
-30.1928 28.3979 7.99222 -0.349841 0.923182 0.159205
-31.6938 27.8565 7.84981 -0.34739 0.924103 0.159227
-33.211 27.3121 7.70705 -0.345991 0.924584 0.159484
-34.7323 26.7681 7.56514 -0.344832 0.924877 0.160291
-36.1762 26.2532 7.43121 -0.344332 0.924861 0.161453
-37.9211 25.6316 7.27103 -0.344317 0.924747 0.162138
-39.0501 25.2295 7.16777 -0.344281 0.924663 0.16269
-39.5899 24.8685 8.07839 -0.344428 0.924653 0.16244
-38.0467 25.4187 8.2195 -0.344529 0.92474 0.161731
-36.4546 25.9865 8.36592 -0.344649 0.924761 0.16135
-34.8525 26.5585 8.5143 -0.345356 0.924634 0.160565
-33.2881 27.1185 8.66008 -0.346263 0.924413 0.159881
-31.8477 27.6357 8.79545 -0.347559 0.923955 0.159718
-30.2881 28.198 8.94312 -0.34918 0.923383 0.159492
-28.8716 28.7119 9.07843 -0.35082 0.922629 0.160252
-28.1785 28.9645 9.14463 -0.352463 0.922084 0.159786
-29.0398 28.4843 10.0208 -0.35082 0.922629 0.160252
-30.7923 27.8497 9.85463 -0.348392 0.923564 0.160164
-32.2053 27.3408 9.72131 -0.347281 0.92392 0.160525
-33.6713 26.8146 9.58422 -0.346122 0.924389 0.160326
-35.2088 26.2644 9.44113 -0.345795 0.924489 0.160452
-36.642 25.7522 9.30864 -0.344734 0.924728 0.161356
-38.0689 25.2431 9.17736 -0.344731 0.924719 0.161414
-39.5318 24.7209 9.04343 -0.345092 0.924556 0.161576
-40.1762 24.491 8.98462 -0.344728 0.924649 0.161823
-40.4695 24.2184 9.91715 -0.345107 0.924612 0.161223
-38.9428 24.7639 10.0569 -0.34501 0.924683 0.161029
-37.5148 25.2736 10.188 -0.344911 0.92476 0.160798
-35.9807 25.8216 10.3293 -0.345369 0.924633 0.160542
-34.2859 26.4281 10.4865 -0.345851 0.924442 0.160604
-32.6153 27.0269 10.6421 -0.346848 0.924087 0.160496
-31.1591 27.5505 10.7789 -0.347934 0.923608 0.160906
-29.9552 27.9848 10.8925 -0.349137 0.923001 0.161778
-30.5456 27.604 11.7953 -0.347775 0.923502 0.161855
-32.0806 27.052 11.6513 -0.346922 0.923967 0.161028
-33.5904 26.5106 11.5106 -0.346106 0.924394 0.160328
-35.1786 25.9419 11.363 -0.345884 0.924449 0.160493
-36.6178 25.4272 11.2299 -0.345157 0.924695 0.160641
-38.2678 24.8379 11.0783 -0.344912 0.924753 0.160835
-39.9091 24.2517 10.9277 -0.345328 0.924558 0.161062
-41.0904 23.8295 10.8196 -0.345166 0.924677 0.160725
-41.693 23.4477 11.724 -0.34543 0.924619 0.160494
-40.0117 24.0485 11.8778 -0.345117 0.924757 0.160373
-38.2514 24.6772 12.0393 -0.345053 0.924813 0.160187
-36.7833 25.2017 12.1743 -0.345196 0.924752 0.160233
-35.2357 25.755 12.3172 -0.345487 0.924647 0.160208
-33.3904 26.4154 12.4884 -0.345907 0.924409 0.160673
-31.8025 26.9845 12.636 -0.346409 0.924101 0.161362
-31.3093 27.1616 12.6821 -0.346801 0.923936 0.161465
-31.9098 26.7789 13.5846 -0.34602 0.92428 0.161173
-33.4547 26.2259 13.4416 -0.345775 0.92448 0.160549
-35.2181 25.5951 13.2782 -0.345409 0.924666 0.160264
-36.8748 25.0029 13.1253 -0.345143 0.924813 0.159993
-38.3253 24.4846 12.9919 -0.345092 0.924824 0.160041
-39.804 23.9565 12.8564 -0.344991 0.924847 0.16012
-41.3829 23.3924 12.7117 -0.345159 0.924818 0.159924
-41.9758 23.1804 12.6575 -0.345292 0.924781 0.159854
-42.412 22.8588 13.577 -0.345214 0.924864 0.159544
-40.8347 23.4225 13.7213 -0.345132 0.924879 0.159637
-39.428 23.9249 13.8503 -0.344945 0.924958 0.159583
-37.9305 24.4598 13.9875 -0.34511 0.924887 0.159632
-36.2105 25.0742 14.1459 -0.345125 0.924815 0.160017
-34.765 25.5908 14.2793 -0.345306 0.924725 0.160149
-33.3498 26.0968 14.4099 -0.345475 0.92459 0.160561
-32.5636 26.378 14.4826 -0.345612 0.9245 0.160788
-33.2398 25.9697 15.3786 -0.345371 0.924623 0.160598
-34.7121 25.4437 15.2432 -0.345198 0.924797 0.159968
-36.4218 24.833 15.0856 -0.345034 0.924898 0.159732
-38.0054 24.2674 14.9402 -0.345122 0.924887 0.159609
-39.4625 23.747 14.8065 -0.344943 0.92498 0.159457
-40.6577 23.3202 14.6969 -0.345018 0.924977 0.159309
-37.7882 24.1796 15.9194 -0.344909 0.925019 0.159303
-36.1932 24.7491 16.0658 -0.344868 0.924985 0.159588
-34.6689 25.2935 16.206 -0.344892 0.92495 0.159738
-33.8857 25.5731 16.2779 -0.344927 0.92491 0.159897
-34.4438 25.2083 17.1856 -0.344739 0.925056 0.159456
-34.6944 25.1189 17.1626 -0.344738 0.925056 0.159456
