-28.7942 28.8287 12.0883 0.348907 -0.922751 -0.163693
-29.4625 28.4225 12.9597 0.346979 -0.923449 -0.163852
-30.0732 28.0466 13.7893 0.345624 -0.92411 -0.162988
-30.8048 27.593 14.8129 0.345264 -0.924381 -0.162212
-31.6479 27.1132 15.7576 0.344652 -0.924809 -0.161069
-32.1846 26.733 16.7942 0.344618 -0.924968 -0.160227
-32.6942 26.3676 17.8083 0.344616 -0.925057 -0.159716
-33.2173 26.0043 18.7847 0.344621 -0.925101 -0.159451
-34.0997 25.605 19.1943 0.344721 -0.925103 -0.159221
-35.3458 25.2156 18.7589 0.344763 -0.925085 -0.159238
-36.3707 24.9149 18.2864 0.344756 -0.925111 -0.159102
-37.5359 24.5627 17.8099 0.344711 -0.925098 -0.159272
-38.535 24.2667 17.3667 0.344848 -0.925081 -0.159076
-39.4975 23.9798 16.9494 0.34466 -0.925135 -0.159168
-40.5442 23.6515 16.5898 0.344803 -0.925129 -0.158896
-41.674 23.3227 16.0527 0.344976 -0.925046 -0.158999
-42.7425 23.0084 15.5623 0.345024 -0.925066 -0.158779
-43.9621 22.628 15.1281 0.345273 -0.924997 -0.15864
-44.7227 22.4908 14.273 0.345636 -0.924808 -0.158954
-44.3568 22.8135 13.1916 0.345722 -0.924703 -0.159377
-43.8903 23.2154 11.874 0.345778 -0.924562 -0.160071
-43.2458 23.6529 10.7419 0.345664 -0.924471 -0.160843
-42.8113 23.9889 9.74535 0.345525 -0.924464 -0.161178
-42.266 24.3632 8.76988 0.345255 -0.924416 -0.162032
-41.6014 24.8233 7.5626 0.345277 -0.924277 -0.162774
-40.9542 25.2269 6.64368 0.344539 -0.924494 -0.163107
-40.1617 25.7175 5.53711 0.343665 -0.92475 -0.163499
-39.4678 26.1444 4.5796 0.343027 -0.924946 -0.163727
-38.8483 26.5346 3.6713 0.342395 -0.925162 -0.16383
-37.954 27.0049 2.87951 0.341485 -0.925512 -0.163754
-37.3646 27.3739 2.0156 0.340759 -0.926062 -0.162148
-36.5744 27.8025 1.22141 0.338804 -0.926992 -0.160928
-35.7891 28.2235 0.446328 0.337836 -0.927547 -0.15976
-35.033 28.6144 -0.23185 0.33532 -0.928459 -0.159764
-34.2538 29.0258 -0.996561 0.334001 -0.929259 -0.157865
-33.3756 29.4453 -1.61625 0.332427 -0.930213 -0.155553
-32.2369 30.0066 -2.56001 0.332613 -0.930867 -0.151181
-31.3514 30.4239 -3.21438 0.326751 -0.933409 -0.148233
-30.348 30.87 -3.8233 0.325985 -0.934369 -0.143815
-29.4328 31.2552 -4.26598 0.324286 -0.93546 -0.140537
-28.5422 31.6614 -4.94872 0.319033 -0.938329 -0.133253
-27.374 32.1257 -5.42261 0.318541 -0.939439 -0.126437
-26.433 32.5118 -5.93663 0.315174 -0.940491 -0.127054
-25.4505 32.9065 -6.462 0.311698 -0.942371 -0.121576
-24.4125 33.2908 -6.84249 0.308729 -0.944581 -0.111518
-23.3077 33.6924 -7.23313 0.303024 -0.947276 -0.10414
-22.248 34.0726 -7.64749 0.301013 -0.94871 -0.0966426
-21.1101 34.4678 -8.02567 0.295629 -0.950977 -0.0907403
-20.0384 34.8188 -8.23834 0.292076 -0.952874 -0.0819886
-19.0049 35.1557 -8.49404 0.285242 -0.955423 -0.0761864
-17.6909 35.5672 -8.78062 0.279448 -0.957885 -0.0660673
-16.2436 35.9906 -8.89835 0.273787 -0.960368 -0.0522373
-15.0584 36.3326 -9.18695 0.258681 -0.964937 -0.0444994
-13.9464 36.6365 -9.32719 0.254171 -0.966664 -0.0309538
-12.8151 36.9318 -9.38164 0.246663 -0.968634 -0.0300086
-11.3852 37.2872 -9.46795 0.231974 -0.972603 -0.0152403
-10.2187 37.5601 -9.48953 0.22369 -0.974605 -0.0103365
-9.09969 37.8041 -9.34411 0.202479 -0.979264 -0.00659972
-7.8549 38.0529 -9.23234 0.1856 -0.982562 0.00947096
-6.75331 38.2511 -9.16193 0.160456 -0.986909 0.0162328
-5.64767 38.4335 -9.05677 0.163127 -0.986108 0.0312712
-4.31895 38.6203 -8.79553 0.12517 -0.991435 0.0372684
-2.96753 38.7708 -8.75205 0.091605 -0.994463 0.0505472
-1.83933 38.8334 -8.91577 0.0532156 -0.996243 0.0682387
-0.686407 38.8566 -9.26077 0.022639 -0.996106 0.0852029
0.565244 38.8427 -9.44114 -0.0113708 -0.997007 0.0764739
1.80688 38.7914 -9.57875 -0.0386782 -0.994303 0.0993252
2.99917 38.7505 -9.42547 -0.0608965 -0.990686 0.121793
4.17185 38.6929 -9.30651 -0.0499792 -0.988372 0.143606
5.42916 38.6002 -9.17073 -0.109356 -0.981794 0.155206
6.76087 38.4436 -9.11707 -0.12845 -0.97591 0.176063
7.97687 38.2834 -8.95477 -0.163725 -0.966773 0.196325
9.07491 38.1096 -8.89481 -0.179239 -0.959271 0.218339
10.348 37.8395 -8.98648 -0.192166 -0.956581 0.219134
11.4189 37.6217 -8.86931 -0.230705 -0.948063 0.21862
12.7198 37.2577 -8.89546 -0.279546 -0.935662 0.215383
13.9075 36.8015 -9.17101 -0.326169 -0.922121 0.208102
14.9984 36.3769 -9.27359 -0.348401 -0.922044 0.168633
16.1217 35.9058 -9.32496 -0.394895 -0.907169 0.143415
16.717 35.7711 -8.57876 -0.412013 -0.893815 0.177031
16.3624 36.141 -7.5851 -0.42094 -0.886191 0.193382
15.8402 36.6475 -6.53058 -0.417786 -0.879934 0.22621
15.2757 37.1971 -5.4849 -0.400969 -0.883739 0.241308
14.8489 37.5863 -4.84461 -0.388003 -0.878812 0.277535
15.6712 37.4045 -4.16334 -0.460433 -0.856847 0.231981
14.9872 38.0454 -3.26593 -0.405176 -0.860637 0.308441
14.3286 38.5956 -2.43752 -0.288142 -0.907909 0.304428
13.8107 39.0676 -1.56536 -0.180811 -0.925149 0.333778
13.2422 39.472 -0.4886 -0.131866 -0.952363 0.274985
12.5618 39.8022 0.45239 -0.0393794 -0.965597 0.256825
12.0198 40.1422 1.72535 0.0408859 -0.960269 0.273132
11.4289 40.3301 2.63592 0.0395618 -0.971491 0.232643
11.1668 40.5621 3.9248 0.0951217 -0.981489 0.166226
12.0655 40.8797 4.56596 0.210676 -0.95677 0.200515
13.1716 41.2643 4.98588 0.289037 -0.947708 0.135303
14.0491 41.6057 5.65218 0.275546 -0.95582 0.102184
14.9275 41.9181 6.21687 0.284459 -0.9537 0.0976677
15.9067 42.2847 6.9296 0.29954 -0.951155 0.0746985
17.0086 42.6931 7.7827 0.30643 -0.950273 0.0555091
17.8278 42.9961 8.50315 0.303989 -0.951354 0.0501651
18.7098 43.3295 9.23929 0.324909 -0.944605 0.0461987
19.4661 43.6211 9.9924 0.322011 -0.945775 0.0426091
20.4448 44.0034 10.9898 0.331126 -0.942865 0.0368155
21.2822 44.3281 11.7919 0.336024 -0.941322 0.0316307
22.0485 44.633 12.7584 0.338264 -0.940683 0.0263348
22.7759 44.9227 13.6426 0.343464 -0.938811 0.0256391
23.4102 45.182 14.6688 0.349665 -0.936696 0.0183073
24.066 45.4464 15.6775 0.354451 -0.934946 0.0155386
24.7108 45.7079 16.8214 0.355743 -0.934499 0.0125312
25.1524 45.8891 17.9295 0.357626 -0.933817 0.00945912
25.6317 46.0849 18.9713 0.361569 -0.932299 0.00925622
26.0682 46.2612 19.9486 0.362862 -0.93183 0.00490269
26.5433 46.4519 21.0835 0.363371 -0.931633 0.00460316
26.8889 46.5936 22.4174 0.365963 -0.930622 0.00361534
27.2151 46.7261 23.5595 0.36757 -0.929988 0.00358992
27.5221 46.8508 24.6115 0.368896 -0.929469 0.00163162
27.8158 46.9693 25.6364 0.369827 -0.929098 0.00213979
28.0394 47.0608 26.7032 0.371419 -0.928464 0.00119544
28.2451 47.1448 27.7577 0.372393 -0.928072 0.00207611
28.3887 47.2042 28.8534 0.373884 -0.927474 0.00162242
28.5053 47.253 30.145 0.375026 -0.927014 0.00102887
28.5527 47.2734 31.2222 0.375912 -0.926655 0.00082061
28.6893 47.3299 32.3104 0.376503 -0.926415 0.00111756
28.7935 47.3738 33.4983 0.376997 -0.926214 0.000849978
28.7571 47.3604 34.6992 0.377722 -0.925919 0.00099516
28.5955 47.2959 35.9 0.378355 -0.925659 0.00150489
28.5081 47.2617 37.1577 0.379327 -0.925262 0.00134608
28.4986 47.2595 38.3552 0.380324 -0.924853 0.00114943
28.4406 47.2372 39.5774 0.380415 -0.924815 0.00123608
28.2378 47.155 40.6693 0.380747 -0.924679 0.00130803
27.9198 47.0257 42.1145 0.381633 -0.924313 0.000992363
27.6583 46.9189 43.256 0.381719 -0.924278 0.00100701
27.4096 46.8173 44.2961 0.382444 -0.923978 0.000949582
27.1823 46.7241 45.4519 0.382608 -0.92391 0.000913059
26.6832 46.5179 46.4678 0.382815 -0.923825 0.000139409
25.6263 46.0802 45.9753 0.382555 -0.923933 4.97907e-05
24.4684 45.6014 45.4849 0.382028 -0.92415 -0.000343804
23.4998 45.2015 45.0615 0.381617 -0.92432 -0.000590551
22.3113 44.7114 44.5396 0.381505 -0.924366 -0.00102866
21.2564 44.2769 44.0938 0.381156 -0.92451 -0.00126052
20.2625 43.8679 43.6829 0.380946 -0.924596 -0.00126915
19.229 43.4428 43.1705 0.380897 -0.924617 -0.00126586
18.1302 42.9907 42.7225 0.380934 -0.924601 -0.00128731
17.1012 42.5671 42.2892 0.381293 -0.924453 -0.00120495
16.8669 42.472 41.2179 0.381592 -0.924329 -0.00190306
17.2592 42.6372 40.0444 0.382169 -0.924088 -0.00277661
17.6167 42.7896 38.7508 0.38097 -0.92458 -0.00372924
17.9065 42.9136 37.7249 0.380428 -0.924791 -0.00599856
18.119 43.0097 36.4434 0.378952 -0.925389 -0.0070788
18.3598 43.1172 35.2434 0.378382 -0.925622 -0.00708824
18.5212 43.1921 34.0786 0.378932 -0.925393 -0.00759665
18.6336 43.2499 32.9029 0.377165 -0.926081 -0.0109765
18.6984 43.2907 31.67 0.375056 -0.926923 -0.0120542
18.6685 43.2936 30.5433 0.373902 -0.927392 -0.0118712
18.7018 43.3273 29.1383 0.370274 -0.928835 -0.0127246
18.5472 43.2846 27.9536 0.367706 -0.929799 -0.0162957
18.3709 43.2402 26.5603 0.363018 -0.931621 -0.0173093
18.248 43.2134 25.4369 0.363146 -0.931562 -0.0178342
18.1155 43.1854 24.2956 0.357621 -0.933692 -0.0180562
17.7103 43.057 23.0785 0.353957 -0.935009 -0.0217438
17.3715 42.9538 22.0024 0.348003 -0.937257 -0.0210334
17.0497 42.859 20.9309 0.345984 -0.938018 -0.0204111
16.6888 42.752 19.891 0.336279 -0.941582 -0.0184287
16.1147 42.5698 18.8634 0.329634 -0.943849 -0.0220758
15.5799 42.4086 17.9042 0.324661 -0.945555 -0.0227838
15.0255 42.248 16.7295 0.312095 -0.949813 -0.0211474
14.3295 42.0415 15.839 0.31103 -0.950135 -0.0224489
13.6147 41.839 14.8321 0.290311 -0.956826 -0.0142566
12.9821 41.6637 13.9476 0.279766 -0.959942 -0.0141925
12.1487 41.4453 13.1269 0.259585 -0.965428 -0.0237328
11.2503 41.2321 12.4088 0.234295 -0.97186 -0.0241648
10.1997 41.0026 11.6727 0.216757 -0.975937 -0.0237398
9.25383 40.8151 10.9365 0.202052 -0.979232 -0.0167357
8.21803 40.6362 10.4123 0.16057 -0.987023 -0.00143286
7.21825 40.4772 9.73671 0.154741 -0.987955 0.000576208
6.00062 40.3247 9.11036 0.109238 -0.994009 0.00324131
4.73226 40.1911 8.61813 0.0926112 -0.995526 0.0187531
3.61696 40.0778 8.13546 0.0913904 -0.995494 0.0252989
2.22051 39.9319 7.61896 0.094035 -0.995171 0.0278748
1.23321 39.8239 7.21515 0.0979705 -0.99452 0.036504
0.10859 39.6865 6.78614 0.107397 -0.99341 0.0400143
-1.04984 39.5362 6.44499 0.118875 -0.99154 0.0520342
-2.16752 39.3766 6.06725 0.137339 -0.9887 0.0591355
-3.22592 39.213 5.94691 0.144511 -0.987515 0.0626979
-4.55824 38.9468 5.4929 0.181968 -0.982179 0.0470083
-5.69036 38.6959 5.32518 0.232539 -0.971817 0.0386925
-6.84882 38.4024 5.13851 0.244625 -0.968356 0.0494464
-7.91428 38.0916 4.91274 0.280631 -0.95906 0.0370011
-9.01374 37.7577 4.87725 0.299381 -0.953937 0.0156556
-10.11 37.3987 4.85795 0.311718 -0.950083 0.0131896
-11.3608 36.9411 4.89047 0.35153 -0.936005 -0.017926
-12.5255 36.4895 4.97793 0.363132 -0.931116 -0.0340283
-13.813 35.9805 5.11113 0.369847 -0.927941 -0.0457231
-14.8366 35.5517 5.28019 0.386285 -0.920224 -0.0621342
-15.8296 35.1279 5.44629 0.392106 -0.916353 -0.0802954
-16.9759 34.6146 5.77473 0.384557 -0.917921 -0.0976579
-18.1965 34.0596 6.13173 0.384292 -0.916776 -0.108815
-19.1793 33.5925 6.53393 0.386704 -0.914019 -0.122545
-20.2309 33.115 6.82157 0.376288 -0.917469 -0.129056
-21.066 32.6699 7.45838 0.374537 -0.915898 -0.144368
-22.045 32.1924 7.93867 0.371823 -0.915849 -0.151551
-22.8811 31.7621 8.4908 0.367592 -0.91661 -0.157164
-23.7941 31.3276 8.89482 0.366556 -0.916587 -0.159697
-24.5703 30.895 9.6074 0.36207 -0.917986 -0.161855
-25.4555 30.4313 10.2707 0.356878 -0.919677 -0.163805
-26.4015 29.9153 11.1079 0.353486 -0.920845 -0.164596
-27.1491 29.4991 11.8259 0.351271 -0.921353 -0.166472
-27.9097 29.056 12.6891 0.348751 -0.922625 -0.164728
-28.6333 28.6241 13.5798 0.346812 -0.923322 -0.164916
-29.2646 28.2292 14.4668 0.345013 -0.924306 -0.16317
-30.0548 27.734 15.6038 0.344857 -0.924431 -0.162789
-30.7657 27.3419 16.332 0.345187 -0.924481 -0.161801
-31.2539 26.975 17.3975 0.344298 -0.925076 -0.160293
-31.7777 26.6174 18.3393 0.344438 -0.92514 -0.159618
-32.2694 26.2559 19.3748 0.344684 -0.925182 -0.158844
-32.7345 25.8927 20.4797 0.344882 -0.925079 -0.159013
-33.7924 25.5005 20.4669 0.344843 -0.925069 -0.159157
-35.1142 25.0881 20.001 0.344748 -0.925093 -0.159222
-36.3647 24.7148 19.4626 0.344653 -0.925122 -0.159257
-37.5385 24.3652 18.9527 0.34469 -0.925136 -0.159095
-38.5953 24.0496 18.4986 0.344687 -0.925148 -0.159033
-39.5431 23.7743 18.0457 0.344649 -0.925162 -0.159037
-40.8859 23.3399 17.6626 0.344806 -0.925128 -0.158893
-41.8667 23.0704 17.1036 0.344692 -0.925189 -0.158782
-42.9455 22.7509 16.6218 0.344926 -0.925122 -0.158665
-44.1969 22.3627 16.1641 0.345116 -0.925071 -0.158551
-45.1434 22.0956 15.6612 0.345267 -0.925047 -0.158361
-46.0843 21.8246 15.1904 0.345665 -0.924906 -0.158321
-45.9102 22.0867 14.041 0.345946 -0.924727 -0.158751
-45.423 22.4246 13.1343 0.345874 -0.924707 -0.159024
-45.1835 22.691 12.1091 0.345883 -0.924621 -0.159504
-44.5884 23.1142 10.9515 0.346041 -0.924363 -0.16065
-44.0714 23.4744 9.99212 0.345862 -0.9244 -0.160826
-43.4819 23.9061 8.78431 0.346091 -0.924156 -0.161728
-42.9407 24.271 7.85743 0.345456 -0.924192 -0.162877
-42.3529 24.6608 6.8949 0.344964 -0.924267 -0.163493
-41.7758 25.0418 5.95814 0.344823 -0.924322 -0.16348
-41.1548 25.4352 5.0456 0.344291 -0.92436 -0.164384
-40.4942 25.8291 4.21079 0.343382 -0.924708 -0.164327
-39.8101 26.2576 3.22762 0.342287 -0.924997 -0.16498
-39.0915 26.6525 2.50022 0.341342 -0.925425 -0.164539
-38.4294 27.041 1.68427 0.340548 -0.925808 -0.164035
-37.7263 27.4458 0.854283 0.338761 -0.926566 -0.163452
-36.8803 27.9021 0.0127176 0.336793 -0.927462 -0.162435
-36.1042 28.3054 -0.686552 0.3359 -0.928046 -0.160938
-35.2764 28.7463 -1.51658 0.333114 -0.929198 -0.160083
-34.286 29.2453 -2.36696 0.332283 -0.930119 -0.156422
-33.3973 29.6684 -3.00289 0.32976 -0.931381 -0.154228
-32.5097 30.1004 -3.73022 0.327059 -0.932528 -0.153051
-31.5584 30.5234 -4.31032 0.323759 -0.934468 -0.148156
-30.6877 30.9112 -4.87051 0.324618 -0.935161 -0.141764
-29.6052 31.3628 -5.38721 0.319125 -0.937702 -0.137291
-28.8193 31.7283 -6.08304 0.317262 -0.938981 -0.132887
-27.8572 32.1026 -6.43624 0.315213 -0.93975 -0.13233
-26.9043 32.4852 -6.90197 0.311387 -0.941733 -0.12715
-25.7158 32.9488 -7.48309 0.303358 -0.945107 -0.121434
-24.4749 33.4024 -7.95149 0.30329 -0.946054 -0.114001
-23.3567 33.796 -8.34336 0.299373 -0.948757 -0.101167
-22.2748 34.1803 -8.79075 0.296329 -0.949714 -0.101158
-21.2164 34.5318 -9.06606 0.293279 -0.951876 -0.088986
-20.0541 34.9088 -9.31734 0.289567 -0.953198 -0.0869765
-18.9308 35.267 -9.60557 0.280664 -0.956862 -0.0749515
-17.5129 35.6886 -9.87027 0.269193 -0.961243 -0.0594171
-16.4593 35.9946 -10.0403 0.26402 -0.963213 -0.0498432
-15.0928 36.3708 -10.2455 0.253509 -0.96652 -0.0396515
-13.8231 36.707 -10.4328 0.250349 -0.967458 -0.0367062
-12.6856 36.9916 -10.4332 0.238948 -0.97067 -0.0260761
-11.5222 37.2742 -10.5527 0.222608 -0.974767 -0.0163136
-10.1469 37.5897 -10.6232 0.215101 -0.976512 -0.00754352
-8.98348 37.8332 -10.3412 0.20548 -0.97866 -0.000231745
-7.39698 38.1288 -10.2796 0.177456 -0.984122 0.00161248
-6.2327 38.3199 -10.1704 0.151523 -0.988278 0.0159949
-4.91794 38.501 -9.99807 0.120385 -0.99221 0.0318129
-3.64923 38.6544 -9.84911 0.10708 -0.993579 0.0365248
-2.34559 38.7531 -9.875 0.0514574 -0.997963 0.0377206
-1.30503 38.7703 -10.2158 0.014751 -0.996577 0.0807498
0.104322 38.7569 -10.4517 -0.015705 -0.995097 0.097652
1.26715 38.708 -10.6359 -0.0397564 -0.994456 0.0973415
2.42487 38.6574 -10.6076 -0.0722316 -0.993801 0.084511
4.02641 38.5467 -10.4362 -0.0907223 -0.985883 0.140727
5.30549 38.4448 -10.3274 -0.105931 -0.983753 0.143484
6.38831 38.3053 -10.1696 -0.151192 -0.975428 0.160253
7.45531 38.1409 -10.0992 -0.17375 -0.965492 0.193829
8.59969 37.9723 -9.9353 -0.16887 -0.964161 0.204639
9.93708 37.7045 -9.96513 -0.192518 -0.959983 0.202862
11.1891 37.4296 -9.95651 -0.218778 -0.953587 0.206901
12.2547 37.1724 -9.88632 -0.268166 -0.943068 0.196746
13.4841 36.762 -10.1336 -0.319523 -0.936845 0.142219
14.5639 36.3726 -10.2471 -0.344837 -0.930004 0.127201
15.5977 35.9606 -10.3907 -0.375063 -0.919762 0.115476
16.6047 35.5337 -10.4143 -0.402431 -0.908874 0.109428
17.6513 35.1007 -10.065 -0.432412 -0.894757 0.111488
17.8194 35.1561 -9.04149 -0.458249 -0.876311 0.148615
17.5698 35.4807 -7.97327 -0.443187 -0.877951 0.180758
17.124 35.9422 -6.82898 -0.457305 -0.867936 0.193801
16.6399 36.416 -5.91793 -0.452836 -0.85816 0.240469
16.1042 37.0071 -4.80592 -0.414345 -0.874786 0.251132
15.8914 37.2097 -4.44578 -0.439273 -0.86803 0.230189
25.0843 45.8561 42.2017 0.381108 -0.924531 -3.78136e-05
23.9396 45.3843 42.1315 0.380852 -0.924636 -0.000392719
22.9851 44.9912 42.0717 0.380859 -0.924633 -0.000592213
21.0212 44.1845 41.0055 0.380479 -0.924788 -0.00164459
22.2802 44.7023 41.0887 0.380423 -0.924811 -0.00143013
23.5147 45.2101 41.1677 0.380352 -0.924841 -0.00112147
24.6893 45.6935 41.2404 0.380632 -0.924726 -0.000634368
25.4756 46.0175 41.2882 0.380916 -0.92461 4.5318e-05
25.4482 46.0063 40.3496 0.38057 -0.924752 -0.00043813
24.2975 45.5329 40.2794 0.380252 -0.924883 -0.000731353
22.9128 44.9638 40.1923 0.380268 -0.924875 -0.0013462
21.3049 44.3029 40.0871 0.380196 -0.924904 -0.00199179
20.0383 43.7822 40.0012 0.380581 -0.924745 -0.0021335
20.3099 43.8964 39.0818 0.380143 -0.924924 -0.00274517
21.6004 44.4264 39.1699 0.380108 -0.92494 -0.00224095
22.9661 44.9872 39.2591 0.3797 -0.925108 -0.0018672
24.2607 45.5188 39.34 0.380009 -0.924982 -0.00103806
25.5263 46.0386 39.4171 0.380214 -0.924899 -0.000177007
25.9137 46.1978 39.4404 0.380162 -0.92492 7.28202e-05
26.0483 46.2531 38.5108 0.379496 -0.925193 -0.000472955
24.6263 45.6698 38.4251 0.379413 -0.925227 -0.000895638
23.3625 45.1516 38.3473 0.379562 -0.925165 -0.00176032
22.1845 44.6685 38.2721 0.379735 -0.925092 -0.00238575
20.894 44.1391 38.1851 0.379719 -0.925097 -0.00285914
20.7533 44.0813 38.1754 0.379854 -0.925042 -0.00282822
20.8249 44.1143 37.2429 0.379303 -0.925263 -0.00417723
21.9733 44.5846 37.3219 0.379373 -0.925239 -0.00293784
23.1445 45.0641 37.3977 0.37866 -0.925533 -0.00225668
24.415 45.5844 37.4749 0.378952 -0.925415 -0.00149825
25.6253 46.0801 37.5475 0.379343 -0.925256 -0.000721913
25.8584 46.1757 37.5614 0.379313 -0.925268 -0.000338386
26.0138 46.2397 36.6322 0.378878 -0.925447 -0.00048699
24.799 45.743 36.5603 0.378438 -0.925625 -0.00143409
23.5343 45.226 36.4843 0.378478 -0.925608 -0.00219492
22.3048 44.7235 36.4069 0.378828 -0.925463 -0.002836
20.9619 44.1745 36.3151 0.378756 -0.925486 -0.00450187
20.8342 44.1223 36.3059 0.378752 -0.925487 -0.00450529
20.8763 44.1445 35.372 0.377883 -0.925837 -0.00545552
22.3829 44.7587 35.4744 0.377416 -0.926036 -0.00389658
23.5608 45.239 35.5484 0.378208 -0.925717 -0.00270313
25.0284 45.8381 35.6358 0.378216 -0.925716 -0.00131839
25.9446 46.2122 35.6897 0.378298 -0.925684 -0.000849758
26.2354 46.3315 34.7678 0.377692 -0.925931 -0.000649123
25.0311 45.8408 34.6975 0.377216 -0.926124 -0.00173837
23.6849 45.2928 34.618 0.376947 -0.926231 -0.00270671
22.479 44.8019 34.543 0.376864 -0.92626 -0.00394166
21.3264 44.3333 34.4662 0.377129 -0.926146 -0.00516047
20.8442 44.1368 34.4322 0.377175 -0.926121 -0.00615343
20.9776 44.197 33.5041 0.376693 -0.926316 -0.00641623
22.1297 44.6648 33.5826 0.375779 -0.926694 -0.00523537
23.3512 45.1604 33.6593 0.375916 -0.926645 -0.00401186
24.7461 45.7269 33.7422 0.376699 -0.926333 -0.00225583
25.9897 46.2323 33.8141 0.376823 -0.926285 -0.00123551
25.9853 46.2318 32.8741 0.376537 -0.926401 -0.00109109
24.4184 45.5965 32.7843 0.375372 -0.92687 -0.00290296
23.0532 45.0436 32.703 0.375389 -0.926857 -0.00430028
21.9036 44.5787 32.6301 0.375207 -0.926925 -0.00550088
21.1361 44.2681 32.5786 0.375537 -0.926779 -0.00727571
21.241 44.318 31.6494 0.37376 -0.927497 -0.00732702
22.5275 44.8363 31.7328 0.374162 -0.927346 -0.0056011
23.9675 45.4173 31.8196 0.375127 -0.926967 -0.00351459
25.1221 45.8837 31.8852 0.374909 -0.927058 -0.00258491
25.9959 46.2372 31.9347 0.37583 -0.926688 -0.00115345
26.098 46.2798 31.0001 0.37446 -0.927242 -0.00140541
24.8864 45.7913 30.933 0.373974 -0.927435 -0.00271671
23.6691 45.301 30.8644 0.372932 -0.92785 -0.00399299
22.3535 44.7727 30.7855 0.373263 -0.927706 -0.00595407
21.3764 44.3804 30.7236 0.373173 -0.927732 -0.00746424
21.201 44.318 29.7767 0.371098 -0.928554 -0.00859637
22.5808 44.8696 29.8629 0.371557 -0.928387 -0.00662867
23.8968 45.3968 29.9399 0.372574 -0.927994 -0.00387339
25.0483 45.8588 30.0023 0.373122 -0.927778 -0.00264479
26.016 46.2483 30.055 0.373599 -0.927588 -0.00206056
25.9103 46.2072 29.1085 0.372662 -0.927965 -0.00170366
24.5994 45.6818 29.04 0.370792 -0.92871 -0.00323173
23.4116 45.2073 28.9754 0.371154 -0.928559 -0.00479914
22.0185 44.6521 28.8939 0.369716 -0.929111 -0.00792838
21.2307 44.3385 28.8446 0.369929 -0.929015 -0.00912835
21.261 44.3599 27.9134 0.369179 -0.929316 -0.00888109
22.478 44.8422 27.9859 0.368967 -0.929421 -0.00637082
23.6577 45.3106 28.0524 0.36978 -0.929107 -0.00487155
25.0594 45.8687 28.1244 0.370836 -0.928695 -0.00239683
25.627 46.0954 28.153 0.371709 -0.928346 -0.00235733
25.5493 46.0665 27.2085 0.37015 -0.92897 -0.00216353
24.0733 45.4803 27.1356 0.368866 -0.929469 -0.00506101
22.7896 44.9721 27.0685 0.367915 -0.92984 -0.00598479
21.6251 44.5126 27.0019 0.367133 -0.930119 -0.00957325
21.2476 44.3638 26.9794 0.366735 -0.930275 -0.00963018
21.0479 44.2955 26.0348 0.364945 -0.930977 -0.0098298
22.3023 44.787 26.1069 0.365773 -0.930677 -0.00710449
23.6042 45.299 26.174 0.367111 -0.930168 -0.00422071
25.0731 45.8798 26.2445 0.368005 -0.929823 -0.00153262
25.3014 45.9701 26.255 0.368008 -0.929821 -0.00153173
25.0925 45.8894 25.3031 0.367429 -0.930051 -0.00114279
23.8989 45.4188 25.2494 0.366342 -0.930474 -0.00323755
22.6054 44.912 25.1894 0.36542 -0.93083 -0.0049297
21.3817 44.4346 25.1216 0.363012 -0.931744 -0.00867262
20.7922 44.2059 25.0861 0.361813 -0.932202 -0.00951535
20.8239 44.2284 24.1556 0.358464 -0.933489 -0.0100874
22.1855 44.7544 24.2332 0.36228 -0.932044 -0.00684779
23.3789 45.2188 24.2887 0.364268 -0.931289 -0.00308836
24.6096 45.7003 24.3395 0.365276 -0.930898 -0.00172403
24.8587 45.7981 24.35 0.366013 -0.930609 -0.00131337
24.5632 45.6831 23.3962 0.363754 -0.931494 -0.00114285
23.3201 45.1991 23.3495 0.362712 -0.931895 -0.00348975
22.0123 44.6935 23.2886 0.359713 -0.933048 -0.00533828
20.7999 44.2285 23.2209 0.357472 -0.933889 -0.00804196
20.5872 44.1474 23.2088 0.356111 -0.9344 -0.00904645
20.1646 43.9967 22.2501 0.354924 -0.934838 -0.0103275
21.3362 44.441 22.3176 0.35626 -0.934371 -0.00544539
22.68 44.9549 22.3841 0.35828 -0.933604 -0.00438087
24.0403 45.48 22.4373 0.361185 -0.932494 -0.000676955
23.6473 45.3291 21.4828 0.359181 -0.933268 -6.43407e-05
22.4209 44.8587 21.4342 0.356902 -0.934138 -0.00261104
21.1962 44.3944 21.3756 0.353027 -0.935594 -0.00591518
20.0132 43.9493 21.3092 0.350272 -0.936598 -0.00970045
19.8213 43.8778 21.298 0.349144 -0.937022 -0.00934755
19.6727 43.8311 20.3578 0.346143 -0.938156 -0.00702124
20.8918 44.2847 20.4239 0.351493 -0.936176 -0.00514814
22.2202 44.7842 20.4863 0.353444 -0.935455 -0.00121863
23.4629 45.2579 20.5341 0.357932 -0.933748 -4.71082e-05
22.9719 45.0684 19.5752 0.356714 -0.934212 0.00180463
21.8051 44.6292 19.5287 0.350684 -0.936494 0.000708569
20.4103 44.1096 19.4641 0.347356 -0.93772 -0.0049627
19.5819 43.8044 19.4195 0.343436 -0.939154 -0.00645518
19.0642 43.6231 18.457 0.341147 -0.939987 -0.00663508
20.512 44.15 18.5318 0.344355 -0.938835 -0.00284246
21.7997 44.6259 18.5884 0.34837 -0.937351 0.00351796
22.7615 44.986 18.6264 0.351068 -0.936337 0.00493163
22.2732 44.7981 17.6675 0.349592 -0.936886 0.00557157
20.9303 44.3017 17.6124 0.342842 -0.93939 0.00242392
19.5541 43.8022 17.5487 0.338346 -0.941022 0.000177192
18.5775 43.4528 17.4973 0.333634 -0.942697 -0.00322701
17.7818 43.1783 16.5197 0.32662 -0.945146 -0.0043735
19.2717 43.7007 16.599 0.33404 -0.942541 0.00572793
20.507 44.143 16.657 0.340341 -0.940288 0.00519197
21.3797 44.4613 16.6935 0.34541 -0.938423 0.00737542
20.8613 44.2628 15.734 0.338829 -0.940788 0.0106176
19.6737 43.8371 15.6849 0.333305 -0.942768 0.00984268
18.3116 43.3607 15.6164 0.32688 -0.945059 0.00364182
17.4311 43.0595 15.5669 0.320004 -0.947415 0.0015203
16.729 42.8221 14.5925 0.309491 -0.950894 0.00401217
18.2871 43.3457 14.6832 0.322517 -0.946545 0.00591758
19.6213 43.8091 14.7485 0.330128 -0.943892 0.00913642
20.1803 44.0072 14.7714 0.333257 -0.942724 0.0145536
19.4455 43.7328 13.8077 0.327641 -0.944681 0.0151505
18.2595 43.3245 13.7509 0.320616 -0.9471 0.0143859
16.9738 42.8954 13.6781 0.312008 -0.949983 0.0135143
16.2825 42.6732 13.6321 0.304713 -0.952412 0.00781992
15.149 42.3045 12.6246 0.289445 -0.957073 0.0152575
16.3787 42.6908 12.7129 0.303144 -0.952849 0.0134853
17.6709 43.1089 12.793 0.313429 -0.949382 0.020891
18.5787 43.4143 12.8392 0.321423 -0.9467 0.0211463
17.598 43.0625 11.8639 0.310476 -0.950141 0.0289175
16.3864 42.6726 11.7915 0.300622 -0.953509 0.0211549
14.9252 42.2242 11.6798 0.282081 -0.959148 0.021577
14.2733 42.0303 11.6215 0.2774 -0.960624 0.0158584
13.0704 41.6774 10.5816 0.245027 -0.968968 0.0326176
14.6801 42.1271 10.7423 0.280679 -0.959445 0.0261571
15.956 42.5099 10.846 0.294169 -0.955152 0.0338881
16.3084 42.6208 10.8679 0.298211 -0.95392 0.0332656
14.9496 42.173 9.85836 0.283355 -0.957983 0.0444907
13.6522 41.8057 9.73522 0.259378 -0.965062 0.0371256
12.3029 41.4495 9.57244 0.237997 -0.970169 0.0461446
11.7325 41.313 9.4843 0.228613 -0.972971 0.0326061
10.2001 40.9315 8.30356 0.187109 -0.981013 0.0510348
11.5051 41.2083 8.53228 0.218497 -0.974312 0.0545463
12.8322 41.5389 8.73018 0.248232 -0.967157 0.0546584
13.8547 41.8156 8.85548 0.264129 -0.96279 0.057187
12.1274 41.296 7.72973 0.229287 -0.969939 0.0815258
10.6648 40.9637 7.47671 0.197251 -0.977053 0.0803734
9.37201 40.7153 7.19959 0.154763 -0.98606 0.0611017
8.15394 40.5208 6.88467 0.135031 -0.988764 0.0641317
6.96006 40.3615 6.5797 0.108847 -0.992758 0.0508405
6.14182 40.2645 6.3585 0.0993508 -0.993857 0.0487598
9.79898 40.7138 6.36952 0.158022 -0.98375 0.08523
8.5515 40.5152 6.04482 0.120985 -0.988661 0.0889471
7.33397 40.3451 5.71355 0.10229 -0.992415 0.0681868
5.99842 40.1982 5.33792 0.0924412 -0.994441 0.0504142
4.78601 40.0695 5.00869 0.0904785 -0.994258 0.05714
3.48289 39.9394 4.64459 0.0859358 -0.995266 0.0453966
2.27309 39.8177 4.31025 0.0846243 -0.995614 0.0398861
0.945605 39.6743 4.04546 0.110039 -0.993284 0.0357441
-0.347367 39.5169 3.75879 0.117501 -0.992431 0.0356831
-0.92079 39.445 3.64508 0.129136 -0.991132 0.0313393
-34.6962 25.7335 17.1582 0.344903 -0.924982 -0.159529
-35.083 25.5963 17.1176 0.34487 -0.924996 -0.159519
-33.9017 26.1736 16.3257 0.345037 -0.924898 -0.159728
-35.615 25.5674 16.1357 0.344969 -0.924925 -0.159721
-37.0378 25.064 15.9781 0.344865 -0.925006 -0.159476
-37.9691 24.7344 15.8759 0.344962 -0.924986 -0.159378
-40.9266 23.8458 14.632 0.344936 -0.925012 -0.159283
-39.3834 24.3934 14.7944 0.344823 -0.925027 -0.159442
-37.8352 24.9417 14.9622 0.345001 -0.924936 -0.159585
-36.3888 25.4533 15.1242 0.345078 -0.924903 -0.159609
-34.949 25.9621 15.2889 0.345232 -0.924777 -0.16001
-33.5169 26.4685 15.4519 0.345274 -0.924725 -0.160215
-32.8797 26.8524 14.6112 0.345568 -0.92452 -0.160767
-34.5064 26.278 14.4188 0.345552 -0.924589 -0.160404
-36.0277 25.741 14.2389 0.345245 -0.924781 -0.159953
-37.5239 25.2123 14.0676 0.345014 -0.924885 -0.159853
-38.9614 24.7035 13.908 0.345039 -0.924928 -0.15955
-40.5461 24.1417 13.7393 0.344877 -0.924962 -0.159701
-41.9457 23.6449 13.5923 0.345159 -0.924851 -0.159736
-42.6017 23.4113 13.527 0.345357 -0.924802 -0.159592
-42.3306 23.6691 12.6211 0.345349 -0.924741 -0.159963
-40.5215 24.3119 12.8081 0.345104 -0.924812 -0.160081
-38.9373 24.873 12.9798 0.344984 -0.924854 -0.160096
-37.2921 25.4548 13.1647 0.345036 -0.924881 -0.159831
-35.583 26.0579 13.3672 0.345481 -0.924657 -0.160166
-34.1132 26.5757 13.5498 0.345628 -0.924581 -0.160283
-32.6162 27.1051 13.7251 0.345788 -0.924395 -0.161012
-32.0771 27.296 13.7875 0.345877 -0.924324 -0.161225
-31.478 27.6681 12.9424 0.346755 -0.923965 -0.161397
-33.1082 27.0907 12.7497 0.346368 -0.924186 -0.160963
-34.8953 26.4601 12.5304 0.345867 -0.924457 -0.160482
-36.4047 25.9289 12.3391 0.345495 -0.924636 -0.160254
-38.0043 25.3644 12.1515 0.345103 -0.924811 -0.160092
-39.6783 24.7725 11.9642 0.344892 -0.924869 -0.160211
-41.2584 24.2125 11.7943 0.345166 -0.924722 -0.160468
-41.6599 24.0698 11.7528 0.345387 -0.924642 -0.16045
-41.5071 24.2871 10.83 0.345253 -0.924617 -0.160886
-39.993 24.8236 10.9937 0.344999 -0.924715 -0.160865
-38.4933 25.3534 11.1641 0.344893 -0.924771 -0.160772
-36.7746 25.9598 11.364 0.345091 -0.924776 -0.160315
-35.1702 26.524 11.5693 0.345932 -0.924456 -0.160351
-33.3604 27.1614 11.7999 0.346268 -0.924263 -0.160735
-31.8158 27.7079 11.9901 0.347236 -0.923782 -0.161413
-31.0027 27.9957 12.0907 0.347555 -0.923605 -0.161736
-30.2923 28.4083 11.2631 0.348147 -0.923412 -0.161569
-31.7728 27.8824 11.082 0.34749 -0.923805 -0.160735
-33.2005 27.3777 10.8994 0.346616 -0.924191 -0.160402
-34.8693 26.7905 10.6817 0.345966 -0.92444 -0.160366
-36.4776 26.2259 10.4709 0.34512 -0.924685 -0.160778
-38.08 25.6613 10.2792 0.344808 -0.9248 -0.16079
-39.8523 25.0364 10.0729 0.344818 -0.924754 -0.16103
-41.0944 24.5967 9.93712 0.345082 -0.924584 -0.161443
-40.4569 24.9862 9.06805 0.344843 -0.924658 -0.161524
-38.8409 25.5569 9.25069 0.344729 -0.924735 -0.161332
-37.2318 26.123 9.44542 0.345009 -0.924652 -0.161208
-35.6426 26.6804 9.6503 0.345427 -0.924577 -0.160739
-34.1639 27.1987 9.85084 0.346011 -0.924422 -0.160373
-32.7238 27.7056 10.0413 0.346996 -0.924067 -0.160292
-31.3097 28.2058 10.2241 0.347654 -0.923782 -0.160512
-29.779 28.7507 10.4169 0.349769 -0.922859 -0.161224
-29.518 28.8436 10.4509 0.349515 -0.922771 -0.162274
-28.6009 29.3299 9.65896 0.351741 -0.922272 -0.160292
-30.1245 28.7862 9.45883 0.349611 -0.923061 -0.160404
-31.5316 28.2863 9.27766 0.348088 -0.9238 -0.159461
-33.0086 27.765 9.0812 0.346741 -0.924278 -0.159626
-34.4844 27.2473 8.87901 0.345393 -0.924602 -0.160672
-36.1839 26.6529 8.64765 0.344909 -0.924686 -0.161228
-37.6961 26.1234 8.45064 0.344626 -0.924725 -0.161608
-39.2126 25.5901 8.2679 0.344737 -0.924622 -0.16196
-39.8317 25.3724 8.19487 0.344743 -0.924525 -0.162497
-39.2525 25.7416 7.32054 0.344295 -0.924674 -0.1626
-37.6612 26.2991 7.51938 0.34438 -0.924769 -0.16188
-35.8707 26.9252 7.75352 0.344753 -0.924824 -0.160766
-34.0954 27.5446 8.00134 0.345222 -0.924806 -0.159863
-32.5002 28.1034 8.22575 0.346707 -0.924341 -0.159334
-31.0685 28.609 8.41837 0.348538 -0.923716 -0.158968
-29.5416 29.152 8.62176 0.350462 -0.923048 -0.158617
-28.0708 29.6779 8.81994 0.353284 -0.921786 -0.15969
-27.7582 29.7904 8.86194 0.353283 -0.921786 -0.15969
-26.9321 30.2443 8.06843 0.355134 -0.92126 -0.158622
-28.3319 29.7399 7.87669 0.352019 -0.92273 -0.157008
-29.9793 29.1537 7.64595 0.349646 -0.923682 -0.156713
-31.4033 28.649 7.45159 0.348421 -0.923934 -0.15795
-33.1146 28.048 7.21102 0.346448 -0.924437 -0.159343
-34.5364 27.5522 7.00592 0.345011 -0.924883 -0.159874
-36.1185 27.0014 6.7855 0.343745 -0.925137 -0.161122
-37.8766 26.388 6.5539 0.344167 -0.924886 -0.161664
-38.6197 26.1286 6.45809 0.343989 -0.924801 -0.162528
-38.2306 26.4295 5.56786 0.343458 -0.924995 -0.162546
-36.8027 26.9263 5.75733 0.343751 -0.925113 -0.161249
-35.1887 27.4869 5.98139 0.34397 -0.925127 -0.160701
-33.7437 27.9886 6.18967 0.344875 -0.924986 -0.159567
-32.2301 28.5167 6.40971 0.345859 -0.924836 -0.158301
-30.7811 29.0264 6.61551 0.348019 -0.924126 -0.157713
-29.33 29.54 6.82239 0.350114 -0.923813 -0.154887
-27.9098 30.0466 7.02429 0.353466 -0.922628 -0.154338
-26.4399 30.5782 7.22052 0.356378 -0.92168 -0.1533
-25.9436 30.7592 7.28497 0.355892 -0.921846 -0.153431
-24.8922 31.2925 6.51852 0.3592 -0.920951 -0.151082
-26.3453 30.7632 6.31876 0.35519 -0.922634 -0.150288
-27.8827 30.2092 6.10994 0.35184 -0.923526 -0.152671
-29.3073 29.7024 5.90601 0.349293 -0.924178 -0.154563
-30.7735 29.1851 5.69304 0.346984 -0.924895 -0.15547
-32.3555 28.6318 5.46116 0.345058 -0.925332 -0.157148
-33.8542 28.1108 5.24051 0.344527 -0.925206 -0.159047
-35.4237 27.5674 5.01256 0.342719 -0.925659 -0.160312
-36.898 27.0572 4.80506 0.342412 -0.925471 -0.162044
-37.4739 26.8576 4.72745 0.34265 -0.925372 -0.162105
-36.6603 27.3039 3.89767 0.342112 -0.925646 -0.161677
-34.9014 27.9101 4.15051 0.342721 -0.925658 -0.160311
-33.3842 28.4335 4.37571 0.343817 -0.925741 -0.15746
-31.7385 29.004 4.62336 0.345525 -0.925384 -0.155812
-30.2165 29.5349 4.84942 0.346787 -0.925356 -0.153148
-28.6505 30.0874 5.0785 0.348543 -0.925005 -0.151272
-26.9309 30.7002 5.32505 0.352417 -0.923974 -0.148577
-25.4275 31.2442 5.53311 0.355481 -0.923167 -0.146274
-23.9768 31.7749 5.73675 0.361094 -0.921153 -0.145217
-23.6987 31.8781 5.77711 0.362819 -0.920473 -0.145231
-22.592 32.4298 5.02003 0.364081 -0.921628 -0.134336
-24.0278 31.8968 4.81565 0.359083 -0.922726 -0.140129
-25.5949 31.3276 4.59522 0.355188 -0.923825 -0.142788
-27.27 30.7262 4.35503 0.350984 -0.924953 -0.145848
-28.9804 30.1215 4.10367 0.348502 -0.925365 -0.149152
-30.7398 29.5064 3.84312 0.344897 -0.925915 -0.154039
-32.1521 29.0171 3.62913 0.343259 -0.926376 -0.15492
-33.6598 28.4979 3.39964 0.34207 -0.926203 -0.158541
-35.3828 27.9063 3.14265 0.341063 -0.926348 -0.159861
-36.1207 27.6531 3.03634 0.341136 -0.926133 -0.160949
-35.3214 28.0898 2.21275 0.340316 -0.926669 -0.15959
-33.8851 28.5798 2.4297 0.340498 -0.926969 -0.157445
-32.4576 29.0687 2.64589 0.342161 -0.926767 -0.15501
-30.9806 29.5766 2.87439 0.342875 -0.926801 -0.153223
-29.4407 30.1108 3.10758 0.345858 -0.926379 -0.149012
-27.7597 30.699 3.35789 0.347998 -0.926063 -0.145961
-26.1762 31.2617 3.58898 0.351036 -0.925636 -0.141319
-24.567 31.8394 3.8207 0.354228 -0.925134 -0.136565
-23.1076 32.3703 4.0292 0.357885 -0.924103 -0.133986
-21.3966 33.0042 4.26729 0.360462 -0.924042 -0.127336
-21.1091 33.1124 4.30449 0.365416 -0.922404 -0.125067
-19.0961 33.9934 3.61287 0.367243 -0.923313 -0.112364
-20.5402 33.4469 3.45204 0.361543 -0.924847 -0.118087
-22.3507 32.7776 3.21626 0.354425 -0.92656 -0.125971
-24.1445 32.1275 2.96142 0.352594 -0.926622 -0.130571
-25.6827 31.5777 2.7387 0.349088 -0.926687 -0.139244
-27.1907 31.0444 2.51439 0.347124 -0.926862 -0.142938
-28.7143 30.5118 2.28663 0.344184 -0.92735 -0.146833
-30.2125 29.9929 2.05914 0.342619 -0.927394 -0.150175
-31.6776 29.491 1.83253 0.340052 -0.927895 -0.152891
-33.4041 28.9028 1.56338 0.340141 -0.92731 -0.156206
-34.1852 28.6378 1.4449 0.339171 -0.927381 -0.157884
-33.3911 29.0659 0.624097 0.337344 -0.92836 -0.156034
-31.8451 29.5879 0.869888 0.338191 -0.928709 -0.152075
-30.3744 30.0884 1.09914 0.340262 -0.928391 -0.149374
-28.6899 30.6666 1.35959 0.342895 -0.928241 -0.144191
-27.0842 31.2237 1.60214 0.345188 -0.928043 -0.139936
-25.5857 31.7493 1.82737 0.346658 -0.928484 -0.133215
-24.1687 32.2505 2.0322 0.349943 -0.927872 -0.128814
-22.7748 32.7493 2.23209 0.349897 -0.928661 -0.123133
-21.0583 33.3738 2.46228 0.358075 -0.926627 -0.114652
-19.6649 33.8911 2.62115 0.3547 -0.928905 -0.106411
-18.2621 34.4165 2.76291 0.361123 -0.927204 -0.099412
-16.7303 34.995 2.90711 0.36336 -0.92709 -0.0920567
-13.0652 36.4142 2.27416 0.337532 -0.940234 -0.0450707
-14.5878 35.8686 2.15674 0.346715 -0.936108 -0.0590719
-16.3328 35.226 2.00082 0.354329 -0.931793 -0.0788202
-17.9154 34.6426 1.85619 0.354035 -0.930357 -0.0953699
-19.5867 34.0261 1.69412 0.356034 -0.928699 -0.103717
-21.0967 33.4734 1.52761 0.352311 -0.929296 -0.110841
-22.5838 32.9389 1.32883 0.350147 -0.928832 -0.121112
-24.124 32.3949 1.1108 0.344153 -0.93062 -0.124521
-25.6034 31.8758 0.896608 0.342163 -0.930332 -0.131938
-27.2638 31.3004 0.646803 0.341027 -0.929836 -0.138224
-28.8311 30.7622 0.405076 0.340354 -0.929551 -0.141756
-30.244 30.282 0.184748 0.337291 -0.929675 -0.14812
-31.6423 29.8104 -0.0366794 0.338754 -0.928629 -0.151311
-32.5996 29.4889 -0.190605 0.33615 -0.929197 -0.153612
-31.5189 30.0036 -0.955008 0.334857 -0.930091 -0.151003
-29.9568 30.5262 -0.706513 0.336145 -0.930447 -0.145859
-28.4777 31.0255 -0.474722 0.337202 -0.930727 -0.141571
-27.0622 31.5063 -0.251545 0.33845 -0.931185 -0.13545
-25.3259 32.1022 0.0067747 0.340295 -0.931487 -0.128572
-23.856 32.6128 0.21866 0.340804 -0.932401 -0.120341
-22.3905 33.1258 0.422628 0.344062 -0.931976 -0.1142
-20.8457 33.6743 0.619948 0.347124 -0.931716 -0.106817
-19.4452 34.18 0.76881 0.343028 -0.93422 -0.0977967
-18.0491 34.6864 0.90307 0.345401 -0.934216 -0.0891012
-16.4323 35.2682 1.04408 0.341514 -0.936771 -0.076346
-14.9599 35.7954 1.1758 0.335093 -0.940509 -0.0561708
-13.5245 36.2987 1.28633 0.331844 -0.941965 -0.050803
-11.9811 36.8256 1.41382 0.316584 -0.947873 -0.036221
-10.5192 37.3017 1.52642 0.292983 -0.955874 -0.0215795
-8.9705 37.7608 1.66985 0.274324 -0.961597 -0.00882524
-7.35016 38.205 1.8382 0.241874 -0.970293 0.00538563
-5.90901 38.546 2.03841 0.22122 -0.975014 0.0202491
-4.3874 38.8611 2.21528 0.184134 -0.98254 0.0266526
-2.67486 39.1626 2.41003 0.146651 -0.988689 0.0314238
-1.16239 39.3806 2.61053 0.125466 -0.991713 0.0276315
0.481364 39.5799 2.89611 0.103408 -0.99396 0.0367391
1.94209 39.7453 3.22668 0.0921898 -0.99462 0.0472481
3.52643 39.8921 3.60484 0.0805574 -0.995319 0.0533871
4.99253 40.0315 4.06338 0.0824642 -0.994672 0.0618572
6.80429 40.2213 4.59097 0.0873856 -0.992889 0.0808412
8.56422 40.4344 5.12914 0.111283 -0.990357 0.0825144
8.76332 40.4635 5.18173 0.12742 -0.987913 0.0882698
8.59102 40.3477 4.2115 0.0929488 -0.989975 0.106346
6.81153 40.144 3.63401 0.0832545 -0.993048 0.0832147
5.33161 40.0006 3.15752 0.0686414 -0.9952 0.069758
3.75679 39.8554 2.62522 0.0679693 -0.995792 0.0614651
2.24437 39.7222 2.25108 0.079385 -0.995702 0.0476937
0.621262 39.5583 1.89246 0.0988868 -0.994408 0.0370801
-0.895815 39.389 1.65486 0.116991 -0.99253 0.0346109
-2.41648 39.1735 1.45119 0.150762 -0.988364 0.0201949
-4.1511 38.8813 1.23585 0.178375 -0.983616 0.0261188
-5.63406 38.5931 1.06948 0.209727 -0.977754 0.00335003
-7.27821 38.2191 0.865724 0.230558 -0.973058 -0.00106101
-9.161 37.7215 0.687836 0.276289 -0.960965 -0.0144846
-10.8343 37.2252 0.544411 0.29875 -0.95411 -0.0205441
-12.2839 36.762 0.432023 0.312771 -0.94928 -0.0322922
-13.7147 36.2868 0.322206 0.330617 -0.941951 -0.0584827
-15.4946 35.6725 0.178404 0.332353 -0.940819 -0.0663382
-16.9736 35.155 0.0525449 0.333337 -0.939716 -0.0762888
-18.3834 34.6584 -0.0742596 0.339989 -0.936064 -0.0905055
-20.1936 34.0141 -0.250999 0.341615 -0.93438 -0.101161
-21.6704 33.4937 -0.416347 0.34198 -0.932894 -0.112949
-23.1884 32.965 -0.620117 0.340307 -0.932958 -0.117388
-24.7696 32.4204 -0.84441 0.335845 -0.933823 -0.123219
-26.2028 31.9317 -1.05348 0.334398 -0.933052 -0.132638
-27.8949 31.362 -1.3173 0.33505 -0.932243 -0.136616
-29.5596 30.8042 -1.58247 0.334111 -0.9318 -0.141839
-30.6412 30.4454 -1.75373 0.332154 -0.932052 -0.144751
-29.1906 31.0698 -2.4629 0.329878 -0.933391 -0.141286
-27.4933 31.6322 -2.18621 0.333266 -0.933144 -0.134821
-25.8532 32.1794 -1.93772 0.333612 -0.934162 -0.126666
-24.1895 32.7411 -1.6956 0.335066 -0.934524 -0.119987
-22.6796 33.2559 -1.48083 0.334041 -0.936178 -0.109489
-21.0815 33.8048 -1.286 0.334649 -0.936804 -0.102023
-19.3215 34.42 -1.10947 0.335143 -0.937356 -0.0950968
-17.6996 34.9831 -0.961741 0.330861 -0.940488 -0.0775485
-16.2118 35.492 -0.831898 0.328342 -0.942156 -0.0673271
-14.5703 36.0489 -0.69649 0.321428 -0.945237 -0.0566766
-12.8402 36.6214 -0.563492 0.307968 -0.950629 -0.0382275
-11.4149 37.074 -0.457908 0.291551 -0.956071 -0.0304368
-9.79681 37.5545 -0.329146 0.283203 -0.958869 -0.0191214
-8.34701 37.961 -0.200798 0.265846 -0.963979 -0.00841668
-6.8958 38.3103 -0.0650971 0.223592 -0.974667 -0.00558706
-5.31595 38.6574 0.113408 0.209534 -0.977791 0.00455539
-3.67413 38.9524 0.291366 0.161857 -0.986747 0.0115409
-1.95455 39.2161 0.509916 0.131596 -0.99068 0.0351476
-0.333687 39.4228 0.735973 0.116889 -0.99251 0.0355232
1.20651 39.5741 0.981591 0.0875448 -0.995019 0.0476721
2.82022 39.7186 1.34562 0.0660126 -0.996447 0.0523108
4.43683 39.8511 1.82314 0.0564644 -0.996126 0.0674154
5.86331 39.9717 2.32977 0.058162 -0.995129 0.0795982
7.70372 40.1495 3.00258 0.071574 -0.993097 0.0929304
8.36595 40.2213 3.22939 0.0726637 -0.992259 0.10071
8.36768 40.1127 2.30845 0.0577644 -0.990269 0.126615
6.96934 39.9781 1.77774 0.0430476 -0.994651 0.0938975
5.56525 39.8666 1.18814 0.053694 -0.995756 0.0747416
4.0843 39.7536 0.683482 0.0552488 -0.996713 0.0592554
2.63197 39.651 0.272705 0.0623072 -0.996807 0.0499383
0.811363 39.5 -0.0987588 0.0826875 -0.995578 0.0445881
-0.730292 39.3369 -0.329981 0.110891 -0.992819 0.0448791
-2.26339 39.1455 -0.545652 0.124974 -0.991849 0.0248498
-3.88473 38.9046 -0.731514 0.154682 -0.987945 0.00623242
-5.68647 38.5758 -0.9188 0.205967 -0.978559 -0.00086502
-7.23581 38.24 -1.06676 0.223655 -0.974668 0.000322152
-8.71415 37.8689 -1.19604 0.26452 -0.964343 -0.00848933
-10.5112 37.3715 -1.34479 0.278256 -0.960179 -0.0251033
-12.1089 36.8926 -1.46617 0.300911 -0.952713 -0.042315
-13.6141 36.415 -1.58174 0.308624 -0.950203 -0.0431817
-15.0627 35.9421 -1.69348 0.320618 -0.945298 -0.0601248
-16.8942 35.3339 -1.84734 0.321772 -0.94423 -0.0699514
-18.3655 34.8361 -1.97645 0.32511 -0.942163 -0.0814351
-19.9602 34.2922 -2.12094 0.332532 -0.938655 -0.0913697
-21.5555 33.7456 -2.28359 0.332885 -0.937129 -0.104769
-23.3026 33.1562 -2.50296 0.329206 -0.937839 -0.109915
-24.7268 32.6794 -2.70783 0.328573 -0.9366 -0.121741
-26.1901 32.196 -2.92559 0.328776 -0.935799 -0.12723
-27.9365 31.6195 -3.19394 0.327251 -0.93515 -0.135655
-27.9917 31.6015 -3.20277 0.32744 -0.935084 -0.135649
-26.3787 32.259 -3.8902 0.325073 -0.936942 -0.128323
-24.8999 32.7417 -3.67026 0.324701 -0.938386 -0.118324
-23.2079 33.2971 -3.4226 0.322126 -0.94037 -0.109268
-21.5483 33.8486 -3.22754 0.326828 -0.940061 -0.0973124
-19.8767 34.4128 -3.05904 0.324914 -0.941486 -0.0896409
-18.4454 34.8892 -2.93499 0.322012 -0.943311 -0.0804584
-16.783 35.4404 -2.79651 0.316182 -0.946162 -0.0693289
-15.0637 35.9989 -2.65201 0.315138 -0.947209 -0.0590117
-13.2873 36.5606 -2.52043 0.299577 -0.953193 -0.0409355
-11.8364 37.0075 -2.40826 0.286522 -0.957582 -0.0306977
-10.2784 37.4599 -2.2837 0.26789 -0.963264 -0.0189184
-8.52114 37.9294 -2.14517 0.253427 -0.967179 -0.0184182
-6.97679 38.3003 -2.02273 0.228939 -0.973362 -0.0123808
-5.43363 38.6198 -1.88422 0.186901 -0.982348 0.00776738
-3.77693 38.9051 -1.71029 0.148922 -0.988645 0.0200754
-1.9888 39.1537 -1.51705 0.117471 -0.992861 0.0206768
-0.246316 39.3518 -1.27602 0.0918588 -0.994914 0.0413239
1.63921 39.5183 -0.952762 0.0718436 -0.995828 0.0562514
3.15213 39.6229 -0.599087 0.0421441 -0.997003 0.0648787
4.73498 39.7262 -0.119623 0.0344209 -0.996102 0.0812177
6.13476 39.8118 0.426229 0.0199952 -0.995846 0.0888328
7.52463 39.9197 1.02512 0.0385053 -0.992303 0.117696
8.99235 40.0493 1.67953 0.0394854 -0.989363 0.140004
9.16967 39.9281 0.82289 -0.00876131 -0.986962 0.160717
7.73941 39.8224 0.141349 0.0124848 -0.992328 0.123005
6.23857 39.7254 -0.532764 0.0135073 -0.994748 0.101461
4.5159 39.6278 -1.19769 0.0191892 -0.996129 0.0857795
3.01013 39.5475 -1.63973 0.0362591 -0.996799 0.0712507
1.43583 39.4475 -1.98495 0.0654458 -0.996374 0.0543658
-0.237611 39.3051 -2.26823 0.0762104 -0.995949 0.0477312
-1.8392 39.1433 -2.48681 0.103894 -0.994148 0.0295941
-3.33285 38.9544 -2.65863 0.155009 -0.987756 0.0176294
-4.82577 38.7173 -2.80976 0.167922 -0.98561 0.0193793
-6.53183 38.4026 -2.95047 0.188417 -0.981971 0.015227
-8.1414 38.0255 -3.0846 0.241764 -0.970322 -0.00497041
-9.62069 37.6502 -3.19343 0.252542 -0.967549 -0.0084804
-11.1002 37.2517 -3.30369 0.281555 -0.959476 -0.0115094
-12.5847 36.8152 -3.42434 0.292341 -0.955712 -0.0339252
-14.3713 36.275 -3.56472 0.298049 -0.953504 -0.0446851
-15.8612 35.801 -3.67873 0.308859 -0.949223 -0.0598471
-17.5531 35.262 -3.81348 0.315436 -0.946088 -0.0736087
-19.1256 34.7469 -3.94133 0.315197 -0.945455 -0.0822518
-20.6738 34.2369 -4.08121 0.320566 -0.942821 -0.0912449
-22.2164 33.7275 -4.24235 0.319667 -0.9422 -0.100358
-23.6699 33.2566 -4.43041 0.319849 -0.94059 -0.113963
-25.238 32.7509 -4.65746 0.321165 -0.939602 -0.118323
-23.6735 33.3658 -5.37133 0.314637 -0.94284 -0.109797
-22.1188 33.8609 -5.17785 0.315257 -0.943333 -0.103615
-20.5557 34.3668 -5.01434 0.310728 -0.946238 -0.0898958
-18.9418 34.8867 -4.87418 0.312292 -0.946543 -0.0808101
-17.4436 35.3664 -4.75389 0.306469 -0.949343 -0.0694567
-15.961 35.8299 -4.64239 0.300271 -0.952016 -0.0591898
-14.5061 36.2787 -4.52936 0.29576 -0.954093 -0.0472565
-13.0171 36.7265 -4.41664 0.283965 -0.958069 -0.038306
-11.3647 37.2002 -4.28719 0.277355 -0.960451 -0.024652
-9.57312 37.674 -4.15083 0.24736 -0.968868 -0.0104024
-8.09302 38.0461 -4.05167 0.236109 -0.9717 -0.00721625
-6.49292 38.392 -3.9363 0.194436 -0.980723 0.0194376
-4.63523 38.7329 -3.79157 0.166699 -0.985876 0.0161293
-2.78584 38.9999 -3.60776 0.124949 -0.991726 0.0294381
-1.1764 39.1784 -3.39425 0.0957286 -0.994486 0.0428238
0.56434 39.3254 -3.12425 0.0559377 -0.996819 0.0567681
2.25998 39.4353 -2.78881 0.0467473 -0.995894 0.0775275
3.84164 39.5123 -2.40254 0.0180583 -0.996421 0.0825788
5.39268 39.5759 -1.89399 0.00896294 -0.994841 0.101051
6.81 39.6505 -1.25448 0.0055746 -0.994101 0.10831
8.59355 39.754 -0.403933 -0.0128309 -0.990308 0.138294
9.70594 39.8104 0.108114 -0.0286603 -0.986343 0.16219
10.1593 39.6572 -0.708139 -0.0657538 -0.979033 0.192797
8.72516 39.6087 -1.33503 -0.0349006 -0.987876 0.151269
7.29732 39.551 -2.02027 -0.0206406 -0.989326 0.144251
5.75781 39.4881 -2.71173 -0.00167939 -0.993991 0.109447
4.15082 39.4407 -3.26112 0.00462146 -0.995281 0.0969209
2.38324 39.365 -3.72034 0.026381 -0.996605 0.077988
0.798521 39.2792 -4.04347 0.0445872 -0.997092 0.0618052
-0.712753 39.1809 -4.32558 0.0620573 -0.996649 0.0532807
-2.19169 39.0338 -4.54732 0.112191 -0.993026 0.0362188
-3.87167 38.8244 -4.72749 0.143026 -0.989435 0.0236892
-5.47789 38.5684 -4.85842 0.168249 -0.98568 0.0113102
-7.26042 38.2238 -4.97159 0.204813 -0.978746 0.0103781
-9.10475 37.7997 -5.08231 0.24012 -0.970743 -0.0008489
-10.8146 37.3656 -5.19465 0.246262 -0.969157 -0.00946318
-12.2815 36.9709 -5.30929 0.260226 -0.964574 -0.0433555
-13.9978 36.4751 -5.4472 0.289222 -0.956318 -0.0424988
-15.8562 35.9178 -5.58474 0.294321 -0.954295 -0.0519279
-17.3977 35.4462 -5.7009 0.300529 -0.951557 -0.0649725
-19.2398 34.8714 -5.84653 0.307218 -0.948575 -0.0763105
-20.865 34.3567 -5.99182 0.307904 -0.94745 -0.0867976
-21.7082 34.0901 -6.07687 0.31113 -0.945438 -0.0966651
-19.0416 35.0098 -6.78049 0.29909 -0.951266 -0.0750818
-17.4271 35.5018 -6.65187 0.29106 -0.954528 -0.0645003
-15.998 35.9308 -6.54753 0.285234 -0.956876 -0.0550412
-14.2144 36.4532 -6.41796 0.279071 -0.959335 -0.0423821
-12.7773 36.8595 -6.30251 0.273756 -0.961498 -0.0240549
-11.2756 37.2613 -6.19173 0.251468 -0.967673 -0.0193351
-9.72988 37.6481 -6.09027 0.240172 -0.970718 -0.00489916
-8.208 38.0105 -6.00066 0.220188 -0.975431 0.00720327
-6.72808 38.3218 -5.93212 0.187004 -0.982199 0.0177537
-5.00398 38.6316 -5.83468 0.154149 -0.987899 0.0171288
-3.51567 38.8433 -5.70054 0.118932 -0.992251 0.0359659
-1.84607 39.0258 -5.50222 0.0992369 -0.994109 0.0435897
-0.0273195 39.1683 -5.16349 0.0511758 -0.996639 0.0639597
1.76288 39.2699 -4.80853 0.0239586 -0.996689 0.0776991
3.29427 39.3251 -4.4352 -0.0003909 -0.994851 0.101351
4.81319 39.3738 -3.9702 -0.0198741 -0.99338 0.11314
6.28725 39.3892 -3.42123 -0.0314189 -0.991342 0.127491
7.89326 39.4323 -2.68353 -0.0560932 -0.984871 0.16396
9.34474 39.4518 -2.03356 -0.0562232 -0.981986 0.180396
10.5833 39.4587 -1.57558 -0.0672664 -0.979726 0.188711
10.9932 39.2672 -2.34858 -0.107824 -0.971805 0.209689
9.57677 39.2853 -2.8651 -0.0851285 -0.97839 0.188429
8.09901 39.2879 -3.51178 -0.080213 -0.98227 0.169448
6.65495 39.2739 -4.18235 -0.0375481 -0.988957 0.14337
5.23616 39.2656 -4.73471 -0.0407106 -0.990084 0.134449
3.73373 39.2368 -5.22964 -0.0180892 -0.992779 0.118587
2.20166 39.211 -5.63807 0.0137304 -0.996857 0.0780282
0.711845 39.1505 -5.98645 0.027582 -0.997399 0.0665844
-0.789387 39.0549 -6.32557 0.0644668 -0.996207 0.0584455
-2.63483 38.905 -6.61115 0.0774023 -0.995363 0.0571044
-4.24407 38.7108 -6.76502 0.127702 -0.991148 0.0363001
-5.76754 38.487 -6.89759 0.172158 -0.984884 0.0190983
-7.47004 38.1566 -6.95137 0.20386 -0.978863 0.0163863
-9.43543 37.7235 -7.0404 0.218743 -0.975782 0.000537725
-11.0944 37.3242 -7.14112 0.246157 -0.969036 -0.0193763
-12.6164 36.929 -7.24932 0.26534 -0.963885 -0.0228256
