10.3766 40.9917 -6.85091 -0.154042 -0.958477 0.239656
9.33789 41.0918 -6.98015 -0.113525 -0.970487 0.212757
8.31704 41.1647 -7.11658 -0.0938844 -0.97819 0.185284
7.34174 41.1897 -7.38856 -0.0752044 -0.982264 0.171761
6.16224 41.2349 -7.62045 -0.0738832 -0.985618 0.151979
5.11221 41.2719 -7.79703 -0.0497683 -0.988642 0.141795
3.99917 41.2838 -8.01906 -0.0391166 -0.99099 0.127673
2.94184 41.2831 -8.3084 -0.0262283 -0.993066 0.114564
1.9698 41.2682 -8.60408 0.000673577 -0.99474 0.101932
0.568951 41.223 -8.83724 0.0191524 -0.996248 0.0837669
-0.498184 41.187 -8.84326 0.0371647 -0.997091 0.0662897
-1.80466 41.1323 -8.72045 0.0521237 -0.996872 0.0593572
-2.86334 41.0584 -8.81726 0.0753142 -0.995775 0.0521991
-4.16097 40.9294 -8.93271 0.100359 -0.994395 0.0331018
-5.51606 40.7482 -9.05755 0.139879 -0.990106 0.0110999
-6.5464 40.5978 -9.15004 0.164168 -0.986432 0.000185831
-7.64625 40.414 -9.28302 0.168462 -0.985705 0.00178742
-8.7647 40.212 -9.33925 0.192249 -0.981346 -0.000505178
-10.0821 39.9395 -9.40923 0.212489 -0.976981 -0.0188924
-11.1371 39.7016 -9.4189 0.22718 -0.973577 -0.0231843
-12.1487 39.4622 -9.41716 0.234445 -0.971657 -0.0302982
-13.4673 39.1334 -9.34499 0.246859 -0.9684 -0.0354068
-14.4588 38.8773 -9.33397 0.255204 -0.966008 -0.0409524
-15.6081 38.5653 -9.23574 0.260891 -0.964027 -0.0508794
-16.897 38.2002 -9.04318 0.267488 -0.961851 -0.0573854
-18.045 37.8647 -8.91595 0.276573 -0.958963 -0.0624231
-18.9955 37.5691 -8.67681 0.286141 -0.955218 -0.0753736
-20.0563 37.2266 -8.41597 0.29128 -0.953582 -0.076402
-21.1469 36.8756 -8.21743 0.293898 -0.952237 -0.0828336
-22.1371 36.5457 -7.95678 0.297832 -0.950007 -0.0936792
-23.0814 36.2059 -7.53665 0.297183 -0.949969 -0.09611
-24.1157 35.8421 -7.22231 0.305705 -0.946199 -0.106076
-25.0667 35.5068 -6.96681 0.306717 -0.945073 -0.112966
-25.9408 35.1672 -6.52839 0.30799 -0.943978 -0.118481
-26.9727 34.7649 -6.06927 0.31677 -0.940489 -0.123029
-27.9283 34.3973 -5.71696 0.314403 -0.940328 -0.130082
-29.158 33.8807 -5.00382 0.318013 -0.938219 -0.136428
-30.1947 33.437 -4.39294 0.322919 -0.936356 -0.137696
-31.1595 33.0366 -3.94312 0.323154 -0.935201 -0.14481
-32.0658 32.61 -3.22963 0.326576 -0.933445 -0.148421
-33.1021 32.1288 -2.50446 0.328055 -0.932438 -0.151456
-34.0328 31.6985 -1.89608 0.330651 -0.930966 -0.154827
-34.7855 31.3287 -1.2886 0.334462 -0.929127 -0.157663
-35.5179 30.9564 -0.647929 0.334486 -0.928786 -0.15961
-36.2497 30.5753 0.0321227 0.336703 -0.928128 -0.158771
-37.0822 30.1479 0.751959 0.336932 -0.927527 -0.161772
-37.7884 29.7366 1.63258 0.338945 -0.926833 -0.161548
-38.5601 29.3205 2.39238 0.339927 -0.926182 -0.163207
-39.2734 28.9179 3.1864 0.341396 -0.925477 -0.164136
-39.9415 28.5338 3.96209 0.342409 -0.92516 -0.163812
-40.5923 28.1295 4.88444 0.342975 -0.924879 -0.164215
-41.2963 27.7165 5.73844 0.343486 -0.924791 -0.163642
-41.8993 27.3313 6.64691 0.34445 -0.924494 -0.163295
-42.565 26.8896 7.74555 0.344951 -0.924407 -0.162726
-43.2196 26.4645 8.77506 0.345267 -0.924433 -0.161909
-43.7016 26.1194 9.71911 0.345525 -0.924443 -0.161297
-44.1722 25.7948 10.5711 0.345708 -0.924444 -0.160901
-44.6204 25.4771 11.4362 0.345793 -0.924544 -0.160143
-45.1219 25.0692 12.7103 0.345731 -0.924619 -0.159843
-45.5744 24.7265 13.7181 0.34591 -0.924695 -0.159012
-45.7515 24.4803 14.7674 0.34539 -0.924983 -0.158469
-44.7554 24.7681 15.2583 0.345135 -0.925076 -0.158483
-43.6117 25.0999 15.8113 0.344946 -0.925106 -0.158714
-42.588 25.4038 16.2646 0.344766 -0.925163 -0.158778
-41.6434 25.6969 16.6077 0.344747 -0.925171 -0.15877
-40.7345 25.969 16.9953 0.344721 -0.925156 -0.158917
-39.7916 26.2585 17.3551 0.344603 -0.925187 -0.158993
-38.4401 26.654 17.9829 0.344705 -0.925135 -0.159073
-37.3988 26.965 18.4305 0.344704 -0.925127 -0.159118
-36.1018 27.3488 19.0088 0.344684 -0.925124 -0.159179
-35.0574 27.6663 19.4253 0.344689 -0.925139 -0.159082
-34.0355 28.0467 19.4269 0.344668 -0.925124 -0.159214
-33.4899 28.4195 18.4432 0.344787 -0.925048 -0.159399
-32.6971 28.9456 17.1076 0.344956 -0.924885 -0.159979
-32.2492 29.2811 16.1355 0.34488 -0.924765 -0.160833
-31.61 29.6927 15.1421 0.34511 -0.924473 -0.162013
-31.0038 30.0583 14.3477 0.345666 -0.924228 -0.162228
-30.4416 30.4178 13.5021 0.34637 -0.923837 -0.162949
-29.6805 30.8859 12.4736 0.348014 -0.923306 -0.162459
-28.9349 31.2839 11.8155 0.348817 -0.922825 -0.163463
-28.2235 31.7018 10.9789 0.350168 -0.92238 -0.163088
-27.491 32.1133 10.2336 0.353548 -0.921075 -0.163162
-26.654 32.5799 9.41214 0.355088 -0.921097 -0.159662
-25.6608 33.0773 8.77336 0.358634 -0.920046 -0.157785
-24.7186 33.5725 8.03712 0.360772 -0.919589 -0.155561
-23.8775 33.9992 7.4725 0.36448 -0.919481 -0.147311
-23.055 34.4121 6.92065 0.365205 -0.920036 -0.141973
-22.0651 34.8631 6.55305 0.366736 -0.920204 -0.136854
-20.9922 35.3623 6.08649 0.37027 -0.919799 -0.129884
-20.138 35.778 5.57377 0.372176 -0.920228 -0.121099
-19.2424 36.192 5.15721 0.370405 -0.922155 -0.111443
-18.0685 36.692 4.90555 0.373724 -0.922782 -0.0938168
-16.9715 37.1546 4.69186 0.366557 -0.926698 -0.082873
-15.5971 37.7199 4.34092 0.358111 -0.930426 -0.0777321
-14.5856 38.1119 4.2152 0.34658 -0.935962 -0.0615249
-13.4159 38.5459 4.1538 0.335942 -0.940457 -0.0507496
-12.1781 38.9935 3.89412 0.326436 -0.944366 -0.0394714
-11.0862 39.3575 3.95906 0.305945 -0.951946 -0.0116022
-9.78959 39.7646 4.11026 0.285636 -0.958295 0.00910688
-8.6809 40.0821 4.04811 0.264534 -0.964363 -0.00501666
-7.69534 40.3437 4.21177 0.248631 -0.968598 -0.000305807
-6.65756 40.5999 4.4033 0.225674 -0.973981 0.0208097
-5.30628 40.9021 4.54751 0.211761 -0.976972 0.0256019
-3.84415 41.1883 5.09293 0.177163 -0.983843 0.0255013
-2.65864 41.3873 5.25028 0.146026 -0.988978 0.0240415
-1.73635 41.5299 5.60969 0.132807 -0.990932 0.0200346
-0.683149 41.6817 6.10615 0.126531 -0.991704 0.0221665
0.462748 41.831 6.58743 0.116286 -0.993078 0.0164021
1.438 41.9493 7.05852 0.110091 -0.993852 0.0117429
2.45376 42.0681 7.51296 0.112668 -0.993631 -0.00188278
3.67513 42.2121 8.10458 0.122475 -0.992461 -0.0025531
4.65449 42.3383 8.73886 0.130689 -0.991414 -0.00303696
5.51722 42.4535 9.33472 0.14116 -0.989948 -0.00855124
6.6189 42.615 10.0612 0.161547 -0.986699 -0.0160453
7.48768 42.7579 10.7523 0.187825 -0.982092 -0.0114375
8.40505 42.9211 11.5146 0.191306 -0.981324 -0.0201427
9.39993 43.1155 12.3702 0.210365 -0.977291 -0.025486
10.3008 43.3136 13.3124 0.243162 -0.969822 -0.0178304
11.1318 43.5026 14.2704 0.264188 -0.964001 -0.0301209
11.9308 43.6954 15.3787 0.285741 -0.957834 -0.0301168
12.7054 43.903 16.3338 0.297398 -0.954288 -0.0296538
13.1478 44.0115 17.3734 0.30807 -0.950844 -0.0314265
13.7082 44.169 18.241 0.31488 -0.94875 -0.0264374
14.321 44.344 19.38 0.329008 -0.943889 -0.0287665
14.8385 44.4904 20.5864 0.332899 -0.942531 -0.0285101
15.2584 44.614 21.5491 0.338504 -0.940549 -0.0279823
15.6476 44.7293 22.4981 0.348135 -0.937065 -0.0265068
15.9856 44.8271 23.533 0.351367 -0.935912 -0.0245323
16.2216 44.8876 24.699 0.356466 -0.934019 -0.0232324
16.4721 44.9589 25.7618 0.360172 -0.932662 -0.0204204
16.7444 45.0404 26.8842 0.364715 -0.93094 -0.0181573
16.9163 45.0859 28.0025 0.367355 -0.929915 -0.017525
16.9867 45.0911 29.2787 0.370634 -0.928648 -0.0156253
17.0389 45.0909 30.4961 0.372991 -0.927712 -0.0150492
17.0974 45.0991 31.5875 0.374639 -0.927076 -0.0132071
17.1528 45.1033 32.9454 0.376858 -0.926206 -0.0109684
17.0677 45.0573 33.9653 0.377657 -0.925901 -0.00906911
16.8492 44.9583 35.0045 0.378292 -0.925653 -0.00784127
16.7223 44.8951 36.3644 0.380004 -0.924951 -0.00787771
16.5941 44.8348 37.4156 0.380209 -0.924883 -0.00560318
16.2888 44.7023 38.6449 0.381459 -0.924373 -0.00485825
16.064 44.6051 39.7015 0.381697 -0.924281 -0.00332801
15.8361 44.5076 40.7955 0.381593 -0.924327 -0.00246549
16.7852 44.8973 41.5378 0.381046 -0.924554 -0.00209894
17.727 45.2848 41.8181 0.380999 -0.924573 -0.00213083
18.7539 45.7065 42.3846 0.380826 -0.924645 -0.00168695
19.6425 46.0717 42.8824 0.380821 -0.924648 -0.0014628
20.6568 46.4891 43.1921 0.381037 -0.924559 -0.00127878
21.6747 46.9082 43.5901 0.381032 -0.924561 -0.00104199
22.6998 47.3306 43.9976 0.381504 -0.924367 -0.00067994
23.8734 47.815 44.6192 0.381938 -0.924188 -0.000185768
24.7639 48.1831 44.9585 0.38221 -0.924076 6.15577e-05
25.7063 48.5732 45.3764 0.382632 -0.923901 0.00027106
26.4652 48.8876 45.4241 0.382812 -0.923826 0.000929833
27.0071 49.1111 44.2774 0.382632 -0.9239 0.000727645
27.3739 49.2614 43.26 0.382134 -0.924106 0.00117834
27.5657 49.3389 41.9703 0.381741 -0.924269 0.00109145
27.7896 49.4296 40.6523 0.381076 -0.924543 0.00120049
28.0374 49.5302 39.5932 0.380858 -0.924632 0.00169062
28.1667 49.5809 38.1753 0.380165 -0.924917 0.00160543
28.4185 49.6822 36.925 0.37989 -0.92503 0.00155134
28.5045 49.715 35.5712 0.379043 -0.925378 0.00141455
28.6193 49.7598 34.2467 0.378462 -0.925616 0.00140659
28.626 49.7605 33.1038 0.37757 -0.92598 0.00166868
28.6506 49.7682 31.8774 0.376574 -0.926385 0.00177944
28.6096 49.7491 30.7306 0.375749 -0.92672 0.00184583
28.5262 49.713 29.5105 0.375091 -0.926985 0.00230826
28.4294 49.6712 28.3109 0.37397 -0.927438 0.00248251
28.2916 49.6132 27.2372 0.37286 -0.927884 0.00242359
28.1575 49.5562 26.1604 0.371794 -0.928311 0.0029914
28.0104 49.494 25.0996 0.370755 -0.928725 0.00322494
27.7685 49.3915 23.6704 0.369613 -0.929175 0.00441688
27.4998 49.2795 22.5391 0.368197 -0.929737 0.00453529
27.1726 49.1435 21.3464 0.366973 -0.930217 0.00524794
26.8703 49.0149 20.0776 0.364979 -0.930982 0.00791091
26.531 48.873 19.0731 0.364307 -0.93123 0.00948495
26.1412 48.7107 18.12 0.362385 -0.931978 0.00969894
25.8574 48.5869 17.1178 0.36021 -0.932755 0.0147495
25.3901 48.3869 15.9374 0.359605 -0.932956 0.0165962
24.9907 48.2164 15.003 0.358214 -0.933449 0.0188425
24.4511 47.9869 13.9605 0.356638 -0.934009 0.0208428
23.892 47.742 12.729 0.354097 -0.934829 0.0266304
23.3676 47.5167 11.7914 0.35289 -0.935137 0.0314411
22.7926 47.2695 10.8811 0.350604 -0.935904 0.034067
22.2582 47.0309 9.87097 0.346637 -0.937195 0.0388439
21.6234 46.7632 9.09982 0.344022 -0.937916 0.0442738
21.0144 46.4959 8.19915 0.342554 -0.938133 0.0505868
20.409 46.2267 7.3458 0.335912 -0.940301 0.0546651
19.7264 45.9364 6.61009 0.331028 -0.941257 0.0663783
19.0398 45.6266 5.73052 0.328786 -0.941383 0.0752921
18.2632 45.2732 4.77811 0.322119 -0.942217 0.0920103
17.5045 44.9286 3.93472 0.317783 -0.942938 0.0993802
17.2995 44.8414 3.75796 0.315472 -0.943715 0.0993903
17.8354 44.9313 2.89375 0.326743 -0.939395 0.103813
17.0597 44.5511 2.04322 0.335452 -0.933925 0.123513
16.2711 44.175 1.3108 0.30472 -0.942037 0.140401
15.4283 43.7867 0.59963 0.310526 -0.936507 0.162875
14.6582 43.4222 -0.00682981 0.298142 -0.934033 0.196707
13.8601 43.0402 -0.511657 0.321362 -0.898923 0.292354
12.905 42.5209 -1.31663 0.0803896 -0.92228 0.37807
12.9293 42.057 -2.4375 0.00549917 -0.907977 0.411426
13.2658 41.593 -3.51605 -0.0988357 -0.92997 0.353969
13.5414 41.225 -4.46181 -0.139026 -0.939098 0.314271
13.6157 40.8462 -5.52445 -0.172765 -0.939033 0.297271
13.2699 40.5754 -6.57991 -0.177596 -0.937595 0.298958
12.3964 40.5173 -7.27568 -0.17149 -0.940453 0.293496
11.2966 40.6007 -7.70041 -0.198761 -0.942853 0.267104
10.2258 40.7566 -7.89925 -0.149555 -0.967103 0.205778
9.18764 40.8823 -8.02201 -0.108298 -0.97222 0.207352
8.11536 40.9697 -8.18505 -0.112044 -0.971799 0.207414
7.02579 41.0146 -8.57983 -0.0764743 -0.984153 0.159984
5.82123 41.0929 -8.66829 -0.0940532 -0.982179 0.161242
4.65274 41.1256 -9.01339 -0.0724885 -0.990346 0.118154
3.55311 41.1638 -9.18083 -0.0497026 -0.992302 0.11331
2.57986 41.1661 -9.54086 -0.0170944 -0.994616 0.1009
1.47564 41.1404 -9.82438 -0.0151345 -0.995193 0.0962635
0.176 41.1276 -9.87129 0.0192055 -0.996151 0.085521
-1.15943 41.0913 -9.91539 0.0409167 -0.997659 0.0547961
-2.2232 41.0503 -9.80574 0.0510412 -0.997601 0.0467628
-3.41236 40.9679 -9.9408 0.0859912 -0.99615 0.0170377
-4.49161 40.8631 -9.92141 0.102257 -0.994543 0.02044
-5.93169 40.6826 -10.1943 0.130902 -0.991368 0.00182101
-7.03464 40.5176 -10.2599 0.163192 -0.986573 -0.00656052
-8.06205 40.347 -10.3565 0.167977 -0.985729 -0.0110823
-9.31556 40.1145 -10.4181 0.195674 -0.980562 -0.0119905
-10.409 39.8874 -10.4329 0.214566 -0.976542 -0.0180659
-11.4534 39.6548 -10.4332 0.225978 -0.973609 -0.0319291
-12.5686 39.3951 -10.4756 0.23268 -0.971993 -0.0328415
-13.5476 39.1527 -10.3926 0.242781 -0.969273 -0.0395841
-14.7227 38.8553 -10.3737 0.246175 -0.968214 -0.0442642
-16.0182 38.5083 -10.2223 0.256126 -0.965214 -0.0524547
-17.0701 38.2139 -10.061 0.267518 -0.961453 -0.0635791
-18.2478 37.8724 -9.89714 0.272495 -0.95978 -0.0675879
-19.3068 37.5525 -9.65272 0.277433 -0.957585 -0.0778588
-20.2871 37.2547 -9.59229 0.288442 -0.954104 -0.0805381
-21.2519 36.9394 -9.31554 0.287385 -0.954081 -0.0844685
-22.4065 36.5568 -8.92436 0.287922 -0.952429 -0.0992254
-23.4116 36.2157 -8.64449 0.295631 -0.950321 -0.0974234
-24.7365 35.7502 -8.14897 0.297636 -0.948671 -0.106643
-26.0241 35.2774 -7.63375 0.304206 -0.945713 -0.114369
-26.9867 34.9106 -7.22178 0.312085 -0.942101 -0.122674
-28.4044 34.3642 -6.64404 0.311213 -0.941385 -0.13016
-29.292 34.0022 -6.15932 0.315682 -0.939074 -0.135957
-30.1418 33.649 -5.69897 0.316912 -0.938578 -0.136521
-31.1016 33.2356 -5.11331 0.318226 -0.937097 -0.14346
-32.3472 32.6905 -4.36027 0.323726 -0.934584 -0.147489
-33.1122 32.3299 -3.76448 0.327603 -0.932686 -0.150909
-33.9277 31.9561 -3.22801 0.32883 -0.931956 -0.152726
-34.7376 31.5719 -2.63579 0.328824 -0.931234 -0.157089
-35.4669 31.2038 -1.98722 0.331441 -0.92991 -0.159418
-36.4513 30.7196 -1.22469 0.333484 -0.929162 -0.159518
-37.3089 30.2799 -0.477367 0.335529 -0.928115 -0.161313
-38.1136 29.8286 0.432444 0.337451 -0.927035 -0.1635
-38.8803 29.4148 1.19074 0.339041 -0.926418 -0.163713
-39.6185 28.9953 2.03242 0.339753 -0.926029 -0.164432
-40.3632 28.5787 2.83184 0.341381 -0.925482 -0.16414
-40.9552 28.2156 3.64191 0.342209 -0.925096 -0.164591
-41.5521 27.8613 4.38969 0.343259 -0.924668 -0.164812
-42.1767 27.4807 5.22065 0.344261 -0.924471 -0.163826
-42.7712 27.0841 6.20774 0.344758 -0.92431 -0.163682
-43.3383 26.7122 7.11481 0.345187 -0.924246 -0.163142
-43.9175 26.3336 8.03385 0.345947 -0.924037 -0.162715
-44.432 25.9816 8.94315 0.346052 -0.924219 -0.161455
-44.8735 25.6572 9.85562 0.346044 -0.924275 -0.161152
-45.3998 25.3138 10.6965 0.345803 -0.924484 -0.160465
-45.7555 25.0183 11.6335 0.346267 -0.924449 -0.159665
-46.2548 24.6479 12.6954 0.346134 -0.924515 -0.159573
-46.6491 24.3132 13.7842 0.345806 -0.924816 -0.158535
-47.0772 23.9822 14.7824 0.345926 -0.924868 -0.157972
-46.4304 24.0566 15.7618 0.345654 -0.924975 -0.157939
-45.4043 24.3912 16.0456 0.34526 -0.925071 -0.158236
-44.3338 24.705 16.5447 0.344841 -0.925191 -0.158452
-43.0763 25.0768 17.11 0.34471 -0.925246 -0.158417
-42.081 25.3899 17.4466 0.344715 -0.925199 -0.158674
-40.9964 25.7146 17.9084 0.344535 -0.925218 -0.158959
-39.9227 26.0268 18.4186 0.344613 -0.925186 -0.158976
-38.813 26.3704 18.825 0.344566 -0.9252 -0.158992
-37.8354 26.6522 19.3032 0.344606 -0.925176 -0.159047
-36.912 26.9336 19.6672 0.344713 -0.925134 -0.159062
-35.5918 27.3216 20.2719 0.344725 -0.925123 -0.159097
-34.5311 27.6482 20.6705 0.344603 -0.925172 -0.159076
-33.5492 27.9737 20.9055 0.344755 -0.925153 -0.158857
-32.9927 28.3419 19.97 0.344734 -0.925119 -0.159104
-32.6107 28.6675 18.9039 0.344368 -0.925196 -0.159449
-32.0455 29.0221 18.0674 0.343791 -0.925335 -0.159883
-31.6467 29.3288 17.1529 0.344233 -0.925046 -0.160601
-31.029 29.7243 16.2025 0.34461 -0.924733 -0.161598
-30.4883 30.093 15.2477 0.345019 -0.92447 -0.162226
-29.8272 30.467 14.5257 0.346148 -0.9237 -0.164194
-29.2992 30.8478 13.4979 0.347299 -0.923335 -0.163818
-28.3582 31.3419 12.7174 0.348909 -0.922665 -0.164173
-27.639 31.7789 11.7916 0.349287 -0.922435 -0.164656
-26.8771 32.1858 11.1532 0.354206 -0.920167 -0.166826
-26.2447 32.5652 10.3951 0.357334 -0.919755 -0.162353
-25.3909 32.985 9.9131 0.361764 -0.91822 -0.161231
-24.5678 33.4426 9.15255 0.364694 -0.917473 -0.158862
-23.5436 33.9571 8.52595 0.366145 -0.917602 -0.154738
-22.6144 34.4298 7.93157 0.367943 -0.918592 -0.144244
-21.6624 34.8898 7.47942 0.377478 -0.915977 -0.135895
-20.8111 35.2936 7.09635 0.375443 -0.91769 -0.129951
-19.5887 35.8916 6.44315 0.379756 -0.916718 -0.124056
-18.5759 36.3427 6.1658 0.38502 -0.916113 -0.111792
-17.6734 36.7539 5.85608 0.381387 -0.919821 -0.09205
-16.6128 37.215 5.65169 0.381015 -0.921001 -0.0811449
-15.5095 37.6741 5.44068 0.370393 -0.926507 -0.0662783
-14.3928 38.1269 5.23651 0.364782 -0.930107 -0.0428167
-13.4398 38.4914 5.17651 0.354066 -0.934324 -0.0409301
-12.2054 38.9517 4.95749 0.336342 -0.941485 -0.0214959
-11.1595 39.32 5.00445 0.328508 -0.944455 -0.00932834
-10.0356 39.6934 5.12251 0.302586 -0.953089 0.00790669
-9.05316 39.9902 5.09318 0.278523 -0.960308 0.0152961
-8.02857 40.2745 5.23459 0.254314 -0.966937 0.0180829
-6.624 40.6327 5.46307 0.231298 -0.972115 0.0386492
-5.61048 40.8676 5.54252 0.201904 -0.978695 0.0359403
-4.61478 41.0727 5.92824 0.180184 -0.982939 0.036934
-3.58447 41.2652 6.22063 0.166835 -0.985655 0.0255225
-2.52655 41.4393 6.3841 0.144189 -0.989103 0.029735
-1.58171 41.5817 6.85449 0.132462 -0.990839 0.0260389
-0.415619 41.7397 7.28838 0.114681 -0.993158 0.0220271
0.685078 41.8751 7.86954 0.100206 -0.994819 0.0171723
1.7187 41.9886 8.30036 0.104945 -0.994428 0.00927297
2.69015 42.0873 8.80203 0.105179 -0.994417 -0.00851993
3.73042 42.2129 9.40898 0.130074 -0.991487 -0.00586599
4.73493 42.3431 9.9207 0.134036 -0.990959 -0.005844
5.75765 42.4602 10.7258 0.147749 -0.988346 -0.0304703
6.61911 42.5851 11.4601 0.173766 -0.984507 -0.0234644
7.41584 42.7164 12.1095 0.183786 -0.982686 -0.0234545
8.47798 42.8912 12.9972 0.204898 -0.97764 -0.0428054
9.19243 43.0296 13.7162 0.229223 -0.972566 -0.0396417
9.94137 43.1824 14.4067 0.257997 -0.965135 -0.0423552
10.6799 43.3372 15.3534 0.274311 -0.960466 -0.0475173
11.272 43.4657 16.1988 0.282968 -0.958086 -0.0439132
11.9202 43.6339 16.9973 0.300169 -0.953289 -0.0337111
12.4599 43.7621 17.9893 0.314231 -0.94815 -0.0464493
12.9719 43.8985 18.901 0.320478 -0.946521 -0.0372731
13.5125 44.041 20.0463 0.329675 -0.943412 -0.0359012
13.9656 44.1655 21.0459 0.336805 -0.941106 -0.0297073
14.4964 44.3104 22.3402 0.341173 -0.939426 -0.0328061
14.8878 44.4216 23.2955 0.350436 -0.936078 -0.0307139
15.2305 44.523 24.2511 0.353607 -0.935048 -0.0254392
15.3464 44.5368 25.2607 0.360398 -0.932481 -0.0243421
15.755 44.6558 26.7458 0.362519 -0.931603 -0.0262277
15.8528 44.6692 27.829 0.368195 -0.929493 -0.0218166
16.034 44.7192 28.8513 0.369222 -0.929137 -0.0194421
16.0285 44.6962 29.8776 0.372513 -0.927873 -0.0168666
16.1729 44.7355 30.8993 0.3738 -0.927368 -0.016106
16.096 44.6863 32.0519 0.376452 -0.926332 -0.0138959
16.132 44.6857 33.0798 0.377753 -0.925831 -0.0118078
16.0778 44.6513 34.1681 0.377877 -0.925806 -0.00956894
15.854 44.5475 35.3384 0.379404 -0.92519 -0.00874829
15.7534 44.4947 36.5892 0.380671 -0.924675 -0.00813316
15.4454 44.3577 38.008 0.38187 -0.924193 -0.00647421
15.1624 44.2346 39.1836 0.381948 -0.924172 -0.00464374
14.8209 44.0899 40.2749 0.381675 -0.924292 -0.00275067
14.5845 43.9895 41.4169 0.382139 -0.924103 -0.00171304
15.2622 44.2685 41.8877 0.381209 -0.924487 -0.00168512
16.4451 44.7551 42.494 0.381205 -0.924489 -0.00177484
17.4985 45.1886 42.8215 0.380995 -0.924576 -0.00179606
18.5443 45.6184 43.4493 0.38088 -0.924623 -0.00150481
19.483 46.0044 43.8556 0.380935 -0.924601 -0.00148847
20.3849 46.3757 44.1475 0.381165 -0.924506 -0.00130839
21.2532 46.7334 44.5836 0.381279 -0.92446 -0.00093514
22.2513 47.1448 44.9366 0.381739 -0.92427 -0.000537717
23.2221 47.5456 45.4409 0.381945 -0.924185 -0.000402966
24.2148 47.956 45.8375 0.382372 -0.924009 -2.35368e-05
25.3393 48.4216 46.3666 0.382799 -0.923832 0.000136442
26.4917 48.8995 46.9617 0.383142 -0.92369 0.000282822
27.3438 49.2528 46.6001 0.383277 -0.923633 0.000625612
27.7076 49.4025 45.427 0.383006 -0.923745 0.000997377
28.0719 49.5514 44.056 0.382398 -0.923996 0.0015955
28.4167 49.6924 43.0376 0.382303 -0.924036 0.00168007
28.5869 49.7606 41.9441 0.381698 -0.924285 0.00166917
28.7979 49.8455 40.6465 0.381504 -0.924366 0.00152766
28.9704 49.9142 39.4705 0.381228 -0.924479 0.00202664
29.1643 49.991 38.0957 0.380408 -0.924817 0.00176097
29.3464 50.0633 37.0486 0.379796 -0.925068 0.00200384
29.4979 50.1219 35.6292 0.379259 -0.925288 0.00220215
29.5197 50.1288 34.6086 0.378723 -0.925509 0.00176683
29.6043 50.1601 33.3988 0.377782 -0.925892 0.00220395
29.6313 50.1677 32.0453 0.377046 -0.926192 0.00241383
29.5541 50.1333 30.9661 0.376825 -0.926281 0.00253866
29.5004 50.108 29.7707 0.375732 -0.926726 0.00228366
29.4437 50.0818 28.7048 0.375175 -0.926948 0.00330847
29.2975 50.0188 27.5237 0.373658 -0.927562 0.00279405
29.1565 49.9577 26.2972 0.373001 -0.927826 0.00311081
29.0016 49.8891 24.8615 0.371679 -0.928349 0.00470488
28.7564 49.7861 23.8179 0.371282 -0.928509 0.00458313
28.5244 49.687 22.7629 0.368901 -0.929452 0.00556022
28.2532 49.5716 21.5505 0.368146 -0.929737 0.00754058
27.918 49.43 20.4417 0.36628 -0.930466 0.00852304
27.6426 49.3119 19.3911 0.365961 -0.930582 0.00944519
27.2352 49.1386 18.1994 0.365596 -0.930711 0.0108097
26.9469 49.0124 17.2184 0.365456 -0.930723 0.0140201
26.4613 48.8026 15.9758 0.361933 -0.932071 0.0157178
26.0694 48.6309 14.9486 0.360606 -0.932539 0.0183054
25.5878 48.4241 14.0583 0.359365 -0.932874 0.0245244
25.1617 48.2361 13.1233 0.356062 -0.934101 0.025996
24.5971 47.9881 11.9626 0.355634 -0.934235 0.0270177
24.0152 47.7311 10.9146 0.353425 -0.93492 0.0318429
23.3306 47.4265 9.71247 0.354537 -0.934317 0.0368242
22.7338 47.1572 8.80046 0.353347 -0.934322 0.0459225
22.1325 46.8964 8.00475 0.344349 -0.937682 0.0466473
21.5734 46.6386 7.12888 0.347907 -0.935872 0.0557196
20.753 46.2788 6.25195 0.341916 -0.937378 0.0664498
20.1007 45.9792 5.39331 0.338964 -0.93765 0.0764146
19.3873 45.6424 4.50118 0.336233 -0.937974 0.0845093
18.774 45.3488 3.7096 0.335651 -0.937881 0.0878339
18.1179 45.0542 3.1162 0.326742 -0.939395 0.103813
25.9208 48.6605 42.8323 0.381566 -0.924341 0.000441454
24.6288 48.1271 42.71 0.381535 -0.924354 0.000203672
23.4878 47.6566 42.6008 0.381159 -0.924509 -0.000509657
23.1978 47.537 42.5727 0.381214 -0.924487 -0.000717165
26.1808 48.7672 41.9357 0.381354 -0.924429 0.000354643
24.789 48.1932 41.8054 0.38111 -0.92453 0.000239696
23.4085 47.6244 41.6734 0.380855 -0.924635 -0.0006256
22.1854 47.1207 41.5521 0.380819 -0.924649 -0.00103908
20.6802 46.5013 41.3981 0.380404 -0.924819 -0.00151873
20.0194 46.2295 41.3264 0.38066 -0.924713 -0.0018972
17.8 45.3192 40.1584 0.380455 -0.924796 -0.00271094
19.3882 45.9721 40.3366 0.380334 -0.924846 -0.00217025
20.5905 46.4661 40.4675 0.380225 -0.924892 -0.00180723
21.9575 47.0281 40.6096 0.380369 -0.924834 -0.00133452
23.4214 47.6303 40.7548 0.380645 -0.924721 -0.000811318
25.1905 48.3587 40.9232 0.380862 -0.924632 6.79035e-05
25.9479 48.6707 40.9934 0.381304 -0.924449 0.00047654
26.1393 48.749 40.0898 0.380702 -0.924697 0.000820036
24.9874 48.275 39.9836 0.380616 -0.924733 -6.74396e-05
23.6891 47.7411 39.861 0.380333 -0.924849 -0.00067987
22.2718 47.1586 39.7221 0.379935 -0.925012 -0.00127736
20.9303 46.6077 39.5845 0.380031 -0.924972 -0.0019193
19.7699 46.1312 39.4591 0.38017 -0.924913 -0.00255232
18.5812 45.6432 39.327 0.380291 -0.924862 -0.00294877
17.9854 45.3983 39.2596 0.380305 -0.924854 -0.00367032
17.9779 45.3989 38.3386 0.380367 -0.924828 -0.00378385
19.2639 45.9265 38.483 0.379852 -0.925041 -0.00341243
20.4375 46.4077 38.6119 0.37986 -0.925041 -0.00240864
21.6707 46.9136 38.7421 0.379573 -0.925159 -0.00222467
22.8972 47.4169 38.8644 0.379742 -0.925091 -0.0016974
24.1584 47.9346 38.9853 0.379895 -0.925029 -0.00076259
25.6509 48.5478 39.1238 0.380091 -0.924949 -7.98045e-05
26.2636 48.7997 39.1798 0.380427 -0.924811 0.000499573
26.5119 48.9011 38.2806 0.379945 -0.925009 0.000620251
25.3332 48.4174 38.174 0.379342 -0.925256 -0.000428899
23.8701 47.8172 38.0376 0.379623 -0.925141 -0.000818951
22.4572 47.238 37.9018 0.379355 -0.92525 -0.00178788
21.0853 46.6761 37.7615 0.379203 -0.925309 -0.0030834
19.8479 46.1695 37.6277 0.379138 -0.925334 -0.0032946
18.5282 45.629 37.481 0.379062 -0.925361 -0.0043956
18.3728 45.5654 37.4635 0.379651 -0.925119 -0.00439397
18.1558 45.4815 36.5189 0.379029 -0.925365 -0.00607024
19.6526 46.0933 36.6869 0.378449 -0.925609 -0.00485827
20.8096 46.5662 36.8128 0.378665 -0.925528 -0.00325615
22.1773 47.1256 36.9546 0.378989 -0.925399 -0.00222351
23.4456 47.6447 37.0775 0.378851 -0.925457 -0.00157547
24.5923 48.1141 37.1852 0.378711 -0.925515 -0.000704596
25.7751 48.5985 37.2932 0.379318 -0.925267 6.38476e-05
26.7896 49.0144 37.3839 0.379532 -0.925178 0.000753231
27.0359 49.1146 36.4844 0.379063 -0.92537 0.000698283
25.7442 48.5858 36.3696 0.378561 -0.925576 -0.000276968
24.5366 48.0923 36.2592 0.378418 -0.925634 -0.00112411
23.3419 47.6041 36.1474 0.378549 -0.925579 -0.00212312
22.0337 47.0695 36.0206 0.378218 -0.925712 -0.0028377
20.8674 46.5938 35.8996 0.37765 -0.925939 -0.00416397
19.6682 46.1048 35.7689 0.378159 -0.925726 -0.00510578
18.457 45.6106 35.6331 0.378416 -0.925618 -0.00577795
18.28 45.5383 35.6131 0.3788 -0.925459 -0.00603744
18.6294 45.6873 34.7332 0.377982 -0.925789 -0.00672197
20.0841 46.2796 34.8953 0.37724 -0.9261 -0.00532464
21.2333 46.7473 35.019 0.377346 -0.926062 -0.00438231
22.7206 47.3527 35.1683 0.377556 -0.92598 -0.00357608
23.9393 47.8497 35.2836 0.377498 -0.926009 -0.00156338
25.1729 48.3531 35.3972 0.377872 -0.925857 -0.000844255
26.52 48.9032 35.5181 0.378572 -0.925572 0.000270306
26.7452 48.9953 35.5379 0.378386 -0.925648 0.00046256
26.9598 49.0828 34.6356 0.377566 -0.925982 0.000755323
25.7813 48.6019 34.5314 0.377387 -0.926055 -0.000191558
24.3942 48.0368 34.4059 0.377251 -0.926109 -0.0018119
23.0668 47.4967 34.2821 0.376727 -0.926321 -0.00255101
21.8227 46.9911 34.1595 0.376807 -0.926279 -0.00479609
20.6494 46.515 34.0378 0.376852 -0.926252 -0.00630364
19.4788 46.0398 33.9093 0.376612 -0.926349 -0.00643345
18.6597 45.7071 33.8173 0.377131 -0.926122 -0.00835764
18.8749 45.8028 32.9232 0.375465 -0.9268 -0.00829042
20.2128 46.3442 33.072 0.375573 -0.92677 -0.00645276
21.7176 46.9532 33.2302 0.375843 -0.926665 -0.00588411
23.1126 47.5184 33.3668 0.376135 -0.92656 -0.00301193
24.4095 48.0447 33.4874 0.375966 -0.926631 -0.00213333
25.8777 48.6418 33.6194 0.376993 -0.926216 -0.000403071
27.0155 49.1049 33.7189 0.377328 -0.92608 0.000168163
26.989 49.0937 32.7959 0.376647 -0.926357 5.13421e-06
25.8274 48.6216 32.6942 0.375826 -0.92669 -0.000892275
24.3223 48.0115 32.5596 0.375348 -0.926882 -0.00187833
22.9196 47.4437 32.4289 0.375352 -0.926873 -0.00405895
21.3689 46.8175 32.2749 0.37482 -0.927084 -0.00507742
20.2061 46.3488 32.1529 0.374937 -0.927011 -0.00856722
19.0538 45.8844 32.0257 0.37431 -0.927264 -0.008619
18.8976 45.8215 32.008 0.374918 -0.927011 -0.00928964
18.6691 45.739 31.0648 0.373051 -0.927745 -0.0110661
19.9392 46.2488 31.2061 0.372711 -0.927912 -0.00809579
21.157 46.7381 31.3345 0.374022 -0.927397 -0.00646152
22.6246 47.3292 31.481 0.374184 -0.927344 -0.00442164
23.7963 47.8013 31.5915 0.374099 -0.927384 -0.00301942
24.9817 48.28 31.6987 0.374827 -0.927094 -0.00135255
26.175 48.7631 31.8038 0.375565 -0.926796 -0.000309334
27.1544 49.1603 31.8892 0.37629 -0.926502 0.000830928
27.1597 49.1618 30.9673 0.374934 -0.927051 0.000376028
25.8668 48.6389 30.8555 0.374642 -0.927169 -0.00111265
24.57 48.1158 30.7411 0.373673 -0.927558 -0.00237127
23.407 47.6478 30.6355 0.373189 -0.927749 -0.00349451
22.1536 47.1444 30.5157 0.372621 -0.927972 -0.00476805
20.7305 46.5737 30.3711 0.372199 -0.928126 -0.007096
19.4479 46.0611 30.2339 0.37127 -0.928473 -0.00985482
18.6031 45.7242 30.1396 0.371875 -0.928221 -0.0107313
18.5598 45.7187 29.217 0.369513 -0.929118 -0.014138
19.7323 46.1848 29.3466 0.370586 -0.928737 -0.0106461
20.9098 46.6533 29.4708 0.370054 -0.928977 -0.00784975
22.225 47.1777 29.6026 0.371707 -0.928333 -0.00559234
23.5348 47.7022 29.7264 0.371823 -0.928295 -0.00402827
24.8477 48.2294 29.8443 0.373249 -0.927729 -0.0021267
25.9998 48.6931 29.9451 0.374605 -0.927184 -0.000369571
26.8666 49.0432 30.0194 0.37434 -0.927292 0.000563142
26.9899 49.0923 29.1064 0.373666 -0.927563 0.000938862
25.8376 48.6283 29.0083 0.372778 -0.92792 -0.000918632
24.6911 48.1683 28.9089 0.372109 -0.928187 -0.00192911
23.1494 47.552 28.7709 0.371778 -0.928313 -0.0040352
21.7352 46.9883 28.6342 0.369783 -0.929096 -0.00650015
20.3264 46.4298 28.4919 0.368793 -0.929472 -0.00854251
19.0831 45.9383 28.3596 0.367808 -0.929823 -0.012143
18.4512 45.6885 28.2869 0.367399 -0.929958 -0.0140193
18.5498 45.741 27.3808 0.367414 -0.929954 -0.0138691
20.0543 46.3317 27.5459 0.365839 -0.93062 -0.0104275
21.3798 46.8545 27.6791 0.367704 -0.929916 -0.00701285
22.6413 47.3537 27.8009 0.369287 -0.929302 -0.00502161
23.8129 47.82 27.909 0.370683 -0.928754 -0.0032025
25.2348 48.3875 28.0336 0.371086 -0.928597 -0.00148817
26.4102 48.8586 28.1338 0.372497 -0.928033 -1.71868e-05
26.7826 49.0082 28.1652 0.372841 -0.927895 0.000138334
26.7722 49.0036 27.2402 0.371696 -0.928353 0.00125735
25.4191 48.4622 27.1261 0.370536 -0.928818 -0.000258434
23.918 47.8648 26.9953 0.369431 -0.929255 -0.00240055
22.7603 47.406 26.8906 0.368356 -0.929672 -0.00491905
21.4938 46.9067 26.7706 0.366723 -0.930305 -0.00682515
20.0633 46.3452 26.6279 0.365659 -0.930701 -0.00948128
18.9021 45.8917 26.5033 0.364662 -0.931033 -0.0140765
18.4096 45.6997 26.447 0.363828 -0.931358 -0.0142034
18.1135 45.6004 25.4973 0.361347 -0.932305 -0.0153332
19.3073 46.0615 25.6301 0.363285 -0.931598 -0.0122165
20.8014 46.643 25.783 0.364294 -0.931258 -0.00697511
21.9802 47.1039 25.8952 0.366025 -0.930594 -0.00451601
23.2058 47.5858 26.006 0.366503 -0.930405 -0.00461797
24.3694 48.046 26.1094 0.368377 -0.929676 -0.00105313
25.5346 48.509 26.2114 0.370249 -0.928932 -0.00104024
26.7171 48.9802 26.3111 0.371126 -0.92858 0.0022664
26.1656 48.7589 25.337 0.369879 -0.929079 0.00100186
24.7781 48.2087 25.2211 0.368092 -0.929789 -0.000588778
23.1523 47.5683 25.0772 0.365594 -0.930771 -0.00247048
21.8298 47.0511 24.9592 0.363973 -0.931392 -0.00567649
20.6344 46.5859 24.847 0.362135 -0.932091 -0.00800558
19.4139 46.1142 24.7221 0.359771 -0.932977 -0.0108623
18.0577 45.594 24.5777 0.357294 -0.933868 -0.015233
17.6205 45.4435 23.6107 0.354623 -0.934832 -0.0181924
18.9642 45.9538 23.757 0.356881 -0.934065 -0.0125732
20.2914 46.4621 23.8922 0.359991 -0.932906 -0.00966037
21.6697 46.9944 24.0229 0.360794 -0.932631 -0.00523459
23.1124 47.5555 24.1498 0.364242 -0.931302 -0.00204323
24.6085 48.1418 24.2804 0.366114 -0.93057 0.00011767
25.9104 48.6565 24.3889 0.367951 -0.929844 0.00154686
26.2897 48.8068 24.4212 0.368281 -0.929714 0.00140831
26.1804 48.7613 23.4871 0.367688 -0.929947 0.00227141
24.9607 48.2803 23.383 0.366111 -0.930571 0.0001166
23.4875 47.7038 23.2573 0.363317 -0.931665 -0.000916366
22.2465 47.2215 23.1494 0.360723 -0.932669 -0.00256942
20.6705 46.6157 23.0063 0.357866 -0.933743 -0.00749714
19.4869 46.1653 22.8928 0.354815 -0.93491 -0.00708903
18.239 45.6927 22.7638 0.352286 -0.935734 -0.0171886
17.3543 45.3616 22.6649 0.352537 -0.935614 -0.0185379
17.1291 45.2962 21.7259 0.346011 -0.938046 -0.0185962
18.3477 45.747 21.857 0.349504 -0.93687 -0.0110111
19.5875 46.211 21.982 0.354277 -0.935099 -0.00876869
20.9779 46.7386 22.1119 0.356864 -0.934143 -0.00508911
22.2815 47.2384 22.2264 0.359548 -0.93312 -0.00345995
23.6799 47.7794 22.3473 0.361256 -0.932466 0.00120935
24.9394 48.2705 22.4553 0.364875 -0.931055 0.00157572
25.9631 48.6726 22.5426 0.367145 -0.930159 0.00292389
25.4794 48.4799 21.5732 0.364245 -0.931295 0.0039651
23.9005 47.8635 21.4386 0.361231 -0.932475 0.00184607
22.6059 47.3642 21.3281 0.358004 -0.93372 1.59813e-05
21.2353 46.8402 21.2087 0.356774 -0.934187 -0.00255262
20.0606 46.3966 21.1055 0.352296 -0.935848 -0.00869503
18.8624 45.9484 20.9906 0.348485 -0.937261 -0.00996721
17.683 45.5151 20.8712 0.343354 -0.939121 -0.0126124
16.847 45.211 20.7882 0.3401 -0.940224 -0.0176527
16.2425 45.0108 19.8144 0.334014 -0.942408 -0.0173804
17.5282 45.4719 19.9414 0.342375 -0.939453 -0.0144079
18.953 45.9905 20.0779 0.343979 -0.938951 -0.00705833
20.6434 46.6204 20.2303 0.351904 -0.936033 -0.00233377
22.148 47.1884 20.3617 0.356366 -0.934346 0.000462535
23.4344 47.6819 20.4714 0.359897 -0.932991 0.00149169
24.7947 48.2078 20.587 0.361956 -0.932185 0.00432927
25.4726 48.472 20.6425 0.363583 -0.931548 0.0051927
25.1756 48.3503 19.6903 0.361596 -0.932316 0.00596061
23.9059 47.8585 19.5836 0.359356 -0.933183 0.00566154
22.4689 47.3087 19.4622 0.356291 -0.934369 0.00326645
21.0972 46.7902 19.3446 0.351 -0.936373 0.00212616
19.6048 46.2357 19.2128 0.345196 -0.938528 -0.00207509
18.1116 45.6914 19.0778 0.34151 -0.939838 -0.00867738
16.737 45.2006 18.9476 0.334566 -0.942268 -0.0140274
16.0628 44.9638 18.8856 0.329464 -0.944047 -0.0151128
15.5271 44.7952 17.9269 0.326815 -0.944887 -0.0195272
17.0271 45.314 18.06 0.330545 -0.94376 -0.00757578
18.3664 45.7893 18.1791 0.338882 -0.94081 -0.00595023
19.667 46.2608 18.2933 0.342765 -0.939417 0.00292671
21.1514 46.8087 18.423 0.346456 -0.938058 0.00383568
22.5541 47.3369 18.5419 0.355382 -0.934702 0.00598714
23.7165 47.7796 18.6392 0.356762 -0.934164 0.00763584
24.7253 48.1679 18.7224 0.360128 -0.932862 0.00872487
24.3957 48.0313 17.7623 0.358862 -0.933306 0.0125962
23.0922 47.5325 17.6547 0.356178 -0.934361 0.0103502
21.745 47.0256 17.5422 0.349128 -0.937047 0.00719772
20.1824 46.4466 17.4082 0.346457 -0.938058 0.00383612
18.7374 45.9236 17.2868 0.336251 -0.941773 -0.000317457
17.4383 45.464 17.1768 0.330895 -0.943664 -0.00245365
16.2625 45.0584 17.079 0.326449 -0.945182 -0.00783222
15.0853 44.6587 16.976 0.320227 -0.947232 -0.0143407
14.7241 44.5391 16.9419 0.312256 -0.949815 -0.0186258
14.1899 44.3802 15.9883 0.302225 -0.953119 -0.0149786
15.6504 44.8574 16.1121 0.317264 -0.948301 -0.00825477
16.942 45.2959 16.2188 0.32304 -0.946384 -0.00167652
18.1195 45.7033 16.3127 0.3298 -0.944047 0.00279132
19.6907 46.2629 16.4397 0.338889 -0.94081 0.00545953
20.8644 46.6899 16.5369 0.34318 -0.939232 0.00839684
22.1576 47.1696 16.6441 0.350309 -0.936584 0.00972354
23.7466 47.7715 16.7732 0.355441 -0.93459 0.0142733
24.1551 47.9274 16.8061 0.355443 -0.934589 0.0142667
23.6389 47.7161 15.8323 0.35448 -0.934937 0.0153814
22.2869 47.2054 15.7209 0.350444 -0.936488 0.0134043
20.7323 46.6306 15.5927 0.342744 -0.939334 0.0133863
19.4195 46.1569 15.4869 0.336003 -0.941794 0.0112189
18.2213 45.7351 15.3966 0.329128 -0.944237 0.00957608
16.9651 45.3019 15.3013 0.320633 -0.947204 0.00015051
15.7141 44.8828 15.2037 0.314066 -0.949398 -0.00246009
14.508 44.4917 15.1051 0.302047 -0.953261 -0.00784776
13.8055 44.2698 15.0464 0.298761 -0.954278 -0.00981796
13.1079 44.0694 14.0935 0.280083 -0.959924 -0.00992373
14.3726 44.4544 14.1842 0.297377 -0.954759 0.00148079
15.6681 44.8672 14.2835 0.310035 -0.950708 0.0057264
17.1134 45.3455 14.3914 0.320287 -0.947288 0.00788398
18.5078 45.8262 14.4915 0.32837 -0.944408 0.016334
19.9575 46.3368 14.5977 0.33493 -0.942086 0.0172057
21.3537 46.8439 14.7087 0.343338 -0.939032 0.0183656
22.7041 47.3458 14.8236 0.349585 -0.936733 0.0179266
23.1777 47.5242 14.8628 0.352416 -0.935685 0.0172185
22.7621 47.3475 13.8903 0.350935 -0.936183 0.0201366
21.5368 46.8922 13.7897 0.342009 -0.939462 0.0210077
20.3737 46.4692 13.6989 0.336502 -0.941445 0.0211786
19.1383 46.0309 13.6086 0.328665 -0.944224 0.0205012
17.9653 45.6239 13.5267 0.323116 -0.946261 0.0136235
16.4218 45.1049 13.4198 0.313956 -0.949322 0.014797
15.1571 44.6976 13.3301 0.304481 -0.952511 0.003866
13.926 44.317 13.2444 0.289105 -0.957259 0.00856294
12.7153 43.9605 13.1679 0.274339 -0.961633 2.8787e-05
12.1317 43.7992 13.1266 0.269281 -0.963027 -0.00820669
11.4795 43.6278 12.1789 0.248746 -0.968558 -0.00448404
13.0208 44.0472 12.2816 0.269776 -0.962902 0.00644095
14.5707 44.5039 12.375 0.289103 -0.95726 0.00856073
15.7637 44.8799 12.4553 0.300227 -0.953633 0.0211524
16.9791 45.2735 12.5344 0.314282 -0.949108 0.0205081
18.3039 45.7198 12.6213 0.324266 -0.945743 0.0205084
19.6912 46.2042 12.7169 0.332305 -0.942759 0.0279068
21.1159 46.7155 12.8218 0.338541 -0.940533 0.0280671
22.2429 47.1303 12.908 0.34569 -0.937997 0.0257107
21.4753 46.8193 11.912 0.342489 -0.939035 0.0302327
20.3085 46.3972 11.8272 0.334825 -0.941788 0.0304488
18.932 45.9113 11.7295 0.32658 -0.944788 0.0268583
17.7079 45.4932 11.6526 0.316275 -0.948229 0.0288297
16.5174 45.1001 11.5809 0.309013 -0.950651 0.0278322
15.3352 44.7245 11.507 0.297196 -0.954584 0.0210497
13.7332 44.2423 11.415 0.280678 -0.959569 0.0211547
12.4939 43.8914 11.3419 0.265363 -0.963928 0.0206183
11.0158 43.5082 11.2394 0.24029 -0.970693 0.00408799
10.6627 43.421 11.2111 0.230899 -0.972977 0.000875949
9.48001 43.1529 10.2237 0.207656 -0.978186 0.00567502
11.0898 43.5168 10.335 0.228025 -0.973633 0.00662764
12.6833 43.9278 10.4423 0.259461 -0.965522 0.0211543
14.1401 44.3395 10.5228 0.278051 -0.960053 0.0314043
15.3911 44.7144 10.5888 0.290855 -0.956244 0.0316267
16.6372 45.1115 10.6608 0.305478 -0.951498 0.0365417
18.1063 45.5968 10.7448 0.320511 -0.946637 0.0339239
19.3399 46.021 10.8176 0.325464 -0.944963 0.0334451
20.7732 46.5319 10.9262 0.337203 -0.940712 0.0368085
21.1075 46.6541 10.951 0.339736 -0.939832 0.0359961
20.4663 46.3849 9.96527 0.335527 -0.941102 0.0418102
19.1951 45.9321 9.87738 0.326447 -0.944347 0.0405036
17.9814 45.517 9.8033 0.317173 -0.947369 0.0435112
16.5422 45.0451 9.72541 0.307157 -0.950987 0.0357478
15.2931 44.653 9.66038 0.286843 -0.956918 0.0450423
13.9669 44.2584 9.59699 0.270755 -0.96177 0.0411206
12.6974 43.9055 9.53197 0.254088 -0.966497 0.0363803
11.2395 43.5341 9.44251 0.231401 -0.97244 0.0285437
9.9207 43.2323 9.35426 0.213643 -0.976738 0.0184359
8.29428 42.9051 9.23484 0.180904 -0.983466 0.00827696
8.23512 42.8942 9.23047 0.181773 -0.983264 0.0122478
6.69826 42.6262 8.22285 0.154558 -0.987941 0.00918932
7.99391 42.8342 8.31488 0.171768 -0.985037 0.014056
9.27265 43.076 8.40767 0.197283 -0.980099 0.0220474
10.5924 43.3561 8.50034 0.213678 -0.976308 0.0341085
12.0444 43.7008 8.58789 0.238245 -0.970447 0.0383715
13.369 44.0502 8.6534 0.260043 -0.964525 0.0454929
14.6538 44.417 8.70859 0.277549 -0.959474 0.0487447
15.9409 44.8086 8.76465 0.292074 -0.955064 0.0504489
17.3762 45.2697 8.83573 0.305695 -0.950684 0.0524409
18.6105 45.6851 8.89743 0.319541 -0.946318 0.0487518
19.6802 46.0592 8.97194 0.33077 -0.942565 0.0465068
18.8773 45.7244 7.96672 0.327095 -0.943442 0.054099
17.4303 45.2378 7.89644 0.308404 -0.949936 0.0500777
16.0011 44.7793 7.83759 0.295386 -0.952984 0.0675986
14.6467 44.3676 7.78781 0.280736 -0.957277 0.0693463
13.3957 44.0121 7.74051 0.262954 -0.962394 0.0682144
12.1054 43.6753 7.6854 0.241524 -0.968217 0.0649784
10.7551 43.3561 7.61063 0.220911 -0.973718 0.0554141
9.53467 43.0978 7.52954 0.201377 -0.978599 0.0423326
7.99791 42.8138 7.42 0.160559 -0.986585 0.0295187
6.75877 42.62 7.33144 0.149154 -0.988643 0.0183784
5.32043 42.4171 7.2292 0.131799 -0.991155 0.0155388
3.3111 42.1557 6.20489 0.114393 -0.993323 0.0149862
4.59647 42.3098 6.27647 0.124004 -0.992199 0.012829
6.06111 42.4979 6.38678 0.132581 -0.990716 0.0300676
7.37782 42.6906 6.47887 0.149654 -0.988385 0.0264247
8.61345 42.8892 6.56572 0.16154 -0.985704 0.0478872
9.86312 43.1244 6.65466 0.188895 -0.980239 0.0587387
11.1805 43.4011 6.73522 0.22224 -0.972784 0.0655756
12.4985 43.7136 6.79999 0.243012 -0.967679 0.0673944
14.0002 44.1172 6.85076 0.270637 -0.959784 0.0746357
15.4668 44.5492 6.89694 0.28829 -0.954589 0.0751593
16.7075 44.9354 6.93057 0.303348 -0.950515 0.0670867
17.9734 45.3548 6.9817 0.319001 -0.945606 0.0637755
17.3345 45.0696 6.01988 0.313502 -0.946287 0.0791084
15.8297 44.5895 5.98769 0.293358 -0.952534 0.0813622
14.5233 44.1946 5.95693 0.278153 -0.95625 0.0906511
13.1156 43.8038 5.91537 0.25103 -0.964019 0.0874688
11.7249 43.4617 5.86319 0.214213 -0.9732 0.0836276
10.384 43.1741 5.78795 0.191479 -0.979036 0.0694532
9.00242 42.9101 5.68849 0.173849 -0.982841 0.0616528
7.45259 42.661 5.58037 0.143531 -0.988317 0.0512766
6.04535 42.4715 5.48897 0.126604 -0.991588 0.0269303
4.52617 42.283 5.37272 0.116141 -0.992968 0.0229127
3.23788 42.1321 5.29476 0.11189 -0.993415 0.02465
1.88969 41.9774 5.21889 0.114169 -0.993298 0.018029
1.12113 41.8869 5.18919 0.115867 -0.993124 0.0167309
-1.15875 41.5837 4.18755 0.136334 -0.990581 0.0127704
0.364837 41.7804 4.23902 0.122271 -0.992385 0.0148992
1.78585 41.948 4.2995 0.112132 -0.993515 0.0188274
3.0642 42.0912 4.37611 0.108459 -0.993816 0.0237834
4.43555 42.2462 4.46862 0.112368 -0.993172 0.0313659
5.66415 42.3909 4.55716 0.11661 -0.992454 0.0379026
7.07711 42.5679 4.65149 0.126382 -0.990973 0.0447306
8.64553 42.797 4.75837 0.157208 -0.984443 0.0784737
10.2809 43.0793 4.88359 0.18018 -0.980967 0.0723818
11.7623 43.3927 4.96279 0.213126 -0.971623 0.102598
13.1628 43.7348 5.01449 0.241969 -0.965202 0.0991767
14.3589 44.0605 5.04489 0.267928 -0.958261 0.0997525
15.702 44.4618 5.06873 0.294127 -0.951176 0.0935631
16.3371 44.661 5.08099 0.303166 -0.948504 0.0918133
15.3469 44.2595 4.15213 0.293722 -0.949392 0.111272
14.1452 43.9019 4.13217 0.270143 -0.955952 0.114794
12.8727 43.5647 4.10977 0.236044 -0.965116 0.113287
11.4736 43.24 4.05131 0.199776 -0.975392 0.0932724
10.0645 42.9632 3.96851 0.173161 -0.981219 0.0849942
8.81512 42.7552 3.87507 0.133295 -0.987929 0.0789244
7.43055 42.562 3.76489 0.124261 -0.990473 0.0593443
6.04917 42.395 3.67642 0.108971 -0.992771 0.0503037
4.70861 42.2467 3.58829 0.107645 -0.993398 0.0396693
3.17395 42.0789 3.47255 0.105197 -0.993943 0.0317899
1.4261 41.889 3.35925 0.108655 -0.993814 0.022989
0.168743 41.7412 3.30954 0.12134 -0.992455 0.0175758
-1.11198 41.5782 3.2657 0.131997 -0.991147 0.0142654
-2.41159 41.3879 3.23283 0.153614 -0.988061 0.0117674
-3.99791 41.1269 3.19459 0.170901 -0.985265 0.00676055
-4.51862 41.0365 3.18232 0.178811 -0.983849 0.0082379
-34.6875 28.1902 17.1839 0.344698 -0.925058 -0.159536
-36.1212 27.6776 17.0569 0.34491 -0.925008 -0.159365
-37.0377 27.3496 16.9774 0.344819 -0.925056 -0.159282
-39.5299 26.614 15.8547 0.344745 -0.92511 -0.159128
-37.9489 27.1793 15.9937 0.344885 -0.92505 -0.159176
-36.2082 27.8022 16.1465 0.345039 -0.924944 -0.159459
-34.6267 28.3676 16.2884 0.34496 -0.92491 -0.159823
-34.3388 28.4706 16.3137 0.344959 -0.924911 -0.159824
-33.9324 28.7714 15.4515 0.345247 -0.924697 -0.160434
-35.4265 28.2374 15.3147 0.345039 -0.924893 -0.159752
-37.0503 27.6569 15.167 0.345001 -0.924949 -0.15951
-38.5564 27.1179 15.0349 0.344893 -0.925002 -0.159438
-40.1778 26.5384 14.8912 0.344798 -0.925052 -0.159356
-41.7139 25.989 14.7561 0.344882 -0.925061 -0.159117
-42.2648 25.7919 14.7078 0.345101 -0.924968 -0.159185
-43.6817 25.4407 13.6774 0.345254 -0.924884 -0.159341
-42.2306 25.9609 13.8006 0.344977 -0.924913 -0.159773
-40.6792 26.5156 13.9386 0.344828 -0.92501 -0.159532
-39.05 27.0977 14.0851 0.344848 -0.924978 -0.159672
-37.3723 27.6979 14.2329 0.345146 -0.924881 -0.15959
-35.7994 28.26 14.3791 0.345374 -0.924734 -0.159948
-34.1403 28.8533 14.532 0.345653 -0.924556 -0.160378
-33.3638 29.1308 14.6048 0.345373 -0.924608 -0.160681
-32.5732 29.5703 13.7784 0.346158 -0.924194 -0.161372
-34.1831 28.9941 13.6284 0.345742 -0.924542 -0.160261
-35.7975 28.4167 13.4769 0.345521 -0.924636 -0.160201
-37.2591 27.8946 13.3388 0.345498 -0.924691 -0.159929
-38.8256 27.3346 13.1981 0.344792 -0.924979 -0.159789
-40.3073 26.8054 13.0628 0.344986 -0.924867 -0.160021
-42.0055 26.1985 12.9111 0.344975 -0.924914 -0.159773
-43.3889 25.7028 12.7921 0.3452 -0.924816 -0.15985
-42.9734 26.0096 11.9153 0.345334 -0.924734 -0.160037
-41.283 26.6144 12.0645 0.344774 -0.924876 -0.160424
-39.7382 27.166 12.2054 0.344967 -0.924882 -0.159972
-38.284 27.6853 12.3389 0.345078 -0.924773 -0.160363
-36.7746 28.2245 12.4798 0.345474 -0.924653 -0.160205
-35.2967 28.752 12.6226 0.345594 -0.924569 -0.160426
-33.8246 29.278 12.7639 0.34605 -0.924383 -0.160517
-32.3853 29.7943 12.8971 0.346805 -0.923977 -0.161222
-32.065 29.9093 12.9272 0.346804 -0.923978 -0.161219
-31.4453 30.2886 12.0893 0.347442 -0.923673 -0.161592
-32.988 29.7345 11.9429 0.346339 -0.924239 -0.160719
-34.4927 29.1949 11.8026 0.345831 -0.924465 -0.160519
-36.0774 28.6302 11.6426 0.345626 -0.924591 -0.160232
-37.5049 28.1209 11.5037 0.345185 -0.924746 -0.160285
-39.1294 27.5413 11.3498 0.345034 -0.924807 -0.160262
-40.5541 27.0329 11.2187 0.344626 -0.924878 -0.160728
-42.1738 26.4542 11.0732 0.345046 -0.924719 -0.160741
-42.6733 26.2753 11.0296 0.345512 -0.92453 -0.16083
-42.1933 26.6062 10.1575 0.345111 -0.924615 -0.161199
-40.4825 27.2173 10.3119 0.34457 -0.924852 -0.160994
-38.6752 27.8614 10.4826 0.344959 -0.924738 -0.160822
-36.9845 28.4639 10.6458 0.34536 -0.924676 -0.160314
-35.3698 29.0389 10.8098 0.345791 -0.924529 -0.160234
-33.9031 29.5624 10.9581 0.346382 -0.924291 -0.160333
-32.3478 30.1207 11.1054 0.347345 -0.92384 -0.160843
-30.9676 30.6169 11.2408 0.348336 -0.923362 -0.161448
-30.3333 31.0012 10.4094 0.349494 -0.922895 -0.161614
-31.7882 30.4778 10.2621 0.348026 -0.923735 -0.159975
-33.3626 29.9123 10.1082 0.346864 -0.924173 -0.159967
-34.9968 29.328 9.94699 0.345917 -0.924516 -0.160035
-36.4984 28.7941 9.78819 0.345287 -0.924701 -0.160325
-37.9965 28.2613 9.6388 0.3448 -0.924777 -0.160938
-39.7458 27.6392 9.4664 0.344814 -0.924688 -0.161414
-41.5152 27.0085 9.30119 0.344929 -0.924665 -0.161303
-41.0695 27.3284 8.42302 0.344491 -0.924712 -0.161968
-39.5578 27.8661 8.5692 0.344508 -0.924757 -0.161675
-38.0802 28.3904 8.71795 0.344416 -0.924891 -0.161104
-36.472 28.9609 8.88502 0.345346 -0.924615 -0.160696
-34.8472 29.5385 9.05482 0.345688 -0.924633 -0.159856
-33.3653 30.0672 9.20693 0.346816 -0.92424 -0.159685
-31.8565 30.6088 9.35646 0.348102 -0.92378 -0.159546
-30.2675 31.1807 9.51848 0.349914 -0.923012 -0.16003
-29.1914 31.5698 9.62715 0.350908 -0.922687 -0.159724
-28.4069 32.0091 8.81846 0.351852 -0.9226 -0.158143
-30.139 31.3822 8.6313 0.350206 -0.9231 -0.158878
-31.6982 30.8208 8.4721 0.348045 -0.923954 -0.15866
-33.313 30.2418 8.30889 0.346625 -0.924318 -0.159646
-34.9209 29.6696 8.13711 0.345782 -0.924623 -0.159708
-36.723 29.03 7.94827 0.344479 -0.924946 -0.160654
-38.2074 28.5048 7.79037 0.344125 -0.92494 -0.161446
-39.6603 27.9898 7.64278 0.344512 -0.924755 -0.161676
-40.6539 27.6371 7.54452 0.344464 -0.92469 -0.162149
-39.9138 28.0619 6.69537 0.344149 -0.924748 -0.162486
-38.3502 28.6141 6.86068 0.343946 -0.924984 -0.161573
-36.7017 29.1959 7.03815 0.344016 -0.925138 -0.160538
-35.2192 29.7201 7.20004 0.34508 -0.924894 -0.159655
-33.4693 30.3419 7.38667 0.346538 -0.924563 -0.158416
-31.9792 30.8743 7.54206 0.347578 -0.924329 -0.157495
-30.2783 31.4859 7.71965 0.349883 -0.923288 -0.158497
-28.678 32.0638 7.89512 0.352155 -0.92255 -0.157763
-27.541 32.4766 8.02548 0.353341 -0.92244 -0.155741
-26.3405 33.0656 7.27939 0.35688 -0.921827 -0.151237
-27.8119 32.5282 7.10222 0.352451 -0.92327 -0.152813
-29.5908 31.8868 6.88948 0.350065 -0.923931 -0.154295
-31.2909 31.2749 6.71074 0.347614 -0.924521 -0.15629
-33.237 30.5803 6.50343 0.345663 -0.924972 -0.157938
-34.9225 29.9823 6.32004 0.344969 -0.925022 -0.159156
-36.4471 29.4444 6.15142 0.343628 -0.925299 -0.160444
-38.3011 28.7918 5.94739 0.343007 -0.925317 -0.161662
-39.2879 28.4445 5.84221 0.343427 -0.925034 -0.162391
-38.5668 28.8592 5.00111 0.342208 -0.925388 -0.162943
-36.9595 29.4233 5.17914 0.34298 -0.925433 -0.161056
-35.1568 30.0569 5.38136 0.343804 -0.925498 -0.158908
-33.4363 30.6642 5.5724 0.344918 -0.925436 -0.156843
-31.955 31.1902 5.73647 0.346356 -0.925084 -0.155748
-30.3629 31.7595 5.90399 0.347233 -0.925137 -0.153465
-28.7893 32.3235 6.08956 0.351783 -0.923443 -0.153301
-26.9361 32.9943 6.31505 0.354998 -0.922979 -0.148614
-25.438 33.5456 6.48305 0.358209 -0.922142 -0.146086
-24.148 34.163 5.74149 0.36094 -0.921702 -0.142087
-25.7083 33.5877 5.56239 0.355339 -0.924019 -0.141152
-27.4084 32.9668 5.36463 0.351957 -0.92462 -0.145615
-28.883 32.4367 5.17904 0.350756 -0.924392 -0.149899
-30.5662 31.8367 4.97845 0.347303 -0.925142 -0.153271
