7.7744 41.738 -7.85167 -0.0976836 -0.976825 0.190029
8.78824 41.6515 -7.76559 -0.10058 -0.974188 0.202092
9.79013 41.6154 -7.49169 -0.0862099 -0.971744 0.219718
10.7664 41.5852 -7.19976 -0.107856 -0.969495 0.220056
11.7284 41.5202 -6.86459 -0.161646 -0.950217 0.265471
12.5133 41.5904 -6.19289 -0.16363 -0.942742 0.290612
12.8915 41.8399 -5.28069 -0.156944 -0.927408 0.339534
12.8247 42.1742 -4.34541 -0.0747564 -0.944568 0.319692
12.7863 42.6446 -3.02527 -0.0456924 -0.917045 0.392175
12.8866 43.124 -1.73153 0.106024 -0.948556 0.29833
13.6884 43.5537 -1.00563 0.29909 -0.899103 0.312658
14.4529 43.9244 -0.467889 0.316365 -0.929084 0.190538
15.203 44.2759 0.0690281 0.296115 -0.943701 0.14746
15.9239 44.6102 0.758366 0.301736 -0.941886 0.147644
16.837 45.0262 1.46268 0.32639 -0.935062 0.137411
17.5042 45.3542 2.2398 0.321175 -0.94067 0.10948
18.4847 45.8013 3.10535 0.340479 -0.935239 0.0969641
19.3224 46.1827 3.96994 0.3389 -0.936956 0.0852039
20.0424 46.5365 5.03313 0.339499 -0.936962 0.0826558
20.8794 46.9158 5.99055 0.34914 -0.934664 0.0671183
21.4937 47.2009 6.83696 0.345868 -0.936473 0.0582549
22.0279 47.4489 7.68414 0.351949 -0.934486 0.0532284
22.6382 47.7218 8.52752 0.356935 -0.932971 0.0463595
23.3093 48.023 9.58073 0.352099 -0.935235 0.0369176
23.9678 48.3091 10.5641 0.354546 -0.934458 0.0329431
24.5168 48.5596 11.7573 0.355776 -0.934121 0.0288959
25.1463 48.8249 12.6254 0.358596 -0.933114 0.0265814
25.5888 49.0245 13.7128 0.358006 -0.933394 0.0246609
25.8564 49.1529 14.705 0.361374 -0.932226 0.0190687
26.349 49.3621 15.6061 0.362316 -0.931861 0.0190163
26.6633 49.5022 16.5569 0.363977 -0.931275 0.015746
27.0514 49.6711 17.6519 0.365672 -0.93065 0.0130791
27.4116 49.8234 18.5713 0.365679 -0.930687 0.0100096
27.7678 49.9722 19.4875 0.365911 -0.930615 0.00803385
28.0306 50.0869 20.715 0.367725 -0.929893 0.00878782
28.3299 50.2159 21.9773 0.368975 -0.929412 0.00704282
28.6577 50.3556 23.2898 0.370908 -0.928647 0.00640836
28.8603 50.443 24.4055 0.371798 -0.928301 0.00483893
29.0842 50.5384 25.5136 0.372824 -0.927894 0.00387493
29.1678 50.5768 26.8526 0.372681 -0.927956 0.00268993
29.287 50.6285 27.9311 0.373167 -0.927759 0.00320062
29.3679 50.6652 28.9171 0.375569 -0.926789 0.00306628
29.4653 50.7079 29.9385 0.375789 -0.926701 0.00260484
29.5074 50.7281 30.9964 0.376362 -0.926468 0.00299481
29.5246 50.7393 32.4065 0.377257 -0.926105 0.00250921
29.5158 50.7385 33.4069 0.377809 -0.925881 0.00239936
29.4861 50.7289 34.4034 0.378393 -0.925643 0.00198978
29.394 50.6938 35.4297 0.379322 -0.925263 0.00173733
29.3142 50.6637 36.5866 0.379705 -0.925105 0.0021664
29.1728 50.6079 37.5919 0.380042 -0.924967 0.00215899
29.0347 50.5534 38.6204 0.380517 -0.924771 0.0023312
28.8681 50.4879 39.8202 0.381276 -0.924459 0.00213175
28.7325 50.4342 41.0609 0.381537 -0.924352 0.00147407
28.5235 50.3502 42.2868 0.381618 -0.924319 0.00179269
28.1912 50.2146 43.2276 0.382245 -0.92406 0.00154017
27.97 50.1251 44.3445 0.382297 -0.924038 0.00165364
27.7169 50.0216 45.4336 0.382815 -0.923825 0.000906991
27.2016 49.8089 46.2905 0.383095 -0.923709 0.000642496
26.664 49.5862 46.9381 0.383181 -0.923673 0.00036375
25.7487 49.2066 46.7149 0.382888 -0.923795 0.000293807
24.8351 48.8278 46.1922 0.382685 -0.923879 1.87939e-05
23.9439 48.4589 45.8884 0.382392 -0.924 -0.000121895
23.0262 48.0795 45.4873 0.382025 -0.924152 -0.000541994
22.0794 47.6886 44.9825 0.381849 -0.924225 -0.00056223
20.9928 47.2405 44.5777 0.381479 -0.924377 -0.00111344
20.038 46.8471 44.159 0.381199 -0.924492 -0.00134875
18.9428 46.3964 43.6769 0.381053 -0.924552 -0.00146001
17.9059 45.97 43.1926 0.380964 -0.924588 -0.00166689
16.7855 45.5094 42.6938 0.38095 -0.924594 -0.00176282
15.787 45.0986 42.2611 0.381242 -0.924474 -0.00179516
14.8101 44.6964 41.8607 0.381585 -0.924332 -0.00173299
14.2614 44.4713 41.1233 0.382004 -0.924159 -0.00164004
14.6046 44.6157 40.083 0.382105 -0.924114 -0.00292224
14.9011 44.7418 39.1142 0.382059 -0.924132 -0.0033603
15.1758 44.8626 37.7229 0.382097 -0.924101 -0.00628733
15.3863 44.9585 36.5192 0.381187 -0.924455 -0.0087299
15.468 45.0023 35.5002 0.379232 -0.92526 -0.0087845
15.6068 45.0691 34.5077 0.378378 -0.925596 -0.0101533
15.7247 45.1294 33.4374 0.379109 -0.925286 -0.0110228
15.75 45.1546 32.3386 0.377935 -0.925735 -0.0133784
15.7273 45.1651 31.2151 0.375672 -0.926583 -0.0174904
15.7027 45.1735 30.1438 0.373113 -0.927613 -0.0178963
15.6153 45.159 29.1289 0.369539 -0.929014 -0.0193141
15.577 45.1653 28.0952 0.367932 -0.929625 -0.0205799
15.3523 45.1054 26.88 0.365846 -0.930412 -0.0221486
15.195 45.07 25.9025 0.361657 -0.932039 -0.0225232
14.824 44.9622 24.6972 0.355351 -0.934266 -0.0295448
14.5319 44.8864 23.6414 0.352989 -0.935076 -0.0321216
14.1872 44.7934 22.6387 0.350054 -0.936096 -0.0344603
13.7703 44.6877 21.4516 0.337515 -0.94075 -0.0327636
13.1517 44.512 20.1842 0.328942 -0.943748 -0.0336717
12.5936 44.3594 19.1448 0.32039 -0.946597 -0.0361184
12.1133 44.234 18.1525 0.316855 -0.947801 -0.0357377
11.5334 44.0931 17.2419 0.29812 -0.953379 -0.0468171
10.8746 43.9435 16.1972 0.274709 -0.960693 -0.0400436
10.2858 43.8133 15.3226 0.265015 -0.963247 -0.0437211
9.66249 43.6731 14.564 0.259096 -0.964503 -0.0498505
8.95175 43.5403 13.7425 0.224385 -0.972884 -0.0561095
8.09321 43.3847 12.9793 0.195408 -0.979653 -0.044147
7.12206 43.2215 12.0369 0.194701 -0.980542 -0.0250965
6.37996 43.1016 11.3822 0.182117 -0.982913 -0.0267421
5.41356 42.9657 10.7387 0.147593 -0.988207 -0.0372872
4.59493 42.8654 10.1584 0.14239 -0.989746 -0.0112433
3.77974 42.7588 9.60001 0.134681 -0.990817 -0.0118873
2.94298 42.6545 9.07449 0.127498 -0.991674 -0.0180993
1.94333 42.5434 8.51329 0.105444 -0.994374 -0.00691995
0.885278 42.4256 7.9612 0.114421 -0.993401 0.00784201
-0.228632 42.29 7.50584 0.123321 -0.992209 0.0175963
-1.17732 42.1619 6.98975 0.13206 -0.991018 0.021065
-2.3713 41.9891 6.6395 0.144604 -0.989192 0.0237834
-3.45616 41.8103 6.23351 0.16592 -0.985804 0.0256733
-4.39888 41.6369 5.9196 0.180393 -0.982999 0.0342171
-5.51848 41.4208 5.75625 0.188092 -0.981611 0.0325655
-6.59689 41.1808 5.44741 0.221213 -0.974664 0.0330674
-7.64987 40.928 5.25844 0.244569 -0.969363 0.0228233
-8.94793 40.5788 5.18675 0.265061 -0.964025 0.0199845
-10.1483 40.2267 4.9507 0.292408 -0.956229 0.000324554
-11.2283 39.8717 5.06336 0.321291 -0.946763 -0.0202751
-12.2044 39.5356 5.03729 0.33593 -0.941622 -0.0211888
-13.1849 39.1883 5.00443 0.338871 -0.94017 -0.0339465
-14.2999 38.7622 5.15554 0.349899 -0.935588 -0.0473826
-15.3219 38.3633 5.27663 0.362531 -0.930123 -0.0586722
-16.4241 37.9076 5.49219 0.365643 -0.927842 -0.0735773
-17.3684 37.4982 5.74173 0.380062 -0.920158 -0.0939972
-18.3534 37.0659 6.02092 0.379947 -0.919673 -0.0992014
-19.3218 36.6247 6.34574 0.379789 -0.917932 -0.114725
-20.31 36.1687 6.72283 0.379351 -0.916898 -0.123944
-21.3786 35.658 7.21295 0.375427 -0.917295 -0.132692
-22.294 35.2199 7.64962 0.370645 -0.917874 -0.14188
-23.2589 34.743 8.20333 0.368264 -0.918053 -0.146835
-24.092 34.3345 8.64331 0.36607 -0.91784 -0.153493
-24.8872 33.9106 9.26752 0.364908 -0.917165 -0.160147
-25.6048 33.5189 9.89343 0.360919 -0.918523 -0.161394
-26.4243 33.084 10.5441 0.356311 -0.919857 -0.16402
-27.3907 32.5742 11.3108 0.352708 -0.920816 -0.166397
-27.9861 32.2196 12.0291 0.349363 -0.922676 -0.163138
-28.9939 31.6526 13.0781 0.348054 -0.922949 -0.164388
-29.7819 31.1856 14.0373 0.346133 -0.923739 -0.164006
-30.5132 30.7311 15.0594 0.345507 -0.924213 -0.162649
-31.0958 30.3792 15.8252 0.344782 -0.924715 -0.161332
-31.7225 29.9542 16.9241 0.34432 -0.92496 -0.160911
-32.1883 29.6376 17.751 0.344365 -0.925107 -0.159966
-32.7171 29.2698 18.7424 0.344327 -0.925256 -0.159184
-33.0724 28.9721 19.7047 0.344537 -0.925204 -0.15903
-33.5028 28.6569 20.6057 0.344587 -0.925194 -0.158982
-34.7275 28.1592 20.8471 0.344714 -0.925144 -0.159
-35.5676 27.9411 20.2943 0.344712 -0.925144 -0.159005
-36.4341 27.6878 19.8902 0.344669 -0.925144 -0.159097
-37.4556 27.3446 19.6734 0.34457 -0.925194 -0.159018
-38.4141 27.0749 19.1655 0.344613 -0.925187 -0.15897
-39.3036 26.8259 18.6861 0.344631 -0.925181 -0.158966
-40.5454 26.4292 18.3029 0.344541 -0.92523 -0.158877
-41.6203 26.1166 17.7926 0.344543 -0.925237 -0.158827
-42.6662 25.8112 17.3022 0.344618 -0.925236 -0.158669
-43.6759 25.4856 17.0073 0.344796 -0.925208 -0.158449
-44.5712 25.2265 16.5719 0.344834 -0.925207 -0.15837
-45.4751 24.9622 16.1459 0.345171 -0.925113 -0.158185
-46.568 24.625 15.7313 0.345426 -0.925088 -0.157777
-47.1438 24.5274 15.0429 0.345506 -0.925031 -0.157933
-46.8049 24.9096 13.5512 0.345987 -0.924728 -0.158656
-46.4141 25.2119 12.6438 0.346068 -0.924559 -0.159461
-45.9698 25.5321 11.7524 0.346156 -0.924478 -0.159739
-45.5429 25.8927 10.5956 0.345947 -0.92438 -0.160755
-45.121 26.2079 9.69256 0.34588 -0.924377 -0.160915
-44.5454 26.5898 8.73929 0.346166 -0.924115 -0.161802
-44.0185 26.9599 7.75477 0.345641 -0.924115 -0.16292
-43.4138 27.3379 6.89154 0.345242 -0.924198 -0.163296
-42.7738 27.7637 5.83334 0.344592 -0.924304 -0.164065
-42.1654 28.1399 4.99124 0.343846 -0.924436 -0.164886
-41.552 28.5514 3.9606 0.34299 -0.924791 -0.164681
-40.8491 28.922 3.34456 0.342304 -0.924988 -0.164995
-40.3081 29.2555 2.59123 0.34126 -0.925486 -0.16437
-39.6975 29.6316 1.73882 0.339654 -0.926016 -0.164709
-38.8328 30.0727 1.03582 0.339168 -0.9264 -0.163548
-38.1144 30.4812 0.201743 0.337721 -0.927047 -0.162876
-37.3315 30.9023 -0.583638 0.335806 -0.928032 -0.161217
-36.6388 31.2672 -1.24575 0.334318 -0.928599 -0.161044
-35.7167 31.7184 -1.94978 0.331077 -0.930184 -0.158574
-34.8283 32.1548 -2.66635 0.327739 -0.93169 -0.156657
-34.0713 32.5174 -3.24109 0.326507 -0.932464 -0.154601
-33.2513 32.8913 -3.7754 0.324172 -0.933832 -0.151225
-32.305 33.3224 -4.41235 0.325485 -0.9337 -0.149213
-31.367 33.7376 -5.01118 0.319151 -0.936412 -0.145863
-30.4264 34.1473 -5.62399 0.315875 -0.938701 -0.138033
-29.5021 34.5197 -6.03618 0.314833 -0.939473 -0.13517
-28.6955 34.8581 -6.52227 0.311541 -0.941516 -0.12841
-27.6092 35.2889 -7.0614 0.310497 -0.942436 -0.124118
-26.7275 35.6258 -7.42733 0.307628 -0.943836 -0.120574
-25.7492 35.9874 -7.80774 0.304462 -0.94578 -0.11315
-24.8588 36.3095 -8.11284 0.298147 -0.94844 -0.107284
-23.8793 36.6591 -8.49853 0.297095 -0.949642 -0.0995678
-22.7193 37.0484 -8.78285 0.289523 -0.952182 -0.0976014
-21.7866 37.3598 -9.10998 0.285547 -0.954796 -0.0825067
-20.7968 37.6833 -9.39224 0.287368 -0.954564 -0.0789162
-19.6493 38.0462 -9.62231 0.279069 -0.956842 -0.0810801
-18.5097 38.3911 -9.84299 0.273225 -0.959375 -0.0703331
-17.2925 38.7449 -9.9766 0.271397 -0.960583 -0.06019
-16.3287 39.0224 -10.1938 0.257787 -0.964648 -0.0547657
-15.1557 39.3362 -10.2558 0.251874 -0.9666 -0.0473613
-14.2011 39.5869 -10.393 0.246164 -0.968405 -0.0399358
-13.0183 39.8824 -10.4107 0.239184 -0.970294 -0.0363471
-11.8598 40.1626 -10.4573 0.235445 -0.971425 -0.0299772
-10.8277 40.3901 -10.4696 0.208719 -0.977703 -0.0230826
-9.82068 40.5993 -10.393 0.203114 -0.978852 -0.0243606
-8.85023 40.7912 -10.4116 0.18725 -0.982146 -0.0171797
-7.70774 40.9941 -10.3348 0.166828 -0.985833 -0.0173259
-6.60326 41.1761 -10.1918 0.138304 -0.990377 -0.00448621
-5.5062 41.3238 -10.0738 0.125971 -0.992023 0.00448731
-4.42206 41.452 -9.94232 0.105286 -0.994388 0.0103634
-3.42852 41.5522 -9.81642 0.0867894 -0.995737 0.0312327
-2.43842 41.6261 -9.78783 0.0681307 -0.997366 0.0248749
-1.44976 41.6716 -9.8439 0.0525961 -0.997169 0.0537275
-0.255435 41.7338 -9.7016 0.0383914 -0.997825 0.0535905
0.773196 41.7608 -9.58071 0.0124049 -0.996853 0.0776381
2.01798 41.7923 -9.35007 0.0104712 -0.995471 0.0944417
2.96891 41.8145 -9.06592 -0.0186936 -0.996827 0.0773661
3.96245 41.802 -8.83518 -0.0387652 -0.994611 0.0961541
5.12399 41.7907 -8.49151 -0.0613143 -0.988493 0.137706
5.45539 41.7816 -8.41146 -0.0552094 -0.986375 0.154974
22.8863 48.0232 42.5311 0.381202 -0.924492 -0.00056525
24.1183 48.5315 42.6652 0.381267 -0.924465 8.43858e-05
25.3604 49.0442 42.798 0.381669 -0.924299 0.000372764
25.6979 49.1836 42.8336 0.381903 -0.924202 0.000481494
26.0935 49.3462 41.9506 0.381418 -0.924402 0.00059314
24.9238 48.8635 41.8279 0.381013 -0.92457 9.57054e-05
23.7281 48.3707 41.7012 0.381115 -0.924528 -0.000270356
22.6126 47.9111 41.5802 0.380706 -0.924696 -0.000502106
21.4687 47.44 41.4533 0.380819 -0.924649 -0.00088119
20.0824 46.8696 41.2931 0.380437 -0.924805 -0.00156947
19.782 46.7462 41.2572 0.380249 -0.924882 -0.00178369
17.3154 45.7341 40.0226 0.380709 -0.92469 -0.00306105
18.6896 46.2992 40.2008 0.380618 -0.924729 -0.00229695
19.9704 46.8254 40.3576 0.380246 -0.924883 -0.00196343
21.0365 47.2635 40.4831 0.380309 -0.924858 -0.00168595
22.1344 47.7151 40.6063 0.380536 -0.924766 -0.000979488
23.3076 48.1977 40.7348 0.380822 -0.924648 -0.000392383
24.9174 48.8609 40.9045 0.380882 -0.924623 0.000144076
25.9988 49.3066 41.0166 0.381202 -0.924492 0.000562551
26.4421 49.4885 40.1352 0.380888 -0.924621 0.000993784
25.213 48.9824 40.0118 0.380722 -0.92469 4.52975e-05
24.0752 48.5142 39.894 0.38057 -0.924752 -0.000295658
22.9686 48.059 39.776 0.380424 -0.924812 -0.000718114
21.7713 47.5672 39.6449 0.380133 -0.92493 -0.00149318
20.6221 47.0951 39.5136 0.379874 -0.925036 -0.0019297
19.331 46.565 39.3579 0.379878 -0.925033 -0.00272319
18.2503 46.1216 39.2213 0.380212 -0.924892 -0.00362546
17.5778 45.8454 39.1346 0.380672 -0.924703 -0.00353054
17.7053 45.9016 38.2291 0.380059 -0.924951 -0.00462783
18.9766 46.423 38.3912 0.379423 -0.925218 -0.0031638
20.1194 46.8912 38.5328 0.379623 -0.925137 -0.002788
21.1901 47.3303 38.6589 0.379857 -0.925042 -0.00238765
22.3835 47.8199 38.7919 0.380032 -0.924972 -0.0013668
23.4684 48.2652 38.9076 0.379935 -0.925013 -0.000887292
24.5962 48.7286 39.0257 0.380236 -0.92489 3.24258e-05
25.7884 49.2186 39.1468 0.380553 -0.924759 0.000600374
26.5928 49.5497 39.2257 0.380416 -0.924815 0.00118344
26.4577 49.4932 38.2879 0.380365 -0.924836 0.000734851
25.218 48.984 38.1667 0.379412 -0.925228 -0.000119878
23.9388 48.4594 38.0352 0.379448 -0.925213 -0.000866687
22.555 47.8921 37.8889 0.379566 -0.925163 -0.00159298
21.2568 47.3601 37.7465 0.379518 -0.92518 -0.00274406
20.116 46.8931 37.612 0.379354 -0.925246 -0.00325911
18.8757 46.3854 37.4581 0.379266 -0.925279 -0.00402505
18.2607 46.1336 37.3789 0.379351 -0.925244 -0.00396328
17.9266 46.0022 36.4148 0.37914 -0.925323 -0.0055468
19.0174 46.4479 36.5548 0.378623 -0.925539 -0.00482153
20.0976 46.8892 36.6883 0.378794 -0.925473 -0.00382014
21.1722 47.3287 36.8166 0.378521 -0.925588 -0.00310945
22.682 47.9461 36.9818 0.378466 -0.925612 -0.00238852
23.9495 48.4647 37.1145 0.378724 -0.925508 -0.00142541
25.2305 48.9895 37.2447 0.379129 -0.925344 -0.000470852
26.3609 49.4528 37.3521 0.379603 -0.925149 0.000543609
26.4836 49.5032 37.3633 0.379672 -0.925121 0.000537591
27.0663 49.7414 36.49 0.379315 -0.925267 0.000800426
25.7928 49.2199 36.3738 0.378905 -0.925436 9.07393e-05
24.6491 48.7522 36.2629 0.378581 -0.925568 -0.000823445
23.2421 48.1772 36.1206 0.378122 -0.925753 -0.00219586
21.8768 47.6196 35.9767 0.377999 -0.925801 -0.00294887
20.7117 47.1442 35.8428 0.377894 -0.925841 -0.00375821
19.2842 46.5618 35.6685 0.377954 -0.925808 -0.00542948
18.0258 46.0487 35.5059 0.378452 -0.925595 -0.00689864
18.0527 46.067 34.5876 0.377545 -0.925953 -0.00845715
19.1438 46.5106 34.7307 0.377339 -0.926052 -0.00659868
20.3805 47.0135 34.884 0.377477 -0.926007 -0.00469498
21.7316 47.5636 35.0389 0.377533 -0.925988 -0.00397682
23.0289 48.0924 35.1781 0.377781 -0.925892 -0.00223821
24.1122 48.5339 35.2864 0.377969 -0.925817 -0.00152726
25.3852 49.0536 35.4097 0.377878 -0.925855 -0.000242426
26.751 49.6118 35.5355 0.37847 -0.925614 0.000189962
26.8063 49.6344 35.5406 0.378835 -0.925464 0.000293228
26.9985 49.7125 34.6304 0.378068 -0.925777 0.000644876
25.7756 49.2134 34.52 0.377352 -0.92607 -0.000446661
24.7007 48.7753 34.4202 0.377532 -0.925995 -0.0014178
23.4951 48.2843 34.3023 0.377391 -0.926052 -0.00184988
22.2831 47.7917 34.1789 0.377322 -0.926076 -0.00347293
21.1822 47.3445 34.0565 0.37663 -0.926351 -0.00497092
19.8047 46.7857 33.8941 0.37601 -0.926593 -0.00650674
18.7136 46.3431 33.7553 0.376742 -0.926286 -0.00766213
18.2003 46.1349 33.687 0.376715 -0.926297 -0.00767594
18.2632 46.1695 32.7755 0.375949 -0.926587 -0.00996053
19.4651 46.6551 32.9332 0.376261 -0.926487 -0.00704485
20.5794 47.1058 33.0673 0.375543 -0.926783 -0.00631457
21.691 47.5559 33.193 0.376023 -0.9266 -0.00433106
22.8801 48.0375 33.3181 0.376046 -0.926595 -0.00317672
24.1585 48.5563 33.4444 0.375886 -0.926663 -0.00230213
25.468 49.0889 33.5666 0.377144 -0.926154 -0.000700345
26.5461 49.5277 33.6626 0.377338 -0.926076 -0.000307479
27.0804 49.7454 33.7093 0.377508 -0.926006 0.000134194
27.1212 49.7613 32.7868 0.376551 -0.926395 0.000790077
25.9758 49.2955 32.687 0.376869 -0.926267 0.000114627
24.6676 48.7645 32.568 0.375911 -0.926654 -0.00162487
23.5859 48.3264 32.4654 0.375339 -0.926884 -0.00254963
22.513 47.8926 32.3577 0.374557 -0.927194 -0.00422549
21.2371 47.3774 32.2208 0.374847 -0.927072 -0.00515488
20.1192 46.9271 32.0926 0.374913 -0.927022 -0.00845199
18.9726 46.4653 31.9513 0.373985 -0.927395 -0.00861702
18.4195 46.2424 31.8793 0.375144 -0.926915 -0.00979195
18.1885 46.1604 30.9332 0.372784 -0.927852 -0.0110533
19.3445 46.6239 31.0795 0.373087 -0.927752 -0.00904767
20.4627 47.0721 31.2113 0.37348 -0.927609 -0.00733086
21.5341 47.5028 31.3316 0.373679 -0.927542 -0.0054107
22.9465 48.0715 31.4786 0.373759 -0.927517 -0.00408442
24.1394 48.5525 31.5937 0.374669 -0.927156 -0.00225097
25.3188 49.0295 31.7015 0.375394 -0.926865 -0.000985674
26.6067 49.5515 31.8149 0.376127 -0.926568 0.00011865
26.9642 49.6968 31.8459 0.376384 -0.926464 0.000789395
26.9823 49.7035 30.9195 0.375687 -0.926746 0.00039655
25.7965 49.2237 30.8168 0.374674 -0.927156 -0.000803427
24.4779 48.6915 30.6993 0.373755 -0.927524 -0.00251268
23.2307 48.1896 30.5829 0.373258 -0.927721 -0.00352372
22.0172 47.7022 30.4606 0.372676 -0.927949 -0.00475054
20.9426 47.2712 30.3443 0.3724 -0.928051 -0.00625338
19.6802 46.7667 30.1979 0.372088 -0.928155 -0.00893693
18.4752 46.2866 30.0506 0.371542 -0.928354 -0.0107417
18.3099 46.2207 30.0295 0.372076 -0.92813 -0.0115512
18.3875 46.2633 29.1235 0.369771 -0.929013 -0.0142827
19.5407 46.7213 29.263 0.370436 -0.928797 -0.0106222
20.8516 47.2423 29.4127 0.370089 -0.928964 -0.00773121
22.1211 47.7484 29.5471 0.371716 -0.928331 -0.0054209
23.3436 48.238 29.668 0.371907 -0.928262 -0.00396615
24.6601 48.7667 29.7894 0.373364 -0.927682 -0.00218947
26.2497 49.4072 29.9277 0.374465 -0.927241 0.000580964
26.8733 49.6591 29.9811 0.374332 -0.927295 0.000631874
26.9402 49.6854 29.0567 0.374308 -0.927304 0.000866962
25.8123 49.231 28.9625 0.37356 -0.927606 -0.000668035
24.5661 48.7305 28.8545 0.37221 -0.928147 -0.00194651
23.3915 48.2608 28.7471 0.371022 -0.92862 -0.00272626
22.2813 47.8178 28.6391 0.370477 -0.928826 -0.00533975
21.0927 47.3456 28.5165 0.368945 -0.929421 -0.00746567
19.8659 46.8594 28.3826 0.369492 -0.929193 -0.00869065
18.391 46.2772 28.2076 0.368338 -0.929599 -0.0131634
18.2247 46.2118 28.1873 0.367688 -0.92984 -0.014271
17.8737 46.088 27.2261 0.366078 -0.930457 -0.0153964
18.95 46.5096 27.3579 0.366458 -0.930358 -0.0119663
20.1044 46.9629 27.4885 0.367214 -0.930084 -0.00988569
21.2631 47.4199 27.6111 0.366841 -0.930251 -0.00783749
22.5801 47.941 27.7436 0.369358 -0.929274 -0.00493139
23.7658 48.4131 27.8557 0.370264 -0.928922 -0.00281002
25.2499 49.0057 27.9865 0.371976 -0.928242 -0.00109036
26.5038 49.5091 28.0914 0.372923 -0.927862 3.53929e-06
26.7286 49.5994 28.11 0.372549 -0.928013 0.000286348
26.6244 49.5569 27.1726 0.372238 -0.928136 0.00125194
25.445 49.0845 27.0749 0.370761 -0.928728 -0.000476251
24.0132 48.514 26.9493 0.369657 -0.929165 -0.00237068
22.9233 48.0818 26.8503 0.368731 -0.929524 -0.00482009
21.5009 47.5206 26.7129 0.366609 -0.930351 -0.00669097
20.1903 47.0064 26.5775 0.365171 -0.930893 -0.00937285
18.7815 46.4567 26.4202 0.363985 -0.931313 -0.0130852
17.7176 46.0425 26.291 0.363574 -0.931456 -0.0143012
17.548 45.9933 25.3553 0.361405 -0.932287 -0.0151084
18.6844 46.4309 25.4894 0.361747 -0.93218 -0.0134097
19.8216 46.8727 25.6168 0.362132 -0.932068 -0.0104943
20.9758 47.3216 25.7371 0.364199 -0.931295 -0.00697674
22.3179 47.847 25.8663 0.366338 -0.93047 -0.0046271
23.4947 48.3103 25.9726 0.36719 -0.930139 -0.00363929
24.578 48.7397 26.071 0.369555 -0.929208 -0.00127993
25.7017 49.1868 26.1675 0.369953 -0.92905 0.000751121
26.7499 49.6058 26.2542 0.371274 -0.928522 0.00177495
26.5436 49.5213 25.3068 0.370661 -0.928766 0.00211112
25.3718 49.0555 25.2091 0.368306 -0.929705 0.000413131
24.2806 48.6227 25.1157 0.368115 -0.92978 -0.000445894
23.064 48.1436 25.0062 0.365442 -0.930829 -0.00308352
21.9541 47.7097 24.9057 0.363331 -0.931646 -0.00516699
20.7098 47.2254 24.7877 0.361838 -0.932208 -0.00778587
19.3815 46.7121 24.6481 0.36091 -0.932547 -0.0100402
18.2065 46.2609 24.5184 0.358905 -0.933274 -0.0136387
17.4198 45.9613 24.4253 0.356983 -0.933988 -0.0151184
17.1893 45.8905 23.4811 0.352157 -0.935744 -0.0192176
18.4963 46.3854 23.632 0.356763 -0.934113 -0.0123584
19.6902 46.8409 23.7586 0.358632 -0.933424 -0.0101567
20.8521 47.2874 23.8758 0.361456 -0.932372 -0.00558499
22.1781 47.8009 23.9988 0.362501 -0.931978 -0.00335299
23.4879 48.3118 24.1159 0.365201 -0.930927 -0.00177921
24.7018 48.7891 24.2211 0.367545 -0.930006 0.000674111
25.8514 49.2442 24.3174 0.368526 -0.929615 0.00201757
26.3737 49.4512 24.3615 0.368716 -0.929538 0.002743
26.1406 49.356 23.4123 0.367325 -0.930086 0.0033918
24.969 48.8935 23.3129 0.366116 -0.930567 0.00194673
23.6407 48.3727 23.199 0.364134 -0.931346 -0.000908209
22.4241 47.8994 23.0918 0.361967 -0.932189 -0.00176165
21.1511 47.4081 22.9771 0.358681 -0.933449 -0.00457916
19.9958 46.9667 22.8661 0.35781 -0.933765 -0.00741875
18.8869 46.5463 22.7557 0.355962 -0.93445 -0.0096977
17.5563 46.0458 22.6085 0.351138 -0.936179 -0.0164368
16.8052 45.7662 22.5178 0.346055 -0.937961 -0.0217946
16.7849 45.7784 21.6034 0.346218 -0.937961 -0.0190522
18.1356 46.276 21.7511 0.348531 -0.937224 -0.0116975
19.4184 46.7555 21.8845 0.35422 -0.935121 -0.00881255
20.7141 47.2464 22.008 0.356837 -0.934152 -0.0051749
22.1154 47.7831 22.1337 0.359302 -0.933221 -0.0012764
23.6771 48.3867 22.2704 0.36123 -0.932476 0.00107956
25.1765 48.973 22.3999 0.365198 -0.930926 0.00281568
26.0414 49.3135 22.4729 0.367239 -0.930122 0.00309585
25.4829 49.0898 21.4924 0.363613 -0.931538 0.00482249
24.4058 48.6688 21.4006 0.362612 -0.931938 0.00218734
23.2695 48.2281 21.3024 0.359867 -0.933002 0.00177934
22.1846 47.8107 21.2087 0.358044 -0.933704 0.000468463
20.9606 47.3435 21.0991 0.354982 -0.934867 -0.00340196
19.8787 46.9355 21.0026 0.351257 -0.93627 -0.00417876
18.7372 46.5091 20.8916 0.348391 -0.937298 -0.00978698
17.6476 46.109 20.7779 0.342737 -0.939344 -0.0128495
16.4851 45.6881 20.6607 0.339187 -0.940543 -0.0182135
16.2005 45.5854 20.6303 0.341422 -0.939682 -0.0206886
15.7439 45.441 19.672 0.333441 -0.9426 -0.0179841
16.8553 45.8353 19.7813 0.339383 -0.940526 -0.0151759
18.168 46.3098 19.9077 0.343115 -0.939259 -0.00808146
19.3272 46.7348 20.0184 0.346698 -0.937948 -0.00735022
20.8608 47.3083 20.1585 0.350731 -0.936476 -0.000875514
22.2637 47.8407 20.2826 0.357157 -0.934044 0.000142767
23.3898 48.2727 20.3802 0.358078 -0.933681 0.00433175
24.634 48.7536 20.4866 0.362219 -0.932082 0.0045141
25.2778 49.005 20.5399 0.363414 -0.931617 0.00437286
25.0301 48.9026 19.5864 0.362341 -0.932029 0.00545998
23.8479 48.4444 19.4872 0.359417 -0.933162 0.00536393
22.7112 48.0087 19.3898 0.35688 -0.934137 0.00506247
21.5666 47.5739 19.289 0.352783 -0.935702 0.00249574
20.4268 47.1458 19.1883 0.350378 -0.936608 0.0011518
19.3284 46.7398 19.0888 0.344593 -0.938748 -0.00274191
17.9245 46.2298 18.9605 0.341578 -0.939834 -0.00605999
16.4688 45.7118 18.8248 0.333417 -0.9427 -0.0122533
15.4262 45.347 18.7303 0.329752 -0.94397 -0.013587
14.6445 45.0953 17.7481 0.322827 -0.946227 -0.0208943
15.9534 45.5432 17.8627 0.326303 -0.9452 -0.011126
17.4179 46.056 17.9884 0.333959 -0.942559 -0.00729588
18.6391 46.4925 18.0969 0.337679 -0.941257 -0.00289166
19.9436 46.966 18.211 0.345194 -0.938529 0.00200508
21.2776 47.4616 18.3309 0.351048 -0.936345 0.00492277
22.4169 47.8921 18.4303 0.35531 -0.934733 0.00544132
23.5947 48.3406 18.5316 0.356825 -0.934139 0.00777141
24.7489 48.7856 18.6276 0.36098 -0.932529 0.00907312
24.2572 48.5864 17.6509 0.359661 -0.932999 0.0125482
23.0286 48.1159 17.5428 0.356252 -0.934338 0.00989665
21.5838 47.5712 17.4183 0.348751 -0.937171 0.00907087
20.4032 47.1328 17.3145 0.34527 -0.938472 0.00767316
18.8857 46.5805 17.1864 0.338566 -0.940943 0.000105669
17.5648 46.1114 17.0748 0.33163 -0.943409 -0.00109632
16.4243 45.7154 16.9831 0.325184 -0.945645 -0.00347395
15.2678 45.3213 16.8894 0.322424 -0.946487 -0.0143157
14.1567 44.9503 16.7985 0.314126 -0.949229 -0.0170078
13.6013 44.7877 15.8445 0.304091 -0.952468 -0.0182479
14.7918 45.1709 15.9366 0.310108 -0.950653 -0.00957267
15.9222 45.5478 16.025 0.321895 -0.946763 -0.00490833
17.1064 45.9528 16.114 0.327345 -0.944902 0.00226953
18.2839 46.3635 16.2042 0.331692 -0.943384 0.00266655
19.4399 46.7761 16.2991 0.338668 -0.940892 0.00513107
20.6373 47.2113 16.3995 0.343078 -0.939283 0.00674892
21.7946 47.6407 16.4964 0.348129 -0.937379 0.0112127
23.0467 48.1117 16.6009 0.353681 -0.935259 0.0141411
23.6722 48.3504 16.655 0.354653 -0.934929 0.0113237
23.279 48.1859 15.6757 0.355118 -0.934697 0.0152513
21.9228 47.675 15.5636 0.349256 -0.936934 0.0132068
20.6038 47.1872 15.4537 0.341913 -0.939657 0.011833
19.3546 46.7358 15.3524 0.33583 -0.941861 0.0107612
18.1163 46.299 15.2617 0.328859 -0.944333 0.00926635
16.9487 45.8966 15.1792 0.325683 -0.945465 0.00519885
15.5693 45.4329 15.0789 0.314304 -0.949319 -0.0026976
14.4132 45.0563 14.9932 0.304598 -0.952461 -0.00618046
13.2829 44.7017 14.9143 0.294062 -0.955709 -0.0121153
13.2235 44.6836 14.9101 0.292148 -0.9563 -0.0118011
12.7238 44.5472 13.9822 0.281829 -0.959415 -0.00980098
13.9859 44.9284 14.0536 0.295693 -0.95528 -0.00224484
15.4193 45.3826 14.148 0.309347 -0.95094 0.00416822
16.5427 45.7528 14.2249 0.315431 -0.948927 0.00636317
17.6876 46.141 14.3032 0.321137 -0.946935 0.0135941
18.9538 46.5814 14.3887 0.330957 -0.943507 0.0162069
20.1446 47.0055 14.4762 0.337086 -0.941339 0.0159214
21.2514 47.4094 14.5658 0.342782 -0.93925 0.017607
22.6554 47.9326 14.684 0.348739 -0.937015 0.0195879
23.3042 48.1776 14.7364 0.352527 -0.935637 0.0175479
22.6817 47.9215 13.7427 0.350733 -0.936251 0.0204897
21.4885 47.4772 13.6448 0.345398 -0.938258 0.0193077
20.3374 47.0569 13.5555 0.340096 -0.940204 0.0187234
19.1587 46.637 13.4709 0.328348 -0.944354 0.0195918
17.9783 46.2274 13.3924 0.321396 -0.946797 0.0167563
16.7435 45.8092 13.314 0.317689 -0.948111 0.01259
15.6334 45.4455 13.2438 0.303236 -0.952847 0.011451
14.3936 45.0549 13.1677 0.29573 -0.955196 0.0120587
13.2175 44.6985 13.1051 0.283871 -0.958858 0.00292657
12.0757 44.3697 13.049 0.269537 -0.962976 -0.0051655
11.6348 44.2451 13.0257 0.26714 -0.96361 -0.00964489
10.6917 44.0083 12.0863 0.245755 -0.96928 -0.0100305
11.8958 44.3198 12.1365 0.251965 -0.967719 -0.00583826
13.108 44.6613 12.1927 0.279022 -0.960249 0.00835018
14.4781 45.0696 12.2582 0.289945 -0.957015 0.00737055
15.69 45.4514 12.3255 0.303669 -0.952562 0.0202571
16.8413 45.8253 12.3929 0.313045 -0.949553 0.0187628
18.0167 46.2205 12.4642 0.31948 -0.947384 0.0199004
19.2653 46.6527 12.5433 0.330122 -0.943585 0.025829
20.4181 47.0632 12.624 0.335811 -0.941605 0.0247131
21.752 47.5506 12.7235 0.343922 -0.93865 0.0255741
22.1804 47.7093 12.7569 0.346656 -0.937656 0.0251192
21.6681 47.4915 11.777 0.343699 -0.938643 0.0286336
20.5634 47.0881 11.6954 0.337122 -0.941031 0.0284446
19.2451 46.6199 11.6072 0.325721 -0.944944 0.0314216
18.1361 46.2366 11.5404 0.324054 -0.945695 0.0255062
17.0353 45.8665 11.4776 0.312337 -0.949584 0.0271465
15.8752 45.4905 11.4143 0.299368 -0.953704 0.0287605
14.6776 45.1144 11.3529 0.296917 -0.954708 0.0193226
13.3941 44.7343 11.2964 0.276172 -0.960875 0.0211725
12.24 44.4098 11.249 0.255718 -0.966638 0.0147927
10.9845 44.0834 11.1943 0.243379 -0.969929 0.00225171
10.1988 43.8944 11.1622 0.226731 -0.973949 -0.00398656
8.81975 43.5888 10.2201 0.208709 -0.977963 -0.00532188
10.2636 43.9044 10.2624 0.228436 -0.973535 0.00681922
11.4418 44.1887 10.3073 0.247926 -0.968642 0.0162998
12.72 44.5255 10.3576 0.259757 -0.965364 0.0244615
14.1086 44.9211 10.4115 0.2786 -0.959941 0.0299124
15.2475 45.2635 10.4593 0.295872 -0.954743 0.0304359
16.5217 45.6696 10.5227 0.30585 -0.951382 0.0364423
17.634 46.0345 10.5814 0.311575 -0.949537 0.0360673
18.8652 46.4566 10.6501 0.326318 -0.944718 0.0320086
20.2263 46.9351 10.7342 0.335261 -0.941481 0.0348344
21.0129 47.2201 10.7921 0.338372 -0.940406 0.0337925
20.2533 46.9085 9.79973 0.3344 -0.941553 0.0406889
18.9683 46.453 9.72179 0.323391 -0.945368 0.041193
17.7714 46.0441 9.65644 0.318447 -0.946951 0.0433149
16.4059 45.5968 9.58893 0.307703 -0.950615 0.0406221
15.3006 45.2472 9.53867 0.294128 -0.95466 0.0459642
14.076 44.8795 9.49224 0.279036 -0.959362 0.0419978
12.865 44.5383 9.45128 0.262187 -0.964317 0.0367502
11.7223 44.2371 9.41204 0.235253 -0.971648 0.0235686
10.5078 43.9444 9.36899 0.223901 -0.974379 0.0213243
9.11203 43.6417 9.33012 0.200525 -0.979518 0.0182925
7.87886 43.398 9.30125 0.184396 -0.982851 0.00106528
6.64259 43.1806 8.36113 0.157161 -0.987508 0.0113112
7.86233 43.3858 8.39869 0.172311 -0.984963 0.0124937
9.13171 43.6266 8.43065 0.194828 -0.980657 0.0188054
10.4101 43.9006 8.46531 0.218858 -0.975362 0.0277627
11.707 44.2057 8.51056 0.236009 -0.971052 0.036856
12.9138 44.5169 8.54558 0.256801 -0.965432 0.044655
14.1051 44.8489 8.57934 0.273523 -0.960581 0.0496989
15.2803 45.1984 8.61749 0.289969 -0.95559 0.0525984
16.4945 45.5804 8.66637 0.303967 -0.951069 0.0554148
17.7038 45.9756 8.72113 0.315208 -0.947466 0.0543348
18.9883 46.4128 8.78119 0.326437 -0.943988 0.0482292
19.508 46.5978 8.81286 0.33248 -0.941946 0.0468374
19.0916 46.3982 7.84574 0.328516 -0.942859 0.0556268
17.9629 46.0089 7.79834 0.3195 -0.94608 0.053404
16.5454 45.5426 7.73785 0.306583 -0.950348 0.0533509
15.2877 45.1484 7.69736 0.291684 -0.954244 0.0658682
14.1237 44.8039 7.66619 0.275212 -0.959289 0.0634187
12.947 44.4787 7.63895 0.256036 -0.964813 0.0598527
11.7326 44.1707 7.61043 0.233647 -0.970823 0.0539652
10.506 43.8866 7.57224 0.222439 -0.973671 0.0498554
9.2206 43.617 7.53428 0.195345 -0.980237 0.0312271
7.9079 43.376 7.50322 0.166645 -0.985777 0.0217473
6.44793 43.1388 7.45098 0.148046 -0.988769 0.0204439
4.95162 42.9236 7.3892 0.132424 -0.991178 0.00549369
3.65674 42.7472 6.43604 0.124768 -0.992136 0.00991104
4.89617 42.9086 6.47932 0.130908 -0.991271 0.0156598
6.23027 43.0919 6.53865 0.141767 -0.989669 0.0213629
7.56403 43.2958 6.59437 0.158208 -0.986782 0.0350956
8.8207 43.5083 6.62899 0.170363 -0.984662 0.0376559
10.1498 43.771 6.66429 0.203391 -0.977911 0.0481873
11.3215 44.0269 6.70036 0.223683 -0.972577 0.0637161
12.6015 44.3338 6.72947 0.249812 -0.965941 0.0674718
13.8608 44.6706 6.75252 0.270167 -0.960151 0.0715462
15.1184 45.0359 6.77914 0.287162 -0.955074 0.0732961
16.3956 45.4325 6.81002 0.301276 -0.951352 0.0645153
17.6187 45.8324 6.85223 0.318134 -0.945873 0.0641417
18.0914 45.9926 6.87041 0.318134 -0.945873 0.0641421
17.4969 45.7207 5.91948 0.316478 -0.945594 0.0754629
16.2599 45.3171 5.88887 0.303212 -0.949124 0.0850005
14.7343 44.8532 5.86316 0.277917 -0.95655 0.0881691
13.5951 44.5311 5.84519 0.257803 -0.962291 0.0867902
12.387 44.2177 5.82371 0.236411 -0.968265 0.0810755
11.142 43.9275 5.79759 0.213371 -0.973909 0.0772949
9.61911 43.6116 5.74863 0.195146 -0.979206 0.0554426
8.23443 43.3655 5.71563 0.169507 -0.9844 0.0471629
6.86809 43.1562 5.66501 0.141253 -0.989494 0.0308094
5.63123 42.9861 5.61046 0.137608 -0.990108 0.0274052
4.2569 42.8102 5.55104 0.120179 -0.99258 0.0184938
2.79045 42.6318 5.49025 0.119318 -0.992714 0.0167775
1.30584 42.4527 5.43228 0.121744 -0.992496 0.011374
1.25447 42.4463 5.43043 0.121744 -0.992496 0.011374
-0.469504 42.2133 4.43495 0.130723 -0.991334 0.0129833
0.754886 42.3726 4.4865 0.121688 -0.992479 0.0132962
2.31075 42.5606 4.55413 0.115442 -0.993175 0.0166467
3.59042 42.7115 4.61447 0.120218 -0.992555 0.0195441
4.83833 42.8631 4.67341 0.118537 -0.99252 0.0291924
6.02482 43.0102 4.72021 0.129498 -0.990961 0.0350272
7.19568 43.1678 4.77221 0.136863 -0.989648 0.0431946
8.51292 43.3664 4.82217 0.156878 -0.985973 0.0569786
9.7779 43.5837 4.86152 0.173228 -0.983144 0.0584727
11.1865 43.8663 4.90355 0.20661 -0.97567 0.0733564
12.6928 44.2197 4.93283 0.242143 -0.96586 0.0920978
13.9878 44.5595 4.95119 0.267692 -0.95885 0.0945888
15.288 44.9374 4.96527 0.288044 -0.95294 0.09453
16.5374 45.3241 4.9774 0.303213 -0.949124 0.0849998
15.4847 44.9071 4.06142 0.296567 -0.949132 0.105815
14.1898 44.5271 4.05471 0.280527 -0.953095 0.113645
12.8857 44.1801 4.04651 0.236161 -0.965924 0.105915
11.4084 43.8346 4.01467 0.204194 -0.975103 0.0864851
10.1061 43.5746 3.98246 0.182238 -0.979932 0.0807676
8.81147 43.3584 3.93775 0.152093 -0.985828 0.0707904
7.41053 43.1559 3.87758 0.132328 -0.989735 0.0539743
5.86019 42.952 3.80492 0.119955 -0.991944 0.04072
4.56109 42.8008 3.75377 0.114755 -0.992851 0.0328221
3.3975 42.6671 3.69317 0.110089 -0.993591 0.025651
2.04072 42.5118 3.62089 0.112866 -0.993424 0.0192436
0.84177 42.3707 3.56048 0.120608 -0.992621 0.0125678
-0.65007 42.1787 3.49842 0.132501 -0.991127 0.0105548
-1.85589 42.0107 3.43873 0.144823 -0.989394 0.0111971
-3.02494 41.8322 3.3916 0.155423 -0.987768 0.0125591
-4.13395 41.6456 3.36823 0.17595 -0.984377 0.00657804
-35.0619 28.6375 17.3426 0.344786 -0.925074 -0.159253
-36.6506 28.0919 17.0725 0.344777 -0.925079 -0.159241
-37.2534 27.8848 16.9703 0.344773 -0.925077 -0.159261
-34.5984 28.9537 16.5118 0.344876 -0.924949 -0.159783
-36.1857 28.4084 16.2417 0.344914 -0.92499 -0.159464
-37.6082 27.9195 15.9999 0.344993 -0.924956 -0.159489
-39.0197 27.4348 15.7602 0.344721 -0.925109 -0.159189
-40.5258 26.9175 15.5042 0.3448 -0.925071 -0.159239
-40.962 26.7677 15.4303 0.344897 -0.92504 -0.159209
-43.6142 26.0127 14.0703 0.345248 -0.924935 -0.15906
-42.1648 26.511 14.3158 0.344829 -0.925096 -0.159033
-40.7159 27.0089 14.5617 0.344951 -0.925018 -0.159222
-39.0601 27.5776 14.8431 0.344713 -0.925101 -0.159254
-37.6467 28.0632 15.0834 0.345028 -0.924936 -0.159526
-36.1002 28.5948 15.3463 0.345068 -0.92489 -0.159708
-34.2539 29.2292 15.6611 0.34508 -0.924845 -0.159943
-34.1839 29.2533 15.6731 0.345078 -0.924846 -0.159942
-33.7843 29.5483 14.8321 0.345272 -0.924725 -0.16022
-35.2655 29.0389 14.579 0.345309 -0.924755 -0.159969
-36.8678 28.4881 14.3061 0.345169 -0.924814 -0.159932
-38.3113 27.9919 14.0601 0.344888 -0.924966 -0.159655
-39.9032 27.445 13.7893 0.344983 -0.924922 -0.159706
-41.6599 26.8415 13.4909 0.344904 -0.924973 -0.159578
-43.2773 26.2856 13.217 0.344939 -0.92495 -0.159638
-43.3939 26.2455 13.1972 0.345382 -0.924764 -0.159759
-43.4661 26.378 12.2745 0.345169 -0.924796 -0.160035
-41.9818 26.8882 12.526 0.344894 -0.924894 -0.160058
-40.3849 27.4368 12.797 0.344959 -0.924889 -0.159951
-38.7934 27.9836 13.0676 0.344919 -0.924942 -0.159731
-37.0013 28.5995 13.3732 0.345312 -0.924758 -0.159945
-35.3228 29.1766 13.6599 0.345583 -0.924615 -0.160185
-33.7661 29.7123 13.9258 0.345459 -0.924631 -0.160362
-32.9599 29.99 14.0632 0.345864 -0.924377 -0.160954
-32.4816 30.3133 13.2364 0.346184 -0.924215 -0.161195
-34.0844 29.7606 12.962 0.346406 -0.924187 -0.160879
-35.4796 29.2804 12.7232 0.345619 -0.92456 -0.160426
-36.9491 28.7749 12.4718 0.34546 -0.924644 -0.160286
-38.5145 28.2368 12.2046 0.345053 -0.924838 -0.16004
-39.9975 27.7273 11.9523 0.344867 -0.924877 -0.160215
-41.4957 27.2128 11.6978 0.344871 -0.924854 -0.160337
-42.7172 26.7931 11.4907 0.345083 -0.924765 -0.160395
-42.5935 26.9938 10.6012 0.345052 -0.924657 -0.161085
-41.1059 27.5048 10.8531 0.344925 -0.924738 -0.160891
-39.6854 27.9924 11.0945 0.344839 -0.924813 -0.160644
-38.2762 28.4764 11.335 0.345059 -0.924755 -0.160505
-36.758 28.9984 11.594 0.345467 -0.924654 -0.160209
-35.3784 29.473 11.8308 0.345645 -0.92457 -0.160315
-33.5678 30.0969 12.1412 0.346527 -0.924179 -0.160663
-31.8863 30.6776 12.4303 0.347015 -0.923893 -0.16125
-31.7428 30.7272 12.455 0.347469 -0.923619 -0.161845
-31.6883 30.9048 11.556 0.347571 -0.923684 -0.161249
-33.1913 30.385 11.2967 0.346645 -0.924146 -0.160596
-34.6758 29.8728 11.0415 0.346049 -0.924423 -0.160289
-36.1506 29.3652 10.7878 0.345608 -0.924597 -0.160236
-37.7538 28.8139 10.5137 0.345242 -0.924691 -0.160482
-39.3203 28.2761 10.2454 0.34492 -0.924777 -0.160678
-40.6991 27.803 10.0113 0.344596 -0.924821 -0.161121
-42.1424 27.3075 9.76703 0.344733 -0.924726 -0.161372
-41.4124 27.7171 8.97976 0.344585 -0.924694 -0.161873
-39.8934 28.2383 9.23698 0.344752 -0.924696 -0.161504
-38.4671 28.7277 9.48 0.344929 -0.924738 -0.160886
-36.9542 29.2469 9.73921 0.34521 -0.924705 -0.160471
-35.3624 29.7943 10.0129 0.345707 -0.924577 -0.160137
-33.9079 30.2953 10.2635 0.346622 -0.92422 -0.16022
-32.3591 30.8308 10.531 0.347395 -0.923864 -0.160601
-30.7426 31.391 10.8116 0.348551 -0.923476 -0.160327
-29.7779 31.884 10.0721 0.350462 -0.922735 -0.160427
-31.4187 31.3138 9.78525 0.348173 -0.923736 -0.15965
-32.8934 30.8032 9.52909 0.347531 -0.923992 -0.159565
-34.4623 30.2615 9.25815 0.34609 -0.924512 -0.159682
-36.037 29.7201 8.98564 0.3453 -0.924734 -0.16011
-37.6278 29.1741 8.71179 0.344867 -0.924788 -0.160727
-39.4066 28.5644 8.40779 0.344633 -0.924779 -0.161281
-40.8158 28.0811 8.16953 0.344274 -0.924832 -0.161743
-41.2004 27.9493 8.10463 0.344282 -0.924825 -0.161765
-40.5613 28.3281 7.3009 0.343975 -0.924816 -0.162468
-39.1631 28.807 7.5378 0.344059 -0.924899 -0.16182
-37.7533 29.2896 7.77863 0.344256 -0.924956 -0.161074
-36.1707 29.8319 8.05156 0.345034 -0.924802 -0.160289
-34.5216 30.3986 8.33659 0.345808 -0.924628 -0.159624
-33.0643 30.9008 8.58981 0.347011 -0.92428 -0.159027
-31.5787 31.4151 8.84847 0.347967 -0.923938 -0.158927
-30.0109 31.9603 9.12349 0.349546 -0.923262 -0.159387
-29.0807 32.285 9.28672 0.350444 -0.923015 -0.158846
-28.1119 32.7818 8.54951 0.354063 -0.921666 -0.158653
-29.7226 32.2164 8.2657 0.350121 -0.923266 -0.158097
-31.0993 31.7374 8.02244 0.348045 -0.923985 -0.158483
-32.6537 31.1989 7.75139 0.347169 -0.92437 -0.158158
-34.2463 30.6503 7.47328 0.345642 -0.92485 -0.158693
-35.9804 30.0552 7.17314 0.344585 -0.924953 -0.160387
-37.6337 29.4894 6.88768 0.343798 -0.925085 -0.16131
-39.0746 28.9967 6.64177 0.343684 -0.924936 -0.162404
-39.9336 28.7034 6.4959 0.343819 -0.924778 -0.163015
-39.3179 29.0739 5.68875 0.343046 -0.925115 -0.162732
-37.888 29.5618 5.93186 0.343397 -0.925229 -0.161335
-36.5146 30.0307 6.16671 0.344076 -0.925109 -0.160581
-34.9592 30.5623 6.43759 0.344681 -0.9251 -0.159328
-33.3822 31.1037 6.71286 0.345929 -0.924885 -0.157862
-31.851 31.6311 6.98233 0.347669 -0.924351 -0.15717
-30.3514 32.1519 7.24515 0.349255 -0.923919 -0.15619
-28.594 32.7654 7.55686 0.350824 -0.923473 -0.155308
-27.3243 33.2144 7.78215 0.355273 -0.921579 -0.156438
-26.3966 33.6964 7.03852 0.356411 -0.922016 -0.151191
-27.7767 33.2045 6.79474 0.353181 -0.923063 -0.152377
-29.2262 32.6966 6.53618 0.350288 -0.924073 -0.152928
-30.6992 32.1839 6.27442 0.347618 -0.924713 -0.155138
-32.1032 31.6984 6.02718 0.345007 -0.925594 -0.155712
-33.6196 31.1777 5.75935 0.344936 -0.92544 -0.156777
-35.0453 30.6898 5.50987 0.343641 -0.925629 -0.158495
-36.5801 30.1667 5.24265 0.342509 -0.925734 -0.160326
-37.9503 29.6997 5.00797 0.341812 -0.925669 -0.16218
-38.5781 29.4867 4.90046 0.342381 -0.925421 -0.16239
-38.2599 29.7547 4.04086 0.341769 -0.92575 -0.161804
-36.6763 30.2921 4.31287 0.342428 -0.925775 -0.160263
-35.084 30.8333 4.58989 0.343179 -0.925726 -0.158933
-33.456 31.3882 4.87657 0.342987 -0.926124 -0.157015
-32.0328 31.8757 5.12743 0.344456 -0.925828 -0.155541
-30.6361 32.3575 5.37588 0.347096 -0.925127 -0.153835
-29.0442 32.9101 5.65991 0.349078 -0.924938 -0.150449
-27.4511 33.4693 5.9445 0.35297 -0.923413 -0.150734
-26.0216 33.9779 6.19751 0.355614 -0.922654 -0.149158
-25.3004 34.2375 6.32407 0.356842 -0.922835 -0.145049
-24.2187 34.7693 5.60125 0.360293 -0.922321 -0.139684
-25.5929 34.274 5.36585 0.354672 -0.923837 -0.143989
-27.2929 33.671 5.06461 0.350812 -0.925016 -0.145865
-28.8313 33.1323 4.78987 0.349828 -0.924776 -0.1497
-30.2488 32.641 4.53396 0.347588 -0.925438 -0.150822
-31.7181 32.136 4.27139 0.344829 -0.926215 -0.152374
-33.1617 31.6429 4.01568 0.344139 -0.925829 -0.156233
-34.5421 31.1734 3.77126 0.342985 -0.926125 -0.157015
-36.0577 30.6594 3.50541 0.341389 -0.926274 -0.159591
-37.4456 30.1903 3.26581 0.3404 -0.926399 -0.160971
-36.6182 30.6283 2.4928 0.339397 -0.926828 -0.16062
-35.0248 31.1653 2.7716 0.340565 -0.926849 -0.15801
-33.6415 31.6331 3.01621 0.340369 -0.927441 -0.154925
-32.1706 32.1321 3.27867 0.342864 -0.926847 -0.152968
-30.7845 32.6052 3.52679 0.344259 -0.926755 -0.150367
-29.336 33.1034 3.78928 0.346697 -0.926167 -0.148376
-27.9053 33.5988 4.04673 0.347097 -0.926648 -0.144386
-26.5066 34.0893 4.29805 0.35034 -0.92586 -0.141582
-25.028 34.615 4.55553 0.354068 -0.924648 -0.140217
-23.427 35.194 4.82455 0.358353 -0.92399 -0.133509
-22.5697 35.509 4.96238 0.362671 -0.92276 -0.130325
-20.992 36.2163 4.29473 0.361012 -0.925095 -0.117765
-22.5099 35.6577 4.06151 0.359642 -0.924648 -0.125232
-23.962 35.1307 3.82651 0.358324 -0.923993 -0.133566
-25.3834 34.6237 3.58635 0.351892 -0.926236 -0.135125
-27.2057 33.984 3.26319 0.348852 -0.926504 -0.14104
-28.7928 33.4341 2.97653 0.346366 -0.926786 -0.145252
-30.3118 32.9136 2.70077 0.342546 -0.92776 -0.148069
-31.7086 32.4387 2.44827 0.341648 -0.927549 -0.151428
-33.1414 31.9545 2.19017 0.34022 -0.927666 -0.153905
-34.8332 31.3852 1.88943 0.339905 -0.927403 -0.15617
-35.6736 31.1034 1.7424 0.339338 -0.927091 -0.159223
-34.942 31.5046 0.953595 0.337613 -0.928059 -0.157239
-33.4376 32.0074 1.22157 0.337902 -0.928512 -0.153908
-31.9679 32.4997 1.4874 0.339085 -0.928823 -0.149361
-30.111 33.1264 1.82525 0.341279 -0.928876 -0.143936
-28.7315 33.5963 2.07618 0.343996 -0.92792 -0.143639
-27.3576 34.069 2.32422 0.345863 -0.927854 -0.139519
-25.8253 34.6009 2.59921 0.347554 -0.927961 -0.134518
-24.2984 35.1382 2.86065 0.350502 -0.927592 -0.129312
-22.9209 35.6312 3.0852 0.355572 -0.926207 -0.125334
-21.4367 36.1707 3.31502 0.35634 -0.926922 -0.117633
-19.9134 36.7296 3.53623 0.360285 -0.926111 -0.111858
-19.4922 36.8852 3.59347 0.353456 -0.929626 -0.104236
-16.804 37.9711 2.98204 0.35277 -0.932353 -0.0791909
-18.2364 37.4447 2.8373 0.354245 -0.930562 -0.0925425
-19.7271 36.9007 2.64982 0.353855 -0.929633 -0.102803
-21.1004 36.4054 2.45399 0.351662 -0.929105 -0.114443
-22.5472 35.8848 2.23636 0.352369 -0.927864 -0.122085
-24.3341 35.2504 1.94431 0.347345 -0.929119 -0.126843
-25.7028 34.7745 1.7085 0.345625 -0.929201 -0.130878
-27.2114 34.2545 1.43928 0.344156 -0.929107 -0.135342
-28.8491 33.6957 1.14245 0.339924 -0.929833 -0.140929
-30.4459 33.1557 0.850642 0.338809 -0.92945 -0.14605
-31.9099 32.6671 0.582631 0.337769 -0.929022 -0.151097
-33.2976 32.2054 0.329841 0.337274 -0.92903 -0.152149
-34.151 31.9218 0.177367 0.335673 -0.929291 -0.154081
-33.3092 32.3522 -0.59015 0.334207 -0.929938 -0.153366
-31.6942 32.8846 -0.293384 0.335024 -0.930393 -0.148757
-29.9431 33.466 0.02883 0.335538 -0.930801 -0.144996
-28.2566 34.0328 0.337219 0.339822 -0.93026 -0.138341
-26.5991 34.5952 0.636318 0.340038 -0.931019 -0.132583
-24.8068 35.2111 0.951283 0.343009 -0.930825 -0.126129
-23.2316 35.7583 1.21653 0.343722 -0.931642 -0.117891
-21.5985 36.334 1.47112 0.345796 -0.932074 -0.107998
-20.2 36.8328 1.67243 0.345129 -0.933388 -0.0983505
-18.6867 37.3726 1.86934 0.346322 -0.933347 -0.0944634
-16.9977 37.9826 2.04482 0.344467 -0.935283 -0.0811745
-15.4799 38.5216 2.14553 0.336028 -0.93964 -0.0645193
-13.9405 39.0578 2.22326 0.327258 -0.9437 -0.0482985
-12.4926 39.5455 2.26928 0.313517 -0.94854 -0.0444754
-11.0627 39.9893 2.302 0.295534 -0.954909 -0.0284428
-9.58381 40.4163 2.32985 0.262332 -0.964713 -0.0226179
-8.06004 40.821 2.35223 0.235629 -0.97176 -0.0127145
-6.54317 41.1752 2.37792 0.212986 -0.977047 -0.00392547
-5.08312 41.4678 2.40385 0.184304 -0.982861 0.00396343
-3.59393 41.7313 2.44652 0.162843 -0.986588 0.011244
-2.12308 41.9608 2.48547 0.14482 -0.989395 0.0111978
-0.504041 42.1874 2.57684 0.131632 -0.991162 0.0164691
1.05488 42.3815 2.63878 0.116029 -0.993058 0.0193202
2.79499 42.5775 2.73689 0.109038 -0.993797 0.021862
4.31397 42.742 2.83045 0.107639 -0.993496 0.0371487
5.84191 42.9101 2.89963 0.105751 -0.993212 0.0484326
7.91173 43.1658 3.01031 0.128258 -0.989236 0.0704365
9.45199 43.3883 3.06854 0.149257 -0.984442 0.0927155
10.9041 43.6399 3.1152 0.1819 -0.978171 0.100473
12.3795 43.9588 3.15095 0.226751 -0.968318 0.104614
13.9382 44.3567 3.16643 0.258128 -0.959954 0.108895
14.8262 44.6072 3.16301 0.282719 -0.952134 0.116238
13.7426 44.1882 2.27538 0.257069 -0.958612 0.122387
12.1691 43.7991 2.26787 0.211988 -0.968555 0.130242
10.3905 43.4475 2.21506 0.160364 -0.980093 0.117049
8.74792 43.2011 2.14824 0.132803 -0.986452 0.0963129
7.19526 43.0134 2.07712 0.109455 -0.991332 0.0726722
5.70773 42.853 1.98899 0.104419 -0.993488 0.04559
4.0392 42.6793 1.90093 0.101207 -0.994101 0.0389874
2.31236 42.4989 1.77998 0.10187 -0.99425 0.0330002
0.852666 42.3362 1.70661 0.116615 -0.992841 0.0258439
-0.647377 42.1556 1.6295 0.12822 -0.991704 0.00906902
-2.22371 41.94 1.54994 0.143814 -0.989588 0.00580865
-3.69306 41.7156 1.50234 0.159553 -0.987189 -0.000232012
-5.47234 41.3988 1.46136 0.194629 -0.980833 -0.00929354
-7.2165 41.032 1.43369 0.223515 -0.974668 -0.0080269
-8.78923 40.6514 1.41356 0.248192 -0.968398 -0.0245979
-10.5123 40.1819 1.38679 0.277897 -0.960292 -0.0247439
-12.2729 39.6509 1.34942 0.294268 -0.954917 -0.0392448
-13.9825 39.0912 1.29613 0.322328 -0.945047 -0.0546811
-15.7446 38.5001 1.20617 0.32931 -0.941878 -0.0664961
-17.4476 37.8995 1.0831 0.336719 -0.938385 -0.0778049
-19.0532 37.3321 0.909504 0.343646 -0.934289 -0.0949319
-20.6156 36.7844 0.702233 0.340189 -0.934798 -0.1021
-22.1512 36.247 0.477863 0.343144 -0.932803 -0.110136
-23.6583 35.7264 0.233854 0.341661 -0.932172 -0.119678
-25.21 35.1955 -0.0318985 0.338268 -0.932998 -0.122838
-26.6606 34.7028 -0.288011 0.339456 -0.931611 -0.129888
-28.069 34.2298 -0.542796 0.335711 -0.932124 -0.135806
-29.4654 33.7644 -0.798137 0.332826 -0.932531 -0.140042
-30.9831 33.2648 -1.0795 0.332783 -0.93168 -0.145696
-32.2478 32.8493 -1.31284 0.332207 -0.931264 -0.149617
-31.3526 33.2868 -2.06568 0.32975 -0.932642 -0.146439
-29.9347 33.7484 -1.80124 0.331216 -0.933172 -0.139589
-28.3849 34.2566 -1.51513 0.331993 -0.933254 -0.137174
-27.0127 34.7124 -1.2659 0.334247 -0.933351 -0.130898
-25.5447 35.2016 -1.00403 0.332574 -0.934713 -0.12532
-23.9908 35.7294 -0.735161 0.335499 -0.934736 -0.117084
-22.4677 36.2463 -0.482815 0.334471 -0.935928 -0.110313
-20.846 36.8022 -0.242279 0.337279 -0.935843 -0.102184
-19.2474 37.3566 -0.0295522 0.337245 -0.937012 -0.0909587
-17.8331 37.8447 0.126475 0.330617 -0.940141 -0.0826272
-16.246 38.3943 0.255203 0.328645 -0.94203 -0.0676135
-14.6766 38.9199 0.3391 0.314444 -0.947312 -0.0610247
-13.1736 39.405 0.400074 0.30348 -0.951806 -0.0443422
-11.4738 39.9297 0.440778 0.286456 -0.957542 -0.0324974
-9.95675 40.3648 0.46851 0.263526 -0.964215 -0.0290377
-8.22979 40.815 0.491014 0.23541 -0.971698 -0.0196373
-6.44345 41.2123 0.51002 0.207352 -0.978256 -0.00456084
-4.95829 41.5049 0.533265 0.176411 -0.984302 -0.00535122
-3.23247 41.7869 0.577256 0.152575 -0.98829 0.0017205
-1.42494 42.0439 0.645228 0.131826 -0.991228 0.00943871
0.0773459 42.2295 0.733614 0.111891 -0.993542 0.0188132
1.85012 42.4201 0.828588 0.105579 -0.993987 0.0290328
3.71786 42.6062 0.964087 0.0973035 -0.994269 0.0442931
5.1973 42.7498 1.05805 0.0927428 -0.993998 0.0580157
6.97414 42.9235 1.16549 0.0927878 -0.993132 0.0712632
8.63877 43.1049 1.24574 0.114975 -0.988648 0.0967305
10.3973 43.3478 1.33078 0.152008 -0.978844 0.136961
12.0856 43.6577 1.38742 0.190097 -0.968672 0.159805
