-30.3869 35.039 -3.36136 0.325004 -0.935369 -0.139468
-29.1177 35.5916 -4.14199 0.321133 -0.937589 -0.133415
-27.9474 36.0719 -4.72265 0.318403 -0.939227 -0.128342
-27.0174 36.4503 -5.20632 0.31725 -0.940682 -0.120291
-26.0143 36.8343 -5.58552 0.313583 -0.942501 -0.115574
-24.7456 37.3221 -6.1344 0.313381 -0.943255 -0.109827
-23.4772 37.7751 -6.49385 0.30777 -0.945675 -0.104746
-22.4307 38.1579 -6.93433 0.303351 -0.947952 -0.0967753
-21.4357 38.4955 -7.20573 0.295816 -0.950924 -0.0907541
-20.3997 38.8378 -7.41039 0.295093 -0.952072 -0.080494
-19.2039 39.2311 -7.75914 0.287979 -0.954642 -0.0756475
-17.8648 39.6473 -7.99189 0.282054 -0.957107 -0.0661209
-16.7261 39.9862 -8.14367 0.274438 -0.959754 -0.0596229
-15.5705 40.319 -8.24743 0.27069 -0.961144 -0.0540447
-14.2219 40.6934 -8.41279 0.260137 -0.964674 -0.0416169
-13.1294 40.9801 -8.39902 0.251303 -0.967184 -0.037452
-12.0939 41.2347 -8.37989 0.232771 -0.97206 -0.0302919
-11.0022 41.4929 -8.36274 0.229145 -0.973077 -0.0247742
-9.96906 41.7268 -8.36546 0.213359 -0.976874 -0.0139742
-8.82647 41.9641 -8.25965 0.198379 -0.979979 -0.0169637
-7.76636 42.1552 -8.09831 0.178108 -0.983985 -0.00377042
-6.56722 42.3667 -8.00701 0.164131 -0.986421 0.00458775
-5.50872 42.5226 -7.96121 0.13624 -0.990596 0.00929723
-4.10307 42.7084 -7.79326 0.114651 -0.993178 0.0211032
-2.95297 42.8437 -7.66697 0.0995083 -0.994685 0.0237683
-1.74217 42.9544 -7.52348 0.079693 -0.996262 0.0322543
-0.457698 43.0493 -7.36878 0.051135 -0.997726 0.043803
0.696747 43.1194 -7.16111 0.0526158 -0.997035 0.0561519
1.79889 43.1926 -6.89946 0.0504025 -0.99653 0.0657999
2.82394 43.2424 -6.54609 0.0217157 -0.996657 0.0787568
4.07717 43.3021 -6.16607 0.0143504 -0.9961 0.0870618
5.09046 43.3568 -5.8156 0.0221931 -0.992736 0.118249
6.1726 43.4136 -5.48953 0.0139852 -0.991247 0.13128
7.24221 43.4547 -5.2425 0.0060462 -0.987787 0.155691
8.42373 43.5108 -4.92172 0.00773187 -0.986154 0.165318
9.20855 43.5924 -4.58545 0.0147507 -0.980627 0.195315
9.7944 43.417 -5.43871 -0.00843807 -0.976771 0.214066
10.5397 43.5792 -4.71228 -0.00311033 -0.972587 0.232519
10.9038 43.8216 -3.72161 0.0342431 -0.975419 0.21768
11.337 44.1094 -2.66849 0.113649 -0.968577 0.218834
11.9464 44.3766 -1.77334 0.178063 -0.961486 0.209376
12.7324 44.6939 -1.04111 0.233805 -0.950094 0.205955
13.5898 45.0325 -0.365017 0.231867 -0.959729 0.158292
14.4731 45.3999 0.372783 0.25734 -0.955263 0.144661
15.2565 45.7439 1.19378 0.287256 -0.949029 0.129714
16.0698 46.0786 1.832 0.302507 -0.945929 0.117082
17.0051 46.491 2.75599 0.316617 -0.942992 0.102555
17.8341 46.8537 3.56384 0.327013 -0.940735 0.0898854
18.6642 47.2341 4.56916 0.328743 -0.941113 0.0789594
19.3905 47.5695 5.54043 0.33329 -0.940245 0.0696975
20.07 47.8746 6.43255 0.338336 -0.938978 0.0618968
20.8477 48.2231 7.44727 0.345204 -0.937103 0.0516711
21.6127 48.5652 8.64746 0.345575 -0.937268 0.0458266
22.2831 48.852 9.49861 0.345468 -0.937623 0.0386738
22.8635 49.1116 10.6328 0.348231 -0.936761 0.0347934
23.4361 49.361 11.621 0.352064 -0.935548 0.0281949
24.1711 49.6851 13.1642 0.356097 -0.934102 0.025309
24.6303 49.8898 14.282 0.35964 -0.932871 0.0202622
25.1578 50.119 15.5121 0.360417 -0.932619 0.0179192
25.536 50.2834 16.491 0.362674 -0.931792 0.0151421
25.8485 50.4205 17.5315 0.364083 -0.931275 0.0129284
26.2102 50.5753 18.6796 0.364296 -0.931241 0.00888779
26.6369 50.7535 19.8127 0.365481 -0.930787 0.00771066
26.9638 50.8909 20.8297 0.366985 -0.930197 0.00747382
27.2123 50.9965 21.8587 0.368824 -0.929479 0.00607351
27.4285 51.089 22.9833 0.368741 -0.929519 0.00484989
27.649 51.1833 24.3261 0.370762 -0.92872 0.0039316
27.8699 51.2761 25.4916 0.372322 -0.928098 0.00326462
28.0249 51.3423 26.7012 0.372768 -0.92792 0.00276771
28.1822 51.4099 28.0918 0.373251 -0.927727 0.00269966
28.2789 51.4521 29.2544 0.375055 -0.926999 0.00245578
28.3237 51.4737 30.6104 0.376203 -0.926535 0.00225762
28.3664 51.4937 31.749 0.37702 -0.926202 0.00220153
28.3595 51.4934 32.8125 0.377713 -0.925921 0.00198823
28.2826 51.4643 33.9451 0.37803 -0.925792 0.00163402
28.2904 51.4697 35.0571 0.378818 -0.925469 0.00198599
28.1613 51.4192 36.1446 0.379528 -0.925179 0.00170654
28.0703 51.3837 37.236 0.380079 -0.924952 0.00177787
27.9171 51.3224 38.2911 0.380456 -0.924797 0.00181716
27.7247 51.2454 39.4157 0.381194 -0.924493 0.00195978
27.5519 51.1763 40.6133 0.381639 -0.92431 0.00155951
27.2349 51.047 41.6381 0.381801 -0.924243 0.00166522
27.0423 50.9695 43.1158 0.382434 -0.923982 0.00130682
26.6487 50.808 44.1729 0.382806 -0.923828 0.00104025
26.2334 50.6371 45.5851 0.383007 -0.923745 0.000867546
25.3465 50.2696 45.5752 0.382803 -0.92383 0.000423508
24.2978 49.8352 45.0946 0.382532 -0.923942 0.000113499
23.3483 49.4425 44.7188 0.382167 -0.924093 -0.000260547
22.4234 49.0604 44.3566 0.381907 -0.924201 -0.000339509
21.2377 48.5714 43.8368 0.381441 -0.924393 -0.000876587
20.264 48.1705 43.2908 0.380992 -0.924577 -0.00125698
19.2398 47.7489 42.98 0.381011 -0.924569 -0.00140972
18.1748 47.3111 42.4381 0.380948 -0.924595 -0.00188609
17.2734 46.9405 42.0121 0.380964 -0.924588 -0.00196075
16.3014 46.5407 41.7186 0.381037 -0.924557 -0.00210093
15.3473 46.1489 41.1017 0.381143 -0.924513 -0.00258271
14.9783 46.0005 39.8992 0.381559 -0.92434 -0.00294606
15.3338 46.1519 38.745 0.381499 -0.924359 -0.00437485
15.5824 46.2613 37.5069 0.380338 -0.924826 -0.00630523
15.7176 46.3255 36.3333 0.379562 -0.925138 -0.00721924
15.8518 46.3917 35.07 0.378784 -0.925439 -0.0092391
16.0432 46.4812 33.9469 0.377837 -0.925815 -0.0101898
16.0056 46.4809 32.6421 0.376281 -0.926426 -0.0121837
16.0308 46.508 31.4536 0.375232 -0.92682 -0.0143126
15.9816 46.5071 30.3128 0.371569 -0.928284 -0.015044
15.9635 46.5204 29.1263 0.369337 -0.929116 -0.0182833
15.8263 46.4893 27.9378 0.367154 -0.92996 -0.0193114
15.6856 46.4641 26.5422 0.364142 -0.931094 -0.0215541
15.3497 46.3583 25.4855 0.36014 -0.932636 -0.0221424
15.1253 46.3011 24.3597 0.355929 -0.93417 -0.0253354
14.7124 46.179 23.1588 0.352226 -0.935523 -0.0270907
14.3308 46.0749 21.9962 0.343962 -0.938536 -0.0289994
13.759 45.9076 20.7863 0.335977 -0.941456 -0.0279455
13.4122 45.8173 19.7474 0.332109 -0.942825 -0.0280237
12.9184 45.678 18.7706 0.321515 -0.946467 -0.0286972
12.3566 45.5176 17.8947 0.313105 -0.949112 -0.033935
11.91 45.4098 16.8599 0.29884 -0.953784 -0.0303666
11.2733 45.2475 15.9749 0.29467 -0.954908 -0.0362133
10.5762 45.0729 15.1501 0.278138 -0.959751 -0.0384352
9.9593 44.9331 14.2209 0.262479 -0.964179 -0.0374481
9.17705 44.7638 13.3513 0.23875 -0.97025 -0.0386035
8.40217 44.607 12.3408 0.228166 -0.97309 -0.0321886
7.44225 44.4256 11.4837 0.199744 -0.979637 -0.0203143
6.44697 44.2468 10.7948 0.184464 -0.982496 -0.0248712
5.51884 44.1063 9.95443 0.164542 -0.986109 -0.0226773
4.54305 43.9599 9.14815 0.14473 -0.989434 -0.00856957
3.44871 43.8087 8.47853 0.139414 -0.990187 -0.00949451
2.36627 43.6673 7.89882 0.133027 -0.991069 -0.00922101
1.39835 43.5447 7.40622 0.127022 -0.9919 -0.000251033
0.409718 43.4168 6.8948 0.129686 -0.991551 0.00266559
-0.615092 43.2792 6.46228 0.133417 -0.991044 0.00559427
-1.58347 43.1432 6.04046 0.141092 -0.989971 0.00552137
-2.86142 42.945 5.43129 0.154932 -0.987869 0.0105235
-4.03677 42.7489 5.25418 0.171679 -0.985069 0.0128478
-5.18775 42.5393 4.79989 0.184315 -0.982866 -0.0016363
-6.3584 42.3037 4.53805 0.209022 -0.977911 -0.00060443
-7.62529 42.0209 4.43948 0.231483 -0.972797 0.0035333
-8.59446 41.7826 4.0497 0.242457 -0.970155 -0.000524433
-9.68056 41.4989 4.07259 0.266212 -0.963773 -0.0052408
-10.7317 41.1898 4.13213 0.288506 -0.957216 -0.0214932
-11.7342 40.8828 3.9293 0.304565 -0.951897 -0.0336588
-12.7361 40.5552 3.97052 0.314982 -0.948241 -0.0403061
-13.9375 40.1342 4.11866 0.331048 -0.942499 -0.0458475
-14.9884 39.7495 4.20866 0.342922 -0.937844 -0.053418
-16.1569 39.3011 4.39562 0.353219 -0.932437 -0.0756927
-17.2011 38.8724 4.66995 0.360871 -0.929073 -0.0812088
-18.3175 38.4122 4.88279 0.366803 -0.925625 -0.0931336
-19.5282 37.8966 5.21715 0.367478 -0.923688 -0.108442
-20.4181 37.4931 5.60793 0.366434 -0.922541 -0.121012
-21.5145 37.0065 5.97427 0.370049 -0.920131 -0.128127
-22.5246 36.5312 6.48229 0.366327 -0.92071 -0.134527
-23.5416 36.0582 6.93338 0.367102 -0.91905 -0.143425
-24.4301 35.6226 7.47371 0.362282 -0.920207 -0.14822
-25.4659 35.0964 8.19825 0.36053 -0.92005 -0.153384
-26.5941 34.5276 8.9479 0.357952 -0.920253 -0.158118
-27.507 34.0421 9.71496 0.354238 -0.921393 -0.159846
-28.4199 33.5617 10.4636 0.351365 -0.922289 -0.16101
-29.1394 33.1361 11.33 0.350093 -0.922704 -0.161406
-29.9116 32.7 12.1482 0.348331 -0.923143 -0.162702
-30.5914 32.3148 12.8804 0.347004 -0.92356 -0.163173
-31.3805 31.8484 13.8469 0.346551 -0.923949 -0.161925
-31.9587 31.4479 14.8981 0.345405 -0.924434 -0.161607
-32.7437 30.9889 15.8516 0.344877 -0.924764 -0.160846
-33.2042 30.6442 16.8486 0.34435 -0.925083 -0.16014
-33.7231 30.2777 17.8514 0.34471 -0.92504 -0.159616
-34.244 29.9256 18.7686 0.344465 -0.925191 -0.159268
-34.9093 29.5302 19.6267 0.344588 -0.925163 -0.15916
-36.0789 29.1292 19.4246 0.34463 -0.925143 -0.159189
-37.0362 28.861 18.9106 0.344698 -0.925138 -0.159072
-38.2809 28.4884 18.3807 0.344541 -0.925201 -0.159042
-39.5917 28.095 17.829 0.344582 -0.925195 -0.158992
-40.7627 27.7695 17.1845 0.344575 -0.925216 -0.158882
-41.842 27.4103 16.9351 0.344621 -0.925225 -0.15873
-42.7931 27.1343 16.479 0.344698 -0.925204 -0.158682
-43.7742 26.8383 16.0719 0.344851 -0.925176 -0.158514
-44.7289 26.5551 15.6473 0.345121 -0.925081 -0.158481
-45.8133 26.227 15.1998 0.345317 -0.925065 -0.15815
-46.4514 26.1063 14.5134 0.345742 -0.924872 -0.158351
-46.0645 26.4129 13.5685 0.345857 -0.924758 -0.158765
-45.6674 26.7637 12.394 0.345977 -0.924567 -0.159609
-45.1297 27.1496 11.3256 0.345902 -0.924496 -0.160183
-44.7143 27.4743 10.3513 0.345569 -0.924509 -0.160828
-44.0927 27.8958 9.26709 0.345437 -0.924381 -0.161844
-43.5697 28.2481 8.37103 0.345363 -0.924371 -0.162059
-43.0523 28.591 7.51769 0.344682 -0.924515 -0.162687
-42.5054 28.9412 6.68767 0.344596 -0.924437 -0.163309
-41.8452 29.3659 5.67636 0.343766 -0.924602 -0.164121
-41.1597 29.7664 4.85433 0.34319 -0.924833 -0.164025
-40.3883 30.2475 3.75288 0.341886 -0.925289 -0.164175
-39.657 30.6425 3.04403 0.340483 -0.925877 -0.163777
-38.9852 31.0311 2.23939 0.339734 -0.926382 -0.162474
-38.3197 31.4059 1.48841 0.338472 -0.927139 -0.160778
-37.5584 31.8274 0.660112 0.336639 -0.927641 -0.161731
-36.786 32.231 -0.0515914 0.335773 -0.928152 -0.160592
-35.855 32.6997 -0.832752 0.332604 -0.929591 -0.158856
-34.9938 33.1257 -1.53193 0.330279 -0.930716 -0.157111
-34.2146 33.5019 -2.12961 0.329176 -0.931739 -0.153297
-33.2675 33.9406 -2.76655 0.326772 -0.93323 -0.14934
-32.5407 34.3032 -3.44273 0.326219 -0.933338 -0.149874
-31.6791 34.6848 -3.97263 0.322424 -0.935367 -0.145368
-30.6108 35.111 -4.3571 0.32308 -0.93618 -0.138515
-29.5736 35.5754 -5.11021 0.316762 -0.938901 -0.134615
-28.5269 35.9903 -5.56344 0.316588 -0.939518 -0.13065
-27.2916 36.49 -6.21676 0.315359 -0.940991 -0.12282
-26.1089 36.9291 -6.59862 0.309345 -0.943885 -0.115704
-24.9715 37.3639 -7.12832 0.305371 -0.945707 -0.111281
-23.7973 37.7717 -7.40997 0.302432 -0.947507 -0.10376
-22.7452 38.1522 -7.87858 0.294249 -0.951138 -0.0935605
-21.4467 38.5843 -8.20443 0.294148 -0.951759 -0.0873469
-20.4401 38.909 -8.40058 0.291994 -0.953146 -0.0789842
-19.4019 39.246 -8.72178 0.28535 -0.955605 -0.0734211
-18.3833 39.5591 -8.90623 0.27956 -0.957752 -0.0674905
-17.375 39.8603 -9.06004 0.273441 -0.959673 -0.0652523
-16.0479 40.2442 -9.19558 0.26412 -0.962758 -0.0573623
-14.9168 40.5465 -9.25421 0.256808 -0.965192 -0.0493802
-13.7067 40.8686 -9.40212 0.252948 -0.966705 -0.0386373
-12.5361 41.1618 -9.43227 0.234432 -0.971598 -0.0316668
-11.2819 41.4518 -9.33519 0.228319 -0.973264 -0.0250217
-10.1347 41.7043 -9.39873 0.206391 -0.978333 -0.0149986
-9.00671 41.9409 -9.29663 0.190958 -0.98152 -0.00745983
-7.71189 42.173 -9.07121 0.16874 -0.985634 -0.00728348
-6.647 42.3488 -9.04697 0.146614 -0.989168 0.00718156
-5.52554 42.508 -8.95712 0.128387 -0.991647 0.0123833
-4.31299 42.6619 -8.82226 0.118806 -0.992897 0.00636231
-3.26165 42.7829 -8.69597 0.096703 -0.994847 0.0304743
-2.20902 42.8835 -8.56407 0.0810009 -0.996208 0.0308388
-0.875558 42.9787 -8.41861 0.049952 -0.997751 0.0444922
0.298438 43.0381 -8.27626 0.0351404 -0.99753 0.0605157
1.3236 43.0869 -8.04112 0.0263425 -0.997339 0.0679785
2.53824 43.1478 -7.66538 0.0196327 -0.996533 0.0808514
3.98093 43.1962 -7.24077 -0.000305699 -0.994969 0.0993661
5.03855 43.234 -6.88368 -0.000950579 -0.991718 0.128431
6.16787 43.277 -6.54815 0.00235429 -0.990521 0.137338
7.20748 43.3072 -6.26903 -0.0166393 -0.988382 0.151075
8.30381 43.3149 -6.05253 -0.0158176 -0.98182 0.189155
9.31881 43.3676 -5.69229 0.00449274 -0.979281 0.202458
9.65913 43.4022 -5.51497 -0.0128499 -0.977155 0.212141
10.0876 43.1839 -6.45095 -0.0279055 -0.97481 0.221283
9.08242 43.1294 -6.89454 -0.0497149 -0.980333 0.189976
7.87749 43.1477 -7.12773 -0.0437826 -0.984906 0.167345
6.83181 43.1341 -7.44609 -0.0285746 -0.988524 0.148338
5.78055 43.1226 -7.67706 -0.0162343 -0.989655 0.142545
4.61172 43.1193 -8.07298 -0.0318569 -0.995899 0.0803947
3.55818 43.1013 -8.3197 -0.0121502 -0.995072 0.095415
2.5487 43.061 -8.73554 0.019463 -0.996537 0.0808382
1.4425 43.0144 -9.05176 0.00696918 -0.996321 0.085419
0.151892 42.9748 -9.34355 0.0252539 -0.997855 0.0597077
-1.04215 42.9247 -9.46106 0.0469799 -0.997809 0.0465844
-2.13588 42.8588 -9.55132 0.0772628 -0.996712 0.0244217
-3.29271 42.7613 -9.66244 0.0918244 -0.995436 0.0240184
-4.49763 42.6318 -9.82843 0.112461 -0.99357 0.0127638
-5.6698 42.4841 -9.96346 0.127947 -0.991781 -0.000166877
-6.8373 42.3209 -10.1065 0.146127 -0.989226 -0.0072851
-7.97508 42.1402 -10.1598 0.170129 -0.98533 -0.0133236
-9.01197 41.954 -10.3652 0.185857 -0.982438 -0.0165394
-10.1512 41.7239 -10.4219 0.201936 -0.979152 -0.0218153
-11.4285 41.451 -10.3932 0.218303 -0.97539 -0.0298293
-12.5492 41.1914 -10.4436 0.226674 -0.973336 -0.0350948
-13.635 40.9294 -10.4667 0.237385 -0.970674 -0.0379471
-14.6826 40.6571 -10.2698 0.247217 -0.967921 -0.0448702
-15.782 40.3779 -10.2636 0.244908 -0.968045 -0.0539401
-16.8891 40.0665 -10.1117 0.269839 -0.960878 -0.0624494
-17.9194 39.7666 -9.95589 0.272216 -0.959959 -0.0659741
-19.0166 39.4419 -9.82781 0.273526 -0.959236 -0.0710063
-19.992 39.1387 -9.56399 0.28128 -0.956614 -0.0758745
-21.1735 38.7675 -9.33512 0.286011 -0.954806 -0.0808916
-22.2694 38.4125 -9.0647 0.285233 -0.954555 -0.0862904
-23.3764 38.046 -8.7328 0.289515 -0.952169 -0.0975587
-24.3263 37.7107 -8.3758 0.299437 -0.947986 -0.107984
-25.2996 37.3683 -8.05624 0.297185 -0.947853 -0.114987
-26.4422 36.9422 -7.56505 0.301418 -0.946309 -0.116812
-27.6069 36.5221 -7.25173 0.307707 -0.943641 -0.121895
-28.5371 36.1415 -6.68799 0.310445 -0.941865 -0.128478
-29.5349 35.753 -6.27333 0.313936 -0.940383 -0.130835
-30.4153 35.3936 -5.81815 0.314801 -0.93931 -0.136352
-31.2607 35.0108 -5.16274 0.319493 -0.936839 -0.142329
-32.3316 34.595 -4.83757 0.320006 -0.93646 -0.143661
-33.2528 34.1545 -4.06882 0.324522 -0.934084 -0.148894
-34.0192 33.7851 -3.42855 0.325857 -0.933 -0.152735
-35.0805 33.3062 -2.79123 0.327577 -0.931605 -0.157495
-35.8571 32.913 -2.0884 0.330979 -0.930153 -0.158957
-36.7128 32.484 -1.36511 0.331696 -0.929588 -0.160757
-37.6886 31.9862 -0.52011 0.335259 -0.928066 -0.162154
-38.4053 31.609 0.150784 0.336416 -0.927387 -0.163637
-39.2153 31.1879 0.869765 0.338105 -0.92683 -0.163307
-39.8404 30.8304 1.59931 0.33887 -0.926622 -0.162906
-40.5047 30.4619 2.30277 0.340605 -0.925737 -0.164315
-41.2532 30.0248 3.20709 0.341465 -0.925295 -0.165018
-41.7817 29.6628 4.13712 0.342949 -0.924743 -0.165035
-42.5448 29.2306 4.97255 0.343948 -0.924462 -0.164528
-43.1524 28.8343 5.9294 0.344479 -0.924396 -0.16379
-43.725 28.4618 6.82774 0.34472 -0.924431 -0.16308
-44.2913 28.0982 7.68993 0.345383 -0.924183 -0.163085
-44.8024 27.7512 8.57762 0.345989 -0.92409 -0.162324
-45.3875 27.378 9.45838 0.345863 -0.924397 -0.160837
-45.8763 26.9921 10.625 0.345927 -0.924372 -0.160846
-46.3374 26.6553 11.5699 0.346137 -0.92441 -0.160173
-46.8275 26.2729 12.7234 0.346093 -0.924623 -0.159033
-47.1906 25.9726 13.6803 0.346081 -0.9247 -0.158616
-47.6623 25.6445 14.5654 0.345998 -0.924776 -0.158351
-47.3475 25.5819 15.6217 0.345731 -0.92498 -0.15774
-46.1387 25.9468 16.1281 0.345411 -0.925046 -0.158053
-45.1288 26.256 16.5235 0.344882 -0.925196 -0.158331
-43.9297 26.6173 17.0242 0.344753 -0.925234 -0.158391
-42.7091 26.9806 17.5572 0.344643 -0.925241 -0.158592
-41.6991 27.2837 17.9831 0.344509 -0.925248 -0.158836
-40.5925 27.6295 18.3686 0.344509 -0.925238 -0.158899
-39.5136 27.936 18.9233 0.344471 -0.925255 -0.15888
-38.5053 28.2455 19.3075 0.344654 -0.925173 -0.158959
-37.4953 28.5461 19.7474 0.344617 -0.925166 -0.159083
-36.2958 28.8822 20.3909 0.344559 -0.925177 -0.159144
-35.2699 29.2168 20.6678 0.344673 -0.925152 -0.159041
-34.2582 29.5793 20.7517 0.344653 -0.925187 -0.158881
-33.6743 29.9411 19.911 0.344445 -0.925216 -0.159163
-33.2982 30.2607 18.867 0.344064 -0.925354 -0.159187
-32.6612 30.6408 18.0372 0.344282 -0.925156 -0.159866
-32.1889 31.0409 16.7404 0.344425 -0.925068 -0.160067
-31.46 31.4718 15.8282 0.344357 -0.92484 -0.16152
-30.8252 31.8905 14.7904 0.3448 -0.924548 -0.162247
-30.1741 32.2834 13.9455 0.346362 -0.923712 -0.163675
-29.3623 32.756 13.0034 0.347857 -0.923146 -0.163695
-28.6871 33.1437 12.2542 0.34892 -0.922761 -0.163607
-27.9551 33.5363 11.6096 0.350575 -0.921991 -0.164407
-27.1986 33.9775 10.7501 0.352528 -0.921196 -0.164688
-26.4403 34.3802 10.138 0.358222 -0.919454 -0.162106
-25.6358 34.8121 9.45454 0.357689 -0.920031 -0.160004
-24.5107 35.3827 8.74278 0.366102 -0.917378 -0.156108
-23.6705 35.8086 8.18826 0.365688 -0.919003 -0.147328
-22.7942 36.2414 7.68877 0.377522 -0.914823 -0.143441
-21.6642 36.7843 7.13086 0.375213 -0.917694 -0.130491
-20.639 37.2574 6.70313 0.370368 -0.91998 -0.128313
-19.5956 37.7448 6.27396 0.378308 -0.918513 -0.114954
-18.3745 38.2736 5.9822 0.375557 -0.921771 -0.0964065
-17.4134 38.6927 5.67564 0.369337 -0.924638 -0.0929232
-16.4108 39.1141 5.46902 0.364978 -0.927908 -0.0759936
-15.2677 39.5779 5.26628 0.370483 -0.926418 -0.066278
-14.1855 39.991 5.15223 0.343726 -0.93798 -0.0452362
-13.1351 40.3717 5.09193 0.336591 -0.940867 -0.0383599
-12.0268 40.7653 4.91054 0.314875 -0.948689 -0.0257475
-10.9008 41.1203 5.10271 0.301341 -0.953513 -0.00272461
-9.74606 41.4685 5.13259 0.274594 -0.961549 0.00474551
-8.71538 41.7507 5.13168 0.246553 -0.969118 0.00269198
-7.61864 42.0293 5.45457 0.233707 -0.971826 0.0305853
-6.39056 42.3084 5.58007 0.213142 -0.976808 0.0203584
-5.28905 42.5319 5.87088 0.183663 -0.982878 0.0145915
-4.21646 42.731 6.2555 0.16839 -0.985549 0.0173706
-3.18453 42.9044 6.37452 0.159969 -0.987064 0.00930701
-2.07995 43.0775 6.92847 0.143993 -0.989509 0.0117629
-0.956022 43.2371 7.33613 0.129745 -0.991541 0.00204846
0.0792133 43.3762 7.80819 0.125279 -0.992105 0.00569087
1.16054 43.5103 8.42511 0.118047 -0.992999 -0.00422674
2.11035 43.6222 8.8421 0.133444 -0.990946 -0.0147637
3.08843 43.7444 9.40892 0.138523 -0.990171 -0.0183432
3.97443 43.863 9.99696 0.149019 -0.98865 -0.018578
4.98592 43.9993 10.7737 0.157554 -0.987268 -0.0210828
5.85829 44.1162 11.5592 0.16718 -0.985032 -0.0405941
6.84715 44.2736 12.3407 0.198432 -0.979337 -0.038874
7.68762 44.4145 13.095 0.21468 -0.975884 -0.0367773
8.30322 44.5227 13.951 0.230181 -0.972213 -0.0426393
9.1029 44.6837 14.664 0.265991 -0.96267 -0.050147
9.73779 44.8164 15.5984 0.271539 -0.961437 -0.0435119
10.3569 44.9537 16.4496 0.273305 -0.960745 -0.0476782
11.0834 45.1278 17.3978 0.299157 -0.953118 -0.0455179
11.5002 45.2138 18.4114 0.311368 -0.949424 -0.0399264
12.2756 45.4344 19.449 0.323213 -0.945493 -0.0394586
12.6431 45.5262 20.4517 0.331109 -0.94301 -0.0329751
13.1775 45.6663 21.7494 0.333387 -0.942135 -0.035154
13.5913 45.7789 22.7176 0.347387 -0.937063 -0.03514
13.9102 45.8589 23.7854 0.348229 -0.936796 -0.0338871
14.257 45.9538 24.9508 0.356219 -0.934035 -0.026207
14.5824 46.0388 26.3858 0.362405 -0.931681 -0.0251457
14.8807 46.1264 27.5421 0.364287 -0.931045 -0.0212135
15.0145 46.1494 28.7952 0.37049 -0.928622 -0.0199496
15.1144 46.1604 30.1445 0.372872 -0.92769 -0.0187665
15.1216 46.1405 31.3698 0.376257 -0.926345 -0.0177203
15.0615 46.0976 32.5098 0.377688 -0.925852 -0.0122258
15.1298 46.1107 33.6693 0.37878 -0.925423 -0.0108166
14.9554 46.0237 35.1091 0.380075 -0.924902 -0.0100036
14.7921 45.9415 36.6196 0.380739 -0.924635 -0.00932987
14.5714 45.8429 37.6434 0.382243 -0.92404 -0.00639084
14.4112 45.7706 38.7205 0.382197 -0.924074 -0.00366629
14.0425 45.6145 39.709 0.382254 -0.924052 -0.00306849
13.8001 45.5107 40.9075 0.38205 -0.924139 -0.00205258
14.2677 45.7021 41.6493 0.38162 -0.924317 -0.00190661
15.1956 46.0836 42.2455 0.38132 -0.924441 -0.00213534
16.4191 46.5869 42.7641 0.381066 -0.924546 -0.00196091
17.5577 47.0552 43.2079 0.381024 -0.924563 -0.00183624
18.5037 47.4442 43.7499 0.381145 -0.924514 -0.00161687
19.5501 47.875 44.114 0.381173 -0.924503 -0.00140344
20.6064 48.3101 44.6298 0.381617 -0.92432 -0.00115732
21.9549 48.8665 45.2215 0.381865 -0.924218 -0.000688259
22.9144 49.2628 45.6013 0.382258 -0.924055 -0.000467604
24.1936 49.7922 46.1385 0.382485 -0.923962 2.94932e-05
25.2437 50.2275 46.6162 0.383047 -0.923729 0.000339228
26.2834 50.6591 47.0568 0.383443 -0.923565 0.000474572
27.064 50.9824 46.2898 0.383442 -0.923564 0.00116008
27.2919 51.0756 45.1345 0.383008 -0.923745 0.000867889
27.6725 51.2319 44.1128 0.382581 -0.923921 0.00151825
27.9706 51.3537 43.1007 0.382545 -0.923935 0.00148779
28.0971 51.4039 41.8982 0.382114 -0.924113 0.0019214
28.4516 51.548 40.782 0.381847 -0.924223 0.00203643
28.6577 51.6303 39.535 0.381348 -0.924429 0.00217327
28.832 51.6993 38.4213 0.380464 -0.924793 0.00210708
29.002 51.7664 37.2089 0.380181 -0.92491 0.00207955
29.0692 51.7915 36.1506 0.379798 -0.925067 0.00201928
29.1576 51.8247 34.9154 0.379209 -0.925307 0.00270943
29.2243 51.8487 33.7014 0.378154 -0.925739 0.00257948
29.2559 51.8583 32.5904 0.377673 -0.925935 0.00276086
29.3101 51.8772 31.5313 0.376615 -0.926364 0.00322782
29.2554 51.8513 30.3921 0.375948 -0.926636 0.00289191
29.2564 51.8482 29.2573 0.37567 -0.926749 0.00277502
29.1514 51.8018 28.1903 0.375375 -0.926865 0.00371579
28.9475 51.7146 27.1296 0.372697 -0.927947 0.00344891
28.9109 51.6957 25.9837 0.372694 -0.927948 0.00335978
28.7414 51.623 24.7844 0.372742 -0.927928 0.00367635
28.4807 51.5129 23.7084 0.37186 -0.928275 0.00503301
28.3484 51.4525 22.5267 0.371352 -0.928467 0.0067469
28.036 51.3201 21.416 0.369617 -0.929155 0.0072623
27.7617 51.2017 20.3419 0.368143 -0.929726 0.00893632
27.3834 51.0371 18.84 0.36732 -0.930029 0.0110376
26.903 50.8359 17.7752 0.365139 -0.930887 0.011081
26.628 50.7118 16.6925 0.364478 -0.931102 0.0143179
26.2433 50.5429 15.6602 0.363306 -0.931454 0.0199491
25.7084 50.3085 14.3905 0.361554 -0.93214 0.0198383
25.1363 50.052 13.0188 0.359369 -0.932868 0.0247235
24.6797 49.8446 11.9546 0.357834 -0.933349 0.0285198
24.1419 49.6052 10.9198 0.357331 -0.933395 0.0329793
23.6403 49.3825 10.012 0.355132 -0.934113 0.0361082
23.0843 49.1282 8.94576 0.353279 -0.934554 0.0424546
22.4336 48.8408 8.02615 0.354901 -0.93377 0.045847
21.8148 48.5648 7.15838 0.351103 -0.934742 0.0546291
21.199 48.2742 6.20662 0.345814 -0.936282 0.0615579
20.4462 47.9319 5.31097 0.339641 -0.937871 0.0710086
19.7265 47.5974 4.40801 0.337648 -0.937767 0.0810961
18.9917 47.256 3.51165 0.334164 -0.938262 0.0894398
18.3413 46.9448 2.70461 0.335959 -0.937004 0.0956826
17.521 46.5645 1.86732 0.315702 -0.942564 0.109114
16.8014 46.2233 1.0808 0.322198 -0.938584 0.123483
15.9161 45.834 0.392509 0.287256 -0.949029 0.129713
14.9532 45.3921 -0.517288 0.290844 -0.942978 0.161871
14.1486 45.0168 -1.23774 0.254149 -0.945781 0.202255
13.3243 44.6671 -1.835 0.251599 -0.946057 0.20414
12.4864 44.2882 -2.56159 0.157098 -0.957647 0.241313
11.9494 43.9417 -3.59336 0.116044 -0.963287 0.242098
11.6845 43.6139 -4.57552 -0.0136403 -0.964328 0.26436
11.2274 43.3286 -5.6884 -0.0316502 -0.967099 0.252413
10.4204 43.216 -6.26782 -0.0279052 -0.97481 0.221285
25.2504 50.2289 43.6711 0.382006 -0.92416 0.000477597
24.6514 49.9812 43.5772 0.382138 -0.924105 0.000393194
25.6653 50.3998 42.7962 0.381933 -0.924189 0.000935205
24.2395 49.8108 42.5723 0.381467 -0.924382 0.000110175
22.8329 49.2304 42.353 0.381503 -0.924368 -0.000283153
21.3077 48.6021 42.1161 0.380828 -0.924645 -0.000968934
21.1953 48.5558 42.0988 0.380829 -0.924645 -0.000971637
17.7097 47.1237 40.6225 0.380824 -0.924645 -0.00231808
18.9239 47.6231 40.811 0.380429 -0.924808 -0.00216191
20.1713 48.1358 41.0032 0.380244 -0.924884 -0.00184805
21.3394 48.6161 41.1829 0.380768 -0.92467 -0.000946952
22.7401 49.1928 41.4 0.380961 -0.924591 -0.00056934
23.8526 49.6513 41.5723 0.381124 -0.924524 -0.000221796
25.058 50.1484 41.7603 0.381316 -0.924444 0.000669749
25.8172 50.4618 41.8803 0.381606 -0.924325 0.000834209
25.9869 50.5311 40.9645 0.381604 -0.924325 0.00083258
24.9263 50.0938 40.7992 0.380795 -0.924659 0.000439517
23.8501 49.6503 40.6324 0.380868 -0.924629 -0.000166474
22.819 49.2259 40.4735 0.380736 -0.924683 -0.000777217
21.7802 48.7987 40.3135 0.380391 -0.924825 -0.0012691
20.578 48.3048 40.1294 0.380193 -0.924906 -0.00163727
19.4303 47.8333 39.9534 0.380005 -0.924982 -0.0022888
18.1984 47.3274 39.7628 0.380279 -0.924867 -0.00301555
16.772 46.7411 39.5397 0.380797 -0.924652 -0.00349799
16.6381 46.6861 39.5187 0.380796 -0.924652 -0.00349803
16.7977 46.7555 38.6096 0.380199 -0.924894 -0.00442618
18.1475 47.3097 38.8194 0.380004 -0.924978 -0.00357186
19.2018 47.7421 38.9829 0.379764 -0.925078 -0.00318769
20.5045 48.2765 39.182 0.379658 -0.925124 -0.00230541
21.5529 48.7068 39.3416 0.380002 -0.924983 -0.00202182
22.6898 49.1736 39.5143 0.380207 -0.924901 -0.000872608
23.8279 49.6414 39.6886 0.380429 -0.92481 -0.000136411
25.0305 50.1364 39.8734 0.38057 -0.924752 0.000218482
26.0145 50.5416 40.0254 0.380876 -0.924625 0.000913813
26.1288 50.5879 39.0995 0.380425 -0.924811 0.00102093
25.0922 50.1614 38.9406 0.380321 -0.924854 3.72293e-05
23.9107 49.6757 38.76 0.379992 -0.92499 -0.000376164
22.8395 49.236 38.5979 0.379745 -0.92509 -0.00124999
21.7058 48.7711 38.4286 0.379541 -0.925173 -0.00184644
20.4663 48.2634 38.2401 0.379502 -0.925187 -0.00265958
19.3788 47.8178 38.0744 0.379352 -0.925247 -0.00319771
18.307 47.3787 37.9092 0.379552 -0.925163 -0.00369998
17.0184 46.8506 37.7102 0.380151 -0.924912 -0.00482741
17.0098 46.847 37.7089 0.380155 -0.92491 -0.00482588
17.1811 46.9229 36.8025 0.379408 -0.925208 -0.00625635
18.2873 47.3751 36.9714 0.379087 -0.925347 -0.00513013
19.5256 47.8814 37.1612 0.379313 -0.925261 -0.00360562
20.763 48.3875 37.3489 0.378778 -0.925483 -0.00286058
22.1777 48.9664 37.5611 0.379222 -0.925304 -0.0019983
23.3482 49.4458 37.7345 0.379363 -0.925248 -0.000690991
24.4525 49.8987 37.9007 0.379643 -0.925133 -0.000207923
25.7483 50.4305 38.0971 0.379834 -0.925054 0.000412318
26.5364 50.7546 38.2174 0.38026 -0.924879 0.00104776
26.2158 50.622 37.2245 0.379752 -0.925088 0.000878184
25.0658 50.1502 37.0504 0.379169 -0.925328 -0.000193825
23.9146 49.6786 36.878 0.378976 -0.925406 -0.000656584
22.375 49.049 36.6546 0.378931 -0.925424 -0.00167722
21.1111 48.5324 36.4662 0.378468 -0.925611 -0.00257667
20.041 48.0956 36.3036 0.378583 -0.925559 -0.00378878
18.7962 47.588 36.1166 0.37842 -0.92562 -0.00516255
17.415 47.0244 35.9075 0.378998 -0.92538 -0.00573284
17.2782 46.9685 35.887 0.378685 -0.925501 -0.00671103
17.3766 47.0163 34.9731 0.377956 -0.925795 -0.00721847
18.4424 47.4495 35.1326 0.377187 -0.926113 -0.00675936
19.5246 47.8901 35.2944 0.377449 -0.926017 -0.00494806
20.5894 48.3232 35.4511 0.377218 -0.926111 -0.00490573
21.6781 48.7668 35.6159 0.378685 -0.925521 -0.00280504
22.7822 49.2171 35.7753 0.378211 -0.925718 -0.00177852
23.9331 49.6872 35.9418 0.378561 -0.925576 -0.00109216
25.1621 50.1899 36.1227 0.378898 -0.925438 -0.000342603
26.241 50.6318 36.2847 0.379471 -0.925203 0.000633668
26.5688 50.7663 36.332 0.379346 -0.925254 0.000987992
26.6806 50.8114 35.3988 0.378538 -0.925586 0.000233745
25.4902 50.3244 35.2279 0.378703 -0.925518 -5.32779e-05
24.3342 49.8523 35.0612 0.378086 -0.925769 -0.00139209
22.9304 49.2799 34.8589 0.377193 -0.926131 -0.00258664
21.8373 48.835 34.7023 0.376907 -0.926245 -0.00343905
20.674 48.3622 34.5316 0.376838 -0.926269 -0.00429312
19.5168 47.8924 34.3632 0.376996 -0.926192 -0.00645698
18.062 47.3021 34.1484 0.376675 -0.926315 -0.00747447
17.4682 47.0612 34.0577 0.376887 -0.926229 -0.00745289
17.7117 47.1681 33.1687 0.376435 -0.926391 -0.00984687
18.8894 47.6448 33.3437 0.376407 -0.926425 -0.00732441
20.2373 48.1902 33.5382 0.376061 -0.926573 -0.00632092
21.7124 48.7879 33.7482 0.376485 -0.926414 -0.00409432
22.9459 49.2888 33.9254 0.376973 -0.926221 -0.00243146
24.4034 49.8816 34.1301 0.377044 -0.926194 -0.00171156
25.4617 50.313 34.279 0.377851 -0.925866 -2.55632e-05
26.7321 50.8321 34.4601 0.377907 -0.925843 0.00058551
26.806 50.861 33.5164 0.377407 -0.926047 0.000716791
25.6803 50.4026 33.3651 0.376776 -0.926304 -0.000123376
24.5405 49.9389 33.2086 0.376732 -0.926322 -0.00100873
23.4133 49.4812 33.0543 0.376387 -0.92646 -0.0021624
22.3522 49.0512 32.9076 0.375827 -0.926684 -0.00345756
21.2963 48.6242 32.7593 0.375618 -0.926763 -0.00451413
20.1089 48.1444 32.5915 0.375183 -0.926931 -0.00603014
18.9437 47.6741 32.425 0.374718 -0.927103 -0.00820397
17.8749 47.2434 32.2645 0.374796 -0.927051 -0.0102249
17.6357 47.1472 32.2302 0.374416 -0.9272 -0.0106163
17.7929 47.2206 31.3323 0.373712 -0.927492 -0.00984459
19.1687 47.7733 31.5307 0.373413 -0.927624 -0.008795
20.5599 48.3323 31.7259 0.374439 -0.927231 -0.00625839
21.7274 48.8028 31.8881 0.374734 -0.927123 -0.00413049
22.9696 49.3042 32.0574 0.374895 -0.927063 -0.0027847
24.0144 49.7269 32.1965 0.375737 -0.926725 -0.00175272
25.072 50.1556 32.3373 0.376403 -0.926456 -0.000790683
26.2761 50.6448 32.4964 0.377028 -0.926202 0.000533852
26.8651 50.8844 32.5739 0.376729 -0.926323 0.000792495
26.9343 50.9116 31.6322 0.376053 -0.926597 0.00128267
25.7432 50.4283 31.4809 0.375883 -0.926667 2.09877e-05
24.6239 49.9753 31.3371 0.375196 -0.926945 -0.00139264
23.4477 49.5 31.1841 0.374717 -0.927136 -0.00249753
22.1309 48.9697 31.0111 0.373969 -0.927432 -0.00417475
20.8389 48.4506 30.8375 0.373398 -0.927653 -0.00588109
19.7281 48.0052 30.6833 0.372663 -0.927929 -0.00842508
18.4244 47.4842 30.5035 0.371695 -0.928296 -0.0104754
17.6899 47.1908 30.3973 0.371967 -0.928144 -0.013722
17.4 47.088 29.4376 0.370918 -0.92858 -0.0125961
18.9148 47.6898 29.6469 0.371089 -0.928539 -0.0104337
19.9598 48.1063 29.7883 0.370863 -0.928648 -0.00851283
21.4641 48.7067 29.9908 0.371563 -0.928383 -0.00675121
22.525 49.1321 30.1284 0.372797 -0.927902 -0.00439193
23.6739 49.5936 30.2756 0.373719 -0.927538 -0.00271229
24.9596 50.1118 30.4368 0.374375 -0.927277 -0.00120655
26.3517 50.6743 30.6103 0.375107 -0.926981 0.000141434
26.9573 50.9199 30.6845 0.3756 -0.926781 0.0013256
26.7534 50.8363 29.7046 0.37418 -0.927356 0.000281225
25.6245 50.3806 29.5728 0.373929 -0.927457 -0.000395783
24.3011 49.8482 29.4147 0.372974 -0.927838 -0.0024486
22.944 49.304 29.2476 0.371761 -0.928322 -0.00347383
21.874 48.8764 29.1138 0.37089 -0.928661 -0.00538817
20.675 48.3983 28.9582 0.3699 -0.929044 -0.00715777
19.4389 47.9079 28.7933 0.369017 -0.929383 -0.00863858
18.1249 47.3877 28.6187 0.368547 -0.929535 -0.0117489
17.4895 47.137 28.5299 0.368927 -0.929349 -0.0142204
17.2776 47.068 27.5794 0.366654 -0.93023 -0.0153845
18.3905 47.5042 27.7342 0.367641 -0.929887 -0.0123053
19.8518 48.0801 27.9225 0.368935 -0.929411 -0.00910069
20.9452 48.5126 28.0629 0.369125 -0.929354 -0.0069502
21.9869 48.9262 28.1948 0.369165 -0.929346 -0.00566579
23.0329 49.3429 28.3222 0.370645 -0.928766 -0.00399791
24.4332 49.9029 28.491 0.372392 -0.928075 -0.00124617
25.5429 50.3483 28.6173 0.37239 -0.928076 0.000107352
26.6953 50.8123 28.7442 0.374161 -0.927363 0.000708352
26.7597 50.8383 28.7515 0.373678 -0.927558 0.00114421
26.515 50.7382 27.7679 0.373203 -0.927749 0.00153005
24.9692 50.1185 27.6098 0.371345 -0.928495 -0.000345292
23.6446 49.5897 27.4579 0.369939 -0.929051 -0.00288266
22.2192 49.0236 27.2897 0.368945 -0.929438 -0.00496479
20.9338 48.5154 27.1335 0.367709 -0.929915 -0.00698502
19.6174 47.9968 26.9695 0.365355 -0.930814 -0.0100717
18.5461 47.5774 26.8321 0.365907 -0.930578 -0.0117202
17.4227 47.1393 26.6795 0.365175 -0.930818 -0.0150008
17.3536 47.1124 26.6705 0.363211 -0.931566 -0.0162285
17.2318 47.0807 25.7433 0.362186 -0.931992 -0.0145995
18.6053 47.6122 25.9159 0.363221 -0.931623 -0.0122192
20.0726 48.1848 26.1006 0.365195 -0.930898 -0.00781248
21.2877 48.6611 26.2458 0.366935 -0.930235 -0.00467927
22.4442 49.1167 26.3803 0.36707 -0.930181 -0.0047196
23.5331 49.5477 26.5066 0.369184 -0.929353 -0.00263723
24.9002 50.0909 26.6551 0.370281 -0.92892 -1.49627e-05
26.1312 50.5832 26.784 0.371069 -0.928604 0.00148554
26.5074 50.7338 26.8223 0.371572 -0.928403 0.00165944
26.4345 50.7028 25.8556 0.371069 -0.928604 0.00148554
25.392 50.2868 25.7556 0.369691 -0.929154 0.00121753
24.2649 49.8389 25.6419 0.368475 -0.929637 -0.000224114
23.1891 49.4138 25.5284 0.366741 -0.930318 -0.00296859
21.8254 48.8774 25.3759 0.366138 -0.930555 -0.00319386
20.1751 48.2326 25.1873 0.364894 -0.931018 -0.00765908
18.7707 47.6883 25.0144 0.360946 -0.932519 -0.0112819
17.6895 47.272 24.8849 0.358896 -0.933264 -0.0145602
16.8656 46.957 24.7785 0.358743 -0.933251 -0.0185926
16.5652 46.861 23.8377 0.35688 -0.933966 -0.0185648
17.6977 47.2896 23.9676 0.355545 -0.934529 -0.0156011
18.8473 47.7292 24.0999 0.359685 -0.932996 -0.0120573
19.9329 48.147 24.2263 0.361071 -0.932486 -0.00983411
21.3612 48.701 24.3883 0.363017 -0.931767 -0.00540767
22.507 49.1486 24.5143 0.364586 -0.931167 -0.00234448
23.7577 49.6394 24.6475 0.365388 -0.930854 -0.00127489
24.8162 50.0576 24.7484 0.368474 -0.929638 -0.00022071
25.8668 50.4745 24.8489 0.369145 -0.929369 0.00212153
26.3102 50.6512 24.8882 0.370037 -0.929014 0.00252462
25.9226 50.4946 23.9003 0.369545 -0.929209 0.00266644
24.8311 50.0623 23.8061 0.366742 -0.930322 0.000934529
23.7193 49.625 23.7008 0.364804 -0.931084 -0.000289561
22.4019 49.1094 23.5639 0.363303 -0.931668 -0.00249165
21.0878 48.5999 23.4237 0.361747 -0.932271 -0.00320332
19.9476 48.1603 23.2985 0.359419 -0.933145 -0.00757698
18.6668 47.6715 23.158 0.355574 -0.934588 -0.0105696
17.5422 47.2459 23.0374 0.355547 -0.934528 -0.0155933
16.2579 46.7646 22.8923 0.348112 -0.937228 -0.0205214
16.1364 46.7198 22.8793 0.34811 -0.937229 -0.0205195
16.0423 46.7046 21.9525 0.344727 -0.938468 -0.0210168
17.1129 47.0999 22.065 0.35017 -0.936569 -0.014779
18.4914 47.6155 22.2158 0.353636 -0.935306 -0.0120479
19.6474 48.0537 22.3378 0.35492 -0.934871 -0.00691199
20.7552 48.4767 22.4549 0.359621 -0.933089 -0.00411924
22.1097 48.9987 22.5955 0.361675 -0.932302 -0.00197737
23.3381 49.4757 22.7191 0.362537 -0.931969 -1.7769e-05
24.6343 49.9833 22.8417 0.365952 -0.930633 0.00143547
25.8793 50.4742 22.9492 0.3675 -0.930016 0.00382157
25.9457 50.5005 22.9547 0.368332 -0.929684 0.00432831
25.7681 50.4263 21.989 0.36623 -0.930517 0.00382316
24.5852 49.9612 21.8855 0.364409 -0.931236 0.0024129
23.3002 49.4604 21.7685 0.361896 -0.932218 0.000556243
22.1956 49.0327 21.662 0.360205 -0.932873 0.000907848
20.8284 48.508 21.5271 0.357039 -0.934088 -0.00165038
19.4236 47.9763 21.3846 0.351595 -0.936141 -0.00457512
18.3461 47.5719 21.2724 0.349707 -0.936799 -0.01066
17.059 47.095 21.1402 0.347208 -0.937652 -0.0159842
15.7931 46.6332 21.0105 0.343042 -0.939084 -0.0210683
15.4435 46.5073 20.9746 0.340823 -0.939853 -0.0227113
15.1259 46.4159 20.024 0.335261 -0.941963 -0.0174725
16.5163 46.9137 20.1646 0.341098 -0.939916 -0.0144808
17.6428 47.3227 20.2746 0.346209 -0.938077 -0.0122688
18.8924 47.783 20.3994 0.346419 -0.938057 -0.006522
20.0205 48.2046 20.512 0.35189 -0.936034 -0.0037816
21.2326 48.6644 20.6296 0.356579 -0.934262 -0.00221159
22.5968 49.1866 20.7569 0.358569 -0.933501 0.00202372
23.8426 49.6689 20.8665 0.361013 -0.932556 0.00290447
25.1348 50.1727 20.9804 0.36369 -0.931511 0.00416783
25.1879 50.1934 20.985 0.364607 -0.931149 0.00484687
25.065 50.1401 20.021 0.363393 -0.931615 0.00625884
23.8345 49.6613 19.9169 0.360742 -0.932648 0.00565683
22.5125 49.1521 19.8019 0.358818 -0.933402 0.00317642
21.4245 48.737 19.7083 0.35242 -0.93584 0.00166867
20.2742 48.303 19.6019 0.35077 -0.936462 0.000769379
19.0947 47.8634 19.4886 0.345632 -0.938365 -0.00290743
17.7821 47.383 19.3604 0.343063 -0.939278 -0.00807211
16.5229 46.9288 19.239 0.338084 -0.941016 -0.0137285
15.2537 46.4788 19.1186 0.332243 -0.943025 -0.0178419
14.8412 46.3335 19.0781 0.331538 -0.943242 -0.0194421
14.2659 46.1555 18.1118 0.324366 -0.945772 -0.0173981
15.429 46.5557 18.2133 0.329449 -0.944082 -0.0130998
16.5593 46.9527 18.3158 0.335102 -0.942128 -0.010046
17.8347 47.4084 18.4355 0.339551 -0.940583 -0.00289954
19.2041 47.9066 18.5666 0.343237 -0.939244 -0.00290916
20.321 48.32 18.6692 0.347946 -0.937514 -0.000584193
21.6576 48.8225 18.7869 0.353928 -0.935269 0.00258151
23.1899 49.4075 18.9171 0.357941 -0.93371 0.00793141
24.2683 49.8229 19.0047 0.360357 -0.932778 0.00823451
24.6627 49.9755 19.0338 0.361474 -0.932344 0.00836935
24.4523 49.8853 18.0658 0.359327 -0.933153 0.0105199
23.2828 49.4351 17.9757 0.357078 -0.934015 0.010518
22.0927 48.9824 17.8788 0.353496 -0.935422 0.00510532
20.9869 48.5657 17.7874 0.35033 -0.936614 0.00477747
19.7408 48.1039 17.6805 0.346362 -0.938098 0.00234109
18.6327 47.699 17.5783 0.34094 -0.940085 0.00101358
17.3585 47.2416 17.4608 0.337541 -0.941309 -0.00199225
16.102 46.7995 17.3472 0.33014 -0.943919 -0.00491137
14.9643 46.4104 17.2503 0.324231 -0.945834 -0.0165283
13.7308 45.9928 17.147 0.315742 -0.94864 -0.019718
13.6263 45.9584 17.1394 0.313866 -0.949192 -0.0228477
13.3316 45.882 16.2119 0.306134 -0.951828 -0.0174944
14.4808 46.2562 16.2941 0.319141 -0.947645 -0.0108954
15.9607 46.7578 16.4147 0.325308 -0.9456 -0.00390765
17.0589 47.1382 16.5054 0.330715 -0.943731 0.000157952
18.4771 47.6405 16.6312 0.337395 -0.941352 0.00451494
19.5358 48.0237 16.7252 0.344051 -0.938935 0.00551799
20.6157 48.4203 16.8161 0.344495 -0.938754 0.00806453
21.7919 48.8605 16.9068 0.351104 -0.936308 0.00728676
22.8688 49.2674 16.9916 0.354403 -0.934991 0.0137923
24.051 49.7197 17.0843 0.358188 -0.933537 0.0144658
24.1898 49.7731 17.0947 0.358188 -0.933537 0.0144658
23.6179 49.5396 16.1003 0.356259 -0.9343 0.0127629
22.4345 49.0897 16.0096 0.351679 -0.936019 0.0138081
21.0391 48.5673 15.9063 0.34705 -0.937768 0.0121295
19.5491 48.0209 15.7869 0.339353 -0.940598 0.0107007
18.3657 47.5969 15.6862 0.332046 -0.943242 0.00632427
17.05 47.1334 15.5764 0.328871 -0.944369 0.00339965
15.9835 46.7667 15.4927 0.321872 -0.946779 -0.00282727
14.5768 46.2982 15.3879 0.30891 -0.951074 -0.00569418
13.4753 45.9448 15.3103 0.30974 -0.950686 -0.0160112
12.5975 45.6698 15.2538 0.293843 -0.955614 -0.0214161
11.968 45.4994 14.3053 0.282868 -0.958928 -0.0210495
13.1079 45.8405 14.3716 0.291896 -0.956372 -0.0122504
14.3966 46.2447 14.4562 0.304139 -0.952624 -0.00274082
15.61 46.6415 14.5411 0.315494 -0.948924 -0.00241541
16.7166 47.0139 14.6229 0.326747 -0.945096 0.00546664
17.7813 47.3815 14.7023 0.330016 -0.943928 0.00943962
18.9091 47.7802 14.7925 0.335677 -0.941887 0.013069
20.15 48.2276 14.892 0.341479 -0.939735 0.0170405
21.3102 48.6537 14.9835 0.344668 -0.938594 0.0156429
22.5721 49.1246 15.0714 0.351287 -0.936107 0.0173644
23.4038 49.4397 15.133 0.35442 -0.934922 0.0175537
22.8259 49.2013 14.144 0.351803 -0.935859 0.0200719
21.3053 48.6338 14.0347 0.344781 -0.938487 0.0192006
20.1097 48.1956 13.9415 0.341616 -0.939642 0.0192646
19.0484 47.8144 13.8635 0.335482 -0.941927 0.015013
17.9603 47.4306 13.7809 0.327891 -0.944611 0.0140371
16.7069 46.999 13.6925 0.323002 -0.946314 0.0126375
15.5379 46.6117 13.6129 0.309987 -0.950712 0.00743063
14.3825 46.2417 13.5364 0.301606 -0.953409 0.00673559
13.0967 45.8449 13.4553 0.286047 -0.95818 -0.00832526
11.8432 45.4771 13.3836 0.274014 -0.961568 -0.0174465
11.1013 45.2706 13.3454 0.264275 -0.964294 -0.0172022
10.742 45.1878 12.4151 0.257435 -0.966249 -0.00949475
12.1298 45.5658 12.484 0.273496 -0.961869 0.00281938
13.4051 45.9386 12.5584 0.288372 -0.957518 0.000881864
14.6387 46.3169 12.6343 0.298482 -0.954307 0.0143767
15.7807 46.6807 12.7039 0.306113 -0.951927 0.0114093
17.2008 47.1534 12.795 0.316996 -0.948262 0.017674
18.3048 47.5322 12.8688 0.327506 -0.944651 0.0193598
19.5292 47.9659 12.9609 0.331666 -0.943108 0.0233409
20.6403 48.3669 13.0377 0.340719 -0.939842 0.0246325
21.835 48.8066 13.1271 0.346591 -0.937691 0.0246958
22.4924 49.0522 13.1713 0.34932 -0.936672 0.0249107
22.0664 48.8674 12.1862 0.347236 -0.937322 0.0292393
20.8859 48.4308 12.1084 0.343142 -0.938847 0.028625
19.7333 48.0131 12.0293 0.334599 -0.942016 0.025485
18.3873 47.5386 11.9376 0.326646 -0.944833 0.024362
17.2573 47.1493 11.8684 0.319156 -0.947421 0.0230926
16.024 46.7404 11.7924 0.312967 -0.949544 0.0204581
14.9168 46.3908 11.7309 0.296228 -0.954847 0.0227027
13.4689 45.9481 11.6469 0.287509 -0.957716 0.0108591
12.2786 45.6045 11.5795 0.270597 -0.962598 0.0135153
11.1143 45.2879 11.5183 0.256452 -0.966533 0.00682918
9.91739 44.9825 11.4628 0.237205 -0.971459 0.00106046
9.82207 44.9592 11.4587 0.237209 -0.971458 0.00106103
8.61585 44.6852 10.498 0.205915 -0.978522 -0.00970281
10.1812 45.0467 10.5578 0.226972 -0.973876 0.0070006
11.3484 45.3443 10.6169 0.250119 -0.968122 0.0134632
12.7914 45.736 10.6927 0.267066 -0.96351 0.0180289
14.1227 46.1256 10.7676 0.284252 -0.95858 0.0180517
15.3857 46.5148 10.832 0.296496 -0.954613 0.0283449
16.6524 46.9229 10.903 0.30991 -0.95028 0.0303947
17.8721 47.3327 10.9721 0.323315 -0.945821 0.0298462
19.2076 47.7959 11.0497 0.328852 -0.943885 0.03061
20.4026 48.2252 11.1285 0.339916 -0.939854 0.0336371
21.32 48.5602 11.1904 0.343734 -0.938471 0.0334621
20.699 48.2991 10.2013 0.341304 -0.939255 0.0362034
19.6134 47.9058 10.1347 0.33627 -0.941046 0.0368132
18.41 47.4833 10.0672 0.327299 -0.94423 0.0361364
17.0573 47.0249 9.99618 0.314797 -0.948442 0.0368752
15.7933 46.6142 9.92997 0.301745 -0.952643 0.0376969
14.583 46.239 9.87314 0.293179 -0.955647 0.0280224
13.4479 45.9034 9.81559 0.276164 -0.960459 0.0353937
12.1251 45.5345 9.74365 0.255141 -0.966641 0.0225577
11.0203 45.2455 9.68739 0.246042 -0.969108 0.0171282
9.36697 44.8498 9.60537 0.221947 -0.975005 0.0102412
8.13742 44.5869 9.56227 0.204668 -0.978817 0.00528616
7.32358 44.4258 9.52444 0.192324 -0.981325 0.00355675
6.61485 44.2965 8.57371 0.164587 -0.986354 -0.0040754
7.82629 44.5197 8.6299 0.191382 -0.981435 0.0126125
8.98779 44.7538 8.68057 0.20371 -0.978862 0.0181973
10.3242 45.0567 8.74706 0.226237 -0.973831 0.0216861
11.5345 45.3556 8.80388 0.247766 -0.968346 0.0302831
12.7078 45.6651 8.86292 0.260506 -0.964784 0.0364451
14.0561 46.0458 8.93481 0.276164 -0.960459 0.035394
15.1815 46.3858 8.97838 0.289756 -0.956185 0.041863
16.4464 46.7843 9.04015 0.301613 -0.952394 0.0444324
17.6136 47.1719 9.09595 0.31847 -0.946902 0.0441905
18.7958 47.578 9.1532 0.327515 -0.943736 0.0457871
19.9946 48.0029 9.21812 0.335486 -0.941017 0.0440156
19.1704 47.6649 8.23563 0.331782 -0.941758 0.0548815
17.9453 47.2377 8.18017 0.322722 -0.945284 0.0478459
16.5457 46.7742 8.11827 0.303733 -0.951146 0.0553833
15.3736 46.4053 8.06875 0.292194 -0.954706 0.0562031
14.2169 46.057 8.02739 0.275761 -0.95961 0.0557102
13.1146 45.7442 7.97923 0.264565 -0.963715 0.0354825
11.9072 45.4205 7.91665 0.25022 -0.967107 0.0457696
10.8055 45.144 7.86297 0.231313 -0.972136 0.0380258
9.54048 44.8552 7.80528 0.211733 -0.976707 0.0348292
8.1609 44.5706 7.73052 0.188805 -0.981762 0.0222715
6.85747 44.3348 7.66109 0.164791 -0.986277 0.010108
5.53174 44.1175 7.58148 0.155332 -0.987858 0.00273717
4.97263 44.0321 7.54428 0.147106 -0.989117 0.00283324
2.82571 43.7335 6.47863 0.131389 -0.991329 0.00195185
3.97549 43.8891 6.54669 0.137245 -0.990537 0.000581681
5.44831 44.0968 6.6448 0.146287 -0.989179 0.0111982
6.57271 44.2721 6.72424 0.160681 -0.986876 0.0160494
7.74015 44.4739 6.79312 0.182571 -0.982829 0.0267376
9.15064 44.7452 6.87876 0.19915 -0.979345 0.0349666
10.2978 44.9893 6.93467 0.213544 -0.976081 0.0408066
11.5958 45.2991 6.99645 0.23434 -0.971061 0.0461059
12.9878 45.6587 7.06303 0.256197 -0.965283 0.0509065
14.5793 46.1087 7.12562 0.273261 -0.960486 0.0528624
15.6771 46.4446 7.15827 0.296625 -0.953437 0.0545118
16.7919 46.7997 7.20577 0.30239 -0.951647 0.0541067
18.01 47.2071 7.25082 0.320691 -0.945332 0.0592042
18.7892 47.4763 7.28101 0.327211 -0.94348 0.0527177
18.098 47.1762 6.32637 0.3214 -0.944554 0.0672302
16.9152 46.7775 6.28934 0.313568 -0.947324 0.0652058
15.532 46.3376 6.23495 0.294892 -0.953274 0.065628
14.3277 45.9782 6.20117 0.272782 -0.960117 0.061365
13.0421 45.619 6.15427 0.256716 -0.964031 0.0688508
11.8751 45.3199 6.10818 0.234521 -0.969875 0.0659021
10.6562 45.0316 6.04384 0.213627 -0.975125 0.0591144
9.48026 44.7796 5.98447 0.19781 -0.979578 0.0360326
8.27396 44.5446 5.91046 0.179423 -0.983148 0.0350216
7.13464 44.3449 5.83903 0.161227 -0.98651 0.0283412
5.93136 44.1567 5.74949 0.147603 -0.988811 0.0215934
4.60622 43.9683 5.66064 0.134065 -0.990906 0.0115086
3.42135 43.809 5.57867 0.129901 -0.991504 0.00668318
2.11502 43.6388 5.48881 0.126236 -0.991992 0.00400552
0.740114 43.4581 5.39552 0.132271 -0.991213 0.00110101
0.660022 43.4474 5.39019 0.132004 -0.991249 -0.000441473
-1.78308 43.1061 4.27792 0.151492 -0.988453 0.00323096
-0.578794 43.2776 4.36984 0.138353 -0.990377 0.00359042
0.895748 43.4764 4.45913 0.128632 -0.991678 0.00535569
2.23148 43.6491 4.55281 0.124508 -0.992208 0.00460072
3.53353 43.8155 4.65395 0.125404 -0.99207 0.00842691
5.07726 44.018 4.76289 0.13156 -0.991137 0.0184309
6.24171 44.1836 4.84115 0.141668 -0.989578 0.0257847
7.5854 44.39 4.94709 0.161798 -0.986178 0.035712
8.83822 44.6138 5.03788 0.173943 -0.984001 0.0385387
9.96538 44.8355 5.10709 0.199755 -0.97833 0.054487
11.1102 45.0798 5.16945 0.221415 -0.972799 0.0681004
12.6687 45.4579 5.23522 0.24324 -0.967305 0.0718069
13.7986 45.7607 5.27999 0.264979 -0.960855 0.0808906
14.8948 46.0759 5.31408 0.283541 -0.955719 0.0787704
16.0894 46.4423 5.34687 0.297586 -0.951746 0.0749878
17.4014 46.8691 5.38444 0.315732 -0.945779 0.0762635
16.4756 46.4902 4.45191 0.302789 -0.949223 0.0854093
15.1452 46.0749 4.42335 0.287344 -0.954103 0.0843835
14.0238 45.7476 4.39734 0.263518 -0.961109 0.0826346
12.7262 45.3997 4.34805 0.249104 -0.964439 0.0883392
11.3649 45.0733 4.28798 0.214235 -0.9738 0.0762704
10.0679 44.7966 4.20652 0.190382 -0.978838 0.0750353
8.89482 44.5774 4.13843 0.169536 -0.984345 0.0481951
7.69131 44.3752 4.03507 0.145595 -0.988367 0.0439631
6.41736 44.182 3.92421 0.13795 -0.989908 0.0324359
5.12334 44.0046 3.83211 0.127837 -0.991562 0.0214899
3.9298 43.8523 3.74589 0.121925 -0.992393 0.0170595
2.51266 43.676 3.63428 0.121771 -0.992459 0.014
1.33022 43.5279 3.54635 0.125372 -0.992076 0.0081551
0.103715 43.3687 3.45939 0.132355 -0.991192 0.00454168
-1.23861 43.1813 3.35574 0.140699 -0.990051 0.00167721
-2.39797 43.0107 3.26573 0.149037 -0.98883 0.001976
-3.52993 42.8339 3.17887 0.159163 -0.987252 0.00118793
-4.76499 42.6204 3.09305 0.181505 -0.983389 -0.000996897
-6.11304 42.3612 3.01236 0.199176 -0.979955 -0.00408493
-7.1326 42.1442 2.95927 0.227082 -0.973802 -0.0120051
-44.3638 27.0338 13.6529 0.345441 -0.924777 -0.159557
-42.9768 27.4552 14.2123 0.344898 -0.925066 -0.159055
-41.6214 27.8671 14.7555 0.344888 -0.925058 -0.15912
-40.4183 28.2331 15.2343 0.344845 -0.925051 -0.159255
-38.8368 28.7151 15.8587 0.344723 -0.925085 -0.159322
-37.5496 29.1072 16.3675 0.344847 -0.925046 -0.159283
-36.2434 29.5049 16.8858 0.344772 -0.925065 -0.159331
-35.4964 29.7325 17.1807 0.344695 -0.925067 -0.159486
-35.1557 30.0035 16.3452 0.344927 -0.924923 -0.159823
-36.4182 29.618 15.851 0.344967 -0.924941 -0.159633
-37.7455 29.2132 15.328 0.344864 -0.925042 -0.159268
-39.0305 28.8211 14.8242 0.344758 -0.92507 -0.159334
