16.8617 47.4226 34.6063 0.378486 -0.925575 -0.0076719
16.9909 47.4852 33.487 0.376455 -0.926393 -0.00876208
16.99 47.5016 32.0064 0.375105 -0.926922 -0.010544
17.0063 47.5243 30.7213 0.373726 -0.927442 -0.0134207
16.913 47.5037 29.5424 0.36965 -0.929071 -0.0136724
16.7849 47.4708 28.3874 0.368269 -0.929574 -0.0164155
16.5814 47.4131 27.0926 0.364575 -0.931022 -0.0167547
16.3681 47.3555 25.7121 0.360293 -0.932611 -0.0206051
16.1157 47.2836 24.5032 0.357825 -0.933601 -0.018725
15.7523 47.1735 23.2394 0.352004 -0.935731 -0.0223658
15.3266 47.042 22.125 0.348672 -0.936961 -0.0230739
14.9966 46.9485 21.0138 0.339789 -0.940246 -0.0219394
14.5373 46.8109 19.8882 0.334108 -0.942182 -0.0256847
13.9622 46.6351 18.8201 0.326679 -0.944831 -0.023767
13.4234 46.4757 17.7152 0.318138 -0.94772 -0.0247959
12.7834 46.2963 16.4821 0.309217 -0.950636 -0.0259946
12.1555 46.1178 15.5303 0.290446 -0.956625 -0.022573
11.5086 45.9407 14.6032 0.283415 -0.958773 -0.0190086
10.7478 45.7444 13.7037 0.265382 -0.963806 -0.025501
9.97247 45.5566 12.6225 0.259328 -0.965702 -0.0129968
9.17792 45.3712 11.7503 0.234097 -0.971943 -0.0194369
8.1026 45.1394 10.7007 0.213853 -0.976653 -0.0156052
6.98783 44.9256 9.7738 0.197053 -0.980376 -0.00287613
6.03081 44.7554 8.97734 0.16902 -0.985531 -0.0126861
5.07373 44.5999 8.28426 0.158065 -0.987413 -0.00558562
4.07601 44.4495 7.64478 0.148166 -0.988944 -0.00337796
3.04846 44.3055 6.99487 0.138708 -0.990321 -0.00502092
1.95084 44.1563 6.40813 0.134937 -0.990837 -0.00528455
0.880982 44.014 5.85894 0.134848 -0.990863 -0.00244287
-0.16763 43.8713 5.38934 0.136416 -0.990649 -0.00221836
-1.30996 43.7124 4.83603 0.140014 -0.990148 -0.00188284
-2.36788 43.5583 4.4384 0.149746 -0.988724 -0.000810503
-3.7588 43.3416 4.06357 0.161557 -0.986827 -0.00447511
-4.85129 43.1527 3.74759 0.175501 -0.984461 -0.0046797
-6.00796 42.9348 3.43233 0.200816 -0.979544 -0.00885306
-7.39518 42.636 3.16878 0.222863 -0.974629 -0.0207527
-8.55541 42.3615 2.97785 0.245088 -0.969147 -0.0261853
-9.94761 42.0111 2.87981 0.259044 -0.965444 -0.0250865
-11.1144 41.6837 2.79503 0.271765 -0.961994 -0.0266613
-12.3807 41.2968 2.7878 0.296457 -0.954159 -0.0411464
-13.8669 40.8131 2.86264 0.318438 -0.94654 -0.0509219
-15.1731 40.3599 2.8914 0.323982 -0.944169 -0.0597749
-16.3682 39.9182 3.08852 0.34027 -0.937167 -0.077031
-17.7177 39.3884 3.42741 0.351413 -0.932271 -0.0859084
-18.9742 38.8864 3.70644 0.354418 -0.930088 -0.0965576
-20.037 38.4404 4.04099 0.361021 -0.926276 -0.108055
-21.1741 37.9458 4.49748 0.358494 -0.926628 -0.113319
-22.1923 37.491 4.92397 0.362574 -0.923631 -0.124282
-23.5137 36.8938 5.51446 0.360521 -0.923008 -0.134464
-24.8316 36.2919 6.11034 0.359546 -0.922136 -0.142767
-25.7469 35.8433 6.6961 0.358023 -0.921792 -0.148705
-26.9092 35.2477 7.60046 0.355276 -0.922258 -0.152379
-27.8351 34.7637 8.36181 0.354018 -0.921947 -0.157116
-28.6923 34.3113 9.08488 0.35257 -0.922184 -0.158967
-29.5657 33.8545 9.80232 0.35123 -0.922388 -0.160743
-30.4731 33.3729 10.5944 0.348841 -0.9234 -0.160133
-31.2092 32.9519 11.4185 0.348064 -0.923453 -0.161514
-32.0325 32.449 12.5263 0.346786 -0.923993 -0.161169
-32.8175 31.9633 13.6229 0.346138 -0.924194 -0.161412
-33.4675 31.5666 14.5057 0.345541 -0.924544 -0.160688
-34.1026 31.1457 15.564 0.345184 -0.924764 -0.160184
-34.667 30.7331 16.7323 0.344855 -0.924951 -0.159813
-35.2735 30.3545 17.6172 0.344708 -0.925066 -0.159468
-36.2247 29.9521 17.8956 0.344635 -0.925146 -0.159157
-37.9031 29.4237 17.3334 0.344672 -0.925122 -0.159221
-39.2473 29.0273 16.7252 0.344769 -0.925113 -0.15906
-40.437 28.6603 16.2818 0.344537 -0.925217 -0.158957
-41.4983 28.3568 15.7468 0.344674 -0.925171 -0.158928
-42.6937 27.9906 15.2865 0.344767 -0.925105 -0.159112
-44.1128 27.5598 14.7135 0.345105 -0.924987 -0.159063
-45.0061 27.3566 13.9551 0.345454 -0.92491 -0.158754
-44.5183 27.7632 12.653 0.345527 -0.924709 -0.159763
-44.0703 28.1147 11.5875 0.345443 -0.924689 -0.160059
-43.56 28.4887 10.53 0.345114 -0.924669 -0.160884
-43.0442 28.883 9.37224 0.345107 -0.924539 -0.161646
-42.1544 29.4306 8.14059 0.344765 -0.924532 -0.162413
-41.5179 29.8618 7.03494 0.344052 -0.924727 -0.162814
-40.793 30.3216 5.95762 0.343439 -0.924879 -0.163242
-39.8853 30.8518 4.85583 0.342682 -0.925251 -0.162726
-39.0054 31.3538 3.84798 0.341377 -0.925836 -0.162137
-38.1243 31.842 2.91054 0.339846 -0.926477 -0.161694
-37.1408 32.3722 1.93407 0.338697 -0.927167 -0.160139
-36.3581 32.7846 1.19438 0.337769 -0.927665 -0.159217
-35.5496 33.2119 0.406743 0.335602 -0.92862 -0.158226
-34.5801 33.7017 -0.43317 0.333446 -0.930008 -0.15459
-33.4094 34.2679 -1.33226 0.331982 -0.931115 -0.151037
-32.46 34.7026 -1.94293 0.32929 -0.93296 -0.145443
-31.4446 35.1627 -2.59973 0.326727 -0.934039 -0.144296
-30.464 35.6059 -3.2746 0.326755 -0.935157 -0.136795
-29.2349 36.1252 -3.91899 0.32188 -0.937597 -0.131551
-27.9172 36.6703 -4.60075 0.318247 -0.939319 -0.12806
-26.8803 37.0863 -5.09428 0.317266 -0.940681 -0.120256
-25.869 37.4667 -5.42857 0.31222 -0.942866 -0.116281
-24.7719 37.883 -5.8586 0.309142 -0.944766 -0.108853
-23.6984 38.2803 -6.27322 0.306254 -0.946348 -0.103121
-22.6813 38.6457 -6.63147 0.304865 -0.947604 -0.0954183
-21.5762 39.0272 -6.93654 0.301064 -0.949428 -0.0891473
-20.5173 39.3848 -7.22015 0.296322 -0.951492 -0.0827955
-19.4096 39.7435 -7.43891 0.293285 -0.953275 -0.0724611
-18.3274 40.0861 -7.66071 0.286508 -0.955852 -0.0652459
-17.153 40.4387 -7.76184 0.280557 -0.957794 -0.0625516
-15.8423 40.8281 -7.95333 0.270957 -0.961092 -0.053504
-14.7386 41.1403 -8.10735 0.257768 -0.965196 -0.0441806
-13.6124 41.4402 -8.13599 0.253096 -0.966543 -0.041686
-12.3113 41.772 -8.06779 0.240861 -0.970199 -0.026449
-11.0512 42.078 -8.08934 0.232314 -0.972313 -0.0252498
-9.87802 42.3362 -8.10123 0.214401 -0.976542 -0.019354
-8.69147 42.5815 -7.98519 0.187581 -0.982156 -0.00542635
-7.32476 42.8254 -7.85587 0.170675 -0.985312 0.00548284
-6.08236 43.0259 -7.66941 0.145753 -0.989306 0.00547949
-4.68556 43.2265 -7.5023 0.136022 -0.990663 0.0088517
-3.3076 43.3947 -7.36973 0.115884 -0.993102 0.0177813
-1.74233 43.5508 -7.22827 0.0826208 -0.996072 0.0306962
-0.474816 43.6558 -7.08037 0.0722723 -0.996585 0.0399418
0.73828 43.7511 -6.60802 0.052533 -0.996852 0.0593814
2.16593 43.8532 -6.12886 0.0477514 -0.99642 0.0697668
3.55062 43.9375 -5.77903 0.0413665 -0.996306 0.0751918
5.03538 44.0279 -5.3814 0.0334677 -0.995357 0.0902463
6.18511 44.1109 -5.00816 0.0421604 -0.993834 0.102547
7.65537 44.2169 -4.55684 0.0309455 -0.990312 0.135369
8.14813 44.256 -4.38727 0.0321533 -0.990303 0.135149
8.67977 44.1028 -5.40949 0.0025866 -0.982382 0.186864
9.94219 44.2827 -4.5176 0.0102286 -0.981983 0.188691
10.5578 44.5783 -3.28557 0.0968177 -0.977196 0.188983
11.2822 44.8621 -2.27792 0.147056 -0.972442 0.180916
12.166 45.1788 -1.38813 0.179541 -0.967437 0.17841
13.0455 45.5003 -0.681891 0.228637 -0.959409 0.164484
13.9409 45.8503 0.0846456 0.259741 -0.954027 0.149557
14.7628 46.1811 0.791511 0.278882 -0.951343 0.131042
15.7148 46.5779 1.65485 0.291992 -0.948582 0.122198
16.5408 46.9422 2.5356 0.306136 -0.946422 0.102794
17.2791 47.271 3.40803 0.311819 -0.945501 0.0937931
18.1918 47.655 4.214 0.328223 -0.941446 0.0771324
18.9275 47.9956 5.23881 0.334127 -0.939504 0.0754391
19.6053 48.3062 6.24774 0.331778 -0.941434 0.060192
20.4467 48.6692 7.1911 0.343115 -0.937647 0.0554655
21.1144 48.963 8.11281 0.346832 -0.936793 0.0461228
21.8971 49.3148 9.42315 0.345434 -0.937551 0.0407438
22.5866 49.6068 10.3347 0.35168 -0.935427 0.0360086
23.0849 49.8379 11.5652 0.349734 -0.936365 0.0298049
23.678 50.1004 12.8471 0.352877 -0.935305 0.0259708
24.238 50.3407 13.8939 0.359156 -0.93301 0.0222301
24.548 50.4835 14.9977 0.357996 -0.933534 0.0187228
25.1024 50.7184 16.1216 0.360851 -0.932486 0.015992
25.6153 50.9404 17.6509 0.364237 -0.931209 0.0134195
25.9866 51.0982 18.7463 0.364915 -0.930982 0.0104711
26.4103 51.2771 20.0323 0.365782 -0.930665 0.00816959
26.8614 51.4677 21.6324 0.368591 -0.929565 0.00709106
27.1253 51.5794 22.73 0.368832 -0.929482 0.00501023
27.3864 51.6891 23.8926 0.369696 -0.929143 0.00415601
27.5348 51.7532 25.0952 0.370957 -0.928645 0.0030292
27.6832 51.8166 26.3261 0.37263 -0.927975 0.00321077
27.7761 51.8581 27.6164 0.373485 -0.927631 0.00307007
27.9157 51.9176 28.8355 0.374489 -0.927228 0.00235002
28.0077 51.9583 30.1946 0.375646 -0.926761 0.001871
28.0352 51.9722 31.3616 0.376125 -0.926567 0.00194204
28.0128 51.9658 32.6877 0.377441 -0.926032 0.0018024
27.9601 51.9471 34.0558 0.378459 -0.925616 0.00175582
27.8869 51.9196 35.3389 0.379163 -0.925328 0.00168283
27.8002 51.8862 36.5725 0.379866 -0.92504 0.00166106
27.7054 51.8494 37.7938 0.380397 -0.924822 0.00149473
27.4641 51.7527 39.3019 0.38106 -0.924548 0.00190287
27.2181 51.6537 40.7657 0.38174 -0.924268 0.00152732
26.9483 51.5441 41.9591 0.381935 -0.924188 0.00141691
26.6164 51.4086 43.1249 0.382501 -0.923954 0.00137498
26.3241 51.2892 44.3553 0.382827 -0.92382 0.000834319
25.6742 51.0209 45.5388 0.382738 -0.923857 0.000635291
24.4964 50.5327 45.0472 0.382474 -0.923966 0.000392777
23.3763 50.0691 44.6884 0.382261 -0.924054 -0.000248954
22.3995 49.6654 44.239 0.381997 -0.924164 -0.000356688
21.3847 49.2467 43.7288 0.381394 -0.924413 -0.000585515
20.3422 48.817 43.3939 0.381139 -0.924517 -0.00123402
19.1941 48.3447 42.8151 0.381079 -0.924541 -0.00154187
17.9607 47.8374 42.2855 0.380994 -0.924576 -0.00199666
16.7598 47.3437 41.7714 0.380785 -0.924661 -0.00226525
15.5318 46.839 41.2182 0.381449 -0.924385 -0.002819
14.8509 46.5605 40.4268 0.381806 -0.924237 -0.00311318
15.1489 46.6884 39.1037 0.381337 -0.924427 -0.00412409
15.3347 46.7707 37.9616 0.380249 -0.924862 -0.00635765
15.5431 46.8639 36.8551 0.381165 -0.924481 -0.00684067
15.7912 46.977 35.4745 0.379895 -0.924992 -0.00830781
15.9101 47.0381 34.1727 0.378057 -0.925736 -0.00928084
15.9033 47.0537 32.6017 0.375904 -0.926579 -0.0121499
15.9733 47.1026 31.1371 0.372379 -0.92797 -0.0143298
15.908 47.0976 29.8066 0.3724 -0.927918 -0.0168283
15.791 47.0729 28.6226 0.368264 -0.929576 -0.0164153
15.578 47.0126 27.4284 0.364745 -0.9309 -0.0196784
15.4288 46.9793 26.3086 0.363378 -0.931409 -0.0208352
15.1857 46.9112 25.1818 0.360586 -0.932472 -0.0217855
14.827 46.8129 23.7187 0.354856 -0.934542 -0.0265513
14.3219 46.6631 22.4598 0.344181 -0.938382 -0.0310835
13.9691 46.5754 21.1152 0.33709 -0.941056 -0.02801
13.4413 46.4185 20.0876 0.333305 -0.94241 -0.0277732
12.9463 46.2795 18.9871 0.324045 -0.945669 -0.0265334
12.3731 46.1162 17.9962 0.311901 -0.949614 -0.0304053
11.7444 45.9508 16.8329 0.300473 -0.953279 -0.0300201
10.9168 45.7411 15.6169 0.278191 -0.96003 -0.0308575
10.1883 45.563 14.6407 0.264407 -0.96393 -0.0304634
9.25954 45.3491 13.5158 0.250579 -0.967196 -0.0399346
8.43282 45.1767 12.5534 0.227501 -0.973181 -0.0339072
7.47168 44.9904 11.5909 0.210993 -0.977021 -0.0302132
6.52929 44.8215 10.7714 0.190843 -0.981365 -0.0223836
5.30614 44.6217 9.81182 0.164792 -0.986259 -0.011695
4.22459 44.4597 9.03458 0.157002 -0.987509 -0.0117326
3.23178 44.3191 8.39686 0.146583 -0.989055 -0.0168102
1.86168 44.1354 7.56941 0.134634 -0.990778 -0.0142137
0.679309 43.9817 6.95869 0.133152 -0.991078 -0.00551665
-0.509954 43.822 6.42495 0.136304 -0.990667 4.22545e-05
-1.72875 43.652 5.85055 0.14332 -0.989666 0.000261345
-2.99736 43.46 5.39065 0.155331 -0.98786 0.0020882
-4.1371 43.2723 5.09133 0.166661 -0.98601 0.00280343
-5.48021 43.0322 4.70878 0.185536 -0.982608 -0.00227633
-6.88481 42.7389 4.37855 0.214762 -0.976628 -0.00865422
-8.05905 42.4696 4.16591 0.235286 -0.971837 -0.0131736
-9.21948 42.1745 4.07895 0.255557 -0.966671 -0.0154196
-10.374 41.8613 3.93621 0.27295 -0.961633 -0.0275839
-11.7886 41.4384 3.88796 0.302029 -0.952629 -0.0357305
-13.1303 41.0031 3.94971 0.310365 -0.949602 -0.0439309
-14.3823 40.571 3.9896 0.331827 -0.941953 -0.050723
-15.5807 40.1365 4.00358 0.347079 -0.935596 -0.0644552
-16.7294 39.6819 4.36056 0.35686 -0.930829 -0.0787914
-17.8295 39.2415 4.54945 0.360094 -0.928455 -0.0911249
-18.9517 38.7732 4.8483 0.364359 -0.925246 -0.10565
-20.1051 38.2763 5.21199 0.366318 -0.924073 -0.109087
-21.1149 37.8258 5.60359 0.365653 -0.922852 -0.120991
-22.0732 37.3813 6.06992 0.366861 -0.921233 -0.129385
-23.3282 36.798 6.64977 0.364753 -0.921107 -0.136079
-24.2952 36.3503 7.0742 0.36159 -0.921131 -0.144121
-25.3973 35.8005 7.80714 0.362813 -0.919568 -0.15082
-26.3222 35.3164 8.54688 0.358216 -0.920325 -0.157096
-27.16 34.8787 9.20735 0.355903 -0.920879 -0.159101
-27.9828 34.4396 9.91401 0.353264 -0.921403 -0.161918
-28.8016 34.0129 10.5657 0.352638 -0.921883 -0.160555
-29.6001 33.5851 11.2745 0.350254 -0.922523 -0.162091
-30.3302 33.1688 12.0726 0.348065 -0.923453 -0.16151
-31.0372 32.7415 12.9917 0.347535 -0.92353 -0.162208
-31.6869 32.3344 13.9227 0.346143 -0.924192 -0.16141
-32.357 31.9339 14.7788 0.345195 -0.924528 -0.161519
-33.0556 31.4794 15.8932 0.345175 -0.924731 -0.160394
-33.5697 31.1144 16.8932 0.344934 -0.924914 -0.15986
-34.2391 30.66 18.0803 0.344673 -0.925062 -0.159567
-34.7542 30.2872 19.1318 0.344411 -0.925237 -0.159112
-35.4339 29.9905 19.3854 0.344526 -0.925195 -0.15911
-36.4668 29.6717 19.0018 0.344605 -0.925175 -0.159057
-37.6688 29.2908 18.613 0.34463 -0.925165 -0.159058
-38.6623 29.0049 18.1235 0.344581 -0.925184 -0.159054
-39.8244 28.6579 17.6239 0.344618 -0.925204 -0.158857
-40.9244 28.3076 17.2781 0.344564 -0.925235 -0.158792
-42.0501 28.0072 16.5854 0.344669 -0.925172 -0.158934
-43.4304 27.5567 16.2132 0.34481 -0.925121 -0.158923
-44.7414 27.1816 15.5508 0.344943 -0.925128 -0.158596
-46.0334 26.7921 15.0095 0.345503 -0.924919 -0.158596
-46.3127 26.8783 13.8978 0.34584 -0.924755 -0.158817
-45.6004 27.3771 12.5476 0.345524 -0.92471 -0.159764
-45.2307 27.7206 11.3609 0.345901 -0.924497 -0.16018
-44.6013 28.1351 10.3275 0.345275 -0.924611 -0.160871
-44.1339 28.4845 9.32447 0.345215 -0.924529 -0.16147
-43.6615 28.8417 8.29285 0.345119 -0.924378 -0.162534
-42.8498 29.303 7.39195 0.344489 -0.924527 -0.163026
-42.348 29.6854 6.2842 0.343992 -0.924681 -0.163202
-41.4362 30.2283 5.13273 0.343721 -0.92468 -0.163778
-40.7285 30.6601 4.17458 0.342169 -0.925182 -0.16419
-39.9947 31.0817 3.32264 0.340923 -0.925736 -0.163663
-39.1603 31.559 2.35712 0.340059 -0.926224 -0.162692
-38.3432 32.0001 1.54638 0.33862 -0.927027 -0.161116
-37.4102 32.4911 0.67686 0.336921 -0.92758 -0.161494
-36.5799 32.9365 -0.160019 0.333983 -0.928981 -0.159525
-35.6116 33.4211 -0.965434 0.333476 -0.929793 -0.155817
-34.4772 33.9831 -1.91288 0.331358 -0.930896 -0.153736
-33.5672 34.4203 -2.61844 0.328192 -0.93263 -0.149948
-32.5325 34.866 -3.1454 0.326922 -0.933499 -0.147317
-31.5319 35.3357 -3.93016 0.322461 -0.935583 -0.143883
-30.3309 35.8527 -4.62791 0.320938 -0.937173 -0.136735
-29.3627 36.2485 -5.09557 0.317312 -0.938942 -0.133033
-28.3885 36.6478 -5.61135 0.31227 -0.941486 -0.126842
-27.3908 37.0465 -6.10212 0.315212 -0.940972 -0.123337
-26.1728 37.5025 -6.53648 0.310656 -0.943163 -0.118015
-25.1268 37.8886 -6.90174 0.303953 -0.946201 -0.110978
-23.7001 38.4094 -7.47908 0.304188 -0.947045 -0.102799
-22.6495 38.7736 -7.81082 0.293876 -0.951299 -0.093056
-21.3035 39.224 -8.15479 0.292758 -0.952383 -0.0851991
-20.0583 39.6257 -8.43026 0.289812 -0.954054 -0.0760618
-18.9767 39.9672 -8.68815 0.279138 -0.957589 -0.0714514
-17.8378 40.3075 -8.77955 0.279173 -0.957917 -0.0667612
-16.5922 40.6788 -8.97482 0.271181 -0.960648 -0.0598841
-15.3623 41.0256 -9.15435 0.255376 -0.965526 -0.0503052
-13.9082 41.4093 -9.22557 0.254384 -0.966172 -0.04238
-12.7662 41.7023 -9.28227 0.236873 -0.970977 -0.032358
-11.395 42.0231 -9.1599 0.228455 -0.973304 -0.0220813
-10.2769 42.2759 -9.23407 0.205954 -0.97834 -0.0198698
-9.05622 42.5221 -9.12349 0.193722 -0.980947 -0.0116609
-7.86466 42.7391 -9.0333 0.170878 -0.985245 -0.00969608
-6.5076 42.9603 -8.85938 0.14973 -0.988725 0.00217105
-5.07433 43.16 -8.68746 0.132967 -0.991109 0.00221492
-3.91333 43.3063 -8.53241 0.119868 -0.992671 0.0149628
-2.75121 43.4286 -8.41021 0.088108 -0.995863 0.0222037
-1.53199 43.5305 -8.31236 0.0747298 -0.996683 0.0322167
-0.404813 43.6109 -8.14043 0.0558658 -0.997652 0.03962
1.05578 43.7037 -7.68566 0.0484053 -0.997373 0.0534536
2.1635 43.7726 -7.29127 0.0352891 -0.996942 0.0695237
3.41746 43.8394 -6.94704 0.0318507 -0.996491 0.0773762
4.55692 43.8908 -6.65892 0.00417524 -0.994235 0.106632
5.91428 43.9534 -6.25172 0.0101269 -0.99055 0.136779
7.12458 44.014 -5.8963 0.00710472 -0.98894 0.148047
8.3058 44.0783 -5.53339 -0.00358353 -0.983988 0.177857
8.63459 43.8946 -6.56109 -0.016361 -0.983667 0.179158
9.84689 43.932 -6.15535 -0.0420625 -0.974163 0.221596
10.7163 44.1121 -5.3689 0.0337497 -0.964527 0.261289
11.3848 44.4419 -4.16431 0.0372037 -0.962766 0.266618
11.9141 44.7521 -3.13925 0.112598 -0.966279 0.231575
12.7282 45.0966 -2.33098 0.166568 -0.965754 0.198932
13.8483 45.5655 -1.44744 0.254648 -0.950515 0.177976
14.6997 45.9245 -0.777713 0.285558 -0.945883 0.154135
15.7282 46.3767 0.127958 0.291562 -0.94588 0.142481
16.6428 46.79 0.982989 0.31879 -0.939024 0.128123
17.3895 47.1399 1.80097 0.314923 -0.943682 0.101144
18.221 47.531 2.78591 0.321638 -0.942047 0.0951328
19.021 47.887 3.55471 0.332674 -0.939051 0.0865734
19.7906 48.253 4.60113 0.339535 -0.937289 0.0785956
20.4926 48.5771 5.55154 0.343517 -0.936702 0.0675916
21.2811 48.9371 6.56474 0.346152 -0.936434 0.0571832
21.938 49.2395 7.50151 0.354196 -0.933843 0.0493495
22.5656 49.5217 8.49663 0.352759 -0.93471 0.043344
23.1586 49.7864 9.44379 0.350758 -0.935642 0.0392672
23.8585 50.0921 10.4858 0.355306 -0.9341 0.0348639
24.3316 50.3192 11.8367 0.356408 -0.933933 0.0272331
24.9796 50.5978 12.8162 0.361794 -0.931861 0.0271899
25.3024 50.7523 13.9593 0.360969 -0.932291 0.0231121
25.7443 50.9478 15.0849 0.36141 -0.93219 0.0201105
26.3048 51.1889 16.2502 0.365793 -0.930579 0.0147463
26.6099 51.3253 17.3477 0.364561 -0.931081 0.013521
26.9923 51.4904 18.4888 0.366837 -0.930223 0.0107744
27.3688 51.6515 19.605 0.367744 -0.929871 0.0101567
27.7536 51.8159 20.8611 0.369278 -0.929283 0.0081228
28.0527 51.945 22.1766 0.370112 -0.928961 0.00691679
28.3423 52.0686 23.3819 0.371328 -0.928489 0.0048901
28.5498 52.1588 24.8539 0.372441 -0.928048 0.00376554
28.6551 52.2058 26.0447 0.372698 -0.927946 0.00350162
28.796 52.2676 27.3865 0.373364 -0.927674 0.00445927
28.9637 52.3406 28.534 0.375086 -0.926984 0.00329631
29.0281 52.3707 29.6984 0.375775 -0.926706 0.00293001
29.0466 52.3824 30.9494 0.376837 -0.926275 0.00299682
29.0383 52.3828 32.2332 0.37754 -0.92599 0.00235517
29.0202 52.3789 33.441 0.37827 -0.925692 0.00258941
28.961 52.358 34.6771 0.379231 -0.925299 0.00248302
28.8688 52.3237 35.9642 0.379766 -0.92508 0.00218714
28.7377 52.2724 37.0881 0.379957 -0.925001 0.00218621
28.6419 52.2357 38.2465 0.380803 -0.924654 0.00205622
28.4812 52.1725 39.5236 0.381157 -0.924508 0.00209254
28.2491 52.0792 40.6732 0.381918 -0.924194 0.00195885
28.0301 51.9912 41.8283 0.382097 -0.92412 0.00186943
27.7275 51.8682 42.9404 0.382513 -0.923949 0.00156436
27.3805 51.7266 44.2187 0.382648 -0.923893 0.0013643
27.0711 51.6 45.4466 0.383068 -0.923719 0.00109519
26.5785 51.3967 46.5162 0.383337 -0.923608 0.00117853
25.5007 50.9495 46.8317 0.383249 -0.923645 0.000255157
24.4458 50.5119 46.2457 0.382883 -0.923797 0.000143632
23.4109 50.0832 45.8739 0.382657 -0.923891 -0.000137229
22.009 49.5034 45.2962 0.382078 -0.92413 -0.000606642
20.9228 49.0551 44.7221 0.381433 -0.924396 -0.000924577
19.8449 48.6106 44.3639 0.381399 -0.924409 -0.00146728
18.7628 48.1652 43.8346 0.381218 -0.924484 -0.00141563
17.624 47.6967 43.3268 0.38124 -0.924475 -0.00152277
16.6032 47.2768 42.8515 0.381075 -0.924542 -0.00199336
15.4142 46.7877 42.3601 0.38112 -0.924524 -0.00193222
14.2302 46.3003 41.842 0.381481 -0.924375 -0.001898
13.579 46.0337 40.8912 0.382124 -0.924109 -0.00202774
13.9489 46.1908 39.5968 0.382278 -0.924042 -0.00308868
14.245 46.3177 38.4618 0.382004 -0.924152 -0.00410158
14.4433 46.4065 37.3534 0.382335 -0.924001 -0.00652519
14.6298 46.4927 36.2339 0.381785 -0.92422 -0.00758492
14.7983 46.5747 34.9488 0.380119 -0.924887 -0.00973451
14.9511 46.6529 33.5779 0.378516 -0.925521 -0.0116789
14.8677 46.6333 32.4487 0.378064 -0.925684 -0.0132188
14.9408 46.6868 31.0417 0.375622 -0.926642 -0.015507
14.8863 46.6904 29.7233 0.370869 -0.928497 -0.0187059
14.7301 46.6542 28.4761 0.369923 -0.928816 -0.0213376
14.5463 46.6122 27.264 0.364695 -0.930803 -0.0244666
14.2341 46.5251 25.8939 0.361972 -0.931878 -0.0240877
13.9637 46.4646 24.4508 0.357616 -0.933432 -0.0285677
13.4488 46.3184 23.0454 0.349233 -0.93635 -0.035815
13.0784 46.2354 21.7092 0.334254 -0.941848 -0.0345894
12.5228 46.0757 20.6903 0.331679 -0.942786 -0.0337525
11.987 45.9378 19.4544 0.322463 -0.94589 -0.0361977
11.3483 45.757 18.5101 0.314426 -0.948529 -0.0377978
10.7389 45.6184 17.3001 0.298393 -0.953531 -0.0415719
10.0216 45.4517 16.2472 0.280153 -0.958655 -0.0491677
9.35647 45.3064 15.2849 0.269314 -0.962093 -0.0429846
8.62039 45.1428 14.4084 0.25164 -0.965975 -0.0565848
7.88182 45.0097 13.5275 0.228497 -0.972367 -0.0473793
7.01876 44.8545 12.6801 0.20444 -0.97817 -0.037263
6.04128 44.6922 11.7821 0.197846 -0.979351 -0.041576
5.06299 44.5515 10.9693 0.171113 -0.984781 -0.0304283
4.10025 44.4134 10.2477 0.156435 -0.987172 -0.0315649
2.9975 44.2625 9.51375 0.144941 -0.989102 -0.0248559
1.79677 44.1087 8.74696 0.140073 -0.989955 -0.0191828
0.605947 43.9641 8.15142 0.129465 -0.991559 -0.00646838
-0.468247 43.8236 7.60145 0.13622 -0.990669 -0.00423459
-1.59657 43.6716 7.14749 0.139713 -0.990175 0.00574804
-2.62643 43.5185 6.6915 0.147263 -0.989095 0.00183715
-3.72057 43.3441 6.32971 0.165643 -0.986179 0.00276981
-4.88201 43.1424 6.01977 0.175985 -0.984358 0.00832388
-5.98362 42.9351 5.74954 0.187091 -0.982288 0.0103573
-7.23125 42.6634 5.44242 0.21913 -0.97556 0.0162617
-8.40755 42.383 5.26142 0.239923 -0.970781 0.00395569
-9.56126 42.0772 5.17382 0.27841 -0.960445 0.00251579
-10.6656 41.7611 5.02603 0.297401 -0.954625 -0.00591415
-11.7521 41.4182 5.0408 0.307434 -0.951363 -0.0198225
-12.8685 41.0492 5.01294 0.318245 -0.9476 -0.0278079
-14.025 40.6376 5.15532 0.339331 -0.939719 -0.0422264
-15.2323 40.1972 5.10037 0.353031 -0.934338 -0.0488015
-16.4703 39.6935 5.42719 0.369653 -0.925822 -0.0787431
-17.5129 39.2651 5.61405 0.370632 -0.924606 -0.0874471
-18.5367 38.8298 5.83991 0.375526 -0.92141 -0.0998597
-19.718 38.3054 6.25358 0.377947 -0.918798 -0.113366
-21.0615 37.6873 6.76402 0.367833 -0.920889 -0.129087
-22.0803 37.2133 7.22121 0.377582 -0.91638 -0.132955
-22.9995 36.759 7.76494 0.371977 -0.916888 -0.144738
-23.9803 36.2966 8.19689 0.364758 -0.919401 -0.147152
-24.869 35.8387 8.83011 0.364713 -0.918304 -0.153952
-25.7935 35.3578 9.50585 0.358885 -0.919722 -0.1591
-26.6903 34.8848 10.2126 0.356564 -0.919878 -0.163329
-27.7091 34.3427 11.0631 0.353496 -0.920755 -0.165069
-28.523 33.9062 11.7748 0.350576 -0.92214 -0.163562
-29.2801 33.4686 12.6217 0.348996 -0.922735 -0.16359
-30.0177 33.0512 13.4078 0.347833 -0.923147 -0.163741
-30.6509 32.6463 14.3547 0.345678 -0.923984 -0.163582
-31.3481 32.2387 15.1919 0.345199 -0.924387 -0.162318
-31.95 31.8396 16.1918 0.344331 -0.924903 -0.161216
-32.5193 31.4662 17.1211 0.34455 -0.925043 -0.159942
-32.94 31.136 18.1256 0.34445 -0.925104 -0.159805
-33.5094 30.7584 19.0859 0.344401 -0.925204 -0.159326
-33.8272 30.4448 20.2239 0.344652 -0.925247 -0.158536
-34.8686 29.9278 20.9765 0.344666 -0.925193 -0.15882
-35.9652 29.6192 20.3946 0.344595 -0.925206 -0.158899
-37.2608 29.2232 19.8911 0.34451 -0.925222 -0.158988
-38.3751 28.8809 19.4681 0.344566 -0.925218 -0.158892
-39.4532 28.5752 18.9103 0.344494 -0.925244 -0.158895
-40.7443 28.1705 18.4678 0.344456 -0.925274 -0.158802
-41.7673 27.8698 18.0001 0.34449 -0.925283 -0.158676
-42.7681 27.6027 17.3845 0.344638 -0.92524 -0.158604
-43.9051 27.2049 17.2351 0.34469 -0.925248 -0.158447
-44.9313 26.9128 16.7073 0.344856 -0.925226 -0.158214
-46.1253 26.5765 16.0693 0.345262 -0.925115 -0.157979
-47.2197 26.209 15.8287 0.345492 -0.925085 -0.157651
-47.7699 26.144 15.0042 0.345969 -0.924885 -0.157776
-47.3968 26.4974 13.7548 0.34608 -0.924715 -0.15853
-46.8998 26.8797 12.6123 0.345967 -0.924656 -0.159114
-46.4797 27.2184 11.5619 0.346448 -0.924337 -0.159921
-45.8931 27.6684 10.2339 0.34579 -0.924434 -0.160782
-45.2672 28.0818 9.20397 0.345874 -0.924274 -0.161518
-44.7309 28.4827 8.06224 0.345234 -0.924352 -0.162438
-44.1 28.8762 7.16802 0.34484 -0.924347 -0.163307
-43.4355 29.3089 6.12385 0.344458 -0.924275 -0.164512
-42.8286 29.7057 5.16247 0.34357 -0.924614 -0.164462
-42.2124 30.0895 4.29215 0.343146 -0.92475 -0.164587
-41.4989 30.5082 3.42747 0.341411 -0.92531 -0.165045
-40.743 30.9549 2.48464 0.340778 -0.925627 -0.164576
-40.0369 31.3643 1.63926 0.338969 -0.926399 -0.163969
-39.2002 31.8073 0.862177 0.338616 -0.926651 -0.16327
-38.4394 32.2326 0.017666 0.33678 -0.927445 -0.162555
-37.559 32.6831 -0.737502 0.334425 -0.928635 -0.160612
-36.4898 33.2172 -1.60891 0.331612 -0.929764 -0.159911
-35.4035 33.7664 -2.5791 0.327229 -0.931776 -0.15721
-34.3908 34.258 -3.39457 0.325404 -0.93309 -0.15314
-33.3154 34.7277 -3.99078 0.325215 -0.933802 -0.149157
-32.2215 35.2329 -4.80593 0.32136 -0.93579 -0.144997
-31.1853 35.6844 -5.44817 0.315131 -0.938258 -0.142685
-30.057 36.1381 -5.96374 0.314773 -0.939282 -0.136629
-29.0139 36.5686 -6.55621 0.311721 -0.9411 -0.130999
-27.8344 37.0353 -7.11622 0.306963 -0.943159 -0.127301
-26.3289 37.5946 -7.67518 0.304024 -0.944892 -0.121442
-25.0614 38.0549 -8.13847 0.297536 -0.947934 -0.113549
-24.0302 38.4215 -8.53661 0.292442 -0.950468 -0.105298
-22.9524 38.7833 -8.85305 0.291782 -0.952014 -0.0923749
-21.7644 39.1734 -9.14395 0.290393 -0.952725 -0.0893741
-20.5674 39.5579 -9.45311 0.282777 -0.955563 -0.0832898
-19.1722 39.9902 -9.7525 0.274412 -0.958709 -0.0745764
-18.0267 40.3265 -9.85813 0.277144 -0.95846 -0.0673766
-16.898 40.6663 -10.131 0.268352 -0.961351 -0.0614355
-15.747 40.9803 -10.1742 0.253751 -0.965451 -0.0592799
-14.4799 41.3127 -10.3249 0.249073 -0.967428 -0.0452242
-13.2713 41.6197 -10.4026 0.239209 -0.970118 -0.040613
-11.9822 41.9215 -10.2841 0.228843 -0.972858 -0.0342788
-10.8384 42.1791 -10.282 0.212372 -0.976661 -0.032099
-9.53415 42.4474 -10.2327 0.19489 -0.980421 -0.0278039
-8.26109 42.6863 -10.1951 0.177086 -0.983879 -0.0249308
-7.11053 42.8772 -10.0612 0.15461 -0.987761 -0.0205686
-5.89732 43.0528 -9.92784 0.135475 -0.990754 -0.00575719
-4.67866 43.2127 -9.74607 0.123681 -0.992279 -0.00262565
-3.55019 43.3315 -9.5772 0.0997847 -0.994817 0.019527
-2.36771 43.4367 -9.47402 0.076856 -0.99686 0.0187174
-1.0443 43.5257 -9.36428 0.0442178 -0.998274 0.0363943
0.107732 43.5893 -9.16249 0.0323723 -0.998537 0.0433092
1.338 43.6409 -8.71622 0.0161282 -0.996165 0.0859997
2.52675 43.6974 -8.38814 0.026971 -0.996292 0.0815862
3.72479 43.7511 -8.04583 0.0115066 -0.996498 0.0828122
4.89134 43.7862 -7.68061 -0.00659518 -0.993807 0.110926
6.21752 43.808 -7.33029 -0.0210582 -0.990638 0.134838
7.68783 43.8586 -6.91464 0.000346716 -0.988214 0.153077
8.36127 43.8809 -6.65479 -0.0200219 -0.98561 0.167352
24.9152 50.705 42.7157 0.381806 -0.924242 0.000605017
23.7622 50.2286 42.5374 0.381616 -0.924321 0.000132102
22.4572 49.6901 42.3351 0.381526 -0.924358 -0.000332824
22.3335 49.639 42.3159 0.381316 -0.924444 -0.000646739
25.2269 50.8332 41.8199 0.381991 -0.924166 0.000712481
24.1055 50.3702 41.6473 0.381563 -0.924343 0.000188961
22.9805 49.9062 41.4727 0.380745 -0.92468 -0.000631571
21.7068 49.3816 41.2769 0.380917 -0.924609 -0.000961776
20.5497 48.9055 41.101 0.380462 -0.924796 -0.00124
19.434 48.447 40.9322 0.380223 -0.924893 -0.00179751
18.8215 48.1951 40.8387 0.380597 -0.924739 -0.0020701
16.9802 47.4408 39.6177 0.380498 -0.924775 -0.00363252
18.1347 47.9154 39.7947 0.38032 -0.92485 -0.0029481
19.2832 48.387 39.9709 0.379949 -0.925005 -0.00232309
20.5973 48.9267 40.1694 0.38013 -0.924932 -0.00143348
21.9025 49.4632 40.3657 0.380382 -0.924829 -0.000923324
23.1627 49.9816 40.5571 0.380802 -0.924657 -0.000213711
24.2994 50.4499 40.7323 0.38141 -0.924406 0.00045024
25.4129 50.9091 40.9044 0.381454 -0.924388 0.000817331
25.7348 51.0409 40.0098 0.381094 -0.924536 0.000965702
24.547 50.5516 39.8251 0.380468 -0.924794 0.000291123
23.1432 49.9741 39.6111 0.380258 -0.92488 -0.000667622
22.0292 49.5163 39.4436 0.379732 -0.925096 -0.00125449
20.7765 49.0021 39.2585 0.380122 -0.924934 -0.00194896
19.4109 48.4419 39.0525 0.379873 -0.925035 -0.00276809
18.2607 47.9701 38.8767 0.37982 -0.925054 -0.00332282
17.1475 47.5132 38.7065 0.380498 -0.924775 -0.00363254
17.034 47.4665 38.6889 0.380436 -0.924798 -0.00402913
16.9471 47.4353 37.7412 0.380108 -0.924931 -0.00442349
18.0985 47.9074 37.9142 0.379387 -0.925226 -0.0046496
19.4472 48.4597 38.1202 0.379551 -0.925165 -0.00322404
20.693 48.97 38.3073 0.379277 -0.92528 -0.0023947
21.818 49.4309 38.4725 0.379586 -0.925155 -0.00179274
23.0114 49.9205 38.6488 0.379637 -0.925135 -0.00107622
24.1434 50.3853 38.8187 0.380049 -0.924966 -7.1643e-05
25.31 50.8652 38.9983 0.380383 -0.924829 0.000361762
25.7776 51.0577 39.0696 0.380902 -0.924615 0.000793759
25.8093 51.07 38.1265 0.380408 -0.924818 0.000721848
24.6212 50.5817 37.9482 0.379811 -0.925064 -9.52845e-05
23.3922 50.0775 37.7637 0.379438 -0.925217 -0.000741033
22.0077 49.5105 37.563 0.37927 -0.925284 -0.00183173
20.6434 48.9522 37.361 0.378888 -0.92544 -0.00217068
19.4829 48.4776 37.1874 0.378929 -0.925418 -0.0037715
18.3169 48.0011 37.0141 0.3789 -0.925427 -0.00437902
17.429 47.6379 36.8805 0.3797 -0.925093 -0.0055884
17.3456 47.6098 35.936 0.378874 -0.92543 -0.00580405
18.6785 48.1535 36.1357 0.377896 -0.925832 -0.00549452
19.8095 48.615 36.3 0.378453 -0.92561 -0.00436536
20.971 49.089 36.4707 0.378152 -0.92574 -0.00266588
22.1102 49.5543 36.639 0.378457 -0.925617 -0.00183863
23.2868 50.0355 36.8063 0.378719 -0.925511 -0.0012785
24.487 50.5269 36.9822 0.379348 -0.925254 -0.000482475
25.9731 51.1367 37.2025 0.379916 -0.925021 0.000853915
26.1589 51.213 37.2301 0.379918 -0.92502 0.000858598
26.2196 51.2373 36.2888 0.379502 -0.92519 0.000970841
24.7663 50.6418 36.0776 0.37905 -0.925376 -0.000524093
23.6301 50.1771 35.9132 0.378523 -0.925591 -0.00151004
22.3206 49.6424 35.729 0.377985 -0.92581 -0.00193864
20.9274 49.0745 35.5272 0.377855 -0.925858 -0.00348108
19.7723 48.6043 35.3602 0.376951 -0.92622 -0.00499465
18.3082 48.0081 35.1471 0.378073 -0.92576 -0.00547397
17.5916 47.717 35.0429 0.377462 -0.926 -0.00685607
17.8803 47.8415 34.1574 0.376504 -0.926384 -0.00754662
19.0747 48.326 34.3291 0.376815 -0.926266 -0.00652035
20.5436 48.9221 34.5379 0.377045 -0.926184 -0.00442834
21.9186 49.4814 34.7327 0.377464 -0.92602 -0.00302062
23.3346 50.0581 34.9302 0.377945 -0.925827 -0.00148457
24.5452 50.5522 35.0992 0.37793 -0.925834 -0.000929768
26.1645 51.2145 35.3264 0.378797 -0.92548 -0.000171453
26.2146 51.235 35.3333 0.378798 -0.925479 -0.00016941
26.1462 51.2066 34.3681 0.378196 -0.925726 -2.74613e-05
24.6478 50.5951 34.1671 0.377556 -0.925986 -0.00107354
23.5281 50.1389 34.0164 0.377551 -0.925987 -0.00187
22.3059 49.6418 33.8487 0.376676 -0.92634 -0.00307553
20.9537 49.0934 33.6605 0.375995 -0.926608 -0.00498616
19.649 48.5648 33.4789 0.37586 -0.926655 -0.00635984
18.4201 48.0676 33.307 0.376199 -0.92651 -0.00730749
17.9184 47.8645 33.237 0.375552 -0.926755 -0.00923505
17.5535 47.7265 32.2517 0.373977 -0.927378 -0.010548
18.6839 48.1818 32.4156 0.374514 -0.927186 -0.00807547
19.8394 48.6483 32.5761 0.375033 -0.92699 -0.0062545
21.1562 49.1803 32.7555 0.375581 -0.926779 -0.00451045
22.324 49.6527 32.9149 0.375626 -0.926765 -0.00334313
23.6715 50.1991 33.092 0.376104 -0.926575 -0.00219202
25.2801 50.8534 33.3011 0.377221 -0.926123 -0.000547993
26.2246 51.2379 33.421 0.377553 -0.925988 0.000632351
26.496 51.348 32.5015 0.376921 -0.926245 0.000756485
25.3253 50.8721 32.3574 0.376324 -0.926488 -0.00061922
23.9158 50.3002 32.1805 0.37556 -0.926797 -0.00168561
22.7826 49.8415 32.0385 0.375124 -0.92697 -0.00278614
21.3626 49.2679 31.8503 0.374426 -0.927244 -0.00482435
20.0912 48.7561 31.6783 0.374025 -0.927395 -0.00662131
18.5967 48.1554 31.4747 0.373853 -0.927438 -0.00964488
17.6212 47.764 31.3416 0.373111 -0.927734 -0.00989548
17.6334 47.7795 30.42 0.371804 -0.928245 -0.0111085
19.1723 48.3948 30.6221 0.372876 -0.927844 -0.00825992
20.552 48.9475 30.8075 0.373137 -0.927753 -0.00652538
22.02 49.5372 31.0034 0.373692 -0.927544 -0.00404778
23.4459 50.1123 31.1805 0.374682 -0.92715 -0.00248946
24.6422 50.5959 31.3245 0.375144 -0.926966 -0.0014398
25.9147 51.1114 31.4769 0.375877 -0.92667 -4.61343e-05
26.5021 51.3497 31.5464 0.376652 -0.926354 0.00111386
26.3764 51.2979 30.5767 0.375839 -0.926685 0.000737264
25.0052 50.7435 30.4182 0.374904 -0.927064 -0.000549205
23.762 50.2421 30.2746 0.374344 -0.927288 -0.00185113
22.4383 49.7094 30.1183 0.373403 -0.927664 -0.0031795
21.1489 49.1925 29.9534 0.371766 -0.928311 -0.00531951
19.9195 48.7016 29.792 0.371831 -0.928265 -0.00807355
18.5215 48.1444 29.6125 0.37146 -0.928396 -0.0098819
17.6692 47.8059 29.5044 0.370837 -0.928606 -0.0130403
17.5197 47.7594 28.5686 0.367497 -0.929929 -0.0133427
18.6778 48.2166 28.7108 0.370007 -0.928965 -0.0108772
19.8621 48.6865 28.8551 0.36935 -0.929256 -0.00800162
21.0452 49.1569 29.0058 0.371026 -0.928606 -0.00547704
22.2861 49.6522 29.1612 0.372275 -0.928114 -0.00409604
23.5734 50.1682 29.3088 0.372936 -0.927854 -0.00227355
24.9607 50.7263 29.4622 0.37359 -0.927594 -0.000867889
26.1401 51.202 29.5916 0.374306 -0.927305 0.000407488
26.0547 51.1666 28.6178 0.373504 -0.927629 0.000557727
24.9321 50.7157 28.5095 0.37315 -0.927771 -0.000444941
23.7747 50.2508 28.3866 0.372111 -0.928187 -0.00175882
22.4288 49.7132 28.2385 0.37028 -0.928912 -0.00380267
21.2685 49.252 28.0997 0.369768 -0.929104 -0.00608687
19.7243 48.6404 27.914 0.368444 -0.929608 -0.00887686
18.4729 48.1475 27.7661 0.367339 -0.930018 -0.0112923
17.3455 47.7045 27.6228 0.365921 -0.930531 -0.0146604
17.155 47.6445 26.6766 0.364759 -0.930976 -0.0153497
18.7688 48.2747 26.8768 0.365509 -0.930741 -0.0111203
19.9774 48.7482 27.017 0.367834 -0.929866 -0.00696972
21.1359 49.2053 27.15 0.36766 -0.929935 -0.00690371
22.2598 49.6507 27.2792 0.369187 -0.929341 -0.00510213
23.6775 50.2142 27.4333 0.37031 -0.928906 -0.00187038
24.927 50.7138 27.5558 0.371716 -0.928346 -0.000526663
25.8682 51.0913 27.6433 0.372097 -0.928193 0.00133023
25.8325 51.0759 26.6831 0.371429 -0.92846 0.00169186
24.6998 50.6226 26.5828 0.370094 -0.928994 -0.000616055
23.2008 50.0269 26.4416 0.368694 -0.929549 -0.00178911
21.6874 49.4286 26.2801 0.367323 -0.93008 -0.0049115
20.4977 48.9606 26.1491 0.365033 -0.930967 -0.00721394
19.3695 48.5193 26.0242 0.364262 -0.931261 -0.00813815
17.9812 47.9791 25.859 0.362477 -0.931894 -0.0135452
17.0086 47.6033 25.7486 0.361847 -0.932122 -0.0146989
16.7404 47.5172 24.7982 0.359584 -0.932929 -0.0185221
17.9636 47.9854 24.9416 0.360858 -0.932556 -0.0110101
19.3693 48.5285 25.098 0.362058 -0.932099 -0.0102956
20.7182 49.0541 25.2439 0.364607 -0.931143 -0.00595706
21.9368 49.5311 25.3708 0.366456 -0.930428 -0.00370311
23.2128 50.0335 25.5014 0.367284 -0.930107 -0.00175065
24.4759 50.5341 25.6175 0.368935 -0.929455 -0.00107907
25.6197 50.9894 25.7072 0.370525 -0.928822 0.00144791
25.9266 51.1118 25.7304 0.370808 -0.928708 0.00175352
25.753 51.0409 24.7678 0.37002 -0.929021 0.00229956
24.4289 50.5153 24.6654 0.368261 -0.929723 0.000264071
23.2909 50.0665 24.5669 0.365871 -0.930664 -0.00145146
22.0051 49.5617 24.4408 0.365714 -0.930722 -0.00317375
20.7329 49.0652 24.3104 0.362743 -0.93187 -0.00598596
19.3622 48.5351 24.1711 0.361219 -0.932436 -0.00917637
17.9399 47.9895 24.0192 0.35822 -0.933556 -0.012305
16.6409 47.4967 23.8802 0.355607 -0.934465 -0.0178643
16.4142 47.4277 22.9424 0.350853 -0.936242 -0.0187686
17.847 47.9677 23.0923 0.354659 -0.934934 -0.0107344
18.9986 48.4045 23.2056 0.356788 -0.934137 -0.00953407
20.2424 48.8813 23.3285 0.359792 -0.933012 -0.00618686
21.4801 49.3604 23.4511 0.362959 -0.931799 -0.00336598
22.6542 49.8179 23.5633 0.36382 -0.931469 -0.000456647
23.7991 50.2666 23.6673 0.365212 -0.930924 -0.000443303
25.2524 50.84 23.7751 0.367775 -0.929912 0.00227587
25.5555 50.9599 23.794 0.368238 -0.929728 0.00246406
25.2808 50.8487 22.8307 0.367159 -0.930154 0.00284494
23.9192 50.3123 22.7269 0.364955 -0.931024 0.00129657
22.6323 49.8099 22.617 0.363723 -0.931507 -0.000649678
21.4234 49.3408 22.5061 0.360751 -0.932659 -0.00242733
20.0704 48.8224 22.3813 0.356982 -0.934091 -0.0061838
18.8942 48.3745 22.2697 0.354783 -0.934911 -0.00833509
17.5799 47.8794 22.1424 0.351594 -0.936051 -0.0138163
16.3587 47.4266 22.0171 0.348431 -0.937137 -0.019225
15.8895 47.2533 21.9686 0.34516 -0.938318 -0.0205893
15.8086 47.2437 21.0433 0.34524 -0.938293 -0.0203649
16.9861 47.6724 21.1616 0.347287 -0.937633 -0.0153283
18.24 48.1379 21.2793 0.350434 -0.936529 -0.0104729
19.4457 48.5902 21.3903 0.352215 -0.935902 -0.00573705
20.8297 49.1156 21.5134 0.357378 -0.933957 -0.00221538
22.3186 49.6882 21.6438 0.360666 -0.932695 0.000560658
23.4919 50.1444 21.7418 0.363434 -0.931619 0.00128192
24.7793 50.6476 21.8425 0.365729 -0.930714 0.00357375
24.8905 50.6913 21.8496 0.365871 -0.930659 0.00352729
25.0048 50.7311 20.8956 0.364689 -0.931113 0.00555287
23.8357 50.2757 20.8158 0.361731 -0.932266 0.00553148
22.264 49.6664 20.6946 0.359299 -0.933222 0.00104792
20.703 49.0701 20.564 0.356599 -0.934256 -0.00176456
19.3479 48.559 20.4479 0.352678 -0.935727 -0.00574736
17.9829 48.0517 20.3268 0.346586 -0.937983 -0.00814474
16.7938 47.6167 20.2164 0.341467 -0.939798 -0.0134124
15.5806 47.1786 20.0964 0.339448 -0.940455 -0.0178771
15.2608 47.0645 20.0635 0.336196 -0.941585 -0.0197347
14.9468 46.9733 19.1112 0.331349 -0.94338 -0.0155233
16.3217 47.4598 19.2435 0.338476 -0.940856 -0.0149585
17.5409 47.8989 19.356 0.344876 -0.938612 -0.00830349
18.8886 48.3934 19.4722 0.347759 -0.937574 -0.00437599
20.0925 48.842 19.573 0.350121 -0.936704 -0.000516066
21.5227 49.3822 19.688 0.355717 -0.934592 0.00183961
22.6695 49.8202 19.7768 0.358844 -0.933392 0.00326199
24.0276 50.3446 19.8713 0.36103 -0.932537 0.00560803
24.7427 50.6235 19.9178 0.363312 -0.931637 0.00754346
24.4337 50.4953 18.9507 0.361707 -0.932254 0.00839492
23.0053 49.9442 18.8513 0.357694 -0.933814 0.00674108
21.8483 49.5022 18.7674 0.354727 -0.934954 0.00546616
20.5439 49.0114 18.6683 0.350813 -0.936433 0.00488749
19.334 48.5613 18.5721 0.346113 -0.938186 0.00365047
18.1756 48.1374 18.4773 0.341929 -0.939726 0.000348609
16.9107 47.6808 18.3688 0.336999 -0.94145 -0.0102068
15.5349 47.1927 18.2441 0.330743 -0.943653 -0.0112963
14.6337 46.881 18.1597 0.325991 -0.945155 -0.0202906
13.7449 46.5952 17.1643 0.316799 -0.948337 -0.0171769
15.0058 47.0228 17.2713 0.325304 -0.945503 -0.0141836
16.3098 47.4738 17.3843 0.33 -0.94397 -0.00445606
17.6952 47.9653 17.5021 0.336814 -0.941571 0.000959341
19.1846 48.5044 17.621 0.342182 -0.939627 0.00352441
20.3636 48.9395 17.7118 0.34831 -0.937363 0.00547699
21.5474 49.3831 17.7991 0.35037 -0.936581 0.00757163
23.0393 49.9488 17.9059 0.356435 -0.934275 0.00916195
24.0457 50.3356 17.9721 0.359781 -0.932987 0.00967818
23.2717 50.0272 16.9684 0.355915 -0.93443 0.0128454
22.0959 49.5805 16.8832 0.352544 -0.935714 0.0123665
20.8685 49.1211 16.8022 0.349095 -0.937049 0.00850654
19.7284 48.6989 16.7217 0.344095 -0.938908 0.00709924
18.4828 48.2463 16.6267 0.339814 -0.940478 0.00529004
16.9508 47.7019 16.5047 0.330489 -0.943809 -0.00134645
15.4827 47.1926 16.3856 0.3249 -0.945722 -0.00706796
14.132 46.7384 16.2741 0.318176 -0.947981 -0.00977868
13.6425 46.5782 16.2363 0.30798 -0.951269 -0.0153571
12.7093 46.2971 15.2584 0.302026 -0.95307 -0.0209114
13.9013 46.6758 15.3416 0.307521 -0.951534 -0.00386607
15.3981 47.1669 15.4523 0.318792 -0.947822 -0.00212579
16.67 47.6016 15.5475 0.329213 -0.944249 0.00360131
18.1959 48.1387 15.6635 0.332217 -0.94318 0.00660293
19.345 48.5505 15.7498 0.339202 -0.940648 0.0111353
20.7476 49.0648 15.8476 0.347034 -0.937772 0.012296
21.9273 49.505 15.9225 0.350733 -0.936368 0.014186
23.1434 49.9656 15.9977 0.356944 -0.934023 0.0138743
22.8202 49.8254 15.0271 0.354575 -0.934886 0.0163008
21.4848 49.3239 14.9442 0.349789 -0.936663 0.0175941
20.2349 48.8623 14.8621 0.342516 -0.939373 0.0161878
18.8376 48.3567 14.7652 0.334598 -0.942238 0.015185
17.6765 47.9458 14.6819 0.330224 -0.943856 0.00934794
16.5198 47.5459 14.6029 0.327081 -0.94498 0.00550661
15.2251 47.1107 14.5119 0.31419 -0.94936 -0.000863709
13.8092 46.6528 14.416 0.300688 -0.953722 -0.00130082
12.5498 46.2597 14.3325 0.292722 -0.956125 -0.0118047
11.9735 46.0875 14.2994 0.288406 -0.957398 -0.0145536
11.2263 45.885 13.3349 0.26703 -0.963578 -0.0145791
12.5406 46.266 13.4132 0.285238 -0.958456 -0.000861044
13.7016 46.6212 13.4861 0.299606 -0.954056 -0.00364508
15.1061 47.0662 13.5755 0.304491 -0.952482 0.00799514
16.3099 47.464 13.6528 0.314452 -0.94921 0.0109569
17.4682 47.8605 13.7272 0.326566 -0.945086 0.0128822
18.8375 48.3414 13.8183 0.333402 -0.942676 0.0143131
20.2329 48.8448 13.9113 0.3427 -0.939221 0.0205064
21.3958 49.2728 13.9871 0.345402 -0.938222 0.0208949
22.4206 49.6553 14.0506 0.351181 -0.936106 0.0194107
21.8098 49.4044 13.0611 0.347125 -0.937523 0.0235633
20.508 48.9238 12.976 0.342551 -0.939155 0.0254267
18.9599 48.3657 12.8778 0.333185 -0.942665 0.0192711
17.6958 47.9228 12.7986 0.324801 -0.945622 0.017448
16.4984 47.5151 12.7288 0.319625 -0.947472 0.0117248
15.0991 47.0551 12.6458 0.304941 -0.952274 0.01364
13.3979 46.526 12.5437 0.290043 -0.957014 -0.000307249
12.0864 46.1347 12.4648 0.280583 -0.959829 -0.00138712
10.5583 45.717 12.3915 0.256994 -0.966365 -0.00967399
10.5334 45.7103 12.3905 0.259328 -0.965702 -0.0129968
9.75933 45.5202 11.4487 0.240504 -0.970612 -0.00832524
11.4354 45.9582 11.5184 0.262782 -0.964805 0.00989916
12.6995 46.3124 11.5827 0.279023 -0.960157 0.0156099
13.8806 46.6627 11.6491 0.288846 -0.957322 0.0101493
15.1841 47.0677 11.72 0.298516 -0.954174 0.0209831
16.5248 47.504 11.7915 0.313891 -0.949258 0.0195392
17.8596 47.9563 11.8628 0.325272 -0.945341 0.0229843
19.124 48.398 11.9366 0.334093 -0.942188 0.025775
20.4739 48.8857 12.0189 0.341506 -0.939501 0.026667
21.3953 49.2243 12.0731 0.345851 -0.937887 0.0274945
20.7597 48.9589 11.0797 0.342924 -0.93882 0.031928
19.5349 48.5155 11.0064 0.338291 -0.940405 0.0346019
18.3807 48.1084 10.9447 0.325875 -0.944927 0.0302936
16.9369 47.6156 10.8754 0.318881 -0.947447 0.0256925
15.6191 47.1828 10.8076 0.302621 -0.952754 0.0261041
14.4488 46.819 10.7528 0.293702 -0.955724 0.0182061
12.7534 46.3128 10.6657 0.275823 -0.961021 0.0189825
11.3984 45.9402 10.6009 0.253301 -0.967328 0.0107032
10.2194 45.633 10.5475 0.241046 -0.970468 0.00941513
8.7959 45.2974 10.5098 0.218059 -0.975934 -0.00179976
8.01115 45.1317 9.57227 0.198105 -0.980179 0.00162586
9.30109 45.4092 9.60869 0.223734 -0.974639 0.00473908
10.7941 45.771 9.66109 0.249853 -0.968183 0.0139893
11.9878 46.0845 9.71287 0.256317 -0.966375 0.0205332
13.2665 46.4424 9.77297 0.270591 -0.962277 0.0283405
14.8918 46.9304 9.84427 0.295565 -0.954983 0.0254664
16.3528 47.3914 9.90922 0.303788 -0.951966 0.0384016
17.5447 47.7882 9.96379 0.319394 -0.947003 0.034245
18.7723 48.2099 10.0193 0.328587 -0.943696 0.0383098
20.2155 48.7257 10.0926 0.33836 -0.940315 0.0363345
20.676 48.8932 10.1189 0.344965 -0.937881 0.0371177
19.5691 48.4526 9.11337 0.332444 -0.94205 0.0449839
18.355 48.0253 9.05643 0.325225 -0.944701 0.0420511
17.1355 47.6108 9.00659 0.315632 -0.947843 0.0443911
15.8035 47.1795 8.94964 0.298669 -0.953305 0.0447798
14.4746 46.7681 8.89865 0.287594 -0.957131 0.0344989
13.2214 46.4023 8.85156 0.270902 -0.961827 0.0387554
12.0089 46.0673 8.801 0.257081 -0.965794 0.0339353
10.83 45.7598 8.75187 0.241346 -0.97017 0.0228375
9.55793 45.4606 8.70795 0.217247 -0.976078 0.0087126
8.18239 45.1624 8.66091 0.19964 -0.979779 0.0133013
6.90924 44.915 8.61032 0.179867 -0.983673 0.00591636
5.52769 44.6759 7.62434 0.158556 -0.987329 0.00645138
6.9489 44.9167 7.69292 0.175392 -0.984491 0.00386922
8.17865 45.1479 7.75547 0.195849 -0.980394 0.0217097
9.45265 45.4168 7.7993 0.214946 -0.976114 0.0316073
10.7232 45.7104 7.84081 0.235226 -0.971362 0.0335384
12.2326 46.0959 7.90151 0.249933 -0.967634 0.0348963
13.5081 46.4477 7.94873 0.277465 -0.95973 0.0439563
15.1463 46.9334 7.99117 0.291984 -0.954755 0.0564669
16.3502 47.3113 8.03583 0.304325 -0.951666 0.0414592
17.5971 47.7205 8.08579 0.314444 -0.947996 0.049286
18.9986 48.2053 8.14058 0.330567 -0.942251 0.0537459
19.0152 48.2112 8.14133 0.330568 -0.942251 0.0537462
18.2395 47.8865 7.16433 0.322572 -0.945042 0.0533115
16.8707 47.4246 7.12473 0.3104 -0.949045 0.05445
15.399 46.9557 7.07235 0.289864 -0.955296 0.0582114
14.1052 46.5694 7.03854 0.281381 -0.958072 0.0540603
12.9244 46.238 7.01442 0.260531 -0.964167 0.0500648
11.4191 45.8472 6.95725 0.237463 -0.970524 0.0411691
9.99204 45.5073 6.90965 0.217956 -0.975274 0.036554
8.72853 45.2356 6.86235 0.196589 -0.979994 0.0310572
7.19216 44.9489 6.79225 0.174682 -0.9844 0.0210534
5.94994 44.7374 6.72119 0.159719 -0.987092 0.0117633
4.57028 44.5241 6.63969 0.146194 -0.98925 0.00336669
3.6061 44.3857 6.5785 0.141544 -0.989924 -0.00402947
1.42184 44.0884 5.51321 0.134732 -0.990879 -0.00235931
2.78795 44.273 5.60184 0.134746 -0.99088 0.000787482
4.05378 44.4464 5.67726 0.139244 -0.990248 0.00437135
5.3795 44.6391 5.76346 0.148613 -0.988793 0.0142645
7.04571 44.9033 5.8757 0.166643 -0.985876 0.0166835
8.48789 45.163 5.94508 0.185811 -0.982206 0.0273022
9.77959 45.4263 5.98754 0.205566 -0.977782 0.0410561
11.2523 45.7611 6.04161 0.232367 -0.971113 0.0542612
12.5044 46.0755 6.0861 0.25046 -0.966382 0.0581058
14.0791 46.505 6.12261 0.265288 -0.962057 0.0637903
15.3237 46.8759 6.14783 0.291341 -0.954762 0.0595767
16.6136 47.2814 6.18296 0.300226 -0.951567 0.066216
17.6263 47.6172 6.20835 0.321158 -0.944768 0.0653458
16.767 47.2623 5.25539 0.304089 -0.949938 0.0717545
15.0513 46.7226 5.22574 0.292309 -0.953309 0.0758735
13.7379 46.3465 5.20448 0.263355 -0.961831 0.0743333
12.0145 45.8944 5.16424 0.240634 -0.968642 0.0618691
10.8222 45.6104 5.12562 0.219056 -0.974139 0.0553778
9.42035 45.3093 5.06188 0.202229 -0.978037 0.0504613
8.13513 45.0645 5.01219 0.172374 -0.984355 0.0364977
6.64689 44.8153 4.92794 0.157258 -0.987121 0.0293437
5.27473 44.6078 4.83027 0.141052 -0.989794 0.020295
4.02854 44.4371 4.74634 0.133982 -0.990925 0.0107782
2.63115 44.2501 4.65161 0.130197 -0.99148 0.00410075
1.38681 44.0839 4.5729 0.133113 -0.9911 0.00111841
-0.0134357 43.894 4.4698 0.136076 -0.990698 0.000447925
-0.789597 43.7866 4.41602 0.139618 -0.990203 -0.00197343
-43.9626 27.7197 14.1095 0.345329 -0.924895 -0.159114
-42.858 28.0533 14.5654 0.344908 -0.925072 -0.158995
-41.763 28.3838 15.017 0.344811 -0.925088 -0.159112
-40.3822 28.8004 15.5854 0.344634 -0.925144 -0.159174
-39.2028 29.1565 16.0702 0.344762 -0.925105 -0.159121
-37.9193 29.5443 16.5969 0.344852 -0.925042 -0.159291
-36.6852 29.9171 17.1027 0.344663 -0.925104 -0.159343
-36.5008 29.9728 17.1783 0.344663 -0.925104 -0.159343
-35.3317 30.4929 16.6884 0.344708 -0.925066 -0.159467
-36.5191 30.1341 16.2024 0.344744 -0.925067 -0.159381
-37.6293 29.7984 15.7488 0.344799 -0.925064 -0.159279
-38.8272 29.4362 15.2581 0.344857 -0.925056 -0.159199
-39.9727 29.0904 14.787 0.344706 -0.925086 -0.159354
-41.2637 28.7008 14.2567 0.344688 -0.925102 -0.159301
-42.3015 28.3875 13.8293 0.344825 -0.925038 -0.159373
-43.4489 28.0411 13.3563 0.3451 -0.924953 -0.159273
-43.6843 27.9701 13.2589 0.345099 -0.924953 -0.159276
-43.472 28.2005 12.3824 0.345017 -0.924884 -0.159851
-42.3865 28.5282 12.83 0.344889 -0.924957 -0.15971
-41.1612 28.8981 13.3337 0.344914 -0.92492 -0.159864
-40.1059 29.2169 13.7656 0.344751 -0.925044 -0.159503
-39.0138 29.5466 14.2146 0.344851 -0.924962 -0.159761
-37.9648 29.8635 14.6447 0.344899 -0.925006 -0.159398
-36.8106 30.2127 15.1167 0.344875 -0.924978 -0.159614
-35.7513 30.5333 15.5476 0.344955 -0.924941 -0.159657
-35.1569 30.713 15.7912 0.344984 -0.924907 -0.159793
-34.6211 31.0427 15.0413 0.345197 -0.924739 -0.1603
-35.6843 30.7208 14.6079 0.345333 -0.924753 -0.159931
-36.9348 30.3418 14.0998 0.345155 -0.92488 -0.159574
