-10.9901 55.8009 -12.5918 0.0558455 -0.978881 -0.193598
-9.9728 55.9374 -13.187 0.00272831 -0.984855 -0.171404
-9.10768 55.9892 -13.6151 -0.0297567 -0.988552 -0.146492
-7.79081 55.969 -13.9556 -0.0715993 -0.990472 -0.115134
-6.70176 55.8881 -14.1016 -0.0891072 -0.991334 -0.0964846
-5.33352 55.7726 -14.2147 -0.104061 -0.991132 -0.0799543
-5.78792 55.9003 -15.3798 -0.116472 -0.991184 -0.0631513
-6.20363 56.0242 -16.2631 -0.128283 -0.988219 -0.0834616
-6.82696 56.2295 -17.6405 -0.14815 -0.985261 -0.0855175
-7.51672 56.4528 -18.9117 -0.151773 -0.983574 -0.0977046
-8.10459 56.6653 -19.998 -0.162803 -0.979956 -0.114807
-8.58175 56.8505 -20.9025 -0.17028 -0.978338 -0.117446
-9.00775 57.0347 -21.7595 -0.17864 -0.976383 -0.121505
-9.51006 57.2578 -22.7632 -0.193733 -0.971679 -0.135307
-9.9908 57.4698 -23.6171 -0.200548 -0.970802 -0.131488
-10.5536 57.7244 -24.5914 -0.205069 -0.969025 -0.137581
-10.9969 57.9653 -25.5196 -0.226785 -0.960885 -0.15896
-11.3902 58.2016 -26.3865 -0.219198 -0.962433 -0.160041
-11.741 58.4463 -27.2917 -0.230162 -0.958534 -0.168022
-12.332 58.7863 -28.3353 -0.243803 -0.953014 -0.179789
-12.8603 59.1409 -29.4343 -0.258819 -0.945185 -0.199094
-13.2094 59.4382 -30.3921 -0.253678 -0.946497 -0.199406
-13.5637 59.7378 -31.2877 -0.267494 -0.939968 -0.211911
-14.0487 60.0598 -32.0755 -0.283445 -0.928183 -0.241111
-14.7828 60.4318 -32.6446 -0.278429 -0.929596 -0.241455
-15.8868 60.901 -33.1169 -0.286392 -0.919527 -0.269165
-16.8703 61.3215 -33.4986 -0.293367 -0.909143 -0.295626
-17.9156 61.7965 -33.8824 -0.308569 -0.90355 -0.297292
-19.1507 62.4235 -34.3801 -0.336132 -0.883718 -0.325666
-20.0366 62.8788 -34.7227 -0.32608 -0.866886 -0.376065
-21.4596 63.6444 -35.154 -0.337243 -0.853924 -0.39633
-22.4729 63.9632 -34.9167 -0.365346 -0.820233 -0.440159
-22.8205 63.5898 -33.9325 -0.341325 -0.834139 -0.433254
-22.9968 63.1301 -32.8862 -0.282942 -0.856918 -0.430855
-23.1409 62.6472 -31.8388 -0.254407 -0.870101 -0.422139
-23.1219 62.2177 -30.9418 -0.219105 -0.87755 -0.426497
-23.0276 61.7751 -30.0427 -0.176315 -0.90665 -0.383274
-22.94 61.319 -28.9934 -0.176179 -0.910885 -0.37316
-22.7821 60.8864 -28.0335 -0.145562 -0.909601 -0.38915
-22.4545 60.3752 -26.8558 -0.13052 -0.925254 -0.356026
-22.0834 59.9111 -25.7061 -0.0750493 -0.931432 -0.356093
-21.7288 59.514 -24.6988 -0.0637064 -0.938238 -0.340076
-21.4329 59.1786 -23.8287 -0.059757 -0.939678 -0.336758
-21.1162 58.8169 -22.8612 -0.0535424 -0.938835 -0.3401
-20.678 58.42 -21.8207 -0.0408176 -0.941855 -0.333531
-20.1664 58.0551 -20.8426 -0.041946 -0.945319 -0.322836
-19.758 57.7106 -19.9149 -0.0297632 -0.939396 -0.341502
-19.4917 57.3724 -19.0144 0.00478655 -0.942113 -0.335262
-19.0567 56.9024 -17.6343 0.0150912 -0.950973 -0.308906
-18.7251 56.6116 -16.7702 0.0248104 -0.943859 -0.329415
-18.1463 56.2226 -15.5318 0.0775836 -0.944542 -0.317767
-17.7174 55.9465 -14.6034 0.0564642 -0.930868 -0.360966
-17.2202 55.6696 -13.7743 0.0999842 -0.938468 -0.330577
-16.3534 55.2836 -12.415 0.100022 -0.938631 -0.330102
-15.6349 54.9914 -11.2811 0.118325 -0.948321 -0.294425
-15.0989 54.7858 -10.446 0.153869 -0.937739 -0.310508
-14.383 54.496 -9.09867 0.170177 -0.938254 -0.300975
-13.82 54.4315 -8.48674 0.184725 -0.950196 -0.249897
-12.9068 54.9492 -9.88517 0.156606 -0.953577 -0.257225
-12.3324 55.312 -11.01 0.104708 -0.961627 -0.253594
-11.6063 55.6121 -11.9465 0.0702736 -0.974403 -0.213544
-11.2238 55.731 -12.3634 0.0779432 -0.97413 -0.211976
-10.4906 55.6627 -11.7487 0.0558455 -0.978881 -0.193598
-9.66915 55.7758 -12.2475 0.0583223 -0.984792 -0.163404
-8.51476 55.8677 -12.9152 -0.029757 -0.988552 -0.146492
-7.13061 55.8146 -13.0949 -0.0504805 -0.992088 -0.112758
-5.91391 55.7315 -13.0603 -0.0772551 -0.995127 -0.0612628
-4.84005 55.6363 -12.8992 -0.0831505 -0.994586 -0.0623254
-3.80393 55.5491 -13.2088 -0.110689 -0.992816 -0.0454357
-4.27866 55.6652 -14.5387 -0.110894 -0.99259 -0.0496689
-4.65719 55.7698 -15.4907 -0.130087 -0.98951 -0.0628278
-5.27793 55.9403 -16.8464 -0.141131 -0.988027 -0.0623247
-5.74376 56.0797 -17.8638 -0.156041 -0.984056 -0.085351
-6.31717 56.25 -18.8137 -0.16377 -0.983145 -0.0810283
-6.82125 56.4138 -19.71 -0.169206 -0.981577 -0.0886423
-7.59916 56.6987 -21.1535 -0.183908 -0.977848 -0.0999539
-8.02543 56.8748 -22.0409 -0.200258 -0.972975 -0.114965
-8.45844 57.0689 -22.929 -0.200214 -0.972938 -0.115354
-8.98828 57.3147 -24.0039 -0.210797 -0.969733 -0.123218
-9.48678 57.535 -24.8401 -0.215296 -0.966723 -0.137739
-10.0952 57.8305 -25.9909 -0.215769 -0.964783 -0.14972
-10.7042 58.1883 -27.276 -0.232371 -0.958442 -0.165323
-11.0935 58.4455 -28.2116 -0.248799 -0.955029 -0.161284
-11.5366 58.7148 -29.039 -0.24403 -0.95314 -0.178811
-11.9932 59.0226 -29.9997 -0.2615 -0.945504 -0.193921
-12.3991 59.3596 -31.1203 -0.264185 -0.945823 -0.188749
-12.8111 59.7094 -32.1358 -0.277682 -0.937504 -0.209708
-13.389 60.0746 -32.9371 -0.291221 -0.928932 -0.228633
-14.1448 60.4352 -33.4444 -0.289712 -0.92933 -0.22894
-15.4572 61.0155 -34.0097 -0.297304 -0.921421 -0.250186
-16.5509 61.5109 -34.4332 -0.314753 -0.910751 -0.267327
-17.4301 61.9345 -34.7658 -0.325817 -0.892645 -0.311167
-18.614 62.5367 -35.2411 -0.337848 -0.87985 -0.334117
-19.4075 62.9749 -35.5751 -0.352229 -0.868091 -0.349404
-20.6483 63.6563 -35.9674 -0.370188 -0.847069 -0.380137
-21.5209 64.1843 -36.2195 -0.384429 -0.831917 -0.400147
-22.7531 64.8051 -36.2344 -0.416399 -0.793899 -0.443099
-23.4605 64.4534 -35.0293 -0.385617 -0.786538 -0.482346
-23.7371 63.9928 -33.9865 -0.324425 -0.830619 -0.451859
-23.9691 63.4347 -32.8535 -0.295231 -0.842009 -0.450659
-24.1076 62.9019 -31.7849 -0.236357 -0.858791 -0.454426
-24.1005 62.4009 -30.8159 -0.227233 -0.870848 -0.435654
-23.9569 61.6653 -29.3453 -0.159863 -0.880385 -0.446187
-23.8291 61.1819 -28.3377 -0.11078 -0.905919 -0.408703
-23.7033 60.7729 -27.465 -0.0989931 -0.910241 -0.401819
-23.4451 60.3691 -26.5873 -0.0871649 -0.914474 -0.395144
-23.1111 59.9728 -25.6445 -0.0810719 -0.93062 -0.356894
-22.7998 59.6162 -24.78 -0.0637164 -0.938246 -0.340052
-22.5046 59.2837 -23.9222 -0.0297972 -0.934408 -0.354957
-22.2023 58.8996 -22.9321 -0.0334749 -0.936101 -0.350108
-21.8063 58.5052 -21.926 -0.0370469 -0.936258 -0.349342
-21.3919 58.1827 -21.0903 -0.0311157 -0.938066 -0.345056
-20.8636 57.771 -19.9895 -0.0287689 -0.941124 -0.336836
-20.5491 57.3839 -18.9595 -0.00817362 -0.93341 -0.357787
-20.2373 57.0188 -18.0288 0.0198046 -0.923269 -0.383309
-19.9225 56.6453 -17.0163 0.0706825 -0.934578 -0.348665
-19.4142 56.2228 -15.7687 0.0735792 -0.937204 -0.340932
-18.8903 55.9527 -14.9 0.0958404 -0.940623 -0.324167
-18.4548 55.6123 -13.913 0.11202 -0.921716 -0.371335
-17.7736 55.2662 -12.8452 0.121787 -0.925797 -0.357573
-17.323 55.0158 -12.0075 0.133385 -0.927551 -0.349081
-16.5744 54.6953 -10.837 0.162422 -0.929033 -0.332442
-16.0334 54.4624 -9.93261 0.153869 -0.937739 -0.310508
-15.484 54.169 -8.73278 0.174176 -0.934303 -0.311031
-15.0452 53.9505 -7.68733 0.197492 -0.946466 -0.255341
-14.5932 53.7522 -6.52511 0.223191 -0.949195 -0.221353
-14.2466 53.598 -5.46197 0.248123 -0.95 -0.189567
-13.4725 53.7988 -5.49364 0.236296 -0.952964 -0.1898
-13.1908 54.0541 -6.40751 0.23755 -0.951822 -0.19392
-12.9353 54.3133 -7.4187 0.167864 -0.956948 -0.236711
-12.6093 54.6372 -8.48074 0.16308 -0.957103 -0.239487
-12.0276 54.9545 -9.40759 0.143031 -0.959858 -0.240909
-11.584 55.244 -10.3294 0.122397 -0.966702 -0.224693
-10.9314 55.525 -11.2909 0.0869031 -0.97567 -0.201058
-10.8376 55.5549 -11.391 0.0856125 -0.973858 -0.210409
-10.1557 55.4799 -10.7037 0.0793005 -0.978454 -0.190412
-10.7381 55.2537 -9.93444 0.116987 -0.966441 -0.228706
-11.1938 55.0064 -9.0607 0.163864 -0.961613 -0.220111
-11.7421 54.6822 -8.05395 0.180906 -0.953816 -0.238437
-11.9145 54.4174 -6.97013 0.184569 -0.969422 -0.161726
-12.2655 54.1936 -6.09546 0.233492 -0.960114 -0.153825
-12.6329 53.9466 -5.14963 0.227533 -0.959719 -0.164786
-12.9466 53.7175 -4.2341 0.259563 -0.952395 -0.159906
-13.3494 53.4666 -3.34934 0.345898 -0.928559 -0.132339
-14.1584 53.1517 -3.1733 0.270855 -0.939817 -0.20356
-14.8048 53.1067 -3.86595 0.275491 -0.942066 -0.191354
-15.0986 53.2263 -4.8211 0.268853 -0.938602 -0.216206
-15.4697 53.3578 -5.80338 0.250891 -0.935867 -0.2474
-15.7691 53.554 -6.87722 0.224542 -0.934163 -0.277344
-16.1305 53.809 -8.02929 0.225944 -0.933924 -0.277013
-16.8802 54.0733 -9.2833 0.196002 -0.929595 -0.312147
-17.5654 54.3801 -10.4402 0.167543 -0.923536 -0.344679
-18.1113 54.6173 -11.2804 0.135702 -0.921868 -0.362965
-18.7556 55.0704 -12.6504 0.130339 -0.919133 -0.37176
-19.3783 55.3763 -13.5937 0.104623 -0.918244 -0.381723
-19.7787 55.6893 -14.4825 0.0975076 -0.922216 -0.374147
-20.3533 55.9573 -15.2789 0.0945763 -0.920903 -0.378144
-20.9268 56.4586 -16.6804 0.0410976 -0.932114 -0.359825
-21.2719 56.8725 -17.7563 0.025102 -0.917372 -0.397238
-21.5383 57.2846 -18.7485 0.00978347 -0.928163 -0.372003
-21.8394 57.6862 -19.7518 0.00598916 -0.931594 -0.363452
-22.1816 58.014 -20.5994 0.0100401 -0.932195 -0.361817
-22.6619 58.3407 -21.4171 0.0078413 -0.925527 -0.378599
-23.154 58.771 -22.5045 -0.0298186 -0.936946 -0.3482
-23.4754 59.1943 -23.6054 -0.0305907 -0.934254 -0.355293
-23.739 59.5759 -24.5846 -0.0313585 -0.934117 -0.355586
-24.1945 60.0652 -25.6776 -0.0410153 -0.917903 -0.39468
-24.6922 60.7483 -27.1422 -0.110819 -0.906006 -0.408499
-24.8205 61.2434 -28.2053 -0.130557 -0.895725 -0.424144
-24.9246 61.7347 -29.1593 -0.150714 -0.880361 -0.449581
-25.0769 62.225 -30.0602 -0.162819 -0.888001 -0.43005
-25.1497 62.8383 -31.1536 -0.18174 -0.851521 -0.491815
-25.0741 63.3211 -32.0678 -0.252721 -0.836084 -0.485756
-24.8982 63.8911 -33.0796 -0.281081 -0.824849 -0.490049
-24.6393 64.3196 -33.9533 -0.333874 -0.787913 -0.517418
-24.4162 64.9194 -35.0435 -0.339763 -0.795912 -0.501084
-23.9643 65.3543 -36.133 -0.41777 -0.773531 -0.474652
-23.2876 65.53 -36.9827 -0.436505 -0.746588 -0.502065
-22.2903 65.1173 -37.2725 -0.433647 -0.804906 -0.405063
-20.966 64.3742 -37.1694 -0.406281 -0.817491 -0.408221
-19.9461 63.7357 -36.8303 -0.388417 -0.835883 -0.387855
-19.0758 63.2219 -36.5061 -0.363714 -0.858232 -0.362146
-17.9277 62.5666 -36.0339 -0.353882 -0.876027 -0.327634
-17.0214 62.0961 -35.7014 -0.337313 -0.887923 -0.312483
-16.0852 61.6279 -35.329 -0.337279 -0.897141 -0.285274
-15.1946 61.1983 -34.9487 -0.30945 -0.913871 -0.262833
-14.3642 60.8103 -34.5744 -0.306084 -0.920651 -0.242309
-13.3583 60.3558 -34.1199 -0.307572 -0.920292 -0.24179
-12.5678 60.0019 -33.6966 -0.294212 -0.928866 -0.225051
-11.8946 59.5656 -32.7111 -0.284712 -0.936091 -0.206452
-11.5828 59.2531 -31.7259 -0.291272 -0.934589 -0.204216
-11.0175 58.8098 -30.3085 -0.266964 -0.945065 -0.18863
-10.5449 58.5008 -29.3403 -0.259461 -0.949891 -0.174315
-9.95729 58.1316 -28.1057 -0.248795 -0.95503 -0.161283
-9.53458 57.8558 -27.0232 -0.243146 -0.958724 -0.147408
-9.00536 57.6181 -26.2508 -0.228369 -0.964998 -0.128943
-8.50672 57.3673 -25.2814 -0.219058 -0.967369 -0.126853
-7.96718 57.1277 -24.3054 -0.223027 -0.967552 -0.118751
-7.44633 56.8763 -23.0865 -0.219081 -0.970071 -0.104717
-6.9292 56.6664 -22.0597 -0.209869 -0.973569 -0.0901075
-6.12164 56.3778 -20.6397 -0.19671 -0.977498 -0.0761815
-5.74088 56.2303 -19.7392 -0.163771 -0.983145 -0.0810225
-4.98283 56.0164 -18.6731 -0.185025 -0.980522 -0.0658904
-4.42844 55.8582 -17.5509 -0.164275 -0.985381 -0.0451539
-4.03452 55.7485 -16.6709 -0.135952 -0.98939 -0.0486032
-3.66256 55.6488 -15.7565 -0.151661 -0.987264 -0.0480456
-3.16813 55.5453 -14.7335 -0.141881 -0.989419 -0.0303142
-2.50795 55.4244 -13.3144 -0.101849 -0.994332 -0.0305203
-2.11864 55.3579 -12.3922 -0.0866632 -0.996211 -0.00731762
-1.14846 55.2742 -11.6763 -0.0744538 -0.997215 -0.00435954
-0.344613 55.2253 -10.8824 -0.0673266 -0.997605 0.0150341
0.415691 55.189 -10.202 -0.0602877 -0.997389 0.0397616
-0.191897 55.2348 -9.70568 -0.0589761 -0.998099 0.0173508
-1.09398 55.2702 -10.2227 -0.0404177 -0.999024 -0.00167301
-2.39325 55.3531 -10.8641 -0.0623009 -0.997804 -0.0180944
-3.30132 55.4395 -11.3832 -0.0990316 -0.994297 -0.039578
-4.36177 55.5254 -11.7509 -0.0425112 -0.998293 -0.0400372
-5.31616 55.6249 -12.0641 -0.0815162 -0.99508 -0.0563054
-6.49856 55.6978 -12.1363 -0.0495982 -0.993956 -0.0979411
-7.49189 55.746 -12.1577 0.00897053 -0.99583 -0.0737797
-8.67027 55.7161 -11.8025 -0.00462688 -0.991578 -0.12943
-9.5028 55.619 -11.2352 0.0702826 -0.982943 -0.169805
-9.96511 55.5383 -10.9356 0.0604722 -0.981271 -0.182492
-6.56876 56.0011 -15.4289 -0.123472 -0.988844 -0.0833169
-7.3408 55.9987 -14.6664 -0.0865647 -0.99159 -0.0962084
-6.90885 56.1185 -16.3398 -0.118662 -0.989445 -0.0831766
-7.83819 56.1313 -15.4176 -0.095072 -0.98892 -0.114008
-8.75129 56.1005 -14.5224 -0.0549833 -0.989136 -0.136331
-9.1872 56.0618 -14.096 -0.0231609 -0.989153 -0.14505
-7.2422 56.2521 -17.2529 -0.131377 -0.985335 -0.108878
-8.14719 56.2719 -16.352 -0.107592 -0.986373 -0.124467
-9.26959 56.2302 -15.2548 -0.0664063 -0.990039 -0.124146
-10.0968 56.1352 -14.4502 -0.0231285 -0.988855 -0.147073
-10.9412 55.9949 -13.6379 0.0252766 -0.982884 -0.182482
-11.977 55.7421 -12.6547 0.061509 -0.968017 -0.243228
-12.857 55.4703 -11.8267 0.0997511 -0.962068 -0.25392
-13.7942 55.1315 -10.9537 0.130029 -0.947598 -0.291804
-14.206 54.9575 -10.572 0.13011 -0.950056 -0.283663
-14.7527 55.1004 -11.2776 0.118324 -0.948321 -0.294427
-13.8081 55.4634 -12.1554 0.0898427 -0.957864 -0.272809
-12.7436 55.8171 -13.1468 0.0529491 -0.968254 -0.244295
-11.8165 56.0574 -14.0244 0.0094156 -0.98282 -0.184325
-10.9142 56.2253 -14.8897 -0.0390657 -0.984411 -0.17149
-9.95976 56.3503 -15.8134 -0.0500303 -0.986676 -0.154817
-8.79085 56.4178 -16.9524 -0.107595 -0.986373 -0.124464
-7.97146 56.4063 -17.7687 -0.126822 -0.985938 -0.108821
-7.81271 56.4026 -17.9267 -0.139775 -0.9854 -0.0972058
-8.26715 56.5536 -18.7173 -0.159566 -0.982084 -0.100247
-9.05882 56.5697 -17.9255 -0.116032 -0.984918 -0.128351
-9.90492 56.5258 -17.0948 -0.0705034 -0.986038 -0.150861
-10.8974 56.4406 -16.1297 -0.0390651 -0.98441 -0.171494
-11.7566 56.3318 -15.2991 -0.0221282 -0.980353 -0.196007
-12.5802 56.157 -14.5137 0.0026978 -0.975578 -0.219638
-13.4778 55.9157 -13.669 0.0443855 -0.96842 -0.245343
-14.4159 55.6049 -12.7952 0.0812827 -0.952985 -0.291913
-14.9277 55.4187 -12.3244 0.0942623 -0.946231 -0.309452
-15.5885 55.5474 -12.9194 0.0942608 -0.946232 -0.309451
-14.6148 55.9049 -13.8135 0.0575023 -0.958169 -0.280368
-13.7855 56.1463 -14.5891 0.0400738 -0.9654 -0.257675
-12.5441 56.4377 -15.7631 0.0059291 -0.973709 -0.22772
-11.6387 56.5737 -16.6346 -0.0550479 -0.978221 -0.200135
-10.8348 56.653 -17.4164 -0.0779162 -0.983445 -0.163603
-9.64833 56.7177 -18.5812 -0.0999758 -0.986792 -0.127462
-8.91041 56.7192 -19.316 -0.161185 -0.981049 -0.107531
-9.37396 56.8945 -20.088 -0.177761 -0.976719 -0.120085
-10.4131 56.8752 -19.0584 -0.120108 -0.978625 -0.166932
-11.5446 56.7986 -17.9508 -0.0875893 -0.980196 -0.177603
-12.3704 56.7197 -17.1471 -0.0411531 -0.978979 -0.199767
-13.4448 56.522 -16.1223 0.00340406 -0.971633 -0.23647
-14.2844 56.3249 -15.3296 0.0231017 -0.963912 -0.265217
-15.3445 56.0157 -14.3416 0.0574982 -0.958168 -0.280371
-16.2058 55.6997 -13.553 0.0835915 -0.944382 -0.318048
-16.7812 55.8746 -14.2236 0.0835893 -0.944382 -0.318051
-15.8637 56.2014 -15.0639 0.0672264 -0.953534 -0.293691
-14.7193 56.5251 -16.1307 0.0205499 -0.967283 -0.252868
-13.6633 56.763 -17.126 -0.0244983 -0.974079 -0.224878
-12.4632 56.9529 -18.2748 -0.0738527 -0.978093 -0.194628
-11.1906 57.0461 -19.5188 -0.108317 -0.979871 -0.167693
-10.2739 57.0745 -20.4242 -0.14344 -0.980808 -0.132067
-9.54491 57.0576 -21.1551 -0.178507 -0.976369 -0.121813
-9.97377 57.2387 -21.9622 -0.178813 -0.974119 -0.138271
-11.0784 57.2582 -20.8552 -0.145757 -0.978011 -0.149165
-12.0581 57.2103 -19.8912 -0.118983 -0.976247 -0.181066
-13.2569 57.0911 -18.7282 -0.0789919 -0.970253 -0.228844
-14.4654 56.8812 -17.5785 -0.0445533 -0.964102 -0.261768
-15.6035 56.6126 -16.511 -0.00228388 -0.962547 -0.271106
-16.4712 56.3689 -15.7049 0.0400863 -0.95289 -0.300655
-17.2781 56.0901 -14.9654 0.0392816 -0.949142 -0.312388
-17.6882 56.3435 -15.7865 0.0400867 -0.95289 -0.300655
-16.5449 56.7062 -16.8353 0.0185257 -0.95992 -0.279663
-15.5573 56.9658 -17.7517 -0.00159929 -0.961282 -0.275563
-14.3608 57.2091 -18.878 -0.0529324 -0.970418 -0.235557
-13.5166 57.3258 -19.6876 -0.0887275 -0.977686 -0.190416
-12.2923 57.4226 -20.8817 -0.124164 -0.978073 -0.167204
-11.311 57.4453 -21.8549 -0.145757 -0.978011 -0.149165
-10.4394 57.4278 -22.7297 -0.16385 -0.976327 -0.141201
-10.7425 57.6256 -23.6558 -0.174487 -0.971813 -0.158538
-11.73 57.6422 -22.6648 -0.167642 -0.970245 -0.174703
-13.1788 57.5962 -21.2323 -0.145385 -0.970718 -0.191233
-14.152 57.5061 -20.2885 -0.10289 -0.974517 -0.199323
-15.4073 57.3273 -19.0883 -0.0607852 -0.965476 -0.253301
-16.3265 57.1134 -18.2328 -0.0159554 -0.957939 -0.286529
-17.4278 56.8005 -17.2212 0.0229503 -0.951787 -0.305901
-18.044 56.6075 -16.6561 0.0350252 -0.952079 -0.303839
-17.9048 57.0306 -17.9726 0.0150911 -0.950973 -0.308907
-16.7566 57.351 -19.0276 -0.0183209 -0.963028 -0.268777
-15.7188 57.5704 -19.9979 -0.0551515 -0.973451 -0.222152
-14.7822 57.6966 -20.8946 -0.104878 -0.97183 -0.21106
-13.8792 57.7964 -21.7615 -0.106843 -0.968999 -0.222766
-12.488 57.8569 -23.1295 -0.167642 -0.970245 -0.174703
-11.2402 57.8338 -24.3842 -0.176066 -0.971505 -0.158679
-11.8015 58.0667 -25.0396 -0.202096 -0.963567 -0.175205
-13.2445 58.0715 -23.5958 -0.185113 -0.967181 -0.174053
-14.5511 57.9985 -22.3184 -0.120033 -0.970868 -0.207381
-15.5575 57.8942 -21.3514 -0.0986779 -0.966008 -0.238939
-16.6834 57.715 -20.285 -0.0786006 -0.967478 -0.240434
-17.9831 57.4043 -19.0826 -0.0166235 -0.950444 -0.310451
-18.6838 57.5934 -19.6238 -0.016626 -0.950443 -0.310453
-17.3954 57.8966 -20.8134 -0.043327 -0.953937 -0.296863
-16.5303 58.0444 -21.6272 -0.0781115 -0.965096 -0.249976
-15.4603 58.1902 -22.6444 -0.118436 -0.963841 -0.238711
-14.3929 58.283 -23.6754 -0.162469 -0.963159 -0.21431
-13.2145 58.3092 -24.8409 -0.185771 -0.964324 -0.188595
-12.1532 58.2891 -25.9079 -0.211614 -0.963982 -0.161117
-12.0338 58.2831 -26.0292 -0.211613 -0.963982 -0.161119
-12.5119 58.5295 -26.7671 -0.223722 -0.957076 -0.184266
-13.3195 58.553 -25.9497 -0.197141 -0.959432 -0.201559
-14.3057 58.5446 -24.9694 -0.190717 -0.961705 -0.196853
-15.2279 58.5123 -24.0618 -0.158829 -0.961959 -0.222281
-16.1584 58.4173 -23.169 -0.135325 -0.958485 -0.250987
-16.9717 58.3022 -22.3997 -0.102673 -0.958246 -0.266876
-17.9939 58.1243 -21.4414 -0.069128 -0.958965 -0.274969
-19.1826 57.8371 -20.3484 -0.0519197 -0.949765 -0.308626
-19.4897 58.1466 -21.245 -0.0552174 -0.949505 -0.308855
-18.5595 58.3542 -22.1009 -0.0774428 -0.954026 -0.289546
-17.3638 58.571 -23.2153 -0.109017 -0.956908 -0.269152
-16.5266 58.6887 -24.007 -0.137934 -0.960885 -0.240155
-15.5509 58.7707 -24.9493 -0.158828 -0.961958 -0.222286
-14.7325 58.7971 -25.755 -0.177517 -0.961136 -0.211438
-13.7669 58.8036 -26.7156 -0.198637 -0.95986 -0.198022
-12.7797 58.7801 -27.7128 -0.228183 -0.954689 -0.191053
-12.6662 58.7761 -27.8282 -0.236004 -0.953896 -0.185429
-13.1151 59.0346 -28.5896 -0.243918 -0.953077 -0.179299
-14.0649 59.065 -27.6269 -0.21316 -0.956042 -0.20136
-14.8694 59.0613 -26.825 -0.21027 -0.952714 -0.219371
-16.0905 59.0204 -25.6234 -0.179086 -0.96069 -0.21214
-17.329 58.9189 -24.4275 -0.136245 -0.954016 -0.267002
-18.5295 58.736 -23.3008 -0.100532 -0.952328 -0.288036
-19.7013 58.496 -22.2203 -0.0767232 -0.944737 -0.318726
-19.7823 58.4757 -22.1468 -0.0671469 -0.940419 -0.333323
-20.4856 58.7117 -22.671 -0.0767225 -0.944737 -0.318726
-19.26 58.9668 -23.797 -0.102746 -0.943052 -0.31638
-17.9817 59.1695 -24.99 -0.136247 -0.954015 -0.267006
-16.941 59.2635 -25.9901 -0.169305 -0.951526 -0.256775
-15.8467 59.3235 -27.0558 -0.18963 -0.950619 -0.245692
-14.937 59.3373 -27.9589 -0.210272 -0.952714 -0.219366
-14.0257 59.325 -28.8739 -0.233115 -0.947123 -0.220489
-13.417 59.3029 -29.4914 -0.248537 -0.947808 -0.199725
-13.8393 59.5777 -30.27 -0.254491 -0.943518 -0.212151
-14.8431 59.6141 -29.2516 -0.232653 -0.947242 -0.220465
-16.0242 59.6058 -28.0766 -0.213528 -0.945768 -0.244805
-17.1336 59.5571 -26.9912 -0.176105 -0.953209 -0.245723
-18.166 59.475 -25.9969 -0.162474 -0.94968 -0.267789
-18.9881 59.377 -25.2201 -0.136481 -0.947118 -0.290415
-20.0624 59.1966 -24.2249 -0.105438 -0.944926 -0.309834
-20.795 59.0432 -23.5535 -0.0557939 -0.941101 -0.333491
-20.9882 59.4058 -24.5389 -0.0837087 -0.939298 -0.332735
-19.9477 59.6024 -25.4914 -0.137066 -0.944063 -0.29993
-18.9097 59.7342 -26.4677 -0.166394 -0.942762 -0.288987
-18.0922 59.8134 -27.246 -0.189783 -0.944839 -0.26695
-17.0716 59.8861 -28.2298 -0.204638 -0.944591 -0.256653
-16.2165 59.9077 -29.0727 -0.219281 -0.943678 -0.247765
-15.2899 59.9085 -29.9958 -0.246067 -0.940797 -0.233134
-14.1793 59.8751 -31.1194 -0.263949 -0.939525 -0.21823
-14.7868 60.1865 -31.6956 -0.278434 -0.92961 -0.241454
-15.663 60.2031 -30.8135 -0.250049 -0.941687 -0.225171
-16.661 60.2073 -29.817 -0.219238 -0.943421 -0.248781
-17.5436 60.184 -28.9498 -0.204638 -0.944591 -0.256653
-18.4815 60.1224 -28.045 -0.194866 -0.939223 -0.282644
-19.4071 60.0357 -27.1649 -0.170976 -0.944955 -0.278974
-20.4155 59.9029 -26.2216 -0.134385 -0.942443 -0.306174
-21.3195 59.7381 -25.3937 -0.0837084 -0.939298 -0.332736
-21.6444 60.0684 -26.2565 -0.112236 -0.94217 -0.315784
-20.8029 60.2151 -27.0262 -0.150267 -0.939926 -0.306528
-19.6085 60.3729 -28.1374 -0.178489 -0.939853 -0.291236
-18.6151 60.4578 -29.0838 -0.20644 -0.934422 -0.290237
-17.4336 60.5117 -30.2317 -0.239412 -0.934814 -0.262306
-16.3893 60.5264 -31.2639 -0.262932 -0.93016 -0.25626
-15.478 60.5149 -32.1785 -0.273416 -0.931009 -0.241797
-16.3927 60.8568 -32.4308 -0.277259 -0.919852 -0.277487
-17.3376 60.8554 -31.4894 -0.250734 -0.930803 -0.265967
-18.4258 60.8202 -30.4255 -0.239466 -0.932884 -0.26904
-19.703 60.7355 -29.2005 -0.20801 -0.933966 -0.290583
-20.5612 60.6441 -28.3939 -0.177253 -0.930099 -0.321711
-21.4673 60.5134 -27.56 -0.163413 -0.93213 -0.323156
-21.5089 60.5057 -27.5224 -0.120659 -0.927892 -0.352785
-22.1349 60.8089 -28.0944 -0.142985 -0.916234 -0.37426
-20.893 60.9926 -29.2284 -0.180681 -0.923262 -0.33903
-20.0393 61.0821 -30.028 -0.228208 -0.914645 -0.333685
-18.8689 61.1735 -31.1401 -0.25438 -0.918233 -0.303543
-17.6919 61.2001 -32.2987 -0.274107 -0.918222 -0.285892
-17.0998 61.2072 -32.8859 -0.277257 -0.919853 -0.277486
-18.1147 61.5678 -33.0259 -0.290868 -0.900949 -0.322003
-18.9598 61.546 -32.1941 -0.271214 -0.91679 -0.293154
-19.7686 61.5004 -31.4165 -0.240406 -0.920971 -0.306622
-20.6088 61.4388 -30.6162 -0.224394 -0.915581 -0.333706
-21.4957 61.3425 -29.7922 -0.197789 -0.913129 -0.356476
-22.4137 61.2055 -28.9578 -0.162809 -0.917313 -0.363359
-22.3733 61.6701 -30.0955 -0.176315 -0.90665 -0.383274
-21.4977 61.7726 -30.9046 -0.235981 -0.906997 -0.348811
-20.5397 61.8676 -31.7972 -0.276419 -0.895932 -0.347705
-19.6144 61.9329 -32.678 -0.269631 -0.895274 -0.354661
-18.6687 61.9552 -33.6094 -0.294675 -0.899502 -0.322588
-19.6658 62.3515 -33.7426 -0.311494 -0.881088 -0.355887
-20.7226 62.2933 -32.7269 -0.299879 -0.872943 -0.384764
-21.9266 62.1813 -31.601 -0.271054 -0.876056 -0.398819
-22.5442 62.1127 -31.0306 -0.251164 -0.879086 -0.405123
-22.3902 62.617 -32.243 -0.271626 -0.877199 -0.395906
-21.488 62.7098 -33.0753 -0.286067 -0.875734 -0.388915
-20.3987 62.7663 -34.1257 -0.313212 -0.880471 -0.355906
-21.2564 63.199 -34.3688 -0.338952 -0.853298 -0.396224
-22.09 63.1443 -33.5764 -0.310748 -0.850693 -0.423978
-22.2886 63.1252 -33.3922 -0.310755 -0.851096 -0.423163
