10.6527 57.8976 3.34734 0.308336 -0.950726 0.0323545
9.50932 57.5182 2.50261 0.290031 -0.956673 0.0254302
8.71451 57.2606 1.67052 0.275008 -0.961183 0.0223094
7.69796 56.9511 0.802052 0.265759 -0.963715 0.0250036
6.64459 56.6803 0.0854887 0.21891 -0.975743 0.0019008
5.76027 56.4966 -0.778408 0.18224 -0.983231 -0.00675646
5.1151 56.3898 -1.85539 0.166922 -0.985935 -0.00445326
4.51715 56.3133 -2.87525 0.135174 -0.990461 -0.0267366
3.61995 56.2321 -3.72611 0.113683 -0.99225 -0.0493907
2.75987 56.1781 -4.4239 0.0851792 -0.99478 -0.0558287
1.62883 56.1383 -5.16064 0.0652504 -0.9958 -0.0642175
0.378378 56.1084 -5.7082 0.0471681 -0.995835 -0.0780226
-0.873364 56.109 -6.31886 0.0352312 -0.99377 -0.105738
-1.93003 56.1553 -7.00384 0.0239566 -0.993364 -0.11249
-3.03687 56.2044 -7.51295 0.00334275 -0.990542 -0.137168
-4.18065 56.2937 -8.15434 -0.00386923 -0.988385 -0.151924
-5.28086 56.4059 -8.73139 -0.022488 -0.98467 -0.172969
-6.67523 56.5459 -9.23023 -0.0378901 -0.978124 -0.20433
-7.76914 56.5628 -9.16904 -0.0176171 -0.976752 -0.213518
-8.39079 56.371 -8.24941 -0.026065 -0.975131 -0.220091
-8.80436 56.1398 -7.19057 -0.0131961 -0.977725 -0.209473
-9.19866 55.9219 -6.17105 0.00835277 -0.977355 -0.211171
-9.68414 55.6794 -5.08297 0.0335053 -0.978035 -0.205729
-10.0625 55.4456 -4.00593 0.053234 -0.978879 -0.197387
-10.3957 55.2142 -2.92931 0.0732838 -0.979636 -0.186931
-10.6741 54.991 -1.8467 0.0936527 -0.977469 -0.189165
-10.8581 54.7562 -0.716382 0.0982648 -0.978516 -0.181085
-10.5956 54.5844 0.396731 0.115587 -0.980496 -0.158959
-9.86374 54.4534 1.75883 0.11701 -0.981396 -0.152217
-8.80199 54.4716 2.49617 0.116194 -0.983294 -0.140113
-7.73096 54.5214 3.06455 0.119955 -0.983944 -0.13209
-6.45189 54.6042 3.57941 0.116795 -0.98551 -0.122896
-5.28838 54.6722 4.17106 0.116033 -0.986601 -0.114685
-4.29867 54.7422 4.65663 0.123043 -0.986909 -0.104255
-3.10473 54.8611 5.1132 0.140912 -0.985317 -0.096401
-1.99282 54.9678 5.68618 0.146497 -0.985363 -0.086852
-0.597517 55.1476 6.29086 0.170905 -0.982454 -0.0746658
0.660708 55.333 6.84706 0.192238 -0.980012 -0.0511959
1.74936 55.5238 7.48898 0.210174 -0.976817 -0.0405366
2.65027 55.6975 8.26773 0.222487 -0.974442 -0.0309907
3.67286 55.9318 9.10167 0.254928 -0.966928 -0.00786514
4.62493 56.1731 10.0895 0.260824 -0.965204 -0.0178797
5.33029 56.3645 10.9572 0.283236 -0.958972 -0.0118782
6.01676 56.5599 11.949 0.29427 -0.95568 -0.00899973
6.79854 56.7922 12.9106 0.296642 -0.954942 -0.00915201
7.53497 57.0169 13.8125 0.306939 -0.95163 -0.0137324
8.22624 57.227 15.0126 0.320743 -0.947007 -0.0173784
8.96223 57.4645 15.9557 0.329386 -0.944093 -0.0139137
9.3974 57.6015 16.9325 0.333949 -0.942462 -0.0155694
9.96147 57.7892 17.8726 0.337856 -0.941095 -0.0139198
10.6352 58.016 19.0453 0.345939 -0.938096 -0.0170835
11.1835 58.1951 20.5429 0.348532 -0.937166 -0.0156387
11.5633 58.317 21.8177 0.35526 -0.934624 -0.0162514
11.9164 58.4347 22.8824 0.359485 -0.933024 -0.0153795
12.3964 58.6052 23.9219 0.362091 -0.93204 -0.0138496
12.6486 58.685 25.2595 0.365294 -0.930791 -0.0137065
12.8629 58.754 26.4136 0.367844 -0.929815 -0.0115744
13.0938 58.8299 27.6343 0.371155 -0.92849 -0.0122445
13.3034 58.8979 28.9229 0.3729 -0.927814 -0.0103042
13.401 58.9241 30.1565 0.373612 -0.927541 -0.0090284
13.4735 58.9404 31.4694 0.376038 -0.926564 -0.0086231
13.4966 58.9383 32.8112 0.377697 -0.9259 -0.00726964
13.4898 58.9262 34.0287 0.378829 -0.925441 -0.00681554
13.4354 58.8959 35.2261 0.379471 -0.925187 -0.00555839
13.3847 58.8687 36.372 0.380348 -0.924831 -0.00484198
13.1812 58.7785 37.7288 0.381358 -0.924418 -0.00411927
12.9775 58.6899 38.8586 0.381686 -0.924286 -0.00335729
12.7527 58.5927 40.1192 0.382328 -0.924022 -0.00289464
12.9344 58.6649 41.2336 0.382596 -0.923913 -0.00235094
14.0653 59.1316 41.8425 0.382298 -0.924037 -0.00204427
15.1701 59.5881 42.2991 0.382521 -0.923946 -0.00145156
16.1911 60.0103 42.7797 0.382691 -0.923876 -0.00122939
17.1891 60.4235 43.194 0.383009 -0.923744 -0.000761212
18.1913 60.8388 43.651 0.383339 -0.923607 -0.000726264
19.2818 61.2916 43.8767 0.383585 -0.923506 -5.98553e-05
19.6761 61.4551 42.8524 0.383434 -0.923568 0.00030213
19.9707 61.5771 41.7535 0.383044 -0.92373 0.000275162
20.3441 61.7312 40.2436 0.382288 -0.924043 0.000303073
20.6101 61.8406 38.9666 0.382121 -0.924112 0.000339621
21.2247 62.0944 38.0904 0.382029 -0.92415 0.000315773
20.8827 61.9528 37.0614 0.381292 -0.924454 0.000467014
20.976 61.9906 35.9431 0.38071 -0.924694 0.000181569
21.2091 62.0862 34.8383 0.380476 -0.924791 0.00030545
21.4171 62.1714 33.7182 0.379717 -0.925103 0.000309484
21.4733 62.1944 32.417 0.379025 -0.925386 -0.000187417
21.4208 62.1729 31.2636 0.378221 -0.925715 -4.10809e-06
21.4306 62.177 30.0306 0.377331 -0.926079 -0.00034621
21.4027 62.1655 28.8579 0.376221 -0.92653 0.00032562
21.3313 62.1362 27.4771 0.375769 -0.926714 -0.000176328
21.1827 62.0759 26.1414 0.374825 -0.927095 0.000333106
20.8971 61.9609 24.687 0.372912 -0.927866 0.000113807
20.7063 61.8834 23.394 0.371896 -0.928273 0.00131996
20.5119 61.8038 22.2665 0.371139 -0.928576 0.0017301
20.1504 61.6578 21.0199 0.369451 -0.929249 0.00132741
19.7597 61.4993 19.5995 0.368471 -0.929632 0.00358174
19.542 61.4086 18.5003 0.365737 -0.930711 0.00375284
19.0562 61.2125 17.3114 0.363434 -0.931601 0.00588826
18.5607 61.0116 16.1607 0.361936 -0.932172 0.00754312
18.1426 60.8412 15.1178 0.360253 -0.932819 0.00814148
17.6511 60.6402 13.9907 0.359623 -0.933021 0.0119497
17.206 60.4533 12.6923 0.356744 -0.934092 0.0143148
16.5798 60.1965 11.4775 0.352595 -0.935656 0.0148515
15.9178 59.9314 10.4568 0.346528 -0.9379 0.016165
15.2585 59.6681 9.33568 0.343477 -0.938989 0.0178881
14.6814 59.4335 8.24637 0.342504 -0.939233 0.0230403
13.928 59.1421 7.42426 0.335213 -0.94186 0.0230636
13.3264 58.9015 6.43118 0.335044 -0.941766 0.028683
12.3818 58.5447 5.43554 0.325519 -0.945192 0.0254782
11.6262 58.2603 4.53576 0.317923 -0.94765 0.0297302
10.749 57.9325 3.461 0.30883 -0.950614 0.0309339
10.7201 57.922 3.42658 0.30883 -0.950614 0.0309308
11.453 58.1363 2.68502 0.312612 -0.949338 0.0321188
12.2979 58.4559 3.64215 0.32303 -0.945773 0.0339276
13.0879 58.7632 4.63489 0.32713 -0.944397 0.0331203
13.8708 59.0641 5.44337 0.332697 -0.942615 0.028109
14.5665 59.3472 6.5736 0.339623 -0.940146 0.0279672
15.306 59.6375 7.34476 0.343763 -0.938721 0.0251096
15.8916 59.8766 8.25278 0.347271 -0.937531 0.0209231
16.3794 60.0797 9.26708 0.34739 -0.937549 0.0179372
17.0168 60.3367 10.1883 0.3536 -0.935182 0.0200409
17.601 60.5782 11.1751 0.356692 -0.934067 0.0170444
18.167 60.8182 12.4649 0.360161 -0.932767 0.0151149
18.6104 61.0053 13.5206 0.361151 -0.932425 0.0122678
19.0412 61.1846 14.5594 0.362361 -0.931981 0.0101458
19.484 61.3673 15.6882 0.363786 -0.93145 0.00775083
19.931 61.5515 16.7314 0.365678 -0.930716 0.0068201
20.4542 61.7662 18.0772 0.367448 -0.930026 0.00565664
20.813 61.9143 19.2277 0.367712 -0.929925 0.00519105
21.0305 62.006 20.4037 0.371117 -0.928578 0.00375171
21.4268 62.1687 21.6788 0.371368 -0.928483 0.00250564
21.6771 62.2723 23.0092 0.372501 -0.92803 0.00179761
21.8381 62.3388 24.1084 0.373515 -0.927623 0.00114738
22.0396 62.4215 25.3325 0.374153 -0.927367 0.000919718
22.2419 62.5043 26.4815 0.375016 -0.927018 0.000889848
22.3435 62.5467 27.6615 0.376092 -0.926582 0.00113105
22.3864 62.5652 28.8408 0.376868 -0.926267 0.000943022
22.4081 62.5757 30.2979 0.377733 -0.925914 0.000836426
22.4285 62.5849 31.4452 0.378554 -0.925579 0.000877682
22.5133 62.6207 32.6519 0.378943 -0.925419 0.00104176
22.4257 62.5857 33.9623 0.379874 -0.925038 0.000888872
22.1667 62.4805 35.2767 0.38028 -0.924871 0.000672682
22.0348 62.4274 36.4727 0.381265 -0.924465 0.00103864
22.1343 62.47 37.8355 0.381785 -0.924251 0.00108747
21.9848 62.4092 38.894 0.38213 -0.924108 0.000696777
21.5859 62.2452 40.1105 0.382483 -0.923962 0.000783678
21.1389 62.061 41.1534 0.383151 -0.923685 0.00100749
20.8847 61.9566 42.3831 0.383409 -0.923578 0.000778065
20.4881 61.7927 43.5324 0.38369 -0.923462 0.000341479
20.1578 61.6558 44.7644 0.384169 -0.923263 0.000199683
19.5193 61.3901 45.4049 0.384244 -0.923232 -0.000410101
18.4358 60.9396 44.891 0.38389 -0.923379 -0.000669799
17.4539 60.5321 44.5156 0.383302 -0.923622 -0.000953489
16.2777 60.0447 43.9902 0.383179 -0.923673 -0.00121335
15.0728 59.546 43.4186 0.382723 -0.923862 -0.00136698
13.8692 59.0483 42.8926 0.382665 -0.923885 -0.00175867
12.7784 58.5975 42.4414 0.382668 -0.923884 -0.00199729
11.7298 58.1644 41.8393 0.382773 -0.923839 -0.00230843
11.6105 58.1183 40.605 0.382637 -0.923895 -0.00279143
11.925 58.253 39.2697 0.382407 -0.923987 -0.0036888
12.0731 58.3188 38.17 0.382035 -0.92414 -0.00391817
12.3242 58.4284 37.0279 0.381776 -0.92424 -0.00518488
12.428 58.4778 35.8734 0.381069 -0.924523 -0.00655807
12.4811 58.5088 34.5865 0.379925 -0.924987 -0.00742309
12.4853 58.5202 33.4361 0.378265 -0.925661 -0.00827148
12.5344 58.5506 32.2982 0.37721 -0.926082 -0.00920546
12.4397 58.5262 30.9379 0.375563 -0.926749 -0.00938847
12.4297 58.5355 29.8098 0.374055 -0.927335 -0.0115203
12.259 58.4814 28.7076 0.371945 -0.928163 -0.0130231
12.0607 58.4182 27.5897 0.371388 -0.928378 -0.0136233
11.8312 58.3449 26.4345 0.367754 -0.92981 -0.0144935
11.6174 58.2835 25.0877 0.365214 -0.930798 -0.0152129
11.3004 58.1793 23.9053 0.361023 -0.932403 -0.0169461
10.8134 58.0162 22.5949 0.356763 -0.933999 -0.018999
10.3106 57.8556 21.2303 0.352708 -0.935503 -0.020761
9.95794 57.7468 20.1315 0.343811 -0.938852 -0.0187464
9.36433 57.5531 18.9831 0.342323 -0.939318 -0.0222814
8.76846 57.363 17.7968 0.335362 -0.94187 -0.0203154
8.10009 57.1478 16.8296 0.328159 -0.944386 -0.0211222
7.43356 56.9445 15.7222 0.319516 -0.9473 -0.0230641
6.89773 56.7901 14.7452 0.308737 -0.950909 -0.0210467
6.19771 56.5854 13.8636 0.299056 -0.953965 -0.0224062
5.40735 56.3585 12.9293 0.294028 -0.955556 -0.0214127
4.6719 56.1604 11.7954 0.274335 -0.961502 -0.0159176
3.86583 55.9479 10.9186 0.267121 -0.963453 -0.0192296
2.82917 55.7053 9.70867 0.250029 -0.968096 -0.0156308
1.83699 55.4891 8.93891 0.223961 -0.974128 -0.0300791
1.00638 55.3366 8.15031 0.215101 -0.97454 -0.0632801
-0.0278067 55.1537 7.60965 0.190904 -0.980237 -0.0511955
-1.22508 54.9637 7.23962 0.178833 -0.981013 -0.0750492
-2.30527 54.8266 6.71881 0.154649 -0.983259 -0.0961299
-3.41572 54.7123 6.17089 0.144746 -0.984859 -0.0952892
-4.56753 54.5987 5.6869 0.131214 -0.985971 -0.103116
-5.79551 54.5067 5.075 0.125174 -0.985154 -0.11749
-6.92982 54.4335 4.50572 0.121878 -0.984828 -0.123529
-8.19976 54.3413 3.98926 0.124802 -0.983947 -0.12754
-9.61247 54.2608 3.26846 0.127303 -0.98148 -0.143147
-10.7297 54.2385 2.42804 0.132446 -0.978734 -0.156647
-11.3283 54.3224 1.44498 0.118946 -0.97855 -0.168203
-11.7808 54.4421 0.445797 0.123651 -0.975911 -0.179588
-11.9258 54.6998 -0.994234 0.101678 -0.975458 -0.195184
-11.7008 54.9489 -2.10329 0.0891599 -0.976157 -0.197762
-11.3708 55.2337 -3.33586 0.0612743 -0.973694 -0.219122
-10.9984 55.4952 -4.44923 0.0349152 -0.974818 -0.220139
-10.6721 55.743 -5.48639 0.0181438 -0.972625 -0.231669
-10.1097 56.0425 -6.72681 0.00192658 -0.972048 -0.234775
-9.73582 56.304 -7.8361 -0.0208556 -0.970344 -0.240756
-9.18834 56.5833 -9.05503 -0.0354349 -0.970792 -0.237278
-8.50162 56.7859 -9.96989 -0.0484365 -0.968177 -0.245311
-7.35654 56.8211 -10.3743 -0.0631862 -0.975619 -0.210177
-5.9698 56.6967 -10.1325 -0.0561307 -0.979019 -0.195849
-4.85604 56.559 -9.67095 -0.0450052 -0.982593 -0.18017
-3.79708 56.4434 -9.13601 -0.0104142 -0.988568 -0.150251
-2.58746 56.3401 -8.49553 0.00315104 -0.99132 -0.131434
-1.59828 56.2736 -7.93975 0.00505912 -0.992884 -0.118802
-0.602161 56.2293 -7.39402 0.0227086 -0.994801 -0.0992602
0.52578 56.2045 -6.78653 0.0409737 -0.995458 -0.0858387
1.56754 56.2235 -6.4436 0.0486752 -0.99617 -0.0726418
2.59884 56.2459 -5.80351 0.0676636 -0.99577 -0.062095
3.59322 56.2963 -5.18671 0.0803818 -0.99592 -0.0410025
4.61446 56.3658 -4.22834 0.112161 -0.992844 -0.0408682
5.48377 56.4648 -3.42732 0.146757 -0.989122 -0.000945484
6.20581 56.5784 -2.16115 0.175149 -0.984391 0.0145742
7.05064 56.7641 -0.979541 0.219932 -0.975397 0.0151591
8.12912 57.0331 -0.301794 0.266295 -0.963775 0.0147833
8.99013 57.3048 0.452289 0.276357 -0.960629 0.0283031
9.81873 57.5723 1.19148 0.29702 -0.953706 0.0471522
10.566 57.8275 1.97965 0.298168 -0.954018 0.0307527
11.2369 58.0588 2.50278 0.312654 -0.949315 0.0323712
11.9262 58.2532 1.61186 0.318595 -0.947036 0.0398633
10.9559 57.9117 0.878858 0.295315 -0.954836 0.03281
10.133 57.6241 0.0553041 0.285856 -0.957334 0.040963
9.19642 57.3228 -0.795002 0.276147 -0.960487 0.0347652
8.0034 56.951 -1.70331 0.260907 -0.964034 0.0506535
7.21061 56.7517 -2.71559 0.197389 -0.979995 0.0254356
6.44836 56.5948 -3.77707 0.113666 -0.992734 0.039479
5.62086 56.4995 -4.84821 0.116957 -0.992837 -0.0222777
4.82691 56.436 -5.68814 0.10691 -0.994005 -0.0228901
3.79417 56.364 -6.35161 0.0928173 -0.994795 -0.041987
2.84792 56.327 -6.97602 0.0478189 -0.997209 -0.0551615
1.82996 56.3095 -7.4473 0.0531862 -0.996083 -0.0706461
0.564833 56.3218 -8.04388 0.0310013 -0.995077 -0.0940959
-0.457135 56.355 -8.57579 0.00934699 -0.993893 -0.109949
-1.44864 56.405 -9.06248 -0.0129231 -0.992989 -0.117497
-2.53153 56.5056 -9.73765 -0.0170271 -0.990189 -0.138695
-3.59744 56.6095 -10.2415 -0.04136 -0.986666 -0.157404
-4.67797 56.7317 -10.6782 -0.0522788 -0.984059 -0.169983
-5.86806 56.9018 -11.2473 -0.0718831 -0.984011 -0.16296
-7.39918 57.0906 -11.538 -0.0657098 -0.976975 -0.202415
-8.7459 57.089 -11.1038 -0.0571133 -0.965616 -0.253623
-9.60065 56.9671 -10.4441 -0.0616187 -0.958136 -0.279605
-10.1847 56.7292 -9.48604 -0.0362034 -0.968085 -0.247993
-10.6783 56.4923 -8.49831 -0.0283397 -0.967407 -0.251603
-11.0079 56.2201 -7.40418 -0.0125779 -0.96588 -0.258173
-11.5124 55.9379 -6.34388 0.0167739 -0.969046 -0.246308
-11.8567 55.6371 -5.16688 0.0259517 -0.972459 -0.231592
-12.2708 55.3591 -4.08332 0.0587157 -0.968228 -0.243079
-12.5402 55.0639 -2.94356 0.0728352 -0.972008 -0.223165
-12.907 54.7447 -1.70504 0.113778 -0.963575 -0.241046
-13.0475 54.4992 -0.625517 0.112918 -0.973078 -0.20086
-12.9286 54.277 0.54655 0.120964 -0.974163 -0.190721
-12.4616 54.1345 1.60475 0.134094 -0.975259 -0.175621
-11.9899 54.026 2.64214 0.146238 -0.976032 -0.161064
-10.9259 54.0196 3.66246 0.144145 -0.977342 -0.155002
-9.80713 54.082 4.36606 0.129626 -0.983385 -0.127085
-8.6555 54.1672 4.88183 0.125827 -0.984241 -0.124249
-7.68449 54.2206 5.44742 0.125207 -0.984535 -0.122532
-6.59093 54.3066 5.89089 0.128883 -0.984653 -0.117612
-5.15636 54.4258 6.54888 0.139826 -0.983398 -0.11566
-3.96207 54.538 7.10134 0.145915 -0.984246 -0.0998413
-2.97496 54.636 7.60274 0.149261 -0.984182 -0.0954307
-1.85535 54.7725 8.13884 0.170944 -0.98097 -0.0920623
-0.621199 54.9759 8.53426 0.188721 -0.97907 -0.0762022
0.427705 55.1532 9.09971 0.214545 -0.974561 -0.0648227
1.33448 55.3231 9.86451 0.250279 -0.966427 -0.0548862
2.37604 55.5552 10.7749 0.253556 -0.96679 -0.0319334
3.06158 55.7066 11.678 0.270002 -0.962383 -0.0303024
4.13146 55.9735 12.7644 0.27591 -0.960677 -0.0306172
4.70253 56.1192 13.8168 0.295691 -0.954906 -0.0268514
5.74055 56.4133 14.9088 0.298307 -0.954127 -0.0255325
6.32884 56.5682 16.055 0.306936 -0.951249 -0.0302632
7.11274 56.8033 17.051 0.322288 -0.94635 -0.023477
7.74963 56.992 18.1141 0.333563 -0.942328 -0.0274462
8.16713 57.1151 19.1197 0.3385 -0.940489 -0.0297749
8.82769 57.3288 20.1327 0.346426 -0.937732 -0.0254575
9.30105 57.4718 21.3739 0.35237 -0.935518 -0.0253116
9.778 57.6188 22.7111 0.358599 -0.9332 -0.0233445
10.2994 57.7838 24.2106 0.361746 -0.932042 -0.0207447
10.5919 57.8762 25.3421 0.364928 -0.930891 -0.0164071
10.8399 57.9507 26.5169 0.368677 -0.929412 -0.0164236
11.0478 58.013 27.6344 0.372289 -0.927956 -0.0172485
11.2925 58.0871 29.075 0.372967 -0.927727 -0.0147765
11.3709 58.1028 30.2151 0.37561 -0.926694 -0.012499
11.5187 58.1439 31.6646 0.377207 -0.926069 -0.0105547
11.5516 58.1421 33.0133 0.378334 -0.925623 -0.00920837
11.4524 58.0901 34.1362 0.380201 -0.924862 -0.00874478
11.397 58.0567 35.3652 0.381289 -0.924429 -0.00700836
11.3693 58.0358 36.6973 0.381578 -0.924319 -0.00564314
11.1366 57.9326 37.9316 0.382668 -0.923873 -0.00481019
10.9382 57.8449 39.126 0.383113 -0.923694 -0.00363318
10.6729 57.7307 40.2452 0.383138 -0.923687 -0.00276855
10.3618 57.5983 41.3894 0.383278 -0.92363 -0.00251822
10.4014 57.612 42.509 0.38314 -0.923688 -0.00198364
11.5864 58.1023 43.0518 0.383011 -0.923742 -0.00203644
12.8408 58.6207 43.6414 0.382793 -0.923832 -0.001934
13.7711 59.0054 44.0886 0.382895 -0.92379 -0.00178347
14.9526 59.4944 44.5194 0.383058 -0.923723 -0.001599
15.9349 59.9012 45.0001 0.383302 -0.923622 -0.00118821
17.0494 60.3632 45.5173 0.383514 -0.923534 -0.00112694
18.214 60.8466 45.9471 0.384156 -0.923268 -0.000886985
19.1363 61.2302 46.4361 0.384478 -0.923134 -0.000672611
20.2755 61.7047 46.8358 0.38465 -0.923063 -0.000292867
20.9337 61.9791 45.927 0.384656 -0.92306 0.000138086
21.1949 62.0874 44.7287 0.384475 -0.923135 0.000507315
21.7258 62.307 43.2385 0.384087 -0.923296 0.000880956
21.9535 62.4 42.0926 0.383483 -0.923548 0.00102326
22.4653 62.6102 40.6313 0.382936 -0.923774 0.00142087
22.8908 62.7848 39.5954 0.382791 -0.923833 0.00177904
23.0727 62.8586 38.4163 0.381981 -0.924169 0.00155251
23.0329 62.8398 37.1054 0.381245 -0.924472 0.00185306
23.1727 62.8953 35.9269 0.380662 -0.924713 0.00157334
23.4392 63.0029 34.5333 0.380232 -0.92489 0.00123511
23.5743 63.0567 33.1344 0.37993 -0.925014 0.00144254
23.4962 63.0224 31.8236 0.379124 -0.925344 0.0018663
23.3988 62.9799 30.2941 0.378141 -0.925747 0.00137313
23.3967 62.9768 29.0767 0.377178 -0.92614 0.00143097
23.3194 62.9427 27.6605 0.376344 -0.926478 0.0018658
23.2183 62.8997 26.4093 0.375754 -0.926716 0.00223221
23.0498 62.8291 25.2903 0.374299 -0.927307 0.00150961
22.8648 62.7522 24.0137 0.374066 -0.9274 0.00189752
22.6639 62.6683 22.7943 0.373954 -0.927443 0.00286163
22.4501 62.5785 21.5616 0.372432 -0.928053 0.00334381
22.1146 62.439 20.3513 0.371935 -0.928248 0.00453747
21.8693 62.335 19.2714 0.3717 -0.928337 0.00544184
21.5892 62.215 18.0194 0.368488 -0.929607 0.00691341
21.1338 62.0261 16.853 0.367758 -0.929894 0.00715337
20.6347 61.8183 15.7218 0.365811 -0.930639 0.00966646
20.0325 61.5694 14.4328 0.364092 -0.93132 0.00895598
19.6393 61.4011 13.3112 0.364717 -0.931007 0.0140857
19.1835 61.2083 12.283 0.362478 -0.931843 0.0166435
18.662 60.9835 11.072 0.359803 -0.932852 0.0181223
18.1404 60.7633 10.0938 0.358605 -0.933275 0.0200078
17.6268 60.5402 9.019 0.354835 -0.934631 0.0235932
17.0361 60.2987 8.13138 0.349599 -0.936567 0.0249385
16.4697 60.0581 7.05269 0.347008 -0.937471 0.0270739
15.728 59.7604 6.23718 0.343589 -0.938639 0.0300505
15.0544 59.4886 5.40341 0.34212 -0.939169 0.0302576
14.3213 59.1911 4.50036 0.333513 -0.94209 0.0351394
13.529 58.8779 3.52804 0.329038 -0.943626 0.0360105
12.8522 58.6098 2.66994 0.325469 -0.944818 0.0372731
12.1341 58.3319 1.81968 0.318478 -0.947097 0.0397438
18.4991 60.9668 43.1158 0.383109 -0.923703 -0.000322115
18.9524 61.1548 43.0925 0.383233 -0.923652 -0.000321157
19.2254 61.2681 42.1655 0.383119 -0.923699 -2.8241e-05
18.2558 60.8663 42.2148 0.382787 -0.923837 -0.000318677
17.1813 60.421 42.2721 0.382767 -0.923845 -0.000964599
16.5512 60.16 42.3081 0.382606 -0.923911 -0.00120845
14.8109 59.4407 41.5144 0.382446 -0.923977 -0.00157423
15.8387 59.8661 41.4399 0.38239 -0.924 -0.00134197
16.9569 60.329 41.3712 0.382179 -0.924088 -0.00109658
17.9894 60.7564 41.3145 0.382488 -0.92396 -0.000630531
18.9505 61.1543 41.266 0.382667 -0.923886 -0.000100504
19.4847 61.3756 41.2398 0.382676 -0.923883 -0.000103048
19.6961 61.4631 40.3165 0.382464 -0.923971 0.000144671
18.7249 61.0612 40.3638 0.382257 -0.924056 -0.00027978
17.6856 60.6314 40.4168 0.382159 -0.924096 -0.000936853
16.711 60.2283 40.4708 0.381883 -0.92421 -0.00128024
15.4821 59.7201 40.5502 0.381989 -0.924165 -0.00161793
14.314 59.2371 40.6407 0.382099 -0.924119 -0.00201685
13.3328 58.8311 40.7258 0.382266 -0.924049 -0.00230543
13.4693 58.89 39.7991 0.381999 -0.924158 -0.00284309
14.5304 59.3287 39.7085 0.381693 -0.924286 -0.00230227
15.6121 59.7756 39.6279 0.381759 -0.92426 -0.00173464
16.9242 60.3177 39.5439 0.381793 -0.924247 -0.00120632
18.1617 60.8288 39.4784 0.381812 -0.92424 -0.00074029
19.5016 61.3826 39.4126 0.38208 -0.924129 -1.10544e-05
19.9318 61.5604 39.3924 0.381892 -0.924207 3.26094e-05
19.9607 61.5722 38.4778 0.381861 -0.92422 0.000117845
18.9181 61.1419 38.5274 0.381518 -0.924362 -0.000432011
17.6196 60.6058 38.5919 0.381277 -0.92446 -0.00126019
16.5849 60.179 38.6509 0.381533 -0.924354 -0.0016664
15.4228 59.6995 38.7269 0.381393 -0.924411 -0.00208146
14.4458 59.2962 38.8012 0.381329 -0.924435 -0.0030097
13.5538 58.9279 38.8772 0.381866 -0.924213 -0.00300563
13.6596 58.9748 37.953 0.380744 -0.924672 -0.0038727
14.6871 59.3986 37.8682 0.381052 -0.924549 -0.00290715
15.6886 59.8117 37.7943 0.380832 -0.92464 -0.00274547
16.6546 60.2098 37.7324 0.380796 -0.924657 -0.00215975
17.6456 60.618 37.678 0.380966 -0.924588 -0.00148271
18.7236 61.0623 37.6232 0.381031 -0.924562 -0.000869155
19.7302 61.4774 37.5753 0.381335 -0.924437 -0.000315312
20.3601 61.7373 37.5462 0.381649 -0.924307 -0.000275038
20.2952 61.7105 36.6363 0.381019 -0.924567 4.30217e-05
19.3551 61.3232 36.6798 0.380874 -0.924627 -0.000705455
18.3434 60.9067 36.7288 0.380441 -0.924805 -0.00101167
17.1615 60.4204 36.7918 0.380392 -0.924823 -0.00228834
15.9636 59.9275 36.8633 0.3806 -0.924735 -0.00304438
15.0144 59.5367 36.9302 0.380603 -0.924731 -0.00384491
13.998 59.1181 37.0099 0.380594 -0.924733 -0.00403543
13.9254 59.0925 36.1011 0.37999 -0.924977 -0.00490943
15.2401 59.633 36.0012 0.380042 -0.924963 -0.00330166
16.4213 60.1185 35.9222 0.379825 -0.925054 -0.0026576
17.4172 60.5275 35.8644 0.379884 -0.925032 -0.002195
18.6423 61.0307 35.801 0.380103 -0.924943 -0.0013588
19.7689 61.4941 35.7479 0.38017 -0.924917 -0.000286776
20.2653 61.6982 35.725 0.380612 -0.924735 -0.000185224
20.6674 61.8637 34.7943 0.379927 -0.925016 -0.000446795
19.7218 61.4753 34.8375 0.379824 -0.925059 -0.000419441
18.6549 61.0374 34.8883 0.379508 -0.925187 -0.00152208
17.6339 60.6187 34.9401 0.379111 -0.925347 -0.00291498
16.6747 60.2254 34.9928 0.378952 -0.925411 -0.0031726
15.5521 59.7652 35.066 0.379345 -0.925247 -0.00379818
14.5662 59.3606 35.1373 0.379595 -0.925139 -0.00500888
14.0386 59.1439 35.178 0.379872 -0.925026 -0.00493019
14.3106 59.2609 34.2423 0.378705 -0.9255 -0.00575673
15.4709 59.7359 34.1587 0.378498 -0.925593 -0.00421629
16.6967 60.2376 34.0789 0.37866 -0.925529 -0.00341273
18.002 60.7718 34.0092 0.378614 -0.925552 -0.00230554
18.9993 61.1802 33.9591 0.378878 -0.925446 -0.00128339
20.1037 61.6326 33.9073 0.379151 -0.925334 -0.000719473
20.6389 61.8521 33.883 0.379479 -0.9252 -0.000634163
20.8047 61.9204 32.9632 0.379001 -0.925396 -0.000456888
19.6239 61.4371 33.0173 0.378653 -0.925538 -0.00126888
18.6887 61.0547 33.0617 0.378423 -0.925631 -0.0017892
17.7515 60.6719 33.1103 0.378266 -0.925693 -0.00260749
16.7416 60.2594 33.1657 0.377689 -0.925926 -0.00341965
15.7822 59.8677 33.2244 0.377795 -0.92588 -0.00419867
14.8118 59.4714 33.2916 0.377673 -0.925918 -0.00624239
14.038 59.1553 33.3494 0.378084 -0.925745 -0.00698746
14.0775 59.1779 32.4319 0.377096 -0.926148 -0.0069282
15.1336 59.6085 32.3548 0.376744 -0.926302 -0.00543636
16.3411 60.1 32.2773 0.377154 -0.926141 -0.00423505
17.4554 60.5541 32.2147 0.37721 -0.926121 -0.0036007
18.4691 60.9672 32.1608 0.377388 -0.926052 -0.00231354
19.5925 61.4256 32.1065 0.377841 -0.925869 -0.0014563
20.7465 61.8972 32.0535 0.37837 -0.925654 -0.000120282
20.8247 61.9296 31.1373 0.377634 -0.925955 -0.000119404
19.692 61.4676 31.1896 0.377127 -0.92616 -0.0015131
18.7468 61.0825 31.2355 0.37688 -0.926259 -0.00243919
17.7789 60.689 31.285 0.376605 -0.926369 -0.00305361
16.7265 60.2612 31.343 0.376611 -0.926363 -0.00402708
15.7455 59.8625 31.4012 0.376012 -0.9266 -0.00524762
14.5905 59.3938 31.4796 0.375743 -0.926698 -0.00689059
14.0107 59.1582 31.5224 0.376601 -0.92634 -0.008078
14.0133 59.167 30.6081 0.37511 -0.926949 -0.00762457
14.9887 59.562 30.5385 0.374518 -0.927196 -0.00668711
16.0245 59.9814 30.4719 0.375444 -0.926827 -0.00588167
17.035 60.3907 30.4128 0.374905 -0.927053 -0.00432781
18.0115 60.7866 30.3604 0.375843 -0.926678 -0.00330375
18.9776 61.1787 30.312 0.376537 -0.926399 -0.00203657
19.9646 61.58 30.2645 0.376917 -0.926246 -0.000945013
20.8121 61.9248 30.2253 0.37719 -0.926136 -0.000668261
20.8553 61.9431 29.3111 0.376397 -0.926459 -5.50382e-05
19.9162 61.5616 29.3548 0.375863 -0.926675 -0.000941921
18.793 61.1061 29.409 0.375169 -0.926953 -0.00246019
17.6545 60.6452 29.466 0.374831 -0.927088 -0.00316169
16.5931 60.2165 29.5259 0.37409 -0.927378 -0.00518254
15.507 59.778 29.592 0.373598 -0.927565 -0.00693714
14.3926 59.3283 29.6668 0.373716 -0.927512 -0.00758983
13.9575 59.1527 29.6973 0.37428 -0.927274 -0.00874757
13.8777 59.1299 28.7893 0.372324 -0.928045 -0.0103229
14.8445 59.5186 28.7227 0.372455 -0.928016 -0.00797396
15.81 59.9067 28.6604 0.37249 -0.928014 -0.00640967
17.0259 60.3959 28.588 0.373132 -0.927766 -0.0047749
18.2966 60.908 28.5216 0.37406 -0.927401 -0.00267928
19.4176 61.3609 28.4667 0.37498 -0.927031 -0.00172032
20.4452 61.777 28.4179 0.375226 -0.926933 -0.000562245
20.8741 61.9506 28.3981 0.375814 -0.926695 -0.000187314
20.6032 61.8414 27.4987 0.374965 -0.927039 -0.00019726
19.4496 61.3754 27.5531 0.374625 -0.927176 -0.00101609
17.8015 60.712 27.6361 0.37242 -0.928055 -0.00410342
16.5686 60.2173 27.703 0.371873 -0.928264 -0.00606258
15.4287 59.7609 27.771 0.370988 -0.928608 -0.00742281
14.0601 59.2126 27.8622 0.3711 -0.928537 -0.0102372
13.9259 59.1588 27.8718 0.371098 -0.928537 -0.0102413
13.5467 59.0181 26.9844 0.369184 -0.92929 -0.0111411
14.604 59.4391 26.9107 0.370111 -0.928947 -0.00866536
15.6206 59.8447 26.8463 0.37017 -0.92893 -0.00788334
16.8351 60.3295 26.7749 0.3702 -0.928935 -0.00566737
17.9937 60.7925 26.7142 0.370899 -0.928664 -0.0041036
19.0338 61.2096 26.6614 0.372364 -0.928085 -0.00203693
20.1556 61.661 26.6072 0.373751 -0.927528 -0.00107317
20.6413 61.8572 26.5851 0.374457 -0.927244 -3.61924e-05
20.5378 61.816 25.6791 0.373431 -0.927658 0.000124004
19.4989 61.3982 25.7276 0.372083 -0.928196 -0.00252619
18.5247 61.0086 25.7754 0.371036 -0.928611 -0.0037976
17.3606 60.5439 25.8352 0.36953 -0.929206 -0.00488104
16.2591 60.1058 25.8952 0.368737 -0.929512 -0.00642399
15.2733 59.7138 25.9529 0.368636 -0.929545 -0.00725248
14.2628 59.313 26.0196 0.36762 -0.929931 -0.00920613
13.3505 58.951 26.0826 0.368511 -0.929554 -0.0113558
13.1896 58.8988 25.1788 0.366273 -0.930445 -0.0107639
14.5347 59.4292 25.0869 0.366385 -0.930421 -0.0089406
15.9448 59.987 25.0005 0.367636 -0.92995 -0.00603794
17.1725 60.4733 24.9337 0.368409 -0.929654 -0.00430296
18.1852 60.8758 24.8814 0.369832 -0.929093 -0.00326018
19.1858 61.2747 24.8328 0.370384 -0.928877 -0.00155419
20.2206 61.6888 24.7833 0.372313 -0.928107 -0.000971823
20.2086 61.6842 23.8751 0.371742 -0.928336 0.000293645
19.0559 61.2246 23.9288 0.369472 -0.929241 -0.000686119
17.8235 60.735 23.9891 0.369402 -0.929267 -0.00210611
16.5871 60.2462 24.0533 0.367648 -0.929957 -0.00399299
15.2674 59.7258 24.1274 0.366926 -0.930228 -0.00643894
14.0435 59.2453 24.2026 0.365392 -0.930812 -0.00876668
13.4086 58.9964 24.2453 0.363315 -0.9316 -0.0111243
12.8707 58.7974 23.3665 0.361946 -0.93212 -0.0121288
13.8238 59.169 23.3002 0.362796 -0.931817 -0.00975988
15.0853 59.6616 23.2243 0.36429 -0.931263 -0.0064103
16.3789 60.1687 23.1528 0.365738 -0.930708 -0.00418064
17.4902 60.6059 23.0952 0.366839 -0.930282 -0.00224933
18.4434 60.9824 23.0491 0.368342 -0.92969 -0.000727151
19.3923 61.359 23.0042 0.369232 -0.929337 0.000993755
19.9004 61.5608 22.9804 0.369932 -0.929059 0.000530686
19.9118 61.5643 22.0697 0.369358 -0.929286 0.00108125
18.8759 61.154 22.1182 0.367453 -0.930042 0.000110099
17.8871 60.7639 22.1658 0.366474 -0.930427 -0.00144455
16.9161 60.3825 22.2135 0.364333 -0.931266 -0.00228385
15.8969 59.9841 22.2669 0.362859 -0.931833 -0.00449169
14.8349 59.5702 22.3261 0.361678 -0.932279 -0.00671805
13.8911 59.2033 22.3816 0.360166 -0.932853 -0.00812166
12.9453 58.8382 22.4416 0.36 -0.932893 -0.0105469
12.4389 58.6425 22.478 0.359325 -0.933108 -0.0139554
12.1159 58.5314 21.5842 0.355335 -0.934645 -0.0132808
13.1708 58.9355 21.5093 0.357234 -0.933973 -0.00879037
14.1987 59.3307 21.4512 0.35842 -0.933517 -0.00901075
15.1554 59.7 21.3959 0.360337 -0.932816 -0.00343558
16.6495 60.2803 21.3173 0.361926 -0.932204 -0.00245862
17.6262 60.662 21.2686 0.364664 -0.931139 -0.000778745
18.5697 61.0327 21.2236 0.366245 -0.930519 0.000311654
19.5611 61.4242 21.1776 0.368283 -0.929712 0.00146715
19.2176 61.287 20.2878 0.367166 -0.93015 0.00301143
18.04 60.8244 20.3405 0.365467 -0.930824 0.00106769
17.0541 60.4393 20.3882 0.363695 -0.931518 0.000196493
15.9174 59.9979 20.4448 0.361993 -0.93218 -0.00136321
14.7548 59.5493 20.5067 0.357888 -0.933751 -0.00496017
13.7077 59.1504 20.5632 0.357141 -0.934023 -0.00713657
12.6962 58.764 20.6253 0.353591 -0.935336 -0.0109667
11.8775 58.4539 20.684 0.350361 -0.936512 -0.0138931
11.5994 58.3625 19.7849 0.348525 -0.937226 -0.0117069
12.6121 58.7415 19.7144 0.351781 -0.936039 -0.00896047
13.7503 59.1717 19.6472 0.354313 -0.935106 -0.00619959
15.1218 59.694 19.5761 0.357504 -0.933905 -0.00344461
16.356 60.1691 19.5144 0.359883 -0.932997 -0.000780643
17.4938 60.6103 19.459 0.36343 -0.931621 0.00113096
18.6156 61.0485 19.41 0.365252 -0.930903 0.00319907
18.9623 61.1845 19.3954 0.365252 -0.930903 0.00319824
18.7737 61.1076 18.5004 0.363434 -0.931612 0.00384235
17.6955 60.6874 18.5443 0.361911 -0.932207 0.00326604
16.6068 60.2661 18.5946 0.359634 -0.933092 0.00165321
15.5225 59.8495 18.6469 0.356949 -0.934124 -0.000119767
14.568 59.4864 18.6933 0.355802 -0.934561 -0.00132988
13.3589 59.0302 18.7548 0.352599 -0.935765 -0.00419166
12.3188 58.6414 18.819 0.349271 -0.936969 -0.00996335
11.3111 58.2685 18.8796 0.344668 -0.93867 -0.0101508
11.1844 58.2219 18.8864 0.345321 -0.938407 -0.0120937
10.9303 58.1391 17.976 0.342953 -0.939284 -0.0113539
12.0907 58.5647 17.9178 0.344474 -0.938768 -0.0072072
13.1851 58.9705 17.8535 0.348997 -0.937113 -0.00451496
14.3801 59.4182 17.7938 0.352537 -0.935795 -0.00228478
15.3313 59.7776 17.7484 0.355272 -0.934763 -4.50848e-05
16.2843 60.1412 17.7043 0.358347 -0.933586 0.00215588
17.5044 60.6111 17.6514 0.360592 -0.93272 0.00255615
18.2814 60.9119 17.6197 0.363435 -0.931612 0.00384312
18.1113 60.8413 16.7248 0.36029 -0.932827 0.00492449
17.0724 60.44 16.7697 0.358935 -0.933354 0.003878
16.0667 60.0556 16.812 0.35631 -0.934366 0.00156802
14.9066 59.6162 16.8627 0.354769 -0.934954 0.000467164
13.7623 59.1878 16.9188 0.349017 -0.937116 -0.00106388
12.6587 58.7798 16.9738 0.343419 -0.939177 -0.00301582
11.4224 58.3283 17.031 0.340199 -0.940292 -0.0107213
10.496 57.9925 17.0829 0.339396 -0.94057 -0.0117315
9.79281 57.7528 16.1988 0.334457 -0.942333 -0.0121278
11.2965 58.2889 16.1262 0.337349 -0.941361 -0.00584904
12.2956 58.6505 16.0851 0.341573 -0.939843 -0.0047766
13.4336 59.0665 16.0302 0.343301 -0.939225 0.00081219
14.4679 59.4506 15.9797 0.349485 -0.936935 0.00368798
15.8447 59.9682 15.9205 0.353903 -0.935274 0.00379376
16.9758 60.3984 15.8746 0.358068 -0.93368 0.00546272
17.5628 60.6234 15.8497 0.35919 -0.933242 0.00644762
17.4708 60.5813 14.9581 0.358883 -0.93335 0.0077717
16.3861 60.1677 15.0028 0.354995 -0.934849 0.00591591
15.2911 59.7548 15.046 0.350946 -0.936387 0.00407256
14.2698 59.3739 15.0868 0.348761 -0.937203 0.00406386
13.2341 58.9927 15.1328 0.344756 -0.938691 0.00181836
12.1136 58.5863 15.1851 0.339589 -0.940574 0.000616304
10.9886 58.1842 15.2311 0.336183 -0.941793 -0.00246212
9.67934 57.7225 15.2883 0.332957 -0.942897 -0.00920153
9.13413 57.5334 15.3196 0.324139 -0.945906 -0.0139977
8.67307 57.3869 14.4265 0.318434 -0.947855 -0.0130883
9.70474 57.7396 14.3793 0.323756 -0.946115 -0.0069541
10.75 58.1047 14.3368 0.331149 -0.943575 -0.00245795
11.839 58.489 14.2928 0.335695 -0.941971 0.000447172
12.8179 58.8394 14.2507 0.339511 -0.940599 0.00260256
13.8327 59.2091 14.2075 0.343965 -0.938972 0.00451944
14.8086 59.5692 14.1708 0.347965 -0.937485 0.00649038
16.0859 60.046 14.1277 0.350696 -0.936457 0.00779831
16.9997 60.3926 14.0912 0.356079 -0.934406 0.0096538
16.7222 60.2762 13.2174 0.356645 -0.934142 0.0135284
15.5379 59.8318 13.2577 0.34936 -0.936943 0.00925013
14.4759 59.4385 13.2915 0.34543 -0.938383 0.0107388
13.5188 59.0882 13.329 0.344115 -0.938898 0.00748428
12.2355 58.6274 13.377 0.338284 -0.941034 0.00431807
11.2037 58.2633 13.4186 0.328736 -0.94442 0.00193302
10.1833 57.909 13.4574 0.323507 -0.946226 -0.000172522
9.1847 57.5677 13.496 0.32081 -0.94713 -0.00511941
8.09693 57.2028 13.5204 0.313601 -0.949484 -0.0116109
7.24238 56.9366 12.6099 0.305635 -0.952118 -0.0076644
8.26077 57.2649 12.6003 0.310324 -0.950607 -0.00665917
9.2934 57.6083 12.5802 0.316216 -0.948687 -4.08507e-05
10.5352 58.0286 12.5463 0.324949 -0.945728 0.00256134
11.537 58.3761 12.5122 0.330946 -0.943643 0.00353572
12.5465 58.7322 12.4772 0.335182 -0.942134 0.00608989
13.5425 59.0891 12.4411 0.341113 -0.939959 0.010884
14.8554 59.568 12.3958 0.345433 -0.938382 0.0107403
16.2499 60.0859 12.3416 0.349937 -0.936685 0.0128499
16.3589 60.1269 12.3377 0.353875 -0.935192 0.0137097
15.9378 59.9559 11.4696 0.349457 -0.936836 0.0147493
14.9168 59.5786 11.5066 0.344841 -0.938562 0.0136534
13.5536 59.0845 11.5542 0.338443 -0.940914 0.0117459
12.5827 58.7371 11.588 0.334457 -0.942373 0.00843596
11.5089 58.359 11.6259 0.328048 -0.944624 0.00839112
10.2289 57.9219 11.6564 0.320913 -0.947099 0.00434228
9.22274 57.5833 11.6781 0.316744 -0.948509 0.00196267
8.21275 57.2532 11.6894 0.304503 -0.952511 9.49065e-05
7.20652 56.9325 11.6846 0.302232 -0.953195 -0.00872488
6.50028 56.7111 11.6693 0.295952 -0.955184 -0.00595022
5.95522 56.5526 10.7347 0.287659 -0.957687 -0.00934417
7.08945 56.8992 10.7672 0.297375 -0.954758 -0.00216162
8.11482 57.2219 10.7818 0.3045 -0.952512 9.53461e-05
9.14086 57.5526 10.7819 0.311645 -0.950193 0.0031811
10.4576 57.9931 10.7621 0.320456 -0.947234 0.00740542
11.551 58.3665 10.7352 0.325461 -0.945532 0.00667328
12.5951 58.7313 10.7007 0.332697 -0.942959 0.0118486
13.7083 59.1266 10.6626 0.338018 -0.941035 0.0140081
15.0499 59.6134 10.6152 0.343395 -0.939069 0.0151232
15.1427 59.6475 10.6113 0.346757 -0.937809 0.0165631
14.6856 59.466 9.74477 0.343297 -0.939092 0.0158971
13.5552 59.0578 9.78613 0.339016 -0.940649 0.0157586
12.5377 58.6979 9.81638 0.333245 -0.942723 0.0148514
11.5123 58.3411 9.84351 0.325098 -0.94559 0.0130741
10.4938 57.996 9.86725 0.317432 -0.948191 0.0130897
9.51092 57.6684 9.88178 0.316269 -0.948608 0.010802
8.39197 57.3065 9.88166 0.302839 -0.953024 0.00580103
7.24422 56.9457 9.86222 0.29669 -0.954972 0.00187395
6.23396 56.6413 9.81766 0.284762 -0.958583 -0.0053762
5.06063 56.3011 9.73294 0.276692 -0.960932 -0.00722682
3.95986 56.0126 8.61089 0.259684 -0.965629 -0.0111601
5.14359 56.3291 8.79641 0.266427 -0.963843 -0.00479711
6.15038 56.6181 8.88598 0.281325 -0.959612 0.000816591
7.23178 56.9402 8.9486 0.291794 -0.956443 0.00852813
8.48506 57.3269 8.98147 0.29595 -0.955112 0.0132236
9.47743 57.6462 8.98727 0.31254 -0.94982 0.0126871
10.5565 58.003 8.97659 0.315725 -0.948694 0.0172143
11.828 58.4351 8.95139 0.325885 -0.945247 0.0175142
12.9482 58.8271 8.92356 0.333067 -0.942697 0.019727
13.9212 59.1731 8.89888 0.337463 -0.941141 0.0193106
14.2487 59.2903 8.88927 0.337461 -0.941142 0.0193077
13.5612 59.0267 8.03007 0.335589 -0.94171 0.0236993
12.411 58.6212 8.05692 0.328724 -0.94416 0.0224299
11.3343 58.2502 8.07936 0.323552 -0.946074 0.0160651
10.1914 57.8673 8.09234 0.312927 -0.94966 0.0148891
9.18592 57.5388 8.09116 0.307446 -0.951454 0.0145374
7.95453 57.1496 8.06748 0.29165 -0.956449 0.0120621
6.71381 56.7818 7.9979 0.280113 -0.959947 0.0061924
5.60761 56.4613 7.89601 0.275449 -0.961314 0.00205014
4.46919 56.1557 7.74074 0.25108 -0.967935 -0.00779082
3.30012 55.8736 7.49438 0.228225 -0.97337 -0.0215482
2.50927 55.6989 7.27402 0.213582 -0.976094 -0.040299
-8.0034 54.5861 2.3472 0.114453 -0.984697 -0.131421
-9.1143 54.697 0.736224 0.113381 -0.982249 -0.149436
-9.90989 54.8651 -0.774687 0.0858592 -0.982503 -0.165275
-10.1196 54.9347 -1.29751 0.08251 -0.98172 -0.171516
-9.74919 55.3116 -3.21795 0.062516 -0.9817 -0.179877
-9.31082 55.0753 -1.71292 0.0825183 -0.98172 -0.171513
-8.57997 54.8853 -0.137609 0.0944503 -0.983778 -0.152511
-7.60978 54.7684 1.34905 0.103736 -0.985181 -0.136594
-6.42375 54.7023 2.8337 0.107459 -0.986625 -0.122575
-6.32291 54.699 2.9486 0.107459 -0.986625 -0.122575
-3.5564 54.8743 4.30944 0.136929 -0.986327 -0.0916995
-4.8689 54.8387 3.14906 0.114372 -0.987368 -0.109652
-5.98776 54.8611 1.93553 0.10106 -0.987739 -0.118992
-6.94989 54.9222 0.709606 0.0922445 -0.986842 -0.132792
-7.93247 55.059 -0.884061 0.0825261 -0.985024 -0.151386
-8.60191 55.2594 -2.48351 0.0652969 -0.984412 -0.163307
-9.03035 55.5017 -4.05508 0.0465189 -0.982778 -0.178841
-9.16588 55.6358 -4.79218 0.0345843 -0.981098 -0.190396
-8.47996 55.9803 -6.43209 0.0122057 -0.979962 -0.198811
-8.28815 55.6969 -4.94461 0.0339465 -0.983423 -0.178119
-7.95125 55.4583 -3.46599 0.0450579 -0.985893 -0.161196
-7.27808 55.2168 -1.60924 0.0691631 -0.987185 -0.143814
-6.50579 55.0877 -0.233468 0.0884004 -0.987724 -0.128788
-5.59973 55.0139 0.999823 0.0915971 -0.988323 -0.121771
-4.31864 54.9829 2.40486 0.106737 -0.988389 -0.108138
-3.0959 55.0114 3.48957 0.116831 -0.989109 -0.0895144
-1.70827 55.1182 4.37308 0.141856 -0.98667 -0.0797461
-0.203758 55.2894 5.16517 0.161206 -0.984524 -0.0687322
1.31709 55.5132 5.85027 0.181595 -0.982207 -0.0478766
2.74805 55.7848 6.34225 0.213192 -0.976749 -0.0225786
4.32572 56.1352 6.73413 0.234698 -0.97199 -0.0123712
5.82661 56.5201 6.98091 0.266106 -0.963942 0.00176361
7.5148 57.0061 7.13772 0.283937 -0.958776 0.0113084
9.07162 57.4872 7.19646 0.304353 -0.952434 0.0154682
10.5899 57.9806 7.2001 0.314762 -0.948982 0.0189232
12.0509 58.476 7.18084 0.327314 -0.944681 0.0210686
12.8634 58.7576 7.16702 0.331779 -0.943091 0.0224286
11.9281 58.4119 6.29134 0.324886 -0.945493 0.0221666
10.2675 57.8558 6.30924 0.309336 -0.950703 0.0217843
8.75271 57.3713 6.28865 0.302111 -0.953063 0.0199835
7.13199 56.8826 6.18102 0.278284 -0.960409 0.0131681
5.67163 56.4752 5.99972 0.259716 -0.965646 0.00872235
4.04648 56.0761 5.6979 0.221386 -0.975097 -0.0131523
2.43601 55.756 5.22595 0.191442 -0.981138 -0.0268001
0.79592 55.49 4.57077 0.1639 -0.984492 -0.0625525
-1.0261 55.2698 3.662 0.137603 -0.987634 -0.0751238
-2.35815 55.1604 2.83549 0.123811 -0.988484 -0.0870113
-3.63357 55.1221 1.78715 0.102896 -0.989571 -0.100809
-4.76454 55.1409 0.584929 0.0938353 -0.98888 -0.115372
-5.68118 55.2097 -0.636578 0.079177 -0.989137 -0.123848
-6.46198 55.3261 -1.98415 0.0686533 -0.988041 -0.138067
-7.01551 55.5018 -3.43914 0.0541839 -0.986492 -0.154587
-7.41259 55.7414 -5.03926 0.0300094 -0.984852 -0.170783
-7.61337 56.0119 -6.56735 0.0131898 -0.982634 -0.185084
-7.70695 56.2846 -7.92035 -0.0110826 -0.976123 -0.216935
-6.85735 56.4073 -8.55886 -0.0305689 -0.977206 -0.210083
-6.74458 56.0487 -6.67948 0.0131166 -0.985119 -0.171371
-6.51529 55.7823 -5.08961 0.0291323 -0.986359 -0.162013
-6.07947 55.5583 -3.49634 0.0498005 -0.987989 -0.146279
-5.46004 55.3992 -2.0189 0.0713471 -0.989451 -0.126083
-4.37935 55.2884 -0.396263 0.0838864 -0.99027 -0.111036
-3.36393 55.2546 0.763045 0.0903148 -0.990851 -0.10029
-1.79835 55.3032 2.03069 0.115037 -0.990362 -0.0771299
-0.344606 55.4162 2.93921 0.128464 -0.9891 -0.0719564
1.24226 55.5999 3.72279 0.158495 -0.986366 -0.0442925
2.73265 55.8412 4.29818 0.177347 -0.983988 -0.0177694
4.1956 56.1188 4.7459 0.210747 -0.977488 -0.0101081
5.91119 56.5288 5.09609 0.257391 -0.966176 0.0159519
7.44642 56.9616 5.28572 0.282284 -0.959176 0.0172339
8.93889 57.4109 5.39075 0.295246 -0.955105 0.0245684
10.556 57.93 5.41306 0.311254 -0.950002 0.0248389
11.603 58.2775 5.40694 0.320922 -0.946828 0.0229192
10.6639 57.9402 4.51779 0.309665 -0.950297 0.0323025
9.14142 57.4506 4.48412 0.294493 -0.955421 0.0210982
7.33732 56.9144 4.35429 0.273847 -0.961684 0.0131278
5.73731 56.4819 4.12339 0.244037 -0.969761 0.00317128
4.0311 56.1024 3.70634 0.199092 -0.979826 -0.0174417
2.29113 55.7868 3.13247 0.166603 -0.985747 -0.023363
0.748219 55.5946 2.4368 0.133254 -0.989756 -0.0512409
-0.741867 55.4555 1.58463 0.116157 -0.990944 -0.0673614
-2.04243 55.3967 0.627551 0.097866 -0.991357 -0.0873713
-3.19382 55.383 -0.384924 0.0811134 -0.991879 -0.0979577
-4.18753 55.4426 -1.65491 0.0689171 -0.991525 -0.110134
-4.92189 55.5546 -3.0006 0.0588937 -0.99022 -0.126477
-5.4502 55.7337 -4.52811 0.0338709 -0.99054 -0.132977
-5.80035 55.9528 -6.0473 0.0252938 -0.987838 -0.153417
-5.94261 56.2647 -7.88178 -0.0131635 -0.982802 -0.184194
-5.95909 56.3262 -8.20859 -0.0131636 -0.982802 -0.184194
-5.05441 56.2502 -7.87464 -0.0101334 -0.986632 -0.162651
-4.91253 55.999 -6.25559 0.0155039 -0.988715 -0.149003
-4.54016 55.7731 -4.58807 0.0372202 -0.990914 -0.129241
-3.91432 55.611 -2.99065 0.0546581 -0.991707 -0.116314
-3.10239 55.5241 -1.7046 0.072151 -0.992491 -0.0987736
-1.93115 55.5094 -0.522088 0.0865154 -0.992773 -0.0831708
-0.387865 55.5606 0.670761 0.0954819 -0.992747 -0.0730531
0.979154 55.677 1.4924 0.13243 -0.989721 -0.0539871
2.8275 55.9128 2.32114 0.173036 -0.984053 -0.0412027
4.35076 56.1795 2.82435 0.187773 -0.982163 -0.00981482
5.99456 56.5442 3.22754 0.244926 -0.969538 0.00252761
7.49484 56.9468 3.4407 0.264561 -0.964299 0.0115806
8.97035 57.3797 3.55677 0.288387 -0.957251 0.0224187
9.95777 57.6837 3.60099 0.297053 -0.954485 0.0268041
8.85499 57.3232 2.63585 0.282927 -0.9588 0.025602
7.33644 56.8934 2.48605 0.261722 -0.96508 0.0110199
5.82679 56.5038 2.24557 0.233426 -0.972371 -0.00245554
3.93906 56.1251 1.72297 0.176429 -0.984106 -0.0201957
2.42634 55.886 1.1744 0.145848 -0.988547 -0.0387612
1.01191 55.7313 0.458221 0.123698 -0.991262 -0.0458113
-0.301599 55.6507 -0.434226 0.0925243 -0.993019 -0.0731594
-1.48884 55.6174 -1.38127 0.0799855 -0.993471 -0.0813545
-2.56345 55.6472 -2.54028 0.0688472 -0.992883 -0.0971792
-3.36914 55.7439 -3.91622 0.0490479 -0.991886 -0.117288
-3.84149 55.9059 -5.42568 0.0307106 -0.991459 -0.126755
-4.07719 56.1131 -6.93688 0.0147587 -0.988986 -0.147269
-4.0947 56.1404 -7.1222 0.0132064 -0.989661 -0.14282
-3.17674 56.1151 -6.86047 0.0169455 -0.991741 -0.127129
-2.90453 55.9263 -5.35257 0.0308249 -0.991652 -0.125202
-2.3011 55.7919 -3.85009 0.0505299 -0.994251 -0.0944013
-1.38251 55.7304 -2.59684 0.0690219 -0.993655 -0.088805
-0.0961644 55.745 -1.46935 0.0884868 -0.993208 -0.0755458
1.2075 55.8045 -0.51062 0.115641 -0.991886 -0.0528203
2.71877 55.9616 0.296136 0.134301 -0.990102 -0.0407579
4.26842 56.2022 0.867209 0.182207 -0.982967 -0.0240256
5.71472 56.4821 1.2673 0.213105 -0.976947 -0.012696
7.53305 56.9291 1.58443 0.258189 -0.965581 0.0314822
6.24338 56.591 0.440997 0.220294 -0.975414 0.0061515
4.65227 56.2883 0.0160152 0.179668 -0.983619 -0.0146021
3.20724 56.0581 -0.49879 0.145131 -0.988991 -0.0288637
1.84564 55.9126 -1.19111 0.109913 -0.992472 -0.0540289
0.322923 55.842 -2.34105 0.0827607 -0.994036 -0.0710193
-0.922185 55.8454 -3.55537 0.0688374 -0.994076 -0.0841096
-1.80451 55.934 -4.99641 0.0451127 -0.993066 -0.108557
-2.21068 56.0814 -6.4334 0.0337509 -0.99284 -0.114584
-1.15962 56.0473 -5.83255 0.0373432 -0.994417 -0.0986885
-0.165926 55.9459 -4.17625 0.0622429 -0.994248 -0.0871558
1.02203 55.9426 -2.97498 0.0833545 -0.994378 -0.0653026
2.46338 56.0189 -1.88688 0.103225 -0.993326 -0.0514622
4.07934 56.2012 -1.16098 0.142754 -0.98974 -0.00598587
4.81291 56.3264 -0.905333 0.174632 -0.984599 -0.00830098
4.41911 56.2704 -2.02788 0.163982 -0.986255 -0.0202965
2.95491 56.1077 -2.69371 0.101835 -0.993644 -0.0479687
1.73014 56.0421 -3.59848 0.0824904 -0.99464 -0.0623468
0.643914 56.0391 -4.71473 0.0549861 -0.995239 -0.0804692
0.273429 56.0561 -5.16812 0.0525591 -0.9947 -0.0883745
