-16.8611 60.4799 -14.5198 0.00667677 0.958463 0.284991
-16.464 60.1573 -13.5119 -0.0206551 0.948429 0.316315
-15.9386 59.831 -12.4363 -0.0351906 0.955268 0.29364
-15.4624 59.5106 -11.3663 -0.0626318 0.951685 0.300552
-15.0508 59.0826 -9.9023 -0.065204 0.956258 0.285156
-14.2495 59.3931 -10.7699 -0.0603265 0.954259 0.292639
-13.8773 59.704 -11.8002 -0.0288748 0.959712 0.279495
-13.2187 60.0868 -13.1877 0.00790683 0.970719 0.239765
-12.2117 60.2802 -14.3024 0.0484856 0.983765 0.17279
-11.3136 60.299 -14.8978 0.115735 0.98444 0.132224
-10.0696 60.208 -15.4478 0.143364 0.980795 0.13224
-8.99861 60.0371 -15.6418 0.187809 0.977334 0.0977025
-7.7641 59.7953 -15.7203 0.213094 0.973037 0.0882663
-6.51132 59.5105 -15.6401 0.216863 0.974102 0.0639921
-5.40638 59.2736 -15.7567 0.214685 0.974596 0.0638248
-4.74685 59.0956 -15.2573 0.217251 0.974968 0.0471949
-5.20323 59.2636 -16.3625 0.230212 0.971639 0.0540299
-5.68477 59.4358 -17.4847 0.250629 0.966486 0.0544583
-6.27467 59.6884 -19.0082 0.260418 0.963743 0.0581439
-6.77543 59.9052 -20.192 0.273244 0.959838 0.0636353
-7.25051 60.1233 -21.2122 0.290953 0.953225 0.0819107
-7.81592 60.3809 -22.2162 0.296755 0.951191 0.0842284
-8.28376 60.6619 -23.4727 0.31203 0.945092 0.0971494
-8.71993 60.9348 -24.5736 0.325032 0.938293 0.118152
-9.29025 61.2792 -25.6576 0.328237 0.933723 0.142377
-9.99156 61.7428 -26.9826 0.348883 0.925343 0.147758
-10.4036 62.0967 -28.0739 0.361017 0.918081 0.163687
-10.9119 62.5669 -29.4601 0.372918 0.907213 0.193942
-11.3289 62.9902 -30.5282 0.380046 0.900993 0.209228
-11.9312 63.4774 -31.4306 0.392871 0.892702 0.220727
-12.8148 64.0695 -32.0495 0.418768 0.871818 0.254099
-14.0056 64.7968 -32.4635 0.449824 0.852576 0.266029
-15.4305 65.7224 -32.9343 0.455948 0.828791 0.324371
-16.489 66.4509 -33.2986 0.476765 0.808297 0.344167
-17.3535 67.213 -33.7674 0.491664 0.781721 0.383621
-18.3185 67.9827 -33.9309 0.555268 0.72091 0.414689
-19.1587 68.5815 -33.8455 0.597458 0.672585 0.432057
-19.5851 68.2394 -32.7722 0.512286 0.73553 0.443349
-20.0152 67.539 -31.2292 0.490461 0.707829 0.508356
-20.19 66.7632 -29.7164 0.399462 0.800681 0.445063
-20.264 66.1353 -28.4598 0.376879 0.816282 0.437773
-20.1912 65.5833 -27.3785 0.322128 0.853592 0.409406
-20.1336 65.0883 -26.3591 0.275903 0.885863 0.372909
-20.0561 64.568 -25.217 0.227484 0.891285 0.392208
-19.7355 64.0482 -24.1786 0.20545 0.908284 0.363727
-19.5115 63.5532 -23.0106 0.147338 0.920855 0.359643
-19.1401 63.0561 -21.7768 0.126359 0.928675 0.348471
-18.8332 62.6752 -20.8099 0.0937696 0.939363 0.329854
-18.4818 62.2975 -19.8479 0.114433 0.944767 0.30694
-18.0942 61.814 -18.4995 0.0501721 0.944071 0.325797
-17.6574 61.3888 -17.3497 0.0708695 0.950482 0.301513
-17.403 60.9597 -16.0156 0.0382657 0.949354 0.311871
-16.9349 60.5323 -14.6882 0.0204794 0.955468 0.294216
-17.9891 60.4413 -14.4844 -0.0274051 0.939778 0.340686
-18.4326 60.9245 -15.8515 -0.0126465 0.943345 0.331235
-18.596 61.3253 -17.0262 0.01154 0.94012 0.340487
-19.0513 61.7785 -18.2494 0.050167 0.944071 0.325798
-19.4392 62.2203 -19.4191 0.0619621 0.939812 0.336028
-19.7992 62.6663 -20.51 0.0826281 0.934456 0.345778
-20.1457 63.1374 -21.6423 0.123019 0.924727 0.360202
-20.4965 63.6988 -22.9318 0.164974 0.909089 0.382544
-20.7868 64.3663 -24.3215 0.19957 0.890383 0.407643
-21.054 64.9468 -25.4925 0.250308 0.875465 0.412308
-21.1215 65.4782 -26.5228 0.273339 0.862987 0.4249
-21.2059 66.2245 -27.8713 0.332822 0.820957 0.463664
-21.1948 66.7335 -28.8172 0.362884 0.799648 0.476176
-21.0939 67.3108 -29.834 0.399009 0.786799 0.470892
-20.8968 68.0964 -31.1549 0.474735 0.713808 0.51457
-20.5963 68.6333 -32.2571 0.543896 0.688268 0.475597
-20.2273 69.1237 -33.2942 0.575517 0.641586 0.507097
-19.9146 69.5756 -34.2462 0.590818 0.649547 0.478564
-19.1656 69.4422 -35.0484 0.639371 0.627038 0.445003
-18.1431 68.4751 -35.0094 0.555542 0.718139 0.419106
-17.2892 67.6553 -34.7714 0.563177 0.731413 0.382482
-16.208 66.7383 -34.3496 0.522078 0.784494 0.334669
-15.3544 66.0607 -33.9906 0.480269 0.820351 0.309688
-14.4658 65.4603 -33.7286 0.465637 0.835919 0.29035
-13.4977 64.8074 -33.3561 0.453058 0.847041 0.277642
-12.1812 63.9966 -32.8504 0.427675 0.870435 0.243596
-11.1561 63.3337 -32.2473 0.405425 0.882838 0.235919
-10.4805 62.7596 -31.0977 0.388027 0.897074 0.211329
-10.033 62.2671 -29.7526 0.374551 0.908965 0.182541
-9.57097 61.8733 -28.6571 0.375736 0.91097 0.170158
-9.16763 61.5537 -27.7078 0.352793 0.921841 0.160453
-8.75349 61.2484 -26.7449 0.344977 0.928843 0.135064
-8.27007 60.9491 -25.8327 0.32926 0.935523 0.127999
-7.64608 60.5679 -24.5401 0.311322 0.944609 0.103889
-7.1034 60.2574 -23.2559 0.301574 0.949193 0.0898556
-6.594 59.9968 -22.1269 0.288375 0.954549 0.0751083
-5.98834 59.7327 -20.9494 0.280904 0.957539 0.0648971
-5.46898 59.5108 -19.6908 0.271242 0.961261 0.0490393
-4.81737 59.2623 -18.2999 0.240855 0.969274 0.0499725
-4.30927 59.0853 -17.1738 0.235618 0.971117 0.0376212
-3.75471 58.8978 -15.7846 0.217117 0.975154 0.043981
-3.38646 58.7727 -14.7986 0.216057 0.975523 0.0409101
-2.90309 58.6361 -13.7999 0.185992 0.98167 0.0396894
-3.34459 58.6905 -13.2798 0.181269 0.98206 0.0519607
-4.26744 58.8998 -13.7183 0.20026 0.977587 0.0649396
-5.4216 59.184 -14.3555 0.215229 0.974369 0.065439
-6.63906 59.472 -14.7111 0.208896 0.975125 0.074118
-7.71944 59.7098 -14.7901 0.198771 0.976449 0.0827644
-8.88975 59.9308 -14.7577 0.186418 0.978268 0.0907702
-10.3106 60.1112 -14.3971 0.135377 0.985067 0.10638
-11.2903 60.1237 -13.7453 0.0643198 0.984549 0.162866
-12.2247 60.0122 -12.9608 0.0058355 0.975601 0.218408
-12.7952 59.768 -11.9311 -0.0291059 0.966641 0.254464
-13.176 59.4196 -10.7026 -0.0401061 0.960995 0.273642
-13.6668 59.1227 -9.75026 -0.0553299 0.959953 0.274642
-14.0788 58.6835 -8.34889 -0.0612039 0.956576 0.284983
-14.3725 58.3546 -7.35025 -0.0931053 0.950516 0.296265
-14.7353 58.0415 -6.42958 -0.125194 0.949036 0.289236
-15.0246 58.3088 -7.41655 -0.0975123 0.947845 0.303448
-15.4846 58.5715 -8.38263 -0.103818 0.946043 0.306959
-16.0076 58.8768 -9.51365 -0.104821 0.947701 0.301455
-16.4148 59.2643 -10.8016 -0.0797779 0.947179 0.310196
-16.9108 59.6274 -12.0233 -0.0575196 0.943692 0.325767
-17.3901 59.913 -12.9269 -0.0541302 0.944042 0.325349
-17.6584 60.1773 -13.7294 -0.027405 0.939778 0.340686
-18.6571 60.0384 -13.473 -0.0711499 0.930231 0.360012
-18.2786 59.6821 -12.4584 -0.0772026 0.935264 0.345347
-17.7183 59.3343 -11.3698 -0.0859788 0.939154 0.332387
-17.3222 58.9259 -10.0653 -0.0916874 0.944887 0.314204
-16.9625 58.6146 -9.03103 -0.126724 0.933517 0.335391
-16.5297 58.3175 -7.9957 -0.132117 0.938991 0.317556
-16.0132 57.9879 -6.79131 -0.119626 0.948852 0.292179
-15.6786 57.7163 -5.7737 -0.149017 0.946019 0.287803
-15.1566 57.5181 -4.84694 -0.151213 0.953923 0.259164
-14.4667 57.4475 -4.1948 -0.144375 0.954511 0.260892
-13.9362 57.8866 -5.5827 -0.102969 0.954553 0.279688
-13.555 58.2069 -6.54629 -0.0872166 0.965088 0.246818
-13.1714 58.5473 -7.69198 -0.0631873 0.956219 0.28574
-12.9849 58.8812 -8.7766 -0.0580588 0.957256 0.283328
-12.5303 59.192 -9.76361 -0.0513004 0.960444 0.273684
-12.0779 59.5847 -11.1335 -0.0403028 0.969858 0.240145
-11.3978 59.8929 -12.3507 0.0172454 0.981055 0.191029
-10.4672 59.9861 -13.1975 0.0676015 0.988025 0.13382
-9.43943 59.9302 -13.648 0.146979 0.984059 0.0925692
-8.3553 59.7514 -13.8781 0.169964 0.981909 0.0809481
-7.13423 59.5213 -13.8637 0.206163 0.976659 0.053612
-5.8616 59.2238 -13.5334 0.21272 0.974777 0.0675269
-4.78505 58.9474 -12.9431 0.197605 0.977263 0.0768744
-3.82298 58.7364 -12.4828 0.189204 0.980289 0.0553325
-2.83743 58.5291 -11.9197 0.150827 0.987291 0.0500673
-1.80107 58.3548 -11.185 0.145801 0.989034 0.0235447
-0.964887 58.2325 -10.7006 0.113217 0.993543 -0.00738673
0.0317471 58.1191 -10.0776 0.120151 0.99269 -0.0104174
1.19919 58.0289 -9.39299 0.0932997 0.994737 -0.0423541
0.992137 58.0319 -9.77634 0.0941954 0.994824 -0.0378416
0.244373 58.0888 -10.6518 0.123107 0.99237 -0.00677147
-0.625575 58.1886 -11.4095 0.12884 0.991412 0.00697023
-0.956584 58.2585 -12.4135 0.144455 0.989283 0.0212818
-1.61104 58.3743 -13.3546 0.145456 0.989136 0.0212575
-1.94334 58.466 -14.3999 0.213309 0.976823 0.017756
-2.54311 58.6133 -15.4493 0.202824 0.978497 0.0343373
-2.85675 58.7178 -16.6115 0.227563 0.973476 0.0236524
-3.33864 58.869 -17.7976 0.241356 0.970051 0.0273707
-3.91054 59.0591 -19.0996 0.255829 0.96587 0.0405373
-4.5115 59.2681 -20.2284 0.263611 0.963504 0.045771
-5.12578 59.5144 -21.4087 0.280891 0.958152 0.0540315
-5.86398 59.8242 -22.7665 0.291259 0.95448 0.0643067
-6.28556 60.0575 -23.928 0.300603 0.949788 0.0867751
-6.83474 60.3651 -25.1334 0.311913 0.944511 0.103004
-7.47655 60.7488 -26.4067 0.326691 0.936442 0.127867
-8.09913 61.1281 -27.5686 0.339008 0.932593 0.123866
-8.68536 61.559 -28.9362 0.372267 0.914852 0.155543
-9.08282 61.8979 -29.8622 0.380692 0.904266 0.193329
-9.48038 62.3427 -31.1626 0.381176 0.902434 0.200579
-10.0404 62.8786 -32.4451 0.409994 0.891742 0.191575
-10.7673 63.4162 -33.2249 0.430044 0.872336 0.232576
-11.7733 64.0469 -33.746 0.427673 0.870434 0.243599
-12.8102 64.7016 -34.1717 0.438837 0.859144 0.263237
-13.8953 65.4354 -34.5817 0.47216 0.835948 0.279553
-14.7076 66.0443 -34.9078 0.491661 0.809798 0.319994
-15.6025 66.7078 -35.2224 0.503812 0.797435 0.331298
-16.4415 67.4954 -35.6563 0.534322 0.757583 0.374924
-17.3281 68.294 -35.8672 0.592031 0.705248 0.390031
-18.1056 69.0067 -35.9682 0.634193 0.65862 0.404471
-19.0447 69.9828 -36.0364 0.64277 0.647777 0.40894
-19.8786 70.6198 -35.5871 0.674075 0.568426 0.47001
-20.5754 70.463 -34.5015 0.649706 0.574643 0.497662
-21.0027 69.8648 -33.2958 0.621274 0.600076 0.503912
-21.4279 69.3373 -32.1879 0.55542 0.630974 0.539739
-21.6733 68.6873 -31.238 0.526962 0.638325 0.561116
-21.9963 67.9665 -30.024 0.454012 0.711474 0.536356
-22.1683 67.1168 -28.6543 0.388167 0.772044 0.503263
-22.1438 66.3322 -27.4114 0.306702 0.820476 0.481922
-22.0927 65.7641 -26.4787 0.300694 0.838822 0.451571
-21.9784 65.151 -25.382 0.201722 0.862107 0.464844
-21.8233 64.615 -24.4155 0.199946 0.875615 0.43968
-21.5036 63.8786 -22.9353 0.160612 0.910047 0.382123
-21.1523 63.4145 -22.0388 0.111047 0.89428 0.433511
-20.9712 62.912 -20.888 0.0742144 0.921295 0.381717
-20.7582 62.5004 -19.8944 0.0712814 0.929582 0.361658
-20.3004 61.9945 -18.6833 0.0233139 0.92713 0.374014
-19.7657 61.4821 -17.4039 0.0120504 0.936597 0.3502
-19.5957 61.115 -16.4312 -0.0196509 0.937809 0.346596
-19.3829 60.679 -15.2343 -0.0200154 0.938555 0.344548
-18.8779 60.2076 -13.9539 -0.0711498 0.930231 0.360011
-11.2712 62.6018 -28.9089 0.365283 0.913281 0.180238
-12.5479 63.4507 -30.2402 0.392827 0.890946 0.227822
-13.522 64.1727 -31.2582 0.41941 0.869784 0.259945
-14.1283 64.6654 -31.8944 0.43326 0.852183 0.293377
-15.6805 65.5651 -32.1809 0.449042 0.838456 0.308793
-14.6642 64.6838 -31.1254 0.412559 0.86957 0.271374
-13.3303 63.6622 -29.7316 0.374495 0.895779 0.239443
-11.9958 62.7708 -28.3483 0.364132 0.910117 0.197723
-10.9764 62.1731 -27.2972 0.343039 0.923079 0.173921
-10.5977 61.9594 -26.91 0.343096 0.923113 0.173631
-9.36027 61.1253 -24.3353 0.322404 0.939181 0.118303
-10.5591 61.7186 -25.5785 0.322362 0.934156 0.15309
-11.6567 62.3137 -26.7005 0.343153 0.923146 0.173342
-12.8985 63.0531 -27.9684 0.349387 0.912706 0.211887
-14.0353 63.7984 -29.1389 0.374163 0.895552 0.240809
-15.2268 64.7027 -30.3819 0.400902 0.871342 0.282916
-16.2449 65.5851 -31.4336 0.422393 0.845735 0.326063
-17.3514 66.6486 -32.5681 0.476977 0.808663 0.344322
-18.0942 67.4922 -33.3784 0.525579 0.75142 0.398917
-18.6736 67.4819 -32.6237 0.545484 0.718278 0.431885
-17.7175 66.4287 -31.6109 0.454824 0.811496 0.36689
-16.791 65.5586 -30.6642 0.419035 0.847211 0.326562
-15.4658 64.4515 -29.3023 0.397312 0.869191 0.294364
-14.3724 63.6765 -28.1677 0.369174 0.897113 0.242691
-13.0559 62.8329 -26.8241 0.330132 0.91942 0.213728
-11.7042 62.0916 -25.4664 0.313077 0.932733 0.178865
-10.3882 61.4279 -24.0991 0.304521 0.942313 0.138969
-9.32038 60.9354 -22.9937 0.298344 0.947547 0.114656
-8.25772 60.483 -21.901 0.279815 0.954998 0.0983992
-7.00286 59.9103 -19.3258 0.258044 0.962869 0.0793473
-8.27914 60.374 -20.6363 0.269425 0.95906 0.0872616
-9.43193 60.8312 -21.8121 0.2818 0.953023 0.111064
-10.558 61.3178 -22.9722 0.281367 0.950464 0.1321
-11.7326 61.8711 -24.1702 0.285563 0.94557 0.15605
-12.9507 62.5067 -25.4253 0.317614 0.9286 0.191896
-14.4009 63.3542 -26.8938 0.331146 0.913724 0.235479
-15.4784 64.0613 -27.9928 0.345431 0.896719 0.276717
-16.4919 64.8093 -29.0325 0.367953 0.878161 0.305686
-17.5109 65.6706 -30.0726 0.408991 0.841555 0.352861
-18.59 66.7354 -31.1762 0.415385 0.80306 0.427258
-19.2039 67.3941 -31.8103 0.501717 0.722172 0.47618
-19.5977 67.0945 -30.8626 0.434076 0.792549 0.428305
-18.628 66.0815 -29.8764 0.414501 0.81307 0.408785
-17.6673 65.2575 -28.9098 0.341968 0.86846 0.358936
-16.6706 64.4677 -27.8942 0.322347 0.904808 0.278234
-15.2016 63.5093 -26.4052 0.313342 0.915788 0.251295
-14.1227 62.8723 -25.3128 0.300663 0.928041 0.219867
-12.6055 62.0636 -23.7626 0.295962 0.936407 0.188545
-11.5508 61.5696 -22.6892 0.284303 0.947815 0.144283
-10.2434 61.0085 -21.3465 0.266932 0.955514 0.12546
-9.01619 60.5137 -20.0943 0.257077 0.959585 0.114488
-7.94091 60.1244 -18.993 0.237012 0.968081 0.0815091
-6.81979 59.7537 -17.8382 0.245826 0.967171 0.0644207
-6.38033 59.612 -17.3885 0.23899 0.968201 0.0739594
-6.46297 59.5355 -16.1847 0.216863 0.974102 0.0639921
-7.69015 59.9312 -17.4515 0.21948 0.972081 0.0829942
-9.18183 60.425 -18.9733 0.219851 0.969746 0.106107
-10.3309 60.8582 -20.1429 0.253109 0.959074 0.126937
-11.4402 61.3196 -21.2753 0.262142 0.951947 0.158362
-12.7765 61.9188 -22.6394 0.254836 0.946315 0.198865
-13.9167 62.4767 -23.7997 0.282318 0.941161 0.185777
-15.2804 63.1964 -25.1776 0.27902 0.935114 0.218423
-16.4806 63.9166 -26.3883 0.295672 0.910913 0.287777
-17.4725 64.6049 -27.3932 0.342263 0.878165 0.334188
-18.7864 65.6431 -28.7125 0.360456 0.852403 0.378787
-19.6021 66.395 -29.5298 0.380225 0.821909 0.424139
-19.4658 65.6298 -28.0695 0.327628 0.861064 0.38888
-18.1546 64.5967 -26.7602 0.31772 0.878852 0.355913
-16.826 63.7435 -25.4268 0.275433 0.919994 0.278834
-15.7734 63.1347 -24.3682 0.251679 0.933311 0.256103
-14.5686 62.507 -23.1494 0.256005 0.939952 0.225723
-13.1921 61.8456 -21.7586 0.243509 0.953413 0.178063
-12.1054 61.4022 -20.6589 0.242177 0.957861 0.154444
-10.7138 60.8335 -19.2449 0.223902 0.964696 0.138669
-9.38102 60.3504 -17.892 0.213683 0.971094 0.106379
-8.25993 59.9932 -16.7554 0.205871 0.974848 0.0853661
-7.81688 59.8595 -16.3013 0.208194 0.974212 0.0869808
-8.92781 60.0738 -16.1449 0.187809 0.977334 0.0977025
-10.1619 60.4598 -17.3996 0.195417 0.97138 0.135028
-11.3138 60.8686 -18.5645 0.214287 0.966816 0.139094
-12.4149 61.2957 -19.6796 0.19978 0.964837 0.170813
-13.4838 61.7265 -20.7585 0.211118 0.958608 0.191051
-14.8805 62.3499 -22.1553 0.212248 0.949 0.23313
-16.1216 62.9654 -23.4091 0.245206 0.93916 0.240525
-17.1747 63.5412 -24.4645 0.261339 0.925698 0.273469
-18.4011 64.2937 -25.6917 0.270093 0.901709 0.337596
-19.6839 65.1968 -26.9646 0.278071 0.888257 0.365617
-19.574 64.5648 -25.5456 0.257673 0.896358 0.360758
-18.5364 63.9068 -24.5127 0.231992 0.925159 0.300433
-17.2571 63.1837 -23.2341 0.208932 0.935675 0.284357
-15.8675 62.491 -21.8436 0.21615 0.945433 0.243792
-14.7481 61.9673 -20.7219 0.200311 0.956719 0.2111
-13.2173 61.3689 -19.1959 0.184125 0.962593 0.198776
-12.0895 60.9481 -18.0599 0.199842 0.966065 0.163654
-10.964 60.5516 -16.9262 0.182105 0.973923 0.135319
-10.0156 60.255 -15.9667 0.17463 0.97994 0.0960341
-11.1313 60.3999 -15.8089 0.135306 0.978473 0.15583
-12.3026 60.7972 -16.9853 0.116032 0.97223 0.203237
-13.4483 61.1934 -18.132 0.173884 0.967781 0.182113
-14.5891 61.6148 -19.2694 0.160782 0.96141 0.223249
-15.8208 62.1143 -20.4955 0.168724 0.943157 0.286334
-16.9604 62.662 -21.6297 0.165165 0.9406 0.296635
-18.2316 63.2793 -22.892 0.162264 0.93571 0.313237
-19.1428 63.7779 -23.8001 0.198603 0.917632 0.344251
-18.703 63.0769 -22.0433 0.162266 0.935711 0.313233
-17.6304 62.5779 -20.9901 0.162831 0.942827 0.290796
-16.5037 62.0489 -19.8778 0.1555 0.954262 0.255351
-15.3902 61.6063 -18.7699 0.0970464 0.958348 0.268611
-14.2468 61.1859 -17.6408 0.102548 0.965991 0.237371
-13.0786 60.7836 -16.477 0.116036 0.97223 0.203235
-11.8329 60.4042 -15.2261 0.135302 0.978473 0.155832
-12.5971 60.3716 -14.7144 0.0639981 0.978221 0.197453
-13.8715 60.7628 -15.985 0.0707477 0.96947 0.234783
-15.05 61.1514 -17.1537 0.102547 0.965991 0.237371
-16.167 61.5402 -18.2535 0.0970504 0.958347 0.26861
-17.7528 62.1962 -19.8078 0.114443 0.944819 0.306954
-17.7543 62.1969 -19.8093 0.113465 0.941685 0.316789
-17.3986 61.6471 -18.1728 0.0837108 0.942944 0.322255
-15.9355 61.1019 -16.7471 0.0656711 0.957499 0.280862
-14.7203 60.7186 -15.5467 0.0707487 0.969469 0.234785
-13.3848 60.3252 -14.2294 0.063998 0.978221 0.197453
-13.8267 60.1403 -13.4083 -0.00349387 0.96961 0.24463
-14.9688 60.4685 -14.5217 0.0216737 0.960381 0.277847
-16.1464 60.8264 -15.6772 0.0106669 0.956094 0.292866
-16.7776 61.0268 -16.2965 0.0481577 0.953856 0.296378
-16.1394 60.444 -14.4026 0.00268542 0.960833 0.277116
-14.84 60.0787 -13.1389 -0.0182529 0.955783 0.293507
-14.3598 59.9456 -12.6757 -0.0236277 0.957594 0.287152
-15.0743 59.7624 -12.1236 -0.0236257 0.957596 0.287146
-14.6416 59.6558 -11.713 -0.0287563 0.960088 0.278216
