7.92119 58.7821 3.35945 0.305988 -0.951535 0.0308578
7.1301 58.5142 2.5646 0.279569 -0.959688 0.02763
6.13034 58.2208 1.58176 0.247669 -0.968777 0.0114877
5.38205 58.0283 0.687702 0.204624 -0.978603 0.0215852
4.66474 57.8832 -0.340807 0.168129 -0.985457 0.000969022
4.24214 57.833 -1.44262 0.13106 -0.991281 -0.0136126
3.96696 57.8243 -2.91999 0.0981408 -0.994929 -0.0220075
3.23579 57.8013 -4.07567 0.0794728 -0.995428 -0.0517305
2.15527 57.7815 -5.01759 0.0532305 -0.996606 -0.0627238
0.546551 57.7806 -5.83183 0.0255425 -0.996899 -0.0744243
-0.866997 57.8538 -6.70528 -0.0021134 -0.994973 -0.100122
-1.94378 57.923 -7.241 -0.00711419 -0.992423 -0.122665
-2.99403 58.0464 -8.01035 -0.027587 -0.990803 -0.13229
-4.05768 58.1761 -8.53312 -0.0526775 -0.985017 -0.164129
-5.44172 58.4096 -9.32338 -0.0808589 -0.978302 -0.190453
-6.46137 58.616 -9.88508 -0.0829345 -0.976513 -0.19865
-7.57989 58.8267 -10.3068 -0.089772 -0.969891 -0.226072
-8.71265 58.8804 -10.0007 -0.115514 -0.958871 -0.259187
-9.27184 58.6769 -8.99377 -0.0866361 -0.962739 -0.256158
-9.59865 58.3918 -7.79954 -0.0705101 -0.966484 -0.246827
-9.97269 58.1204 -6.61345 -0.0686913 -0.969063 -0.23706
-10.3898 57.8371 -5.38836 -0.036885 -0.967782 -0.248332
-10.7347 57.5667 -4.28381 -0.0125484 -0.970266 -0.241585
-11.091 57.2626 -3.02607 0.0058511 -0.971996 -0.234926
-11.3095 56.9925 -1.92007 0.0133316 -0.97183 -0.235305
-11.3395 56.7181 -0.744404 0.0480068 -0.975729 -0.213574
-10.6962 56.4392 0.790527 0.0828809 -0.976925 -0.196846
-9.83621 56.3331 1.6793 0.0820283 -0.977838 -0.192571
-8.75957 56.2937 2.44798 0.0887398 -0.982321 -0.1648
-7.40155 56.3195 3.05021 0.0932877 -0.984229 -0.150299
-6.15841 56.3639 3.5502 0.0947977 -0.985054 -0.14381
-5.11709 56.3928 4.09315 0.1 -0.98722 -0.124082
-4.00856 56.4402 4.64096 0.109448 -0.988327 -0.105235
-2.75519 56.5333 5.16993 0.124067 -0.987376 -0.0979183
-1.55079 56.6626 5.6301 0.149583 -0.985043 -0.0850622
-0.107343 56.8805 5.77692 0.162478 -0.984821 -0.0608525
1.08652 57.0913 5.60017 0.164761 -0.98531 -0.0449257
2.23495 57.3018 5.65527 0.208936 -0.976961 -0.0415011
3.49793 57.5807 6.02423 0.238142 -0.971073 -0.0151809
4.38098 57.806 6.71825 0.268342 -0.963304 0.00611707
5.28264 58.0772 7.83057 0.287858 -0.957577 0.0132461
6.24097 58.3792 9.0008 0.295226 -0.955358 0.0100418
7.00125 58.6302 10.1465 0.305817 -0.952067 0.00641444
7.76463 58.8818 11.172 0.310372 -0.950609 0.00329105
8.42201 59.101 12.2429 0.317649 -0.948208 0.00114723
9.03321 59.307 13.2817 0.323452 -0.946238 -0.00266948
9.80078 59.5681 14.5227 0.331481 -0.943444 -0.00516484
10.555 59.829 15.8263 0.338233 -0.941037 -0.00691374
11.1888 60.0512 16.9401 0.342255 -0.939579 -0.00728138
11.7066 60.2348 18.047 0.348374 -0.93733 -0.00643922
12.2479 60.4288 19.2254 0.352561 -0.935757 -0.00765329
12.8057 60.6296 20.4024 0.356167 -0.934388 -0.00807154
13.1837 60.7646 21.4895 0.359022 -0.933292 -0.00826756
13.4857 60.8703 22.6547 0.361702 -0.932254 -0.00864111
13.9656 61.044 24.1347 0.365167 -0.930903 -0.0085382
14.4513 61.223 25.5967 0.367963 -0.929811 -0.00744918
14.7624 61.3356 26.9476 0.371067 -0.928577 -0.0073114
15.0355 61.4362 28.1005 0.372508 -0.928007 -0.00637019
15.3526 61.5542 29.484 0.374479 -0.927219 -0.00560308
15.5287 61.6176 30.8433 0.375925 -0.926634 -0.005434
15.7156 61.6871 31.9864 0.376802 -0.926283 -0.00453454
15.9351 61.7714 33.1557 0.377973 -0.925808 -0.00391539
16.6246 62.0496 34.1588 0.37878 -0.925482 -0.00294498
17.5603 62.4344 33.5403 0.378615 -0.925552 -0.00213736
18.2174 62.7055 32.3332 0.377318 -0.926081 -0.00221426
18.3685 62.77 31.086 0.377054 -0.926188 -0.0025162
18.3339 62.7596 29.5948 0.375196 -0.926942 -0.00264312
18.3637 62.775 28.3078 0.374934 -0.927049 -0.00199835
18.4144 62.7984 27.0899 0.373614 -0.927582 -0.00217075
18.3552 62.7776 25.7351 0.37133 -0.928498 -0.00238031
18.2238 62.7277 24.5545 0.370902 -0.92867 -0.00162228
18.0157 62.6468 23.2174 0.369161 -0.929364 -0.00143463
17.8771 62.593 22.0247 0.367828 -0.929893 -0.000781967
17.6361 62.4982 20.8781 0.366262 -0.930512 0.000362743
17.3496 62.3855 19.7175 0.36369 -0.93152 -0.000216377
16.9298 62.2196 18.3208 0.362073 -0.932145 0.00273852
16.6249 62.0979 17.1585 0.3607 -0.932671 0.00458457
16.2283 61.9392 15.9629 0.357106 -0.934049 0.00503851
15.7404 61.7476 14.9335 0.354878 -0.934893 0.00610321
15.2236 61.5445 13.9034 0.351842 -0.936015 0.0091739
14.7948 61.3714 12.714 0.350182 -0.936605 0.011963
14.2489 61.154 11.5873 0.34586 -0.93819 0.0134546
13.6348 60.913 10.5852 0.341235 -0.939857 0.0151221
12.9207 60.6354 9.4139 0.339447 -0.940473 0.0168503
12.2891 60.3876 8.30084 0.33363 -0.942525 0.0183533
11.4818 60.0791 7.19575 0.331456 -0.943205 0.0222668
10.5197 59.7192 6.03626 0.320935 -0.946728 0.0265963
9.64032 59.3965 5.07513 0.31874 -0.947411 0.0285812
8.66016 59.039 3.97107 0.308809 -0.950622 0.0307421
8.19586 58.8773 3.5768 0.305939 -0.95158 0.0299425
8.62563 58.981 2.50039 0.308528 -0.950747 0.029831
9.54855 59.3096 3.27933 0.314117 -0.948859 0.0315192
10.2844 59.5859 4.18854 0.320962 -0.946599 0.0305662
11.1484 59.9091 5.13071 0.324645 -0.945433 0.0275631
11.9048 60.196 5.99792 0.330678 -0.94334 0.0275282
12.7101 60.5103 7.09731 0.335696 -0.941689 0.0229281
13.4648 60.8047 8.10832 0.339512 -0.940352 0.0216446
14.0963 61.0608 9.37478 0.341351 -0.939787 0.0166565
14.7563 61.3208 10.3375 0.348897 -0.937004 0.0170831
15.3208 61.5494 11.3772 0.349579 -0.93677 0.0160346
15.8101 61.7493 12.4413 0.353032 -0.935535 0.0119468
16.3001 61.9498 13.7598 0.355244 -0.934726 0.00942816
16.8342 62.163 14.7681 0.357902 -0.933712 0.00898991
17.2947 62.3483 15.8073 0.35962 -0.933078 0.00616119
17.7031 62.5156 17.1752 0.362957 -0.931789 0.00560829
18.034 62.6501 18.4382 0.364131 -0.931338 0.00392456
18.4371 62.8126 19.8713 0.366887 -0.930264 0.00160615
18.7211 62.9266 21.1882 0.367897 -0.929864 0.00161035
18.9778 63.0297 22.4885 0.370064 -0.929006 0.000823826
19.1868 63.1128 23.8466 0.371105 -0.92859 -0.000513872
19.3668 63.1838 25.3599 0.372485 -0.928037 -0.00123678
19.4261 63.2063 26.526 0.373512 -0.927625 -0.000759606
19.4556 63.217 27.9223 0.374299 -0.927307 -0.0012235
19.329 63.1638 29.4459 0.376052 -0.926598 -0.00124103
19.3128 63.1552 30.6538 0.376947 -0.926234 -0.00137549
19.3378 63.1632 32.145 0.377957 -0.925823 -0.0010694
18.8352 62.956 33.4509 0.378722 -0.92551 -0.00119587
17.9593 62.5949 34.7798 0.379467 -0.925203 -0.00188211
16.9076 62.1622 35.3259 0.37962 -0.92514 -0.00219256
15.8368 61.7233 35.2234 0.379554 -0.925163 -0.00345566
15.0812 61.4183 34.058 0.378851 -0.925448 -0.00424842
14.8673 61.3378 32.7194 0.378063 -0.925764 -0.00534128
14.6246 61.2471 31.3859 0.37598 -0.926611 -0.00562089
14.4989 61.2041 30.2421 0.375633 -0.926744 -0.00667336
14.2236 61.1031 28.9768 0.373086 -0.927765 -0.00770359
13.9235 60.9922 27.8585 0.372715 -0.927907 -0.00844502
13.6738 60.9036 26.6801 0.370322 -0.928863 -0.00863776
13.406 60.8093 25.5432 0.368354 -0.929627 -0.0104299
12.9693 60.6509 24.357 0.364799 -0.931025 -0.0106789
12.5956 60.519 23.1906 0.36216 -0.932039 -0.0119269
12.19 60.3794 21.7682 0.358819 -0.933345 -0.0107856
11.7549 60.2276 20.5902 0.354798 -0.93487 -0.011691
11.241 60.0466 19.4775 0.351837 -0.935979 -0.012222
10.7428 59.8736 18.4045 0.348678 -0.937187 -0.010181
10.1539 59.6731 17.1605 0.342961 -0.939265 -0.0125966
9.38339 59.4106 15.8418 0.335404 -0.942039 -0.00808776
8.81003 59.2187 14.8608 0.327703 -0.944731 -0.00898995
8.15838 59.0061 13.8333 0.322347 -0.946569 -0.00970473
7.48092 58.7875 12.7053 0.312136 -0.950011 -0.0070641
6.87824 58.5949 11.7156 0.307361 -0.951591 -0.00216985
6.12634 58.356 10.8005 0.298831 -0.954303 0.00250995
5.46713 58.1484 9.72633 0.292433 -0.956275 0.0040646
4.65937 57.8978 8.81472 0.284802 -0.958548 0.00609276
3.84035 57.6579 7.85933 0.270003 -0.962859 0.000910814
2.77117 57.383 7.08058 0.241083 -0.970285 -0.0206331
1.66452 57.1438 6.7546 0.20885 -0.976301 -0.0567221
0.522751 56.9165 6.97056 0.177819 -0.982184 -0.0603108
-0.680253 56.7054 6.96192 0.169335 -0.983322 -0.0663593
-1.99393 56.5054 6.66518 0.163319 -0.981978 -0.0951137
-3.09376 56.3898 6.1882 0.13819 -0.984196 -0.110736
-4.30221 56.2876 5.66536 0.122847 -0.985264 -0.118842
-5.39215 56.2291 5.13662 0.109641 -0.985461 -0.12979
-6.70967 56.1783 4.45819 0.0985754 -0.985601 -0.137168
-7.8433 56.126 4.04354 0.103168 -0.982919 -0.152402
-8.96241 56.0979 3.5022 0.10062 -0.981809 -0.160931
-10.2293 56.107 2.74303 0.0940696 -0.980245 -0.173982
-11.1454 56.1645 1.97937 0.0980478 -0.975406 -0.197406
-11.9223 56.3077 0.95021 0.08774 -0.972826 -0.214271
-12.3878 56.6285 -0.608032 0.0715004 -0.971153 -0.227465
-12.373 57.0506 -2.27066 0.0374673 -0.967718 -0.249234
-12.0875 57.3675 -3.48551 0.00711096 -0.967645 -0.252215
-11.7814 57.6553 -4.59529 -0.0240534 -0.964916 -0.261455
-11.3483 57.9997 -5.89611 -0.0403808 -0.96408 -0.262523
-10.9465 58.2984 -7.07502 -0.0729237 -0.963254 -0.258503
-10.528 58.5873 -8.25475 -0.0828018 -0.961712 -0.261242
-10.1564 58.9516 -9.63643 -0.124115 -0.950513 -0.284815
-9.55848 59.1733 -10.6374 -0.137135 -0.950149 -0.279865
-8.61374 59.2446 -11.4092 -0.138291 -0.958761 -0.248301
-7.27025 59.0511 -11.3745 -0.123941 -0.96457 -0.232902
-6.05746 58.7983 -10.9437 -0.117352 -0.970391 -0.211082
-4.99682 58.5564 -10.2997 -0.0903906 -0.978395 -0.185395
-3.86467 58.3468 -9.65274 -0.067077 -0.986348 -0.150284
-2.87865 58.1976 -9.07691 -0.0469869 -0.988189 -0.145773
-1.85712 58.0724 -8.46625 -0.0334973 -0.991669 -0.12438
-0.588109 57.9609 -7.74173 -0.00873467 -0.994415 -0.105107
0.504326 57.9036 -7.18887 0.0044761 -0.995249 -0.0971446
1.53927 57.8592 -6.46678 0.0282052 -0.996027 -0.0844714
2.67333 57.8686 -5.97734 0.0555321 -0.996866 -0.0563475
3.72337 57.8931 -5.16588 0.0749129 -0.995961 -0.0494991
4.68235 57.9249 -3.92986 0.0884728 -0.995354 -0.0375611
5.16052 57.9524 -2.73457 0.114525 -0.993364 -0.0077502
5.28943 57.9767 -1.49971 0.134565 -0.990823 0.0126927
5.87472 58.1058 -0.467362 0.184644 -0.982608 0.0196808
6.56339 58.2992 0.45522 0.236882 -0.970509 0.0407699
7.51292 58.5944 1.42693 0.281855 -0.958985 0.0264023
8.3798 58.8946 2.28862 0.308104 -0.9508 0.032332
9.0004 59.061 1.35018 0.30945 -0.950298 0.0342255
10.0631 59.446 2.28567 0.316243 -0.947943 0.0373498
10.9142 59.7664 3.17205 0.323294 -0.945816 0.0300586
11.7412 60.0813 4.09812 0.325716 -0.944935 0.0317356
12.4984 60.3767 5.05708 0.332992 -0.942479 0.0291298
13.231 60.6686 6.08214 0.335535 -0.941604 0.0282554
13.9063 60.9363 6.99166 0.337365 -0.941006 0.0263057
14.6237 61.2231 7.98483 0.3444 -0.938566 0.0219732
15.2399 61.4752 9.10179 0.345798 -0.938053 0.0219022
15.9704 61.7741 10.3426 0.351826 -0.935854 0.0197524
16.4852 61.9883 11.411 0.353389 -0.935336 0.0162171
16.9601 62.1855 12.4388 0.355678 -0.93453 0.0121017
17.4154 62.3718 13.4656 0.359549 -0.933034 0.0130429
17.8343 62.5475 14.599 0.359382 -0.933127 0.0108129
18.3658 62.7625 15.6137 0.36245 -0.931977 0.00694524
18.7422 62.9184 16.835 0.364767 -0.931074 0.00678233
18.9813 63.02 17.9911 0.365619 -0.930755 0.0042397
19.3062 63.1528 19.1089 0.367897 -0.929856 0.00426786
19.5354 63.2478 20.257 0.368535 -0.929609 0.00286412
19.8736 63.385 21.4111 0.369813 -0.929104 0.00207669
19.9769 63.4282 22.6226 0.370903 -0.928671 0.000788356
20.2815 63.551 23.8939 0.372147 -0.928174 0.000683978
20.4277 63.6104 25.2677 0.373211 -0.927747 -6.48654e-05
20.5226 63.6484 26.5901 0.373989 -0.927433 -0.000173041
20.5053 63.6412 27.7499 0.375333 -0.92689 0.000224804
20.3539 63.5799 29.1287 0.37609 -0.926583 3.74531e-05
20.2735 63.546 30.6321 0.376654 -0.926353 -0.00110704
20.412 63.6022 31.8026 0.37813 -0.925752 -0.000521941
20.2068 63.5178 33.1208 0.378791 -0.925482 -0.000142216
19.6873 63.3043 34.1317 0.379364 -0.925247 -0.00093499
19.0826 63.0551 35.1885 0.37954 -0.925175 -0.000931432
18.2047 62.6934 35.9631 0.37999 -0.924989 -0.00159477
16.8741 62.1456 36.4773 0.380024 -0.924975 -0.00195201
15.4236 61.5498 36.4055 0.379885 -0.92503 -0.00278896
14.7138 61.2611 35.5788 0.380201 -0.924894 -0.00432718
14.1355 61.0297 34.2729 0.379768 -0.925065 -0.00552014
13.8249 60.9094 33.1479 0.378307 -0.925663 -0.00556758
13.6818 60.8599 31.8722 0.377636 -0.92593 -0.00673712
13.5899 60.8328 30.6332 0.376413 -0.926415 -0.00824909
13.3793 60.7585 29.4479 0.374125 -0.92734 -0.00836418
12.945 60.5953 28.2848 0.373306 -0.927656 -0.00981727
12.6678 60.5011 26.8584 0.37015 -0.928907 -0.0109779
12.339 60.3879 25.5013 0.368653 -0.929478 -0.0128513
11.9246 60.2405 24.4344 0.364504 -0.931076 -0.0152809
11.5504 60.1112 23.3308 0.36216 -0.932011 -0.013966
11.1651 59.9811 22.0519 0.359716 -0.932963 -0.013569
10.8018 59.8606 20.9688 0.354265 -0.934986 -0.0169029
10.3039 59.6898 19.8457 0.352427 -0.935724 -0.0147003
9.75103 59.5024 18.7393 0.346303 -0.937941 -0.0181119
9.28053 59.3498 17.671 0.339761 -0.940411 -0.013748
8.61096 59.1267 16.6083 0.334944 -0.942117 -0.0151083
8.06009 58.949 15.6064 0.330992 -0.943466 -0.0177903
7.28353 58.7041 14.3071 0.318932 -0.947522 -0.0207514
6.63953 58.5058 13.354 0.309829 -0.95071 -0.0125453
5.92031 58.2864 12.2163 0.301713 -0.953386 -0.00484577
5.00828 58.0065 11.1104 0.293919 -0.955811 -0.00536445
4.42148 57.8306 10.1241 0.291215 -0.956655 0.00155746
3.46314 57.5448 9.08234 0.28941 -0.957153 -0.00997397
2.50874 57.2739 8.13384 0.279017 -0.960233 -0.0100618
1.29176 57.0018 8.02596 0.183445 -0.981572 -0.0535196
-0.123497 56.7164 8.19495 0.18889 -0.979471 -0.070402
-1.54457 56.4557 8.01677 0.183041 -0.977715 -0.102806
-2.785 56.298 7.46557 0.160794 -0.980898 -0.109472
-4.2622 56.1526 6.84361 0.139052 -0.982624 -0.122942
-5.33265 56.0763 6.37279 0.122143 -0.984698 -0.124264
-6.45158 56.0122 5.85677 0.116322 -0.983602 -0.137701
-7.60164 55.9608 5.28293 0.107868 -0.983601 -0.144332
-8.66399 55.9144 4.84128 0.105224 -0.982355 -0.154603
-9.8613 55.885 4.21764 0.106803 -0.979409 -0.171324
-11.0018 55.8867 3.51329 0.121191 -0.977677 -0.170677
-12.1106 55.9493 2.55907 0.113954 -0.972983 -0.200793
-12.9241 56.1218 1.37208 0.0951242 -0.970033 -0.223344
-13.3335 56.3516 0.274549 0.0797892 -0.969032 -0.23369
-13.55 56.6822 -1.06526 0.054562 -0.963508 -0.261924
-13.4945 56.9983 -2.20412 0.0337141 -0.956802 -0.287373
-13.1832 57.3979 -3.60679 -0.00084789 -0.965016 -0.262124
-12.8036 57.7437 -4.87728 0.00925516 -0.965224 -0.261259
-12.4336 58.096 -6.08147 -0.0460667 -0.957938 -0.283252
-12.0168 58.3809 -7.1253 -0.0468543 -0.960704 -0.273498
-11.7074 58.6903 -8.18452 -0.079736 -0.949077 -0.303148
-11.3717 59.0173 -9.37696 -0.109644 -0.94733 -0.300906
-10.8563 59.3414 -10.5639 -0.166662 -0.935012 -0.313013
-10.2886 59.5603 -11.54 -0.158905 -0.944664 -0.286982
-9.09126 59.6174 -12.4907 -0.183756 -0.948062 -0.258605
-7.78136 59.4259 -12.6221 -0.150164 -0.960566 -0.234015
-6.56915 59.1621 -12.2987 -0.143984 -0.962948 -0.227891
-5.40296 58.9015 -11.8397 -0.13928 -0.974041 -0.178453
-4.41023 58.6709 -11.2471 -0.110494 -0.976756 -0.183682
-3.43461 58.4733 -10.6738 -0.0803854 -0.986784 -0.1407
-2.21989 58.2784 -9.8859 -0.0599026 -0.987996 -0.142393
-1.05825 58.1361 -9.18694 -0.0299026 -0.992132 -0.121291
0.0117585 58.0582 -8.69448 -0.0123963 -0.994207 -0.106761
1.09567 57.9865 -8.04529 0.00675718 -0.995856 -0.0906409
2.13125 57.9454 -7.376 0.0239133 -0.997299 -0.0694425
3.27475 57.9419 -6.86051 0.0304317 -0.997954 -0.0502212
4.36772 57.9752 -6.06686 0.0647014 -0.997082 -0.0405071
5.46116 58.0201 -4.85589 0.084763 -0.995909 -0.0313077
6.19739 58.067 -3.51568 0.0967299 -0.995138 0.0031826
6.24721 58.0957 -2.3071 0.130176 -0.991452 0.00852611
6.71875 58.2044 -1.18959 0.201476 -0.973429 0.0878266
7.44224 58.4926 -0.314737 0.301012 -0.951766 0.0594361
8.51416 58.8844 0.806297 0.298636 -0.953409 0.042765
17.5258 62.4228 32.5872 0.377839 -0.925868 -0.00254383
16.5055 62.0063 32.649 0.377458 -0.92602 -0.00361451
16.1781 61.877 31.6726 0.376517 -0.926402 -0.00378485
17.3422 62.351 31.6021 0.376959 -0.926225 -0.00313782
17.6323 62.469 31.5845 0.376766 -0.926304 -0.00282681
17.8318 62.5531 30.5762 0.376103 -0.926574 -0.00273621
16.7622 62.1188 30.641 0.375971 -0.926622 -0.00410106
16.2565 61.9134 30.6716 0.37598 -0.926615 -0.00480052
15.9101 61.7782 29.6964 0.374535 -0.927198 -0.00533995
17.2065 62.303 29.6178 0.375324 -0.926889 -0.00291746
17.7099 62.5069 29.5873 0.375447 -0.92684 -0.00286784
17.5464 62.444 28.6009 0.374447 -0.927244 -0.00274174
16.2091 61.9044 28.6819 0.373188 -0.927743 -0.00483329
15.7688 61.7269 28.7087 0.373718 -0.927527 -0.0054136
15.6452 61.6832 27.7198 0.371627 -0.92836 -0.00639883
16.7161 62.1136 27.6548 0.372795 -0.927904 -0.00420343
17.7824 62.5426 27.5902 0.373991 -0.927429 -0.00269946
17.7668 62.5397 26.5948 0.37179 -0.928311 -0.00337814
16.7235 62.1214 26.6579 0.372123 -0.928174 -0.00419115
15.5261 61.642 26.7306 0.371132 -0.92856 -0.00616493
15.3277 61.5626 26.7427 0.370575 -0.92878 -0.00648213
15.0299 61.4509 25.7644 0.370096 -0.928975 -0.00587304
16.2435 61.9344 25.6906 0.36996 -0.929034 -0.00494717
17.6414 62.4924 25.6059 0.371352 -0.928487 -0.00297961
17.8135 62.5614 25.5955 0.371604 -0.928388 -0.0025496
17.467 62.4258 24.6201 0.370017 -0.929021 -0.00253297
16.4236 62.0109 24.6831 0.368974 -0.929431 -0.0040065
15.3917 61.6011 24.7458 0.369218 -0.929327 -0.00545462
14.8483 61.3864 24.779 0.367919 -0.929831 -0.00706026
14.6424 61.312 23.7949 0.365366 -0.930838 -0.00698385
15.7449 61.7464 23.7278 0.367933 -0.929843 -0.00418399
16.8082 62.167 23.6634 0.367753 -0.929919 -0.00286943
17.5132 62.4466 23.6209 0.369157 -0.929366 -0.001592
17.2366 62.3391 22.6412 0.367395 -0.930063 -0.00181271
16.1913 61.9265 22.7043 0.366949 -0.930238 -0.00256079
15.0798 61.4904 22.7716 0.364367 -0.931238 -0.00572409
14.503 61.2652 22.8067 0.36398 -0.931382 -0.00684442
13.8196 61.0068 21.8518 0.361372 -0.932391 -0.00754178
14.8816 61.4194 21.7869 0.362859 -0.93183 -0.00521989
16.0456 61.8734 21.7166 0.364241 -0.931299 -0.00311492
17.2588 62.3494 21.6436 0.36664 -0.930362 -0.00154119
17.014 62.2538 20.6622 0.365057 -0.930985 -0.000692855
15.7659 61.7672 20.7371 0.361806 -0.932249 -0.00294787
14.6724 61.3432 20.8032 0.360224 -0.932853 -0.004908
13.6057 60.9319 20.8683 0.358188 -0.933619 -0.007535
13.5296 60.9027 20.873 0.358185 -0.93362 -0.00753743
13.3271 60.8324 19.8885 0.355749 -0.93456 -0.00628387
14.5161 61.2873 19.8164 0.356811 -0.934166 -0.00440543
15.5735 61.6948 19.7525 0.360738 -0.932666 -0.00157974
16.5947 62.0907 19.6911 0.362179 -0.932108 0.000204832
16.2604 61.9616 18.7151 0.360465 -0.932773 -0.000435206
15.2004 61.5527 18.7793 0.359749 -0.933049 0.000258218
14.0814 61.1253 18.8467 0.355296 -0.934753 -0.00140052
12.8767 60.668 18.9197 0.351858 -0.936033 -0.00614995
12.3263 60.4674 17.9576 0.349901 -0.936775 -0.00466948
13.5557 60.9279 17.8832 0.35253 -0.935799 -0.00125894
14.8485 61.4189 17.8049 0.356258 -0.934388 0.000175974
15.9684 61.8471 17.7376 0.358552 -0.933508 0.00171951
16.2188 61.9432 17.7227 0.359178 -0.933266 0.00215495
15.7688 61.7677 16.755 0.358366 -0.933576 0.00304969
14.6679 61.3486 16.8208 0.35502 -0.934856 0.00200706
13.5024 60.9095 16.8916 0.350896 -0.936414 0.000237823
12.4399 60.5126 16.9554 0.349471 -0.936947 -0.000719136
11.7942 60.2739 16.9936 0.345954 -0.938245 -0.00347135
11.3851 60.1277 16.0219 0.342877 -0.939371 -0.00414771
12.6145 60.5788 15.9495 0.344657 -0.938728 -0.00117689
13.8742 61.0479 15.8746 0.351182 -0.936306 0.00179424
14.9154 61.4396 15.813 0.353987 -0.935242 0.00388404
15.4657 61.6479 15.7805 0.355276 -0.934752 0.00425931
14.931 61.4412 14.8218 0.352 -0.935978 0.00645718
13.6786 60.9715 14.8944 0.348948 -0.937133 0.00419589
12.4978 60.5354 14.962 0.344155 -0.938911 0.00199894
11.4533 60.1548 15.0228 0.338047 -0.941126 -0.00235408
10.9694 59.981 15.0472 0.337882 -0.941186 -0.00224499
10.3555 59.765 14.0822 0.331561 -0.943434 -0.000408405
11.605 60.2095 14.0206 0.336249 -0.941772 0.00133318
12.693 60.6038 13.9606 0.343897 -0.938991 0.00552035
13.7813 61.0047 13.9012 0.348222 -0.937384 0.00721721
14.3052 61.2001 13.8729 0.349975 -0.936723 0.00824418
14.1065 61.1173 12.9061 0.346458 -0.938009 0.0103254
12.6862 60.5966 12.978 0.341966 -0.939702 0.00449488
11.4892 60.165 13.036 0.336994 -0.941499 0.00392212
10.3457 59.761 13.0886 0.331503 -0.943453 0.00119344
9.84057 59.5847 13.1109 0.329495 -0.944155 0.00220723
9.10056 59.3293 12.1441 0.321856 -0.946785 0.00262903
10.1887 59.7026 12.1053 0.32768 -0.944782 0.00370315
11.2586 60.076 12.0649 0.32987 -0.944007 0.00604185
12.4768 60.5109 12.0131 0.339044 -0.940727 0.00903803
13.7134 60.9616 11.9531 0.344497 -0.938737 0.00972806
13.7611 60.9792 11.9506 0.346456 -0.938009 0.0103314
13.2378 60.7752 11.0019 0.342173 -0.939555 0.0124298
11.7765 60.2498 11.0669 0.334112 -0.942475 0.0105168
10.7041 59.8742 11.1025 0.327534 -0.944806 0.00794587
9.52629 59.4688 11.1362 0.320083 -0.947374 0.00548403
8.66377 59.1786 11.1532 0.317543 -0.94823 0.00503944
7.73508 58.8656 10.1551 0.307996 -0.951366 0.00639017
8.91202 59.2535 10.1447 0.317953 -0.948041 0.0111751
10.054 59.6377 10.1299 0.323364 -0.946212 0.0108648
11.3881 60.1006 10.0983 0.329151 -0.944178 0.0136738
12.6793 60.5588 10.0516 0.336668 -0.941499 0.0153315
12.0576 60.321 9.0929 0.333826 -0.94246 0.0181432
10.9565 59.9356 9.11885 0.327874 -0.944558 0.0175987
9.82736 59.5485 9.13727 0.321869 -0.946672 0.0146065
8.68647 59.1664 9.13538 0.313783 -0.949427 0.0113602
7.45911 58.767 9.13109 0.305262 -0.952192 0.0121099
7.07215 58.6426 9.12585 0.303358 -0.952798 0.0122697
6.41055 58.4201 8.02378 0.290186 -0.956893 0.0121618
7.72565 58.8385 8.09204 0.306631 -0.95171 0.0150053
8.80144 59.1894 8.11775 0.314821 -0.949012 0.0162402
9.85556 59.5406 8.14285 0.316383 -0.948496 0.0160335
10.9174 59.9034 8.13132 0.326404 -0.945013 0.0202634
11.429 60.0811 8.12161 0.328384 -0.944305 0.0212847
10.4387 59.7186 7.13578 0.323315 -0.946018 0.0227292
9.28605 59.3284 7.1228 0.316975 -0.948171 0.0223418
8.02802 58.916 7.05373 0.304891 -0.952179 0.0199059
6.9785 58.5785 6.97333 0.304423 -0.95232 0.0203413
5.89188 58.2437 6.83175 0.28827 -0.957408 0.0164649
5.19263 58.0322 6.73861 0.265647 -0.964014 0.0104458
-9.23857 56.4192 1.4573 0.0813565 -0.983255 -0.163066
-9.77394 56.4677 0.98402 0.0623467 -0.980936 -0.184059
-10.7757 56.8301 -1.13328 0.0397578 -0.976271 -0.212869
-9.25904 56.6474 0.184747 0.0583504 -0.982491 -0.176935
-7.82538 56.5124 1.56194 0.0771309 -0.984269 -0.158953
-6.81276 56.4236 2.70465 0.0873054 -0.98629 -0.140037
-4.21856 56.504 3.91997 0.0982276 -0.988285 -0.116807
-5.38036 56.5692 2.54058 0.0889692 -0.987315 -0.131503
-6.69647 56.6432 1.26483 0.0718996 -0.98691 -0.14436
-8.00255 56.7565 0.00360225 0.054278 -0.9851 -0.163192
-9.44937 56.9087 -1.22605 0.0465335 -0.979524 -0.195878
-10.5001 57.0458 -2.05977 0.0220218 -0.973489 -0.227672
-10.496 57.2671 -3.02999 0.0134749 -0.973633 -0.227722
-8.77474 57.0542 -1.83384 0.0343922 -0.980784 -0.192043
-7.25157 56.9 -0.60947 0.0513696 -0.985922 -0.15912
-5.88907 56.7979 0.595499 0.0642394 -0.988366 -0.137865
-4.58814 56.7223 1.85085 0.0827156 -0.988884 -0.123555
-3.2844 56.6789 3.1996 0.0968997 -0.988941 -0.112278
-2.03106 56.6779 4.65637 0.132294 -0.986785 -0.0935643
-1.87407 56.6849 4.82972 0.139066 -0.987083 -0.0795505
0.0235603 56.9466 5.09533 0.150027 -0.987154 -0.0549375
-1.7007 56.8317 3.32712 0.134866 -0.987605 -0.080297
-2.98968 56.8382 1.9754 0.0832952 -0.990853 -0.106172
-4.47164 56.8954 0.519519 0.0682216 -0.990395 -0.120268
-6.17748 57.0047 -0.96612 0.0395777 -0.988382 -0.146744
-7.78008 57.1472 -2.17553 0.0210989 -0.983651 -0.178846
-9.52112 57.3496 -3.3413 0.00535046 -0.977878 -0.20911
-10.2005 57.4446 -3.77251 -0.00701284 -0.974816 -0.222899
-9.96816 57.6276 -4.56484 -0.00553832 -0.973286 -0.229528
-8.37409 57.4072 -3.5922 0.0128147 -0.981053 -0.193314
-6.81551 57.2414 -2.59493 0.0141159 -0.986332 -0.164161
-5.31162 57.1198 -1.48385 0.0461951 -0.989387 -0.137765
-3.69304 57.0196 -0.0959119 0.0615316 -0.991591 -0.113848
-2.01544 56.972 1.52314 0.0827199 -0.991959 -0.0957835
-0.705703 56.999 2.76913 0.114818 -0.990557 -0.0749248
0.685449 57.1066 4.02778 0.132973 -0.98968 -0.0534041
1.48299 57.1991 4.83274 0.180569 -0.982574 -0.0440861
-9.79442 57.8103 -5.38782 -0.0247452 -0.97507 -0.220512
-8.14866 57.5739 -4.45668 -0.00564436 -0.981485 -0.191458
-6.54351 57.3963 -3.48353 0.00450876 -0.985012 -0.172427
-5.03172 57.2639 -2.45558 0.026823 -0.989642 -0.14103
-3.66009 57.1737 -1.36683 0.0483476 -0.99162 -0.119798
-2.3664 57.1204 -0.216992 0.0665122 -0.992717 -0.10044
-1.06928 57.1104 0.957755 0.0928433 -0.991823 -0.0875629
0.502364 57.1801 2.27672 0.114147 -0.990999 -0.0699428
2.02719 57.3483 3.57701 0.177965 -0.98335 -0.0367566
3.45586 57.5974 4.74961 0.210768 -0.977421 -0.0149713
5.09953 57.9927 5.47496 0.261529 -0.965184 -0.00477818
6.95582 58.5506 5.86249 0.294253 -0.955552 0.0183332
8.79049 59.1403 6.0566 0.309906 -0.950478 0.0234601
9.86153 59.498 6.11014 0.32184 -0.946527 0.0224757
8.62041 59.0565 4.95612 0.310921 -0.95001 0.0284512
6.66483 58.4298 4.62702 0.285168 -0.958207 0.0227679
5.00738 57.9586 4.07651 0.246078 -0.969146 0.0141731
3.43675 57.6138 3.1428 0.193092 -0.980926 -0.0223723
2.04369 57.3904 2.07613 0.159559 -0.986316 -0.0415013
0.471229 57.2717 0.878144 0.107241 -0.992162 -0.064142
-0.900668 57.2302 -0.292929 0.0784102 -0.993174 -0.0863558
-2.36185 57.2546 -1.53486 0.0513793 -0.993201 -0.104459
-3.8221 57.3355 -2.75587 0.029107 -0.992076 -0.122217
-5.2359 57.4456 -3.72846 0.0159583 -0.989597 -0.142977
-6.73484 57.6 -4.66603 -0.00759459 -0.985512 -0.169437
-8.37727 57.8033 -5.56026 -0.0312145 -0.977661 -0.207855
-9.30856 57.9433 -6.05162 -0.0410279 -0.974153 -0.22213
-8.989 58.1032 -6.78058 -0.0488358 -0.972716 -0.226802
-7.07926 57.8309 -5.87721 -0.028607 -0.981874 -0.187362
-5.3822 57.628 -4.90443 -0.00782805 -0.986512 -0.163502
-3.60321 57.4746 -3.77736 0.0201472 -0.99112 -0.131439
-2.21469 57.3856 -2.67789 0.0377931 -0.993286 -0.10934
-0.721597 57.3395 -1.44491 0.0592423 -0.994812 -0.0827035
0.836379 57.3921 -0.303875 0.104571 -0.992138 -0.0687469
2.27243 57.4894 0.867058 0.153919 -0.986768 -0.0509644
3.8755 57.7155 1.93126 0.186527 -0.9824 -0.00993067
5.42821 58.0549 2.93273 0.250918 -0.967978 0.00767316
7.06042 58.5209 3.50032 0.289883 -0.95669 0.0266778
7.30663 58.5975 3.57271 0.290257 -0.956555 0.0274633
4.85662 57.9236 1.15023 0.21857 -0.975813 -0.00412505
3.38942 57.6725 0.178716 0.153093 -0.987776 -0.0293522
1.69799 57.5212 -1.11261 0.0949578 -0.994197 -0.0505522
0.245793 57.4535 -2.02938 0.0559332 -0.995188 -0.0804478
-1.17599 57.4763 -3.15373 0.0377835 -0.994116 -0.101517
-2.61224 57.5504 -4.2802 0.0220459 -0.992992 -0.116111
-4.23804 57.6821 -5.31629 -0.00441708 -0.990174 -0.139773
-5.79931 57.8525 -6.18383 -0.0197385 -0.984289 -0.175456
-7.39883 58.0757 -7.01448 -0.0461723 -0.976904 -0.20863
-8.86092 58.2992 -7.65787 -0.0744315 -0.966489 -0.245681
-8.67726 58.4978 -8.51619 -0.0887482 -0.968625 -0.232142
-6.92167 58.2093 -7.77053 -0.0577238 -0.97816 -0.199677
-5.15893 57.951 -6.90626 -0.0476234 -0.984646 -0.167941
-3.328 57.7604 -5.93348 -0.00959741 -0.990367 -0.138134
-1.82847 57.6428 -4.93508 0.0191044 -0.992648 -0.119522
-0.307492 57.5795 -3.79533 0.0436717 -0.995114 -0.0885499
1.278 57.574 -2.66065 0.0748806 -0.995192 -0.0631327
2.9689 57.6746 -1.56575 0.106371 -0.993529 -0.0398172
3.59565 57.7427 -1.12191 0.134881 -0.990219 -0.0357006
3.28479 57.7479 -2.7149 0.107497 -0.993617 -0.0341974
1.83287 57.6763 -3.64244 0.0597958 -0.996296 -0.0617942
0.188361 57.6785 -4.75792 0.0359219 -0.996031 -0.081434
-1.4097 57.7588 -5.84721 0.00822739 -0.993474 -0.113761
-2.93329 57.8831 -6.86057 -0.0176982 -0.991236 -0.130912
-4.64448 58.0626 -7.69019 -0.0450181 -0.98552 -0.163476
-6.19009 58.2922 -8.42643 -0.0729219 -0.978184 -0.194521
-7.78104 58.5689 -9.14576 -0.0781805 -0.97028 -0.229006
-8.35735 58.6712 -9.32908 -0.103211 -0.96573 -0.238146
