-19.6656 67.0411 -28.0387 0.406552 0.797673 0.443353
-19.5903 66.3935 -26.8811 0.352685 0.834686 0.421536
-19.3778 65.5927 -25.3298 0.336464 0.855761 0.392953
-19.2251 64.9893 -24.0233 0.214253 0.895994 0.388961
-19.0905 64.4949 -22.907 0.199203 0.910614 0.361757
-18.8528 64.0913 -21.9527 0.160218 0.919901 0.356775
-18.442 63.5135 -20.5493 0.123192 0.93926 0.320322
-18.1541 63.1452 -19.5673 0.115328 0.944801 0.306673
-17.782 62.6582 -18.199 0.10973 0.947912 0.298904
-17.4127 62.2559 -17.1529 0.0779064 0.93941 0.333826
-17.2072 61.9249 -16.1218 0.0437564 0.950153 0.307947
-16.9605 61.5579 -15.0436 0.0131142 0.950767 0.309384
-16.5993 61.2347 -14.045 -0.00184998 0.948184 0.317538
-16.1315 60.8996 -13.0698 -0.0150882 0.948462 0.316166
-15.6229 60.6325 -12.195 -0.0343091 0.946676 0.319844
-15.2272 60.267 -11.0343 -0.0500486 0.951463 0.303625
-14.2511 60.5969 -12.0022 -0.0194369 0.961399 0.274469
-13.6318 60.8833 -12.9616 -0.00973387 0.962008 0.272669
-12.7987 61.1486 -14.0431 0.0657831 0.964683 0.253467
-12.0318 61.2676 -14.8477 0.145472 0.966978 0.209059
-11.1046 61.2482 -15.5084 0.194121 0.968123 0.156905
-9.80246 61.0635 -16.0961 0.19806 0.972847 0.118441
-8.23705 60.7338 -16.4886 0.22973 0.968715 0.0938543
-7.08352 60.4158 -16.3669 0.259578 0.962137 0.0831378
-5.93489 60.0838 -15.9154 0.243493 0.967417 0.0693918
-4.96513 59.8133 -15.5389 0.242516 0.968528 0.055399
-5.39741 59.9989 -16.8829 0.259124 0.964538 0.0502209
-5.69036 60.1452 -17.995 0.272465 0.959997 0.0632789
-6.06653 60.328 -19.0093 0.283789 0.956718 0.0644599
-6.5447 60.5492 -20.0831 0.300999 0.950432 0.0779647
-6.98791 60.7707 -21.0726 0.305046 0.949425 0.0742167
-7.49435 61.0565 -22.4971 0.32269 0.943469 0.0757488
-8.08393 61.3916 -23.7598 0.339233 0.936196 0.0919653
-8.565 61.6701 -24.6899 0.344785 0.932147 0.110565
-9.29293 62.1084 -25.8884 0.365061 0.92129 0.133676
-9.76649 62.4568 -26.9201 0.37148 0.916364 0.148951
-10.1631 62.8338 -28.1068 0.384422 0.907959 0.166825
-10.5901 63.2537 -29.2978 0.396606 0.896214 0.19785
-11.0371 63.7128 -30.3638 0.404527 0.889323 0.213218
-11.8006 64.3499 -31.4203 0.420434 0.87744 0.230913
-12.9664 65.1384 -31.963 0.453546 0.850953 0.264794
-13.8887 65.7912 -32.3178 0.476461 0.823043 0.30917
-14.7286 66.3888 -32.6046 0.502606 0.794937 0.339542
-15.8764 67.3132 -33.0346 0.503966 0.789081 0.35124
-17.1529 68.5528 -33.5976 0.56865 0.71922 0.399199
-17.9303 69.2476 -33.6787 0.591282 0.70265 0.395813
-18.7269 69.4049 -32.8709 0.566244 0.687947 0.453616
-19.0788 68.9365 -31.7104 0.562408 0.670838 0.48192
-19.3623 68.3548 -30.4854 0.499959 0.744089 0.443139
-19.5259 67.8473 -29.5322 0.45709 0.753507 0.47095
-19.6544 67.1283 -28.192 0.428501 0.771654 0.47004
-20.5776 67.3616 -27.7711 0.399098 0.780431 0.481298
-20.5531 66.679 -26.6238 0.382037 0.804188 0.454714
-20.5331 66.1569 -25.6657 0.273329 0.841976 0.465154
-20.3464 65.3685 -24.2247 0.257227 0.877777 0.404156
-20.1114 64.7222 -22.9236 0.162894 0.899387 0.405671
-19.9146 64.259 -21.9512 0.159653 0.909239 0.384442
-19.6717 63.8233 -20.9965 0.129819 0.927879 0.348104
-19.1778 63.1639 -19.3757 0.0699481 0.930949 0.357906
-18.7489 62.6288 -17.9728 0.0492689 0.941603 0.333059
-18.3488 62.1549 -16.6974 0.00738853 0.936258 0.351101
-18.1304 61.6897 -15.359 -0.0171269 0.93953 0.341657
-17.8483 61.2755 -14.2331 -0.0286032 0.936252 0.350161
-17.2091 60.7966 -12.8631 -0.0446731 0.939198 0.340458
-16.5341 60.3072 -11.3981 -0.0492531 0.94648 0.318493
-15.9027 59.8904 -10.0059 -0.0754032 0.945768 0.315797
-15.5216 59.5261 -8.76056 -0.0864678 0.949673 0.301071
-15.1428 59.2332 -7.71123 -0.0963286 0.946676 0.307106
-14.4347 59.513 -8.43444 -0.0670138 0.951567 0.30005
-14.0295 59.8743 -9.57222 -0.0513616 0.956589 0.286877
-13.7989 60.2433 -10.7487 -0.0327308 0.955686 0.291988
-13.0856 60.6016 -11.9603 -2.59758e-05 0.962617 0.270865
-12.4922 60.8086 -12.805 0.0360057 0.971597 0.233886
-11.8755 60.9825 -13.6898 0.0748034 0.969278 0.234316
-11.0936 61.0556 -14.459 0.138161 0.975007 0.17399
-9.63075 60.9148 -15.1622 0.19806 0.972847 0.118441
-8.60555 60.7161 -15.3924 0.228001 0.969285 0.0922125
-7.59215 60.4725 -15.4355 0.249736 0.964203 0.0884015
-6.248 60.094 -14.9581 0.242533 0.967656 0.0694171
-5.05458 59.7712 -14.5321 0.237691 0.96939 0.06153
-3.95281 59.4734 -14.0125 0.225181 0.972657 0.0563521
-2.69755 59.1792 -13.7536 0.211128 0.976829 0.0350844
-3.35747 59.3462 -14.2547 0.223753 0.973321 0.0508001
-3.7269 59.4888 -15.4208 0.246016 0.967698 0.0519458
-4.05919 59.6228 -16.4096 0.26149 0.964428 0.0387569
-4.35684 59.7472 -17.4952 0.269881 0.96188 0.0431031
-4.69488 59.8933 -18.471 0.278226 0.959352 0.0472661
-5.1276 60.0733 -19.5168 0.29639 0.953378 0.0567712
-5.74109 60.3369 -20.6618 0.297789 0.952346 0.0660264
-6.23124 60.5876 -21.9091 0.309699 0.948028 0.0730044
-6.5854 60.7781 -22.8938 0.317107 0.94571 0.0710878
-7.0357 61.0312 -23.9123 0.332967 0.938827 0.0879546
-7.6078 61.3639 -25.0778 0.339365 0.933225 0.117997
-8.27166 61.7649 -26.2573 0.344777 0.929727 0.129373
-8.93607 62.2422 -27.6278 0.371475 0.914816 0.158489
-9.29063 62.5543 -28.5949 0.395881 0.901705 0.17379
-9.84176 63.0829 -30.013 0.399987 0.89318 0.205212
-10.4662 63.7407 -31.5642 0.41615 0.883527 0.214706
-11.509 64.5093 -32.4519 0.445628 0.856763 0.259564
-12.4824 65.148 -32.8275 0.46802 0.838953 0.277698
-13.6569 65.9808 -33.304 0.498778 0.817796 0.28664
-14.5331 66.6498 -33.609 0.54708 0.780424 0.302724
-15.5 67.4747 -33.9882 0.547322 0.77758 0.309442
-16.2274 68.2454 -34.3945 0.582852 0.724967 0.367023
-17.331 69.3805 -34.7032 0.617206 0.656221 0.433351
-18.3018 70.2962 -34.7096 0.649674 0.607442 0.457098
-19.0991 70.7711 -34.2077 0.634318 0.611743 0.472154
-19.3502 70.3075 -33.3037 0.616229 0.611288 0.496576
-19.7945 69.709 -31.9504 0.562409 0.670838 0.481917
-20.2241 68.9588 -30.5274 0.521849 0.703787 0.47854
-20.4142 68.4677 -29.595 0.439624 0.741026 0.507553
-20.5414 67.7924 -28.4995 0.419276 0.760569 0.494733
-20.5646 67.6417 -28.236 0.399098 0.780431 0.481298
-21.484 68.1414 -28.1937 0.398209 0.751032 0.52667
-21.501 67.3812 -27.08 0.327076 0.79779 0.506509
-21.3871 66.7832 -26.2083 0.327318 0.812974 0.481598
-21.5892 66.2179 -25.1164 0.327333 0.813002 0.481539
-21.4072 65.4785 -23.8788 0.198724 0.861142 0.467914
-21.1223 64.9089 -22.9155 0.172451 0.896535 0.408027
-20.9117 64.4152 -21.9372 0.115638 0.908883 0.400698
-20.7251 63.9604 -20.9592 0.108963 0.902269 0.416763
-20.4317 63.4748 -19.8915 0.0617098 0.925865 0.372781
-20.0779 62.9375 -18.5882 0.0437386 0.93022 0.36316
-19.639 62.5455 -17.675 0.0183704 0.927638 0.372769
-19.3836 62.1376 -16.6293 0.00739488 0.936257 0.351103
-19.2348 61.7196 -15.5093 -0.0241033 0.934251 0.3558
-18.9796 61.2917 -14.3687 -0.0257791 0.935117 0.353378
-18.6378 60.8826 -13.2663 -0.0668887 0.926797 0.369559
-17.9407 60.4626 -12.0495 -0.0713807 0.933755 0.350722
-17.5623 60.121 -11.0555 -0.0776358 0.942654 0.324616
-17.1435 59.7454 -9.86804 -0.0754042 0.945769 0.315793
-16.6082 59.3809 -8.63933 -0.111499 0.934755 0.337344
-16.0646 58.9286 -7.11314 -0.112247 0.945195 0.306306
-15.6939 58.6696 -6.12992 -0.119042 0.948202 0.294521
-15.3056 58.3801 -5.04433 -0.139908 0.946727 0.289936
-14.8564 58.1411 -4.02288 -0.147438 0.962382 0.228218
-14.316 58.5239 -5.05942 -0.133079 0.947077 0.292123
-14.0487 58.9258 -6.27333 -0.15417 0.952645 0.262106
-13.6593 59.2404 -7.31641 -0.0524465 0.960413 0.273599
-13.4207 59.5555 -8.38006 -0.0517684 0.961266 0.270437
-12.9414 60.0081 -9.84919 -0.0435007 0.95776 0.284234
-12.5429 60.3068 -10.8053 -0.0246072 0.965237 0.259338
-12.0213 60.5786 -11.8625 -0.00583566 0.974298 0.224085
-11.2711 60.7874 -12.9703 0.0579093 0.979567 0.192601
-10.4027 60.8471 -13.7565 0.113028 0.981655 0.153552
-9.47855 60.7904 -14.3222 0.148892 0.982247 0.103358
-8.45203 60.5927 -14.4586 0.201769 0.975681 0.0856517
-6.93065 60.2019 -14.2258 0.237639 0.967808 0.0829165
-5.87897 59.928 -13.8459 0.236326 0.969467 0.0654518
-4.93633 59.6694 -13.4319 0.250034 0.9661 0.0630494
-3.77582 59.3601 -12.6487 0.202217 0.977964 0.0517143
-2.72835 59.1222 -11.9955 0.17333 0.983881 0.0439967
-1.70745 58.9311 -11.3645 0.160834 0.986666 0.0249571
-0.817953 58.7865 -10.7397 0.137038 0.990297 -0.00398604
0.0954569 58.6836 -10.1598 0.12466 0.991986 -0.0201612
1.01897 58.5966 -9.59794 0.093827 0.994794 -0.0397708
0.407986 58.6359 -10.6309 0.126414 0.991841 -0.0164776
-0.323576 58.7155 -11.3632 0.137039 0.990297 -0.00398562
-0.809683 58.802 -12.4606 0.154484 0.987953 0.00908686
-1.4493 58.9291 -13.5439 0.20374 0.978711 0.0178505
-2.03073 59.0654 -14.7066 0.216233 0.976322 0.00625084
-2.53676 59.2098 -15.8108 0.239998 0.970455 0.0248682
-2.94972 59.3457 -16.8532 0.245458 0.968818 0.0338009
-3.30773 59.4875 -18.1107 0.26634 0.963159 0.0368698
-3.8802 59.6994 -19.3263 0.28609 0.957223 0.0421906
-4.38492 59.8944 -20.3665 0.29385 0.955153 0.0365384
-5.02079 60.152 -21.3218 0.310371 0.949082 0.0539665
-5.31987 60.3135 -22.3117 0.316813 0.946156 0.0664666
-5.6014 60.4828 -23.3318 0.317403 0.945264 0.0757105
-6.01317 60.6998 -24.2567 0.332154 0.938505 0.0940207
-6.51608 60.9794 -25.2142 0.337561 0.934906 0.10895
-7.06855 61.3039 -26.1779 0.344749 0.932189 0.11033
-7.68104 61.6638 -27.1902 0.356239 0.926995 0.117363
-8.04305 61.9392 -28.1217 0.372567 0.917743 0.137629
-8.44327 62.2657 -29.0303 0.389666 0.903004 0.180955
-8.81578 62.666 -30.1565 0.392856 0.897992 0.198181
-9.29415 63.1466 -31.3289 0.419544 0.885099 0.200655
-9.66472 63.521 -32.2349 0.431789 0.882193 0.187867
-10.2972 64.0308 -33 0.461257 0.855078 0.236818
-11.1527 64.5857 -33.3609 0.454836 0.857899 0.239025
-12.5014 65.4858 -33.8738 0.482967 0.840373 0.246003
-13.6841 66.3948 -34.4085 0.518912 0.808954 0.276268
-14.5463 67.14 -34.8197 0.547557 0.774739 0.316167
-15.3486 67.9233 -35.2051 0.602195 0.714211 0.35674
-16.0546 68.6437 -35.4558 0.592526 0.719588 0.361879
-16.7839 69.4472 -35.6438 0.644831 0.660334 0.384905
-17.5922 70.2168 -35.6102 0.644826 0.660346 0.384892
-18.2864 71.0538 -35.6779 0.651986 0.577912 0.490848
-19.0478 71.7355 -35.4687 0.670719 0.55872 0.487184
-19.7902 71.5742 -34.2697 0.66699 0.551393 0.500897
-20.0443 71.0778 -33.3578 0.651524 0.56137 0.509725
-20.4512 70.5604 -32.2345 0.626149 0.604309 0.492696
-20.9725 69.8314 -30.7906 0.579275 0.637966 0.507386
-21.341 68.9816 -29.483 0.514566 0.659235 0.548298
-21.409 68.5382 -28.8364 0.439535 0.740869 0.50786
-18.3821 68.7836 -32.3388 0.551415 0.697697 0.45734
-17.793 68.7394 -32.9817 0.571737 0.700645 0.426864
-17.2143 68.0973 -32.6529 0.534419 0.755842 0.378284
-18.2334 68.198 -31.5144 0.525441 0.749745 0.402237
-18.6664 68.2237 -31.0523 0.502203 0.742872 0.442643
-18.9921 67.6623 -29.7307 0.449139 0.773857 0.446564
-18.2141 67.6259 -30.5484 0.48 0.777575 0.406174
-17.1368 67.5436 -31.7165 0.518082 0.754373 0.40313
-16.6143 67.4934 -32.294 0.534419 0.755841 0.378286
-15.7198 66.8643 -32.2507 0.502649 0.79501 0.339564
-16.4935 66.9603 -31.3786 0.500244 0.787122 0.360825
-17.497 67.0474 -30.2832 0.472576 0.781523 0.407301
-18.3813 67.0832 -29.362 0.461027 0.768627 0.443472
-19.0963 67.0913 -28.64 0.432862 0.775355 0.459843
-18.9823 66.5616 -27.7215 0.397176 0.818953 0.414207
-17.8221 66.5504 -28.8931 0.423321 0.818498 0.388408
-16.7994 66.4961 -29.9655 0.443224 0.822494 0.356448
-15.9866 66.4229 -30.8492 0.459415 0.823456 0.332954
-15.1271 66.3156 -31.8166 0.486727 0.813082 0.319367
-15.0009 66.2977 -31.9606 0.471996 0.825013 0.310761
-14.1974 65.7488 -31.7291 0.476462 0.823044 0.309165
-15.1604 65.8772 -30.6454 0.464731 0.820875 0.331948
-16.0354 65.9622 -29.6917 0.44741 0.820448 0.355934
-17.0637 66.0375 -28.5977 0.391781 0.858831 0.330026
-17.894 66.0669 -27.7435 0.364714 0.857824 0.362109
-18.6723 66.0687 -26.9637 0.345119 0.86159 0.37223
-18.7099 65.5765 -25.8555 0.309717 0.876667 0.368144
-17.5134 65.606 -27.0244 0.367916 0.861166 0.350758
-16.3403 65.5607 -28.2329 0.402628 0.853765 0.330116
-15.3542 65.4845 -29.2845 0.422858 0.853904 0.303379
-14.4243 65.3706 -30.3128 0.438334 0.85039 0.291032
-13.4815 65.2269 -31.382 0.453276 0.849079 0.271303
-12.7608 64.727 -31.0158 0.450255 0.850548 0.271733
-13.7098 64.8786 -29.9406 0.435955 0.860124 0.264822
-14.4669 64.985 -29.0964 0.410116 0.86612 0.285729
-15.3838 65.0926 -28.0958 0.377852 0.882968 0.278559
-16.1786 65.1617 -27.2458 0.36429 0.882898 0.296284
-17.0592 65.1891 -26.3467 0.33134 0.886228 0.323749
-18.2117 65.1694 -25.2156 0.289039 0.893361 0.344039
-18.4052 65.1604 -25.03 0.288891 0.893098 0.344844
-18.5952 64.7145 -23.7325 0.199232 0.910717 0.361803
-17.5025 64.7891 -24.7659 0.27289 0.910799 0.309801
-16.5707 64.7919 -25.6899 0.298592 0.902652 0.309939
-15.7042 64.7497 -26.5847 0.336841 0.899988 0.276695
-14.9152 64.6778 -27.4249 0.381175 0.881464 0.278794
-13.9983 64.5727 -28.4218 0.404839 0.880148 0.247881
-13.0633 64.4334 -29.4639 0.406862 0.879551 0.246684
-11.9329 64.2371 -30.7479 0.423712 0.876026 0.230317
-11.592 63.8556 -29.9067 0.404434 0.889305 0.213473
-12.5703 64.025 -28.8025 0.397715 0.893338 0.209214
-13.3217 64.1503 -27.9614 0.379845 0.900712 0.2108
-14.1733 64.2665 -27.0291 0.366041 0.899563 0.238327
-15.1097 64.3586 -26.028 0.334257 0.90114 0.27608
-15.9744 64.4177 -25.1269 0.291396 0.922962 0.251453
-16.8176 64.4081 -24.293 0.279522 0.916538 0.286052
-17.9394 64.36 -23.2058 0.247085 0.914776 0.319582
-18.4268 64.3009 -22.7551 0.183757 0.919881 0.346486
-17.9423 63.9506 -22.059 0.184475 0.922892 0.337993
-16.9179 64.0604 -23.0202 0.2125 0.933397 0.289161
-16.1148 64.0704 -23.8193 0.260262 0.925875 0.273896
-15.2861 64.0583 -24.6521 0.322096 0.918683 0.228638
-14.515 63.9895 -25.4623 0.319986 0.919557 0.228089
-13.4852 63.863 -26.5696 0.367746 0.898829 0.238473
-12.4619 63.724 -27.6892 0.389395 0.897537 0.206877
-11.5797 63.5563 -28.6846 0.39772 0.893337 0.20921
-11.1604 63.4792 -29.157 0.40434 0.889286 0.213728
-10.9175 63.1691 -28.1778 0.384245 0.903785 0.18849
-11.9436 63.358 -27.0282 0.368952 0.913518 0.171348
-12.8229 63.4976 -26.0644 0.347945 0.917691 0.191773
-13.8417 63.6335 -24.9625 0.317877 0.920424 0.227538
-14.9251 63.7282 -23.8322 0.306262 0.930495 0.200955
-15.7628 63.733 -22.9904 0.22132 0.947484 0.230848
-16.6253 63.7239 -22.1308 0.185418 0.94798 0.258755
-17.6827 63.6063 -21.1358 0.15699 0.94758 0.278291
-17.7904 63.592 -21.0355 0.126054 0.938824 0.320499
-17.5144 63.2483 -20.1217 0.115033 0.944297 0.308335
-16.668 63.3744 -20.9074 0.150835 0.949126 0.27642
-15.6543 63.4369 -21.8899 0.219717 0.945404 0.240698
-14.839 63.442 -22.7038 0.265905 0.937681 0.223717
-14.0568 63.3964 -23.5095 0.294358 0.939689 0.174181
-13.1651 63.2926 -24.4563 0.301715 0.936982 0.176163
-12.3246 63.1687 -25.367 0.339537 0.92138 0.189139
-11.5622 63.0517 -26.1984 0.369484 0.914001 0.167582
-10.5031 62.8449 -27.384 0.376436 0.910529 0.170977
-10.4758 62.6117 -26.1505 0.347929 0.924888 0.153389
-11.2784 62.7654 -25.26 0.332507 0.930592 0.153094
-12.1701 62.9219 -24.2811 0.330996 0.931199 0.152677
-13.2943 63.0723 -23.0768 0.303659 0.939486 0.158613
-14.2274 63.1407 -22.1096 0.245867 0.949632 0.194292
-15.0745 63.1477 -21.2595 0.210999 0.94954 0.232063
-16.221 63.0709 -20.1465 0.172026 0.940392 0.293377
-17.3228 62.9003 -19.1234 0.115623 0.945304 0.305011
-17.1426 62.5598 -18.1063 0.103836 0.95052 0.292798
-16.0417 62.7548 -19.1254 0.120924 0.958561 0.257951
-15.1911 62.821 -19.9496 0.156422 0.953341 0.258209
-14.2884 62.8608 -20.8342 0.226139 0.946537 0.230063
-13.2112 62.8322 -21.9242 0.264651 0.94498 0.192281
-12.3537 62.7388 -22.8288 0.298127 0.944347 0.139029
-11.5009 62.5967 -23.7537 0.328208 0.934046 0.140848
-10.6723 62.4487 -24.6599 0.340933 0.928478 0.147287
-9.94927 62.2996 -25.4632 0.347881 0.925907 0.147226
-9.36624 61.9977 -24.8303 0.346448 0.92986 0.12383
-10.1903 62.1656 -23.9182 0.333901 0.933909 0.127766
-10.9392 62.3145 -23.0946 0.322992 0.938039 0.125533
-11.7697 62.4611 -22.1922 0.297481 0.944184 0.141496
-12.7634 62.577 -21.1426 0.23741 0.956177 0.171352
-13.991 62.6094 -19.9013 0.184601 0.963846 0.192155
-15.2173 62.5377 -18.7052 0.120926 0.95856 0.257953
-16.508 62.3058 -17.5067 0.102461 0.950659 0.292828
-16.5455 62.2975 -17.4726 0.0669278 0.947572 0.312455
-16.371 61.9754 -16.4373 0.0459263 0.956115 0.289369
-15.1344 62.2107 -17.5864 0.0807811 0.964593 0.251067
-13.8757 62.345 -18.7925 0.148488 0.96956 0.194691
-13.009 62.3563 -19.6522 0.228104 0.959266 0.166668
-12.0286 62.3072 -20.6546 0.254551 0.953071 0.163887
-11.1979 62.1888 -21.5407 0.283985 0.949722 0.131837
-10.3626 62.0348 -22.4482 0.315468 0.941225 0.12073
-9.54936 61.8639 -23.3449 0.328027 0.938128 0.110971
-8.9683 61.7362 -23.9898 0.352224 0.928933 0.114112
-8.67251 61.5282 -23.0236 0.33689 0.936476 0.0975556
-9.73074 61.7531 -21.8573 0.313307 0.943122 0.111175
-10.5711 61.9123 -20.9436 0.304095 0.944886 0.121316
-11.697 62.0634 -19.7516 0.254549 0.953072 0.163882
-12.6612 62.1274 -18.7656 0.229034 0.960501 0.158053
-13.4856 62.1136 -17.9485 0.145192 0.967615 0.206497
-14.6089 61.9851 -16.8721 0.0722921 0.9659 0.248618
-15.6799 61.7817 -15.8719 0.0370231 0.963338 0.265725
-16.3091 61.6373 -15.2916 0.00101503 0.951604 0.307325
-15.9114 61.3669 -14.4566 0.00144545 0.951396 0.307965
-15.0777 61.5815 -15.2199 0.0325701 0.96391 0.264228
-14.0849 61.7676 -16.1511 0.0698853 0.969478 0.235007
-13.1844 61.8886 -17.011 0.0416394 0.992083 0.118477
-12.2523 61.8941 -17.94 0.228766 0.960888 0.156077
-11.4017 61.8342 -18.8081 0.228911 0.960542 0.157982
-10.5977 61.7316 -19.6522 0.271507 0.952343 0.139021
-9.82781 61.6117 -20.4746 0.295836 0.947598 0.120574
-8.98766 61.4524 -21.3865 0.305969 0.947533 0.0925449
-8.25219 61.2915 -22.1962 0.3262 0.941467 0.0850538
-7.70772 61.0464 -21.4982 0.310781 0.945975 0.0924447
-8.67502 61.2587 -20.437 0.296647 0.949154 0.105389
-9.75113 61.4496 -19.2789 0.268048 0.956885 0.111899
-10.7317 61.5759 -18.2493 0.262068 0.956591 0.127492
-11.6279 61.6475 -17.3281 0.228616 0.961231 0.154172
-12.6106 61.6706 -16.3387 0.197874 0.955362 0.219383
-13.4274 61.5953 -15.5475 0.0724031 0.957097 0.280575
-14.7097 61.3057 -14.3581 0.011953 0.959167 0.282586
-15.4421 61.1169 -13.6866 -0.00184635 0.948237 0.317557
-15.2034 60.8065 -12.7031 -0.00955899 0.953093 0.302527
-13.8573 61.171 -13.937 0.0311637 0.95999 0.278294
-12.9442 61.3541 -14.7911 0.08014 0.964075 0.253253
-12.1223 61.4393 -15.5837 0.136796 0.967954 0.210597
-11.1243 61.4183 -16.5904 0.213001 0.965957 0.146828
-10.2354 61.3503 -17.5034 0.252892 0.959808 0.121714
-9.23978 61.2209 -18.5479 0.268045 0.956886 0.111896
-8.06918 61.0093 -19.8064 0.28893 0.953291 0.088067
-7.31999 60.8394 -20.6278 0.301055 0.950413 0.0779791
-7.21098 60.7082 -19.4488 0.301029 0.950423 0.0779559
-8.08516 60.8802 -18.5038 0.275899 0.956665 0.0931211
-9.12085 61.0515 -17.4023 0.232334 0.966056 0.112942
-9.72946 61.1237 -16.7678 0.242633 0.962996 0.117335
-7.7034 60.6899 -17.6277 0.275058 0.957384 0.0880886
-6.72143 60.5002 -18.6819 0.283754 0.956595 0.0664006
-6.45567 60.3493 -17.6732 0.283714 0.956471 0.0683394
-7.00232 60.455 -17.0863 0.259537 0.962331 0.0809947
-6.26411 60.2147 -16.5844 0.242536 0.967655 0.0694208
-6.16068 60.1942 -16.6949 0.26017 0.964039 0.0542227
