-19.1052 67.5621 -26.8474 0.421894 0.809422 0.405481
-19.0938 67.1096 -25.918 0.344691 0.845399 0.408031
-19.0889 66.5384 -24.7402 0.293338 0.873445 0.388647
-18.9782 66.0918 -23.82 0.277206 0.870322 0.406342
-18.5824 65.3875 -22.3732 0.203855 0.896515 0.393089
-18.3761 64.9432 -21.3721 0.169106 0.917617 0.359659
-18.1734 64.4572 -20.1726 0.127501 0.929358 0.346464
-17.8052 63.9574 -18.9567 0.126905 0.931154 0.341829
-17.3141 63.4658 -17.6587 0.082562 0.943057 0.320835
-17.0867 63.0246 -16.4733 0.057992 0.943871 0.325184
-16.9262 62.6838 -15.4958 0.0376824 0.952111 0.302985
-16.607 62.2794 -14.3123 -0.00871126 0.940244 0.340391
-16.0987 61.8161 -13.0065 -0.0274712 0.938235 0.344852
-15.7055 61.4793 -12.046 -0.0246038 0.939786 0.340875
-14.8707 61.1388 -11.0039 -0.0279823 0.947383 0.318873
-14.3783 61.5406 -12.2094 0.01871 0.948656 0.315757
-13.9205 61.8085 -13.107 0.0599449 0.956374 0.28539
-13.1013 62.0814 -14.2793 0.108632 0.961788 0.251322
-12.2467 62.203 -15.2106 0.144473 0.962218 0.230792
-11.2784 62.2047 -15.9553 0.180202 0.965408 0.188453
-10.3459 62.0955 -16.4908 0.230065 0.961525 0.150133
-9.3459 61.8441 -16.653 0.29168 0.948572 0.122332
-8.38532 61.5735 -16.819 0.280137 0.954577 0.1015
-7.41137 61.2727 -16.6946 0.292163 0.951956 0.0904856
-6.06343 60.8393 -16.3207 0.27828 0.958018 0.0685814
-4.97621 60.5308 -16.3584 0.278872 0.958763 0.0548145
-5.18679 60.6679 -17.6963 0.278724 0.958843 0.0541609
-5.6729 60.8925 -18.836 0.302022 0.951426 0.0597634
-6.16222 61.1285 -19.9528 0.325229 0.942611 0.0755657
-6.63826 61.3781 -21.0171 0.327869 0.941897 0.0729257
-7.18546 61.6945 -22.4517 0.351911 0.933224 0.0724713
-7.54411 61.9309 -23.491 0.366826 0.926389 0.0848598
-8.12106 62.2631 -24.4976 0.375265 0.920985 0.104705
-8.61848 62.6077 -25.5888 0.398087 0.909714 0.118094
-9.06459 62.9366 -26.5307 0.404315 0.904613 0.134922
-9.67376 63.4205 -27.8529 0.408431 0.899006 0.157864
-10.011 63.7568 -28.8114 0.420112 0.889514 0.179642
-10.4227 64.1635 -29.7946 0.447822 0.870875 0.201819
-10.8388 64.6711 -30.942 0.45594 0.86304 0.21744
-11.9233 65.4772 -31.6635 0.486223 0.838469 0.245624
-12.7178 66.0393 -31.8983 0.504037 0.82256 0.262925
-13.5758 66.6567 -32.1958 0.505314 0.808906 0.299287
-14.3636 67.3209 -32.5861 0.52923 0.784508 0.322498
-15.2363 68.1256 -32.946 0.563253 0.747277 0.352596
-16.1448 68.9666 -33.2054 0.58642 0.710657 0.388687
-17.0609 69.8845 -33.4151 0.615535 0.687214 0.385814
-17.9825 70.7284 -33.2899 0.657554 0.595938 0.460223
-18.2609 70.1901 -32.1961 0.588251 0.67943 0.43856
-18.5116 69.8153 -31.2843 0.569179 0.664806 0.483806
-18.7772 69.3652 -30.3535 0.540543 0.707301 0.45152
-18.898 68.9256 -29.4595 0.496437 0.739333 0.454902
-19.0006 68.3274 -28.3367 0.45492 0.783502 0.423149
-19.0741 67.9564 -27.5909 0.451004 0.780554 0.432817
-19.9606 68.4849 -27.69 0.44218 0.764387 0.467158
-19.7988 68.9916 -28.6096 0.480908 0.746889 0.459222
-19.6544 69.8609 -30.0073 0.553395 0.658993 0.508632
-19.3346 70.4382 -31.1743 0.583758 0.63394 0.505496
-19.0335 70.8534 -32.0496 0.639557 0.597946 0.483144
-18.789 71.5409 -33.23 0.640325 0.600296 0.479196
-17.9554 71.5498 -34.4325 0.679399 0.569928 0.461205
-17.2563 70.8318 -34.539 0.653553 0.614412 0.440902
-16.3473 69.809 -34.3643 0.654174 0.631607 0.414668
-15.4823 68.8804 -34.0909 0.615985 0.709679 0.341934
-14.7225 68.1404 -33.8393 0.577992 0.748125 0.325936
-13.8254 67.2864 -33.4317 0.547532 0.777732 0.307444
-12.9664 66.5762 -33.0634 0.524805 0.802068 0.285073
-12.1323 65.9361 -32.7557 0.503855 0.826009 0.252486
-11.2506 65.342 -32.534 0.486223 0.838469 0.245624
-10.2623 64.6268 -32.002 0.478437 0.84985 0.220253
-9.78974 64.0901 -30.8627 0.465505 0.859254 0.212102
-9.43307 63.6899 -29.8451 0.434494 0.883701 0.174031
-9.02543 63.288 -28.7928 0.416486 0.89606 0.153293
-8.31619 62.6997 -27.1846 0.40344 0.90337 0.145095
-7.74587 62.2923 -25.989 0.370177 0.920276 0.126734
-7.32051 62.0124 -25.1312 0.366301 0.923349 0.115112
-6.9109 61.7469 -24.1992 0.360012 0.929267 0.0827693
-6.32806 61.416 -23.0161 0.348215 0.934173 0.0768001
-5.8725 61.1694 -21.8294 0.330255 0.941338 0.0693911
-5.47868 60.9541 -20.7927 0.322007 0.944296 0.0672673
-5.08719 60.766 -19.8929 0.312145 0.948497 0.054032
-4.44852 60.4968 -18.6235 0.291634 0.95546 0.0451894
-4.01533 60.3158 -17.6426 0.283109 0.958103 0.0421731
-3.61547 60.145 -16.3077 0.275068 0.960473 0.0427657
-3.2318 60.0009 -14.9869 0.238595 0.970341 0.0361144
-2.76392 59.8394 -13.9848 0.224047 0.973409 0.0468049
-2.52913 59.7596 -13.3164 0.206424 0.977649 0.0379181
-3.42311 59.9862 -13.8231 0.229676 0.971766 0.0540294
-3.71373 60.0662 -13.9963 0.237865 0.96979 0.0541002
-4.65758 60.3435 -14.6945 0.256447 0.964952 0.0557031
-5.48236 60.6062 -15.2901 0.268134 0.961328 0.0628146
-6.57169 60.9289 -15.5111 0.278286 0.958017 0.0685802
-7.52507 61.2176 -15.7586 0.266846 0.960099 0.0835911
-8.52937 61.5093 -15.8199 0.274848 0.955472 0.107176
-9.49458 61.7588 -15.6892 0.23807 0.964312 0.115862
-10.5026 61.929 -15.3098 0.179198 0.973737 0.140447
-11.4702 61.9466 -14.5819 0.137954 0.967735 0.21085
-12.3513 61.8373 -13.6618 0.104244 0.962426 0.250736
-12.9639 61.669 -12.813 0.0447026 0.962796 0.266177
-13.5158 61.3814 -11.7557 0.00778752 0.959339 0.282149
-13.9066 61.0464 -10.6394 -0.0125424 0.951729 0.305922
-14.3953 60.7135 -9.66142 -0.038211 0.955198 0.293489
-14.8521 60.2658 -8.32403 -0.0732992 0.950666 0.301272
-15.4347 60.395 -8.85317 -0.0718582 0.947823 0.310593
-16.0362 60.881 -10.3734 -0.0595782 0.936685 0.345069
-16.6236 61.2416 -11.4536 -0.042968 0.941992 0.332166
-17.2156 61.7657 -12.9583 -0.0274707 0.938235 0.344851
-17.5821 62.0966 -13.8575 -0.0198572 0.935468 0.352852
-17.8641 62.4277 -14.777 -0.00208734 0.934148 0.356165
-17.9358 62.8032 -15.7005 0.00621063 0.91399 0.405689
-18.183 63.2644 -16.9474 0.0421175 0.938441 0.342149
-18.467 63.6292 -17.9367 0.039743 0.929244 0.365786
-18.9123 64.1184 -19.0599 0.070276 0.928071 0.365713
-19.1549 64.5094 -19.966 0.119085 0.930926 0.345248
-19.3379 64.9157 -20.8939 0.141442 0.906869 0.396968
-19.5051 65.3928 -21.9301 0.199769 0.892098 0.405283
-19.8005 65.9735 -23.0942 0.233911 0.881501 0.407989
-19.9928 66.4726 -23.9741 0.266488 0.865196 0.424718
-20.0258 66.9973 -24.9537 0.307137 0.836259 0.453314
-20.0188 67.4589 -25.8601 0.377772 0.815416 0.435475
-19.9962 68.0082 -26.8123 0.410856 0.785436 0.462912
-19.9869 68.1087 -26.991 0.414961 0.789141 0.452692
-20.8557 68.5079 -26.9255 0.415038 0.722011 0.553574
-20.7942 69.1737 -27.9423 0.447369 0.743818 0.496585
-20.6232 70.0504 -29.2589 0.531331 0.656959 0.534876
-20.3949 70.6102 -30.1585 0.581005 0.59356 0.555764
-19.9967 71.3171 -31.4213 0.607822 0.606775 0.511965
-19.6357 71.7694 -32.3687 0.652573 0.539686 0.531871
-19.4636 72.3628 -33.2379 0.671037 0.536207 0.511527
-19.0814 72.7712 -34.1424 0.69718 0.517156 0.495783
-18.6358 73.0179 -35.0705 0.719411 0.481411 0.500691
-17.8361 72.3036 -35.4611 0.701517 0.552764 0.448235
-17.115 71.4041 -35.5025 0.71889 0.557336 0.41542
-16.3923 70.523 -35.4355 0.676055 0.626243 0.388289
-15.5512 69.5494 -35.2543 0.628624 0.675942 0.384622
-14.6573 68.5887 -34.9259 0.585807 0.735833 0.339666
-13.8355 67.7744 -34.548 0.559582 0.762609 0.324492
-12.98 66.9558 -34.101 0.547528 0.777734 0.307447
-11.7972 66.0041 -33.6482 0.538093 0.797492 0.272878
-10.6174 65.2018 -33.3192 0.491055 0.836145 0.244367
-9.83987 64.6511 -32.9845 0.489133 0.837859 0.242364
-9.18711 64.103 -32.2326 0.460375 0.861321 0.214897
-8.83336 63.6507 -31.0588 0.429876 0.881497 0.195277
-8.53235 63.2996 -30.1121 0.425958 0.888761 0.168934
-8.03568 62.8586 -28.9718 0.416486 0.89606 0.153293
-7.60974 62.5126 -28.0115 0.401986 0.904943 0.139587
-7.14451 62.1824 -27.0604 0.387236 0.915807 0.106518
-6.74641 61.901 -26.0965 0.371774 0.922764 0.101442
-6.26952 61.6105 -25.2732 0.368655 0.922483 0.114538
-5.6499 61.2597 -24.1878 0.356879 0.929799 0.0898237
-5.22167 61.0215 -23.0678 0.337477 0.938987 0.0663151
-4.9173 60.8437 -22.0098 0.327536 0.942971 0.0593829
-4.40718 60.5987 -20.8294 0.326196 0.943822 0.052885
-3.71365 60.3153 -19.6214 0.304635 0.9518 0.0356986
-3.12312 60.0844 -18.2741 0.279311 0.959544 0.0355198
-2.71826 59.9356 -17.3186 0.262585 0.964759 0.0170007
-2.38648 59.8145 -16.1357 0.24925 0.968002 0.0287811
-1.81315 59.6424 -14.6436 0.22397 0.974404 0.0193478
-1.3596 59.5278 -13.7225 0.221001 0.975205 0.0115645
-0.620376 59.3711 -12.3135 0.185311 0.982675 -0.00300414
-0.20823 59.2903 -11.4206 0.13891 0.989966 -0.00080348
1.02679 59.1338 -10.5283 0.125255 0.991678 -0.0297633
-0.0650608 59.276 -10.3876 0.133794 0.990743 -0.0172628
-0.812217 59.3856 -11.0482 0.162059 0.986727 0.0102932
-1.68213 59.5389 -11.6042 0.165894 0.985881 0.0219027
-2.63074 59.7362 -12.1909 0.179583 0.982795 0.0431378
-3.48288 59.9387 -12.7723 0.196936 0.978389 0.0630165
-4.48113 60.2109 -13.4262 0.225149 0.971907 0.0685917
-5.36448 60.4913 -14.1123 0.25051 0.966016 0.0637085
-6.49893 60.8463 -14.5789 0.272506 0.960061 0.0634234
-7.52706 61.1449 -14.8304 0.262853 0.962514 0.0668896
-8.51864 61.3954 -14.8295 0.25651 0.960846 0.104777
-9.49872 61.6479 -14.7572 0.241029 0.963834 0.113647
-10.3823 61.7098 -14.2028 0.137022 0.967873 0.210824
-11.1921 61.6864 -13.5403 0.0997996 0.978876 0.177242
-11.8815 61.5634 -12.6785 0.0964054 0.972264 0.213094
-12.4704 61.3827 -11.8184 0.0332654 0.966534 0.254373
-12.8705 61.1133 -10.8277 -0.0245217 0.95983 0.279507
-13.2312 60.8251 -9.89128 -0.0232605 0.955949 0.292607
-13.5814 60.4826 -8.79115 -0.04348 0.957401 0.285468
-14.0472 60.0783 -7.51404 -0.0685601 0.953578 0.293237
-14.3112 59.6749 -6.19446 -0.114599 0.952602 0.28181
-14.5561 59.3565 -5.21803 -0.137597 0.945863 0.293955
-14.9225 59.1895 -4.85585 -0.141384 0.943395 0.300027
-15.6244 59.417 -5.88393 -0.118015 0.946896 0.299101
-15.939 59.8454 -7.32765 -0.0969658 0.942568 0.319631
-16.3963 60.1281 -8.28735 -0.092955 0.934061 0.344803
-16.9413 60.5162 -9.53959 -0.0626651 0.94206 0.329092
-17.5634 60.959 -10.8582 -0.0645965 0.937049 0.34317
-17.9091 61.2837 -11.7733 -0.0580464 0.931789 0.358329
-18.4343 61.7607 -13.0701 -0.0385053 0.927481 0.371881
-18.7748 62.1766 -14.1391 -0.0401001 0.921883 0.385219
-18.8726 62.7656 -15.5982 -0.0353392 0.92588 0.376162
-19.2556 63.154 -16.588 0.016287 0.935509 0.352927
-19.6081 63.65 -17.8123 0.0593794 0.918556 0.390806
-19.8884 64.0858 -18.798 0.0453736 0.910296 0.410739
-20.2488 64.662 -20.0543 0.0937572 0.915929 0.390236
-20.4243 65.1298 -21.0128 0.143623 0.895055 0.422196
-20.552 65.6483 -22.0583 0.143131 0.892802 0.427104
-20.8989 66.4421 -23.3923 0.188107 0.853875 0.485297
-20.9662 67.0045 -24.3993 0.313041 0.820008 0.477562
-20.9152 67.6968 -25.5684 0.345037 0.800935 0.489339
-20.896 68.3181 -26.6029 0.345477 0.801704 0.487766
-20.8825 68.4516 -26.832 0.380247 0.761877 0.520652
-10.6691 64.144 -29.1304 0.439564 0.87856 0.18686
-11.743 65.0089 -30.3333 0.472716 0.849266 0.235132
-12.5331 65.6911 -31.1887 0.488927 0.834149 0.255238
-14.4666 67.1419 -31.9816 0.52935 0.784687 0.322574
-13.344 66.023 -30.7201 0.488923 0.834149 0.255244
-12.3353 65.1493 -29.6497 0.477131 0.846769 0.235221
-11.1735 64.2151 -28.3462 0.417675 0.886514 0.199102
-10.0137 63.4356 -27.0603 0.392807 0.906905 0.152403
-8.68805 62.4769 -24.3463 0.386718 0.915444 0.11141
-10.0394 63.2402 -25.7822 0.384969 0.912015 0.141515
-11.2283 63.9774 -27.0618 0.402586 0.900701 0.163287
-12.4509 64.8817 -28.4238 0.453487 0.861131 0.229789
-13.5683 65.8223 -29.6287 0.459393 0.846162 0.270125
-14.9557 67.1364 -31.1496 0.492049 0.82403 0.280824
-15.8552 68.2652 -32.2428 0.562353 0.741881 0.365201
-16.0042 68.466 -32.426 0.569029 0.743247 0.351839
-17.3425 69.6838 -32.6399 0.586164 0.680782 0.439258
-16.2767 68.0974 -31.2959 0.540121 0.762111 0.357008
-15.1565 66.84 -30.006 0.483113 0.816295 0.316645
-13.9187 65.7068 -28.6709 0.453043 0.849348 0.27085
-12.8574 64.8489 -27.5198 0.421096 0.880575 0.217407
-11.5026 63.9191 -26.0436 0.398944 0.903003 0.159464
-10.2803 63.179 -24.7284 0.378065 0.915753 0.13588
-9.10909 62.5457 -23.5032 0.358117 0.927556 0.106731
-7.99263 61.9913 -22.3139 0.363744 0.926984 0.0915987
-7.8832 61.9378 -22.1972 0.355165 0.931289 0.0809839
-6.53837 61.2213 -19.4912 0.325232 0.942607 0.0756085
-7.91613 61.8322 -20.9526 0.338644 0.936415 0.0919103
-9.03334 62.3647 -22.135 0.348192 0.930959 0.109903
-10.5275 63.1316 -23.7026 0.36769 0.92202 0.121171
-11.7269 63.8175 -24.9717 0.378697 0.911048 0.163034
-13.105 64.7272 -26.4535 0.407159 0.891984 0.196434
-14.237 65.5713 -27.6715 0.411341 0.879099 0.240797
-15.3011 66.4721 -28.8075 0.428171 0.857537 0.285132
-16.463 67.6658 -30.0942 0.508409 0.775679 0.373956
-17.3179 68.7641 -31.0968 0.538343 0.743131 0.397422
-17.8724 69.5942 -31.794 0.587206 0.680107 0.438911
-18.0188 68.9176 -30.479 0.511911 0.749793 0.419235
-17.1663 67.8263 -29.4868 0.493617 0.776783 0.391087
-16.0691 66.6637 -28.2748 0.436691 0.843104 0.31381
-15.0037 65.7863 -27.1467 0.404433 0.87853 0.254204
-13.9303 64.9904 -26.0125 0.380783 0.897548 0.222287
-12.8519 64.273 -24.8632 0.366237 0.91265 0.181492
-11.5987 63.5287 -23.5398 0.361536 0.918018 0.162895
-10.2294 62.7994 -22.115 0.341319 0.931919 0.122591
-8.6942 62.0654 -20.4946 0.334932 0.93771 0.0923064
-7.43254 61.4992 -19.1542 0.308067 0.94687 0.0923658
-6.16989 60.9822 -17.8107 0.302078 0.95109 0.064636
-5.98593 60.9106 -17.6172 0.302078 0.951089 0.064636
-6.84207 61.142 -17.2434 0.284481 0.955817 0.074052
-8.17792 61.6949 -18.6744 0.316198 0.944033 0.0939192
-9.28158 62.1997 -19.8454 0.327944 0.938992 0.103669
-10.5027 62.7731 -21.121 0.328626 0.936298 0.123902
-12.0151 63.5418 -22.6894 0.351737 0.924275 0.148315
-13.199 64.2106 -23.9195 0.357053 0.912158 0.201198
-14.3106 64.9147 -25.086 0.361087 0.90267 0.234102
-15.4285 65.7014 -26.2592 0.369881 0.888645 0.271105
-16.5653 66.6177 -27.4535 0.389519 0.864578 0.317458
-17.5322 67.5341 -28.4906 0.460799 0.803826 0.376202
-18.2714 68.4188 -29.3197 0.477956 0.763401 0.434485
-18.5731 68.0269 -28.2401 0.451003 0.780553 0.43282
-17.3998 66.802 -26.9709 0.400586 0.848858 0.344921
-16.1605 65.8196 -25.686 0.35334 0.886083 0.300014
-14.6876 64.8132 -24.1608 0.339436 0.913555 0.224054
-13.5411 64.1535 -22.9784 0.326198 0.926615 0.18703
-12.2695 63.4623 -21.669 0.288879 0.942735 0.166732
-10.8462 62.7697 -20.2031 0.304275 0.943606 0.130479
-9.72527 62.2616 -19.0401 0.306928 0.945299 0.110481
-8.44859 61.6861 -17.6846 0.30392 0.94546 0.117208
-8.37801 61.6554 -17.6093 0.280137 0.954579 0.1015
-9.24427 61.8851 -17.2353 0.303886 0.945173 0.119589
-10.4425 62.4335 -18.4965 0.306311 0.946114 0.105083
-11.866 63.0626 -19.9677 0.280054 0.949457 0.141778
-13.0203 63.5998 -21.1455 0.287568 0.942553 0.169998
-14.5008 64.3762 -22.6563 0.27307 0.937406 0.216106
-15.9017 65.2407 -24.0958 0.292829 0.908662 0.297632
-17.0631 66.0361 -25.2826 0.342087 0.890377 0.300343
-18.4187 67.1624 -26.6767 0.388398 0.834096 0.391703
-18.478 67.2192 -26.7388 0.3906 0.836215 0.384936
-18.6187 66.7118 -25.5188 0.360311 0.855532 0.371808
-17.4814 65.8483 -24.3822 0.302615 0.890247 0.340417
-16.236 65.0295 -23.122 0.282015 0.918786 0.276224
-15.1095 64.3896 -21.9703 0.235901 0.941698 0.239906
-13.6364 63.6506 -20.4772 0.223824 0.956242 0.188426
-12.1591 62.9947 -18.9713 0.256985 0.95704 0.134289
-11.0174 62.5035 -17.7933 0.274875 0.952012 0.134597
-10.2517 62.1521 -16.9977 0.237967 0.956656 0.167871
-11.1428 62.3111 -16.6331 0.251162 0.949931 0.185871
-12.4243 62.8757 -17.9434 0.207509 0.963165 0.171036
-13.6879 63.4006 -19.2299 0.20166 0.953548 0.223782
-14.8656 63.9271 -20.4204 0.241986 0.946505 0.213473
-16.0457 64.5052 -21.6029 0.22983 0.935027 0.270004
-17.1465 65.15 -22.7253 0.231186 0.91881 0.319908
-18.3933 65.9794 -23.981 0.267948 0.896817 0.352028
-18.5316 66.0749 -24.119 0.28067 0.885429 0.370458
-17.5254 64.9391 -21.7834 0.224762 0.927668 0.298184
-16.3465 64.3043 -20.6027 0.189356 0.94167 0.27821
-15.0727 63.7008 -19.3285 0.125888 0.958767 0.254791
-13.8413 63.1791 -18.0863 0.160029 0.961254 0.224459
-12.3639 62.5508 -16.6005 0.18469 0.952229 0.243207
-12.135 62.4449 -16.3665 0.184726 0.958511 0.217102
-13.0245 62.5044 -15.9944 0.143913 0.959817 0.240917
-14.436 63.0995 -17.3986 0.166401 0.953827 0.250049
-15.882 63.6786 -18.845 0.125995 0.96116 0.245554
-17.1946 64.2909 -20.1501 0.147338 0.940546 0.306046
-17.7025 64.5465 -20.6512 0.163166 0.935934 0.312096
-17.0381 63.7725 -18.7057 0.113836 0.934602 0.336988
-15.791 63.2607 -17.4475 0.0664269 0.953771 0.293101
-14.2693 62.6726 -15.967 0.080811 0.96097 0.264587
-13.2656 62.293 -14.9826 0.114284 0.956992 0.266656
-13.7895 62.1511 -14.2486 0.111462 0.959425 0.258998
-14.9778 62.5791 -15.3906 0.0851565 0.964642 0.249429
-16.5615 63.1498 -16.9304 0.0495515 0.945556 0.321665
-16.6541 63.1854 -17.0172 0.0610621 0.94046 0.334374
-16.3767 62.6655 -15.5005 0.0342577 0.957064 0.287846
-15.0603 62.2383 -14.2157 0.0239974 0.953407 0.300732
-14.3402 61.9766 -13.5483 0.0659475 0.950659 0.303149
-14.9658 61.784 -12.9123 0.0150897 0.94897 0.315005
-15.7991 62.0639 -13.6796 -0.0117709 0.942882 0.332919
