-16.3168 69.1925 -21.2076 0.266643 0.853813 0.447108
-16.0868 68.4713 -19.9544 0.241494 0.874427 0.419292
-16.0095 67.9749 -18.896 0.215074 0.890127 0.401767
-15.9406 67.4715 -17.7991 0.183287 0.905116 0.383471
-15.6508 66.9309 -16.702 0.15879 0.907711 0.38839
-15.348 66.4394 -15.6724 0.116097 0.911403 0.394798
-14.7429 66.1968 -15.3252 0.146752 0.915438 0.37475
-14.2676 66.5463 -16.4063 0.184099 0.91475 0.35943
-13.3838 66.7196 -17.4684 0.254755 0.914299 0.31484
-12.6524 66.8016 -18.3594 0.280277 0.915668 0.288092
-11.6729 66.6245 -19.1035 0.37626 0.90413 0.202429
-10.4233 66.1223 -19.454 0.437871 0.883311 0.167129
-9.18815 65.5374 -19.6544 0.448614 0.883244 0.136212
-8.15419 64.9988 -19.6371 0.455272 0.883059 0.112442
-7.03148 64.3945 -19.2182 0.436103 0.893361 0.108261
-5.98664 63.8598 -18.7592 0.411264 0.908023 0.0797257
-4.93645 63.3874 -18.7116 0.400487 0.912827 0.0797289
-5.43941 63.6983 -19.8052 0.405078 0.9116 0.0697618
-6.00448 64.0916 -21.2031 0.445683 0.892005 0.0754574
-6.40493 64.3974 -22.3138 0.471796 0.876334 0.0971383
-6.81653 64.7382 -23.4054 0.477541 0.872713 0.101621
-7.24799 65.0992 -24.4755 0.49026 0.86342 0.117066
-7.79385 65.6151 -25.7458 0.504209 0.854059 0.127867
-8.28256 66.1452 -27.2187 0.546812 0.823316 0.149745
-8.75994 66.7164 -28.3745 0.557453 0.814048 0.162848
-9.21865 67.3155 -29.7425 0.569891 0.800331 0.184994
-9.84729 68.0893 -30.7255 0.634079 0.739471 0.225185
-10.6824 68.9175 -30.9929 0.654913 0.716316 0.240791
-11.6873 70.0138 -31.4249 0.667374 0.689913 0.280364
-12.4626 70.9286 -31.8503 0.673152 0.673462 0.303857
-13.2745 71.8792 -31.9925 0.689842 0.639469 0.339407
-13.9625 72.7736 -32.1729 0.726065 0.584353 0.361123
-14.6958 73.8114 -32.3064 0.728941 0.56601 0.385069
-15.5147 74.2328 -31.3868 0.724652 0.534724 0.434426
-15.9562 73.7619 -30.0696 0.689741 0.567421 0.448889
-16.2996 73.2019 -28.824 0.662578 0.589043 0.462621
-16.4145 72.3796 -27.4576 0.615272 0.642693 0.456494
-16.4306 71.8114 -26.4622 0.544619 0.72325 0.424617
-16.5007 71.0749 -25.0224 0.48542 0.784971 0.384885
-16.6199 70.3872 -23.5552 0.39885 0.818216 0.413183
-16.5233 69.7761 -22.3351 0.375324 0.846282 0.377852
-16.4842 69.6427 -22.0656 0.368972 0.852682 0.369853
-17.5242 69.9802 -21.9349 0.304747 0.82418 0.477
-17.4057 69.1038 -20.389 0.267273 0.85627 0.441967
-17.2212 68.2569 -18.8922 0.18943 0.866854 0.460462
-17.1507 67.6195 -17.6207 0.167699 0.892169 0.419234
-16.8538 67.0299 -16.4917 0.118649 0.892603 0.434552
-16.423 66.3268 -15.096 0.103376 0.896741 0.430071
-16.3698 65.8032 -13.9335 0.0762235 0.910604 0.40619
-16.01 65.202 -12.5902 0.0860676 0.92026 0.381718
-15.8524 64.7033 -11.3709 0.0582168 0.930775 0.360711
-15.2408 64.5215 -10.9898 0.0699191 0.933885 0.350672
-14.7899 64.9803 -12.3375 0.0889949 0.925995 0.366478
-14.521 65.396 -13.4708 0.119637 0.926235 0.357457
-13.9329 65.7549 -14.5548 0.141182 0.918573 0.369168
-13.571 66.0752 -15.549 0.179821 0.920692 0.346208
-12.8861 66.2802 -16.5438 0.218129 0.918704 0.329244
-11.8685 66.3468 -17.7693 0.297188 0.933121 0.202395
-10.7773 66.0707 -18.3653 0.388314 0.906657 0.164881
-9.5379 65.5327 -18.5546 0.424132 0.893423 0.1477
-8.45668 65.0141 -18.5868 0.43258 0.893578 0.11997
-7.17408 64.3408 -18.1617 0.43084 0.896919 0.0995659
-6.22443 63.8564 -17.6861 0.402246 0.909458 0.105284
-4.86347 63.1838 -16.61 0.358891 0.929734 0.0815327
-4.08467 62.8263 -15.7905 0.347732 0.933605 0.0852032
-2.90069 62.3679 -14.9603 0.293974 0.953852 0.0611981
-2.56186 62.2932 -15.5023 0.303368 0.951312 0.054531
-3.06089 62.5293 -16.5966 0.319919 0.944968 0.0684647
-3.48651 62.7446 -17.8157 0.360297 0.93163 0.0412084
-4.1429 63.1083 -19.4502 0.378792 0.923994 0.0524402
-4.61037 63.4026 -20.7785 0.406348 0.911521 0.0633365
-5.04223 63.6715 -21.8019 0.422656 0.90306 0.0742624
-5.59221 64.0824 -23.2569 0.441515 0.892481 0.0924293
-6.14264 64.5188 -24.6683 0.473499 0.874504 0.105075
-6.79507 65.0764 -26.0967 0.504724 0.854132 0.125351
-7.26378 65.5349 -27.296 0.508521 0.849749 0.138825
-7.65559 65.9432 -28.3053 0.532723 0.830697 0.158213
-8.16593 66.5439 -29.5946 0.551816 0.818219 0.161111
-8.44891 67.0429 -30.8494 0.577623 0.7924 0.196096
-9.08999 67.7731 -31.6874 0.584422 0.773198 0.246203
-10.2713 68.9019 -32.0533 0.633575 0.732048 0.250162
-11.0059 69.726 -32.355 0.671284 0.686584 0.27925
-11.685 70.5652 -32.7603 0.693732 0.65461 0.300356
-12.6435 71.7129 -33.0249 0.707051 0.638998 0.302921
-13.6057 72.9832 -33.2017 0.756188 0.563609 0.332453
-14.2753 73.9925 -33.3467 0.776987 0.513602 0.363622
-15.0404 75.1682 -33.4137 0.766982 0.520506 0.37525
-15.7234 75.8577 -32.8899 0.78053 0.454542 0.42752
-16.1213 75.3407 -31.6752 0.762038 0.47087 0.444499
-16.6045 74.6334 -30.1316 0.684736 0.555362 0.471921
-16.9861 74.0269 -28.8424 0.687239 0.562759 0.459353
-17.1879 73.4077 -27.9002 0.608907 0.615136 0.497366
-17.2795 72.6852 -26.7602 0.576128 0.64971 0.494823
-17.437 71.891 -25.3845 0.499778 0.747465 0.437629
-17.6367 71.2092 -24.136 0.481067 0.727289 0.489515
-17.6155 70.4474 -22.6646 0.398467 0.830469 0.389288
-17.6065 70.4122 -22.5986 0.351789 0.822742 0.440946
-18.6952 70.6187 -22.2637 0.314218 0.811356 0.492919
-18.6355 71.2381 -23.2493 0.383556 0.741257 0.5496
-18.5745 71.966 -24.3554 0.401333 0.754975 0.518599
-18.3775 73.0322 -26.0015 0.563695 0.638793 0.523633
-18.1428 73.6121 -26.9839 0.608907 0.615135 0.497368
-17.9124 74.431 -28.1404 0.632811 0.574917 0.518534
-17.5872 74.9933 -29.141 0.669646 0.523698 0.526532
-17.2023 75.7199 -30.401 0.715779 0.494347 0.493103
-16.7646 76.2771 -31.5644 0.738034 0.479305 0.473383
-16.4526 76.846 -32.6633 0.761707 0.456641 0.459653
-15.9763 77.0171 -33.7054 0.800363 0.439683 0.407179
-15.3326 76.462 -34.3755 0.801881 0.46512 0.375033
-14.6389 75.3439 -34.4721 0.806042 0.461378 0.370643
-13.9658 74.2535 -34.4144 0.778807 0.517551 0.354134
-13.1192 72.9754 -34.2949 0.741464 0.579537 0.33745
-12.1242 71.6432 -34.0901 0.716896 0.61723 0.322684
-11.2978 70.6543 -33.8567 0.695745 0.653187 0.298807
-10.5744 69.7371 -33.4523 0.679227 0.682886 0.268828
-9.82338 68.8708 -33.173 0.655901 0.712003 0.246086
-8.94495 68.0377 -32.883 0.652333 0.729098 0.207069
-8.00793 67.1313 -32.3246 0.604102 0.764056 0.226449
-7.5422 66.5308 -31.2869 0.5368 0.81564 0.215817
-7.30745 66.0831 -30.1427 0.548988 0.81587 0.180918
-6.82339 65.5388 -28.9533 0.528144 0.833923 0.160112
-6.43012 65.1225 -27.8898 0.524826 0.841025 0.131276
-5.97047 64.6953 -26.8686 0.51829 0.848206 0.109183
-5.41441 64.2454 -25.8344 0.480311 0.873621 0.0780178
-5.02671 63.9457 -24.8047 0.461835 0.882719 0.0866967
-4.5864 63.6095 -23.563 0.426907 0.900518 0.0825639
-4.08405 63.2849 -22.3606 0.406659 0.910995 0.06868
-3.62358 63.0008 -21.3188 0.40678 0.910939 0.0687095
-3.13892 62.7354 -20.1418 0.378687 0.924091 0.051498
-2.45977 62.401 -18.7799 0.341698 0.939361 0.0290343
-2.03191 62.2024 -17.3424 0.3145 0.948799 0.0294871
-1.60949 62.0265 -16.0825 0.312729 0.949492 0.025805
-1.10362 61.8276 -14.6385 0.248326 0.968093 0.0336151
-0.745734 61.7017 -13.5411 0.243772 0.96966 0.018313
-0.169103 61.55 -12.5175 0.212945 0.977064 -0.00052549
0.323735 61.44 -11.1493 0.187874 0.982193 0.000621129
0.0246968 61.4973 -11.3046 0.200782 0.979515 0.00589881
-0.953696 61.7119 -12.0234 0.201858 0.978071 0.042512
-1.9364 61.9669 -12.8308 0.220088 0.974911 0.0333277
-2.89585 62.2639 -13.4854 0.295495 0.952818 0.0694299
-3.68438 62.568 -14.3141 0.307666 0.94882 0.0693083
-4.61954 62.9398 -14.9023 0.327267 0.941874 0.0759553
-5.49324 63.3527 -15.877 0.356643 0.928297 0.104223
-6.39373 63.7927 -16.5292 0.382177 0.916627 0.116372
-7.2889 64.2687 -17.1023 0.435318 0.891062 0.126424
-8.42813 64.8566 -17.4805 0.433079 0.895011 0.106619
-9.59065 65.3971 -17.5197 0.403639 0.903122 0.144756
-10.7596 65.8897 -17.2935 0.345769 0.920895 0.171031
-11.6256 65.9457 -16.5186 0.245438 0.924729 0.290923
-12.4069 65.8328 -15.4881 0.162972 0.939657 0.299783
-12.8889 65.5236 -14.3861 0.153025 0.922611 0.35361
-13.4202 65.1562 -13.2233 0.130168 0.926603 0.352663
-13.7635 64.8012 -12.1792 0.123577 0.933335 0.336891
-14.118 64.4778 -11.1056 0.0924878 0.955467 0.280107
-14.599 64.0591 -9.71514 0.0128566 0.95537 0.295036
-14.8598 63.6979 -8.68034 0.00240742 0.942781 0.333403
-15.2978 63.3133 -7.60314 -0.0139379 0.948439 0.315651
-15.8879 63.2036 -7.32281 -0.0604656 0.947931 0.312684
-16.0648 63.5872 -8.3938 -0.0101927 0.937869 0.346593
-16.544 64.054 -9.62288 -0.0121895 0.930418 0.366133
-16.8779 64.5514 -10.8687 -0.00599625 0.928342 0.37168
-17.2197 65.0233 -11.9971 0.039216 0.930197 0.364961
-17.5363 65.4823 -13.039 0.0703774 0.902215 0.425506
-17.6921 66.0028 -14.1168 0.076314 0.90593 0.416333
-17.8706 66.5991 -15.3361 0.094766 0.892552 0.440874
-18.0774 67.3094 -16.7095 0.110166 0.887065 0.448307
-18.4245 68.1345 -18.1432 0.124705 0.860738 0.493537
-18.5108 68.8058 -19.3572 0.205957 0.846663 0.490267
-18.5311 69.4071 -20.3616 0.221308 0.834013 0.505334
-18.6158 70.1752 -21.5669 0.262398 0.831439 0.48726
-18.6497 70.4394 -21.9976 0.309659 0.813188 0.49276
-9.71685 67.6059 -29.3974 0.603599 0.774897 0.187623
-10.1672 68.1664 -30.0373 0.626879 0.749586 0.212472
-11.7408 69.7947 -30.7517 0.643949 0.715029 0.272147
-10.8202 68.532 -29.446 0.613346 0.758202 0.221216
-9.92633 67.5195 -28.2331 0.575346 0.797312 0.182401
-9.06481 66.6531 -27.0936 0.562543 0.808498 0.172848
-8.87789 66.4738 -26.8515 0.547017 0.823611 0.149795
-7.84486 65.4226 -24.1848 0.518468 0.847968 0.110182
-8.89763 66.2688 -25.4636 0.533812 0.835728 0.128856
-9.94499 67.2148 -26.8039 0.569794 0.803605 0.171914
-11.0553 68.3824 -28.2692 0.614805 0.75885 0.21485
-11.9738 69.5404 -29.5323 0.643945 0.715031 0.272147
-12.7737 70.7486 -30.7257 0.666575 0.684725 0.294666
-13.1299 71.3628 -31.3136 0.684332 0.656952 0.316393
-14.1134 72.4799 -31.3477 0.677676 0.630247 0.378873
-13.5296 71.2911 -30.2677 0.659396 0.675601 0.329787
-12.7909 70.1165 -29.1418 0.62914 0.720438 0.291809
-11.9273 68.9869 -27.9565 0.581812 0.776618 0.241576
-10.8358 67.7875 -26.5179 0.559585 0.806514 0.190787
-9.85539 66.8565 -25.2628 0.541463 0.824922 0.16224
-8.79291 65.9767 -23.9623 0.52801 0.839426 0.128721
-7.67892 65.1232 -22.6205 0.493894 0.862174 0.112802
-6.73546 64.4823 -21.5037 0.458155 0.884526 0.0877994
-6.5562 64.2403 -19.9332 0.444346 0.890552 0.0973336
-7.82575 65.0731 -21.4557 0.486516 0.868081 0.0986812
-8.87107 65.8319 -22.7059 0.494477 0.859733 0.127873
-9.8281 66.5952 -23.8524 0.516891 0.841577 0.156753
-10.8864 67.5204 -25.1528 0.551645 0.817973 0.163121
-11.8494 68.4472 -26.3615 0.552814 0.810962 0.191673
-12.753 69.4868 -27.5554 0.590611 0.769558 0.242815
-13.7243 70.8357 -28.9051 0.627647 0.719092 0.298272
-14.4431 72.011 -29.9979 0.655021 0.66253 0.363321
-14.9722 73.343 -31.1219 0.72659 0.559384 0.398945
-14.9952 73.4157 -31.182 0.726589 0.559382 0.398948
-15.5032 73.2711 -30.1306 0.702193 0.572996 0.422612
-14.8694 71.8693 -28.9529 0.614817 0.696352 0.370262
-13.9653 70.4908 -27.6709 0.589605 0.737547 0.329227
-13.1319 69.422 -26.5391 0.566575 0.782393 0.258561
-12.1183 68.3582 -25.2616 0.545687 0.810796 0.211741
-11.1056 67.4103 -24.0198 0.521109 0.834159 0.180621
-9.93479 66.4302 -22.615 0.505788 0.850833 0.142341
-8.85547 65.6138 -21.3271 0.472828 0.872118 0.125872
-7.90898 64.9447 -20.1843 0.466795 0.875814 0.122687
-9.0794 65.5636 -20.2176 0.457971 0.878395 0.136694
-10.0441 66.2769 -21.3686 0.475033 0.866456 0.153615
-11.0416 67.0617 -22.5422 0.490964 0.851756 0.182936
-12.0791 67.9602 -23.7996 0.487264 0.847777 0.209399
-12.9926 68.8228 -24.8875 0.524969 0.822313 0.219566
-13.9297 69.8393 -26.0725 0.562054 0.783439 0.265178
-14.8381 71.0059 -27.291 0.570207 0.739433 0.357914
-15.5526 72.1358 -28.3062 0.657789 0.643737 0.391046
-15.8447 72.7346 -28.8157 0.63877 0.656421 0.401352
-15.8734 71.7397 -27.1185 0.540304 0.743653 0.393765
-14.9242 70.4183 -25.8261 0.550524 0.759116 0.347371
-13.9739 69.3439 -24.6154 0.483855 0.824786 0.292594
-12.9129 68.3094 -23.3566 0.490856 0.838858 0.235326
-11.7864 67.3672 -22.0303 0.469635 0.8588 0.204709
-10.6613 66.4867 -20.7117 0.46169 0.870622 0.169881
-10.1427 66.1011 -20.099 0.450893 0.878794 0.15626
-11.4041 66.7611 -20.1997 0.446094 0.872631 0.198784
-12.4452 67.5826 -21.4089 0.453013 0.868294 0.202099
-13.4359 68.3874 -22.5451 0.403824 0.875273 0.266126
-14.6348 69.4902 -23.9349 0.483854 0.824789 0.292591
-15.8142 70.8397 -25.4169 0.487094 0.787172 0.378285
-16.0325 70.3246 -24.1005 0.454189 0.810365 0.370164
-15.0808 69.3991 -23.0042 0.41969 0.84559 0.329906
-14.0679 68.4717 -21.8329 0.422212 0.865572 0.269298
-12.9412 67.597 -20.568 0.408405 0.883077 0.231042
-11.9883 66.8513 -19.4963 0.389331 0.884999 0.255338
-12.8007 67.0654 -19.0537 0.296876 0.900689 0.317214
-13.9365 67.8781 -20.254 0.326022 0.893822 0.307884
-15.005 68.7481 -21.4573 0.349148 0.862033 0.367416
-15.8907 69.5557 -22.4583 0.369079 0.853066 0.368862
-15.4729 68.5394 -20.5233 0.339878 0.877731 0.337743
-14.3733 67.6775 -19.3187 0.27853 0.891077 0.358333
-13.6082 67.1536 -18.5482 0.296864 0.900692 0.317215
-14.0542 66.9786 -17.6855 0.242601 0.915277 0.321579
-15.145 67.6922 -18.7556 0.278539 0.891076 0.35833
-15.3089 67.8232 -18.9349 0.253389 0.885593 0.389254
-15.277 67.2339 -17.5732 0.209499 0.895498 0.392675
-14.6986 66.8768 -17.0133 0.187928 0.911259 0.366456
