-9.20829 69.9915 -30.7218 0.715519 0.658716 0.230865
-8.36605 68.9255 -29.8945 0.679016 0.712004 0.178849
-8.01864 68.25 -28.5216 0.648592 0.736318 0.192781
-7.71046 67.6876 -27.3028 0.633527 0.756653 0.160866
-7.30459 67.1284 -26.0466 0.587919 0.791639 0.166309
-6.8402 66.5582 -24.6863 0.56039 0.820762 0.110392
-6.33342 66.0318 -23.2958 0.536997 0.837378 0.102139
-5.89489 65.63 -22.2111 0.501924 0.85792 0.109701
-5.40986 65.2007 -20.9635 0.472369 0.876873 0.0873784
-5.40181 65.0809 -19.7815 0.451457 0.888876 0.0771982
-4.77173 64.6861 -18.924 0.434052 0.895586 0.097596
-5.48914 65.1107 -19.6293 0.443625 0.891137 0.0946128
-6.08802 65.52 -20.3513 0.488245 0.86825 0.0880865
-7.04442 66.1653 -20.9771 0.530277 0.840423 0.111781
-7.96522 66.8286 -21.3641 0.556689 0.820227 0.131332
-9.0767 67.6648 -21.7369 0.578462 0.805475 0.128809
-10.3309 68.553 -21.6407 0.584361 0.792337 0.175285
-11.3285 69.1754 -21.292 0.558102 0.803309 0.207106
-12.3657 69.7153 -20.7921 0.493459 0.822201 0.283695
-13.2855 69.9014 -19.8754 0.446078 0.800456 0.400355
-14.1033 69.6846 -18.5584 0.377542 0.832389 0.405583
-14.838 69.3686 -17.4974 0.302457 0.80123 0.516079
-15.2302 69.9191 -18.0992 0.292197 0.798816 0.525702
-15.3237 70.5929 -19.2323 0.361689 0.8084 0.464234
-15.2934 71.2025 -20.2855 0.379356 0.781328 0.495596
-15.4041 71.9663 -21.4018 0.380993 0.771521 0.509279
-15.3687 72.5569 -22.7328 0.464472 0.807844 0.356553
-15.3621 73.3119 -24.2343 0.568759 0.721178 0.395494
-15.2645 74.1587 -25.757 0.613854 0.665811 0.42184
-15.0963 74.7904 -27.0428 0.644535 0.631845 0.430519
-14.8151 75.3465 -28.2991 0.696864 0.584147 0.416117
-14.3922 76.0226 -29.9448 0.762311 0.511136 0.397017
-14.101 76.4694 -31.1016 0.770591 0.517728 0.371681
-12.9991 75.282 -31.8014 0.787467 0.502645 0.356712
-11.7646 73.3699 -31.5249 0.774088 0.54252 0.326281
-11.0914 72.423 -31.2628 0.737453 0.614809 0.279594
-10.3784 71.4447 -31.0077 0.749358 0.615206 0.243962
-9.37135 70.1988 -30.7757 0.735261 0.637858 0.229192
-9.04707 70.2202 -31.8619 0.707108 0.660258 0.251115
-9.74703 71.1038 -32.0479 0.736701 0.632235 0.239897
-10.5663 72.2205 -32.3013 0.762011 0.59818 0.248035
-11.202 73.151 -32.5276 0.792515 0.543159 0.277289
-11.8548 74.2309 -32.7871 0.790724 0.54499 0.278823
-12.5165 75.2835 -32.8872 0.807014 0.497037 0.317843
-13.1832 76.3476 -32.9284 0.792561 0.509526 0.335009
-13.7788 77.325 -32.8749 0.810844 0.457748 0.364299
-14.4676 77.6211 -31.7971 0.796052 0.459697 0.393675
-14.9579 77.1401 -30.3339 0.753984 0.49752 0.427499
-15.1752 76.6284 -29.2831 0.728736 0.522723 0.441029
-15.5658 76.1385 -28.1538 0.70493 0.551506 0.443864
-15.8324 75.6758 -27.1066 0.68364 0.577276 0.446529
-16.0367 75.1201 -26.1262 0.611402 0.610679 0.503091
-16.2244 74.5021 -25.0452 0.560541 0.685237 0.46502
-16.3627 73.8148 -23.9027 0.48146 0.738672 0.471762
-16.4499 73.0977 -22.5725 0.488541 0.771326 0.407901
-16.4612 72.3698 -21.3119 0.337273 0.814777 0.471477
-16.412 71.664 -20.1808 0.335322 0.787739 0.515374
-16.4669 71.0228 -19.1876 0.300151 0.811924 0.500688
-16.4121 70.3444 -18.1334 0.253385 0.816494 0.51878
-16.231 69.6537 -17.2327 0.222382 0.782427 0.581682
-15.9111 68.7094 -15.9317 0.230374 0.821876 0.521006
-15.9996 67.9499 -14.5526 0.20353 0.855069 0.476898
-15.9027 67.4366 -13.624 0.148253 0.890452 0.429764
-15.2537 66.9481 -12.8258 0.141813 0.897296 0.417397
-14.9788 67.2832 -13.6704 0.173304 0.899659 0.400723
-14.7168 67.8493 -14.9039 0.207545 0.870193 0.445917
-14.2217 68.3808 -16.1592 0.258534 0.843297 0.471179
-13.7288 68.7969 -17.1912 0.29677 0.830307 0.470557
-13.2014 69.197 -18.3735 0.368999 0.836257 0.405602
-12.5998 69.3409 -19.3472 0.429163 0.841918 0.327098
-11.7352 69.1401 -20.1733 0.513241 0.826484 0.231317
-10.695 68.5757 -20.6032 0.549352 0.819448 0.163455
-9.54015 67.8131 -20.7624 0.569212 0.808296 0.150511
-8.63111 67.1615 -20.603 0.560252 0.817006 0.13642
-7.64778 66.4315 -20.144 0.538818 0.833791 0.119489
-6.86273 65.8686 -19.5711 0.510205 0.853976 0.102059
-6.09031 65.3527 -18.9136 0.490144 0.863961 0.115457
-5.38334 64.8975 -18.139 0.424216 0.900684 0.0938586
-4.51824 64.4091 -17.3319 0.395397 0.912888 0.101476
-3.78163 64.0171 -16.4688 0.366363 0.926847 0.0794983
-2.93906 63.6426 -15.7761 0.349792 0.933062 0.0839132
-2.86115 63.6637 -16.3363 0.348835 0.933764 0.0798821
-3.00879 63.828 -17.9145 0.371694 0.926976 0.0505717
-3.461 64.1158 -19.3166 0.40758 0.910564 0.0689316
-3.95555 64.4091 -20.4639 0.425795 0.902317 0.0630393
-4.58669 64.8569 -21.9764 0.464739 0.882984 0.0659987
-5.04949 65.2569 -23.1231 0.499058 0.859545 0.11009
-5.4871 65.6315 -24.2243 0.512649 0.854519 0.0836024
-5.99979 66.1266 -25.5172 0.525211 0.841979 0.123391
-6.51269 66.6809 -26.86 0.561097 0.814371 0.148224
-6.96307 67.229 -28.004 0.621388 0.7667 0.161394
-7.24132 67.7163 -29.062 0.643843 0.740025 0.194484
-7.5807 68.399 -30.5895 0.639817 0.745952 0.184906
-8.02844 69.0328 -31.4163 0.663428 0.702798 0.254975
-8.93907 70.103 -31.8376 0.685859 0.683125 0.250873
-8.82548 70.3873 -32.9254 0.707109 0.66026 0.251108
-9.61236 71.3763 -33.1565 0.738124 0.624284 0.255149
-10.5456 72.7299 -33.5918 0.778149 0.569702 0.262051
-11.393 74.1476 -33.9338 0.792515 0.543162 0.277284
-12.166 75.3767 -33.995 0.811984 0.498954 0.302368
-12.8046 76.4484 -33.9773 0.807015 0.497034 0.317843
-13.3786 77.4628 -33.9805 0.82481 0.456624 0.33344
-14.0177 78.5631 -33.8696 0.831952 0.421234 0.360813
-14.7507 78.9493 -32.7202 0.822331 0.417829 0.386253
-15.0803 78.5353 -31.6454 0.79904 0.422752 0.42757
-15.5342 78.1132 -30.3695 0.763494 0.468456 0.444551
-15.7615 77.5614 -29.4076 0.725729 0.46072 0.510935
-16.2436 77.0338 -28.1095 0.716057 0.515732 0.470406
-16.571 76.5146 -27.1536 0.669157 0.533587 0.517217
-16.8717 75.9326 -26.0977 0.611398 0.610683 0.503092
-17.0695 75.2915 -25.1082 0.578247 0.620278 0.528794
-17.2438 74.5907 -24.055 0.500784 0.691658 0.520408
-17.3751 73.9688 -23.1178 0.427536 0.686928 0.587644
-17.5123 73.3552 -22.136 0.359959 0.77375 0.521254
-17.5953 72.5718 -20.9025 0.272281 0.796546 0.539795
-17.6066 71.7969 -19.7392 0.27149 0.802606 0.531146
-17.585 71.0186 -18.6457 0.218128 0.796572 0.563794
-17.5064 70.2018 -17.5198 0.169404 0.787276 0.592776
-17.2848 69.5068 -16.6391 0.142093 0.826191 0.545178
-17.1566 68.7028 -15.4542 0.145152 0.831818 0.535609
-17.1499 68.0824 -14.4321 0.129719 0.85378 0.504214
-17.0468 67.4732 -13.4046 0.134592 0.860851 0.490735
-16.9946 66.7175 -11.872 0.109641 0.894718 0.432964
-16.7037 66.2501 -10.8746 0.0835738 0.922347 0.377189
-16.2155 65.6638 -9.4818 0.0468206 0.942288 0.331511
-15.8936 65.3268 -8.55093 0.0106949 0.949077 0.314148
-15.1122 65.5879 -9.47007 0.0855596 0.950665 0.297653
-14.8132 65.9895 -10.7506 0.111882 0.936494 0.332357
-14.4667 66.3877 -11.8409 0.12566 0.910097 0.394883
-14.1549 66.8501 -13.0318 0.152456 0.90301 0.401659
-13.8583 67.2558 -14.1318 0.217804 0.899296 0.37764
-13.4717 67.6951 -15.2761 0.25649 0.866852 0.427529
-12.9783 68.152 -16.4764 0.285307 0.84442 0.453381
-12.5581 68.5237 -17.4843 0.312823 0.866507 0.388036
-11.9813 68.8365 -18.6024 0.350171 0.875569 0.321084
-11.0074 68.5673 -19.5058 0.510232 0.84164 0.17103
-10 67.9542 -19.7951 0.553069 0.821465 0.138957
-8.48262 66.8798 -19.5085 0.549361 0.824342 0.136449
-7.54522 66.1751 -18.7778 0.505747 0.855091 0.114191
-6.68599 65.582 -18.1446 0.483907 0.866278 0.124082
-5.81598 64.9918 -17.2349 0.436422 0.889266 0.13347
-4.9337 64.4707 -16.3304 0.375274 0.919611 0.115477
-4.04952 64.0183 -15.3978 0.347464 0.933073 0.092776
-3.00979 63.5571 -14.3749 0.3128 0.946766 0.0760901
-1.95597 63.1717 -13.5773 0.277382 0.958449 0.0665914
-0.927002 62.8483 -12.5718 0.242327 0.968932 0.0444829
0.0610701 62.5941 -11.6494 0.219402 0.97551 0.0155914
0.245748 62.5572 -11.9391 0.209878 0.977595 0.0124259
0.0118488 62.6261 -12.7124 0.239883 0.970794 0.00402344
-0.517312 62.7822 -13.8558 0.267285 0.963135 0.0304904
-0.886029 62.9381 -15.1878 0.269355 0.962241 0.0392305
-1.31206 63.1069 -16.2232 0.334913 0.941582 0.0354549
-1.7032 63.3035 -17.6051 0.338117 0.940153 0.0422973
-2.07651 63.5046 -18.8417 0.367844 0.928465 0.0514078
-2.56556 63.7622 -20.2062 0.392088 0.918671 0.037077
-3.00232 64.013 -21.2973 0.418925 0.907266 0.0370065
-3.41622 64.287 -22.3809 0.42925 0.897965 0.0969642
-3.87912 64.6254 -23.3569 0.487009 0.867749 0.0991704
-4.35661 64.9866 -24.3748 0.479873 0.87382 0.0784882
-4.85031 65.4256 -25.5463 0.502579 0.855468 0.124853
-5.26762 65.8422 -26.6696 0.525036 0.841013 0.130435
-5.75945 66.3232 -27.7462 0.543658 0.826986 0.141493
-6.23763 66.8585 -28.8424 0.58318 0.801141 0.134439
-6.63009 67.4953 -30.1736 0.617519 0.758101 0.209648
-6.71918 67.8834 -31.3074 0.617489 0.757678 0.211263
-7.12425 68.5181 -32.2185 0.65631 0.720009 0.221941
-7.84712 69.3141 -32.6784 0.67178 0.717196 0.185316
-8.37223 69.9024 -32.8428 0.685696 0.6835 0.2503
-9.47354 70.1035 -30.1826 0.727732 0.640784 0.244544
-8.74705 69.015 -28.9348 0.661724 0.718728 0.213426
-8.72713 68.9868 -28.9015 0.660369 0.722344 0.205264
-10.4558 71.2534 -30.3087 0.720339 0.643157 0.259731
-9.72432 69.9536 -28.9394 0.699202 0.684407 0.206647
-8.87235 68.74 -27.5138 0.653777 0.731755 0.192639
-7.94082 67.6208 -26.0793 0.623076 0.766739 0.154559
-7.26147 66.7057 -23.6132 0.568742 0.812149 0.130178
-8.19215 67.6009 -24.946 0.612705 0.778384 0.136788
-9.12918 68.6772 -26.3408 0.64426 0.743602 0.178843
-9.89671 69.672 -27.561 0.673547 0.706506 0.217218
-10.5846 70.7823 -28.7851 0.692942 0.677105 0.24771
-11.2552 72.0407 -30.0387 0.727614 0.627602 0.276936
-11.4461 72.4825 -30.4818 0.738985 0.606524 0.293309
-12.4194 73.7983 -30.688 0.759074 0.548798 0.350182
-11.907 72.5386 -29.478 0.721747 0.623656 0.300225
-11.2797 71.3501 -28.3308 0.705975 0.661135 0.253966
-10.5742 70.1747 -27.0576 0.682644 0.694321 0.22785
-9.83671 69.1698 -25.8582 0.638898 0.741185 0.206044
-8.9969 68.1537 -24.6003 0.606054 0.77514 0.178484
-8.14864 67.2797 -23.3675 0.567058 0.811022 0.143835
-7.06264 66.3096 -21.8538 0.540244 0.831608 0.128704
-7.00045 66.2556 -21.7663 0.540124 0.831657 0.128895
-8.4142 67.2822 -22.2625 0.560322 0.818299 0.128165
-9.3756 68.247 -23.6408 0.605868 0.779203 0.160524
-10.2173 69.2201 -24.8526 0.637621 0.7474 0.186635
-11.0432 70.3461 -26.181 0.670245 0.707755 0.22328
-11.7404 71.4832 -27.4233 0.696168 0.665108 0.270151
-12.6033 73.1073 -28.9852 0.721747 0.623655 0.300228
-13.2134 74.7446 -30.4678 0.752793 0.546072 0.367571
-13.4077 75.3841 -31.0432 0.776614 0.527215 0.344841
-13.962 75.4991 -30.0968 0.749901 0.536226 0.387441
-13.5238 74.161 -28.9014 0.715777 0.600491 0.356475
-12.9565 72.9372 -27.8262 0.703781 0.637906 0.312678
-12.3192 71.7767 -26.6904 0.669249 0.689949 0.275819
-11.6169 70.6618 -25.4701 0.655048 0.715812 0.241919
-10.7934 69.5497 -24.1806 0.633766 0.748169 0.196427
-9.81426 68.4094 -22.803 0.600857 0.780816 0.171164
-9.52829 68.1132 -22.3861 0.593358 0.789677 0.156005
-10.3906 68.7172 -22.1842 0.579877 0.795353 0.176513
-11.4178 69.899 -23.5651 0.623602 0.75286 0.21053
-12.2663 71.049 -24.8639 0.650002 0.713901 0.260468
-13.0523 72.2697 -26.1773 0.652384 0.695783 0.300469
-13.8202 73.7198 -27.5088 0.677975 0.638598 0.364063
-14.3039 74.9371 -28.5665 0.690735 0.591051 0.416586
-14.6019 74.2356 -27.0041 0.677067 0.630628 0.379327
-13.9154 72.9097 -25.8186 0.633474 0.69245 0.345289
-13.2046 71.7982 -24.69 0.607658 0.736124 0.298115
-12.3906 70.6509 -23.4463 0.600937 0.754598 0.263544
-11.4212 69.4773 -22.1476 0.560927 0.790464 0.246025
-11.1996 69.2362 -21.8346 0.562643 0.796075 0.222927
-12.0995 69.7801 -21.5738 0.560928 0.790463 0.246025
-12.9994 70.8778 -22.7567 0.57848 0.760096 0.295999
-13.8356 71.9879 -23.9484 0.585283 0.736576 0.338968
-14.7784 73.5021 -25.4216 0.605954 0.708236 0.362244
-14.7985 73.5366 -25.4542 0.649014 0.658018 0.381829
-14.7005 72.4199 -23.4914 0.550694 0.764868 0.334236
-13.7524 71.2241 -22.2222 0.548636 0.780704 0.299165
-12.8382 70.1091 -21.064 0.527785 0.790136 0.311655
-13.6093 70.4368 -20.5849 0.48429 0.804157 0.344665
-14.5184 71.4961 -21.6677 0.527892 0.770895 0.356442
-14.7997 71.8471 -21.9953 0.532299 0.773205 0.34469
-14.6837 70.9457 -20.4029 0.441018 0.787388 0.430723
-14.1883 70.384 -19.846 0.437045 0.805317 0.400569
-14.5279 70.0281 -18.855 0.386171 0.828128 0.406295
-14.4767 69.9783 -18.8021 0.386171 0.828128 0.406295
