-8.79855 70.7651 -30.7035 0.725019 0.644592 0.241599
-8.02753 69.7316 -30.1663 0.696467 0.68148 0.221575
-7.59607 68.9604 -28.8899 0.665277 0.719103 0.199342
-7.20124 68.2142 -27.5192 0.647057 0.739868 0.181661
-6.89632 67.7581 -26.5916 0.629148 0.761994 0.152838
-6.60297 67.3432 -25.6359 0.605593 0.782924 0.140061
-6.08902 66.8146 -24.293 0.572938 0.814616 0.0902389
-5.611 66.3411 -22.9221 0.543576 0.835186 0.0771723
-4.94728 65.7403 -21.3123 0.502281 0.859385 0.091491
-4.44881 65.3088 -19.7303 0.474634 0.873454 0.106746
-4.19359 65.0899 -18.9089 0.417027 0.90486 0.0855406
-4.82056 65.4368 -19.2211 0.457195 0.88391 0.0983669
-5.44012 65.8874 -20.0738 0.494315 0.86396 0.0941808
-6.08676 66.3572 -20.7886 0.50831 0.855554 0.0981682
-6.9345 67.0291 -21.65 0.557672 0.817881 0.138406
-7.95871 67.8729 -22.3833 0.592152 0.795826 0.124608
-8.87755 68.6794 -22.7828 0.620484 0.771198 0.142267
-9.79134 69.4806 -22.9258 0.633091 0.755977 0.166355
-10.7416 70.2783 -22.7883 0.635781 0.745951 0.196908
-11.7016 70.9566 -22.406 0.629935 0.742451 0.226276
-12.7135 71.4779 -21.6319 0.594312 0.756476 0.27145
-13.4208 71.6118 -20.7953 0.525537 0.783307 0.332026
-14.145 71.5366 -19.828 0.461636 0.779515 0.423378
-14.7538 71.2453 -18.7744 0.379159 0.798338 0.467378
-14.9386 70.7236 -17.7398 0.355779 0.814316 0.458596
-15.1347 71.4056 -18.7478 0.367814 0.79358 0.484709
-15.0404 72.0579 -19.9003 0.402434 0.771955 0.49207
-15.1196 72.7164 -20.8671 0.448355 0.755275 0.478056
-15.0986 73.3709 -21.9489 0.510005 0.757226 0.408049
-14.9855 73.949 -23.1469 0.576544 0.71791 0.390132
-14.9088 74.4911 -24.1892 0.573875 0.691066 0.439427
-14.8784 75.056 -25.1504 0.629854 0.654219 0.418666
-14.7531 75.6042 -26.1349 0.693796 0.587904 0.415952
-14.5525 76.0681 -27.1251 0.701818 0.563945 0.434113
-14.232 76.7389 -28.4766 0.7352 0.522176 0.431696
-13.8699 77.2767 -29.7267 0.767813 0.494418 0.407436
-13.5215 77.696 -30.9108 0.788694 0.473166 0.392524
-12.9434 77.4821 -31.8955 0.809417 0.466991 0.356038
-12.3266 76.3903 -31.8928 0.818358 0.475266 0.323019
-11.741 75.3653 -31.8412 0.812756 0.492541 0.310931
-11.0435 74.1897 -31.7151 0.797593 0.525077 0.296883
-10.4794 73.2146 -31.4487 0.780446 0.566022 0.265561
-9.77 72.1338 -31.1591 0.752777 0.608846 0.250263
-9.07209 71.1181 -30.7891 0.746301 0.61948 0.243009
-8.65929 71.0098 -31.7576 0.729168 0.636615 0.249019
-9.47486 72.1981 -32.2081 0.76479 0.589264 0.259289
-10.0908 73.1366 -32.4164 0.777917 0.571954 0.260035
-10.81 74.4123 -32.7792 0.808353 0.518028 0.279664
-11.3961 75.4059 -32.8239 0.815436 0.499349 0.292353
-12.0768 76.6043 -32.8606 0.827368 0.469285 0.308599
-12.5953 77.5892 -32.925 0.8295 0.458477 0.318896
-13.16 78.5242 -32.7722 0.839773 0.431122 0.329504
-13.7658 78.9143 -31.8413 0.808032 0.446983 0.382584
-14.1588 78.4976 -30.5894 0.786749 0.468746 0.40148
-14.6035 77.9857 -29.2725 0.739 0.498082 0.45356
-14.9991 77.2721 -27.8749 0.703494 0.530436 0.472299
-15.2545 76.7786 -26.8845 0.680899 0.552069 0.480108
-15.5568 76.1786 -25.7423 0.659262 0.595264 0.459385
-15.72 75.3448 -24.3958 0.607327 0.645645 0.462922
-15.8374 74.7538 -23.369 0.538337 0.719789 0.43437
-15.9754 73.9118 -21.9552 0.487122 0.7537 0.43795
-16.0923 73.1409 -20.7002 0.410262 0.753782 0.513321
-16.1002 72.5031 -19.7177 0.373442 0.764535 0.523244
-16.1608 71.8922 -18.8319 0.329875 0.792543 0.512892
-16.1105 71.2348 -17.8596 0.285214 0.798273 0.530484
-16.0969 70.5138 -16.7778 0.249694 0.803557 0.540274
-16.058 69.9167 -15.8883 0.252789 0.81412 0.522775
-15.9772 69.1866 -14.7703 0.23526 0.829139 0.506908
-15.8287 68.5851 -13.837 0.220933 0.838517 0.498074
-15.169 68.3499 -13.7411 0.264431 0.837598 0.477298
-14.7806 68.7915 -14.7556 0.307966 0.822081 0.478441
-14.5693 69.3011 -15.7231 0.31476 0.803451 0.505292
-14.3559 69.7989 -16.6463 0.332132 0.800602 0.498687
-14.0588 70.3008 -17.6689 0.355635 0.809851 0.466444
-13.6958 70.7715 -18.8549 0.385959 0.825648 0.41151
-13.152 70.9676 -19.8033 0.449999 0.809073 0.378024
-12.5228 70.9711 -20.7259 0.537645 0.775435 0.331118
-11.7196 70.6696 -21.4605 0.595407 0.76476 0.245897
-10.5367 69.8891 -21.976 0.584553 0.783171 0.206017
-9.68318 69.1869 -21.9978 0.626346 0.764521 0.152038
-8.84378 68.4632 -21.7581 0.61925 0.769868 0.154375
-8.04127 67.7551 -21.2385 0.592152 0.795825 0.124608
-7.29763 67.1123 -20.6787 0.557672 0.817881 0.138406
-6.56402 66.5321 -19.9902 0.535744 0.83366 0.134123
-5.89251 66.0235 -19.1902 0.493783 0.860856 0.122904
-5.27699 65.5746 -18.4288 0.440002 0.889396 0.123986
-4.5614 65.1197 -17.6454 0.409652 0.904791 0.116352
-3.73023 64.6676 -16.8853 0.393865 0.914665 0.0908707
-2.87529 64.2606 -16.1162 0.357848 0.929674 0.0874653
-2.37611 64.1561 -17.2758 0.388556 0.919664 0.0569307
-2.87522 64.4534 -18.7437 0.408252 0.910188 0.0646682
-3.30606 64.7437 -19.7232 0.428436 0.901164 0.0645076
-3.61201 64.9462 -20.7389 0.454994 0.887166 0.0682709
-4.22126 65.4195 -22.2224 0.482029 0.87277 0.0769467
-4.68655 65.8279 -23.4794 0.517106 0.85285 0.0724494
-5.06634 66.1433 -24.5116 0.524224 0.847085 0.0850654
-5.72797 66.7569 -25.9497 0.576907 0.807747 0.11902
-6.06563 67.2025 -27.0664 0.583689 0.798025 0.149765
-6.4789 67.7381 -28.1528 0.647053 0.739871 0.181667
-6.82285 68.3984 -29.3372 0.654404 0.724557 0.216268
-7.12552 68.9553 -30.3649 0.645281 0.73447 0.210062
-7.56983 69.7205 -31.438 0.665681 0.699562 0.259772
-8.19502 70.5055 -31.7402 0.709013 0.661198 0.245188
-7.82126 70.461 -32.7419 0.725086 0.656514 0.20794
-8.69263 71.5418 -32.9547 0.750021 0.614253 0.24528
-9.28586 72.4104 -33.239 0.768028 0.584851 0.260924
-10.1018 73.783 -33.674 0.811038 0.515502 0.276541
-10.6691 74.7513 -33.8044 0.828368 0.485825 0.278891
-11.2814 75.7861 -33.7992 0.826804 0.481681 0.290408
-11.9248 76.9861 -33.8787 0.843838 0.448648 0.294369
-12.4631 78.03 -33.8996 0.850272 0.437602 0.292477
-13.0885 79.2004 -33.7996 0.847855 0.411068 0.334911
-13.767 80.0154 -33.1005 0.835805 0.415013 0.359436
-14.2536 79.8979 -31.9374 0.809137 0.424703 0.40611
-14.6675 79.3651 -30.5936 0.770977 0.442567 0.457528
-15.1078 78.9625 -29.481 0.761298 0.456633 0.460338
-15.4922 78.4021 -28.3436 0.70834 0.508696 0.489369
-15.7348 77.8252 -27.3927 0.689514 0.511027 0.512385
-16.2001 77.1496 -26.0572 0.664945 0.549916 0.505364
-16.4243 76.5937 -25.1621 0.593187 0.606226 0.529734
-16.6254 75.9412 -24.0856 0.591815 0.657826 0.465853
-16.8126 75.2722 -23.106 0.515673 0.671007 0.53159
-16.9778 74.6368 -22.1138 0.431024 0.729749 0.53074
-16.9974 73.987 -21.179 0.433143 0.740549 0.513784
-16.992 73.2602 -20.2196 0.326605 0.742744 0.584442
-17.2143 72.56 -19.1375 0.305865 0.774489 0.553726
-17.186 71.776 -18.0867 0.246041 0.781297 0.573619
-17.1155 70.8732 -16.8423 0.241613 0.802904 0.544947
-17.0555 70.1689 -15.8358 0.180643 0.822841 0.538795
-17.0514 69.4627 -14.7582 0.176911 0.821108 0.542632
-16.928 68.7896 -13.7449 0.163469 0.844856 0.509408
-16.7793 68.1428 -12.701 0.138967 0.865012 0.482122
-16.8847 67.6391 -11.7401 0.15336 0.868225 0.471875
-16.6149 67.0431 -10.6663 0.121867 0.877777 0.463311
-15.9278 66.4931 -9.63016 0.11517 0.928826 0.346708
-15.4113 66.3704 -9.41245 0.100263 0.944636 0.311615
-15.0846 66.704 -10.4099 0.166717 0.921363 0.351136
-14.8425 67.0956 -11.4517 0.177216 0.870181 0.458786
-14.5349 67.6133 -12.644 0.225205 0.876563 0.425347
-14.0932 68.0967 -13.9181 0.306798 0.865422 0.392398
-13.822 68.4792 -14.8803 0.403859 0.794435 0.45362
-13.6055 69.0677 -15.9406 0.311399 0.817604 0.483935
-13.336 69.6159 -17.0242 0.320389 0.812621 0.486379
-13.0577 70.0846 -18.064 0.36803 0.794731 0.479762
-12.6174 70.3732 -18.9871 0.405472 0.871715 0.275147
-12.0761 70.4369 -20.024 0.486848 0.83673 0.246291
-11.1156 70.0581 -20.8534 0.563122 0.808724 0.169874
-10.1748 69.4383 -21.1552 0.637408 0.758125 0.137666
-9.35558 68.7025 -20.9201 0.609121 0.773272 0.17613
-8.59841 68.0219 -20.4748 0.609632 0.779724 0.142755
-7.90465 67.3792 -19.8829 0.571776 0.801366 0.175649
-6.88775 66.5589 -19.009 0.50912 0.84421 0.166131
-6.20097 66.0244 -18.1513 0.471254 0.870295 0.142577
-5.46776 65.5151 -17.3424 0.424591 0.895985 0.130126
-4.74724 65.0596 -16.5871 0.40001 0.906141 0.134685
-3.82981 64.5697 -15.5461 0.351108 0.931693 0.0930851
-3.08113 64.2244 -14.8401 0.327455 0.940595 0.0897458
-2.32605 63.8909 -13.9927 0.324222 0.942876 0.0765789
-1.446 63.5845 -13.3909 0.274405 0.960025 0.0541902
-0.710855 63.3499 -12.6177 0.253419 0.966231 0.0466598
0.447421 63.0549 -12.3686 0.246433 0.96907 0.0114013
-0.129606 63.2148 -13.3269 0.275683 0.960985 0.0225158
-0.604905 63.4029 -14.861 0.280322 0.959169 0.0376135
-0.952222 63.5675 -16.2917 0.345081 0.937975 0.033508
-1.28299 63.7374 -17.4677 0.350432 0.935513 0.0448649
-1.60166 63.9065 -18.5189 0.377887 0.924246 0.0544728
-2.18666 64.2196 -19.7378 0.380154 0.923364 0.0536472
-2.70216 64.5612 -21.399 0.41634 0.907217 0.0601434
-3.2903 64.9571 -22.7127 0.469702 0.878904 0.0831104
-3.76288 65.307 -23.7938 0.467113 0.880929 0.0759618
-4.12816 65.5931 -24.7972 0.517949 0.84801 0.111643
-4.55845 66.0197 -25.9828 0.515889 0.846953 0.128419
-4.99297 66.4354 -26.8831 0.529488 0.835452 0.14718
-5.36469 66.8193 -27.9233 0.533207 0.84119 0.089938
-5.73998 67.3184 -28.7964 0.60931 0.755743 0.239759
-6.05687 67.8672 -29.7712 0.605044 0.761491 0.232493
-6.32552 68.4091 -30.889 0.645949 0.732421 0.215197
-6.55362 68.9163 -31.8763 0.679033 0.697974 0.224292
-7.17545 69.7095 -32.5218 0.692374 0.696399 0.188805
-7.67445 70.2869 -32.7044 0.725067 0.656531 0.207953
-13.1732 77.2193 -31.0359 0.788494 0.478865 0.385961
-13.1133 77.1996 -31.1388 0.809417 0.466987 0.356044
-12.5675 76.3206 -31.1993 0.804496 0.484026 0.344246
-13.282 76.5695 -29.9694 0.773719 0.502562 0.385732
-13.6554 76.6753 -29.3963 0.768014 0.496296 0.404777
-13.8878 76.0584 -28.2061 0.733658 0.537029 0.416348
-13.0889 75.8286 -29.4076 0.759542 0.519057 0.392016
-12.2302 75.5307 -30.8533 0.801134 0.499457 0.329736
-11.998 75.4369 -31.2743 0.805025 0.501413 0.317049
-11.5167 74.595 -31.1606 0.796605 0.523845 0.301674
-12.2396 74.892 -29.8651 0.7778 0.528122 0.340757
-13.1372 75.1938 -28.4167 0.754776 0.546517 0.362812
-14.0442 75.4449 -27.0986 0.707025 0.574759 0.412029
-14.1684 75.4751 -26.9275 0.700423 0.581344 0.41406
-14.2825 74.8769 -25.8463 0.670758 0.644525 0.366976
-13.3591 74.6426 -27.1271 0.713475 0.604132 0.354933
-12.4933 74.3594 -28.4662 0.74989 0.562705 0.34789
-11.7691 74.0803 -29.681 0.774322 0.543101 0.324757
-11.1648 73.825 -30.7612 0.795602 0.522592 0.306455
-10.5746 72.9863 -30.7115 0.776501 0.564661 0.279651
-11.1848 73.2649 -29.6068 0.770016 0.57244 0.281758
-12.0828 73.6187 -28.1045 0.740177 0.599874 0.30379
-12.9412 73.9257 -26.7492 0.723627 0.603646 0.334627
-13.8574 74.1969 -25.4237 0.665836 0.649852 0.366543
-14.481 74.3391 -24.5985 0.631452 0.671041 0.388553
-14.4282 73.7749 -23.6586 0.599809 0.708454 0.371918
-13.5346 73.5728 -24.8278 0.661337 0.674265 0.328634
-12.5393 73.2523 -26.2855 0.704224 0.637243 0.313033
-11.7691 72.9482 -27.5227 0.729031 0.621136 0.287583
-11.1162 72.685 -28.6071 0.743191 0.606703 0.282096
-10.4379 72.3905 -29.77 0.742809 0.611112 0.273453
-10.0028 72.1792 -30.5722 0.755363 0.605685 0.250146
-9.48196 71.4104 -30.2699 0.752556 0.608656 0.251391
-10.4396 71.866 -28.5979 0.729301 0.631879 0.262391
-11.0867 72.1605 -27.4973 0.723629 0.639542 0.259513
-11.8464 72.4846 -26.2502 0.701133 0.660401 0.268856
-12.6366 72.786 -25.0289 0.68695 0.665875 0.29105
-13.4665 73.043 -23.8442 0.615894 0.712678 0.335805
-14.2631 73.2053 -22.8375 0.569731 0.740235 0.357014
-14.5767 73.2614 -22.4533 0.564 0.737734 0.371015
-14.6088 72.728 -21.376 0.511742 0.746696 0.424929
-13.7091 72.5871 -22.4551 0.595486 0.728494 0.338664
-12.8948 72.3916 -23.5265 0.618454 0.727897 0.296109
-12.1474 72.1444 -24.6106 0.671225 0.689824 0.271292
-11.3844 71.8204 -25.8226 0.695222 0.678701 0.236711
-10.6968 71.4962 -26.9701 0.722553 0.648624 0.239175
-9.95865 71.1534 -28.2151 0.727074 0.634275 0.26279
-9.31526 70.848 -29.303 0.737363 0.627551 0.249951
-9.2604 70.8209 -29.3968 0.738724 0.628951 0.242296
-8.56903 70.023 -29.3201 0.675548 0.706321 0.211532
-9.39371 70.4233 -27.9374 0.708093 0.669778 0.22361
-10.0636 70.76 -26.7981 0.712198 0.665505 0.223332
-10.903 71.1781 -25.3847 0.690758 0.69161 0.211019
-11.5848 71.4819 -24.2929 0.66906 0.701494 0.24549
-12.2895 71.7378 -23.2439 0.634076 0.724607 0.269985
-13.2415 72.0116 -21.9404 0.58449 0.754853 0.297604
-14.2431 72.1216 -20.7985 0.466587 0.760592 0.451438
-14.5374 72.1296 -20.4927 0.461087 0.779825 0.423405
-11.6455 71.1035 -22.988 0.641663 0.726701 0.245305
-10.942 70.8119 -24.0723 0.66389 0.718715 0.206637
-10.0773 70.3837 -25.4934 0.688521 0.696043 0.203624
-9.27263 69.9596 -26.8575 0.66864 0.722854 0.174362
-8.59155 69.623 -27.9855 0.666925 0.718102 0.198849
-8.14649 69.4215 -28.6905 0.667931 0.708303 0.228419
-7.85518 68.9037 -27.8375 0.662532 0.721221 0.202218
-8.56808 69.2611 -26.6785 0.671174 0.721073 0.171986
-9.47632 69.7263 -25.1855 0.663363 0.722922 0.193221
-10.2274 70.1146 -23.9509 0.661502 0.728862 0.176563
-10.6463 70.3184 -23.2794 0.653466 0.733803 0.185782
-9.5146 69.4294 -23.8078 0.657098 0.734969 0.167458
-8.82576 69.0763 -24.9199 0.652814 0.736735 0.176225
-8.15963 68.7269 -25.9951 0.663709 0.728662 0.168945
-7.51404 68.3856 -27.048 0.661608 0.729987 0.171448
-7.31281 67.99 -26.0034 0.629679 0.765008 0.135159
-7.97044 68.3629 -24.916 0.643156 0.749798 0.155415
-8.86134 68.8049 -23.5294 0.634474 0.759854 0.141653
-8.92585 68.8405 -23.4239 0.645161 0.751018 0.140497
-8.27119 68.2486 -23.098 0.620235 0.772571 0.135801
-7.58644 67.9155 -24.1446 0.589007 0.795631 0.14157
-6.95792 67.5535 -25.1671 0.629534 0.768577 0.113917
-6.86144 67.3129 -23.8872 0.599584 0.794731 0.0943504
-7.47027 67.6151 -22.9576 0.581475 0.802202 0.135495
-6.89293 67.1274 -22.4533 0.559288 0.819164 0.127148
-6.38404 66.9052 -23.1718 0.557361 0.823539 0.105508
-6.11716 66.5752 -22.1864 0.54769 0.825424 0.136787
-6.37279 66.6856 -21.8289 0.54769 0.825424 0.136787
