-13.2543 65.6328 -4.58765 -0.193573 -0.928997 -0.315293
-13.3619 66.0819 -5.82559 -0.215422 -0.921819 -0.322185
-13.3205 66.4276 -6.86313 -0.226405 -0.9213 -0.316109
-13.152 66.7583 -7.93766 -0.240656 -0.913164 -0.3289
-12.85 67.0786 -9.03777 -0.257625 -0.904101 -0.340926
-12.6469 67.415 -10.0278 -0.278391 -0.886216 -0.369837
-12.5197 67.8423 -11.1328 -0.312214 -0.866358 -0.38978
-12.4005 68.233 -12.1265 -0.361183 -0.851233 -0.380723
-12.1611 68.6752 -13.2366 -0.386086 -0.816013 -0.429213
-12.0509 69.1735 -14.2782 -0.420754 -0.812648 -0.4032
-12.0314 69.8507 -15.4639 -0.491374 -0.74677 -0.448203
-11.9717 70.3584 -16.3952 -0.526844 -0.724054 -0.445174
-11.8603 70.9352 -17.5203 -0.578463 -0.704197 -0.411336
-11.6431 71.3 -18.496 -0.618061 -0.693654 -0.369926
-11.2068 71.5237 -19.675 -0.631119 -0.688293 -0.35769
-10.8297 71.7258 -20.8475 -0.670884 -0.673078 -0.311182
-10.3051 71.0824 -20.5255 -0.648252 -0.702014 -0.294866
-9.76376 70.2359 -19.6309 -0.607947 -0.733695 -0.303467
-9.23852 69.5238 -18.88 -0.568825 -0.766339 -0.298463
-8.68238 68.8043 -17.97 -0.516538 -0.808143 -0.283007
-8.1075 68.158 -17.0409 -0.467499 -0.841891 -0.268474
-7.56392 67.6276 -16.2258 -0.449554 -0.851106 -0.27062
-7.00484 67.1353 -15.4503 -0.396381 -0.889477 -0.227403
-6.4509 66.6823 -14.5884 -0.368152 -0.904983 -0.212703
-5.82125 66.2375 -13.7854 -0.359869 -0.909435 -0.208379
-5.13512 65.8122 -12.9415 -0.330523 -0.925329 -0.1858
-4.42994 65.4213 -12.0925 -0.289522 -0.943409 -0.161728
-3.71619 65.0897 -11.3667 -0.266883 -0.952747 -0.145076
-2.91572 64.7752 -10.6609 -0.245476 -0.960216 -0.133142
-1.99787 64.4743 -9.97304 -0.21682 -0.968769 -0.120315
-0.881282 64.1534 -9.11116 -0.168705 -0.979831 -0.107097
-0.0640208 63.9511 -8.48104 -0.151191 -0.984514 -0.0887289
1.10143 63.6956 -7.48002 -0.121367 -0.989188 -0.0808682
1.89468 63.5563 -6.74653 -0.106434 -0.991712 -0.0719615
2.57622 63.4267 -5.66488 -0.0766868 -0.995372 -0.05735
2.90167 63.3374 -4.43859 -0.0650371 -0.995806 -0.0643283
2.72676 63.2862 -3.32994 -0.0417842 -0.997725 -0.0524954
2.36984 63.2265 -2.13753 -0.0333088 -0.997157 -0.0675906
2.04878 63.1624 -1.04215 -0.0307654 -0.997321 -0.0663712
1.47659 63.0848 0.117482 -0.0144347 -0.996665 -0.0800852
1.00311 62.9961 1.18863 0.00590194 -0.995397 -0.0956533
0.484946 62.89 2.31988 0.0185884 -0.995815 -0.0888397
-0.0442301 62.7796 3.30818 0.029698 -0.993856 -0.106269
-0.830181 62.6542 4.16892 0.0413107 -0.991726 -0.121547
-1.91299 62.5722 4.47915 0.0343533 -0.990687 -0.131741
-3.0921 62.5834 4.14869 0.0230213 -0.988781 -0.147587
-4.23944 62.6622 3.63375 -0.00464487 -0.984594 -0.174797
-5.5179 62.802 2.94551 -0.0265478 -0.983024 -0.181544
-6.47377 62.9363 2.38888 -0.0307036 -0.980927 -0.191934
-7.49985 63.0997 1.83783 -0.0389916 -0.972967 -0.22763
-8.45698 63.2779 1.28206 -0.0628252 -0.967197 -0.246134
-9.36511 63.4907 0.707496 -0.0783625 -0.966012 -0.246332
-10.3026 63.7346 0.0967809 -0.0912736 -0.958695 -0.269392
-11.1305 64.0285 -0.620869 -0.103461 -0.953377 -0.283345
-12.0933 64.4794 -1.70643 -0.119899 -0.94837 -0.293632
-12.8203 65.0969 -3.21983 -0.164299 -0.932476 -0.321706
-13.1609 65.4927 -4.22743 -0.18469 -0.931158 -0.314378
-14.1595 65.5944 -3.91268 -0.182495 -0.924406 -0.334915
-13.8728 65.1906 -2.96198 -0.159377 -0.932978 -0.322724
-13.4368 64.7912 -2.02256 -0.155735 -0.931336 -0.329096
-12.9465 64.4087 -1.13319 -0.127267 -0.939576 -0.317758
-12.308 64.0787 -0.361679 -0.103549 -0.944649 -0.311313
-11.537 63.772 0.367199 -0.0900704 -0.953103 -0.288859
-10.6405 63.4856 1.07029 -0.0712042 -0.959582 -0.272242
-9.66561 63.2586 1.66023 -0.0620096 -0.964293 -0.257476
-8.80356 63.0606 2.23694 -0.0441248 -0.968369 -0.245591
-7.84019 62.89 2.7949 -0.0348263 -0.97276 -0.229131
-6.84927 62.7393 3.35281 -0.0177998 -0.978488 -0.205391
-5.69758 62.6021 3.97623 -0.00357263 -0.98176 -0.189966
-4.7287 62.5055 4.50233 0.0109867 -0.984106 -0.177117
-3.75348 62.4414 4.96201 0.0290842 -0.98732 -0.156055
-2.75999 62.4178 5.34119 0.0453257 -0.988043 -0.147164
-1.70515 62.4439 5.53148 0.0606104 -0.990134 -0.126326
-0.46631 62.5438 5.28242 0.0536354 -0.991877 -0.115343
0.314939 62.6624 4.57615 0.0427111 -0.994346 -0.0972239
1.10353 62.8019 3.43034 0.0318454 -0.995625 -0.0878025
1.69658 62.919 2.21931 0.0256438 -0.996808 -0.0756119
2.10231 62.9945 1.22936 0.0145276 -0.998368 -0.0552342
2.58232 63.0654 0.185467 -0.00554488 -0.997807 -0.0658369
3.05372 63.1243 -0.771733 -0.00895209 -0.998518 -0.0536797
3.43446 63.1989 -2.25477 -0.0284823 -0.997696 -0.0610352
3.82282 63.2432 -3.49694 -0.0336631 -0.998583 -0.0407149
3.95836 63.2822 -4.61576 -0.0563578 -0.997513 -0.0423201
3.66523 63.3528 -5.72152 -0.0695707 -0.996325 -0.049965
3.17614 63.4438 -6.74207 -0.0833516 -0.994505 -0.0632461
2.56219 63.5469 -7.59301 -0.0965384 -0.994082 -0.0497758
1.60316 63.706 -8.37573 -0.125012 -0.990238 -0.0616072
0.640461 63.9034 -9.18348 -0.159855 -0.983959 -0.0787475
-0.221452 64.1078 -9.85385 -0.182117 -0.979636 -0.0845359
-1.01349 64.3307 -10.5747 -0.19935 -0.974434 -0.103628
-1.90495 64.5976 -11.1344 -0.226754 -0.96723 -0.114231
-2.69843 64.8887 -11.8703 -0.259448 -0.958207 -0.12052
-3.70568 65.3171 -12.7922 -0.300992 -0.942829 -0.142832
-4.481 65.7359 -13.7224 -0.319128 -0.935939 -0.148715
-5.25501 66.2181 -14.7453 -0.369885 -0.910732 -0.182681
-5.92494 66.6844 -15.5829 -0.414268 -0.889901 -0.19094
-6.46227 67.1134 -16.3944 -0.433256 -0.877749 -0.204564
-6.98045 67.5869 -17.2309 -0.485004 -0.845075 -0.224377
-7.53323 68.1015 -17.9838 -0.503506 -0.832973 -0.229427
-8.04965 68.6758 -18.8849 -0.543528 -0.798742 -0.257265
-8.56072 69.2823 -19.6146 -0.583662 -0.770046 -0.257619
-9.16768 70.0734 -20.498 -0.608378 -0.740836 -0.284059
-9.64757 70.8426 -21.4139 -0.658963 -0.698806 -0.277827
-10.0407 71.5505 -22.2476 -0.682935 -0.672187 -0.285945
-10.5942 72.3189 -22.7292 -0.686399 -0.670439 -0.281725
-11.2468 72.5942 -21.8134 -0.68813 -0.660075 -0.301294
-11.5885 72.4125 -20.7152 -0.671475 -0.666182 -0.324246
-12.0231 72.2426 -19.5564 -0.653679 -0.661384 -0.367797
-12.4201 72.0154 -18.4824 -0.645681 -0.658143 -0.387227
-12.6512 71.5837 -17.4641 -0.611384 -0.662931 -0.432126
-12.7979 71.0673 -16.4911 -0.561454 -0.683449 -0.466549
-12.8927 70.5124 -15.5749 -0.513433 -0.699894 -0.496523
-12.939 69.9173 -14.6117 -0.465895 -0.74326 -0.480111
-13.0269 69.3619 -13.6798 -0.428108 -0.749092 -0.505554
-13.2046 68.8771 -12.6786 -0.388409 -0.81008 -0.439096
-13.4527 68.366 -11.5037 -0.349363 -0.83792 -0.419327
-13.597 67.9122 -10.4609 -0.290096 -0.863517 -0.412532
-13.7402 67.4872 -9.44138 -0.257358 -0.883953 -0.388828
-13.9749 67.1764 -8.47102 -0.248168 -0.905438 -0.344278
-14.2064 66.8643 -7.45101 -0.2453 -0.910517 -0.332845
-14.3494 66.5425 -6.45553 -0.235087 -0.913503 -0.331959
-14.3796 66.1802 -5.42474 -0.220478 -0.917294 -0.331571
-14.2748 65.7969 -4.41523 -0.203808 -0.924777 -0.321276
-14.2385 65.7389 -4.26858 -0.192471 -0.925621 -0.325565
-15.2597 65.9038 -4.11501 -0.203483 -0.917158 -0.34266
-15.3868 66.3608 -5.24772 -0.224102 -0.911636 -0.344371
-15.3441 66.7533 -6.3369 -0.236626 -0.910789 -0.338335
-15.1546 67.1617 -7.56241 -0.246265 -0.908522 -0.337552
-14.8942 67.5075 -8.71297 -0.191113 -0.921145 -0.337699
-14.6393 67.9677 -9.89007 -0.266647 -0.865087 -0.424881
-14.4845 68.4251 -10.8385 -0.306608 -0.836822 -0.453565
-14.3214 68.9898 -11.9436 -0.382539 -0.803561 -0.45602
-14.0587 69.4055 -12.8781 -0.381078 -0.796696 -0.469099
-13.9255 70.1391 -14.0144 -0.436031 -0.730124 -0.525076
-13.798 70.9426 -15.1831 -0.546167 -0.661884 -0.513431
-13.6495 71.5597 -16.1537 -0.589231 -0.633408 -0.50147
-13.4777 72.1409 -17.1438 -0.627435 -0.620974 -0.469802
-13.2187 72.6225 -18.2181 -0.647413 -0.627609 -0.432379
-12.9092 72.9623 -19.2513 -0.680334 -0.635029 -0.365448
-12.4717 73.0902 -20.2598 -0.687389 -0.642253 -0.339126
-12.0021 73.3188 -21.6319 -0.694122 -0.635694 -0.33759
-11.6276 73.4091 -22.6069 -0.702981 -0.63034 -0.329375
-11.0197 73.3438 -23.849 -0.730484 -0.612294 -0.302471
-10.3149 72.5786 -23.9772 -0.716987 -0.637292 -0.282459
-9.79781 71.8018 -23.5037 -0.703836 -0.664906 -0.250028
-9.29495 70.9713 -22.7122 -0.698471 -0.679487 -0.22212
-8.79012 70.1881 -21.7727 -0.646747 -0.720584 -0.249048
-8.15088 69.3805 -20.8755 -0.586472 -0.772282 -0.244194
-7.66862 68.7888 -20.1265 -0.580653 -0.780614 -0.231255
-7.25847 68.2682 -19.2977 -0.534857 -0.825219 -0.1815
-6.68282 67.7156 -18.4727 -0.505922 -0.843862 -0.176872
-6.09593 67.1864 -17.5813 -0.466112 -0.864992 -0.184572
-5.54626 66.7549 -16.7977 -0.43567 -0.884703 -0.165171
-5.02977 66.3586 -15.9726 -0.408004 -0.900344 -0.151371
-4.33895 65.9502 -15.2196 -0.360059 -0.917867 -0.166969
-3.68188 65.5697 -14.4237 -0.318039 -0.937455 -0.141524
-2.993 65.2183 -13.6157 -0.307882 -0.940044 -0.146717
-2.21153 64.8772 -12.8571 -0.25566 -0.960019 -0.112591
-1.40002 64.5845 -12.0913 -0.236848 -0.966376 -0.099625
-0.567319 64.3186 -11.414 -0.216821 -0.972544 -0.0845396
0.284914 64.0848 -10.7402 -0.186325 -0.980493 -0.0622644
1.25397 63.8595 -9.99574 -0.180767 -0.981884 -0.0566394
2.14626 63.6895 -9.25851 -0.133871 -0.989625 -0.0521639
3.07909 63.5408 -8.53547 -0.106769 -0.993422 -0.0413766
3.89947 63.4207 -7.46899 -0.0870127 -0.995445 -0.0389589
4.60347 63.3145 -6.29743 -0.0661107 -0.996782 -0.0453335
4.97833 63.2422 -5.12735 -0.0592497 -0.997743 -0.0316072
5.03197 63.2072 -3.99286 -0.0531813 -0.998351 -0.0215944
4.79223 63.1873 -2.95065 -0.0300938 -0.999012 -0.0327122
4.41762 63.1646 -1.91402 -0.0173213 -0.999233 -0.0344566
4.09907 63.1094 -0.637056 -4.20311e-05 -0.998922 -0.0464216
3.67501 63.0614 0.298527 0.00661446 -0.998383 -0.056463
3.12736 63.0026 1.39113 0.00999512 -0.998866 -0.0442675
2.72665 62.9365 2.46434 0.0541253 -0.996889 -0.0572898
2.19562 62.8334 3.55883 0.0313904 -0.996592 -0.0762843
1.75685 62.738 4.54345 0.0433734 -0.995945 -0.0788231
1.06398 62.6248 5.4323 0.0664205 -0.993244 -0.0951549
0.207815 62.4944 6.16045 0.0756414 -0.991969 -0.101343
-0.92501 62.368 6.56042 0.0724018 -0.989197 -0.127462
-2.07867 62.2894 6.5634 0.0614228 -0.990324 -0.124442
-3.24016 62.2608 6.24542 0.0384443 -0.987982 -0.149125
-4.42632 62.2862 5.76148 0.040539 -0.985199 -0.166553
-5.6544 62.3714 5.1574 0.0181406 -0.982351 -0.186032
-6.84577 62.4871 4.55041 0.00456879 -0.980062 -0.198605
-8.08754 62.6484 3.85264 -0.0216088 -0.973791 -0.226417
-8.97842 62.8111 3.25366 -0.0175853 -0.970075 -0.242167
-10.0828 63.0303 2.57699 -0.0445932 -0.963231 -0.264611
-10.993 63.2518 1.96902 -0.0634739 -0.958701 -0.276843
-11.95 63.4959 1.36643 -0.0791608 -0.949838 -0.302543
-12.7394 63.7869 0.665936 -0.0872646 -0.946665 -0.310154
-13.6211 64.2239 -0.333213 -0.111866 -0.938433 -0.326847
-14.2575 64.6817 -1.35793 -0.140479 -0.927059 -0.347397
-14.8582 65.2518 -2.60844 -0.181468 -0.918164 -0.352074
-15.219 65.7177 -3.64892 -0.189183 -0.916745 -0.351836
-15.2478 65.8514 -3.9817 -0.196325 -0.916964 -0.347219
-12.3148 65.1902 -3.7988 -0.17175 -0.940111 -0.294436
-11.3196 64.6352 -2.57352 -0.135543 -0.949949 -0.281469
-10.4972 64.0859 -1.07035 -0.111617 -0.953558 -0.279764
-10.3956 64.0075 -0.8427 -0.101387 -0.956318 -0.274182
-8.57808 63.4511 0.632145 -0.0694283 -0.968333 -0.239814
-9.24267 63.9693 -1.16383 -0.108252 -0.962847 -0.247403
-9.9486 64.44 -2.57829 -0.132945 -0.956509 -0.259648
-10.8384 64.9466 -3.8639 -0.16535 -0.945964 -0.278947
-12.04 65.5322 -5.03267 -0.187045 -0.936145 -0.297736
-12.7377 65.8332 -5.49847 -0.195135 -0.928857 -0.314876
-12.7065 66.2077 -6.65927 -0.228883 -0.92223 -0.311616
-11.1093 65.5344 -5.66595 -0.206124 -0.937201 -0.281366
-9.86049 64.9783 -4.59605 -0.168701 -0.948776 -0.26714
-8.78051 64.385 -3.0261 -0.142824 -0.960346 -0.239451
-8.04332 63.9045 -1.45714 -0.102892 -0.966351 -0.235753
-7.40559 63.4043 0.478575 -0.0800925 -0.974148 -0.211237
-7.23566 63.2635 1.03621 -0.0547576 -0.973233 -0.223201
-5.76114 62.9514 2.19274 -0.0355624 -0.980702 -0.192248
-6.17067 63.2966 0.562511 -0.0623044 -0.977194 -0.203
-6.7121 63.7155 -1.23524 -0.0881802 -0.97254 -0.215386
-7.31485 64.1404 -2.84946 -0.127023 -0.966108 -0.224723
-8.16952 64.6362 -4.39597 -0.168607 -0.958229 -0.231017
-9.31386 65.1939 -5.75953 -0.188563 -0.950737 -0.246054
-10.6401 65.7502 -6.74168 -0.202724 -0.940839 -0.271525
-12.0386 66.3123 -7.46854 -0.230359 -0.926707 -0.296898
-12.529 66.507 -7.68619 -0.241103 -0.917711 -0.315716
-12.3147 66.7773 -8.64041 -0.248851 -0.913097 -0.322996
-10.6179 66.1227 -7.98221 -0.232566 -0.930416 -0.283265
-9.04933 65.5038 -7.12847 -0.209653 -0.944343 -0.253499
-7.87152 64.9829 -6.05783 -0.185589 -0.954723 -0.232511
-6.81859 64.444 -4.5412 -0.164535 -0.962846 -0.214142
-6.0964 64.0247 -3.05482 -0.126658 -0.970918 -0.203165
-5.51208 63.6219 -1.3544 -0.0982744 -0.977648 -0.185868
-4.98699 63.2193 0.598377 -0.05722 -0.982379 -0.177923
-4.60318 62.902 2.28327 -0.0196537 -0.983357 -0.18062
-4.48232 62.7959 2.84761 -0.0139416 -0.985123 -0.171282
-3.26518 62.7139 3.30643 0.00711103 -0.988449 -0.151387
-3.63138 62.9955 1.56092 -0.029781 -0.986502 -0.161021
-3.99508 63.2842 -0.107349 -0.0543147 -0.983893 -0.170307
-4.50913 63.6441 -2.02087 -0.0944311 -0.980684 -0.171295
-5.08242 64.0172 -3.71851 -0.129977 -0.974525 -0.182777
-5.81774 64.4262 -5.25177 -0.162709 -0.967197 -0.195077
-6.70208 64.875 -6.57038 -0.192162 -0.956487 -0.219558
-7.90246 65.4143 -7.76934 -0.215633 -0.949166 -0.229318
-9.29213 65.9676 -8.58081 -0.246452 -0.930707 -0.270269
-10.8453 66.5708 -9.20405 -0.252809 -0.916655 -0.309567
-11.9504 66.973 -9.43165 -0.259198 -0.906322 -0.333761
-11.991 67.3382 -10.3738 -0.293096 -0.886874 -0.357141
-10.3828 66.7458 -10.1231 -0.280914 -0.909885 -0.305282
-8.73568 66.0974 -9.54066 -0.252183 -0.929289 -0.269861
-7.2342 65.4976 -8.7511 -0.229612 -0.945543 -0.23071
-5.73219 64.8486 -7.38892 -0.206155 -0.956549 -0.206187
-4.8075 64.4011 -5.99144 -0.163878 -0.968296 -0.18854
-4.02193 63.9615 -4.20278 -0.128403 -0.977646 -0.166494
-3.50042 63.6408 -2.61498 -0.0966483 -0.982981 -0.156231
-3.04007 63.3467 -0.878936 -0.0552245 -0.988067 -0.143787
-2.66291 63.0743 0.856785 -0.0315745 -0.988406 -0.148514
-2.31497 62.8292 2.53818 -0.000407466 -0.989706 -0.143112
-2.0889 62.6766 3.64663 0.0261225 -0.989896 -0.139367
-1.00194 62.7171 3.57868 0.030029 -0.992937 -0.114778
-1.34242 62.9173 1.88662 0.00437192 -0.99232 -0.123616
-1.70989 63.144 0.104105 -0.0325378 -0.991426 -0.126551
-2.07868 63.3808 -1.56407 -0.065596 -0.989649 -0.127641
-2.53798 63.6527 -3.3177 -0.102921 -0.983992 -0.145489
-3.03128 63.945 -4.9117 -0.132684 -0.980666 -0.143835
-3.63481 64.281 -6.44885 -0.170874 -0.972931 -0.155589
-4.49242 64.6975 -7.92138 -0.201396 -0.965542 -0.164826
-5.61881 65.1852 -9.14073 -0.248069 -0.950587 -0.18667
-7.31587 65.8789 -10.2143 -0.269268 -0.939716 -0.210779
-8.91473 66.5092 -10.7802 -0.28589 -0.914855 -0.285143
-10.5842 67.1743 -11.1517 -0.287387 -0.901538 -0.323478
-11.8944 67.6701 -11.2484 -0.3066 -0.881363 -0.359437
-11.7829 68.0009 -12.1382 -0.323418 -0.86626 -0.380782
-10.0309 67.2992 -12.0233 -0.326729 -0.88161 -0.340604
-8.43004 66.654 -11.7716 -0.301815 -0.913509 -0.272779
-6.92964 66.0439 -11.3323 -0.292418 -0.927456 -0.23306
-5.34414 65.4054 -10.6027 -0.260776 -0.947117 -0.18699
-4.09823 64.8744 -9.48148 -0.225403 -0.960296 -0.164392
-3.07226 64.4153 -7.9492 -0.183987 -0.971804 -0.147463
-2.21734 64.0176 -6.19899 -0.157067 -0.978234 -0.135603
-1.66581 63.7018 -4.35105 -0.102774 -0.986404 -0.128237
-1.21949 63.4578 -2.65144 -0.0691986 -0.992028 -0.105319
-0.856987 63.2528 -1.06562 -0.0530232 -0.992526 -0.109914
-0.503797 63.0586 0.621748 -0.0113842 -0.99509 -0.0983177
-0.148186 62.8691 2.37246 0.017875 -0.993876 -0.109045
0.622008 63.0364 0.766843 -0.00351233 -0.995068 -0.099137
0.188077 63.2355 -1.29437 -0.0409725 -0.994815 -0.0930786
-0.223703 63.4329 -3.10527 -0.0717785 -0.99267 -0.0972368
-0.630004 63.6424 -4.76458 -0.0910349 -0.990524 -0.102836
-1.15833 63.91 -6.57071 -0.131423 -0.984897 -0.112721
-1.87205 64.226 -8.21894 -0.178468 -0.975457 -0.128969
-2.72362 64.597 -9.69731 -0.198574 -0.970836 -0.134332
-2.89883 64.669 -9.95833 -0.214084 -0.966764 -0.139769
-0.610548 64.0113 -8.2442 -0.15658 -0.982096 -0.104739
0.0208414 63.7488 -6.53374 -0.118107 -0.98892 -0.0899285
0.543366 63.5136 -4.60609 -0.0844303 -0.992348 -0.0900897
0.904118 63.3499 -3.0101 -0.0557498 -0.995019 -0.0826332
1.34073 63.175 -1.00732 -0.023579 -0.996595 -0.0790144
1.37625 63.1612 -0.840226 -0.0197313 -0.996741 -0.0782192
1.98728 63.3043 -3.08349 -0.0523742 -0.99678 -0.0607132
1.61137 63.4463 -4.76794 -0.0820861 -0.994299 -0.0680523
1.10252 63.6334 -6.66438 -0.0996847 -0.992009 -0.0773405
-4.94784 65.525 -11.8227 -0.276665 -0.945073 -0.174048
-6.23838 66.0739 -12.3884 -0.323543 -0.923887 -0.204333
-7.38274 66.5624 -12.7333 -0.328971 -0.91304 -0.241114
-8.65283 67.075 -12.8939 -0.352669 -0.894919 -0.273396
-9.82142 67.5694 -12.9603 -0.363485 -0.868422 -0.337226
-11.2094 68.1579 -13.0237 -0.353002 -0.865115 -0.356323
-11.5433 68.2974 -13.0317 -0.365785 -0.847491 -0.384657
-11.5487 68.7034 -13.8584 -0.415534 -0.82473 -0.383603
-10.1703 68.0772 -13.9353 -0.392942 -0.854043 -0.340893
-9.11477 67.6069 -13.9018 -0.390936 -0.867494 -0.307607
-7.95151 67.1061 -13.9124 -0.370346 -0.89002 -0.265911
-6.87677 66.6689 -13.8695 -0.357588 -0.902933 -0.238416
-6.80239 66.638 -13.8641 -0.352708 -0.907157 -0.229485
-7.33058 67.1562 -14.9859 -0.376013 -0.892194 -0.250208
-8.49451 67.6726 -14.9546 -0.413105 -0.863228 -0.290142
-9.79963 68.2927 -14.8808 -0.434819 -0.840682 -0.322777
-10.8584 68.7915 -14.7869 -0.435086 -0.810573 -0.392009
-11.4596 69.0803 -14.7159 -0.440784 -0.802533 -0.402057
-11.2784 69.4437 -15.6115 -0.480221 -0.763496 -0.431812
-9.91011 68.744 -15.847 -0.456005 -0.831446 -0.317424
-8.85764 68.2175 -15.9837 -0.441019 -0.842142 -0.31032
-8.28281 67.9341 -16.0122 -0.446594 -0.847511 -0.286841
-8.83468 68.5734 -17.0182 -0.472671 -0.833529 -0.286029
-9.8525 69.118 -16.8163 -0.491488 -0.807754 -0.325535
-11.1646 69.8469 -16.5409 -0.525147 -0.761995 -0.378926
-11.4013 69.983 -16.4865 -0.535073 -0.748108 -0.392469
-11.4721 70.5193 -17.3541 -0.578547 -0.704299 -0.411395
-10.3959 69.8505 -17.6465 -0.552344 -0.745278 -0.373466
-9.3145 69.2175 -17.9259 -0.542329 -0.78477 -0.300025
-9.8396 69.9309 -18.7826 -0.587229 -0.750002 -0.3044
-10.9342 70.6602 -18.4329 -0.601293 -0.715 -0.35668
-11.2713 70.8868 -18.3244 -0.596969 -0.716558 -0.360795
-10.804 71.0305 -19.434 -0.617493 -0.707266 -0.344206
-10.3822 70.738 -19.5823 -0.619831 -0.725324 -0.299524
