-12.8242 66.6203 -3.56586 -0.195324 -0.929067 -0.313993
-13.2315 67.0074 -4.43453 -0.211974 -0.925526 -0.313793
-13.4679 67.4308 -5.49994 -0.230577 -0.918276 -0.321797
-13.5443 67.8486 -6.63545 -0.243089 -0.910189 -0.335117
-13.53 68.3219 -7.85134 -0.256934 -0.895798 -0.36254
-13.5187 68.7793 -8.91614 -0.294141 -0.859132 -0.418776
-13.5242 69.2404 -9.82624 -0.391852 -0.811745 -0.433039
-13.5318 69.7825 -10.8231 -0.428232 -0.782505 -0.451999
-13.5823 70.3346 -11.6852 -0.43991 -0.753667 -0.487822
-13.5209 71.0093 -12.7651 -0.486062 -0.720316 -0.493975
-13.5208 71.696 -13.7416 -0.53025 -0.68988 -0.492401
-13.5225 72.3944 -14.6715 -0.564627 -0.657667 -0.498426
-13.6724 73.188 -15.5265 -0.622475 -0.618229 -0.479914
-13.6071 73.8011 -16.4244 -0.631227 -0.627466 -0.455682
-13.299 74.2167 -17.4973 -0.648315 -0.636231 -0.418088
-12.926 74.6386 -18.7896 -0.669944 -0.638498 -0.378801
-12.6839 74.9722 -19.7957 -0.688654 -0.626495 -0.364909
-12.4629 75.2862 -20.7437 -0.701213 -0.614031 -0.362134
-12.2177 75.6872 -21.8483 -0.715722 -0.592192 -0.37008
-12.0146 76.1032 -22.9259 -0.732617 -0.57192 -0.368682
-11.8156 76.5163 -23.9455 -0.751786 -0.547286 -0.367711
-11.6327 76.9649 -24.975 -0.768281 -0.522826 -0.369319
-11.419 77.4079 -26.0599 -0.782497 -0.505153 -0.364032
-11.1664 77.8268 -27.1914 -0.800363 -0.484176 -0.353544
-10.9617 78.2038 -28.1688 -0.82165 -0.451405 -0.34803
-10.6464 78.5694 -29.3842 -0.829823 -0.436242 -0.347892
-10.2681 78.5983 -30.3446 -0.835015 -0.430124 -0.343106
-9.74047 78.0999 -31.0329 -0.843376 -0.426356 -0.327013
-9.86555 77.4858 -29.8893 -0.833954 -0.446753 -0.323914
-9.89157 76.9146 -29.0058 -0.828882 -0.462677 -0.314461
-9.91855 76.3419 -28.0734 -0.815191 -0.485161 -0.316359
-9.89234 75.5991 -26.9379 -0.799653 -0.512211 -0.313245
-9.81631 74.8652 -25.8259 -0.787274 -0.544623 -0.28911
-9.71115 74.2251 -24.8531 -0.760475 -0.586754 -0.277804
-9.48399 73.3902 -23.7074 -0.744697 -0.598055 -0.295608
-9.22776 72.7115 -22.8334 -0.709119 -0.657461 -0.254744
-8.98261 71.9887 -21.6882 -0.693242 -0.666012 -0.275398
-8.71109 71.4099 -20.844 -0.650921 -0.715207 -0.25452
-8.34218 70.7354 -19.8254 -0.616812 -0.743591 -0.258083
-7.85348 69.9575 -18.5747 -0.588549 -0.769386 -0.248303
-7.39196 69.4098 -17.785 -0.545711 -0.801206 -0.245496
-6.77183 68.6736 -16.5254 -0.5111 -0.828364 -0.229326
-6.22104 68.1884 -15.7102 -0.455805 -0.869999 -0.187999
-5.63973 67.7003 -14.8779 -0.420932 -0.885451 -0.194484
-4.98247 67.2178 -13.9113 -0.380639 -0.908125 -0.173475
-4.23875 66.7609 -13.0203 -0.350789 -0.923368 -0.154917
-3.57328 66.3952 -12.3291 -0.316991 -0.935407 -0.154659
-2.90916 66.072 -11.5778 -0.298562 -0.943489 -0.143841
-2.08454 65.716 -10.7053 -0.272201 -0.95455 -0.121404
-1.17992 65.3858 -9.86282 -0.23281 -0.967212 -0.0997447
-0.295311 65.1297 -9.26534 -0.205614 -0.97457 -0.0879073
0.498871 64.9172 -8.58424 -0.180354 -0.980843 -0.0721149
1.54004 64.6656 -7.55762 -0.15668 -0.985178 -0.068689
2.17115 64.5187 -6.62085 -0.121919 -0.990623 -0.0590713
2.64635 64.4215 -5.72341 -0.0965567 -0.993206 -0.0636115
2.79242 64.3497 -4.67333 -0.0869072 -0.994508 -0.0583122
2.59573 64.2971 -3.47278 -0.0748684 -0.995315 -0.0611852
2.17611 64.2515 -2.32082 -0.0570357 -0.996094 -0.0668977
1.68985 64.2058 -1.25996 -0.0346874 -0.996368 -0.0777623
1.26746 64.1359 -0.206734 -0.0364035 -0.99542 -0.0879781
0.812846 64.0658 0.749848 -0.0238074 -0.995474 -0.0915865
0.186695 63.9516 2.01992 -0.0119916 -0.994121 -0.107224
-0.447187 63.8047 3.31941 0.0149088 -0.993826 -0.109945
-1.31072 63.724 3.93248 0.0083538 -0.992138 -0.124873
-2.60404 63.7029 4.00462 0.00102077 -0.98951 -0.144281
-3.7796 63.7842 3.5687 -0.0130919 -0.987133 -0.159364
-4.85598 63.8986 3.06701 -0.0389813 -0.982846 -0.180264
-5.9918 64.0802 2.43828 -0.0603096 -0.977672 -0.201092
-7.19479 64.3264 1.70366 -0.0780166 -0.972235 -0.220621
-8.06189 64.5576 1.04681 -0.083707 -0.968216 -0.235564
-9.03301 64.8174 0.411142 -0.0954483 -0.961291 -0.258475
-10.0044 65.0944 -0.195219 -0.120339 -0.954697 -0.271857
-11.1173 65.5083 -1.05824 -0.144705 -0.947053 -0.286621
-11.7885 65.8432 -1.78421 -0.144631 -0.940314 -0.308043
-12.3939 66.2228 -2.61328 -0.181236 -0.936614 -0.299845
-12.7398 66.5175 -3.30863 -0.186647 -0.931856 -0.311138
-13.721 66.6441 -3.06714 -0.190367 -0.92502 -0.328784
-13.2872 66.2021 -2.0663 -0.179263 -0.92898 -0.323823
-12.7377 65.8302 -1.26815 -0.163456 -0.935955 -0.311882
-12.0269 65.4838 -0.563597 -0.132914 -0.940032 -0.314125
-11.1733 65.1325 0.185898 -0.116644 -0.947825 -0.296677
-10.0009 64.7563 0.997579 -0.0991615 -0.95218 -0.288975
-8.91035 64.4752 1.64749 -0.0804219 -0.960306 -0.267007
-8.11885 64.2515 2.28805 -0.0633847 -0.968524 -0.240714
-7.22828 64.057 2.8657 -0.046643 -0.970459 -0.236714
-5.95522 63.8416 3.576 -0.046386 -0.977627 -0.205169
-5.04721 63.7121 4.08796 -0.0208686 -0.981701 -0.189282
-3.83555 63.5894 4.71468 -0.00690655 -0.98402 -0.177921
-2.86296 63.5454 5.06785 0.0166523 -0.987566 -0.156321
-1.83313 63.5453 5.17936 0.0229542 -0.990616 -0.134635
-0.835145 63.6025 4.92983 0.0150774 -0.991056 -0.13221
0.0784686 63.7057 4.28601 0.0193526 -0.992806 -0.117808
0.922848 63.8395 3.12909 0.00676794 -0.994687 -0.102567
1.2034 63.9337 2.13165 -0.0028108 -0.996922 -0.0783474
1.75595 64.0064 1.17861 -0.024144 -0.996374 -0.0815782
2.16954 64.0697 0.2431 -0.0311214 -0.996408 -0.0787541
2.66358 64.1351 -0.887603 -0.0369093 -0.997116 -0.0647752
3.14079 64.1753 -1.88641 -0.0379776 -0.998348 -0.0431111
3.49058 64.2047 -2.84414 -0.0614282 -0.997173 -0.0432771
3.76606 64.2308 -3.94589 -0.069251 -0.996642 -0.0421219
3.77034 64.2829 -4.96904 -0.0733533 -0.996276 -0.0436304
3.584 64.3485 -6.09501 -0.0969914 -0.99409 -0.048456
3.01775 64.4481 -7.19873 -0.113823 -0.992526 -0.0423477
2.32134 64.5899 -8.17525 -0.155237 -0.986258 -0.0565441
1.55363 64.7618 -9.01201 -0.180356 -0.982099 -0.0543492
0.709721 64.9703 -9.76819 -0.206516 -0.976611 -0.0598526
-0.18687 65.2103 -10.3925 -0.231249 -0.969999 -0.0750023
-1.00066 65.4732 -11.0701 -0.247806 -0.963632 -0.100027
-1.70353 65.7416 -11.765 -0.270347 -0.955483 -0.118171
-2.43325 66.0672 -12.5852 -0.326852 -0.939164 -0.105542
-3.29111 66.4857 -13.471 -0.359811 -0.924063 -0.129014
-4.01632 66.9059 -14.3401 -0.38856 -0.911557 -0.134478
-4.64055 67.2981 -15.1214 -0.420206 -0.893458 -0.158619
-5.20131 67.7078 -15.9207 -0.440558 -0.880892 -0.173027
-5.80577 68.2133 -16.8237 -0.482756 -0.85516 -0.188809
-6.26941 68.6769 -17.7264 -0.503493 -0.841488 -0.19594
-6.87294 69.3297 -18.788 -0.55331 -0.806199 -0.209502
-7.26565 69.8399 -19.6815 -0.605524 -0.768111 -0.208198
-7.66256 70.3803 -20.5282 -0.637942 -0.738817 -0.217211
-8.00983 71.0043 -21.6095 -0.655141 -0.718848 -0.231069
-8.32562 71.6069 -22.4709 -0.697063 -0.675973 -0.238197
-8.52459 72.1534 -23.3783 -0.721656 -0.652655 -0.23077
-8.79773 72.8409 -24.364 -0.736468 -0.635021 -0.232172
-9.03111 73.4593 -25.1733 -0.780021 -0.570154 -0.257859
-9.20067 74.0848 -26.0452 -0.79009 -0.553678 -0.262287
-9.27051 74.7946 -27.2173 -0.802613 -0.526259 -0.28077
-9.3466 75.4215 -28.1431 -0.826471 -0.493727 -0.270437
-9.32307 76.1078 -29.3397 -0.834742 -0.464943 -0.294794
-9.32316 76.6861 -30.2086 -0.836855 -0.454429 -0.305235
-9.23569 77.3161 -31.3229 -0.845786 -0.433697 -0.310728
-9.09462 77.7337 -32.2453 -0.848859 -0.418811 -0.322527
-9.28126 78.5555 -32.8049 -0.851188 -0.408281 -0.329826
-9.89616 79.1117 -31.9203 -0.846254 -0.414021 -0.335314
-10.375 79.3563 -31.032 -0.840182 -0.41816 -0.34526
-10.8944 79.6124 -30.0849 -0.837898 -0.41935 -0.34939
-11.2143 79.3986 -29.0794 -0.826348 -0.436494 -0.35584
-11.5047 79.0838 -28.0363 -0.818296 -0.440024 -0.369728
-11.763 78.6181 -26.9172 -0.804618 -0.45232 -0.384326
-12.0016 78.2464 -25.9376 -0.78312 -0.487175 -0.38629
-12.3094 77.602 -24.4795 -0.760334 -0.522608 -0.385711
-12.4973 77.1329 -23.4752 -0.744942 -0.546889 -0.382065
-12.7087 76.7388 -22.52 -0.723938 -0.560538 -0.402105
-12.9958 76.2121 -21.2264 -0.705808 -0.58762 -0.39565
-13.3283 75.809 -20.0045 -0.689553 -0.610356 -0.389804
-13.5858 75.406 -18.9023 -0.667634 -0.634336 -0.389721
-13.9174 75.0398 -17.7591 -0.665744 -0.630447 -0.39914
-14.2911 74.6016 -16.5425 -0.655227 -0.6169 -0.436018
-14.5105 74.0295 -15.5064 -0.629001 -0.590425 -0.505723
-14.428 73.1005 -14.5336 -0.56661 -0.629429 -0.531763
-14.3443 72.3004 -13.6615 -0.545714 -0.666383 -0.5079
-14.3955 71.4895 -12.5672 -0.497542 -0.693793 -0.520566
-14.5049 70.9337 -11.7204 -0.468824 -0.713012 -0.521362
-14.448 70.2851 -10.8201 -0.432232 -0.739546 -0.515991
-14.4806 69.6414 -9.78272 -0.362444 -0.802157 -0.47453
-14.4828 69.1212 -8.90682 -0.263969 -0.843027 -0.466217
-14.4839 68.6545 -7.97445 -0.262566 -0.889248 -0.374508
-14.5429 68.2139 -6.86656 -0.256934 -0.895798 -0.36254
-14.5154 67.7818 -5.75498 -0.230184 -0.915336 -0.330399
-14.3358 67.3911 -4.78591 -0.219716 -0.920324 -0.323576
-14.0807 66.998 -3.84564 -0.208813 -0.922737 -0.323965
-13.8466 66.7879 -3.3991 -0.197264 -0.922719 -0.331087
-14.8047 66.8786 -3.06908 -0.198209 -0.920031 -0.338017
-14.4778 66.4576 -2.1178 -0.192568 -0.916956 -0.34923
-13.8808 65.9573 -1.0903 -0.164357 -0.924641 -0.343518
-13.1527 65.5346 -0.251841 -0.129253 -0.933333 -0.334937
-12.3515 65.1775 0.484724 -0.114737 -0.942747 -0.312846
-11.4897 64.8523 1.19658 -0.102129 -0.94691 -0.304822
-10.5506 64.5395 1.92089 -0.0758731 -0.956411 -0.281995
-9.63751 64.3324 2.38867 -0.0770862 -0.962262 -0.260977
-8.50445 64.0366 3.22081 -0.0570596 -0.965224 -0.25507
-7.50221 63.8276 3.88681 -0.0292048 -0.972067 -0.23288
-6.52306 63.6977 4.32681 -0.0248559 -0.974511 -0.222958
-5.54426 63.5508 4.95935 -0.0152854 -0.979838 -0.199207
-4.25366 63.4226 5.66029 0.014811 -0.983676 -0.179265
-3.20902 63.3671 6.12186 0.0274456 -0.986474 -0.161603
-2.08059 63.3829 6.21671 0.0263216 -0.987999 -0.152157
-0.974326 63.4389 6.19705 0.0479562 -0.990243 -0.130424
-0.0232829 63.5364 5.72979 0.0428078 -0.992075 -0.117952
0.947426 63.6585 4.96636 0.0474777 -0.994447 -0.0939248
1.74639 63.7824 3.89695 0.0258989 -0.995378 -0.0924745
2.07805 63.8804 2.90763 0.0236295 -0.995777 -0.0885216
2.51096 63.948 1.96758 0.0216851 -0.998395 -0.0523256
2.97098 64.0035 0.968627 -0.0206161 -0.997656 -0.065251
3.46746 64.0691 -0.105727 -0.0197568 -0.997599 -0.0663741
3.90557 64.1227 -1.1733 -0.013876 -0.99892 -0.0443489
4.39481 64.1384 -2.28809 -0.0453229 -0.998782 -0.0195153
4.70213 64.1547 -3.31038 -0.0548133 -0.997963 -0.0326273
4.75864 64.1867 -4.39529 -0.0604537 -0.99788 -0.0221749
4.80023 64.2336 -5.76073 -0.0697416 -0.996979 -0.0340659
4.38074 64.3001 -6.92214 -0.0901771 -0.995514 -0.0284934
3.75338 64.3929 -7.9421 -0.118884 -0.992741 -0.0182265
2.88858 64.5471 -9.13035 -0.15094 -0.987701 -0.0390561
2.11005 64.7031 -9.84318 -0.175058 -0.983583 -0.0404875
1.30209 64.8883 -10.5713 -0.206044 -0.977828 -0.026319
0.246774 65.1747 -11.2939 -0.247336 -0.967249 -0.0570507
-0.427319 65.4078 -12.0294 -0.261521 -0.96191 -0.0796018
-1.36579 65.752 -12.8564 -0.307589 -0.948563 -0.0749482
-2.10314 66.0763 -13.688 -0.344651 -0.933407 -0.0998387
-2.8172 66.4359 -14.4446 -0.366903 -0.92196 -0.123986
-3.49741 66.8125 -15.2465 -0.402742 -0.90764 -0.118271
-4.18032 67.2409 -16.0789 -0.439551 -0.888255 -0.133407
-4.66901 67.6184 -16.8929 -0.465323 -0.873646 -0.142187
-5.17816 68.0305 -17.6825 -0.503802 -0.850538 -0.150892
-5.64782 68.4609 -18.5287 -0.528291 -0.834604 -0.156024
-6.15641 68.9799 -19.4574 -0.576633 -0.798702 -0.171957
-6.59593 69.5213 -20.4245 -0.584796 -0.793593 -0.167333
-6.9942 70.0272 -21.2693 -0.62352 -0.765018 -0.159979
-7.25012 70.4641 -22.2233 -0.664464 -0.730361 -0.158306
-7.63135 71.1496 -23.2552 -0.704705 -0.673627 -0.22275
-7.91532 71.7422 -24.1508 -0.725295 -0.654273 -0.2139
-8.20382 72.3597 -25.0188 -0.756704 -0.630484 -0.172433
-8.46714 72.9936 -25.9081 -0.802615 -0.559292 -0.206205
-8.6626 73.6897 -26.9166 -0.813837 -0.531735 -0.233502
-8.73136 74.344 -28.0388 -0.837038 -0.489271 -0.244909
-8.73001 74.8522 -28.991 -0.837228 -0.476514 -0.268292
-8.75656 75.4313 -29.898 -0.844961 -0.459544 -0.273606
-8.76952 76.0651 -30.8755 -0.854137 -0.427964 -0.295219
-8.72344 76.595 -31.7373 -0.852357 -0.421392 -0.309704
-8.5618 77.0001 -32.7241 -0.859259 -0.407988 -0.308578
-8.46078 77.7879 -34.0035 -0.857812 -0.400346 -0.322301
-8.90402 78.7451 -34.0185 -0.85413 -0.403153 -0.328526
-9.44304 79.4368 -33.473 -0.853786 -0.401151 -0.331854
-10.0647 79.9518 -32.5106 -0.849939 -0.401852 -0.340763
-10.644 80.2483 -31.4284 -0.844383 -0.40266 -0.353351
-11.2443 80.5671 -30.3591 -0.845582 -0.396726 -0.35721
-11.678 80.3134 -29.096 -0.831725 -0.416535 -0.367058
-11.9796 80.0297 -28.1262 -0.818912 -0.43058 -0.379154
-12.3049 79.4552 -26.8024 -0.795278 -0.460681 -0.394085
-12.5636 79.0851 -25.8532 -0.788203 -0.471748 -0.395192
-12.811 78.6935 -24.9142 -0.758528 -0.490749 -0.427774
-13.0189 78.1321 -23.8214 -0.75585 -0.517187 -0.401508
-13.2823 77.6567 -22.7509 -0.724082 -0.551535 -0.414092
-13.4977 77.249 -21.8437 -0.712134 -0.569073 -0.411119
-13.8472 76.7725 -20.5819 -0.677196 -0.609803 -0.41176
-14.1087 76.3771 -19.5519 -0.676682 -0.617338 -0.401244
-14.4187 75.9527 -18.3893 -0.65508 -0.649335 -0.385954
-14.7106 75.6411 -17.4098 -0.652644 -0.633523 -0.4154
-15.1061 75.2215 -16.1055 -0.67851 -0.602638 -0.419408
-15.322 74.6831 -15.1569 -0.704365 -0.491591 -0.512063
-15.2494 73.8459 -14.4409 -0.594501 -0.546916 -0.589412
-15.193 73.0688 -13.7228 -0.549978 -0.601674 -0.577012
-15.253 72.3285 -12.8035 -0.520707 -0.658194 -0.543733
-15.3531 71.6573 -11.9256 -0.467013 -0.714314 -0.52089
-15.3958 70.9554 -11.0026 -0.432917 -0.721302 -0.539436
-15.4321 70.2371 -9.96205 -0.400884 -0.745573 -0.532366
-15.4506 69.4806 -8.92058 -0.280518 -0.772235 -0.568809
-15.4873 68.9151 -7.91356 -0.153377 -0.894283 -0.407955
-15.5384 68.4284 -6.75185 -0.2189 -0.90371 -0.367954
-15.5352 68.0345 -5.75018 -0.215354 -0.917006 -0.335741
-15.3523 67.5847 -4.61547 -0.240346 -0.914274 -0.326093
-15.0825 67.155 -3.63239 -0.222092 -0.911566 -0.345918
-14.9283 67.0009 -3.32954 -0.207108 -0.9158 -0.343924
-2.84541 63.802 3.35736 -0.0205087 -0.988919 -0.147033
-1.88523 63.9032 2.55544 -0.0116931 -0.991562 -0.129107
-0.988874 63.9892 1.81239 -0.0120084 -0.991561 -0.129085
-0.00587847 64.0591 0.98822 -0.0251736 -0.994406 -0.102581
0.220155 64.0721 0.796819 -0.0220304 -0.994926 -0.0981722
1.03023 64.2277 -1.18731 -0.0461701 -0.995161 -0.08674
0.170471 64.1945 -0.451868 -0.0433902 -0.994554 -0.0947619
-0.743199 64.1567 0.318701 -0.0408864 -0.991901 -0.120252
-1.82472 64.0882 1.21853 -0.0340937 -0.98986 -0.137893
-2.69292 64.01 1.93315 -0.0449682 -0.98649 -0.157527
-3.52913 63.9323 2.63326 -0.0296995 -0.986673 -0.159984
-3.87835 63.895 2.92053 -0.024089 -0.985769 -0.166372
-4.83821 64.0255 2.41783 -0.0439726 -0.979815 -0.195009
-3.88361 64.115 1.63469 -0.0526395 -0.985263 -0.162744
-2.63792 64.217 0.607855 -0.0499549 -0.985945 -0.159425
-1.57208 64.2773 -0.275259 -0.059218 -0.989814 -0.129463
-0.607239 64.3109 -1.07989 -0.0678994 -0.991118 -0.114346
0.242734 64.328 -1.80435 -0.0720741 -0.993252 -0.0908587
1.32672 64.3351 -2.73075 -0.0686122 -0.994971 -0.0729793
1.87412 64.3332 -3.2016 -0.0717896 -0.995513 -0.0616488
2.10843 64.4103 -4.69956 -0.0873611 -0.994368 -0.059996
1.2822 64.4333 -3.97595 -0.0961317 -0.99239 -0.0769409
0.379072 64.4505 -3.20538 -0.090095 -0.991362 -0.0953101
-0.496276 64.4546 -2.45844 -0.0867893 -0.990652 -0.105243
-1.37388 64.44 -1.71686 -0.0844131 -0.988582 -0.12482
-2.47948 64.4106 -0.800189 -0.0814428 -0.987689 -0.133559
-3.53753 64.3615 0.0715926 -0.0801217 -0.982351 -0.169019
-4.5815 64.2833 0.927137 -0.0760079 -0.982045 -0.172656
-5.61279 64.1974 1.7682 -0.0711755 -0.976828 -0.201845
-5.72446 64.1856 1.85885 -0.065919 -0.975919 -0.207932
-6.42457 64.39 1.15558 -0.075447 -0.972459 -0.220526
-5.51325 64.4635 0.41753 -0.0920649 -0.977052 -0.192075
-4.46394 64.531 -0.438601 -0.102099 -0.977651 -0.183776
-3.33788 64.5736 -1.36043 -0.106591 -0.98215 -0.154982
-2.20029 64.5958 -2.30336 -0.0969325 -0.98505 -0.142412
-1.27305 64.6022 -3.08034 -0.104525 -0.986863 -0.123193
-0.25925 64.5903 -3.93903 -0.107582 -0.987976 -0.111037
0.602979 64.5692 -4.67487 -0.109472 -0.988902 -0.100445
1.51324 64.5249 -5.47422 -0.117467 -0.990042 -0.0775842
1.84897 64.5103 -5.77182 -0.106438 -0.992419 -0.0614432
1.44683 64.6241 -6.69355 -0.13675 -0.988494 -0.0646431
0.372393 64.6934 -5.75784 -0.134404 -0.987384 -0.0837184
-0.603499 64.7356 -4.92028 -0.131189 -0.984621 -0.115376
-1.61241 64.7633 -4.06402 -0.125073 -0.984068 -0.126359
-2.57071 64.776 -3.26462 -0.122862 -0.981513 -0.146754
-3.51167 64.7707 -2.48107 -0.131319 -0.97857 -0.158609
-4.56551 64.7548 -1.6164 -0.121746 -0.97529 -0.184359
-5.43173 64.7234 -0.90907 -0.119644 -0.972003 -0.202228
-6.32399 64.6715 -0.18951 -0.0955095 -0.973132 -0.209503
-7.41696 64.5857 0.677323 -0.0908844 -0.96872 -0.230916
-7.51399 64.5768 0.752829 -0.0909689 -0.968455 -0.231992
-8.36472 64.8085 0.164772 -0.10722 -0.964449 -0.241541
-7.44721 64.879 -0.552307 -0.117821 -0.967395 -0.224198
-6.49854 64.9375 -1.30954 -0.116076 -0.969944 -0.213855
-5.48142 64.9736 -2.126 -0.136094 -0.970636 -0.198353
-4.27588 64.9836 -3.10929 -0.147701 -0.974243 -0.170396
-3.40585 64.9736 -3.83044 -0.140917 -0.977732 -0.155506
-2.49429 64.958 -4.59028 -0.144528 -0.979249 -0.14207
-1.53205 64.9237 -5.3957 -0.154973 -0.979084 -0.131826
-0.617589 64.8753 -6.1724 -0.151199 -0.981821 -0.114745
0.22469 64.8147 -6.89876 -0.149276 -0.984244 -0.0947695
0.838303 64.7687 -7.43383 -0.155605 -0.984128 -0.0853199
0.0709496 64.9466 -8.01898 -0.173513 -0.981127 -0.0853423
-0.838166 65.0248 -7.23583 -0.1626 -0.980998 -0.10585
-1.70492 65.0891 -6.49805 -0.174431 -0.975969 -0.130611
-2.6347 65.1507 -5.71751 -0.167762 -0.975364 -0.143249
-3.50775 65.1801 -4.99786 -0.172011 -0.9721 -0.15948
-4.48474 65.2118 -4.19131 -0.166343 -0.97183 -0.166965
-5.55247 65.2271 -3.321 -0.158985 -0.967614 -0.19608
-6.57079 65.208 -2.49973 -0.140829 -0.966232 -0.215783
-7.4775 65.1736 -1.78082 -0.141102 -0.962637 -0.231129
-8.54303 65.1156 -0.949415 -0.137407 -0.960026 -0.243863
-8.96399 65.0837 -0.622022 -0.12571 -0.95853 -0.255768
-10.0038 65.3458 -1.05988 -0.131429 -0.952353 -0.275227
-9.04529 65.4092 -1.80226 -0.145347 -0.956827 -0.251708
-7.90596 65.4631 -2.68588 -0.151565 -0.960385 -0.233856
-7.01432 65.4779 -3.38489 -0.164578 -0.961653 -0.219403
-6.10348 65.4811 -4.12069 -0.170262 -0.964802 -0.200419
-5.018 65.4546 -4.99944 -0.183708 -0.963843 -0.193024
-4.08445 65.4163 -5.7557 -0.179226 -0.9698 -0.165429
-2.98815 65.3473 -6.65967 -0.192371 -0.970534 -0.145113
-2.01128 65.2767 -7.48149 -0.194331 -0.972184 -0.130742
-1.13833 65.1964 -8.22274 -0.201253 -0.973871 -0.105228
-0.771641 65.1545 -8.53652 -0.201256 -0.973869 -0.105236
-1.55672 65.3812 -9.09435 -0.218505 -0.96857 -0.118861
-2.53434 65.4915 -8.2643 -0.211538 -0.966814 -0.143253
-3.54687 65.5834 -7.41787 -0.214542 -0.963483 -0.160226
-4.43756 65.6545 -6.68577 -0.205097 -0.963741 -0.170703
-5.50687 65.7159 -5.82776 -0.196612 -0.962596 -0.18642
-6.60976 65.7535 -4.94415 -0.188072 -0.96106 -0.202468
-7.71022 65.7641 -4.07064 -0.184618 -0.953983 -0.236288
-8.5859 65.7535 -3.38954 -0.16103 -0.955169 -0.24844
-9.56495 65.719 -2.63337 -0.16231 -0.952143 -0.258996
-10.5121 65.6687 -1.89993 -0.157666 -0.948624 -0.274325
-10.8491 65.6436 -1.64057 -0.144247 -0.947106 -0.286676
-11.4063 65.9847 -2.44713 -0.168407 -0.944527 -0.28197
-10.3268 66.0359 -3.27364 -0.171749 -0.947458 -0.269862
-9.4113 66.0624 -3.97693 -0.180805 -0.948439 -0.260334
-8.27553 66.0686 -4.86024 -0.188469 -0.950869 -0.245617
-7.24296 66.0537 -5.6646 -0.210231 -0.951563 -0.224344
-6.38958 66.0162 -6.33549 -0.219689 -0.952504 -0.210888
-5.40508 65.9548 -7.12841 -0.225647 -0.954979 -0.192608
-4.50702 65.88 -7.84403 -0.232418 -0.955194 -0.183265
-3.5455 65.7854 -8.63539 -0.241488 -0.956648 -0.162815
-2.68107 65.6844 -9.34921 -0.216645 -0.965668 -0.143356
-2.16745 65.6177 -9.78229 -0.232709 -0.964659 -0.123614
-2.70817 65.8635 -10.5279 -0.263022 -0.954777 -0.138635
-3.61317 65.9916 -9.76563 -0.246352 -0.956417 -0.156772
-4.65199 66.1214 -8.92025 -0.249439 -0.952033 -0.177239
-5.84625 66.2386 -7.97015 -0.244311 -0.948881 -0.199843
-6.85839 66.3176 -7.17439 -0.226923 -0.94869 -0.220212
-7.75139 66.3621 -6.47777 -0.226239 -0.945009 -0.236163
-8.79379 66.3941 -5.67743 -0.205238 -0.947096 -0.246754
-9.89463 66.3981 -4.83147 -0.196868 -0.942236 -0.270988
-10.9321 66.3798 -4.03782 -0.190895 -0.940309 -0.28174
-11.7927 66.3505 -3.38304 -0.181338 -0.939409 -0.290907
-12.3612 66.721 -4.16272 -0.202888 -0.927759 -0.313209
-11.4562 66.7447 -4.85652 -0.201322 -0.936415 -0.287397
-10.5243 66.7533 -5.57057 -0.218133 -0.934973 -0.27972
-9.59072 66.7409 -6.282 -0.215181 -0.939628 -0.266077
-8.7105 66.7156 -6.94396 -0.238663 -0.9361 -0.258373
-7.688 66.6557 -7.7206 -0.242409 -0.941923 -0.23242
-6.58314 66.5722 -8.58665 -0.249345 -0.944786 -0.212616
-5.52232 66.4565 -9.40021 -0.258696 -0.945589 -0.197324
-4.59593 66.3328 -10.1408 -0.290053 -0.937849 -0.190546
-3.54553 66.1782 -11.0226 -0.286195 -0.944683 -0.160207
-3.40878 66.1563 -11.1364 -0.286813 -0.943995 -0.163134
-3.96275 66.448 -11.8425 -0.327169 -0.929326 -0.171213
-4.83588 66.6013 -11.1231 -0.299449 -0.933828 -0.195692
-5.8172 66.7471 -10.3327 -0.29282 -0.934842 -0.200817
-6.93281 66.8842 -9.47683 -0.275657 -0.935623 -0.220507
-7.89571 66.9751 -8.73689 -0.27698 -0.926252 -0.255616
-8.85157 67.0447 -8.02846 -0.250049 -0.929468 -0.271229
-9.73052 67.0894 -7.3776 -0.241064 -0.931928 -0.270922
-10.6665 67.1184 -6.67729 -0.236183 -0.928426 -0.28678
-11.7637 67.1245 -5.8356 -0.214523 -0.932255 -0.291343
-12.5855 67.1161 -5.20464 -0.221281 -0.924637 -0.309969
-12.7581 67.5235 -6.29046 -0.23987 -0.915529 -0.322907
-11.8909 67.5207 -6.94732 -0.244646 -0.92403 -0.293797
-10.9069 67.4974 -7.68626 -0.241393 -0.923199 -0.299054
-9.93293 67.4622 -8.40293 -0.255619 -0.921796 -0.291464
-9.04628 67.3996 -9.05667 -0.294348 -0.909128 -0.294697
-8.03565 67.305 -9.7891 -0.288368 -0.925237 -0.246537
-7.09283 67.1912 -10.4977 -0.29799 -0.920528 -0.252646
-5.8191 67.0025 -11.4739 -0.306951 -0.926233 -0.218799
-4.82902 66.8268 -12.257 -0.340709 -0.921661 -0.185629
-4.51076 66.7597 -12.508 -0.329661 -0.926804 -0.179885
-5.21018 67.1307 -13.0508 -0.342507 -0.919615 -0.192347
-6.17431 67.3275 -12.3111 -0.340924 -0.913359 -0.222588
-7.31692 67.5273 -11.4484 -0.343911 -0.904142 -0.25348
-8.42147 67.6796 -10.6332 -0.329834 -0.904279 -0.27109
-9.51697 67.8099 -9.85793 -0.30395 -0.906974 -0.291569
-10.426 67.8814 -9.20886 -0.266806 -0.90589 -0.328904
-11.4173 67.9159 -8.49552 -0.264984 -0.911177 -0.3155
-12.5942 67.9545 -7.63035 -0.278719 -0.901484 -0.331124
-12.9774 67.9592 -7.34344 -0.269185 -0.896337 -0.352306
-12.8583 68.4284 -8.63184 -0.282454 -0.894101 -0.347568
-11.8646 68.3905 -9.33651 -0.317515 -0.867899 -0.382015
-10.8193 68.3246 -10.0753 -0.324439 -0.882193 -0.341285
-9.88572 68.2275 -10.7218 -0.326585 -0.896731 -0.29869
-8.95612 68.1008 -11.3587 -0.324364 -0.899499 -0.292729
-8.00474 67.9554 -12.0318 -0.359064 -0.88928 -0.283291
-6.91768 67.7526 -12.8373 -0.359452 -0.903677 -0.232725
-5.88538 67.5238 -13.6041 -0.368153 -0.906355 -0.207328
-6.17351 67.8446 -14.426 -0.406542 -0.88282 -0.235272
-7.11683 68.0837 -13.7366 -0.379275 -0.890221 -0.252303
-8.04203 68.2963 -13.0789 -0.392789 -0.874065 -0.285878
-8.9262 68.4704 -12.4562 -0.376809 -0.872409 -0.311315
-9.87541 68.6381 -11.8165 -0.356291 -0.874627 -0.328762
-10.8234 68.7613 -11.1808 -0.344897 -0.873623 -0.343263
-11.8425 68.8724 -10.4914 -0.330288 -0.868849 -0.368796
-13.0202 68.9604 -9.6826 -0.321361 -0.860594 -0.395101
-13.0712 69.5062 -10.7482 -0.388104 -0.801874 -0.454282
-12.1681 69.4079 -11.3502 -0.35566 -0.836582 -0.416697
-11.1941 69.2688 -12.0048 -0.380559 -0.842749 -0.380722
-10.1939 69.1084 -12.6682 -0.389802 -0.852644 -0.347926
-9.04158 68.8737 -13.4315 -0.418778 -0.844638 -0.333484
-7.96207 68.6172 -14.1856 -0.403893 -0.871662 -0.277624
-7.03819 68.3721 -14.845 -0.421551 -0.87043 -0.254256
-6.55635 68.2344 -15.2023 -0.430219 -0.8718 -0.234255
-7.02576 68.6513 -15.8791 -0.492531 -0.835078 -0.245065
-8.0661 68.9804 -15.1415 -0.472069 -0.833669 -0.286613
-8.98396 69.2398 -14.4949 -0.462062 -0.823931 -0.328081
-9.96691 69.5044 -13.8459 -0.457093 -0.812995 -0.3607
-11.1 69.7752 -13.084 -0.423161 -0.810053 -0.405894
-12.1727 69.9531 -12.3789 -0.425351 -0.79113 -0.439533
-12.9648 70.1031 -11.8645 -0.432495 -0.786283 -0.441256
-12.9494 70.7228 -12.8909 -0.465235 -0.747085 -0.474784
-11.921 70.4758 -13.5474 -0.457248 -0.76897 -0.446777
-10.9648 70.2405 -14.1806 -0.495134 -0.766362 -0.409307
-9.94497 69.9332 -14.8565 -0.495764 -0.79419 -0.351398
-8.90804 69.6073 -15.5321 -0.491341 -0.813085 -0.312211
-7.87229 69.2354 -16.2259 -0.488047 -0.832372 -0.262616
-7.42312 69.0765 -16.5293 -0.492532 -0.835078 -0.245066
-7.77699 69.4953 -17.2079 -0.529574 -0.80888 -0.255468
-8.69807 69.8767 -16.6232 -0.524254 -0.801259 -0.288343
-9.57744 70.2249 -16.0475 -0.514395 -0.788802 -0.336437
-10.6101 70.6101 -15.3853 -0.495661 -0.78537 -0.370829
-11.4871 70.9108 -14.8112 -0.513251 -0.761216 -0.396388
-12.5047 71.2367 -14.1637 -0.530046 -0.716762 -0.453103
-12.6086 71.2771 -14.1034 -0.527602 -0.707827 -0.469699
-12.7839 71.9834 -14.9498 -0.562747 -0.682071 -0.467006
-11.7043 71.5334 -15.6197 -0.555271 -0.704611 -0.441812
-10.7987 71.1619 -16.1996 -0.537799 -0.741714 -0.400791
-9.73336 70.7048 -16.8735 -0.565163 -0.750475 -0.342606
-8.86852 70.3017 -17.4106 -0.552121 -0.777448 -0.301227
-8.12068 69.9351 -17.8961 -0.539835 -0.794922 -0.276907
-8.41079 70.3816 -18.5678 -0.578646 -0.773708 -0.257964
-9.26624 70.8322 -18.0375 -0.599851 -0.739885 -0.304546
-10.147 71.2968 -17.5028 -0.585709 -0.746191 -0.316455
-11.0308 71.7415 -16.9643 -0.605374 -0.696614 -0.385035
-12.0342 72.2519 -16.3411 -0.613621 -0.672574 -0.413659
-13.0684 72.7578 -15.7169 -0.595679 -0.654131 -0.466132
-13.1754 73.4665 -16.5732 -0.639515 -0.627236 -0.444517
-12.2974 72.9631 -17.1086 -0.632932 -0.659194 -0.40603
-11.1665 72.3136 -17.7915 -0.614602 -0.689728 -0.382804
-10.2738 71.778 -18.3271 -0.611406 -0.718616 -0.33132
-9.16586 71.118 -18.9761 -0.612553 -0.743179 -0.26919
-8.75046 70.8652 -19.2235 -0.61827 -0.739777 -0.265466
-9.0255 71.3728 -19.9561 -0.64034 -0.718226 -0.272244
-9.84686 71.9208 -19.4821 -0.659579 -0.687244 -0.304387
-10.8451 72.586 -18.8995 -0.653575 -0.66919 -0.353587
-11.7337 73.1733 -18.3766 -0.654616 -0.659945 -0.368715
-12.7702 73.8419 -17.7623 -0.649242 -0.639291 -0.412059
-12.4884 74.2424 -18.8971 -0.666894 -0.640526 -0.380762
-11.4946 73.5253 -19.4637 -0.667828 -0.65148 -0.359971
-10.5443 72.8202 -19.976 -0.66543 -0.674073 -0.32067
-9.68827 72.1909 -20.4522 -0.669596 -0.676948 -0.305586
-9.26855 71.872 -20.6847 -0.67819 -0.67962 -0.279599
-9.48682 72.4095 -21.4376 -0.687815 -0.667084 -0.286199
-10.385 73.1256 -20.9586 -0.692311 -0.653583 -0.305835
-11.3898 73.935 -20.4517 -0.695211 -0.636105 -0.334742
-12.2332 74.6095 -20.0156 -0.682768 -0.636264 -0.359159
-12.0051 74.9514 -21.0595 -0.696181 -0.624493 -0.354035
-11.2228 74.2796 -21.4329 -0.703515 -0.628448 -0.331842
-10.301 73.4739 -21.891 -0.708648 -0.632603 -0.31246
-9.7782 73.0158 -22.1639 -0.692257 -0.664625 -0.281166
-9.84726 73.4831 -22.9908 -0.72355 -0.628996 -0.284323
-10.6108 74.1848 -22.613 -0.72302 -0.618179 -0.308376
-11.5375 75.0507 -22.1737 -0.723705 -0.593902 -0.35147
-11.8423 75.3448 -22.0348 -0.732514 -0.584341 -0.349239
-11.6081 75.6444 -23.0169 -0.740086 -0.571974 -0.35372
-10.6291 74.6645 -23.4637 -0.729293 -0.59995 -0.328926
-9.95884 74.0049 -23.771 -0.735783 -0.600816 -0.312479
-10.2716 74.7652 -24.4775 -0.760695 -0.579584 -0.292276
-11.117 75.6675 -24.1072 -0.759504 -0.551849 -0.344407
-11.3996 75.9789 -23.9862 -0.75072 -0.553193 -0.361106
-11.2032 76.3263 -24.9453 -0.771163 -0.533628 -0.347201
-10.4869 75.4943 -25.2548 -0.768002 -0.553313 -0.322519
-10.1778 75.1313 -25.3811 -0.774494 -0.550177 -0.312194
-10.3593 75.8608 -26.1592 -0.78999 -0.521304 -0.322736
-11.1495 76.8362 -25.8346 -0.779899 -0.517977 -0.351365
-10.9819 77.2169 -26.7601 -0.796393 -0.494925 -0.347573
-10.3542 76.3733 -27.0122 -0.799601 -0.507795 -0.320597
-10.275 76.8342 -27.901 -0.818997 -0.479002 -0.315912
-10.6801 77.4045 -27.7377 -0.812329 -0.478995 -0.332695
-10.5426 77.8095 -28.6477 -0.82415 -0.451312 -0.34219
-10.2394 77.3615 -28.765 -0.818741 -0.472162 -0.32669
-10.1833 77.8875 -29.6332 -0.830254 -0.450504 -0.328213
-10.3061 78.0779 -29.5839 -0.831054 -0.444294 -0.334593
