0.738204 66.839 -1.32252 -0.127977 -0.987468 -0.0921308
1.20736 66.8726 -2.36011 -0.139541 -0.985648 -0.0941796
1.7226 66.8887 -3.46947 -0.147034 -0.985769 -0.0814913
2.11147 66.9139 -4.69337 -0.163709 -0.984859 -0.0570223
2.27319 66.9522 -5.69341 -0.172032 -0.982934 -0.0639705
2.2366 67.0308 -7.00605 -0.214667 -0.974791 -0.0608326
1.94095 67.1543 -8.13376 -0.232004 -0.972324 -0.0270629
1.30807 67.3537 -8.90537 -0.253383 -0.966309 -0.0452149
0.722991 67.5708 -9.70996 -0.284854 -0.95675 -0.0587513
-0.0567312 67.8742 -10.6214 -0.309607 -0.948414 -0.0679941
-0.806254 68.2181 -11.5052 -0.354413 -0.93107 -0.0863219
-1.49563 68.5681 -12.3339 -0.379753 -0.920426 -0.0903074
-2.19284 68.9664 -13.1798 -0.414333 -0.903538 -0.108353
-2.79374 69.3607 -14.0099 -0.454961 -0.882517 -0.119056
-3.47448 69.8905 -15.1093 -0.488154 -0.861448 -0.139857
-4.04702 70.3821 -15.971 -0.525598 -0.836373 -0.154285
-4.62213 70.9847 -17.1235 -0.571965 -0.804132 -0.16195
-5.03865 71.4832 -18.0607 -0.600437 -0.77935 -0.179135
-5.33836 71.9473 -19.0674 -0.637218 -0.751076 -0.172736
-5.66285 72.5321 -20.268 -0.674017 -0.714349 -0.186662
-5.92586 73.04 -21.3228 -0.704568 -0.686606 -0.176946
-6.09124 73.546 -22.4522 -0.724141 -0.666047 -0.178102
-6.21997 73.9843 -23.3846 -0.746305 -0.632708 -0.206663
-6.33951 74.5809 -24.6559 -0.782744 -0.589813 -0.198574
-6.32325 74.9499 -25.6297 -0.809294 -0.5315 -0.249376
-6.36499 75.4283 -26.5654 -0.817058 -0.517595 -0.253022
-6.3166 75.8922 -27.6023 -0.835281 -0.479021 -0.269899
-6.1345 76.1593 -28.6543 -0.839701 -0.468262 -0.274604
-5.93587 76.4609 -29.7565 -0.850646 -0.442524 -0.283855
-5.87133 76.9209 -30.6445 -0.854621 -0.429297 -0.292036
-6.30703 78.0773 -31.0544 -0.848417 -0.431198 -0.307012
-6.77799 79.0163 -31.0522 -0.844888 -0.428973 -0.319604
-7.24029 80.0172 -31.1507 -0.846192 -0.420539 -0.327239
-7.75296 80.9991 -31.0616 -0.850807 -0.408063 -0.331078
-8.36683 82.2828 -31.0539 -0.851854 -0.395018 -0.343955
-8.9043 83.4395 -31.0298 -0.857455 -0.382263 -0.34445
-9.33248 84.3935 -31.0063 -0.856296 -0.368986 -0.361395
-9.78351 85.2962 -30.8472 -0.860268 -0.359886 -0.361139
-10.2384 86.1106 -30.5513 -0.860526 -0.350624 -0.369538
-10.5569 85.8096 -29.5501 -0.855338 -0.349359 -0.382496
-10.8932 85.5151 -28.5513 -0.845923 -0.349539 -0.402787
-11.2347 85.076 -27.4663 -0.834906 -0.36268 -0.413999
-11.5388 84.6139 -26.456 -0.830471 -0.36464 -0.421127
-11.8501 84.0946 -25.3956 -0.815706 -0.385394 -0.431387
-12.1187 83.6717 -24.5082 -0.804962 -0.400127 -0.438103
-12.4413 82.8782 -23.1953 -0.787759 -0.429093 -0.441946
-12.7853 82.1623 -21.944 -0.759402 -0.460503 -0.459615
-13.0153 81.5914 -20.9831 -0.739858 -0.488675 -0.46223
-13.128 80.9607 -20.1045 -0.726535 -0.508402 -0.462044
-13.2555 80.3815 -19.2512 -0.69767 -0.544607 -0.465467
-13.3365 79.7007 -18.2563 -0.684737 -0.568531 -0.455366
-13.4649 79.1883 -17.399 -0.66223 -0.615904 -0.426747
-13.5089 78.5655 -16.4335 -0.631378 -0.644629 -0.431062
-13.6779 78.0523 -15.407 -0.629849 -0.653001 -0.420513
-13.5919 77.3704 -14.4915 -0.617131 -0.66393 -0.422311
-13.5428 76.7366 -13.6317 -0.600014 -0.654557 -0.459933
-13.5862 76.1327 -12.7536 -0.574462 -0.643016 -0.506448
-13.7269 75.5654 -11.8511 -0.538214 -0.673813 -0.50595
-13.6456 74.8187 -10.9587 -0.509594 -0.680311 -0.52618
-13.6249 74.155 -10.1194 -0.49262 -0.695631 -0.522899
-13.5982 73.5198 -9.24971 -0.446819 -0.743305 -0.497604
-13.4115 72.8972 -8.44657 -0.407965 -0.774302 -0.483758
-13.2377 72.234 -7.44433 -0.3729 -0.81585 -0.441966
-12.9864 71.6048 -6.42125 -0.333379 -0.849866 -0.408149
-12.6556 71.0327 -5.42606 -0.306612 -0.876489 -0.371156
-12.1882 70.541 -4.61309 -0.291747 -0.88995 -0.350026
-11.4779 69.9829 -3.7267 -0.278008 -0.905397 -0.320886
-10.8759 69.5464 -2.98149 -0.240133 -0.916465 -0.320044
-10.2101 69.1325 -2.2639 -0.23545 -0.922761 -0.305083
-9.32854 68.6778 -1.48582 -0.217004 -0.929353 -0.298381
-8.28158 68.1848 -0.574666 -0.205851 -0.941986 -0.26509
-7.4212 67.838 0.0572403 -0.176459 -0.95304 -0.245698
-6.581 67.5278 0.715108 -0.154871 -0.958483 -0.239314
-5.70496 67.2554 1.28378 -0.129088 -0.966978 -0.219749
-4.88651 67.031 1.84126 -0.111575 -0.971063 -0.211157
-4.00519 66.8175 2.40785 -0.109132 -0.977836 -0.17868
-3.06457 66.6349 2.92608 -0.079137 -0.982249 -0.17007
-2.02136 66.5415 3.00313 -0.0670814 -0.986772 -0.147584
-1.03328 66.5833 2.2575 -0.0732643 -0.986297 -0.147818
-0.405298 66.6552 1.32094 -0.0854057 -0.987673 -0.131176
0.111407 66.7457 0.188685 -0.0948544 -0.988432 -0.118343
0.620651 66.8252 -1.03029 -0.119632 -0.98678 -0.108577
1.49012 66.6883 -0.565142 -0.0950214 -0.992147 -0.0798651
1.96428 66.7131 -1.57885 -0.105732 -0.99142 -0.076861
2.34534 66.7278 -2.51663 -0.123215 -0.990302 -0.0641864
2.79736 66.7319 -3.5258 -0.133314 -0.988877 -0.0659524
3.18617 66.7353 -4.61166 -0.151768 -0.986892 -0.0548623
3.32661 66.7554 -5.66071 -0.172781 -0.983733 -0.0475091
3.3458 66.7971 -6.78912 -0.19248 -0.980702 -0.0342776
3.13356 66.8689 -7.78355 -0.192586 -0.980998 -0.023524
2.71512 66.9913 -8.76718 -0.224254 -0.973892 -0.0352725
2.06374 67.1861 -9.55483 -0.263921 -0.96402 -0.0317818
1.42546 67.4032 -10.5185 -0.302803 -0.952254 -0.039022
0.580135 67.7244 -11.447 -0.332687 -0.941881 -0.0466944
-0.257858 68.0835 -12.4027 -0.377049 -0.924165 -0.0612595
-1.00452 68.4492 -13.2601 -0.390947 -0.918094 -0.0646936
-1.71665 68.8492 -14.1047 -0.432292 -0.89798 -0.0819676
-2.24098 69.1929 -14.9215 -0.455496 -0.885166 -0.0946415
-3.02759 69.7723 -16.0713 -0.515171 -0.850275 -0.107849
-3.46812 70.1678 -16.9333 -0.547915 -0.827518 -0.120646
-3.90856 70.606 -17.8284 -0.584329 -0.800026 -0.136082
-4.40443 71.1521 -18.8525 -0.619148 -0.772727 -0.139814
-4.6637 71.5234 -19.7767 -0.646152 -0.749622 -0.143367
-4.93769 71.9406 -20.6571 -0.666946 -0.728942 -0.154355
-5.1826 72.3971 -21.7201 -0.70675 -0.691297 -0.150374
-5.40508 72.8587 -22.7241 -0.741623 -0.651802 -0.158589
-5.56871 73.3051 -23.7113 -0.762402 -0.625314 -0.166513
-5.68496 73.7207 -24.638 -0.787485 -0.593122 -0.167551
-5.74802 74.1333 -25.6987 -0.798489 -0.571989 -0.187637
-5.73146 74.476 -26.6502 -0.830333 -0.520993 -0.197773
-5.79963 74.9706 -27.5336 -0.845633 -0.477722 -0.238091
-5.61104 75.2918 -28.7842 -0.848303 -0.465181 -0.252953
-5.44087 75.627 -29.9316 -0.851746 -0.452912 -0.263373
-5.2788 76.0651 -31.1384 -0.864209 -0.415912 -0.283041
-5.43094 76.9507 -31.948 -0.859941 -0.41855 -0.291823
-5.8336 77.8779 -32.09 -0.855111 -0.414759 -0.311061
-6.31822 78.8216 -32.0274 -0.851248 -0.419044 -0.315879
-6.86545 79.9426 -32.033 -0.849458 -0.418339 -0.321564
-7.37563 80.9945 -32.0277 -0.851237 -0.409586 -0.328077
-7.92073 82.1535 -32.027 -0.858318 -0.394965 -0.327555
-8.38198 83.1549 -32.0134 -0.858771 -0.384625 -0.338423
-8.8412 84.1653 -31.9766 -0.864779 -0.373215 -0.335959
-9.32354 85.2195 -31.8938 -0.868676 -0.359766 -0.340494
-9.8761 86.5119 -31.8073 -0.86913 -0.341 -0.358235
-10.3558 87.304 -31.3837 -0.873789 -0.333259 -0.354164
-10.6899 87.0677 -30.3757 -0.868255 -0.330328 -0.370158
-11.0309 86.665 -29.2586 -0.859693 -0.329608 -0.390239
-11.3762 86.4052 -28.3015 -0.848997 -0.337071 -0.406867
-11.7124 85.9988 -27.2864 -0.834421 -0.354112 -0.422311
-12.0454 85.6452 -26.3481 -0.82809 -0.351625 -0.436584
-12.3519 85.0445 -25.2896 -0.81943 -0.359458 -0.446457
-12.7056 84.5257 -24.2146 -0.798627 -0.389602 -0.458671
-12.9502 83.9969 -23.3488 -0.788861 -0.403681 -0.463268
-13.1503 83.3966 -22.4974 -0.767137 -0.42434 -0.48095
-13.4503 82.8582 -21.5275 -0.755651 -0.434927 -0.489724
-13.6771 82.2119 -20.5799 -0.735907 -0.470437 -0.486476
-13.8541 81.4088 -19.4862 -0.708476 -0.497066 -0.500948
-14.0196 80.7665 -18.5665 -0.686099 -0.54055 -0.486186
-14.1407 80.1585 -17.6687 -0.675102 -0.565912 -0.473229
-14.2841 79.4949 -16.6309 -0.634396 -0.608443 -0.476798
-14.3983 78.8278 -15.546 -0.616622 -0.65019 -0.443781
-14.4417 78.2427 -14.6105 -0.607436 -0.658951 -0.443628
-14.4418 77.5503 -13.612 -0.61056 -0.645981 -0.458176
-14.4087 76.8136 -12.6781 -0.575717 -0.638826 -0.510344
-14.5681 76.2426 -11.7981 -0.547483 -0.629469 -0.55139
-14.5547 75.5363 -11.0041 -0.509667 -0.670022 -0.539483
-14.5151 74.8095 -10.1514 -0.480315 -0.692862 -0.537465
-14.519 74.0926 -9.24016 -0.456137 -0.708135 -0.538682
-14.3775 73.4351 -8.46038 -0.424124 -0.747325 -0.511492
-14.2409 72.8216 -7.63199 -0.373874 -0.781799 -0.499007
-14.1211 72.2532 -6.79833 -0.328774 -0.824234 -0.460757
-13.8672 71.6565 -5.83641 -0.312896 -0.852993 -0.417731
-13.471 71.0328 -4.77946 -0.290451 -0.877247 -0.382188
-13.0324 70.5431 -3.97373 -0.274193 -0.887187 -0.371057
-12.4285 70.0663 -3.22267 -0.257703 -0.904554 -0.339659
-11.6545 69.5272 -2.35139 -0.234591 -0.91599 -0.325423
-10.9839 69.0962 -1.59603 -0.217542 -0.925698 -0.309449
-10.2564 68.6907 -0.892476 -0.206505 -0.930929 -0.301002
-9.42845 68.291 -0.173587 -0.184942 -0.940989 -0.283391
-8.65022 67.9467 0.481544 -0.169584 -0.945949 -0.27639
-7.78602 67.618 1.11416 -0.144313 -0.955494 -0.257304
-6.67895 67.2527 1.86091 -0.136508 -0.957007 -0.255869
-5.68281 66.9636 2.57209 -0.119729 -0.969453 -0.21389
-4.78891 66.742 3.15268 -0.0973863 -0.974827 -0.20025
-3.82469 66.5413 3.74411 -0.0856816 -0.977873 -0.19085
-2.82127 66.4137 4.0872 -0.0595026 -0.983066 -0.173324
-1.54814 66.3647 3.99493 -0.0413413 -0.987514 -0.151912
-0.530329 66.4208 3.24263 -0.0519845 -0.989686 -0.133168
0.190191 66.4859 2.34741 -0.060597 -0.99174 -0.113038
0.675523 66.5593 1.41777 -0.0673317 -0.991003 -0.115668
1.09397 66.6297 0.450239 -0.0785119 -0.992019 -0.0979145
1.43562 66.6811 -0.43676 -0.084989 -0.992166 -0.091566
2.32013 66.5644 0.0620807 -0.0773432 -0.994836 -0.0642457
2.9257 66.5705 -1.20295 -0.115107 -0.992083 -0.0465494
3.32259 66.5804 -2.16112 -0.128216 -0.990187 -0.0555905
3.67413 66.5909 -3.14291 -0.126511 -0.990969 -0.0417365
4.1965 66.5584 -4.3468 -0.157561 -0.987 -0.0295215
4.44852 66.5502 -5.39421 -0.177953 -0.983674 -0.0261981
4.39493 66.5921 -6.69664 -0.190068 -0.981394 -0.0262429
4.1924 66.6654 -7.84781 -0.18127 -0.982971 -0.0301566
3.75731 66.7619 -9.08744 -0.211332 -0.977391 -0.0068294
3.15106 66.9012 -9.94274 -0.208834 -0.977898 0.00548961
2.52038 67.0932 -10.8131 -0.271208 -0.962303 -0.0204533
1.79945 67.3126 -11.5678 -0.317736 -0.948174 -0.00313162
1.05528 67.5882 -12.4106 -0.339304 -0.940518 -0.0168684
0.222094 67.9394 -13.3037 -0.39074 -0.919752 -0.0371179
-0.569773 68.3311 -14.2554 -0.418056 -0.907263 -0.0458532
-1.18464 68.6658 -14.9929 -0.456538 -0.887526 -0.0622094
-1.6818 68.9889 -15.8244 -0.46387 -0.883601 -0.0620157
-2.23123 69.3565 -16.5972 -0.516663 -0.851254 -0.0900318
-2.68045 69.7172 -17.4943 -0.542313 -0.835362 -0.088944
-3.132 70.122 -18.3183 -0.575614 -0.812116 -0.094392
-3.61816 70.5911 -19.2185 -0.583448 -0.805189 -0.105934
-3.97368 71.0254 -20.3083 -0.642985 -0.758913 -0.101503
-4.28439 71.4435 -21.2725 -0.679534 -0.723872 -0.119345
-4.55845 71.8759 -22.3833 -0.731564 -0.672013 -0.114947
-4.79844 72.3011 -23.3115 -0.752139 -0.645266 -0.133864
-4.96929 72.75 -24.4604 -0.771455 -0.621377 -0.136908
-5.11078 73.1627 -25.3975 -0.804705 -0.576509 -0.14173
-5.18448 73.5631 -26.4816 -0.822798 -0.543182 -0.1672
-5.19383 73.9909 -27.6676 -0.841792 -0.503881 -0.193623
-5.06885 74.3798 -28.9321 -0.850792 -0.471798 -0.231431
-4.94249 74.7308 -30.065 -0.870682 -0.427 -0.244097
-4.76934 75.1536 -31.3456 -0.869003 -0.411162 -0.27528
-4.60465 75.4742 -32.3576 -0.872387 -0.38873 -0.29636
-4.72605 76.2532 -33.0365 -0.86601 -0.396199 -0.305045
-5.18011 77.221 -33.0271 -0.858214 -0.410281 -0.308445
-5.67381 78.2657 -33.0394 -0.854306 -0.412912 -0.315698
-6.23167 79.3693 -32.9789 -0.853036 -0.415423 -0.315836
-6.6734 80.2839 -32.9738 -0.853143 -0.409092 -0.323708
-7.13287 81.2323 -32.9594 -0.852469 -0.408972 -0.325634
-7.63619 82.339 -32.9985 -0.861073 -0.392126 -0.323712
-8.10885 83.3612 -32.9659 -0.864857 -0.382561 -0.325037
-8.58833 84.4328 -32.93 -0.868783 -0.372155 -0.32667
-9.04961 85.4978 -32.8887 -0.874379 -0.353256 -0.332674
-9.49727 86.5236 -32.8017 -0.873845 -0.347925 -0.339548
-9.92207 87.7323 -32.8894 -0.881942 -0.332508 -0.334082
-10.4408 88.4664 -32.2405 -0.884674 -0.316602 -0.342193
-10.9032 88.1763 -30.842 -0.873099 -0.320483 -0.367407
-11.2671 87.8762 -29.7661 -0.861581 -0.329269 -0.386341
-11.6248 87.4675 -28.647 -0.856761 -0.324382 -0.400919
-11.9941 87.1534 -27.6476 -0.845974 -0.332965 -0.416461
-12.3514 86.6497 -26.5673 -0.833741 -0.329701 -0.4429
-12.6609 86.2528 -25.6893 -0.819527 -0.353875 -0.450719
-12.9906 85.8775 -24.7895 -0.812442 -0.357501 -0.460333
-13.2811 85.3741 -23.9178 -0.803948 -0.367446 -0.467388
-13.614 84.708 -22.8414 -0.781041 -0.386957 -0.490143
-13.8133 84.0631 -22.0271 -0.75695 -0.404328 -0.512955
-14.1285 83.5821 -21.1286 -0.753322 -0.432141 -0.495743
-14.3331 82.8801 -20.1957 -0.748265 -0.445104 -0.491917
-14.5282 82.2355 -19.3438 -0.709686 -0.464456 -0.528515
-14.7199 81.6502 -18.5199 -0.669935 -0.521197 -0.528382
-14.8734 81.0609 -17.7113 -0.665423 -0.549749 -0.504964
-15.0402 80.4473 -16.8072 -0.634972 -0.582678 -0.507245
-15.1427 79.6433 -15.6826 -0.618674 -0.609221 -0.495761
-15.2457 79.0384 -14.687 -0.608378 -0.658918 -0.44237
-15.3448 78.4045 -13.6264 -0.605194 -0.656285 -0.450588
-15.2482 77.6423 -12.6786 -0.623209 -0.606798 -0.493363
-15.4318 76.8976 -11.6452 -0.553784 -0.595091 -0.5824
-15.4744 76.035 -10.7292 -0.500742 -0.633917 -0.589412
-15.4442 75.3175 -9.96773 -0.492002 -0.660829 -0.566779
-15.4353 74.423 -8.91714 -0.44247 -0.700458 -0.559981
-15.3055 73.7516 -8.15809 -0.422577 -0.730541 -0.536291
-15.1518 72.9852 -7.2239 -0.379651 -0.7118 -0.59093
-15.0503 72.3609 -6.37048 -0.296788 -0.8305 -0.471368
-14.8197 71.821 -5.50125 -0.27952 -0.854803 -0.437242
-14.509 71.2873 -4.60276 -0.275435 -0.871372 -0.406012
-14.0713 70.7308 -3.67304 -0.266895 -0.885494 -0.380188
-13.5455 70.2709 -2.93841 -0.258438 -0.895426 -0.362522
-12.9984 69.8247 -2.20049 -0.248154 -0.900849 -0.356217
-12.2836 69.3739 -1.5091 -0.222519 -0.914395 -0.338182
-11.5929 68.9338 -0.738547 -0.209299 -0.92141 -0.327375
-10.9008 68.546 -0.0677607 -0.177804 -0.92501 -0.335335
-9.96579 68.1217 0.686525 -0.169139 -0.940308 -0.295319
-9.17477 67.7796 1.35928 -0.164175 -0.946213 -0.278797
-8.13006 67.3707 2.18755 -0.130018 -0.953439 -0.272121
-7.15252 67.0783 2.7815 -0.120048 -0.962645 -0.242105
-6.33729 66.8248 3.46726 -0.104241 -0.965869 -0.237071
-5.15329 66.5442 4.24035 -0.0784619 -0.975609 -0.205014
-4.24447 66.3832 4.68833 -0.0668891 -0.977601 -0.199553
-3.13377 66.2408 5.13011 -0.0509341 -0.981484 -0.184649
-1.85648 66.1933 5.17529 -0.0274095 -0.986825 -0.159449
-0.872432 66.2068 4.87542 -0.0266268 -0.989478 -0.142211
-0.0205944 66.2627 4.31794 -0.0296122 -0.992332 -0.119998
0.631778 66.3426 3.44765 -0.0481939 -0.992949 -0.108302
1.38156 66.3995 2.48413 -0.0610665 -0.992154 -0.108917
1.82615 66.49 1.34504 -0.0629668 -0.993703 -0.0926822
2.25341 66.5489 0.324235 -0.0697883 -0.994563 -0.0772786
2.26635 66.5547 0.237754 -0.071132 -0.994517 -0.0766547
-12.428 71.5025 -6.68807 -0.364661 -0.853641 -0.371913
-12.169 71.9455 -7.8536 -0.352828 -0.837994 -0.416266
-12.1483 72.5729 -9.0619 -0.438732 -0.78632 -0.43499
-12.6511 73.4999 -10.0994 -0.4409 -0.759429 -0.478409
-13.0722 74.0021 -10.4175 -0.47278 -0.708535 -0.523886
-13.0877 74.9745 -11.7463 -0.529167 -0.674663 -0.514599
-12.1757 74.0194 -11.3551 -0.518952 -0.70762 -0.479544
-11.3115 73.0061 -10.6504 -0.466946 -0.756215 -0.458367
-10.9741 72.3063 -9.71802 -0.411546 -0.81625 -0.40542
-10.9751 71.7336 -8.51523 -0.39032 -0.837665 -0.382056
-11.2078 71.3552 -7.48714 -0.360866 -0.8523 -0.37863
-11.5831 71.0642 -6.43708 -0.330262 -0.871953 -0.361421
-12.0043 70.7834 -5.3994 -0.318317 -0.876099 -0.362111
-11.383 70.3019 -4.69106 -0.277221 -0.902308 -0.330134
-10.9304 70.5383 -5.72921 -0.31436 -0.882149 -0.3507
-10.2821 70.8978 -7.25963 -0.329194 -0.877155 -0.349614
-9.87739 71.2347 -8.52355 -0.371472 -0.864055 -0.339732
-9.59573 71.6999 -9.94981 -0.41146 -0.832463 -0.371087
-9.79351 72.2717 -10.9607 -0.465764 -0.793953 -0.390771
-10.3341 73.0374 -11.8179 -0.489443 -0.766543 -0.415761
-11.1324 73.8394 -12.2562 -0.514033 -0.744499 -0.426017
-12.0738 74.7667 -12.5855 -0.55403 -0.698211 -0.453378
-12.9671 75.6376 -12.7935 -0.571964 -0.669809 -0.473512
-13.1467 75.8116 -12.8226 -0.559236 -0.671823 -0.485705
-13.042 76.3627 -13.7473 -0.589374 -0.661722 -0.463425
-12.1207 75.5147 -13.6754 -0.575782 -0.68537 -0.445806
-11.3062 74.7553 -13.5605 -0.576045 -0.693353 -0.432936
-10.3998 73.8967 -13.3153 -0.567129 -0.719834 -0.400255
-9.45215 72.9882 -12.9075 -0.558913 -0.751099 -0.351378
-8.80847 72.2576 -12.2543 -0.512707 -0.791041 -0.333746
-8.3359 71.4982 -11.0405 -0.447782 -0.828674 -0.335844
-8.49153 71.1853 -9.99179 -0.429673 -0.847037 -0.312904
-8.77142 70.8432 -8.73094 -0.378733 -0.872295 -0.309295
-9.15109 70.5974 -7.63182 -0.333484 -0.890221 -0.310314
-9.58541 70.3721 -6.55847 -0.307763 -0.898406 -0.313287
-10.0626 70.1599 -5.49135 -0.291701 -0.903157 -0.314989
-10.6352 69.9294 -4.30473 -0.271847 -0.910834 -0.310613
-10.7408 69.8881 -4.08769 -0.266026 -0.912124 -0.311864
-10.2777 69.4466 -3.17341 -0.246607 -0.920004 -0.304594
-9.61248 69.6726 -4.42632 -0.260538 -0.917139 -0.301622
-9.04232 69.8616 -5.57626 -0.292719 -0.911984 -0.287405
-8.57197 70.0294 -6.58851 -0.313294 -0.903204 -0.293375
-8.07868 70.2488 -7.8042 -0.333289 -0.893287 -0.301591
-7.67122 70.4586 -8.96363 -0.358132 -0.886705 -0.292396
-7.35059 70.7101 -10.1406 -0.390567 -0.879932 -0.270512
-7.21564 70.9917 -11.2562 -0.430275 -0.860821 -0.271754
-7.31468 71.3814 -12.3055 -0.496325 -0.820239 -0.284376
-7.69118 71.9276 -13.2504 -0.517285 -0.807743 -0.282785
-8.46347 72.6974 -13.8733 -0.562537 -0.764795 -0.314072
-9.3993 73.5579 -14.2261 -0.578681 -0.747178 -0.326883
-10.3288 74.4233 -14.4587 -0.600737 -0.708063 -0.371163
-11.1595 75.2171 -14.5605 -0.622662 -0.686933 -0.37472
-12.1106 76.1159 -14.6248 -0.618605 -0.678882 -0.395533
-13.0353 76.9519 -14.6469 -0.611457 -0.66884 -0.422817
-13.1098 77.5938 -15.5385 -0.627375 -0.658041 -0.416392
-12.2506 76.7908 -15.5564 -0.625656 -0.670786 -0.398248
-11.2958 75.8941 -15.5393 -0.634214 -0.675391 -0.376325
-10.3959 75.0456 -15.5126 -0.638765 -0.678714 -0.36239
-9.32468 74.0486 -15.4045 -0.60959 -0.721649 -0.32806
-8.42246 73.2236 -15.2256 -0.588323 -0.750014 -0.30225
-7.60876 72.4815 -14.9058 -0.564833 -0.768526 -0.300552
-6.84576 71.7846 -14.4194 -0.524122 -0.806708 -0.272979
-6.24228 71.1457 -13.5867 -0.494217 -0.83598 -0.238508
-6.07003 70.7434 -12.4262 -0.448267 -0.864575 -0.227084
-6.12835 70.451 -11.2446 -0.4338 -0.870697 -0.231742
-6.36533 70.175 -9.82968 -0.407979 -0.878878 -0.247237
-6.75794 69.9874 -8.61533 -0.350771 -0.898321 -0.264537
-7.22718 69.8142 -7.40098 -0.326471 -0.902415 -0.281184
-7.73022 69.6426 -6.22113 -0.293276 -0.919105 -0.263126
-8.28939 69.4928 -5.12822 -0.276645 -0.919161 -0.280376
-8.82679 69.3273 -4.05201 -0.263722 -0.924256 -0.276045
-9.46336 69.1549 -2.93022 -0.244874 -0.924748 -0.291339
-9.69262 69.0924 -2.54212 -0.237143 -0.924306 -0.299036
-9.12043 68.7824 -1.99516 -0.230005 -0.930855 -0.283912
-8.49648 68.9224 -2.96972 -0.242924 -0.931243 -0.271614
-7.82758 69.0784 -4.13969 -0.259802 -0.930112 -0.259606
-7.22753 69.2084 -5.22694 -0.268006 -0.929748 -0.252469
-6.67776 69.3356 -6.33933 -0.281625 -0.931498 -0.230217
-6.21198 69.4622 -7.42228 -0.325228 -0.916929 -0.231232
-5.65887 69.624 -8.8275 -0.348653 -0.905614 -0.241461
-5.30404 69.7286 -9.88279 -0.38218 -0.896561 -0.223867
-5.00171 69.9794 -11.5029 -0.42872 -0.881225 -0.199104
-4.92586 70.1998 -12.6252 -0.44 -0.877134 -0.192448
-5.04377 70.5073 -13.7249 -0.476339 -0.856044 -0.200724
-5.41255 70.9633 -14.7458 -0.500623 -0.836598 -0.22244
-6.21062 71.7241 -15.68 -0.555687 -0.800428 -0.224783
-7.06358 72.4969 -16.164 -0.581196 -0.777048 -0.241675
-8.04796 73.3669 -16.3954 -0.614233 -0.736912 -0.282274
-9.00138 74.2295 -16.4598 -0.628626 -0.71605 -0.303482
-9.91372 75.0868 -16.4981 -0.655809 -0.680569 -0.32671
-10.721 75.8621 -16.5011 -0.654852 -0.674893 -0.340129
-11.5833 76.6948 -16.49 -0.645947 -0.661576 -0.380881
-12.4086 77.4874 -16.4616 -0.643183 -0.659834 -0.388503
-13.0625 78.1264 -16.4308 -0.643909 -0.641292 -0.417284
-12.8165 78.4573 -17.3321 -0.653661 -0.624171 -0.427947
-11.816 77.4518 -17.3958 -0.660654 -0.651422 -0.373075
-10.8315 76.4702 -17.4438 -0.66352 -0.656373 -0.359049
-9.93908 75.5844 -17.4801 -0.662065 -0.670794 -0.334225
-8.9893 74.6587 -17.4871 -0.651798 -0.692393 -0.309437
-8.05041 73.7878 -17.4628 -0.632707 -0.72545 -0.27093
-7.20058 73.0304 -17.3967 -0.623219 -0.740578 -0.251281
-6.23259 72.1586 -17.1321 -0.588219 -0.777567 -0.222233
-5.42499 71.4304 -16.648 -0.56743 -0.799498 -0.197042
-4.61909 70.7364 -15.9862 -0.529125 -0.828022 -0.185491
-4.12217 70.2437 -15.0244 -0.507359 -0.847868 -0.153966
-3.82328 69.8585 -13.7682 -0.456784 -0.873177 -0.170034
-3.76121 69.6027 -12.5056 -0.428549 -0.888207 -0.165629
-3.90824 69.4382 -11.2834 -0.386291 -0.909287 -0.154846
-4.19488 69.3445 -10.1909 -0.354768 -0.918135 -0.176544
-4.63406 69.2414 -8.8841 -0.341051 -0.922252 -0.182031
-5.1892 69.1302 -7.4919 -0.318927 -0.923936 -0.211254
-5.63456 69.0395 -6.45801 -0.300744 -0.928722 -0.216862
-6.13019 68.9304 -5.39577 -0.273099 -0.932746 -0.235376
-6.71787 68.8272 -4.32488 -0.249451 -0.937689 -0.241894
-7.27942 68.723 -3.36211 -0.23536 -0.941182 -0.24245
-7.87675 68.6051 -2.38482 -0.22024 -0.93951 -0.262328
-8.45724 68.5003 -1.55406 -0.20974 -0.940458 -0.267483
-7.66348 68.2314 -1.21274 -0.20544 -0.943187 -0.261138
-6.97838 68.3527 -2.22627 -0.21672 -0.947971 -0.233203
-6.34164 68.4618 -3.27177 -0.233024 -0.944784 -0.230398
-5.70446 68.5608 -4.34602 -0.245817 -0.946225 -0.210316
-5.1404 68.6569 -5.4222 -0.27383 -0.940901 -0.199306
-4.50312 68.7455 -6.72625 -0.290642 -0.937463 -0.191547
-4.00249 68.8175 -7.89401 -0.319774 -0.930348 -0.179437
-3.55115 68.8804 -9.05215 -0.320734 -0.931459 -0.171797
-3.17104 68.9472 -10.2175 -0.343571 -0.925259 -0.160793
-2.81017 69.0338 -11.648 -0.373548 -0.915411 -0.149948
-2.64123 69.0972 -12.575 -0.407797 -0.903895 -0.12913
-1.72859 68.5762 -11.5626 -0.351286 -0.930564 -0.103197
-2.02023 68.5571 -10.4809 -0.332156 -0.934827 -0.12558
-2.4429 68.5163 -9.18013 -0.31129 -0.939557 -0.142591
-2.93255 68.4858 -8.00114 -0.291252 -0.945048 -0.148517
-3.47409 68.4267 -6.66509 -0.290546 -0.940572 -0.175805
-3.99618 68.3761 -5.59899 -0.265 -0.945783 -0.187801
-4.67678 68.3144 -4.4196 -0.243588 -0.949264 -0.198906
-5.37848 68.2163 -3.1762 -0.228259 -0.948264 -0.220666
-5.97495 68.1287 -2.22505 -0.206674 -0.950211 -0.233206
-6.69229 68.0133 -1.14613 -0.194904 -0.950512 -0.241949
-7.09996 67.9459 -0.569561 -0.183656 -0.948673 -0.257469
-6.52642 67.6753 0.0779101 -0.16213 -0.958601 -0.23409
-5.72229 67.7975 -1.02791 -0.190435 -0.954581 -0.229149
-4.97063 67.897 -2.15635 -0.195101 -0.959814 -0.201726
-4.37455 67.975 -3.13268 -0.210074 -0.958346 -0.193498
-3.6663 68.0376 -4.27831 -0.226393 -0.956173 -0.185685
-3.03847 68.0861 -5.40375 -0.245164 -0.956349 -0.159033
-2.38101 68.1259 -6.76615 -0.272731 -0.94971 -0.153846
-1.89128 68.1566 -7.90435 -0.274609 -0.953229 -0.12627
-1.37139 68.1412 -9.01371 -0.299451 -0.946415 -0.120948
-0.950318 68.1365 -10.1967 -0.323589 -0.941241 -0.0967241
-0.947429 68.1365 -10.2064 -0.325932 -0.939845 -0.102273
0.0124604 67.7601 -9.43439 -0.280589 -0.956209 -0.0832719
-0.487162 67.8054 -8.38678 -0.262836 -0.959139 -0.104733
-1.00856 67.8372 -7.3951 -0.255501 -0.961678 -0.0994675
-1.50119 67.831 -6.30882 -0.249311 -0.959788 -0.12904
-2.14316 67.8016 -5.03001 -0.231636 -0.959266 -0.16172
-2.76421 67.7813 -3.9988 -0.220756 -0.963091 -0.15402
-3.36991 67.7307 -2.99546 -0.188334 -0.968233 -0.164486
-3.96136 67.679 -2.05109 -0.178615 -0.963131 -0.201186
-4.70748 67.5846 -0.930232 -0.176833 -0.964139 -0.197902
-5.69112 67.4451 0.441362 -0.16612 -0.960433 -0.223543
-5.70142 67.4435 0.455408 -0.162126 -0.958059 -0.236302
-4.94791 67.2283 0.93061 -0.142627 -0.966934 -0.211417
-4.02157 67.3476 -0.320681 -0.156409 -0.968012 -0.196187
-3.10274 67.4519 -1.68329 -0.170371 -0.970771 -0.169047
-2.41756 67.5029 -2.76957 -0.188999 -0.969419 -0.156543
-1.6449 67.5319 -3.96374 -0.19819 -0.970827 -0.134966
-0.943823 67.5433 -5.15397 -0.220955 -0.967304 -0.124505
-0.417267 67.5507 -6.19609 -0.222979 -0.968048 -0.114732
0.0978017 67.535 -7.23041 -0.231667 -0.96879 -0.0881791
0.68686 67.4772 -8.31538 -0.264693 -0.9615 -0.0738619
0.766085 67.4664 -8.45869 -0.264693 -0.9615 -0.073862
1.50865 67.2226 -7.56805 -0.213786 -0.975539 -0.0511685
1.00268 67.2688 -6.58625 -0.200626 -0.976875 -0.0739266
0.450409 67.2956 -5.56899 -0.206779 -0.973479 -0.0978843
-0.285102 67.3047 -4.24555 -0.189727 -0.976699 -0.100316
-0.867037 67.2919 -3.28649 -0.179782 -0.974249 -0.136077
-1.64004 67.2768 -2.20251 -0.16966 -0.974205 -0.148793
-2.28419 67.2323 -1.18985 -0.13819 -0.978861 -0.150778
-2.98811 67.1606 -0.147863 -0.137313 -0.976244 -0.167611
-3.88059 67.0678 1.02145 -0.120102 -0.975723 -0.183141
-4.24053 67.0175 1.49335 -0.111868 -0.975511 -0.189379
-3.34806 66.8489 1.83437 -0.110507 -0.976689 -0.184031
-2.60354 66.9243 0.930119 -0.11771 -0.97981 -0.161607
-1.71617 67.0063 -0.256364 -0.12895 -0.978709 -0.159691
-0.980056 67.0675 -1.40892 -0.147781 -0.979624 -0.136004
-0.273131 67.0795 -2.40171 -0.141414 -0.984896 -0.0999142
0.49804 67.0918 -3.59866 -0.149175 -0.983329 -0.103975
1.10323 67.0861 -4.64282 -0.182227 -0.979125 -0.0900454
1.64628 67.0523 -5.50817 -0.190071 -0.979151 -0.0716645
-5.71344 72.0417 -18.1887 -0.614524 -0.759886 -0.211974
-6.54285 72.7857 -18.4073 -0.635928 -0.740084 -0.218797
-7.52341 73.6786 -18.4726 -0.656472 -0.709897 -0.255128
-8.30692 74.4265 -18.4672 -0.659835 -0.694895 -0.285899
-9.35762 75.4653 -18.4518 -0.675982 -0.672896 -0.300433
-10.1934 76.3102 -18.4099 -0.688867 -0.648145 -0.324608
-11.1851 77.3322 -18.3506 -0.683351 -0.630647 -0.367853
-12.1102 78.3028 -18.2726 -0.684444 -0.614382 -0.392519
-12.9308 79.1668 -18.2103 -0.685952 -0.593432 -0.421079
-12.5882 79.4371 -19.1078 -0.696119 -0.569389 -0.437281
-11.7461 78.489 -19.1909 -0.702014 -0.607444 -0.371738
-10.7201 77.3706 -19.2927 -0.699721 -0.618382 -0.357764
-9.98784 76.5575 -19.34 -0.688869 -0.648146 -0.324601
-8.9683 75.5088 -19.4131 -0.689495 -0.65466 -0.309866
-8.21055 74.7175 -19.4472 -0.683912 -0.670466 -0.287644
-7.36895 73.8971 -19.4652 -0.676505 -0.695467 -0.242211
-6.50654 73.0684 -19.4466 -0.673352 -0.704476 -0.224301
-6.12375 72.7126 -19.4025 -0.659638 -0.725285 -0.197078
-6.19598 73.0645 -20.4353 -0.675849 -0.708563 -0.202895
-7.01191 73.8812 -20.4536 -0.682374 -0.693525 -0.23106
-7.76257 74.6531 -20.4325 -0.696992 -0.661075 -0.277815
-8.51272 75.4444 -20.3788 -0.709764 -0.644475 -0.284407
-9.25071 76.2471 -20.3367 -0.718018 -0.624488 -0.307352
-10.2319 77.3492 -20.2434 -0.717041 -0.597243 -0.359379
-11.0318 78.2534 -20.168 -0.720608 -0.582164 -0.376575
-11.8369 79.2026 -20.0679 -0.709756 -0.572186 -0.410913
-12.5206 80.0231 -19.9985 -0.718571 -0.545135 -0.431838
-12.7572 80.3251 -19.9734 -0.726535 -0.532825 -0.433872
-12.5662 80.846 -20.8908 -0.734425 -0.503079 -0.455556
-11.8938 79.9556 -20.9533 -0.733709 -0.524485 -0.431957
-11.0255 78.8528 -21.0579 -0.734931 -0.562738 -0.378421
-10.2357 77.8906 -21.1573 -0.733084 -0.576148 -0.361444
-9.47491 76.9884 -21.2316 -0.730544 -0.598663 -0.328492
-8.55647 75.9261 -21.3174 -0.722271 -0.615984 -0.314465
-7.80785 75.0892 -21.3722 -0.713372 -0.644599 -0.27494
-7.00749 74.2072 -21.417 -0.711721 -0.663614 -0.230369
-6.37448 73.5511 -21.4198 -0.711018 -0.67272 -0.204698
-6.65517 74.1591 -22.3905 -0.733548 -0.640503 -0.227295
-7.54385 75.1813 -22.324 -0.732973 -0.626222 -0.265699
-8.23802 76.0076 -22.2649 -0.737276 -0.606263 -0.298109
-8.96294 76.8864 -22.2 -0.752181 -0.573937 -0.323758
-9.72959 77.8363 -22.1227 -0.744468 -0.563907 -0.357459
-10.4593 78.7557 -22.0358 -0.744691 -0.542647 -0.388549
-11.1299 79.6469 -21.9513 -0.752124 -0.522524 -0.401595
-11.8693 80.6685 -21.8672 -0.746345 -0.502626 -0.436275
-12.4968 81.5582 -21.7989 -0.749218 -0.482373 -0.45386
-12.2276 82.0239 -22.7296 -0.762364 -0.456885 -0.45832
-11.6169 81.0887 -22.7997 -0.7627 -0.482471 -0.430709
-10.8918 80.028 -22.8863 -0.765241 -0.50494 -0.399301
-10.249 79.1316 -22.965 -0.759923 -0.528369 -0.378607
-9.44881 78.0542 -23.0583 -0.766236 -0.541854 -0.345365
-8.78709 77.1903 -23.1284 -0.761197 -0.561219 -0.324981
-7.89457 76.0323 -23.222 -0.759258 -0.57773 -0.299592
-7.18576 75.1485 -23.2925 -0.756297 -0.602546 -0.254859
-6.78355 74.6673 -23.3283 -0.765167 -0.602417 -0.227185
-6.80045 75.0401 -24.2629 -0.778737 -0.582649 -0.232568
-7.47218 75.9358 -24.186 -0.773304 -0.568943 -0.279831
-8.20989 76.9491 -24.1072 -0.782143 -0.54146 -0.30834
-9.01932 78.0577 -24.017 -0.784134 -0.529362 -0.323898
-9.65089 78.9441 -23.943 -0.775553 -0.507948 -0.374842
-10.3857 80.0161 -23.8556 -0.772949 -0.501701 -0.388388
-11.0668 81.0471 -23.7749 -0.775984 -0.475609 -0.4143
-11.7539 82.1557 -23.6881 -0.785044 -0.439646 -0.436368
-12.0559 82.6493 -23.6516 -0.776701 -0.442174 -0.448573
-11.8492 83.2103 -24.5794 -0.803125 -0.401862 -0.439882
-11.2865 82.2455 -24.6569 -0.798209 -0.438025 -0.413517
-10.4866 80.9267 -24.7557 -0.789148 -0.458664 -0.408502
-9.90017 79.9959 -24.8271 -0.792045 -0.488098 -0.36664
-9.27259 79.0392 -24.9022 -0.789524 -0.497724 -0.359058
-8.66804 78.1497 -24.975 -0.798589 -0.505885 -0.326093
-8.0452 77.2202 -25.0455 -0.792979 -0.533926 -0.293443
-7.41581 76.3333 -25.1152 -0.804733 -0.528842 -0.269688
-6.77599 75.4242 -25.1966 -0.804618 -0.541682 -0.243248
-6.78805 75.8925 -26.1303 -0.809441 -0.531599 -0.249413
-7.39499 76.8028 -26.0469 -0.813959 -0.50079 -0.294413
-8.0566 77.8199 -25.9681 -0.812466 -0.494009 -0.309604
-8.71777 78.8379 -25.8907 -0.801633 -0.492546 -0.338796
-9.36548 79.8676 -25.8112 -0.806891 -0.464853 -0.36447
-10.0706 81.0283 -25.7204 -0.809248 -0.456099 -0.370259
-10.6168 81.9537 -25.6524 -0.809226 -0.429645 -0.400698
-11.1758 82.9414 -25.5745 -0.811125 -0.411962 -0.415166
-11.52 83.5669 -25.5293 -0.805261 -0.411147 -0.427216
-11.2896 84.0804 -26.4639 -0.825036 -0.383511 -0.415012
-10.7825 83.1236 -26.5385 -0.823195 -0.409116 -0.393667
-10.0609 81.8117 -26.6436 -0.815561 -0.424189 -0.393604
-9.46938 80.7839 -26.7228 -0.810108 -0.449617 -0.376257
-8.8312 79.7121 -26.8041 -0.816846 -0.463277 -0.343711
-8.05336 78.4166 -26.9001 -0.813252 -0.477195 -0.333027
-7.45739 77.4545 -26.9732 -0.821027 -0.491999 -0.289571
-6.88864 76.552 -27.047 -0.82555 -0.490464 -0.279127
-6.74946 76.3278 -27.0648 -0.825552 -0.490461 -0.279127
-6.54155 76.5215 -28.023 -0.830594 -0.484796 -0.274019
-7.22093 77.6615 -27.9369 -0.826089 -0.476667 -0.30061
-7.93704 78.8657 -27.8482 -0.827821 -0.456475 -0.326102
-8.479 79.8092 -27.7814 -0.8277 -0.446276 -0.340222
-9.06969 80.8535 -27.7043 -0.819383 -0.447193 -0.35865
-9.71365 82.0123 -27.6101 -0.823183 -0.423792 -0.377849
-10.2275 82.9636 -27.5349 -0.826215 -0.406365 -0.390176
-10.8118 84.0921 -27.4343 -0.835445 -0.377847 -0.399079
-11.0012 84.4716 -27.402 -0.825813 -0.384803 -0.412262
-10.7232 84.8856 -28.3515 -0.843227 -0.362198 -0.397216
-10.1893 83.7914 -28.4452 -0.841756 -0.38349 -0.379976
-9.7006 82.8266 -28.5288 -0.833119 -0.397818 -0.384256
-9.16107 81.8061 -28.6148 -0.835537 -0.418756 -0.355697
-8.56064 80.6965 -28.7068 -0.835565 -0.422275 -0.351447
-7.96355 79.6075 -28.7799 -0.834756 -0.437675 -0.3341
-7.37625 78.561 -28.8538 -0.836247 -0.445453 -0.319784
-6.70052 77.3697 -28.936 -0.833902 -0.463401 -0.299778
-6.61273 77.2216 -28.947 -0.836806 -0.464157 -0.290369
-6.31616 77.3042 -29.9242 -0.849635 -0.43454 -0.298824
-6.91787 78.411 -29.8528 -0.844485 -0.435428 -0.311845
-7.53608 79.5385 -29.767 -0.838621 -0.433169 -0.330272
-8.21222 80.8118 -29.686 -0.841198 -0.415178 -0.346431
-8.73537 81.7996 -29.6031 -0.845851 -0.402941 -0.349533
-9.34511 82.9853 -29.4996 -0.841882 -0.389682 -0.373341
-9.86205 84.0329 -29.4085 -0.848017 -0.375168 -0.37432
-10.4045 85.1821 -29.3095 -0.850284 -0.353927 -0.389555
-9.88691 85.011 -30.3117 -0.859772 -0.363845 -0.358341
-9.29649 83.7482 -30.4195 -0.853439 -0.381617 -0.354979
-8.73726 82.6062 -30.5186 -0.845638 -0.399417 -0.354065
-8.51732 82.174 -30.5562 -0.848762 -0.39723 -0.349015
