0.510182 67.3606 -1.06435 -0.136316 -0.9852 -0.102775
1.09269 67.3925 -2.28337 -0.153258 -0.983485 -0.0955923
1.54731 67.4152 -3.41793 -0.162216 -0.983377 -0.0815858
1.95286 67.4233 -4.42372 -0.179552 -0.982179 -0.0555465
2.2588 67.4272 -5.41913 -0.177117 -0.981873 -0.0674846
2.35794 67.4718 -6.44032 -0.22127 -0.97314 -0.0635391
2.20023 67.5671 -7.56869 -0.242123 -0.968993 -0.0492915
1.86705 67.6921 -8.50982 -0.251396 -0.966707 -0.0454698
1.3489 67.8797 -9.36453 -0.262827 -0.963489 -0.051095
0.684075 68.1387 -10.2532 -0.296604 -0.953225 -0.058206
-0.109401 68.4708 -11.1459 -0.321423 -0.94441 -0.0691113
-0.795335 68.8207 -12.0528 -0.372367 -0.924165 -0.0850642
-1.49087 69.1945 -12.8611 -0.412946 -0.905997 -0.0929801
-2.11716 69.5863 -13.6881 -0.438726 -0.891513 -0.112803
-2.66297 69.9807 -14.5561 -0.482535 -0.869131 -0.108494
-3.23921 70.4493 -15.4722 -0.511079 -0.850833 -0.121681
-3.69607 70.8731 -16.2755 -0.547739 -0.825634 -0.135224
-4.12927 71.3428 -17.2054 -0.580077 -0.800896 -0.148369
-4.5731 71.8672 -18.1867 -0.608849 -0.774193 -0.172997
-4.90224 72.3721 -19.3081 -0.647941 -0.742443 -0.170149
-5.19022 72.8998 -20.3913 -0.698105 -0.69522 -0.171226
-5.42231 73.3527 -21.2928 -0.711284 -0.678541 -0.181614
-5.54315 73.7557 -22.2046 -0.727946 -0.660597 -0.183064
-5.68142 74.2497 -23.2623 -0.747297 -0.628629 -0.215344
-5.71006 74.6209 -24.2519 -0.779674 -0.590838 -0.207409
-5.77285 75.0521 -25.2185 -0.800509 -0.554305 -0.227882
-5.75653 75.4996 -26.318 -0.81635 -0.528858 -0.231779
-5.66507 75.8603 -27.4391 -0.831584 -0.502704 -0.236129
-5.52092 76.1574 -28.4592 -0.845706 -0.47031 -0.252163
-5.39727 76.5666 -29.523 -0.848058 -0.446163 -0.285894
-5.26596 76.9617 -30.5096 -0.853124 -0.42844 -0.297647
-5.65724 78.0688 -30.9595 -0.851612 -0.423968 -0.308168
-6.1381 79.0138 -30.9432 -0.845423 -0.428046 -0.31943
-6.66194 80.0002 -30.8609 -0.844489 -0.424754 -0.326224
-7.144 80.9597 -30.8427 -0.85033 -0.410404 -0.32939
-7.61346 81.939 -30.8595 -0.849687 -0.403378 -0.339413
-8.07831 82.9595 -30.8752 -0.853033 -0.394997 -0.341036
-8.60369 84.0956 -30.8363 -0.858809 -0.377001 -0.346818
-9.03394 85.0631 -30.8048 -0.857835 -0.368001 -0.358733
-9.45409 85.9589 -30.7006 -0.859801 -0.360637 -0.361502
-9.87311 86.4694 -30.189 -0.859423 -0.352339 -0.370471
-10.2151 86.1763 -29.1436 -0.85263 -0.347424 -0.390248
-10.5951 85.9199 -28.0934 -0.84285 -0.354725 -0.404691
-10.8434 85.5016 -27.2104 -0.838333 -0.364397 -0.405459
-11.0943 85.0309 -26.2964 -0.826913 -0.371669 -0.42196
-11.5272 84.5807 -25.0697 -0.809436 -0.395196 -0.434153
-11.8316 84.1677 -24.1482 -0.803808 -0.397578 -0.442521
-12.0566 83.4616 -23.0991 -0.789216 -0.423026 -0.445183
-12.2898 82.9403 -22.1951 -0.773076 -0.442044 -0.454918
-12.5315 82.4311 -21.2887 -0.758216 -0.468891 -0.453044
-12.6966 81.7941 -20.3653 -0.735817 -0.500145 -0.456539
-12.9983 81.3629 -19.4404 -0.722538 -0.505316 -0.47156
-13.0881 80.7399 -18.6152 -0.698966 -0.541272 -0.467409
-13.183 79.9774 -17.5316 -0.673568 -0.592302 -0.442135
-13.2696 79.4386 -16.6399 -0.642302 -0.627436 -0.440195
-13.3403 78.668 -15.3977 -0.638529 -0.641152 -0.425567
-13.4273 78.109 -14.4012 -0.605787 -0.664942 -0.436786
-13.4176 77.3919 -13.3534 -0.590543 -0.669211 -0.451016
-13.3294 76.5385 -12.2622 -0.574562 -0.656166 -0.489183
-13.3868 75.9735 -11.4372 -0.550445 -0.639767 -0.536313
-13.4483 75.3632 -10.5836 -0.517922 -0.679476 -0.519681
-13.322 74.5884 -9.66528 -0.468365 -0.720687 -0.511121
-13.1775 73.8068 -8.63557 -0.437078 -0.761831 -0.478097
-13.0364 73.2011 -7.78072 -0.406578 -0.784794 -0.467753
-12.8293 72.6307 -6.92857 -0.368324 -0.829196 -0.420424
-12.4743 72.088 -6.12583 -0.341581 -0.852591 -0.395487
-12.1165 71.5799 -5.30569 -0.322775 -0.866987 -0.37967
-11.6199 71.0555 -4.45428 -0.299473 -0.890301 -0.342942
-11.0748 70.5763 -3.67424 -0.277346 -0.904597 -0.323704
-10.2767 70.0408 -2.82078 -0.253698 -0.915055 -0.313546
-9.44637 69.5654 -2.0602 -0.244462 -0.922464 -0.298815
-8.65696 69.1017 -1.17954 -0.229038 -0.932525 -0.279173
-7.70428 68.6527 -0.343972 -0.190357 -0.944943 -0.266007
-6.58298 68.1994 0.565835 -0.168905 -0.953494 -0.24964
-5.76562 67.9043 1.18473 -0.143883 -0.961961 -0.232225
-4.83121 67.6352 1.77466 -0.127605 -0.966574 -0.222379
-3.88698 67.3938 2.32122 -0.117566 -0.975813 -0.184301
-2.75669 67.2008 2.70863 -0.0941418 -0.980747 -0.171093
-1.60071 67.1205 2.56733 -0.0946236 -0.983361 -0.155075
-0.762621 67.1963 1.50732 -0.103267 -0.985385 -0.13543
-0.205328 67.2654 0.506567 -0.110317 -0.98672 -0.11922
0.282151 67.3344 -0.589305 -0.128305 -0.984937 -0.11592
1.19713 67.1856 -0.220894 -0.0993106 -0.99039 -0.0962574
1.81083 67.2215 -1.51259 -0.118788 -0.989756 -0.0792019
2.24783 67.2321 -2.51234 -0.137761 -0.988466 -0.062898
2.6686 67.2334 -3.49057 -0.147673 -0.986813 -0.0662839
3.07854 67.2304 -4.56716 -0.164544 -0.984898 -0.0538567
3.35002 67.229 -5.64528 -0.184348 -0.981641 -0.0471263
3.37629 67.2722 -6.82994 -0.204403 -0.978267 -0.0346454
3.14541 67.3621 -7.95812 -0.221504 -0.974522 -0.0352447
2.77696 67.4836 -8.95931 -0.244285 -0.969054 -0.0354752
2.07797 67.6975 -10.0766 -0.284862 -0.958373 -0.0193709
1.40231 67.9384 -10.9391 -0.319033 -0.947286 -0.0294381
0.621051 68.2534 -11.8399 -0.347219 -0.937435 -0.025594
-0.163348 68.6172 -12.8256 -0.383485 -0.921942 -0.0541117
-0.850142 68.9621 -13.5709 -0.413269 -0.908071 -0.0664634
-1.64465 69.4467 -14.6932 -0.457264 -0.885597 -0.0794776
-2.23236 69.8658 -15.5945 -0.489639 -0.866946 -0.0926031
-2.83037 70.3473 -16.5567 -0.525847 -0.846347 -0.0826131
-3.30858 70.8139 -17.6125 -0.579735 -0.805369 -0.122479
-3.78551 71.3127 -18.5678 -0.609228 -0.783886 -0.116397
-4.14869 71.7906 -19.6649 -0.635364 -0.762828 -0.118945
-4.44871 72.2647 -20.7385 -0.677265 -0.719245 -0.154915
-4.72674 72.743 -21.7024 -0.717123 -0.679526 -0.154853
-4.90872 73.1765 -22.6968 -0.738979 -0.652578 -0.167489
-5.05471 73.5919 -23.6368 -0.769648 -0.617438 -0.162518
-5.07092 73.9196 -24.7161 -0.796829 -0.579816 -0.169161
-5.20345 74.471 -25.8742 -0.827261 -0.529576 -0.187587
-5.16573 74.8148 -26.9425 -0.838518 -0.504678 -0.205397
-5.09442 75.1226 -27.9358 -0.843352 -0.483059 -0.235038
-4.9907 75.4431 -28.9223 -0.852275 -0.455571 -0.256897
-4.8761 75.7727 -29.8654 -0.858387 -0.438022 -0.267037
-4.67919 76.1877 -31.1166 -0.861058 -0.421658 -0.284225
-4.65848 76.742 -31.9631 -0.859652 -0.407902 -0.307595
-5.17629 77.7989 -31.9304 -0.853669 -0.416312 -0.312944
-5.67672 78.8125 -31.9122 -0.852067 -0.417136 -0.316174
-6.20019 79.8443 -31.8703 -0.850518 -0.418264 -0.318865
-6.67507 80.774 -31.818 -0.850048 -0.414211 -0.325342
-7.13493 81.7114 -31.799 -0.852039 -0.408567 -0.327266
-7.57452 82.7001 -31.8404 -0.855935 -0.394865 -0.333799
-8.08507 83.8116 -31.8156 -0.861658 -0.380669 -0.335553
-8.5489 84.8522 -31.7825 -0.86439 -0.371509 -0.338822
-8.97071 85.791 -31.7042 -0.870432 -0.354928 -0.341137
-9.34992 86.7347 -31.6984 -0.87592 -0.342956 -0.339331
-9.87521 87.7906 -31.4004 -0.875008 -0.322692 -0.360876
-10.2376 87.5154 -30.284 -0.867381 -0.332432 -0.370322
-10.5032 87.1587 -29.3684 -0.857636 -0.328917 -0.395259
-10.8852 86.9243 -28.3485 -0.854526 -0.339011 -0.393519
-11.23 86.6076 -27.3686 -0.842734 -0.340549 -0.416854
-11.4864 86.0709 -26.4216 -0.831779 -0.34729 -0.433051
-11.808 85.7189 -25.5108 -0.820395 -0.357466 -0.446192
-12.1666 85.3203 -24.5451 -0.812037 -0.360448 -0.458904
-12.4773 84.8784 -23.6393 -0.793785 -0.389483 -0.467037
-12.6445 84.2707 -22.8302 -0.774897 -0.417177 -0.474831
-12.8936 83.7488 -21.9545 -0.766087 -0.441431 -0.466963
-13.1878 83.2385 -21.0184 -0.752338 -0.438826 -0.491114
-13.3673 82.4805 -20.0289 -0.738586 -0.459573 -0.493127
-13.6569 81.9773 -19.1117 -0.706714 -0.498242 -0.502304
-13.7738 81.3767 -18.3213 -0.69564 -0.524913 -0.490423
-13.9428 80.7935 -17.4224 -0.678534 -0.563181 -0.471613
-14.0099 80.1515 -16.5472 -0.639124 -0.611571 -0.466371
-14.127 79.6119 -15.6505 -0.621149 -0.642158 -0.44923
-14.1617 79.0567 -14.8062 -0.603608 -0.654505 -0.455281
-14.22 78.4019 -13.7659 -0.598018 -0.663035 -0.450256
-14.2344 77.7998 -12.8751 -0.598528 -0.658628 -0.45604
-14.1992 76.8828 -11.7022 -0.585196 -0.645334 -0.490854
-14.2366 76.1783 -10.8132 -0.560739 -0.627808 -0.539842
-14.2791 75.3404 -9.78328 -0.491317 -0.677938 -0.546663
-14.1549 74.6619 -9.00391 -0.45612 -0.724631 -0.516352
-14.0947 73.9539 -8.04869 -0.426237 -0.759276 -0.491755
-13.9069 73.3177 -7.23008 -0.401356 -0.780863 -0.478713
-13.6702 72.6786 -6.33212 -0.337924 -0.836882 -0.430622
-13.3163 72.1087 -5.49016 -0.319781 -0.848993 -0.420656
-12.8496 71.4858 -4.50029 -0.298589 -0.870098 -0.392141
-12.2678 70.9056 -3.5615 -0.273769 -0.889184 -0.366608
-11.6211 70.39 -2.73312 -0.257585 -0.902559 -0.345018
-10.7381 69.8197 -1.83941 -0.237181 -0.916553 -0.321826
-9.91965 69.3425 -1.02268 -0.213836 -0.931048 -0.295674
-9.18084 68.9382 -0.253073 -0.194899 -0.936288 -0.292195
-8.32225 68.5567 0.434972 -0.185547 -0.93926 -0.288727
-7.54829 68.2178 1.112 -0.158748 -0.950133 -0.268255
-6.70349 67.9115 1.73765 -0.144786 -0.955913 -0.25528
-5.8915 67.6361 2.37412 -0.12202 -0.964618 -0.233706
-4.9842 67.4042 2.87723 -0.124335 -0.968516 -0.215678
-4.09136 67.2022 3.37145 -0.0981089 -0.97475 -0.200589
-2.82929 67.01 3.79279 -0.0694518 -0.981597 -0.177375
-1.70269 66.9328 3.79664 -0.072931 -0.983846 -0.163485
-0.780893 66.9444 3.3138 -0.0586614 -0.988885 -0.136619
-0.06999 67.0133 2.4409 -0.0878695 -0.989134 -0.117869
0.395605 67.078 1.54607 -0.0870392 -0.989315 -0.116961
0.916052 67.1442 0.498084 -0.0945642 -0.990262 -0.101709
1.09273 67.1746 -0.00086916 -0.0993106 -0.99039 -0.0962574
2.01409 67.0517 0.354712 -0.0799496 -0.993274 -0.083753
2.53216 67.0703 -0.636054 -0.106323 -0.991822 -0.0706039
2.94187 67.0779 -1.60303 -0.127014 -0.989796 -0.0645864
3.38556 67.0751 -2.64549 -0.14384 -0.987977 -0.0566691
3.75512 67.0691 -3.5814 -0.149079 -0.987737 -0.0463779
4.18782 67.0406 -4.61963 -0.169266 -0.984687 -0.041712
4.43065 67.0212 -5.6302 -0.198102 -0.980043 -0.0161737
4.40214 67.0552 -6.80505 -0.205696 -0.978107 -0.0315697
4.16609 67.1459 -8.07252 -0.201815 -0.97892 -0.0314095
3.78138 67.2323 -9.11765 -0.228788 -0.973207 0.0207343
3.11295 67.4063 -10.3253 -0.273693 -0.961782 0.00815938
2.43468 67.6095 -11.2267 -0.292556 -0.9561 0.00307285
1.71646 67.8614 -12.1638 -0.342525 -0.939396 -0.0145306
0.974038 68.1541 -12.9625 -0.368356 -0.929431 -0.0217115
0.148397 68.5341 -13.9083 -0.407352 -0.912606 -0.0292283
-0.694341 68.9861 -14.9555 -0.453378 -0.889248 -0.0600424
-1.32583 69.3759 -15.8725 -0.477413 -0.875697 -0.0674265
-1.81973 69.7321 -16.7494 -0.514732 -0.855449 -0.0526786
-2.2916 70.1095 -17.6183 -0.560201 -0.824405 -0.0808211
-2.83604 70.619 -18.6567 -0.591335 -0.800322 -0.0990338
-3.30492 71.1052 -19.737 -0.640127 -0.762656 -0.0926986
-3.64423 71.5227 -20.7195 -0.659232 -0.743992 -0.109036
-3.92961 71.9497 -21.807 -0.699436 -0.705313 -0.115419
-4.23757 72.5013 -23.0895 -0.738316 -0.664752 -0.11332
-4.41595 72.9174 -24.1255 -0.763617 -0.627606 -0.150326
-4.48412 73.2096 -25.1629 -0.814019 -0.567823 -0.12021
-4.60708 73.6289 -26.0701 -0.815313 -0.559708 -0.147896
-4.5735 73.9692 -27.261 -0.836988 -0.521518 -0.164481
-4.60673 74.4164 -28.2799 -0.854095 -0.476236 -0.209039
-4.45078 74.5883 -29.2673 -0.864342 -0.443945 -0.235821
-4.31622 74.9574 -30.3495 -0.862681 -0.432319 -0.262455
-4.10292 75.2496 -31.5207 -0.878177 -0.402007 -0.25922
-3.95029 75.7643 -32.7072 -0.870215 -0.392576 -0.297599
-4.32749 76.7728 -32.9443 -0.864193 -0.39518 -0.311453
-4.77169 77.6696 -32.881 -0.857322 -0.410447 -0.310696
-5.28114 78.7082 -32.8494 -0.853515 -0.414433 -0.315843
-5.72701 79.6383 -32.8652 -0.853552 -0.414302 -0.315917
-6.2241 80.7068 -32.919 -0.852212 -0.410993 -0.323758
-6.76276 81.7218 -32.7853 -0.852698 -0.409079 -0.324902
-7.30121 82.9331 -32.8257 -0.861281 -0.389027 -0.326877
-7.75749 83.9104 -32.769 -0.866426 -0.37775 -0.326513
-8.20515 84.9213 -32.7417 -0.867598 -0.37243 -0.329499
-8.72996 86.164 -32.7059 -0.875187 -0.351812 -0.33208
-9.24808 87.4524 -32.6721 -0.881351 -0.337044 -0.331093
-9.62433 88.4363 -32.6563 -0.886228 -0.322656 -0.332403
-10.0599 88.9902 -32.0403 -0.887756 -0.307651 -0.342403
-10.3516 88.7639 -31.111 -0.876874 -0.320526 -0.358266
-10.6585 88.4513 -30.1095 -0.872137 -0.314148 -0.375085
-11.0223 88.0652 -28.9961 -0.861828 -0.319557 -0.393871
-11.4491 87.7173 -27.8141 -0.851109 -0.323828 -0.413212
-11.7748 87.3686 -26.8964 -0.840682 -0.329489 -0.429621
-12.0579 86.8802 -25.9604 -0.836807 -0.336891 -0.431577
-12.4992 86.4499 -24.8379 -0.815514 -0.351533 -0.45974
-12.9599 85.8963 -23.6329 -0.800366 -0.366615 -0.47435
-13.2481 85.1917 -22.6166 -0.774079 -0.398608 -0.491846
-13.5046 84.6325 -21.751 -0.768682 -0.41114 -0.489991
-13.7659 84.1233 -20.9314 -0.747214 -0.434369 -0.502986
-13.9711 83.4913 -20.0727 -0.740108 -0.451638 -0.49826
-14.3118 82.6218 -18.8508 -0.693981 -0.483752 -0.531863
-14.482 82.0132 -18.0192 -0.676108 -0.517363 -0.524504
-14.7504 81.383 -17.018 -0.659262 -0.545913 -0.517062
-14.8288 80.7396 -16.1942 -0.639811 -0.586353 -0.496819
-14.9633 80.1213 -15.2517 -0.600364 -0.629034 -0.492546
-14.9688 79.5441 -14.439 -0.600644 -0.661683 -0.448713
-15.0344 78.9922 -13.5622 -0.593738 -0.663418 -0.455359
-15.0155 78.3756 -12.6895 -0.593253 -0.657216 -0.464772
-15.0748 77.7741 -11.8208 -0.606562 -0.600288 -0.520719
-15.0811 76.9685 -10.8455 -0.575162 -0.600947 -0.55316
-15.1881 76.0982 -9.84333 -0.45311 -0.588248 -0.657669
-15.1725 75.4096 -9.10614 -0.484 -0.662603 -0.571578
-15.0486 74.7417 -8.35779 -0.439916 -0.707604 -0.552839
-14.9656 74.0844 -7.50089 -0.432546 -0.741195 -0.51322
-14.7473 73.3834 -6.70039 -0.341032 -0.759722 -0.551131
-14.5003 72.6252 -5.62177 -0.299074 -0.844251 -0.444736
-14.1474 72.055 -4.7589 -0.284439 -0.858616 -0.426465
-13.6836 71.4818 -3.8716 -0.280349 -0.872732 -0.39961
-13.1663 70.9595 -3.02869 -0.263528 -0.891471 -0.36847
-12.5118 70.429 -2.1816 -0.245986 -0.901599 -0.355824
-11.7754 69.9152 -1.3528 -0.239423 -0.909991 -0.338515
-11.0521 69.4667 -0.626086 -0.210967 -0.924007 -0.31864
-10.3738 69.0913 0.038829 -0.200456 -0.924837 -0.323256
-9.60971 68.7048 0.761508 -0.179776 -0.936716 -0.300407
-8.70091 68.3356 1.40155 -0.165076 -0.942202 -0.29151
-7.97076 67.9997 2.11214 -0.122439 -0.952534 -0.278724
-7.11089 67.7271 2.65771 -0.130325 -0.955772 -0.263658
-6.30608 67.455 3.31677 -0.112387 -0.964094 -0.240557
-5.37164 67.2427 3.75416 -0.104583 -0.965705 -0.237649
-4.37522 67.0207 4.3437 -0.0888093 -0.972744 -0.214201
-3.17853 66.8501 4.81613 -0.0525215 -0.982308 -0.179684
-1.78667 66.7629 4.92925 -0.0395634 -0.987387 -0.152543
-0.821245 66.7541 4.63415 -0.0527137 -0.986722 -0.153168
0.00637227 66.8102 4.00334 -0.0379327 -0.989857 -0.136877
0.908986 66.8812 2.95554 -0.0702759 -0.993359 -0.0910982
1.34434 66.9411 2.03687 -0.0771647 -0.991104 -0.108433
1.85234 67.0281 0.790307 -0.0791561 -0.992543 -0.0921758
1.91161 67.039 0.602919 -0.0799346 -0.993276 -0.0837456
-12.8039 75.8244 -11.8896 -0.550509 -0.67939 -0.485149
-12.3417 74.9458 -11.1639 -0.526357 -0.702359 -0.479207
-12.1868 74.1719 -10.1541 -0.490719 -0.73512 -0.467753
-12.2716 73.6112 -9.15328 -0.45168 -0.769321 -0.451808
-12.4514 73.3623 -8.58856 -0.432248 -0.774929 -0.461137
-12.2766 72.3975 -6.95284 -0.368326 -0.829203 -0.420427
-11.5872 72.6265 -8.05909 -0.391837 -0.81766 -0.421777
-11.1013 73.0026 -9.26383 -0.4263 -0.796186 -0.429367
-10.9509 73.6857 -10.6598 -0.486142 -0.755299 -0.439532
-11.2827 74.4595 -11.5675 -0.527231 -0.72204 -0.447979
-11.827 75.2998 -12.27 -0.557177 -0.698627 -0.448859
-12.5045 76.3335 -12.9989 -0.586058 -0.676143 -0.446505
-12.8953 76.8252 -13.2042 -0.592703 -0.664159 -0.455626
-12.9854 77.5912 -14.2279 -0.618106 -0.665875 -0.417798
-12.2328 76.7009 -13.8898 -0.59846 -0.67099 -0.437741
-11.4805 75.7222 -13.3948 -0.588215 -0.681843 -0.434849
-10.8545 74.858 -12.8058 -0.577417 -0.708187 -0.406278
-10.2843 74.0536 -12.1439 -0.517697 -0.755734 -0.401069
-9.81996 73.3305 -11.3507 -0.509504 -0.775303 -0.373244
-9.64756 72.7172 -10.3106 -0.45415 -0.79959 -0.392943
-9.92903 72.3138 -9.13298 -0.409353 -0.840728 -0.35441
-10.4625 72.1249 -8.11675 -0.407624 -0.828981 -0.382927
-11.0341 71.9277 -7.13365 -0.366813 -0.856173 -0.36389
-11.5525 71.8511 -6.46244 -0.349912 -0.860952 -0.36922
-11.2762 71.3409 -5.47428 -0.333615 -0.870739 -0.361269
-10.4663 71.406 -6.45406 -0.347151 -0.867614 -0.355995
-9.6759 71.5195 -7.54752 -0.358483 -0.871127 -0.335601
-9.02591 71.6226 -8.51832 -0.377816 -0.859705 -0.343746
-8.38642 71.7948 -9.73485 -0.40317 -0.855077 -0.326033
-8.09126 72.0509 -10.7995 -0.470232 -0.821924 -0.321439
-8.49491 72.7807 -12.0055 -0.50707 -0.791121 -0.342062
-9.10783 73.5047 -12.7078 -0.553747 -0.761696 -0.336428
-9.80558 74.3082 -13.3169 -0.56921 -0.739231 -0.359913
-10.5735 75.2539 -13.9175 -0.598985 -0.702313 -0.384673
-11.3927 76.2983 -14.5009 -0.625476 -0.679732 -0.383071
-12.1102 77.1672 -14.8512 -0.619868 -0.680881 -0.390083
-12.8916 78.0525 -15.1135 -0.61846 -0.669408 -0.411583
-12.9031 78.0656 -15.1172 -0.630571 -0.654073 -0.417814
-12.7782 78.4861 -15.9558 -0.6317 -0.648275 -0.425082
-12.021 77.6056 -15.738 -0.642132 -0.653234 -0.401188
-11.1357 76.5784 -15.4036 -0.633508 -0.674877 -0.378429
-10.3308 75.6077 -14.9923 -0.629766 -0.68219 -0.371498
-9.50108 74.6388 -14.4992 -0.605683 -0.712117 -0.355018
-8.58139 73.6529 -13.9233 -0.572809 -0.758599 -0.310511
-7.87165 72.9305 -13.3969 -0.552132 -0.779954 -0.294656
-7.21129 72.2223 -12.6725 -0.519274 -0.806778 -0.281892
-6.8969 71.679 -11.5957 -0.464017 -0.84335 -0.271015
-7.05696 71.2988 -10.1671 -0.416646 -0.86376 -0.283416
-7.54916 71.1369 -8.96905 -0.386767 -0.875941 -0.288338
-8.4128 71.0589 -7.70399 -0.356929 -0.882077 -0.307476
-9.22354 71.0053 -6.6416 -0.334451 -0.889196 -0.312206
-10.029 70.94 -5.64008 -0.31827 -0.897595 -0.305002
-10.7935 70.8907 -4.759 -0.30668 -0.891683 -0.332939
-10.4483 70.4528 -3.85744 -0.270148 -0.90728 -0.322277
-9.67474 70.5062 -4.71273 -0.287364 -0.909347 -0.300847
-8.86303 70.5513 -5.68036 -0.314997 -0.903784 -0.289744
-8.04329 70.5798 -6.68524 -0.339757 -0.899175 -0.275771
-7.24466 70.5938 -7.70179 -0.333902 -0.899813 -0.280797
-6.54708 70.6476 -8.81349 -0.367317 -0.892783 -0.2608
-6.03354 70.7505 -9.97266 -0.407495 -0.878726 -0.248573
-5.72823 70.9663 -11.3138 -0.450375 -0.863074 -0.228615
-5.67892 71.2812 -12.5833 -0.489187 -0.842066 -0.227204
-6.05608 71.7649 -13.5466 -0.521713 -0.819711 -0.23641
-6.89513 72.5663 -14.3339 -0.546544 -0.794986 -0.263224
-8.0184 73.6443 -14.9842 -0.590967 -0.750689 -0.295337
-8.95893 74.6023 -15.4205 -0.613367 -0.719214 -0.326364
-9.83457 75.5793 -15.8403 -0.643443 -0.685873 -0.339939
-10.626 76.5192 -16.2029 -0.659477 -0.66572 -0.349152
-11.4753 77.5068 -16.4885 -0.657939 -0.65855 -0.365278
-12.4317 78.6372 -16.743 -0.651976 -0.632444 -0.418261
-12.8456 79.1307 -16.8441 -0.657014 -0.62762 -0.417644
-12.6979 79.5344 -17.6771 -0.673865 -0.595322 -0.437605
-11.857 78.497 -17.4899 -0.674901 -0.627444 -0.388359
-11.0217 77.4958 -17.3006 -0.668934 -0.650619 -0.359474
-10.2348 76.572 -17.0659 -0.65944 -0.672408 -0.336165
-9.42394 75.6323 -16.7552 -0.655535 -0.685611 -0.316562
-8.49286 74.6041 -16.3701 -0.631394 -0.718742 -0.291121
-7.70257 73.8069 -16.096 -0.620522 -0.730248 -0.285815
-6.78535 72.9454 -15.7455 -0.607787 -0.755097 -0.245814
-5.96581 72.2221 -15.335 -0.555844 -0.804013 -0.211189
-5.1403 71.4986 -14.7591 -0.530047 -0.82343 -0.202518
-4.53024 70.9318 -13.9047 -0.510057 -0.840345 -0.183473
-4.3494 70.5911 -12.7758 -0.445109 -0.876984 -0.181047
-4.58054 70.4366 -11.4762 -0.41361 -0.888976 -0.196591
-4.98075 70.3131 -10.1562 -0.402147 -0.893606 -0.199363
-5.48874 70.2336 -8.92446 -0.362151 -0.903218 -0.230311
-6.0495 70.18 -7.86052 -0.347754 -0.904538 -0.246733
-7.02294 70.1755 -6.53724 -0.322919 -0.909727 -0.260999
-8.06137 70.1603 -5.2752 -0.293565 -0.916942 -0.270254
-9.07299 70.1142 -4.10212 -0.27763 -0.919266 -0.279056
-9.83902 70.0623 -3.24205 -0.269466 -0.916298 -0.296287
-9.87656 70.0597 -3.19994 -0.261724 -0.915706 -0.30493
-9.0834 69.7032 -2.78602 -0.249452 -0.923877 -0.290216
-8.0098 69.7656 -3.99516 -0.276254 -0.922015 -0.271242
-7.24858 69.7913 -4.88679 -0.280086 -0.924861 -0.257262
-6.50204 69.7987 -5.78908 -0.307279 -0.920686 -0.240661
-5.77763 69.8048 -6.7734 -0.330098 -0.91656 -0.225729
-5.00096 69.8042 -7.9168 -0.342993 -0.914833 -0.213159
-4.35081 69.8444 -9.25724 -0.376991 -0.9054 -0.195266
-3.86963 69.8812 -10.3926 -0.370465 -0.911784 -0.177219
-3.45375 69.9224 -11.6303 -0.397047 -0.904321 -0.156706
-3.20265 70.0003 -12.7987 -0.447139 -0.880699 -0.156319
-3.22835 70.2231 -14.1169 -0.469864 -0.873299 -0.12875
-3.64167 70.63 -15.1189 -0.513376 -0.844596 -0.151996
-4.3371 71.2322 -15.9284 -0.544201 -0.819329 -0.180401
-5.12674 71.9007 -16.4607 -0.579935 -0.794128 -0.181758
-6.23259 72.8621 -16.8792 -0.603216 -0.761556 -0.236988
-7.26695 73.8107 -17.137 -0.633308 -0.729882 -0.257278
-8.1968 74.7484 -17.3811 -0.659883 -0.697024 -0.280556
-8.95771 75.5945 -17.6553 -0.662008 -0.682485 -0.309774
-9.80837 76.5765 -17.9276 -0.680195 -0.656799 -0.325499
-10.6484 77.5741 -18.134 -0.688458 -0.634256 -0.351774
-11.6747 78.8344 -18.3328 -0.68223 -0.612366 -0.399463
-12.4245 79.799 -18.4544 -0.698156 -0.568828 -0.434756
-12.4744 79.8648 -18.4602 -0.685966 -0.580652 -0.438512
-12.6195 80.7221 -19.3025 -0.706731 -0.544142 -0.452151
-11.7301 79.507 -19.2114 -0.712011 -0.573102 -0.405702
-10.8915 78.4138 -19.0946 -0.704818 -0.606367 -0.368172
-10.1625 77.5073 -18.9692 -0.702886 -0.623493 -0.342357
-9.34325 76.532 -18.8187 -0.688941 -0.650493 -0.319717
-8.31315 75.342 -18.5237 -0.681281 -0.67495 -0.28337
-7.55094 74.4984 -18.3054 -0.672336 -0.693514 -0.258849
-6.70751 73.6471 -18.1345 -0.63731 -0.734175 -0.234142
-5.55135 72.5783 -17.9008 -0.624427 -0.753993 -0.203925
-4.91885 72.0375 -17.7319 -0.608849 -0.774193 -0.172997
-5.37511 72.7242 -19.0438 -0.648023 -0.742376 -0.170131
-6.212 73.5186 -19.1743 -0.658201 -0.72509 -0.202524
-7.01215 74.3587 -19.3217 -0.678599 -0.692734 -0.244179
-8.04817 75.506 -19.5516 -0.688183 -0.670106 -0.27814
-8.80074 76.3797 -19.6997 -0.703539 -0.643399 -0.301779
-9.62387 77.3824 -19.8521 -0.699416 -0.627534 -0.34208
-10.3773 78.3238 -19.9436 -0.713533 -0.599154 -0.36316
-11.1246 79.3218 -20.0206 -0.721754 -0.562783 -0.402923
-11.9534 80.4949 -20.1209 -0.731676 -0.520339 -0.440337
-12.4451 81.222 -20.144 -0.739803 -0.496994 -0.453529
-12.2555 81.6929 -20.985 -0.75548 -0.484252 -0.441304
-11.5484 80.6179 -20.9605 -0.743872 -0.523461 -0.415503
-10.8054 79.5166 -20.9005 -0.741683 -0.555972 -0.375235
-10.0948 78.5521 -20.8625 -0.741178 -0.56337 -0.36506
-9.25745 77.4511 -20.7593 -0.721145 -0.603498 -0.340206
-8.40068 76.3754 -20.623 -0.714952 -0.632595 -0.29777
-7.57938 75.404 -20.5073 -0.715443 -0.643214 -0.272795
-6.57302 74.2567 -20.3412 -0.697722 -0.674207 -0.242132
-5.69086 73.3283 -20.2068 -0.670739 -0.713972 -0.200882
-5.85806 73.8324 -21.3075 -0.721169 -0.66401 -0.197499
-6.79036 74.8783 -21.4089 -0.718692 -0.649241 -0.248933
-7.61564 75.8761 -21.5126 -0.729689 -0.619528 -0.289376
-8.4129 76.8944 -21.6214 -0.737089 -0.603823 -0.303475
-9.12662 77.8446 -21.7156 -0.728555 -0.586248 -0.35429
-9.82262 78.7909 -21.7743 -0.739525 -0.559187 -0.374717
-10.5706 79.8664 -21.8094 -0.758523 -0.519653 -0.393195
-11.3317 81.0261 -21.8436 -0.756515 -0.505946 -0.414371
-11.9814 82.0743 -21.8494 -0.767223 -0.473764 -0.432338
-11.8574 82.7235 -22.7244 -0.783643 -0.447517 -0.43085
-11.0636 81.3902 -22.7363 -0.770166 -0.479319 -0.420831
-10.368 80.2727 -22.7196 -0.767822 -0.503996 -0.395522
-9.74033 79.3175 -22.6911 -0.76164 -0.526475 -0.377794
-8.98596 78.2258 -22.6547 -0.765813 -0.541331 -0.347117
-8.25567 77.2054 -22.5831 -0.758227 -0.575485 -0.306446
-7.4418 76.1194 -22.4868 -0.749881 -0.594578 -0.290097
-6.53654 74.9613 -22.3892 -0.751462 -0.61092 -0.24916
-5.97132 74.2883 -22.3566 -0.73461 -0.638668 -0.229023
-6.07554 74.7719 -23.3719 -0.765744 -0.600503 -0.230286
-6.90891 75.8642 -23.4339 -0.76781 -0.578488 -0.275354
-7.59322 76.8234 -23.4932 -0.781242 -0.549766 -0.295668
-8.32125 77.8558 -23.556 -0.768444 -0.553645 -0.320891
-9.07738 78.969 -23.5943 -0.771173 -0.527393 -0.35658
-9.80925 80.1105 -23.6143 -0.774565 -0.501438 -0.385498
-10.5476 81.316 -23.6369 -0.779417 -0.474574 -0.40901
-11.2102 82.4531 -23.6287 -0.78976 -0.44749 -0.419562
-11.684 83.3017 -23.6087 -0.793391 -0.426511 -0.434303
-11.358 83.6122 -24.5093 -0.798702 -0.412098 -0.438464
-10.7688 82.5244 -24.5352 -0.80372 -0.427896 -0.413447
-10.0061 81.1829 -24.5417 -0.790846 -0.460381 -0.403252
-9.36935 80.1068 -24.5334 -0.79235 -0.487493 -0.366786
-8.68567 79.001 -24.5154 -0.787203 -0.507844 -0.349866
-8.05127 78.0231 -24.5019 -0.784164 -0.525744 -0.329667
-7.27521 76.8725 -24.454 -0.789788 -0.5421 -0.286989
-6.46688 75.7088 -24.4047 -0.794296 -0.553519 -0.250421
-6.114 75.194 -24.386 -0.781244 -0.578388 -0.234788
-6.16085 75.6922 -25.3874 -0.806562 -0.533294 -0.25506
-6.95569 76.9025 -25.4101 -0.810882 -0.516994 -0.274203
-7.5905 77.9003 -25.4481 -0.795809 -0.519373 -0.311351
-8.22194 78.9035 -25.4544 -0.800471 -0.492215 -0.342009
-8.9079 80.04 -25.4585 -0.808305 -0.468363 -0.356762
-9.60154 81.2612 -25.4673 -0.810701 -0.45508 -0.368328
-10.312 82.5509 -25.4558 -0.80956 -0.43139 -0.39814
-10.9306 83.7243 -25.4254 -0.81758 -0.391064 -0.42265
-11.1058 84.0745 -25.4105 -0.81665 -0.392276 -0.423324
-10.876 84.5709 -26.3152 -0.827075 -0.37544 -0.418319
-10.3545 83.5279 -26.3586 -0.825119 -0.391367 -0.407443
-9.82824 82.4947 -26.3874 -0.817569 -0.423759 -0.389884
-9.29535 81.481 -26.3946 -0.815117 -0.442179 -0.374249
-8.58167 80.1983 -26.3913 -0.811583 -0.458809 -0.361702
-7.91071 79.0408 -26.3988 -0.814845 -0.468987 -0.340703
-7.21233 77.8648 -26.3965 -0.814944 -0.497255 -0.297665
-6.43326 76.593 -26.3715 -0.810882 -0.516995 -0.274202
-6.10013 76.0585 -26.3657 -0.818668 -0.512813 -0.258467
-6.00995 76.4008 -27.3429 -0.836219 -0.484081 -0.257688
-6.58611 77.3915 -27.3436 -0.823668 -0.48805 -0.288754
-7.3404 78.7157 -27.3514 -0.827072 -0.461638 -0.32069
-7.95461 79.7969 -27.3382 -0.82058 -0.459953 -0.339252
-8.65723 81.0849 -27.3277 -0.817545 -0.447034 -0.363017
-9.21323 82.1508 -27.3251 -0.823225 -0.423329 -0.378277
-9.86496 83.4455 -27.2984 -0.832164 -0.397158 -0.387001
-10.4973 84.7502 -27.2443 -0.831053 -0.380775 -0.405415
-10.5212 84.8004 -27.2417 -0.838347 -0.367304 -0.402817
-10.2213 85.1238 -28.1674 -0.841118 -0.367651 -0.396677
-9.62749 83.8603 -28.225 -0.84217 -0.386428 -0.376062
-9.07724 82.7188 -28.2579 -0.835691 -0.401492 -0.374733
-8.51555 81.602 -28.2704 -0.836191 -0.41655 -0.356751
-7.8974 80.4138 -28.2824 -0.833333 -0.437651 -0.337665
-7.3556 79.4064 -28.2954 -0.832139 -0.442511 -0.334258
-6.80278 78.3932 -28.3035 -0.835193 -0.451122 -0.314551
-6.20927 77.3167 -28.3062 -0.83925 -0.458931 -0.291618
-5.8333 76.6337 -28.3085 -0.841699 -0.462127 -0.279251
-5.69114 76.9622 -29.2703 -0.843968 -0.455392 -0.283436
-6.26274 78.0463 -29.2582 -0.839136 -0.447483 -0.309209
-6.81182 79.0868 -29.2489 -0.839584 -0.438057 -0.321256
-7.43199 80.2633 -29.2374 -0.840484 -0.425331 -0.335678
-7.98162 81.3383 -29.2245 -0.839436 -0.41979 -0.345144
-8.51279 82.4188 -29.2059 -0.840788 -0.405353 -0.358839
-9.02934 83.4872 -29.1819 -0.842619 -0.385148 -0.376371
-9.66004 84.8412 -29.1296 -0.84906 -0.370145 -0.376949
-9.95471 85.4993 -29.0935 -0.852379 -0.360194 -0.379092
-9.406 85.2084 -30.06 -0.85904 -0.36623 -0.357667
-8.86141 83.9986 -30.1113 -0.853771 -0.382011 -0.353755
-8.2057 82.5984 -30.1523 -0.846191 -0.39944 -0.352717
-7.69234 81.5426 -30.1741 -0.84625 -0.411311 -0.338651
-7.08668 80.3278 -30.1897 -0.844659 -0.41947 -0.332559
-6.46275 79.1056 -30.204 -0.843261 -0.434525 -0.316385
-5.93366 78.0713 -30.2087 -0.847861 -0.428968 -0.311639
-5.65041 77.5259 -30.2154 -0.850757 -0.432872 -0.298051
-2.15201 69.5042 -12.9139 -0.439117 -0.890821 -0.116682
-2.46502 69.4665 -11.56 -0.378439 -0.916762 -0.127791
-2.84105 69.4603 -10.4658 -0.365619 -0.919605 -0.143699
-3.28658 69.456 -9.39885 -0.336593 -0.926519 -0.16813
-3.78836 69.4443 -8.34411 -0.328017 -0.929234 -0.170083
-4.39416 69.4448 -7.25141 -0.307298 -0.934681 -0.178717
-5.06071 69.4463 -6.25372 -0.295847 -0.931836 -0.210133
-5.91019 69.4425 -5.13317 -0.285371 -0.928688 -0.236859
-6.64419 69.4313 -4.21446 -0.269904 -0.931144 -0.2452
-7.59445 69.4038 -3.14017 -0.258711 -0.931013 -0.257455
-8.57063 69.3383 -2.04079 -0.229038 -0.932525 -0.279173
-8.64528 69.3322 -1.95915 -0.228671 -0.932618 -0.279166
-7.88196 69.0085 -1.47191 -0.210457 -0.942469 -0.259732
-7.11442 69.0594 -2.32247 -0.224115 -0.942202 -0.249053
-6.35057 69.0884 -3.1971 -0.241671 -0.942601 -0.230431
-5.58729 69.1068 -4.11223 -0.259583 -0.940318 -0.220044
-4.81553 69.1281 -5.13573 -0.28 -0.938564 -0.201735
-4.01481 69.1118 -6.24128 -0.294617 -0.935453 -0.195267
-3.39561 69.1043 -7.22744 -0.328138 -0.929977 -0.165736
-2.78753 69.0933 -8.37568 -0.307276 -0.938989 -0.154536
-2.25377 69.0798 -9.48064 -0.331097 -0.933843 -0.135322
-1.73113 69.0576 -10.7417 -0.356208 -0.927177 -0.116012
-1.44933 69.0361 -11.5539 -0.364622 -0.926193 -0.0960091
-0.628958 68.6493 -10.8762 -0.366334 -0.926905 -0.0815248
-1.12545 68.7012 -9.65502 -0.328715 -0.938401 -0.106539
-1.65984 68.7459 -8.59415 -0.303868 -0.944282 -0.126471
-2.29476 68.7794 -7.38627 -0.305337 -0.941958 -0.139587
-2.98952 68.7982 -6.16162 -0.274345 -0.947902 -0.161917
-3.70712 68.8048 -5.12929 -0.257998 -0.949244 -0.179925
-4.42473 68.8156 -4.21066 -0.250349 -0.949994 -0.186646
-5.1277 68.7952 -3.26287 -0.244118 -0.945807 -0.21414
-5.88888 68.7701 -2.3576 -0.223371 -0.948292 -0.225493
-6.68749 68.7308 -1.44609 -0.204382 -0.947164 -0.247203
-7.27045 68.6879 -0.799639 -0.204542 -0.946901 -0.248076
-6.50904 68.3908 -0.266799 -0.18554 -0.953037 -0.239364
-5.76596 68.4471 -1.11281 -0.200654 -0.95351 -0.224848
-4.94627 68.4874 -2.06786 -0.203699 -0.95765 -0.203505
-4.17584 68.513 -3.02654 -0.232808 -0.95352 -0.19131
-3.36726 68.5162 -4.04879 -0.223428 -0.958351 -0.177888
-2.54695 68.5096 -5.20962 -0.241589 -0.957587 -0.157042
-1.76084 68.4868 -6.46703 -0.257023 -0.956772 -0.136114
-1.14144 68.4583 -7.58589 -0.290807 -0.948852 -0.122923
-0.552395 68.3957 -8.64241 -0.287105 -0.952305 -0.103369
0.0237742 68.3191 -9.74273 -0.312467 -0.946592 -0.0795448
0.838083 68.0182 -9.0435 -0.288782 -0.955004 -0.0676199
0.20218 68.1147 -7.98924 -0.2737 -0.958096 -0.0845056
-0.385401 68.1807 -6.96262 -0.25644 -0.961114 -0.102464
-1.06327 68.2136 -5.81438 -0.237196 -0.962821 -0.129285
-1.69577 68.2346 -4.83533 -0.239468 -0.960677 -0.140549
-2.53776 68.2571 -3.66172 -0.223333 -0.960608 -0.165393
-3.20952 68.2469 -2.75573 -0.201042 -0.965625 -0.164773
-3.9616 68.2268 -1.81575 -0.190261 -0.961949 -0.1961
-4.70014 68.1934 -0.925459 -0.193938 -0.961381 -0.195283
-5.59935 68.129 0.106552 -0.166697 -0.959558 -0.226849
-5.81606 68.1088 0.351225 -0.174434 -0.957901 -0.228032
-5.0078 67.8561 0.861056 -0.15369 -0.965646 -0.209539
-4.1362 67.9258 -0.149793 -0.168216 -0.965069 -0.200861
-3.342 67.9691 -1.09981 -0.179166 -0.966675 -0.182861
-2.41396 68.0001 -2.28338 -0.192378 -0.967448 -0.164422
-1.57026 68.0062 -3.41635 -0.206817 -0.968545 -0.138375
-0.88042 67.9798 -4.34689 -0.212297 -0.968283 -0.13175
-0.179424 67.954 -5.44021 -0.215808 -0.970811 -0.104658
0.430136 67.9127 -6.40463 -0.244473 -0.966483 -0.078376
1.07273 67.8346 -7.46225 -0.239321 -0.968619 -0.0670984
1.44879 67.7812 -8.0469 -0.259707 -0.964174 -0.05404
1.67449 67.626 -6.46837 -0.214082 -0.974602 -0.0657262
0.902093 67.6997 -5.31032 -0.207992 -0.973676 -0.0932443
0.102249 67.7489 -4.1203 -0.202876 -0.973048 -0.109633
-0.585615 67.769 -3.13097 -0.17441 -0.976919 -0.123327
-1.34864 67.7765 -2.12952 -0.179206 -0.973654 -0.141008
-2.18414 67.7623 -1.0254 -0.156823 -0.976064 -0.150685
-2.99536 67.7162 -0.0256129 -0.145914 -0.972834 -0.17973
-3.86854 67.6549 0.998946 -0.133159 -0.973075 -0.188132
-4.27765 67.6123 1.47463 -0.150225 -0.968003 -0.201002
-3.23999 67.4253 1.74176 -0.109187 -0.977171 -0.182252
-2.36577 67.4974 0.725476 -0.131805 -0.976576 -0.170078
-1.58647 67.545 -0.231889 -0.125792 -0.982206 -0.139456
-0.891426 67.5709 -1.13875 -0.143348 -0.981967 -0.123256
-0.069157 67.5675 -2.21663 -0.165074 -0.979778 -0.113072
0.62971 67.5569 -3.17491 -0.176365 -0.978952 -0.102707
1.17241 67.5273 -3.97131 -0.18568 -0.979072 -0.0833162
