-3.07927 68.4787 2.05608 -0.140456 -0.9732 -0.182082
-4.03592 68.7211 1.57075 -0.151224 -0.966893 -0.205476
-5.16957 69.0731 0.874526 -0.176394 -0.957211 -0.229105
-5.98449 69.3999 0.204645 -0.19804 -0.948412 -0.247293
-6.8124 69.7735 -0.496708 -0.218708 -0.939606 -0.263169
-7.79185 70.2794 -1.40139 -0.245195 -0.925935 -0.287271
-8.60507 70.7679 -2.24363 -0.265377 -0.91664 -0.298909
-9.38356 71.2593 -2.99482 -0.293604 -0.906474 -0.303481
-10.1465 71.8443 -3.91528 -0.315675 -0.886884 -0.337242
-10.7178 72.3794 -4.73493 -0.33112 -0.875222 -0.352628
-11.2579 72.949 -5.5743 -0.359448 -0.854572 -0.374839
-11.7146 73.5337 -6.41256 -0.385615 -0.832431 -0.397942
-12.0639 74.1948 -7.35181 -0.410824 -0.798889 -0.439318
-12.4008 75.0839 -8.57083 -0.444875 -0.760688 -0.472694
-12.4687 75.7753 -9.58796 -0.49082 -0.722155 -0.487431
-12.6691 76.6974 -10.7251 -0.49871 -0.686417 -0.527238
-12.5945 77.5497 -11.9666 -0.571375 -0.658575 -0.489646
-12.6374 78.2979 -12.989 -0.59285 -0.667161 -0.450987
-12.6732 78.9499 -13.919 -0.611101 -0.66823 -0.424293
-12.6679 79.5971 -14.9079 -0.629913 -0.649024 -0.426588
-12.6265 80.3592 -16.0866 -0.647961 -0.628695 -0.429987
-12.4643 80.9393 -17.0849 -0.674272 -0.590288 -0.443579
-12.3248 81.6619 -18.1953 -0.708933 -0.536407 -0.45791
-12.1332 82.3369 -19.2619 -0.715429 -0.527486 -0.458171
-11.7794 83.0747 -20.5727 -0.754761 -0.461825 -0.465598
-11.5393 83.7172 -21.6143 -0.768894 -0.433952 -0.469531
-11.3245 84.34 -22.5642 -0.788738 -0.426857 -0.442277
-10.9587 84.8616 -23.6897 -0.79842 -0.40418 -0.446278
-10.6245 85.4086 -24.7793 -0.814335 -0.378524 -0.439975
-10.2211 85.9806 -26.0704 -0.834523 -0.35972 -0.41734
-9.82326 86.33 -27.1763 -0.845645 -0.355628 -0.398011
-9.44928 86.6915 -28.2937 -0.850554 -0.348349 -0.393968
-9.0392 87.1286 -29.6213 -0.862181 -0.344283 -0.371636
-8.51435 86.4414 -30.2116 -0.864475 -0.353528 -0.357257
-7.94655 85.2477 -30.3718 -0.858992 -0.373518 -0.350132
-7.41348 84.0951 -30.4257 -0.856531 -0.387077 -0.34136
-6.83458 82.8571 -30.4461 -0.851576 -0.402298 -0.336117
-6.19697 81.5114 -30.4418 -0.850285 -0.408702 -0.331631
-5.6817 80.4525 -30.4344 -0.84958 -0.419786 -0.319364
-5.11284 79.2718 -30.3807 -0.850353 -0.423129 -0.312829
-4.5095 78.1307 -30.4614 -0.855974 -0.424053 -0.295782
-4.24311 77.0809 -29.6931 -0.857717 -0.428101 -0.284694
-4.4237 76.6996 -28.4886 -0.851784 -0.457654 -0.254611
-4.59449 76.3164 -27.2296 -0.842429 -0.476233 -0.252025
-4.67568 75.8396 -25.9239 -0.82849 -0.506279 -0.239346
-4.72251 75.3718 -24.554 -0.811294 -0.544299 -0.213403
-4.63688 74.8239 -23.3205 -0.768791 -0.605831 -0.204768
-4.47416 74.2981 -22.1754 -0.738006 -0.651617 -0.173736
-4.25447 73.6739 -20.6916 -0.700587 -0.693848 -0.166137
-3.95921 73.1014 -19.3899 -0.660046 -0.736411 -0.148287
-3.65049 72.6268 -18.374 -0.634369 -0.760076 -0.140925
-3.22734 72.07 -17.1885 -0.593354 -0.792277 -0.14223
-2.56782 71.3908 -15.8893 -0.546729 -0.827966 -0.121945
-1.9013 70.8248 -14.6224 -0.497489 -0.862193 -0.0955354
-1.35624 70.4281 -13.7358 -0.473762 -0.876748 -0.0828425
-0.704211 70.0115 -12.8041 -0.440685 -0.894209 -0.0786513
0.169558 69.5244 -11.6784 -0.397628 -0.916065 -0.0521199
0.946852 69.1409 -10.5997 -0.353982 -0.934073 -0.0469407
1.5407 68.8696 -9.50794 -0.330288 -0.941854 -0.0618068
1.97382 68.6868 -8.36957 -0.298565 -0.953593 -0.038986
2.18142 68.5659 -7.24131 -0.249655 -0.966997 -0.0508928
2.04845 68.5333 -6.08704 -0.242679 -0.968143 -0.0616969
1.79262 68.5135 -5.00734 -0.23222 -0.97004 -0.0702444
1.32412 68.5274 -3.81299 -0.221502 -0.971914 -0.0795024
0.837191 68.5336 -2.77975 -0.199162 -0.974408 -0.10423
0.177655 68.4976 -1.32701 -0.18611 -0.976222 -0.11115
-0.25318 68.428 -0.23777 -0.150849 -0.981466 -0.118189
-0.753635 68.3709 0.79148 -0.139663 -0.979245 -0.14654
-1.58435 68.3243 1.79428 -0.133677 -0.976807 -0.167265
-2.70878 68.4025 2.18202 -0.129755 -0.975544 -0.177417
-2.86325 68.4336 2.13042 -0.140452 -0.973202 -0.182075
-3.50401 68.3408 3.05338 -0.12811 -0.971391 -0.199971
-2.40504 68.1624 3.29776 -0.11529 -0.978255 -0.172413
-1.27637 68.0958 2.95632 -0.0990546 -0.983141 -0.153535
-0.245193 68.1398 1.90745 -0.113258 -0.983358 -0.142058
0.519629 68.2295 0.481483 -0.128515 -0.985601 -0.109306
0.939324 68.2858 -0.563572 -0.148856 -0.982098 -0.115435
1.37822 68.3242 -1.68127 -0.162484 -0.981549 -0.100795
1.89928 68.316 -2.67274 -0.191319 -0.977947 -0.0823672
2.39987 68.2938 -3.80422 -0.197706 -0.978057 -0.0655578
2.84802 68.2842 -5.20531 -0.214606 -0.975154 -0.0538756
3.15497 68.273 -6.33548 -0.230607 -0.972183 -0.040565
3.21921 68.297 -7.47531 -0.231861 -0.97228 -0.0301964
2.95526 68.4021 -8.54686 -0.283638 -0.958615 -0.0246162
2.55319 68.5524 -9.74025 -0.301438 -0.953038 -0.0292171
1.91339 68.7911 -10.9115 -0.354755 -0.934735 -0.0204642
1.23573 69.085 -11.8786 -0.393309 -0.919014 -0.0268639
0.592336 69.4013 -12.7509 -0.42713 -0.9034 -0.0377884
-0.235527 69.8554 -13.7732 -0.461339 -0.885926 -0.0479793
-0.829988 70.2274 -14.7013 -0.488806 -0.870607 -0.0557837
-1.53671 70.7396 -15.8671 -0.518128 -0.851357 -0.0820727
-2.0191 71.1404 -16.7766 -0.558949 -0.823753 -0.0922562
-2.63436 71.7581 -18.033 -0.618698 -0.778235 -0.107534
-3.05599 72.2804 -19.2406 -0.67018 -0.73447 -0.106829
-3.38274 72.7339 -20.2395 -0.690807 -0.713408 -0.117625
-3.61733 73.1328 -21.2374 -0.727467 -0.671975 -0.138714
-3.82651 73.5715 -22.2988 -0.742974 -0.654472 -0.138028
-4.0144 74.1082 -23.6122 -0.782531 -0.604842 -0.145633
-4.13205 74.562 -24.6425 -0.814764 -0.553901 -0.171327
-4.08309 74.8941 -25.828 -0.822142 -0.533139 -0.199613
-4.08802 75.3857 -27.0827 -0.850317 -0.480277 -0.215162
-3.98125 75.6943 -28.1284 -0.860858 -0.450115 -0.237319
-3.84165 76.0086 -29.1997 -0.86503 -0.430104 -0.258328
-3.64883 76.3084 -30.3466 -0.865661 -0.421993 -0.268972
-3.60834 76.8605 -31.2748 -0.861069 -0.41171 -0.29842
-4.03002 77.8735 -31.4663 -0.857857 -0.41341 -0.305244
-4.57172 78.9363 -31.4054 -0.8537 -0.420329 -0.307439
-5.21232 80.2262 -31.3848 -0.851349 -0.415783 -0.319887
-5.79725 81.4505 -31.3988 -0.853882 -0.4076 -0.323648
-6.29957 82.5179 -31.407 -0.856349 -0.401209 -0.325112
-6.79103 83.5555 -31.3746 -0.857405 -0.392238 -0.333177
-7.33913 84.7633 -31.355 -0.860871 -0.37955 -0.338886
-7.81024 85.789 -31.2829 -0.866399 -0.364678 -0.341053
-8.42892 87.2027 -31.1601 -0.877829 -0.339877 -0.33749
-8.84045 88.1455 -31.0405 -0.875031 -0.323888 -0.359741
-9.37216 88.2147 -29.8214 -0.869068 -0.327609 -0.370666
-9.75554 87.7194 -28.5267 -0.856306 -0.334587 -0.39342
-10.1038 87.4009 -27.5099 -0.851283 -0.336878 -0.402256
-10.5096 87.0422 -26.3942 -0.842239 -0.340984 -0.417569
-10.8896 86.5963 -25.297 -0.827651 -0.34929 -0.439225
-11.2464 86.0593 -24.1996 -0.806609 -0.381897 -0.451151
-11.6256 85.5226 -23.094 -0.796994 -0.385215 -0.465192
-12.0036 84.9019 -21.9266 -0.784265 -0.409484 -0.466102
-12.2197 84.2728 -21.021 -0.766665 -0.432785 -0.474259
-12.4892 83.6969 -20.063 -0.74675 -0.45995 -0.480427
-12.7559 83.1024 -19.0972 -0.726212 -0.477237 -0.494835
-12.9704 82.4719 -18.1388 -0.703019 -0.511213 -0.494215
-13.1405 81.7515 -17.0998 -0.667837 -0.568474 -0.480416
-13.3531 81.1375 -16.0602 -0.635693 -0.604088 -0.480595
-13.4394 80.5116 -15.1358 -0.626121 -0.63065 -0.458534
-13.4798 79.8521 -14.1524 -0.6054 -0.654207 -0.453326
-13.5024 79.096 -13.031 -0.595465 -0.663247 -0.453348
-13.4305 78.4251 -12.144 -0.595449 -0.659701 -0.45847
-13.4219 77.7428 -11.2556 -0.59985 -0.631187 -0.491636
-13.577 77.095 -10.3349 -0.526123 -0.649296 -0.549189
-13.416 76.3568 -9.54043 -0.474786 -0.715874 -0.51196
-13.3629 75.6688 -8.58258 -0.438887 -0.750116 -0.494676
-13.1984 75.02 -7.71993 -0.436288 -0.765359 -0.473154
-12.9221 74.3283 -6.81056 -0.39616 -0.803487 -0.444372
-12.4518 73.4862 -5.65814 -0.348127 -0.834009 -0.428062
-11.9854 72.8714 -4.76411 -0.32579 -0.859995 -0.392753
-11.4435 72.3346 -3.97393 -0.305419 -0.87896 -0.366264
-10.835 71.7787 -3.11789 -0.298289 -0.889722 -0.345569
-10.1358 71.265 -2.33566 -0.281683 -0.901266 -0.329154
-9.36329 70.7764 -1.60443 -0.261592 -0.916259 -0.303378
-8.74298 70.3394 -0.781781 -0.233846 -0.924078 -0.302318
-7.87593 69.9013 -0.0735643 -0.219359 -0.9312 -0.291116
-6.89215 69.4323 0.800373 -0.193931 -0.942996 -0.270459
-5.96297 69.0411 1.58248 -0.168851 -0.953317 -0.249933
-4.9687 68.7228 2.22772 -0.141504 -0.963553 -0.226999
-4.02205 68.4735 2.74048 -0.120543 -0.971674 -0.203107
-3.80524 68.417 2.87633 -0.12811 -0.97139 -0.199971
-4.4872 68.326 3.69078 -0.11146 -0.973101 -0.201558
-5.47385 68.5721 3.15647 -0.125129 -0.964513 -0.232286
-6.52058 68.9141 2.44498 -0.152554 -0.956324 -0.249313
-7.39671 69.2716 1.71953 -0.19011 -0.940699 -0.280892
-8.22384 69.6636 0.969579 -0.198711 -0.933335 -0.298999
-9.03813 70.0463 0.344303 -0.210052 -0.927598 -0.308934
-9.92058 70.5799 -0.572123 -0.239148 -0.918284 -0.315197
-10.622 71.0635 -1.39023 -0.260622 -0.905713 -0.334275
-11.3354 71.5495 -2.12495 -0.273449 -0.89653 -0.348288
-12.0009 72.1223 -3.02026 -0.285696 -0.883752 -0.370409
-12.5622 72.6675 -3.84356 -0.299936 -0.869517 -0.392245
-13.14 73.3249 -4.76463 -0.330926 -0.841912 -0.42621
-13.5486 73.9729 -5.66813 -0.362374 -0.794919 -0.486609
-13.9033 74.7758 -6.66956 -0.434172 -0.769215 -0.468832
-14.1595 75.5206 -7.60788 -0.458373 -0.750189 -0.476456
-14.3324 76.3059 -8.69842 -0.410666 -0.76633 -0.494056
-14.4675 77.2398 -9.7401 -0.501688 -0.603641 -0.619298
-14.2823 78.2328 -10.8549 -0.55046 -0.583884 -0.594768
-14.264 78.9402 -11.789 -0.601549 -0.668026 -0.437325
-14.3486 79.6247 -12.7155 -0.567259 -0.679557 -0.465209
-14.2879 80.3778 -13.8354 -0.597422 -0.650892 -0.468428
-14.1959 81.151 -14.9859 -0.608117 -0.62297 -0.492038
-14.0835 81.9111 -16.0157 -0.64384 -0.579998 -0.499071
-13.9014 82.5505 -16.9721 -0.662943 -0.540382 -0.518164
-13.6467 83.2216 -17.972 -0.687259 -0.51769 -0.50958
-13.401 83.9549 -18.9495 -0.723477 -0.455033 -0.519159
-13.0835 84.5397 -19.9265 -0.747488 -0.424358 -0.510749
-12.811 85.1013 -20.8253 -0.75668 -0.42144 -0.499773
-12.5927 85.8081 -21.7656 -0.770832 -0.40436 -0.492122
-12.2004 86.2676 -22.7215 -0.786613 -0.369439 -0.494362
-11.7902 86.9135 -23.9122 -0.804338 -0.352068 -0.478567
-11.4043 87.4159 -24.9888 -0.823525 -0.349329 -0.446963
-11.0158 87.8912 -26.071 -0.838417 -0.328446 -0.434948
-10.6308 88.2263 -27.0958 -0.84552 -0.336156 -0.414724
-10.2912 88.5775 -28.0797 -0.855389 -0.319264 -0.407836
-9.93174 88.8955 -29.1256 -0.864944 -0.323882 -0.383369
-9.59191 89.2606 -30.2075 -0.877094 -0.31127 -0.365804
-9.22816 89.4455 -31.2531 -0.879287 -0.308738 -0.362649
-8.74605 89.05 -32.1322 -0.887311 -0.321728 -0.33041
-8.26579 87.8324 -32.2082 -0.880815 -0.334887 -0.334687
-7.83082 86.6998 -32.1847 -0.874276 -0.354761 -0.33134
-7.36619 85.6505 -32.2715 -0.868169 -0.371392 -0.329167
-6.80333 84.3689 -32.2934 -0.864729 -0.381414 -0.326751
-6.25999 83.2062 -32.3438 -0.861187 -0.392925 -0.322437
-5.7847 82.2096 -32.3822 -0.856795 -0.403847 -0.32064
-5.11958 80.7623 -32.3188 -0.854629 -0.408716 -0.32025
-4.57694 79.6835 -32.3777 -0.853691 -0.412008 -0.318506
-4.02524 78.5727 -32.4121 -0.85697 -0.409467 -0.312952
-3.49906 77.4694 -32.4135 -0.858196 -0.409223 -0.309892
-3.00476 76.3376 -32.3314 -0.866873 -0.389548 -0.311101
-3.0246 75.6186 -31.3102 -0.878256 -0.392876 -0.272609
-3.2447 75.3382 -30.122 -0.876094 -0.411008 -0.252057
-3.39359 75.0313 -29.0183 -0.869369 -0.431537 -0.240111
-3.48234 74.6359 -27.9162 -0.862232 -0.454304 -0.223975
-3.56635 74.3578 -26.7939 -0.861996 -0.485248 -0.146622
-3.53085 73.9661 -25.6467 -0.821487 -0.544739 -0.168579
-3.50349 73.6377 -24.4997 -0.80406 -0.585416 -0.0994882
-3.30863 73.1975 -23.4216 -0.766403 -0.628556 -0.132454
-3.06962 72.7167 -22.1993 -0.734894 -0.669299 -0.107591
-2.79024 72.2828 -21.0047 -0.692732 -0.716882 -0.0781206
-2.38944 71.7938 -19.9185 -0.652968 -0.755124 -0.058491
-2.0318 71.3902 -18.8525 -0.612692 -0.784395 -0.0966064
-1.58027 70.9419 -17.8016 -0.579602 -0.811138 -0.0782038
-1.09369 70.5371 -16.8961 -0.56124 -0.826138 -0.0500525
-0.565931 70.163 -15.9871 -0.524025 -0.849843 -0.0562501
0.0578044 69.7611 -15.0707 -0.486717 -0.87299 -0.0307531
0.690108 69.4015 -14.147 -0.424657 -0.905003 -0.0251798
1.37212 69.0623 -13.352 -0.418105 -0.908303 -0.0119262
2.01127 68.7615 -12.4692 -0.398537 -0.916842 0.00248998
2.70576 68.5009 -11.4805 -0.353905 -0.935137 0.01411
3.41792 68.2586 -10.4373 -0.32333 -0.946137 0.0167992
3.82298 68.1614 -9.27309 -0.284217 -0.95874 -0.00274705
4.17551 68.0806 -8.10082 -0.213148 -0.976653 0.0042279
4.30575 68.0083 -6.67146 -0.236286 -0.970985 -0.0368478
4.15853 68.0104 -5.58255 -0.245229 -0.969245 -0.0183169
3.76003 68.0626 -4.54083 -0.198918 -0.978895 -0.046874
3.27537 68.0973 -3.39155 -0.188566 -0.980399 -0.0567787
2.61735 68.1231 -1.87999 -0.17325 -0.982555 -0.0667903
2.04655 68.1192 -0.647548 -0.149753 -0.984872 -0.0871895
1.59834 68.0929 0.434189 -0.126816 -0.988616 -0.0808271
1.15718 68.0166 1.66743 -0.10876 -0.988044 -0.109275
0.402152 67.9602 2.78128 -0.0963687 -0.986582 -0.131795
-0.45954 67.8996 3.72245 -0.0804317 -0.986894 -0.139879
-1.57162 67.9194 4.21598 -0.0926381 -0.982511 -0.161524
-2.78169 67.9908 4.45013 -0.0763111 -0.980867 -0.179102
-4.05353 68.2092 4.01989 -0.102438 -0.971941 -0.211749
-4.33536 68.2862 3.80263 -0.10619 -0.973096 -0.204299
-12.0272 77.5024 -12.6064 -0.583804 -0.671189 -0.456814
-11.601 76.402 -11.464 -0.520932 -0.71957 -0.459182
-11.6149 75.7181 -10.3895 -0.498032 -0.73168 -0.465412
-11.7152 74.9709 -9.06757 -0.464646 -0.755839 -0.461315
-11.7893 74.5029 -8.19789 -0.435284 -0.788752 -0.434048
-11.0976 73.4123 -6.75519 -0.386697 -0.828036 -0.405982
-10.8523 73.9211 -8.04173 -0.414429 -0.808581 -0.417665
-10.7167 74.4334 -9.18374 -0.449617 -0.788846 -0.419006
-10.5536 75.0075 -10.3975 -0.501346 -0.759498 -0.414506
-10.494 75.643 -11.5665 -0.535535 -0.735726 -0.414621
-10.6297 76.3787 -12.6516 -0.561534 -0.708947 -0.426701
-11.3005 77.6145 -13.7815 -0.592645 -0.692314 -0.411671
-12.1059 78.5843 -14.1808 -0.624239 -0.66331 -0.412729
-12.2436 79.4881 -15.378 -0.642716 -0.647488 -0.409482
-11.2074 78.3401 -15.1452 -0.632046 -0.664915 -0.398002
-10.2457 77.1761 -14.6503 -0.616153 -0.68751 -0.384298
-9.70251 76.2768 -13.8614 -0.596792 -0.716178 -0.36184
-9.44542 75.5193 -12.8063 -0.571687 -0.727681 -0.379018
-9.37116 74.8371 -11.6018 -0.5376 -0.742471 -0.399653
-9.46802 74.3083 -10.4194 -0.496166 -0.789834 -0.360529
-9.67194 73.8743 -9.28419 -0.464474 -0.785878 -0.40824
-9.98753 73.3372 -7.74414 -0.422431 -0.832594 -0.358244
-10.4772 72.8602 -6.1263 -0.376019 -0.848331 -0.372753
-10.6803 72.7121 -5.5881 -0.359005 -0.853856 -0.376889
-10.0903 72.2399 -4.99368 -0.345415 -0.871933 -0.347019
-9.51911 72.5489 -6.35998 -0.363743 -0.871375 -0.329236
-9.05856 72.9175 -7.81257 -0.396581 -0.849672 -0.347535
-8.69743 73.294 -9.18443 -0.45297 -0.821202 -0.347053
-8.34598 73.675 -10.5762 -0.482282 -0.801165 -0.354314
-8.26755 74.1299 -11.726 -0.53596 -0.767188 -0.352378
-8.28953 74.6465 -12.8373 -0.578323 -0.750214 -0.320501
-8.57081 75.4841 -14.2149 -0.614066 -0.725278 -0.311279
-9.01964 76.2716 -15.0737 -0.643258 -0.702188 -0.305206
-9.69708 77.2002 -15.7206 -0.655547 -0.680697 -0.32697
-10.5612 78.2673 -16.1406 -0.655992 -0.659266 -0.367482
-11.5228 79.3478 -16.3174 -0.672 -0.625836 -0.395911
-12.0549 79.9589 -16.3664 -0.659682 -0.623334 -0.419852
-11.9896 80.5739 -17.3396 -0.684694 -0.590168 -0.427662
-11.1223 79.5497 -17.2884 -0.680214 -0.609434 -0.407308
-10.3134 78.6071 -17.1876 -0.689587 -0.629155 -0.358656
-9.28713 77.3412 -16.8302 -0.673089 -0.658025 -0.337571
-8.54552 76.3913 -16.3335 -0.658055 -0.693493 -0.29331
-7.85768 75.4131 -15.5186 -0.643606 -0.709544 -0.286912
-7.39434 74.6209 -14.5031 -0.620407 -0.735701 -0.271734
-7.12652 73.986 -13.3684 -0.576919 -0.770157 -0.27207
-7.17262 73.5449 -12.1262 -0.5493 -0.775013 -0.312449
-7.33149 73.204 -10.9162 -0.473582 -0.824854 -0.308765
-7.56732 72.8648 -9.65886 -0.456125 -0.832313 -0.314967
-7.94679 72.598 -8.3877 -0.420979 -0.849902 -0.316928
-8.34289 72.3378 -7.16139 -0.388854 -0.870171 -0.302647
-8.78283 72.0975 -5.9789 -0.363742 -0.871375 -0.329236
-9.39088 71.8253 -4.58924 -0.32966 -0.883439 -0.332957
-9.59392 71.7327 -4.13478 -0.311931 -0.894318 -0.320772
-8.93245 71.3386 -3.66816 -0.2961 -0.905832 -0.302975
-8.39999 71.5315 -4.78594 -0.328195 -0.893469 -0.306597
-7.91148 71.7394 -5.95011 -0.350845 -0.88867 -0.295252
-7.41859 71.9402 -7.19321 -0.374127 -0.884019 -0.280248
-6.95747 72.1561 -8.46432 -0.405655 -0.870405 -0.278995
-6.51902 72.3866 -9.88348 -0.430418 -0.861618 -0.268989
-6.18919 72.628 -11.2357 -0.471358 -0.842154 -0.261914
-5.98572 72.9386 -12.6587 -0.540052 -0.803487 -0.250504
-6.02479 73.347 -13.8929 -0.567219 -0.784041 -0.252076
-6.2495 73.8786 -15.0237 -0.610763 -0.753696 -0.242717
-6.78604 74.7099 -16.1731 -0.639345 -0.728509 -0.245994
-7.47626 75.6445 -16.9734 -0.6632 -0.697609 -0.271122
-8.38044 76.8153 -17.6628 -0.679374 -0.67439 -0.28922
-9.26788 77.9368 -18.0563 -0.692627 -0.643789 -0.325276
-10.265 79.1645 -18.2149 -0.701063 -0.603915 -0.379207
-11.1643 80.261 -18.2563 -0.704346 -0.573745 -0.417987
-11.8567 81.1223 -18.2718 -0.70116 -0.551023 -0.452491
-11.6171 81.562 -19.1873 -0.725332 -0.51967 -0.451482
-10.7506 80.4134 -19.1903 -0.723911 -0.56645 -0.393811
-9.88057 79.2968 -19.1588 -0.710725 -0.589596 -0.383728
-8.99243 78.1719 -19.0635 -0.717604 -0.610092 -0.335906
-8.19925 77.1666 -18.8368 -0.700886 -0.644891 -0.304753
-7.46322 76.2366 -18.4872 -0.685311 -0.67622 -0.270326
-6.67447 75.2374 -17.9396 -0.666465 -0.700387 -0.255503
-6.03287 74.4175 -17.2802 -0.652109 -0.71989 -0.237722
-5.47605 73.641 -16.2883 -0.620115 -0.752836 -0.220669
-5.09285 73.0313 -15.1724 -0.585882 -0.786224 -0.196454
-4.91188 72.5187 -13.6868 -0.553196 -0.804813 -0.215059
-4.99138 72.2211 -12.3081 -0.510972 -0.830269 -0.222624
-5.22462 72.0296 -11.0438 -0.456912 -0.861457 -0.221638
-5.64708 71.8228 -9.4688 -0.419851 -0.877337 -0.23239
-6.03411 71.6804 -8.3114 -0.387915 -0.888486 -0.245183
-6.57048 71.5191 -6.97247 -0.373826 -0.886709 -0.272031
-7.12571 71.3528 -5.67261 -0.333105 -0.90296 -0.271485
-7.69047 71.1352 -4.32482 -0.298424 -0.911616 -0.282665
-8.28704 70.9518 -3.12875 -0.2761 -0.918425 -0.283311
-7.7914 70.5515 -2.32745 -0.267692 -0.922346 -0.278601
-7.13518 70.7375 -3.60744 -0.29661 -0.917467 -0.2651
-6.58694 70.8922 -4.76331 -0.306121 -0.914578 -0.264268
-5.99521 71.0252 -6.01646 -0.329083 -0.910468 -0.250506
-5.44369 71.1626 -7.32996 -0.356728 -0.904785 -0.232614
-4.97093 71.2709 -8.56866 -0.388109 -0.896274 -0.214626
-4.49934 71.4051 -10.0384 -0.415833 -0.888607 -0.193546
-4.1756 71.5112 -11.2505 -0.437552 -0.878791 -0.190459
-3.94317 71.6555 -12.5302 -0.50628 -0.844614 -0.174089
-3.83959 71.9112 -14.0798 -0.522417 -0.835523 -0.170241
-3.99569 72.2981 -15.4157 -0.575133 -0.802651 -0.158029
-4.43989 72.9303 -16.7835 -0.608381 -0.772077 -0.183766
-4.96368 73.621 -17.8256 -0.643601 -0.743545 -0.181434
-5.59827 74.4391 -18.6243 -0.672948 -0.705242 -0.223101
-6.33687 75.3731 -19.2295 -0.688559 -0.680905 -0.249509
-7.27021 76.5312 -19.6745 -0.711109 -0.642612 -0.285261
-8.16434 77.666 -19.9204 -0.715131 -0.620027 -0.322729
-9.10333 78.8939 -20.0549 -0.73548 -0.585495 -0.340977
-9.96682 80.0396 -20.1077 -0.732166 -0.556473 -0.392774
-10.881 81.2998 -20.1111 -0.742929 -0.526722 -0.413061
-11.3954 82.0188 -20.0988 -0.74016 -0.495319 -0.454777
-11.1607 82.4699 -21.0003 -0.765349 -0.461202 -0.448925
-10.2429 81.1139 -21.0325 -0.755939 -0.518827 -0.399217
-9.5336 80.1004 -21.0248 -0.758731 -0.531763 -0.376238
-8.75229 79.0038 -20.9741 -0.741319 -0.57718 -0.342505
-7.96833 77.9544 -20.9031 -0.734816 -0.595276 -0.325104
-7.1769 76.9168 -20.7613 -0.732064 -0.613842 -0.295433
-6.37989 75.9168 -20.5398 -0.716678 -0.656658 -0.234889
-5.63163 74.9737 -20.21 -0.721073 -0.65667 -0.220993
-4.71449 73.8333 -19.4711 -0.674295 -0.712647 -0.193548
-4.35881 73.3788 -19.0265 -0.655974 -0.734076 -0.175587
-4.76132 74.2828 -21.0173 -0.726588 -0.663165 -0.17967
-5.51517 75.2392 -21.3935 -0.739495 -0.636662 -0.21865
-6.33674 76.2928 -21.647 -0.748953 -0.61283 -0.252008
-7.07924 77.2861 -21.7735 -0.750797 -0.585566 -0.305643
-8.00579 78.5628 -21.8945 -0.760265 -0.565374 -0.31992
-8.71921 79.5756 -21.931 -0.766129 -0.541085 -0.346806
-9.53533 80.779 -21.9625 -0.765031 -0.514241 -0.387665
-10.2745 81.9052 -21.9463 -0.76347 -0.50495 -0.402665
-10.9355 82.9626 -21.905 -0.772522 -0.459742 -0.438003
-11.1848 83.3697 -21.8901 -0.778666 -0.441218 -0.446101
-10.9004 83.8084 -22.8139 -0.792481 -0.428047 -0.434454
-10.2326 82.6381 -22.8571 -0.783902 -0.459064 -0.418039
-9.54164 81.5151 -22.8885 -0.77841 -0.484439 -0.399245
-8.70865 80.2235 -22.8829 -0.771378 -0.5194 -0.367695
-7.94269 79.0672 -22.8614 -0.769852 -0.535365 -0.347437
-7.10309 77.8415 -22.7866 -0.771587 -0.557932 -0.305556
-6.29066 76.7136 -22.6907 -0.771475 -0.581334 -0.258607
-5.31302 75.3942 -22.4946 -0.749158 -0.6226 -0.226124
-4.98968 74.9706 -22.3961 -0.748078 -0.62371 -0.226637
-5.05937 75.4456 -23.5494 -0.784837 -0.578281 -0.222761
-5.80436 76.5083 -23.6668 -0.790602 -0.555566 -0.257476
-6.50428 77.5196 -23.7356 -0.781124 -0.552632 -0.290591
-7.25371 78.6398 -23.7938 -0.77926 -0.538501 -0.320578
-8.0858 79.9397 -23.8292 -0.789933 -0.496524 -0.359818
-8.78467 81.0663 -23.8275 -0.785779 -0.489179 -0.37849
-9.47696 82.2078 -23.8153 -0.794007 -0.461971 -0.395139
-10.1475 83.3705 -23.7734 -0.799076 -0.427273 -0.422985
-10.5143 84.0366 -23.7488 -0.803025 -0.411114 -0.431436
-10.3841 84.767 -24.6724 -0.812368 -0.39008 -0.433469
-9.81887 83.6695 -24.7105 -0.809178 -0.41068 -0.420206
-9.1112 82.3919 -24.7565 -0.800356 -0.446666 -0.399899
-8.41558 81.1843 -24.7791 -0.80163 -0.457781 -0.384482
-7.56017 79.7707 -24.7819 -0.801697 -0.483851 -0.350957
-6.91535 78.7167 -24.7575 -0.799846 -0.509071 -0.317953
-6.05189 77.3711 -24.7078 -0.802804 -0.53176 -0.269699
-5.26237 76.17 -24.6415 -0.798475 -0.553061 -0.237826
-5.1891 76.0636 -24.6289 -0.788319 -0.569996 -0.23164
-5.12529 76.439 -25.6497 -0.815085 -0.521073 -0.253217
-5.94402 77.7434 -25.7039 -0.808291 -0.520541 -0.27514
-6.85599 79.2681 -25.7376 -0.817238 -0.485433 -0.310609
-7.5651 80.472 -25.7459 -0.809142 -0.462131 -0.362938
-8.29879 81.7643 -25.7305 -0.814272 -0.450163 -0.36649
-8.91304 82.8774 -25.7029 -0.817608 -0.428179 -0.384941
-9.56969 84.1456 -25.6562 -0.823725 -0.397489 -0.404326
-9.87841 84.748 -25.6367 -0.827662 -0.379387 -0.41357
-9.71692 85.4294 -26.5789 -0.827456 -0.376543 -0.416571
-9.18259 84.3051 -26.6234 -0.831005 -0.396834 -0.389813
-8.56152 83.0758 -26.6678 -0.822716 -0.421304 -0.381629
-7.82336 81.7031 -26.6995 -0.823118 -0.438487 -0.36084
-7.12978 80.4307 -26.7217 -0.819349 -0.461909 -0.339569
-6.46919 79.2576 -26.716 -0.823765 -0.462257 -0.328221
-5.66855 77.8592 -26.6871 -0.819095 -0.493369 -0.292696
-5.04726 76.7996 -26.6674 -0.83117 -0.487769 -0.266904
-4.96518 76.658 -26.6642 -0.827149 -0.501311 -0.253989
-4.95058 77.1858 -27.6712 -0.842379 -0.465581 -0.271353
-5.79923 78.7162 -27.6997 -0.837599 -0.459379 -0.295632
-6.44065 79.8944 -27.7119 -0.83531 -0.443579 -0.324798
-7.04117 81.0086 -27.6957 -0.833661 -0.436749 -0.338024
-7.74465 82.3496 -27.6669 -0.831756 -0.424402 -0.357863
-8.40179 83.6506 -27.6264 -0.837845 -0.400656 -0.370796
-8.99586 84.8696 -27.5814 -0.839537 -0.380163 -0.38814
-9.40858 85.7625 -27.5464 -0.844238 -0.358267 -0.398632
-9.07664 86.039 -28.5213 -0.854738 -0.351927 -0.381536
-8.54677 84.866 -28.5691 -0.848266 -0.375816 -0.373106
-8.0198 83.7559 -28.6125 -0.842228 -0.396783 -0.364986
-7.35575 82.4071 -28.6567 -0.840827 -0.411206 -0.352021
-6.77402 81.2742 -28.6861 -0.84177 -0.417662 -0.342027
-6.17821 80.1183 -28.6973 -0.841176 -0.433961 -0.322648
-5.33434 78.5195 -28.678 -0.839105 -0.447895 -0.308695
-4.67137 77.2596 -28.6616 -0.846514 -0.460948 -0.266347
-4.57399 77.7177 -29.6645 -0.853605 -0.435402 -0.285978
-5.13492 78.8102 -29.674 -0.845992 -0.436511 -0.306196
-5.75294 80.0232 -29.6806 -0.847679 -0.423682 -0.31927
-6.38166 81.2786 -29.6813 -0.847755 -0.41659 -0.328275
-7.07173 82.679 -29.6465 -0.847825 -0.402243 -0.345533
-7.72785 84.039 -29.5972 -0.85248 -0.388446 -0.349839
-8.25724 85.179 -29.5497 -0.848979 -0.379085 -0.368142
-8.76111 86.3226 -29.5038 -0.861431 -0.356872 -0.361358
-2.83813 71.48 -15.2827 -0.54692 -0.828248 -0.121998
-2.81808 71.1956 -13.4915 -0.497602 -0.858447 -0.124341
-3.07548 71.0285 -11.6979 -0.445133 -0.88184 -0.155611
-3.47612 70.9444 -10.1711 -0.403985 -0.898717 -0.170597
-3.94242 70.8651 -8.73956 -0.38517 -0.905338 -0.178904
-4.46477 70.7677 -7.30542 -0.347732 -0.91583 -0.200843
-5.26293 70.6346 -5.5073 -0.327541 -0.915924 -0.231948
-5.93534 70.4978 -4.10573 -0.287866 -0.925706 -0.24536
-6.67786 70.3404 -2.68274 -0.268357 -0.93176 -0.244555
-7.25736 70.2145 -1.67265 -0.254746 -0.929796 -0.265676
-6.45763 69.9231 -1.35816 -0.237972 -0.938971 -0.248401
-5.56597 70.0886 -2.91666 -0.266624 -0.934787 -0.2347
-4.81065 70.2108 -4.38132 -0.287962 -0.933549 -0.213456
-4.13441 70.3072 -5.79665 -0.316648 -0.925192 -0.209176
-3.42453 70.3861 -7.40117 -0.337221 -0.924426 -0.178095
-2.83963 70.4645 -9.05788 -0.365786 -0.918596 -0.149603
-2.30315 70.4984 -10.6723 -0.406398 -0.902694 -0.141364
-1.92312 70.5443 -12.2547 -0.426892 -0.895883 -0.123115
-1.78308 70.6176 -13.4172 -0.456753 -0.883463 -0.104255
-0.817552 69.9821 -11.9609 -0.421019 -0.902197 -0.0937159
-1.3468 70.0387 -10.3652 -0.367204 -0.923398 -0.111791
-1.92684 70.0385 -8.68049 -0.362842 -0.921998 -0.135148
-2.62735 69.9947 -6.82693 -0.298129 -0.942965 -0.14811
-3.40584 69.9417 -5.1441 -0.300424 -0.935236 -0.187292
-4.09901 69.8732 -3.79355 -0.271926 -0.940695 -0.202853
-4.88692 69.766 -2.31366 -0.241987 -0.945493 -0.217909
-5.74023 69.6227 -0.871266 -0.223402 -0.945817 -0.23563
-5.18873 69.3082 -0.0823543 -0.198212 -0.955264 -0.219505
-4.24256 69.4532 -1.62174 -0.215875 -0.952537 -0.214641
-3.40018 69.548 -3.13496 -0.25062 -0.950222 -0.185115
-2.58693 69.6009 -4.63727 -0.280603 -0.944119 -0.17292
-1.79079 69.6501 -6.30543 -0.290588 -0.945997 -0.143692
-1.21133 69.6487 -7.7116 -0.307721 -0.943699 -0.121412
-0.645943 69.6217 -9.22174 -0.35147 -0.931151 -0.0970868
-0.00136571 69.5465 -10.9943 -0.380718 -0.921376 -0.078229
0.734413 69.1745 -9.77305 -0.342622 -0.937762 -0.0566794
0.0935953 69.2588 -8.18059 -0.296724 -0.951099 -0.0858197
-0.512359 69.3017 -6.7062 -0.283374 -0.954101 -0.0969089
-1.30234 69.3083 -5.03132 -0.245593 -0.959835 -0.135648
-2.03351 69.2852 -3.60766 -0.242708 -0.957494 -0.15588
-2.88558 69.2325 -2.11156 -0.232676 -0.957872 -0.168354
-3.70515 69.1421 -0.72503 -0.186934 -0.962159 -0.198257
-4.34873 69.0502 0.299925 -0.184583 -0.959728 -0.211779
-3.74146 68.7749 1.08111 -0.16165 -0.966715 -0.198321
-2.8208 68.8975 -0.359452 -0.172624 -0.9676 -0.184257
-1.90953 68.9692 -1.84572 -0.204733 -0.966367 -0.155626
-1.07098 69.0111 -3.32664 -0.217339 -0.968466 -0.121807
-0.330544 69.0236 -4.76694 -0.237708 -0.964851 -0.112058
0.429554 68.98 -6.30982 -0.26061 -0.961807 -0.083721
1.08753 68.9183 -7.74983 -0.275486 -0.958606 -0.0719824
1.39431 68.8681 -8.48448 -0.285592 -0.957102 -0.0489281
1.39647 68.6837 -5.88309 -0.241922 -0.967744 -0.0703303
0.688936 68.7417 -4.57737 -0.223762 -0.97029 -0.09202
-0.172531 68.7547 -2.89188 -0.221792 -0.967791 -0.119113
-0.993046 68.7282 -1.45834 -0.189318 -0.972033 -0.138964
-1.80969 68.671 -0.103419 -0.155684 -0.975879 -0.153042
-2.6406 68.5808 1.18954 -0.153428 -0.970936 -0.183695
-2.87268 68.5495 1.52534 -0.145615 -0.970662 -0.191344
