-6.59368 75.4147 -3.86385 -0.400811 -0.865786 -0.299432
-7.05209 75.923 -4.63477 -0.420759 -0.848749 -0.32025
-7.50113 76.4987 -5.49396 -0.446087 -0.827472 -0.341023
-7.88395 77.0498 -6.32807 -0.47273 -0.810683 -0.345426
-8.20149 77.6479 -7.25613 -0.489455 -0.791906 -0.364941
-8.53974 78.3226 -8.2008 -0.516479 -0.762229 -0.390195
-8.83107 79.0743 -9.24916 -0.535826 -0.739308 -0.407817
-8.99533 79.6484 -10.0575 -0.573841 -0.711161 -0.406149
-9.02941 80.2306 -11.019 -0.592828 -0.694755 -0.407272
-9.0989 80.8269 -11.924 -0.61724 -0.668654 -0.414628
-9.12169 81.4499 -12.924 -0.634688 -0.65578 -0.408801
-9.07114 82.1895 -14.1672 -0.67544 -0.613902 -0.40854
-9.09753 82.8325 -15.0392 -0.682109 -0.595755 -0.423783
-8.85547 83.5076 -16.2767 -0.711851 -0.558123 -0.425873
-8.61703 84.036 -17.3178 -0.736544 -0.51857 -0.434266
-8.40324 84.6899 -18.4073 -0.757574 -0.482472 -0.439107
-8.24811 85.2113 -19.268 -0.765692 -0.469367 -0.439785
-7.94117 85.6489 -20.2693 -0.782524 -0.438902 -0.441539
-7.73438 86.1732 -21.1868 -0.799871 -0.431234 -0.417425
-7.37433 86.7362 -22.3994 -0.811255 -0.397564 -0.428729
-7.08904 87.1011 -23.2967 -0.827227 -0.378097 -0.415618
-6.73986 87.4714 -24.3393 -0.835429 -0.372322 -0.404271
-6.47798 87.8348 -25.2344 -0.845941 -0.357299 -0.395815
-6.18177 88.2041 -26.2184 -0.848528 -0.35768 -0.389953
-5.86563 88.4384 -27.1402 -0.860225 -0.344744 -0.375707
-5.46127 88.7987 -28.426 -0.870185 -0.337585 -0.358789
-5.01943 88.0162 -28.7591 -0.869103 -0.344911 -0.354536
-4.57673 87.12 -28.933 -0.863605 -0.366498 -0.346171
-4.08855 86.0438 -29.0041 -0.860523 -0.37817 -0.341304
-3.56145 84.8153 -28.9437 -0.858319 -0.389064 -0.334541
-3.13017 83.8382 -28.8709 -0.85576 -0.399176 -0.3291
-2.40109 82.4373 -29.0132 -0.850766 -0.419414 -0.316551
-1.86631 81.3774 -29.0246 -0.84842 -0.430108 -0.308531
-1.43552 80.4828 -28.9813 -0.852216 -0.434179 -0.291918
-0.803205 79.2126 -28.972 -0.860732 -0.422715 -0.283642
-0.620009 78.3583 -28.1946 -0.854609 -0.44713 -0.264042
-0.732033 78.0242 -27.2453 -0.861062 -0.445064 -0.245946
-0.842196 77.7014 -26.2755 -0.855336 -0.46156 -0.234355
-0.935875 77.4225 -25.2862 -0.838716 -0.509741 -0.191621
-0.948682 76.9966 -24.1589 -0.818333 -0.541828 -0.190017
-0.9394 76.6779 -23.1927 -0.794498 -0.584333 -0.165312
-0.951717 76.3914 -22.1457 -0.793043 -0.583788 -0.173997
-0.86034 76.0393 -21.1406 -0.775233 -0.61681 -0.136231
-0.651915 75.5813 -20.193 -0.753755 -0.644938 -0.126128
-0.335545 75.0323 -18.9623 -0.718744 -0.685192 -0.117981
-0.0514672 74.6103 -17.9097 -0.697887 -0.709441 -0.0982191
0.26682 74.222 -17.0015 -0.65476 -0.748975 -0.101616
0.714092 73.7635 -16.1312 -0.632573 -0.769144 -0.0888958
1.01736 73.4408 -15.0995 -0.594263 -0.801388 -0.0680323
1.51056 73.0122 -13.8471 -0.559922 -0.82626 -0.0615015
1.90346 72.7329 -12.7031 -0.518643 -0.854579 -0.0265463
2.15034 72.5424 -11.6607 -0.461161 -0.886785 -0.0306849
2.37301 72.365 -10.3415 -0.454349 -0.889091 -0.0544653
2.22218 72.3656 -9.10582 -0.407842 -0.911749 -0.0486826
1.91825 72.4204 -7.9421 -0.398654 -0.913549 -0.0806432
1.56475 72.476 -6.89698 -0.382567 -0.920304 -0.0817516
1.08539 72.5455 -5.80517 -0.35146 -0.930524 -0.102791
0.546125 72.6086 -4.64912 -0.337119 -0.934133 -0.117248
-0.0848484 72.6767 -3.49797 -0.33238 -0.932801 -0.139041
-0.608755 72.7018 -2.4864 -0.311515 -0.934799 -0.170374
-1.13078 72.7107 -1.5407 -0.300578 -0.937161 -0.176342
-1.8138 72.6884 -0.383544 -0.269471 -0.944081 -0.189972
-2.82005 72.9247 -0.0868194 -0.281028 -0.935226 -0.215349
-3.77151 73.3274 -0.535807 -0.301132 -0.92738 -0.222004
-4.62834 73.8244 -1.35286 -0.321787 -0.912619 -0.251715
-5.42452 74.4085 -2.30222 -0.364783 -0.892743 -0.264469
-6.07533 74.9075 -3.04008 -0.390023 -0.875211 -0.28616
-6.33397 75.1592 -3.45745 -0.391108 -0.872965 -0.291433
-7.14352 75.3125 -2.87255 -0.386962 -0.865572 -0.317876
-7.57103 75.8065 -3.68093 -0.398969 -0.854348 -0.332676
-8.01983 76.3614 -4.51219 -0.418519 -0.838439 -0.348888
-8.47283 76.9226 -5.2631 -0.44519 -0.81838 -0.363386
-8.87275 77.6213 -6.32003 -0.469557 -0.796565 -0.380718
-9.09129 78.1944 -7.22876 -0.470526 -0.792662 -0.387674
-9.46633 78.9195 -8.14352 -0.500981 -0.760739 -0.412517
-9.69692 79.695 -9.2124 -0.534777 -0.726818 -0.430986
-9.81612 80.3122 -10.0726 -0.551932 -0.708671 -0.439495
-9.78221 80.8317 -10.95 -0.594363 -0.681596 -0.426797
-9.9113 81.7177 -12.1477 -0.610256 -0.667473 -0.426693
-9.86007 82.2438 -13.0243 -0.632417 -0.644094 -0.430339
-9.81007 82.7709 -13.8584 -0.645091 -0.621087 -0.445094
-9.77426 83.3758 -14.7144 -0.67354 -0.582351 -0.45506
-9.60883 83.9967 -15.6927 -0.68835 -0.547866 -0.475412
-9.38872 84.5438 -16.6453 -0.730681 -0.505138 -0.459283
-9.16183 85.0304 -17.5214 -0.737865 -0.494125 -0.459463
-8.9556 85.6778 -18.5443 -0.752828 -0.461726 -0.468862
-8.69362 86.1639 -19.4566 -0.771995 -0.444636 -0.454228
-8.32687 86.7474 -20.6532 -0.788077 -0.41021 -0.458733
-8.00326 87.3768 -21.7855 -0.812685 -0.381349 -0.440401
-7.71231 87.7494 -22.6569 -0.822115 -0.371873 -0.43099
-7.301 88.2053 -23.8587 -0.835693 -0.361987 -0.413017
-6.94458 88.6639 -24.986 -0.848313 -0.348733 -0.398435
-6.67742 89.064 -25.8989 -0.855091 -0.337779 -0.393351
-6.25598 89.3315 -27.0601 -0.864502 -0.325719 -0.38281
-5.89014 89.7716 -28.2904 -0.873881 -0.322102 -0.364114
-5.53838 89.9281 -29.29 -0.881737 -0.316368 -0.349929
-5.11469 89.2633 -29.7395 -0.88221 -0.330565 -0.33531
-4.66486 88.0781 -29.7148 -0.878146 -0.343792 -0.332666
-4.22591 87.2035 -29.9213 -0.867345 -0.368802 -0.334211
-3.78182 86.1773 -29.9343 -0.865401 -0.374855 -0.332485
-3.37355 85.2125 -29.8861 -0.858391 -0.387929 -0.335674
-2.97178 84.2867 -29.8316 -0.858422 -0.395768 -0.32631
-2.48165 83.2849 -29.8917 -0.856474 -0.404506 -0.320665
-2.0181 82.3507 -29.9306 -0.853755 -0.416137 -0.312924
-1.48308 81.2585 -29.9324 -0.854425 -0.419771 -0.306173
-0.945364 80.167 -29.9346 -0.858653 -0.417289 -0.297633
-0.359176 78.9507 -29.922 -0.861048 -0.415909 -0.292601
-0.00717465 78.0079 -29.6312 -0.874296 -0.400605 -0.273425
-0.0765369 77.5348 -28.6434 -0.874679 -0.413289 -0.253149
-0.253999 77.1507 -27.3442 -0.872972 -0.427781 -0.233889
-0.384157 76.8581 -26.1879 -0.863164 -0.467223 -0.191445
-0.423975 76.4255 -24.8953 -0.843653 -0.501127 -0.192667
-0.37614 76.0579 -23.8417 -0.818281 -0.558368 -0.136535
-0.352652 75.7233 -22.6479 -0.796818 -0.591439 -0.123486
-0.300329 75.4328 -21.5971 -0.785397 -0.609088 -0.109904
-0.0342023 74.9456 -20.6178 -0.748695 -0.658689 -0.0747203
0.242776 74.5214 -19.5483 -0.730373 -0.679985 -0.0635041
0.527498 74.1305 -18.5375 -0.686779 -0.72589 -0.0356235
0.921629 73.6959 -17.4516 -0.663079 -0.747259 -0.0349024
1.31971 73.3079 -16.557 -0.622901 -0.780264 -0.0526355
1.65724 73.0034 -15.5992 -0.59516 -0.80304 -0.0285299
2.0545 72.6848 -14.7125 -0.569744 -0.821299 -0.0158527
2.49654 72.3861 -13.616 -0.526551 -0.849516 0.00443392
2.8707 72.1806 -12.4559 -0.471485 -0.881698 -0.0176315
3.11636 72.0352 -11.1749 -0.426945 -0.903947 -0.0226982
3.23531 71.9511 -10.1569 -0.412818 -0.910682 -0.015492
2.9883 72.006 -8.46233 -0.379151 -0.92465 -0.035599
2.72645 72.0557 -7.44912 -0.361071 -0.930476 -0.0619864
2.28844 72.1419 -6.29284 -0.35663 -0.931581 -0.0705182
1.80154 72.2135 -5.21152 -0.333822 -0.937691 -0.0964231
1.36213 72.2637 -4.22774 -0.331252 -0.936351 -0.116275
0.686318 72.3321 -2.94006 -0.316074 -0.94082 -0.122293
0.18881 72.3563 -1.9136 -0.309268 -0.940589 -0.140162
-0.343406 72.3828 -1.03392 -0.285164 -0.947489 -0.144728
-0.825983 72.3494 -0.0621953 -0.260597 -0.950364 -0.169624
-1.84323 72.4503 0.833451 -0.252773 -0.947732 -0.194674
-2.81909 72.6856 0.964224 -0.236916 -0.946859 -0.217411
-3.98045 73.1019 0.587211 -0.268775 -0.930602 -0.248269
-4.74513 73.487 0.0126879 -0.288835 -0.922422 -0.25606
-5.45955 73.9689 -0.817508 -0.323388 -0.906198 -0.272443
-6.26356 74.5545 -1.71308 -0.350063 -0.892345 -0.284912
-6.86132 75.0309 -2.41136 -0.370272 -0.876137 -0.308674
-7.00477 75.1783 -2.65781 -0.371881 -0.876077 -0.306911
-7.86061 75.3963 -2.26408 -0.365864 -0.869634 -0.331237
-7.35207 74.9207 -1.53104 -0.354742 -0.878657 -0.319561
-6.80141 74.445 -0.767608 -0.341549 -0.887764 -0.308533
-6.07878 73.9315 -0.0188421 -0.304378 -0.909128 -0.284323
-5.32975 73.4456 0.821366 -0.283426 -0.91787 -0.277445
-4.4985 73.0182 1.47003 -0.273887 -0.926692 -0.257348
-3.49028 72.6359 1.88292 -0.239165 -0.941879 -0.235786
-2.38236 72.342 1.98812 -0.219115 -0.950924 -0.218456
-1.40774 72.1459 1.76439 -0.248075 -0.949389 -0.192661
-0.514719 72.0763 1.01246 -0.231971 -0.95968 -0.158588
0.20674 72.0345 0.106259 -0.260081 -0.954075 -0.148235
0.680756 72.0528 -0.838188 -0.272321 -0.95153 -0.142937
1.24183 72.0318 -2.03559 -0.303321 -0.945273 -0.120156
1.90607 71.9443 -3.09712 -0.317783 -0.941125 -0.115316
2.31988 71.9221 -4.1001 -0.311599 -0.944388 -0.105058
2.70823 71.8786 -5.03785 -0.320116 -0.943978 -0.0800191
3.15149 71.8015 -5.96515 -0.335483 -0.938698 -0.0793573
3.57664 71.7091 -7.02991 -0.347585 -0.936424 -0.0478944
3.89063 71.642 -8.20231 -0.347909 -0.936987 -0.0318438
4.17052 71.5256 -9.36793 -0.403713 -0.914746 -0.00339634
4.16385 71.5313 -10.4093 -0.419 -0.907878 -0.0140566
3.94663 71.6453 -11.4123 -0.407718 -0.9131 -0.00388405
3.75992 71.7089 -12.577 -0.461107 -0.886789 0.0308317
3.39853 71.8566 -13.6985 -0.49399 -0.86825 0.0361374
2.93057 72.0937 -14.707 -0.538747 -0.839175 0.0528568
2.53718 72.3544 -15.6518 -0.600934 -0.799097 -0.0179723
2.07021 72.7357 -16.7176 -0.608552 -0.79306 -0.0268329
1.68115 73.0523 -17.6415 -0.641404 -0.766994 -0.0179245
1.26514 73.4418 -18.6859 -0.685085 -0.728194 -0.00677632
0.871936 73.8577 -19.8081 -0.72797 -0.684232 -0.027958
0.653962 74.1846 -20.807 -0.755413 -0.651824 -0.0657487
0.358046 74.6246 -21.8108 -0.758691 -0.649485 -0.049525
0.288977 74.8973 -22.844 -0.799126 -0.593744 -0.0941606
0.174908 75.225 -23.7935 -0.81568 -0.56677 -0.115923
0.117065 75.5851 -25.0988 -0.85568 -0.50616 -0.107772
0.126638 75.9342 -26.2322 -0.862754 -0.468274 -0.190725
0.229748 76.241 -27.4294 -0.873027 -0.44339 -0.20303
0.353209 76.5511 -28.5175 -0.881784 -0.404664 -0.242288
0.543341 76.9282 -29.7948 -0.881851 -0.400608 -0.24838
0.706045 77.3789 -30.9335 -0.881998 -0.376801 -0.283021
0.234717 78.3817 -30.8707 -0.864205 -0.404502 -0.299212
-0.191737 79.3048 -30.9019 -0.860802 -0.412326 -0.298324
-0.675062 80.252 -30.8268 -0.85821 -0.416228 -0.300382
-1.16935 81.3261 -30.8932 -0.857094 -0.414631 -0.305689
-1.6113 82.2935 -30.9656 -0.858014 -0.405728 -0.314947
-2.21802 83.4735 -30.8332 -0.857049 -0.404148 -0.319578
-2.68223 84.5566 -30.9319 -0.861879 -0.389178 -0.325124
-3.19338 85.5832 -30.8028 -0.864083 -0.382431 -0.327218
-3.56586 86.5025 -30.8751 -0.868309 -0.373426 -0.326471
-4.11518 87.7413 -30.7964 -0.874219 -0.356052 -0.330102
-4.57032 88.6698 -30.5741 -0.882308 -0.342934 -0.322381
-4.89849 89.6943 -30.737 -0.88654 -0.328703 -0.325579
-5.25159 90.6107 -30.6782 -0.89242 -0.313026 -0.324963
-5.7216 91.0481 -29.8276 -0.890832 -0.307717 -0.334258
-6.03142 90.8294 -28.8683 -0.878893 -0.310298 -0.362301
-6.41219 90.5559 -27.7385 -0.868198 -0.314861 -0.383529
-6.72915 90.2035 -26.7447 -0.862628 -0.320552 -0.391304
-7.0997 89.9345 -25.7244 -0.85309 -0.327331 -0.40631
-7.40863 89.5425 -24.7664 -0.84748 -0.334199 -0.412399
-7.72633 89.1709 -23.817 -0.83478 -0.34897 -0.425866
-8.0882 88.6673 -22.7055 -0.829454 -0.357761 -0.428967
-8.43741 88.2601 -21.7565 -0.808969 -0.367393 -0.458643
-8.87634 87.6337 -20.4937 -0.785092 -0.394945 -0.476844
-9.18123 87.0967 -19.4983 -0.783769 -0.417232 -0.460026
-9.49556 86.4894 -18.4462 -0.766027 -0.431913 -0.476082
-9.82104 85.9209 -17.4227 -0.732017 -0.47965 -0.483826
-10.0895 85.2444 -16.3437 -0.716474 -0.495639 -0.490925
-10.3037 84.679 -15.4514 -0.674628 -0.540243 -0.503005
-10.5443 83.9984 -14.3879 -0.65862 -0.560799 -0.501721
-10.5919 83.303 -13.4855 -0.636348 -0.61649 -0.463682
-10.6968 82.7505 -12.5559 -0.626498 -0.648025 -0.433086
-10.6665 82.0897 -11.6039 -0.63323 -0.645997 -0.426271
-10.6368 81.3936 -10.6791 -0.582054 -0.674043 -0.454839
-10.6366 80.8082 -9.81048 -0.558516 -0.688672 -0.46232
-10.5357 80.1093 -8.86755 -0.539241 -0.70625 -0.458644
-10.364 79.4669 -8.0455 -0.504492 -0.742444 -0.44017
-10.114 78.7672 -7.09997 -0.483705 -0.763364 -0.427937
-9.81574 78.1085 -6.18379 -0.455294 -0.794664 -0.40149
-9.52516 77.5385 -5.35729 -0.443791 -0.805032 -0.393666
-8.99356 76.7419 -4.26364 -0.416352 -0.826702 -0.377464
-8.46129 76.0504 -3.22513 -0.388769 -0.85019 -0.355015
-7.91026 75.4517 -2.35037 -0.369536 -0.863971 -0.342049
-7.30886 76.8669 -6.67087 -0.462989 -0.817293 -0.343036
-7.10834 77.1685 -7.69472 -0.497398 -0.802416 -0.329734
-7.16123 77.5951 -8.64162 -0.521786 -0.780873 -0.343477
-7.47154 78.1617 -9.41923 -0.546086 -0.759216 -0.354093
-8.09473 78.8807 -9.93433 -0.566438 -0.730012 -0.382401
-8.51608 79.3304 -10.1779 -0.565035 -0.722236 -0.398887
-8.26891 79.7042 -11.2281 -0.594629 -0.697496 -0.399894
-7.41899 78.8136 -10.8633 -0.592477 -0.728575 -0.343728
-6.80545 78.1294 -10.4199 -0.57268 -0.748809 -0.333651
-6.14918 77.3754 -9.76798 -0.55369 -0.766694 -0.324974
-5.96772 76.8886 -8.84591 -0.524884 -0.791893 -0.312093
-6.07634 76.468 -7.55391 -0.485849 -0.819735 -0.30329
-6.51197 76.256 -6.28429 -0.465646 -0.827726 -0.313118
-6.92304 76.2058 -5.55333 -0.459703 -0.828453 -0.319904
-6.41125 75.6978 -4.90345 -0.44136 -0.84495 -0.302094
-5.80756 75.736 -5.89412 -0.441302 -0.845463 -0.300742
-5.3073 75.8073 -6.91752 -0.473264 -0.829484 -0.296611
-4.98471 75.9532 -7.92198 -0.493855 -0.824564 -0.276046
-4.82693 76.1922 -8.96603 -0.508315 -0.81588 -0.275602
-4.97984 76.7213 -10.2215 -0.552702 -0.793721 -0.254022
-5.46675 77.359 -10.9993 -0.574236 -0.764885 -0.291898
-6.17674 78.1109 -11.5216 -0.593145 -0.742233 -0.31188
-6.85009 78.8311 -11.8802 -0.593738 -0.733138 -0.331637
-7.72084 79.7174 -12.165 -0.612821 -0.699654 -0.367334
-8.46974 80.467 -12.3033 -0.630221 -0.677243 -0.379689
-8.65514 80.6537 -12.3181 -0.629316 -0.671138 -0.391836
-8.66884 81.202 -13.2499 -0.653122 -0.655615 -0.378947
-7.92047 80.4416 -13.1963 -0.647019 -0.67217 -0.359937
-7.12168 79.6333 -13.0722 -0.630092 -0.694878 -0.346595
-6.117 78.595 -12.7595 -0.627571 -0.718597 -0.299621
-5.43159 77.8853 -12.4432 -0.602738 -0.739881 -0.298801
-4.78472 77.2075 -12.0274 -0.5931 -0.755961 -0.277047
-4.17608 76.4848 -11.2576 -0.562222 -0.786634 -0.255174
-3.8971 76.011 -10.3397 -0.548146 -0.803432 -0.232449
-3.80263 75.6579 -9.30717 -0.50064 -0.834951 -0.22851
-3.86182 75.4141 -8.32132 -0.489027 -0.841164 -0.230857
-4.27208 75.3108 -7.1507 -0.461424 -0.849273 -0.256561
-4.74786 75.2524 -6.14462 -0.442921 -0.856123 -0.266222
-5.30092 75.2447 -5.20065 -0.416875 -0.867072 -0.272766
-5.86018 75.2404 -4.34859 -0.410148 -0.870579 -0.27179
-6.00935 75.2455 -4.13975 -0.401213 -0.870754 -0.284279
-5.66729 74.8388 -3.38616 -0.378837 -0.881777 -0.280984
-4.86863 74.8001 -4.40749 -0.39689 -0.877279 -0.269926
-4.22842 74.78 -5.40037 -0.411379 -0.881178 -0.23301
-3.58709 74.7896 -6.58038 -0.436084 -0.867408 -0.239655
-2.97804 74.8659 -8.10434 -0.460398 -0.859552 -0.221819
-2.70341 74.9325 -9.12191 -0.490906 -0.851625 -0.1837
-2.63102 75.1291 -10.1208 -0.523302 -0.828786 -0.198164
-2.72146 75.4298 -11.1477 -0.550364 -0.811289 -0.197253
-3.00854 75.8606 -12.0387 -0.562601 -0.79749 -0.217922
-3.55797 76.4778 -12.7566 -0.594125 -0.767667 -0.240215
-4.207 77.1512 -13.2409 -0.615517 -0.747012 -0.251221
-5.14316 78.0945 -13.6359 -0.632509 -0.719218 -0.287503
-5.8875 78.8656 -13.8563 -0.654812 -0.694795 -0.297459
-6.67712 79.676 -14.0195 -0.648692 -0.685042 -0.331536
-7.38319 80.4064 -14.1048 -0.667304 -0.658359 -0.348237
-8.11045 81.1599 -14.1411 -0.663363 -0.642076 -0.384302
-8.51219 81.5798 -14.1365 -0.658588 -0.637673 -0.399543
-8.64198 82.282 -14.9985 -0.682182 -0.59581 -0.423836
-7.8738 81.4522 -15.0289 -0.680134 -0.628914 -0.376675
-7.01626 80.5309 -15.0229 -0.68602 -0.630838 -0.362518
-6.28484 79.7539 -14.9704 -0.674059 -0.669695 -0.311693
-5.42221 78.8511 -14.842 -0.657936 -0.69945 -0.279088
-4.47271 77.8573 -14.5859 -0.647361 -0.711996 -0.272003
-3.65076 77.0222 -14.2955 -0.632378 -0.740894 -0.226216
-2.9284 76.319 -13.9795 -0.623268 -0.751785 -0.215305
-2.28769 75.6556 -13.401 -0.601239 -0.775824 -0.191334
-1.84028 75.1349 -12.5501 -0.574157 -0.801285 -0.168186
-1.61255 74.7472 -11.4307 -0.546606 -0.823819 -0.150146
-1.57027 74.4945 -10.2261 -0.52245 -0.838702 -0.153705
-1.84027 74.3613 -8.73686 -0.479305 -0.862315 -0.163337
-2.19501 74.3277 -7.62259 -0.454003 -0.871549 -0.185158
-2.60304 74.3273 -6.68698 -0.431994 -0.878958 -0.202028
-3.0774 74.3355 -5.73034 -0.422035 -0.882154 -0.209025
-3.65829 74.3554 -4.78862 -0.39116 -0.892451 -0.22478
-4.28422 74.3938 -3.88068 -0.375675 -0.8939 -0.244563
-5.0775 74.4407 -2.89069 -0.365222 -0.895845 -0.253131
-5.14631 74.4444 -2.80568 -0.361885 -0.894958 -0.260939
-4.65648 74.0616 -2.17469 -0.353418 -0.900579 -0.253088
-3.9721 74.027 -2.99936 -0.344422 -0.90857 -0.236375
-3.31995 73.9819 -3.84742 -0.364831 -0.90631 -0.213308
-2.63142 73.942 -4.9101 -0.393838 -0.893832 -0.214372
-2.09876 73.9063 -5.84641 -0.41069 -0.892903 -0.18455
-1.6201 73.8793 -6.81299 -0.420763 -0.893552 -0.156596
-1.21819 73.8498 -7.78686 -0.445364 -0.882544 -0.150888
-0.836258 73.8614 -9.03415 -0.464858 -0.875129 -0.134371
-0.602439 73.9039 -10.1102 -0.494672 -0.859444 -0.129052
-0.515893 74.0274 -11.3351 -0.52123 -0.845154 -0.118468
-0.607994 74.2419 -12.3202 -0.526482 -0.839202 -0.136224
-0.929559 74.6567 -13.5114 -0.586675 -0.799344 -0.129853
-1.44227 75.2013 -14.3728 -0.612899 -0.773835 -0.159794
-2.15798 75.9389 -14.964 -0.636829 -0.747468 -0.189052
-2.92252 76.6996 -15.333 -0.638575 -0.740716 -0.208715
-3.65768 77.4459 -15.5399 -0.655691 -0.713861 -0.24591
-4.40966 78.2135 -15.7243 -0.671106 -0.693229 -0.262774
-5.11933 78.9639 -15.8489 -0.687799 -0.673341 -0.27119
-5.96071 79.8673 -15.9229 -0.694127 -0.650415 -0.308459
-6.74723 80.7355 -15.9353 -0.693489 -0.631545 -0.346735
-7.43918 81.5106 -15.926 -0.694235 -0.610583 -0.381085
-8.26594 82.4527 -15.8801 -0.711089 -0.581097 -0.395827
-8.31289 82.5093 -15.8752 -0.711988 -0.558235 -0.425967
-8.38248 83.2132 -16.7062 -0.722877 -0.546979 -0.422211
-7.5925 82.2518 -16.7883 -0.727629 -0.566661 -0.38659
-6.74145 81.2434 -16.8354 -0.713182 -0.608264 -0.348405
-6.00202 80.3805 -16.8653 -0.715007 -0.623054 -0.317125
-5.20688 79.4902 -16.8458 -0.706366 -0.645107 -0.291349
-4.40989 78.6108 -16.7734 -0.692177 -0.669391 -0.269828
-3.42514 77.5717 -16.6167 -0.685633 -0.693029 -0.222752
-2.61979 76.732 -16.4209 -0.676925 -0.709741 -0.19504
-1.90476 75.9881 -16.1548 -0.664189 -0.726651 -0.175587
-0.929128 75.0167 -15.5526 -0.630869 -0.761193 -0.150298
-0.266135 74.3651 -14.8191 -0.603467 -0.786669 -0.130307
0.242509 73.8842 -13.8487 -0.560649 -0.8244 -0.0777004
0.520953 73.5883 -12.921 -0.547423 -0.832761 -0.0826839
0.569777 73.4425 -11.8319 -0.505204 -0.857313 -0.0989133
0.446195 73.3753 -10.5391 -0.488268 -0.866003 -0.107859
0.19563 73.3868 -9.43309 -0.45573 -0.884004 -0.10415
-0.0601489 73.3834 -8.42078 -0.428485 -0.893679 -0.133189
-0.429077 73.4079 -7.42281 -0.421853 -0.895839 -0.139689
-0.854818 73.4506 -6.39578 -0.404704 -0.902398 -0.147961
-1.41397 73.4933 -5.28936 -0.394335 -0.901726 -0.177171
-1.98508 73.5529 -4.3974 -0.384325 -0.90359 -0.18926
-2.76846 73.6195 -3.23252 -0.351828 -0.914071 -0.20172
-3.53769 73.6667 -2.24232 -0.332468 -0.91757 -0.218012
-4.08686 73.6927 -1.56306 -0.319881 -0.918095 -0.234047
-3.49213 73.3505 -1.01112 -0.301128 -0.927383 -0.221999
-2.7599 73.3052 -1.86539 -0.312678 -0.927037 -0.206965
-1.8917 73.2374 -2.98573 -0.329662 -0.925627 -0.185843
-1.13917 73.174 -4.12951 -0.343288 -0.925175 -0.161878
-0.507225 73.0818 -5.09639 -0.375683 -0.916266 -0.138991
0.0714679 73.0163 -6.2741 -0.37833 -0.916509 -0.129913
0.620537 72.9523 -7.58098 -0.394575 -0.911997 -0.112126
1.01204 72.9303 -8.95532 -0.417814 -0.902329 -0.10599
1.30122 72.8841 -10.0407 -0.451092 -0.889509 -0.0727289
1.55203 72.8366 -11.1923 -0.463896 -0.882873 -0.0730434
1.62429 72.826 -11.6172 -0.491828 -0.86865 -0.059595
-0.0105071 74.3854 -16.419 -0.644343 -0.759913 -0.085763
-0.734195 75.0795 -16.8683 -0.665257 -0.736497 -0.122499
-1.55844 75.9126 -17.2236 -0.667831 -0.729402 -0.148239
-2.44605 76.863 -17.5076 -0.701757 -0.688257 -0.183955
-3.25125 77.7431 -17.6524 -0.71213 -0.660646 -0.237523
-4.0367 78.6023 -17.733 -0.712224 -0.653624 -0.255955
-4.87841 79.5559 -17.7871 -0.71667 -0.634629 -0.289189
-5.63522 80.4466 -17.783 -0.730387 -0.604516 -0.317953
-6.3496 81.2993 -17.7516 -0.736588 -0.574503 -0.356909
-7.16839 82.3155 -17.6872 -0.74148 -0.550989 -0.382907
-7.92223 83.2881 -17.5944 -0.738531 -0.541347 -0.40189
-8.11146 83.5293 -17.5703 -0.736546 -0.518569 -0.434266
-7.83903 83.8397 -18.4402 -0.758409 -0.501373 -0.416463
-7.17189 82.9401 -18.5356 -0.757024 -0.529494 -0.382818
-6.21681 81.681 -18.6515 -0.750759 -0.544565 -0.373911
-5.20783 80.4229 -18.7057 -0.748616 -0.579792 -0.321583
-4.33484 79.3573 -18.7139 -0.749557 -0.597114 -0.285691
-3.48199 78.3434 -18.6718 -0.728529 -0.641866 -0.239278
-2.73138 77.496 -18.5954 -0.724815 -0.655468 -0.21214
-1.69362 76.3194 -18.4001 -0.714183 -0.679875 -0.166472
-0.909168 75.4754 -18.1585 -0.690829 -0.710536 -0.133763
-0.501354 75.065 -17.9974 -0.689904 -0.716032 -0.106446
-0.960607 75.7414 -19.3034 -0.723504 -0.675974 -0.140002
-1.70983 76.6105 -19.4639 -0.732112 -0.659372 -0.170997
-2.63511 77.7029 -19.5793 -0.741031 -0.636712 -0.213241
-3.625 78.8958 -19.636 -0.737807 -0.628533 -0.246145
-4.53022 80.0439 -19.6372 -0.760727 -0.578646 -0.294048
-5.33185 81.0754 -19.5942 -0.762471 -0.558081 -0.32739
-6.0167 81.991 -19.535 -0.762281 -0.537713 -0.360268
-6.69574 82.9193 -19.4519 -0.773008 -0.510731 -0.376314
-7.55239 84.1311 -19.3162 -0.767557 -0.499925 -0.401162
-7.69096 84.3267 -19.294 -0.767297 -0.475796 -0.429969
-7.68254 85.0617 -20.1293 -0.780246 -0.450142 -0.434267
-7.04144 84.0946 -20.2497 -0.782959 -0.476807 -0.399539
-6.30351 83.002 -20.3669 -0.787556 -0.487094 -0.377484
-5.59084 81.99 -20.45 -0.772953 -0.522731 -0.359578
-4.79348 80.8866 -20.5263 -0.762472 -0.558083 -0.327383
-4.02927 79.8534 -20.5583 -0.760726 -0.578648 -0.294045
-3.28763 78.8693 -20.5577 -0.774446 -0.578321 -0.256473
-2.32999 77.646 -20.544 -0.766043 -0.603579 -0.221067
-1.56819 76.7057 -20.4787 -0.750099 -0.637711 -0.175147
-1.22281 76.2896 -20.4185 -0.753325 -0.639853 -0.151949
-1.42532 76.8083 -21.4684 -0.77279 -0.608576 -0.180087
-2.41194 78.1036 -21.5159 -0.766645 -0.603977 -0.217869
-3.13769 79.0811 -21.488 -0.774446 -0.578321 -0.256473
-3.87951 80.1262 -21.4749 -0.792671 -0.538278 -0.286232
-4.69629 81.2903 -21.4237 -0.783996 -0.53037 -0.322581
-5.32725 82.2035 -21.358 -0.786059 -0.502889 -0.359464
-5.9637 83.1566 -21.2704 -0.789858 -0.490317 -0.368393
-6.7266 84.3329 -21.1543 -0.792088 -0.461355 -0.399685
-7.39176 85.3834 -21.0214 -0.796141 -0.436676 -0.418895
-7.26808 85.9739 -21.8828 -0.81206 -0.413097 -0.4122
-6.66431 84.9749 -22.0161 -0.803094 -0.448784 -0.391961
-5.95919 83.8242 -22.1407 -0.800543 -0.466766 -0.375846
-5.37193 82.8971 -22.2278 -0.802441 -0.476561 -0.359135
-4.70686 81.8853 -22.3112 -0.792726 -0.514445 -0.327005
-3.94689 80.7389 -22.3768 -0.798142 -0.523266 -0.298601
-3.32419 79.8017 -22.4265 -0.791343 -0.550261 -0.266436
-2.65606 78.8397 -22.4619 -0.804606 -0.539272 -0.248586
-2.01144 77.9332 -22.48 -0.793482 -0.567768 -0.219147
-1.33387 77.0039 -22.4588 -0.78412 -0.593235 -0.182284
-1.25942 77.2176 -23.4478 -0.808395 -0.557861 -0.187853
-1.9475 78.2354 -23.4323 -0.807374 -0.544692 -0.226844
-2.64015 79.2638 -23.4056 -0.808871 -0.518713 -0.276884
-3.30048 80.2799 -23.3543 -0.806156 -0.513664 -0.293705
-3.96788 81.3166 -23.291 -0.815235 -0.487899 -0.312002
-4.56023 82.2589 -23.2266 -0.814614 -0.474496 -0.333553
-5.38271 83.5998 -23.0996 -0.811003 -0.456152 -0.366333
-6.03368 84.6754 -22.9938 -0.813841 -0.444467 -0.374316
-6.72935 85.8693 -22.8485 -0.815601 -0.412998 -0.405249
-6.91486 86.2018 -22.8004 -0.821426 -0.399499 -0.407013
-6.58748 86.4644 -23.7172 -0.827787 -0.377402 -0.415135
-5.84488 85.1287 -23.8878 -0.827007 -0.410602 -0.384012
-5.29303 84.1428 -23.9932 -0.825613 -0.42011 -0.376656
-4.60895 82.9826 -24.1088 -0.822117 -0.455302 -0.341795
-3.93645 81.8592 -24.1999 -0.818014 -0.472804 -0.327582
-3.18991 80.6521 -24.284 -0.817929 -0.494698 -0.293711
-2.60403 79.7165 -24.3438 -0.820217 -0.499309 -0.279167
-2.01852 78.7752 -24.3868 -0.815994 -0.518399 -0.255766
-1.51069 77.9976 -24.4212 -0.826273 -0.517141 -0.223246
-1.23518 77.9815 -25.4181 -0.843232 -0.48614 -0.229408
-1.86613 79.0253 -25.3398 -0.839756 -0.478721 -0.256196
-2.59394 80.234 -25.2725 -0.827802 -0.478558 -0.29279
-3.23786 81.3105 -25.1928 -0.829682 -0.465423 -0.308234
-3.8125 82.2852 -25.1161 -0.829741 -0.456515 -0.321128
-4.39673 83.3008 -25.0322 -0.831417 -0.438318 -0.341503
-4.93284 84.2572 -24.9297 -0.829468 -0.4258 -0.361492
-5.5141 85.315 -24.821 -0.832971 -0.412405 -0.368893
-6.07627 86.366 -24.6909 -0.837947 -0.381796 -0.389971
-6.43862 87.0656 -24.5933 -0.839325 -0.376017 -0.392613
-6.169 87.4106 -25.5137 -0.844873 -0.375336 -0.381199
-5.47901 86.0559 -25.6952 -0.842229 -0.387743 -0.374575
-4.89613 84.949 -25.8222 -0.838197 -0.41236 -0.356909
-4.37581 83.9796 -25.9227 -0.837816 -0.418355 -0.350775
-3.67455 82.7049 -26.0333 -0.832348 -0.43548 -0.342862
-3.06963 81.6419 -26.1267 -0.831071 -0.454906 -0.319971
-2.43429 80.5436 -26.2136 -0.835911 -0.45914 -0.300736
-1.84016 79.5178 -26.2791 -0.844248 -0.456855 -0.280231
-1.20324 78.4134 -26.3682 -0.845133 -0.467313 -0.259555
-1.12045 78.2686 -26.3772 -0.845314 -0.467222 -0.259128
-1.07418 78.7138 -27.3322 -0.850167 -0.45558 -0.263939
-1.68626 79.8194 -27.2345 -0.84425 -0.456851 -0.28023
-2.40188 81.0933 -27.136 -0.841633 -0.453272 -0.293596
-3.11175 82.3702 -27.0207 -0.838996 -0.437696 -0.323277
-3.68291 83.4187 -26.9355 -0.839009 -0.42833 -0.335556
-4.27225 84.5416 -26.8301 -0.845476 -0.405059 -0.347989
-4.87212 85.6973 -26.7071 -0.849798 -0.386208 -0.358729
-5.38674 86.7218 -26.579 -0.851569 -0.371647 -0.369741
-5.71143 87.3688 -26.493 -0.855446 -0.355625 -0.376488
-5.57287 87.9757 -27.3809 -0.860732 -0.350487 -0.369189
-5.09397 86.9688 -27.5215 -0.856086 -0.368138 -0.362755
-4.45478 85.6705 -27.6835 -0.857131 -0.385173 -0.342006
-3.93817 84.65 -27.79 -0.848366 -0.404182 -0.341924
-3.42884 83.6585 -27.882 -0.849735 -0.410303 -0.331063
-2.71678 82.3163 -27.9934 -0.84591 -0.426242 -0.320554
-2.14831 81.2635 -28.0848 -0.848602 -0.434391 -0.301958
-1.61086 80.2816 -28.1665 -0.85355 -0.433806 -0.288556
-1.06476 79.2677 -28.2604 -0.860608 -0.423037 -0.283537
-1.01879 79.1792 -28.2677 -0.859735 -0.43054 -0.274756
