1.71849 73.1015 -8.41214 -0.416925 -0.906147 -0.0705477
1.94306 73.1162 -9.88202 -0.449573 -0.890687 -0.0675392
2.01451 73.1775 -11.1558 -0.471633 -0.880613 -0.0441484
1.92179 73.2891 -12.2957 -0.511656 -0.857689 -0.0507517
1.62614 73.5287 -13.3892 -0.524522 -0.850396 -0.0359973
1.30325 73.8312 -14.531 -0.575489 -0.816234 -0.0492974
0.954357 74.1889 -15.6507 -0.607494 -0.791126 -0.0712084
0.566958 74.6094 -16.588 -0.651801 -0.753493 -0.0834212
0.207328 75.0709 -17.6586 -0.697506 -0.709977 -0.0970488
-0.057782 75.5015 -18.767 -0.716673 -0.689578 -0.102047
-0.31787 76 -19.9648 -0.759459 -0.635093 -0.140995
-0.497084 76.4753 -21.1434 -0.782781 -0.604343 -0.148401
-0.572861 76.8568 -22.2209 -0.80934 -0.561283 -0.173002
-0.585229 77.2395 -23.41 -0.826037 -0.530936 -0.189129
-0.541895 77.6383 -24.6747 -0.835927 -0.511719 -0.198419
-0.475796 78.121 -25.9783 -0.849773 -0.471779 -0.235181
-0.370173 78.4739 -27.0085 -0.856987 -0.446804 -0.256788
-0.189223 78.8698 -28.2402 -0.854314 -0.44084 -0.275334
-0.620501 79.9233 -28.5521 -0.855162 -0.429569 -0.290009
-1.21172 81.1054 -28.5895 -0.851861 -0.428982 -0.300389
-1.81403 82.3337 -28.6105 -0.850601 -0.420709 -0.315377
-2.42651 83.577 -28.5917 -0.853159 -0.407674 -0.325449
-2.95919 84.6694 -28.5474 -0.852495 -0.400522 -0.335909
-3.59016 86.0519 -28.5538 -0.858029 -0.387859 -0.336676
-4.16221 87.2766 -28.4472 -0.862343 -0.367456 -0.348267
-4.70011 88.3979 -28.2759 -0.868362 -0.34968 -0.35167
-5.1943 88.6013 -27.2835 -0.865521 -0.344552 -0.363499
-5.53885 88.122 -26.0455 -0.854116 -0.349724 -0.384822
-6.00887 87.6315 -24.5527 -0.844113 -0.363353 -0.394136
-6.33946 87.2943 -23.5335 -0.831059 -0.380035 -0.406097
-6.63708 86.8624 -22.5202 -0.821913 -0.393394 -0.411946
-6.94018 86.3471 -21.4315 -0.812271 -0.41504 -0.409418
-7.24089 85.8785 -20.3761 -0.794358 -0.439046 -0.419607
-7.48806 85.3722 -19.4059 -0.784818 -0.457196 -0.418369
-7.69809 84.7805 -18.3652 -0.773068 -0.481692 -0.412721
-7.98796 84.2363 -17.2151 -0.74382 -0.515257 -0.425725
-8.13244 83.5741 -16.1401 -0.711412 -0.556871 -0.428705
-8.24904 82.9024 -15.0204 -0.699291 -0.572273 -0.427692
-8.31677 82.2462 -13.9447 -0.661995 -0.625874 -0.412364
-8.31885 81.4853 -12.7302 -0.638534 -0.664293 -0.388572
-8.27284 80.7363 -11.5052 -0.602883 -0.694553 -0.392591
-8.21606 80.1174 -10.4751 -0.59324 -0.709192 -0.380915
-8.01853 79.4566 -9.52999 -0.56672 -0.731713 -0.378714
-7.8365 78.825 -8.54162 -0.549938 -0.749523 -0.368487
-7.57069 78.2076 -7.62887 -0.523404 -0.777074 -0.349179
-7.07242 77.4234 -6.53075 -0.492691 -0.806762 -0.326176
-6.61485 76.7759 -5.57004 -0.4543 -0.828793 -0.32667
-6.00217 75.9816 -4.28132 -0.424031 -0.855559 -0.297008
-5.35722 75.343 -3.27364 -0.401358 -0.874862 -0.271152
-4.75065 74.8349 -2.47131 -0.376962 -0.888833 -0.260528
-3.92415 74.2494 -1.5182 -0.345008 -0.908445 -0.23581
-3.06644 73.796 -0.92931 -0.31703 -0.922893 -0.218329
-2.032 73.458 -0.959558 -0.297415 -0.930834 -0.212348
-1.33943 73.4242 -1.95544 -0.317733 -0.93069 -0.181276
-0.813293 73.4731 -3.1689 -0.33683 -0.925781 -0.171683
-0.223329 73.4831 -4.52521 -0.384922 -0.910395 -0.150921
0.463303 73.3777 -5.79443 -0.393965 -0.911444 -0.11826
1.10923 73.2118 -6.73461 -0.39916 -0.910367 -0.108174
1.56565 73.1378 -7.98898 -0.426078 -0.901491 -0.0759667
2.51073 72.6825 -7.66809 -0.391272 -0.918247 -0.0610634
2.03261 72.7919 -6.48424 -0.378775 -0.922506 -0.0741407
1.50257 72.8965 -5.3656 -0.375463 -0.921827 -0.0962436
0.895 73.0252 -4.42026 -0.359685 -0.925788 -0.116375
0.457669 73.0264 -3.27525 -0.34698 -0.926861 -0.143276
-0.0530583 73.0519 -2.3073 -0.325411 -0.930245 -0.169037
-0.579054 73.0207 -1.16083 -0.30736 -0.936923 -0.166447
-1.34656 73.0622 -0.101084 -0.284557 -0.939406 -0.190967
-2.30748 73.2339 0.43837 -0.29005 -0.934781 -0.205025
-3.47685 73.6487 0.207581 -0.300315 -0.923226 -0.239718
-4.55988 74.2529 -0.683201 -0.329624 -0.910925 -0.247727
-5.38801 74.8272 -1.57794 -0.356327 -0.89012 -0.283961
-6.20542 75.5133 -2.60708 -0.398283 -0.868543 -0.294965
-6.74327 76.0559 -3.45688 -0.410596 -0.861212 -0.299542
-7.19318 76.5942 -4.31223 -0.429235 -0.84159 -0.327827
-7.74509 77.3461 -5.41429 -0.446908 -0.823901 -0.348503
-8.17623 77.9951 -6.32201 -0.485999 -0.794624 -0.363838
-8.47387 78.5902 -7.18146 -0.50201 -0.775208 -0.383425
-8.75855 79.2729 -8.13523 -0.513491 -0.758189 -0.401739
-8.85611 79.8597 -9.08617 -0.567808 -0.71849 -0.401705
-9.07939 80.6135 -10.0916 -0.583284 -0.703352 -0.406296
-9.12768 81.3244 -11.2114 -0.602588 -0.681494 -0.415275
-9.14943 81.9233 -12.1432 -0.626788 -0.66109 -0.412428
-9.17144 82.5341 -13.0525 -0.643851 -0.631608 -0.431888
-9.11051 83.2165 -14.0974 -0.657562 -0.608181 -0.444667
-8.95053 83.7737 -15.0586 -0.692962 -0.567299 -0.444944
-8.81779 84.4138 -16.0476 -0.713143 -0.539595 -0.447262
-8.64836 85.0911 -17.0802 -0.741329 -0.484719 -0.463914
-8.32919 85.5799 -18.1414 -0.751578 -0.477815 -0.45464
-8.1351 86.1947 -19.0959 -0.775673 -0.44653 -0.445975
-7.80597 86.8233 -20.2773 -0.788546 -0.421245 -0.448049
-7.41338 87.3102 -21.4376 -0.809865 -0.40118 -0.427864
-7.13559 87.9089 -22.4996 -0.822388 -0.368031 -0.433812
-6.7608 88.282 -23.5795 -0.83648 -0.360988 -0.412293
-6.43444 88.6557 -24.5874 -0.845027 -0.355941 -0.399044
-6.0704 89.0408 -25.7019 -0.853663 -0.338933 -0.395408
-5.7072 89.5392 -26.9546 -0.866221 -0.324509 -0.37994
-5.27335 89.742 -28.1466 -0.873551 -0.317841 -0.368553
-4.83397 89.816 -29.2905 -0.878066 -0.329841 -0.346542
-4.37557 88.7234 -29.4034 -0.877469 -0.343646 -0.334598
-3.90947 87.6275 -29.4673 -0.867808 -0.369928 -0.331756
-3.40306 86.4813 -29.5077 -0.863813 -0.37373 -0.337865
-2.86493 85.3258 -29.5692 -0.86203 -0.387255 -0.327011
-2.40353 84.315 -29.5671 -0.860365 -0.394422 -0.322804
-1.91469 83.3087 -29.6104 -0.854688 -0.407888 -0.321108
-1.28226 81.9983 -29.6113 -0.85451 -0.417635 -0.308858
-0.727483 80.863 -29.6042 -0.853467 -0.423071 -0.304311
-0.227097 79.8174 -29.5748 -0.858622 -0.424084 -0.28796
0.293076 78.7652 -29.5954 -0.864087 -0.412271 -0.288769
0.473936 78.0119 -29.0254 -0.876171 -0.403639 -0.26344
0.25838 77.7451 -27.8513 -0.858801 -0.445008 -0.253828
0.10241 77.3906 -26.634 -0.855203 -0.468095 -0.22252
0.0392232 77.0462 -25.6042 -0.858867 -0.47427 -0.19343
0.00388933 76.7254 -24.5578 -0.849303 -0.501144 -0.165952
0.0318877 76.355 -23.5045 -0.829449 -0.537408 -0.152339
0.0919106 76.0003 -22.3861 -0.806463 -0.579509 -0.11742
0.225825 75.5949 -21.204 -0.783497 -0.611534 -0.110263
0.444897 75.1555 -20.0535 -0.752941 -0.652514 -0.0854729
0.682343 74.7731 -19.0394 -0.727216 -0.68257 -0.0724924
1.02721 74.3425 -17.886 -0.676611 -0.733882 -0.0601294
1.41167 73.9298 -16.9104 -0.639678 -0.76562 -0.0681066
1.85432 73.4937 -15.605 -0.616235 -0.785514 -0.0526202
2.24491 73.1666 -14.4922 -0.566028 -0.824321 -0.0102216
2.58791 72.9157 -13.4524 -0.546596 -0.837014 -0.00295581
2.88371 72.732 -12.3887 -0.493597 -0.869665 -0.00672548
3.00485 72.639 -11.0396 -0.442785 -0.896459 -0.0174155
2.98173 72.5903 -9.59945 -0.421931 -0.905227 -0.0489789
2.72706 72.6312 -8.31823 -0.403883 -0.913298 -0.0499584
2.63484 72.6539 -8.03328 -0.385645 -0.920549 -0.0618816
3.54346 72.2533 -7.60909 -0.361497 -0.931549 -0.0370009
3.89513 72.1347 -8.84165 -0.410417 -0.911279 -0.00778895
4.02125 72.1276 -10.1899 -0.4232 -0.905591 -0.0284237
3.96342 72.1718 -11.4586 -0.418841 -0.90805 -0.00409684
3.83754 72.2113 -12.5565 -0.479781 -0.876489 0.0395871
3.5716 72.3109 -13.6378 -0.497305 -0.866344 0.0462096
3.19176 72.5224 -14.6525 -0.538288 -0.83925 0.0615531
2.78528 72.7953 -15.7624 -0.586677 -0.809268 -0.0029278
2.16701 73.2872 -17.2731 -0.638951 -0.768508 0.00367793
1.79452 73.6425 -18.2817 -0.677947 -0.734613 -0.0270429
1.40021 74.0516 -19.3845 -0.715994 -0.698042 -0.00759108
1.15119 74.3912 -20.3967 -0.750634 -0.659459 -0.0284304
0.846616 74.8553 -21.5552 -0.795263 -0.600705 -0.0727438
0.722824 75.2019 -22.7228 -0.794261 -0.601573 -0.0847969
0.618696 75.5333 -23.7598 -0.821436 -0.5612 -0.101204
0.567183 75.8777 -24.8397 -0.848366 -0.516063 -0.116242
0.581139 76.1736 -25.9017 -0.866423 -0.469928 -0.167596
0.684123 76.5636 -27.2581 -0.874687 -0.437907 -0.207749
0.875567 76.91 -28.6158 -0.884908 -0.396742 -0.243995
1.07605 77.1159 -29.6959 -0.888058 -0.38021 -0.257192
1.0561 77.8797 -30.6701 -0.873239 -0.387659 -0.295253
0.525653 78.9958 -30.6171 -0.864728 -0.403998 -0.29838
-0.0277504 80.1485 -30.6129 -0.858053 -0.414916 -0.302637
-0.514703 81.1549 -30.6108 -0.85898 -0.41294 -0.302706
-1.03619 82.2425 -30.6148 -0.858754 -0.406212 -0.312292
-1.61823 83.4768 -30.6202 -0.859085 -0.403686 -0.314659
-2.09959 84.4767 -30.5779 -0.861592 -0.395053 -0.318735
-2.61813 85.613 -30.565 -0.864018 -0.387294 -0.321678
-3.16738 86.8054 -30.495 -0.868253 -0.373449 -0.326599
-3.66461 87.9898 -30.4932 -0.87504 -0.354297 -0.329817
-4.10125 89.0389 -30.4436 -0.882735 -0.33635 -0.328098
-4.57224 90.3008 -30.4358 -0.885152 -0.328296 -0.329717
-5.08944 91.2479 -29.9511 -0.891881 -0.297798 -0.34039
-5.44278 91.0388 -28.8669 -0.883412 -0.307328 -0.353741
-5.75211 90.7182 -27.8436 -0.870102 -0.309942 -0.383201
-6.21711 90.4478 -26.578 -0.864927 -0.312495 -0.392698
-6.55067 90.0306 -25.4986 -0.860788 -0.318899 -0.396596
-6.89221 89.6969 -24.5053 -0.846919 -0.335441 -0.412523
-7.24656 89.2483 -23.4214 -0.839346 -0.337758 -0.425876
-7.74901 88.7255 -22.0399 -0.819996 -0.361241 -0.443869
-7.99593 88.1813 -21.1228 -0.81578 -0.376272 -0.43923
-8.35915 87.7637 -20.1558 -0.784054 -0.391489 -0.481647
-8.6501 87.2445 -19.2047 -0.775404 -0.424652 -0.467353
-8.92991 86.7211 -18.2786 -0.768099 -0.431283 -0.473307
-9.19423 86.08 -17.2353 -0.740576 -0.475849 -0.474301
-9.4772 85.5297 -16.2525 -0.724801 -0.481538 -0.4925
-9.61985 84.8101 -15.296 -0.69812 -0.53709 -0.473458
-9.87166 84.1828 -14.2133 -0.683827 -0.553947 -0.474565
-10.0026 83.5008 -13.2088 -0.628361 -0.612608 -0.479276
-10.0427 82.7707 -12.1252 -0.624204 -0.641434 -0.44587
-10.0108 81.9794 -10.9895 -0.587443 -0.675326 -0.445921
-9.98337 81.3377 -10.0396 -0.578517 -0.687491 -0.438946
-9.82748 80.5604 -9.01567 -0.550677 -0.7164 -0.428346
-9.7819 79.977 -8.10232 -0.512536 -0.737951 -0.439016
-9.55195 79.2939 -7.17413 -0.491333 -0.762444 -0.421
-9.26036 78.644 -6.30878 -0.469111 -0.779175 -0.415718
-8.91672 78.0356 -5.44561 -0.460646 -0.805146 -0.373558
-8.52313 77.3888 -4.52055 -0.441082 -0.816918 -0.371351
-7.99189 76.6923 -3.54314 -0.413444 -0.84205 -0.346433
-7.42348 76.041 -2.58007 -0.385864 -0.860805 -0.331848
-6.90348 75.4616 -1.61043 -0.376797 -0.871788 -0.313066
-6.2724 74.9499 -0.864477 -0.342392 -0.893404 -0.290857
-5.52026 74.3901 0.00624425 -0.312738 -0.90728 -0.281136
-4.62181 73.8882 0.672242 -0.293354 -0.917655 -0.267988
-3.83761 73.4466 1.37024 -0.288045 -0.92184 -0.25931
-2.68428 73.0754 1.61566 -0.253474 -0.944627 -0.2084
-1.63729 72.827 1.45432 -0.252414 -0.951765 -0.174445
-0.709229 72.7083 0.758935 -0.259147 -0.950368 -0.171084
0.0156011 72.6677 -0.14188 -0.276288 -0.948438 -0.154968
0.674431 72.6308 -1.17986 -0.29513 -0.94659 -0.128744
1.04507 72.6561 -2.20149 -0.322642 -0.93684 -0.135029
1.60386 72.6104 -3.3051 -0.339816 -0.932787 -0.120139
2.05764 72.5691 -4.34275 -0.346754 -0.932492 -0.100737
2.62181 72.4479 -5.26595 -0.351889 -0.931656 -0.0899821
3.03447 72.3798 -6.29974 -0.357755 -0.931714 -0.0621825
3.50804 72.261 -7.49684 -0.362726 -0.930615 -0.048797
-7.67254 80.2824 -11.6659 -0.628523 -0.686071 -0.366423
-6.96908 79.2583 -10.8149 -0.593057 -0.728813 -0.34222
-6.68895 78.5655 -9.78403 -0.574494 -0.742778 -0.343856
-6.88573 78.1486 -8.52585 -0.530914 -0.778759 -0.334163
-7.0966 78.0779 -8.04065 -0.512516 -0.78759 -0.342096
-6.5062 77.4189 -7.37964 -0.502638 -0.803922 -0.317906
-5.96503 77.5711 -8.64313 -0.529082 -0.786311 -0.319043
-5.63214 77.9025 -10.0735 -0.556829 -0.768557 -0.31506
-5.75167 78.5071 -11.3577 -0.590302 -0.750566 -0.296976
-6.34296 79.4069 -12.2879 -0.613603 -0.722286 -0.319053
-7.1022 80.3574 -12.8068 -0.64651 -0.674802 -0.355904
-7.60997 80.959 -13.0241 -0.653381 -0.664652 -0.362397
-7.84355 81.9124 -14.2275 -0.682279 -0.610413 -0.402358
-6.70467 80.5778 -13.9792 -0.663423 -0.659804 -0.352885
-5.73848 79.4406 -13.567 -0.64755 -0.689707 -0.324009
-4.98752 78.4879 -12.9266 -0.630189 -0.726603 -0.273697
-4.61232 77.7937 -11.8806 -0.597302 -0.751493 -0.280156
-4.56648 77.2594 -10.4792 -0.556668 -0.790775 -0.25455
-4.96382 76.9921 -8.88708 -0.52496 -0.800733 -0.28852
-5.56288 76.8856 -7.52748 -0.493667 -0.817549 -0.296491
-6.08067 76.8728 -6.63735 -0.471621 -0.826658 -0.306936
-5.83103 76.3802 -5.68681 -0.449534 -0.840179 -0.303347
-5.03188 76.3591 -6.90134 -0.483513 -0.825181 -0.292048
-4.24877 76.3864 -8.4203 -0.509767 -0.819902 -0.260572
-3.7686 76.4836 -9.75857 -0.543753 -0.803756 -0.241471
-3.47905 76.7182 -11.29 -0.576717 -0.784147 -0.229153
-3.46379 77.1014 -12.537 -0.607943 -0.758671 -0.234144
-3.87523 77.8211 -13.7591 -0.631612 -0.739003 -0.234394
-4.91834 79.1304 -14.636 -0.663253 -0.6893 -0.29148
-5.79784 80.1603 -14.9672 -0.673852 -0.665484 -0.321022
-6.84902 81.3833 -15.1601 -0.701735 -0.618604 -0.353408
-7.71479 82.4234 -15.2544 -0.698179 -0.594311 -0.399174
-7.78271 82.5065 -15.2595 -0.698176 -0.594316 -0.399172
-7.55188 82.9012 -16.2295 -0.723356 -0.557868 -0.406865
-6.57277 81.6807 -16.192 -0.712054 -0.601696 -0.361857
-5.62543 80.5441 -16.122 -0.702714 -0.634393 -0.322086
-4.6861 79.437 -15.9203 -0.684391 -0.669265 -0.289299
-3.7991 78.3846 -15.4918 -0.679813 -0.691238 -0.24504
-2.85392 77.2599 -14.8184 -0.642659 -0.733591 -0.220983
-2.34454 76.5279 -13.7722 -0.63055 -0.747067 -0.210471
-2.31721 76.1089 -12.2092 -0.597793 -0.776264 -0.200144
-2.55998 75.9433 -10.7912 -0.53876 -0.817526 -0.203445
-2.94207 75.8592 -9.47138 -0.533385 -0.81873 -0.21256
-3.46039 75.8284 -8.15262 -0.495518 -0.838621 -0.226221
-4.2196 75.8546 -6.75388 -0.470035 -0.844693 -0.256048
-4.96851 75.8935 -5.59838 -0.437795 -0.856559 -0.273207
-5.54043 75.934 -4.80627 -0.424004 -0.856177 -0.295266
-5.08475 75.5018 -4.18933 -0.401359 -0.874864 -0.271153
-4.24515 75.4215 -5.26898 -0.442245 -0.857501 -0.26289
-3.49186 75.3567 -6.38208 -0.452775 -0.860786 -0.232471
-2.82691 75.3054 -7.53037 -0.473133 -0.854735 -0.213476
-2.15906 75.2843 -9.06401 -0.510264 -0.838152 -0.192697
-1.6584 75.2917 -10.5976 -0.537673 -0.826147 -0.16849
-1.33607 75.3451 -11.9477 -0.562205 -0.810173 -0.16597
-1.16774 75.4858 -13.2826 -0.590438 -0.79202 -0.1552
-1.30924 75.8917 -14.7223 -0.63322 -0.754314 -0.173329
-1.95723 76.7419 -15.8907 -0.666037 -0.726292 -0.169984
-2.83465 77.7753 -16.524 -0.690001 -0.687452 -0.226513
-3.7821 78.8714 -16.8634 -0.691209 -0.680508 -0.243187
-4.6548 79.9309 -17.1092 -0.718715 -0.631414 -0.291144
-5.65383 81.1419 -17.1909 -0.721414 -0.609797 -0.328189
-6.56387 82.2859 -17.209 -0.732252 -0.578349 -0.35961
-7.44092 83.4335 -17.1854 -0.73355 -0.546871 -0.40353
-7.54464 83.5688 -17.1807 -0.738807 -0.532137 -0.413515
-7.34774 84.0145 -18.0999 -0.765287 -0.503355 -0.40121
-6.42951 82.7447 -18.1808 -0.748805 -0.538647 -0.386201
-5.62281 81.6841 -18.1996 -0.742706 -0.576065 -0.341375
-4.77544 80.615 -18.1877 -0.732944 -0.597545 -0.325165
-3.87783 79.4754 -18.0626 -0.730923 -0.627195 -0.269031
-2.81393 78.191 -17.8319 -0.728745 -0.646155 -0.226746
-1.9894 77.2128 -17.4981 -0.705845 -0.68681 -0.17342
-0.987309 76.0371 -16.7014 -0.679193 -0.720899 -0.137845
-0.317919 75.2407 -15.6728 -0.637557 -0.760654 -0.122174
-0.0453587 74.8277 -14.4413 -0.611378 -0.785889 -0.0927053
-0.107574 74.661 -12.9853 -0.556184 -0.821743 -0.124086
-0.451296 74.6595 -11.4088 -0.54489 -0.827928 -0.132782
-0.817538 74.6912 -10.159 -0.504345 -0.850913 -0.146908
-1.32066 74.7169 -8.69635 -0.486591 -0.857677 -0.16619
-1.86728 74.7841 -7.51097 -0.466509 -0.865988 -0.180096
-2.64224 74.8706 -6.12882 -0.416995 -0.88405 -0.211117
-3.43071 74.9498 -4.98435 -0.413381 -0.880507 -0.231998
-4.50135 75.0718 -3.6597 -0.394444 -0.880942 -0.261448
-4.66741 75.0888 -3.46317 -0.389164 -0.886012 -0.252062
-4.10869 74.6632 -2.77839 -0.363329 -0.900183 -0.240129
-3.24445 74.5627 -3.78798 -0.373149 -0.900344 -0.22392
-2.30745 74.4638 -5.0212 -0.390493 -0.898514 -0.200468
-1.50833 74.365 -6.32325 -0.42876 -0.886099 -0.176047
-0.771849 74.2385 -7.69004 -0.45618 -0.877954 -0.145246
-0.241965 74.1564 -8.93248 -0.472605 -0.870955 -0.134467
0.331265 74.0598 -10.4786 -0.492861 -0.8641 -0.102075
0.810503 73.9457 -12.1098 -0.526307 -0.844693 -0.0974412
1.06365 73.8963 -13.3107 -0.568219 -0.817314 -0.095526
1.39427 73.4603 -10.4309 -0.464003 -0.882913 -0.0718757
0.936589 73.5704 -9.2169 -0.449498 -0.887813 -0.0986881
0.380147 73.6947 -7.88647 -0.439701 -0.889936 -0.121148
-0.276384 73.8341 -6.65646 -0.432854 -0.892591 -0.126165
-0.940919 73.9485 -5.47866 -0.409914 -0.898097 -0.15935
-1.85158 74.0636 -4.1013 -0.364422 -0.910705 -0.194457
-2.80275 74.1728 -2.91122 -0.34769 -0.912747 -0.214485
-3.51934 74.2589 -2.14171 -0.336895 -0.912335 -0.232696
-2.83836 73.8571 -1.50376 -0.324078 -0.92109 -0.215791
-1.94699 73.7528 -2.47795 -0.332945 -0.92151 -0.199915
-1.46438 73.696 -3.03854 -0.35162 -0.91928 -0.176885
-7.14241 84.4563 -19.0241 -0.77096 -0.484768 -0.413063
-6.2458 83.1602 -19.1329 -0.77147 -0.516847 -0.371084
-5.44386 82.042 -19.1827 -0.758886 -0.548636 -0.350843
-4.6024 80.9217 -19.1878 -0.759466 -0.571603 -0.310614
-3.83152 79.8969 -19.1237 -0.751425 -0.598013 -0.278822
-2.7767 78.5392 -18.944 -0.735979 -0.632351 -0.241799
-1.95615 77.5194 -18.692 -0.729971 -0.653984 -0.198613
-1.02787 76.423 -18.3329 -0.717378 -0.679741 -0.152714
-0.360488 75.6492 -17.8085 -0.699879 -0.705945 -0.108682
-0.654916 76.2541 -19.365 -0.739175 -0.655855 -0.153213
-1.43903 77.2221 -19.6559 -0.744851 -0.642923 -0.178458
-2.21995 78.2143 -19.8778 -0.747654 -0.627424 -0.217606
-2.98581 79.2269 -20.0207 -0.769844 -0.588045 -0.24808
-3.88734 80.479 -20.1391 -0.768173 -0.557105 -0.315505
-4.69776 81.6136 -20.173 -0.773676 -0.544725 -0.323574
-5.57279 82.8634 -20.1215 -0.776439 -0.519064 -0.357373
-6.40009 84.0972 -20.0322 -0.781368 -0.483485 -0.394596
-7.06783 85.1299 -19.9278 -0.78334 -0.460884 -0.417091
-6.66749 85.3068 -20.8826 -0.799653 -0.440493 -0.408071
-5.96716 84.177 -20.9916 -0.791691 -0.465595 -0.395535
-5.24138 83.0493 -21.0917 -0.785501 -0.499854 -0.364876
-4.33727 81.6788 -21.125 -0.778022 -0.525491 -0.344298
-3.36944 80.2605 -21.0913 -0.789588 -0.543623 -0.284648
-2.52328 79.0221 -20.963 -0.778671 -0.570791 -0.260519
-1.46735 77.5986 -20.7896 -0.761693 -0.613864 -0.207355
-0.868443 76.8095 -20.6374 -0.757518 -0.633151 -0.159017
-0.984285 77.2867 -21.8019 -0.780593 -0.594418 -0.193241
-1.8459 78.5019 -21.9368 -0.789356 -0.570946 -0.225694
-2.67265 79.7342 -22.0213 -0.790164 -0.549951 -0.270545
-3.5013 81.0003 -22.0754 -0.802691 -0.524425 -0.284016
-4.31865 82.2636 -22.0711 -0.805031 -0.494004 -0.328459
-5.01654 83.3997 -22.0372 -0.795754 -0.480008 -0.369279
-5.8812 84.803 -21.9068 -0.80751 -0.441725 -0.390906
-6.36793 85.6419 -21.8278 -0.808516 -0.430797 -0.400894
-6.28772 86.3677 -22.7431 -0.825109 -0.398335 -0.400655
-5.60383 85.1499 -22.8629 -0.824917 -0.420217 -0.37806
-4.94003 83.9901 -22.9665 -0.816166 -0.443344 -0.370565
-4.22347 82.7854 -23.0291 -0.809117 -0.478559 -0.341043
-3.48248 81.554 -23.0599 -0.807008 -0.498002 -0.317384
-2.6273 80.195 -23.0544 -0.816837 -0.501181 -0.285649
-1.92282 79.0655 -22.9816 -0.803369 -0.541857 -0.246961
-1.10708 77.8427 -22.9139 -0.79763 -0.562255 -0.218303
-0.900089 77.9388 -23.9692 -0.823322 -0.519581 -0.228421
-1.74998 79.3065 -24.0158 -0.823561 -0.50799 -0.252375
-2.4163 80.4091 -24.0418 -0.820693 -0.496359 -0.283003
-3.07037 81.4959 -24.0388 -0.820979 -0.484735 -0.301705
-3.79805 82.7459 -24.0062 -0.823021 -0.46496 -0.326265
-4.73849 84.398 -23.9175 -0.82115 -0.443626 -0.359039
-5.51497 85.8207 -23.7951 -0.827274 -0.415626 -0.377986
-6.02155 86.7908 -23.7018 -0.837758 -0.384495 -0.387718
-5.69493 87.0665 -24.6806 -0.842457 -0.385318 -0.376559
-4.96861 85.6375 -24.8106 -0.840023 -0.40341 -0.362797
-4.34445 84.4661 -24.9017 -0.834549 -0.421775 -0.354447
-3.57165 83.0538 -24.9723 -0.828195 -0.450457 -0.333438
-2.94859 81.9318 -25.0141 -0.832048 -0.456781 -0.314716
-2.26994 80.7484 -25.0428 -0.824412 -0.483923 -0.293536
-1.4965 79.4173 -25.037 -0.833922 -0.480769 -0.270988
-0.840407 78.3004 -25.0386 -0.839332 -0.491083 -0.233151
-0.7699 78.6998 -26.0764 -0.84985 -0.471641 -0.235182
-1.41655 79.8616 -26.0582 -0.837023 -0.467511 -0.284298
-2.09222 81.0648 -26.039 -0.839105 -0.455354 -0.297584
-2.72321 82.211 -25.9991 -0.837754 -0.445628 -0.315568
-3.50616 83.6716 -25.9445 -0.836054 -0.429727 -0.341099
-4.20282 85.0013 -25.8639 -0.841311 -0.409867 -0.352428
-4.80644 86.1906 -25.7731 -0.845946 -0.388571 -0.365223
-5.32702 87.2511 -25.6841 -0.849893 -0.364826 -0.380243
-5.14108 87.8205 -26.658 -0.853449 -0.3591 -0.377718
-4.46341 86.3755 -26.7779 -0.855314 -0.375738 -0.356734
-3.87407 85.1837 -26.8624 -0.848725 -0.40238 -0.343155
-3.22312 83.8949 -26.9379 -0.843293 -0.421362 -0.333632
-2.59595 82.6835 -26.9885 -0.847432 -0.426676 -0.315923
-1.98116 81.5223 -27.0366 -0.843344 -0.448549 -0.295931
-1.32408 80.3151 -27.0728 -0.84537 -0.453876 -0.281684
-0.716943 79.1886 -27.0949 -0.854259 -0.449094 -0.261831
-1.1532 80.6446 -28.077 -0.851282 -0.434963 -0.293473
-1.91604 82.1043 -28.0294 -0.85061 -0.420715 -0.315374
-2.63655 83.5228 -27.9694 -0.850547 -0.410808 -0.328338
-3.30883 84.8674 -27.8961 -0.852577 -0.401671 -0.334324
-3.86402 86.0089 -27.825 -0.855322 -0.387066 -0.344389
-4.44269 87.248 -27.7344 -0.857047 -0.371625 -0.356883
-4.64375 87.6786 -27.7012 -0.859529 -0.363258 -0.359519
