0.90905 73.8987 -6.97453 -0.423611 -0.898899 -0.111748
1.42397 73.7535 -7.932 -0.430784 -0.899189 -0.0766651
1.81888 73.668 -8.96738 -0.46555 -0.877595 -0.114415
2.07333 73.6731 -10.2812 -0.477685 -0.875028 -0.0780071
2.12163 73.7409 -11.4695 -0.515544 -0.854326 -0.065888
1.9707 73.9056 -12.5772 -0.537595 -0.840444 -0.0681632
1.76563 74.1305 -14.0435 -0.592549 -0.803434 -0.0572291
1.46431 74.4396 -15.2088 -0.616387 -0.785183 -0.0596182
1.1056 74.8238 -16.2254 -0.648719 -0.757157 -0.0766554
0.763019 75.2419 -17.2087 -0.671268 -0.73512 -0.0948551
0.478453 75.6506 -18.1507 -0.711043 -0.695042 -0.106467
0.393218 75.919 -19.1969 -0.727408 -0.676424 -0.115446
0.114506 76.446 -20.2776 -0.764313 -0.630043 -0.13665
-0.00885736 76.8493 -21.4332 -0.790755 -0.595793 -0.140487
-0.0641108 77.2189 -22.5457 -0.810677 -0.562135 -0.163729
-0.125466 77.7551 -23.8355 -0.831823 -0.516893 -0.202218
-0.0846211 78.133 -24.8951 -0.843315 -0.489279 -0.222318
0.0347871 78.4135 -25.9331 -0.853006 -0.466941 -0.233123
0.202605 78.649 -26.9716 -0.861724 -0.438299 -0.255589
0.322818 79.0385 -27.9975 -0.861752 -0.4263 -0.27483
-0.0339419 79.9406 -28.3043 -0.855952 -0.428442 -0.289309
-0.545181 80.9671 -28.33 -0.852825 -0.427397 -0.299992
-1.16606 82.2626 -28.4034 -0.853531 -0.419881 -0.30852
-1.7979 83.5925 -28.444 -0.853468 -0.411168 -0.320161
-2.27491 84.5907 -28.4467 -0.854827 -0.400198 -0.330321
-2.79261 85.6889 -28.4087 -0.855198 -0.395295 -0.335099
-3.3774 86.8763 -28.2691 -0.860737 -0.370748 -0.348824
-3.89595 88.078 -28.252 -0.867725 -0.356059 -0.346678
-4.3499 88.7967 -27.8407 -0.867248 -0.346703 -0.35732
-4.77382 88.6175 -26.6557 -0.857272 -0.353226 -0.374588
-5.2137 88.1802 -25.2491 -0.847933 -0.361595 -0.387632
-5.57685 87.819 -24.1138 -0.837872 -0.382437 -0.389478
-5.84349 87.3244 -23.075 -0.827371 -0.389895 -0.404274
-6.1739 86.9185 -22.0182 -0.817311 -0.400272 -0.414409
-6.5223 86.4209 -20.8393 -0.804048 -0.432051 -0.408397
-6.81838 85.6913 -19.5172 -0.787782 -0.455073 -0.414715
-7.09172 85.2346 -18.5113 -0.770885 -0.469072 -0.430696
-7.28115 84.7103 -17.5443 -0.764619 -0.495826 -0.411722
-7.41608 84.1379 -16.615 -0.728898 -0.537732 -0.423736
-7.61943 83.5563 -15.5154 -0.719654 -0.540858 -0.434981
-7.67937 82.8707 -14.4271 -0.690595 -0.606913 -0.393026
-7.80036 82.2112 -13.2393 -0.671345 -0.62404 -0.399287
-7.75787 81.518 -12.1501 -0.641188 -0.665793 -0.381027
-7.69155 80.9059 -11.1573 -0.622911 -0.688802 -0.370575
-7.60961 80.3536 -10.2464 -0.590497 -0.71379 -0.376396
-7.4266 79.7659 -9.35718 -0.561369 -0.743148 -0.363605
-7.17758 79.1358 -8.46212 -0.539851 -0.762101 -0.357199
-6.89921 78.4483 -7.35906 -0.517473 -0.789605 -0.32964
-6.56606 77.8306 -6.39209 -0.49976 -0.80579 -0.317715
-6.17675 77.27 -5.52967 -0.471082 -0.825141 -0.311414
-5.63734 76.6205 -4.59249 -0.445671 -0.846571 -0.290881
-5.13442 76.0734 -3.71672 -0.436693 -0.856599 -0.27484
-4.46796 75.4345 -2.68202 -0.400097 -0.878573 -0.260597
-3.76336 74.9599 -2.02739 -0.367489 -0.898938 -0.23843
-3.009 74.5048 -1.39341 -0.335407 -0.916531 -0.217882
-1.99431 74.1791 -1.60032 -0.341018 -0.918648 -0.199482
-1.30267 74.1197 -2.53661 -0.34871 -0.916872 -0.194287
-0.6601 74.0893 -3.67388 -0.381024 -0.907875 -0.17354
-0.170642 74.055 -4.68747 -0.392145 -0.907672 -0.149064
0.444639 73.9899 -6.05602 -0.401665 -0.906359 -0.131068
0.836297 73.9165 -6.83359 -0.423822 -0.899634 -0.105045
1.70344 73.4753 -6.42888 -0.399993 -0.909683 -0.111725
2.40392 73.2752 -7.76469 -0.420045 -0.904349 -0.075601
2.79993 73.1646 -8.82794 -0.437577 -0.896832 -0.0647165
3.01499 73.1527 -10.0304 -0.454027 -0.888934 -0.0583946
3.06074 73.1915 -11.3686 -0.478959 -0.876618 -0.0462438
2.90845 73.3121 -12.6444 -0.49962 -0.865847 -0.0256087
2.70564 73.4683 -13.9279 -0.563152 -0.826117 -0.0184886
2.40733 73.7119 -15.1164 -0.607327 -0.794028 -0.0259332
2.06337 74.0178 -16.1434 -0.633024 -0.773297 -0.0359602
1.67975 74.4085 -17.2133 -0.659219 -0.749895 -0.0555745
1.33512 74.8025 -18.1738 -0.693956 -0.717099 -0.0647609
1.05706 75.1946 -19.1814 -0.721549 -0.687187 -0.0845073
0.913215 75.4868 -20.1864 -0.770886 -0.632515 -0.0752324
0.70925 75.9043 -21.3098 -0.794322 -0.598462 -0.10438
0.586619 76.2783 -22.393 -0.811829 -0.571321 -0.120522
0.518346 76.6158 -23.4119 -0.829392 -0.538625 -0.148296
0.452796 77.052 -24.4522 -0.837551 -0.514119 -0.184904
0.519693 77.3439 -25.5049 -0.863294 -0.463899 -0.1988
0.629294 77.6291 -26.5657 -0.870053 -0.441195 -0.2199
0.835223 77.8559 -27.759 -0.875669 -0.413702 -0.249109
1.01742 78.3024 -29.0987 -0.878144 -0.396878 -0.267115
0.480683 79.6219 -29.3774 -0.862079 -0.413968 -0.292186
-0.0314965 80.6497 -29.3511 -0.856372 -0.420013 -0.300323
-0.669056 81.9675 -29.3836 -0.855378 -0.417459 -0.306687
-1.13571 82.962 -29.4218 -0.856281 -0.410779 -0.31312
-1.62569 83.9952 -29.4235 -0.857549 -0.402835 -0.319896
-2.18562 85.1625 -29.3712 -0.86067 -0.392999 -0.323699
-2.75956 86.4046 -29.3246 -0.865587 -0.378817 -0.327499
-3.26128 87.4662 -29.2052 -0.869467 -0.367757 -0.329821
-3.6257 88.4615 -29.3269 -0.876912 -0.345331 -0.334323
-4.15923 89.6822 -29.1575 -0.883177 -0.330764 -0.332557
-4.71517 90.1169 -28.1807 -0.872916 -0.331037 -0.35829
-5.11919 89.7141 -26.8674 -0.868575 -0.325998 -0.373233
-5.49226 89.2808 -25.6369 -0.853057 -0.34747 -0.389295
-5.88502 88.9822 -24.5287 -0.846252 -0.352948 -0.399105
-6.22291 88.5231 -23.4231 -0.834438 -0.36235 -0.415186
-6.49594 88.0293 -22.427 -0.831583 -0.367529 -0.416339
-6.85161 87.6886 -21.4285 -0.81734 -0.383366 -0.429979
-7.16268 87.2169 -20.4213 -0.80108 -0.412433 -0.43378
-7.40792 86.6576 -19.4366 -0.78254 -0.438665 -0.441819
-7.67974 86.1248 -18.4159 -0.77351 -0.455449 -0.440682
-8.00289 85.4011 -17.0997 -0.749282 -0.476928 -0.459285
-8.21555 84.7432 -16.0079 -0.735741 -0.518932 -0.4346
-8.40388 84.1712 -15.0207 -0.696324 -0.545501 -0.466219
-8.47009 83.413 -13.9251 -0.685686 -0.590475 -0.425645
-8.63396 82.8035 -12.811 -0.649278 -0.630791 -0.424772
-8.58013 82.1675 -11.9084 -0.624541 -0.663358 -0.412195
-8.56044 81.5659 -10.9402 -0.602017 -0.693417 -0.395591
-8.44338 80.8717 -9.91245 -0.58787 -0.696285 -0.411748
-8.32732 80.1836 -8.853 -0.55012 -0.73911 -0.388696
-8.00609 79.4701 -7.93103 -0.5304 -0.758259 -0.379102
-7.82039 78.8781 -6.96845 -0.516145 -0.775361 -0.363882
-7.52781 78.2695 -6.04454 -0.481392 -0.80118 -0.355215
-7.03626 77.5072 -4.90583 -0.448412 -0.823498 -0.347531
-6.56702 76.909 -4.04914 -0.431426 -0.841184 -0.326008
-6.07525 76.3481 -3.17826 -0.414707 -0.860238 -0.296663
-5.54281 75.7797 -2.26485 -0.387655 -0.873669 -0.293545
-4.7747 75.2325 -1.54601 -0.364793 -0.892566 -0.265051
-4.08835 74.7356 -0.774131 -0.348504 -0.899447 -0.263705
-3.2193 74.2915 -0.252417 -0.309019 -0.921049 -0.236729
-2.1078 73.8872 -0.0960945 -0.300072 -0.928086 -0.220248
-1.25691 73.7527 -0.780428 -0.313562 -0.931135 -0.186178
-0.547562 73.6826 -1.71643 -0.327598 -0.928958 -0.172355
-0.0225661 73.6602 -2.68135 -0.347678 -0.925178 -0.152133
0.469145 73.6323 -3.68226 -0.358534 -0.922678 -0.141841
0.995124 73.5762 -4.77611 -0.372593 -0.918705 -0.130413
1.41745 73.5215 -5.75433 -0.37596 -0.920611 -0.105375
1.62274 73.4883 -6.24577 -0.399996 -0.909681 -0.111731
2.47211 73.0846 -5.72881 -0.370563 -0.924619 -0.0881101
2.10177 73.1256 -4.73041 -0.363522 -0.926479 -0.097302
1.57734 73.2108 -3.741 -0.347542 -0.931388 -0.108252
1.06815 73.2376 -2.55121 -0.335621 -0.93079 -0.144873
0.520773 73.2671 -1.48051 -0.330028 -0.931739 -0.151472
-0.204868 73.342 -0.430011 -0.31587 -0.93647 -0.152478
-0.995366 73.4008 0.583944 -0.283408 -0.940316 -0.187883
-2.01661 73.6141 0.990412 -0.282474 -0.937177 -0.204651
-3.16439 73.943 1.02694 -0.285055 -0.928326 -0.238023
-4.12693 74.3757 0.565907 -0.301223 -0.916349 -0.26367
-5.0047 74.8955 -0.13589 -0.337539 -0.899725 -0.276686
-5.64837 75.3582 -0.831285 -0.3452 -0.893466 -0.287324
-6.33604 75.8581 -1.48224 -0.363146 -0.883468 -0.29599
-6.95298 76.5124 -2.51023 -0.388134 -0.862617 -0.324412
-7.53818 77.2293 -3.61034 -0.410408 -0.84106 -0.352396
-8.01695 77.8833 -4.53376 -0.440369 -0.817298 -0.371419
-8.38834 78.4874 -5.37947 -0.461593 -0.801977 -0.37916
-8.67372 79.0949 -6.27704 -0.495567 -0.768538 -0.403915
-8.90444 79.8123 -7.3872 -0.51177 -0.762455 -0.395921
-9.20949 80.5738 -8.33225 -0.554344 -0.716725 -0.423073
-9.29652 81.1653 -9.21962 -0.568282 -0.701484 -0.430084
-9.43694 82.0635 -10.4611 -0.613208 -0.670034 -0.418365
-9.4438 82.8131 -11.6167 -0.624075 -0.6484 -0.436013
-9.46479 83.4511 -12.5134 -0.635936 -0.621781 -0.456936
-9.29542 84.068 -13.5442 -0.668005 -0.592411 -0.450176
-9.22317 84.7935 -14.5395 -0.696242 -0.530205 -0.483781
-9.01773 85.4253 -15.5318 -0.700828 -0.522431 -0.485702
-8.74988 86.1038 -16.6351 -0.735278 -0.48463 -0.473814
-8.54631 86.6667 -17.5171 -0.754987 -0.451787 -0.474995
-8.16838 87.1559 -18.6076 -0.767413 -0.452955 -0.453417
-7.94845 87.8116 -19.5758 -0.791148 -0.397808 -0.46458
-7.59982 88.2618 -20.5505 -0.807411 -0.37905 -0.452117
-7.22804 88.8481 -21.7306 -0.819215 -0.365948 -0.441459
-6.88833 89.1938 -22.6762 -0.827769 -0.369301 -0.422393
-6.5566 89.7527 -23.7879 -0.841983 -0.33579 -0.422268
-6.14588 90.1326 -24.9488 -0.854307 -0.330291 -0.401332
-5.75836 90.5757 -26.1612 -0.862186 -0.326048 -0.387721
-5.37759 90.8892 -27.2748 -0.87097 -0.311027 -0.38036
-5.01706 91.2331 -28.4202 -0.881098 -0.308374 -0.358557
-4.48048 91.2459 -29.8103 -0.891902 -0.30351 -0.33525
-4.00608 90.2793 -30.1504 -0.883652 -0.326081 -0.335902
-3.4343 88.984 -30.3853 -0.88515 -0.335395 -0.322521
-3.02265 87.7772 -30.1854 -0.875726 -0.354339 -0.327945
-2.52704 86.7496 -30.3392 -0.864808 -0.379247 -0.329057
-1.902 85.365 -30.3672 -0.86504 -0.389993 -0.315613
-1.34567 84.1699 -30.4039 -0.860507 -0.399621 -0.315914
-0.859421 83.143 -30.4142 -0.858566 -0.40584 -0.313298
-0.376128 82.1071 -30.3946 -0.859174 -0.410232 -0.305753
0.252339 80.847 -30.4445 -0.858292 -0.416737 -0.299441
0.724592 79.8516 -30.4223 -0.862328 -0.40891 -0.298634
1.39327 78.4823 -30.5308 -0.871834 -0.397317 -0.286417
1.68741 77.5456 -30.1433 -0.87652 -0.385808 -0.287763
1.51236 77.2359 -29.1163 -0.886982 -0.388362 -0.249876
1.31814 76.9397 -27.9593 -0.886682 -0.402583 -0.22656
1.12028 76.673 -26.5548 -0.8812 -0.429263 -0.198041
1.08456 76.3431 -25.5348 -0.860318 -0.479484 -0.173054
1.05731 76.0366 -24.4081 -0.850691 -0.509836 -0.128035
1.16336 75.6228 -23.1969 -0.816053 -0.566483 -0.114694
1.31795 75.1942 -21.9051 -0.805423 -0.58426 -0.0993793
1.55442 74.751 -20.7822 -0.788436 -0.613481 -0.0211977
1.89264 74.3155 -19.7525 -0.747251 -0.663019 -0.04374
2.23647 73.9496 -18.4734 -0.689558 -0.723897 -0.021983
2.5639 73.6192 -17.3826 -0.667863 -0.744154 0.0139344
2.88025 73.3711 -16.3843 -0.620103 -0.78423 0.0084623
3.30399 73.0554 -15.2582 -0.585221 -0.810668 0.00977892
3.63058 72.8364 -14.0556 -0.581044 -0.813614 0.0205093
3.8252 72.7537 -12.9858 -0.505515 -0.862567 0.0207972
4.00551 72.6856 -11.7121 -0.465276 -0.885131 0.00785816
4.01319 72.6691 -10.6069 -0.441883 -0.896739 -0.0236033
3.89502 72.6726 -9.45745 -0.443695 -0.894538 -0.0535276
3.66166 72.7256 -8.17003 -0.391331 -0.919644 -0.0334045
3.21413 72.8677 -7.08972 -0.387341 -0.919988 -0.0587579
2.62425 73.0542 -6.05048 -0.384446 -0.92014 -0.0709789
2.61208 73.0566 -6.02437 -0.370563 -0.924619 -0.0881101
-2.9669 74.6436 -2.02338 -0.351013 -0.911603 -0.21394
-3.30845 74.8537 -2.33158 -0.370336 -0.898868 -0.234281
-2.22284 74.4945 -2.61137 -0.352346 -0.911097 -0.213904
-3.05443 75.0217 -3.40274 -0.381355 -0.89869 -0.216623
-4.00432 75.5839 -3.90864 -0.415894 -0.876651 -0.241901
-4.72902 76.0026 -4.14013 -0.425045 -0.86322 -0.272376
-5.45838 76.8123 -5.4215 -0.469459 -0.831432 -0.297202
-4.39351 76.1604 -5.17438 -0.444863 -0.852707 -0.273839
-3.48467 75.5967 -4.84007 -0.434947 -0.869366 -0.234572
-2.65091 75.0803 -4.35718 -0.400964 -0.890015 -0.217026
-1.86731 74.5661 -3.59286 -0.385992 -0.902384 -0.19161
-1.67116 74.4384 -3.38701 -0.377197 -0.90616 -0.191303
-1.06762 74.322 -3.99629 -0.38112 -0.908084 -0.173585
-1.82884 74.8354 -4.89644 -0.418692 -0.889171 -0.184589
-2.76091 75.4426 -5.61475 -0.440673 -0.874203 -0.203903
-3.65505 76.0348 -6.05667 -0.458531 -0.854529 -0.243987
-4.67398 76.6972 -6.36827 -0.473862 -0.836476 -0.27525
-5.75038 77.3821 -6.50397 -0.495281 -0.818051 -0.292387
-6.01476 77.5481 -6.52049 -0.48758 -0.818813 -0.303003
-5.90245 77.8735 -7.54689 -0.517495 -0.789638 -0.329654
-4.69048 77.0626 -7.42811 -0.502095 -0.816106 -0.286132
-3.66867 76.3677 -7.18452 -0.487299 -0.841388 -0.23368
-2.67528 75.689 -6.74483 -0.463541 -0.860488 -0.211402
-1.81949 75.1035 -6.19137 -0.432023 -0.883949 -0.178855
-1.02012 74.5698 -5.47013 -0.41301 -0.893086 -0.17838
-0.634202 74.298 -4.95015 -0.397546 -0.902769 -0.164213
-0.247351 74.2975 -5.9276 -0.429818 -0.893613 -0.129275
-1.0234 74.8277 -6.81453 -0.448747 -0.878395 -0.164461
-1.77437 75.3488 -7.41334 -0.47857 -0.857763 -0.187652
-2.62575 75.9619 -7.90458 -0.500142 -0.842267 -0.201107
-3.57856 76.6438 -8.28547 -0.502684 -0.823823 -0.261964
-4.50221 77.2928 -8.46212 -0.519897 -0.804436 -0.287386
-5.47651 77.9713 -8.53639 -0.550972 -0.777361 -0.303545
-6.30949 78.5377 -8.50104 -0.554571 -0.763994 -0.329794
-6.66989 79.2036 -9.41104 -0.574729 -0.739957 -0.349501
-5.75224 78.5552 -9.4977 -0.559092 -0.763885 -0.32233
-4.68721 77.7899 -9.54831 -0.552162 -0.784481 -0.282324
-3.72451 77.0858 -9.45165 -0.55307 -0.799916 -0.232912
-2.75556 76.365 -9.18294 -0.522441 -0.822861 -0.223508
-1.91038 75.7356 -8.74981 -0.524103 -0.831444 -0.184434
-1.06572 75.1054 -8.16255 -0.491137 -0.853413 -0.17456
-0.34402 74.5962 -7.5042 -0.468702 -0.869627 -0.155138
0.176298 74.2308 -6.87513 -0.438613 -0.887593 -0.140702
0.605062 74.1589 -7.84558 -0.451769 -0.884249 -0.118359
-0.0360126 74.6155 -8.6286 -0.476187 -0.868057 -0.140436
-0.804849 75.1704 -9.24771 -0.501391 -0.849998 -0.16159
-1.81271 75.9315 -9.91027 -0.524108 -0.831441 -0.184434
-2.73216 76.6556 -10.3059 -0.546791 -0.808248 -0.218527
-3.77828 77.4469 -10.4849 -0.56504 -0.78967 -0.239063
-4.92212 78.3218 -10.4981 -0.579251 -0.764589 -0.282617
-5.83366 79.0026 -10.4334 -0.585169 -0.749882 -0.308633
-7.06455 79.9249 -10.2766 -0.59453 -0.726579 -0.344408
-7.06489 79.9252 -10.2765 -0.590934 -0.72407 -0.355697
-7.19637 80.4645 -11.1488 -0.611999 -0.703505 -0.3613
-6.20612 79.6958 -11.3024 -0.614355 -0.716262 -0.330964
-5.34706 79.0105 -11.4034 -0.607642 -0.73488 -0.301201
-4.35102 78.2297 -11.4664 -0.600903 -0.752769 -0.2688
-3.41091 77.4869 -11.4614 -0.59343 -0.770477 -0.232819
-2.48653 76.7471 -11.3311 -0.57723 -0.789823 -0.207328
-1.6178 76.0525 -11.0095 -0.553587 -0.811034 -0.189116
-0.805062 75.4214 -10.6019 -0.509777 -0.846823 -0.151719
-0.0338193 74.8515 -10.0434 -0.517467 -0.843178 -0.145873
0.720227 74.3033 -9.35455 -0.48791 -0.862926 -0.131537
1.09791 74.0263 -8.77346 -0.467526 -0.876927 -0.111439
1.45434 73.9913 -10.1129 -0.483908 -0.867993 -0.111448
0.549805 74.6328 -10.9509 -0.501196 -0.858021 -0.112264
-0.480825 75.4038 -11.6625 -0.548124 -0.823354 -0.147135
-1.39448 76.129 -12.0792 -0.573344 -0.80066 -0.173838
-2.64602 77.1533 -12.3516 -0.610375 -0.766021 -0.201629
-3.56093 77.9111 -12.4139 -0.614806 -0.748666 -0.248018
-4.62277 78.7934 -12.3788 -0.633345 -0.721643 -0.279474
-5.49891 79.5244 -12.29 -0.625252 -0.714413 -0.314124
-6.51017 80.3632 -12.1443 -0.622322 -0.699173 -0.351955
-7.15456 80.8935 -12.0292 -0.637884 -0.676518 -0.368005
-7.37569 81.5457 -12.8377 -0.656986 -0.650244 -0.381514
-6.447 80.7401 -13.0231 -0.657654 -0.673125 -0.338221
-5.47972 79.8876 -13.1798 -0.654263 -0.690576 -0.308292
-4.53774 79.0662 -13.2872 -0.657384 -0.696711 -0.287123
-3.55026 78.2002 -13.344 -0.632689 -0.732534 -0.251194
-2.56115 77.353 -13.3338 -0.622967 -0.750582 -0.220314
-1.62581 76.5591 -13.1932 -0.604176 -0.775275 -0.184174
-0.574683 75.7013 -12.944 -0.585444 -0.79441 -0.161766
0.438018 74.8932 -12.3946 -0.56368 -0.81761 -0.117377
1.19618 74.3349 -11.8024 -0.522007 -0.84874 -0.0845516
1.53039 74.1023 -11.531 -0.508824 -0.856296 -0.0886231
1.44737 74.2705 -12.9169 -0.576822 -0.813235 -0.0769753
0.69382 74.8501 -13.4941 -0.595239 -0.796807 -0.103875
-0.157324 75.5463 -13.874 -0.613585 -0.777877 -0.135723
-1.07037 76.3171 -14.0855 -0.623138 -0.767806 -0.148904
-1.92898 77.0651 -14.224 -0.643354 -0.739921 -0.196502
-2.97818 77.995 -14.2647 -0.645898 -0.72681 -0.233585
-3.8904 78.8248 -14.2237 -0.656399 -0.707059 -0.263074
-4.70387 79.5694 -14.1489 -0.663241 -0.697844 -0.270417
-5.63202 80.4315 -14.0148 -0.67027 -0.674914 -0.308593
-6.66212 81.3838 -13.8296 -0.667923 -0.647467 -0.366967
-7.14051 81.8298 -13.7286 -0.66065 -0.640401 -0.391699
-7.17952 82.3733 -14.5536 -0.699159 -0.606142 -0.379168
-6.39547 81.6046 -14.7228 -0.690446 -0.628291 -0.358518
-5.55946 80.7897 -14.8847 -0.697898 -0.63634 -0.328649
-4.66651 79.9129 -15.0231 -0.687862 -0.664418 -0.292223
-3.73753 79.0218 -15.1179 -0.665359 -0.697506 -0.266049
-2.91133 78.237 -15.1719 -0.679263 -0.694161 -0.238207
-2.08501 77.4659 -15.1839 -0.662478 -0.720406 -0.205276
-0.955041 76.4205 -15.0858 -0.664562 -0.731054 -0.154652
-0.123352 75.6883 -14.9199 -0.625127 -0.76891 -0.134136
0.846435 74.8715 -14.6092 -0.602967 -0.79317 -0.0855131
1.19328 74.5812 -14.4085 -0.611747 -0.786893 -0.0810189
0.796743 75.0317 -15.7114 -0.645768 -0.7584 -0.0883923
-0.18158 75.9012 -15.9586 -0.651183 -0.749942 -0.116394
-1.09211 76.763 -16.082 -0.677008 -0.715435 -0.172663
-1.94578 77.5891 -16.1112 -0.686367 -0.698164 -0.203634
-3.04687 78.6851 -16.054 -0.692353 -0.677393 -0.248568
-3.87915 79.5085 -15.9748 -0.707549 -0.656228 -0.26218
-4.65705 80.2957 -15.8721 -0.7131 -0.627375 -0.312872
-5.57023 81.2396 -15.7145 -0.705157 -0.627117 -0.330873
-6.49678 82.2081 -15.5311 -0.696879 -0.598511 -0.395151
-7.13387 82.8689 -15.3893 -0.713177 -0.581586 -0.391327
-7.08093 83.392 -16.219 -0.725073 -0.557243 -0.404659
-6.24588 82.4538 -16.4135 -0.71958 -0.593993 -0.359691
-5.43924 81.5713 -16.576 -0.717891 -0.612057 -0.33169
-4.6768 80.7304 -16.7218 -0.722107 -0.618669 -0.309533
-3.67553 79.6569 -16.8698 -0.710456 -0.645101 -0.281242
-2.90903 78.856 -16.9545 -0.705194 -0.67169 -0.227012
-2.00401 77.9235 -17.0249 -0.710831 -0.667178 -0.222695
-1.08605 76.9893 -17.0428 -0.693336 -0.698023 -0.179025
-0.211653 76.1239 -16.968 -0.68596 -0.713403 -0.143229
0.211365 75.7064 -16.9057 -0.661099 -0.742581 -0.107338
0.149911 75.9497 -17.9095 -0.711103 -0.693454 -0.115991
-0.735006 76.863 -17.9855 -0.715832 -0.680951 -0.154564
-1.60269 77.7849 -17.9527 -0.711088 -0.673123 -0.203124
-2.37274 78.6082 -17.8908 -0.730397 -0.643378 -0.229315
-3.11266 79.4272 -17.8161 -0.731362 -0.622876 -0.277731
-4.00148 80.4109 -17.6837 -0.72315 -0.622417 -0.299419
-4.86275 81.3945 -17.5392 -0.742257 -0.580406 -0.334938
-5.70459 82.3609 -17.3616 -0.733776 -0.568492 -0.372007
-6.43302 83.2198 -17.198 -0.736378 -0.551563 -0.391824
-6.97841 83.8846 -17.0661 -0.742289 -0.524799 -0.416646
-6.83866 84.3429 -17.9237 -0.759311 -0.506933 -0.408002
-6.0136 83.2984 -18.1218 -0.753244 -0.536676 -0.380265
-5.2919 82.414 -18.2881 -0.746921 -0.555274 -0.36576
-4.40147 81.3387 -18.4647 -0.74226 -0.580401 -0.334939
-3.63415 80.4092 -18.5961 -0.729786 -0.618143 -0.292081
-2.8684 79.5198 -18.7131 -0.743545 -0.615543 -0.261243
-2.09034 78.6076 -18.8029 -0.751032 -0.618302 -0.231632
-1.10308 77.5081 -18.889 -0.731265 -0.654013 -0.193697
-0.357501 76.6846 -18.923 -0.736253 -0.653824 -0.174484
-0.279571 76.5963 -18.9259 -0.741412 -0.657731 -0.133035
-0.327555 76.8697 -19.8452 -0.747908 -0.645963 -0.152858
-1.08662 77.7439 -19.7967 -0.75507 -0.628541 -0.186563
-1.93019 78.7649 -19.704 -0.767456 -0.599049 -0.228367
-2.63842 79.6151 -19.6144 -0.759496 -0.598142 -0.255718
-3.38965 80.5363 -19.489 -0.773238 -0.562635 -0.292479
-4.17715 81.5382 -19.349 -0.770246 -0.554918 -0.314304
-4.88494 82.434 -19.2096 -0.763927 -0.536903 -0.357981
-5.57201 83.3242 -19.0532 -0.762974 -0.527521 -0.373621
-6.38651 84.418 -18.8602 -0.765146 -0.497451 -0.408773
-6.56979 84.6652 -18.8151 -0.770459 -0.489721 -0.408125
-6.41071 85.1536 -19.68 -0.783029 -0.470432 -0.40689
-5.50113 83.8491 -19.8941 -0.788183 -0.481261 -0.383609
-4.84405 82.9445 -20.0467 -0.778563 -0.521115 -0.349684
-4.10253 81.9412 -20.1998 -0.775621 -0.539696 -0.327323
-3.14876 80.6709 -20.3828 -0.77761 -0.548853 -0.306731
-2.43761 79.7518 -20.5063 -0.781542 -0.568743 -0.256364
-1.76343 78.8822 -20.6055 -0.782143 -0.57196 -0.247212
-1.06511 78.0028 -20.6913 -0.774704 -0.602295 -0.192547
-0.318201 77.0802 -20.7653 -0.767654 -0.622588 -0.151961
-0.308457 77.0684 -20.7661 -0.76765 -0.622593 -0.151959
-0.530466 77.6019 -21.6463 -0.788418 -0.581126 -0.201717
-1.26536 78.5804 -21.5497 -0.795857 -0.570185 -0.203717
-1.94662 79.4928 -21.4453 -0.789534 -0.553214 -0.265689
-2.59718 80.3828 -21.3232 -0.786201 -0.544299 -0.292622
-3.30104 81.3532 -21.1893 -0.799431 -0.526451 -0.28941
-4.16384 82.5468 -21.0144 -0.792597 -0.507373 -0.338175
-4.94771 83.6822 -20.855 -0.789991 -0.498362 -0.357142
-5.58827 84.6413 -20.709 -0.788183 -0.48126 -0.383609
-6.16144 85.5032 -20.5689 -0.799116 -0.447265 -0.401705
-6.06616 86.119 -21.4173 -0.810596 -0.428295 -0.399372
-5.34337 84.9424 -21.5979 -0.805714 -0.444939 -0.390966
-4.74528 84.0195 -21.7295 -0.800002 -0.473397 -0.368635
-4.09637 83.0162 -21.8587 -0.810822 -0.475804 -0.340848
-3.31593 81.8657 -22.0263 -0.805222 -0.49904 -0.320275
-2.54565 80.7483 -22.1821 -0.801374 -0.525118 -0.286444
-1.87574 79.7898 -22.3139 -0.810419 -0.531262 -0.246944
-1.02269 78.5848 -22.4561 -0.799537 -0.556521 -0.225887
-0.593788 77.9834 -22.5255 -0.811745 -0.55255 -0.189101
-0.46169 78.1253 -23.4344 -0.81632 -0.530428 -0.228621
-1.19754 79.2201 -23.3007 -0.824018 -0.511718 -0.243186
-1.89532 80.243 -23.1649 -0.813471 -0.52012 -0.26027
-2.59558 81.3093 -23.019 -0.815418 -0.497564 -0.295843
-3.3341 82.4306 -22.8655 -0.805651 -0.500198 -0.317376
-3.99088 83.4545 -22.7215 -0.810819 -0.475806 -0.340855
-4.5759 84.4123 -22.601 -0.821737 -0.443608 -0.357716
-5.16307 85.3931 -22.4621 -0.818989 -0.425008 -0.385519
-5.78727 86.4266 -22.3134 -0.817677 -0.414322 -0.399677
-5.44475 86.6322 -23.2235 -0.834093 -0.386908 -0.393181
-4.89902 85.6705 -23.363 -0.828584 -0.418639 -0.371739
-4.26163 84.5583 -23.51 -0.826904 -0.435705 -0.355514
-3.58193 83.4162 -23.6556 -0.820654 -0.457977 -0.341736
-3.00039 82.4715 -23.7781 -0.823111 -0.467612 -0.322222
-2.20528 81.2061 -23.9486 -0.826333 -0.488741 -0.279832
-1.56874 80.2149 -24.0913 -0.81991 -0.500296 -0.278301
-0.963544 79.2789 -24.2117 -0.823421 -0.511519 -0.245612
-0.645233 78.7946 -24.2729 -0.835141 -0.494766 -0.240302
-0.344849 78.7185 -25.1924 -0.844928 -0.472407 -0.250856
-0.99677 79.7811 -25.068 -0.836105 -0.480434 -0.264788
-1.60957 80.7774 -24.937 -0.832491 -0.473886 -0.287039
-2.34887 81.9775 -24.7659 -0.834003 -0.456418 -0.310035
-2.99322 83.0625 -24.624 -0.825197 -0.454363 -0.335566
-3.58988 84.0741 -24.4994 -0.833153 -0.440051 -0.33498
-4.24984 85.2515 -24.3596 -0.835172 -0.4246 -0.349575
-5.04074 86.6938 -24.1714 -0.834334 -0.397159 -0.382297
-5.29196 87.1794 -24.1062 -0.840128 -0.378769 -0.388224
-4.85751 87.1738 -25.0661 -0.845546 -0.381319 -0.373693
-4.30926 86.109 -25.2058 -0.841459 -0.405384 -0.357227
-3.78001 85.1056 -25.3138 -0.840643 -0.414997 -0.34799
-3.10787 83.891 -25.4501 -0.840512 -0.425656 -0.335197
-2.35806 82.5847 -25.6068 -0.838121 -0.443034 -0.318237
-1.76467 81.5681 -25.7461 -0.842118 -0.451645 -0.294709
-1.09497 80.4429 -25.8973 -0.840809 -0.461744 -0.282545
-0.539757 79.5065 -26.0121 -0.852932 -0.449244 -0.265872
-0.257501 79.0132 -26.0697 -0.852026 -0.468559 -0.233461
-0.0707345 79.1717 -26.9592 -0.858601 -0.443945 -0.256354
-0.739982 80.3595 -26.8156 -0.845746 -0.457838 -0.274041
-1.40632 81.5213 -26.6761 -0.84788 -0.435819 -0.301929
-1.97353 82.5196 -26.5399 -0.84436 -0.438495 -0.30786
-2.70571 83.8298 -26.3842 -0.83929 -0.434127 -0.327302
-3.32087 84.964 -26.2585 -0.845835 -0.409899 -0.341388
-3.98756 86.2654 -26.1337 -0.846655 -0.38958 -0.362495
-4.51187 87.3175 -26.0047 -0.849423 -0.375629 -0.370653
-4.65829 87.6188 -25.9689 -0.857343 -0.357685 -0.370169
-4.48091 88.1338 -26.8699 -0.862355 -0.351467 -0.364437
-4.01382 87.1284 -26.9775 -0.85821 -0.374615 -0.350913
-3.468 86.0037 -27.0917 -0.852428 -0.385053 -0.353696
-2.8927 84.8668 -27.2026 -0.846616 -0.404674 -0.345659
-2.36095 83.8511 -27.3055 -0.845266 -0.408306 -0.344691
-1.52356 82.3224 -27.4965 -0.851038 -0.422919 -0.311246
-0.821824 81.0438 -27.6529 -0.85124 -0.437252 -0.290175
-0.278542 80.0656 -27.7659 -0.851875 -0.442862 -0.279612
