1.459 74.3839 -8.43237 -0.461321 -0.879291 -0.118259
1.83408 74.3333 -9.71779 -0.476339 -0.874712 -0.0893302
2.19112 74.2584 -11.0713 -0.517982 -0.852011 -0.0743928
2.14702 74.3793 -12.4286 -0.549945 -0.832535 -0.0666773
2.01741 74.5718 -13.9477 -0.601971 -0.796289 -0.0588593
1.80266 74.8219 -15.0643 -0.625073 -0.778117 -0.0617795
1.48732 75.189 -16.1671 -0.658259 -0.748733 -0.0780658
1.18517 75.6041 -17.3332 -0.683177 -0.724034 -0.0950992
0.934575 76.0048 -18.3787 -0.715767 -0.687718 -0.121329
0.685768 76.4863 -19.643 -0.748101 -0.649472 -0.132018
0.556982 76.8699 -20.6733 -0.781778 -0.609125 -0.133267
0.482748 77.2377 -21.7552 -0.790113 -0.593617 -0.152777
0.440706 77.73 -23.134 -0.816319 -0.543332 -0.195032
0.439055 78.0968 -24.1407 -0.84311 -0.502715 -0.189874
0.516298 78.4193 -25.228 -0.855928 -0.464672 -0.226595
0.640982 78.7335 -26.3115 -0.85981 -0.455369 -0.23101
0.784335 79.2811 -27.7361 -0.86246 -0.428016 -0.27012
0.407936 80.3486 -28.2333 -0.854995 -0.429104 -0.291295
-0.131706 81.4118 -28.2156 -0.852173 -0.429007 -0.299591
-0.775881 82.7013 -28.2046 -0.854907 -0.415587 -0.310517
-1.2882 83.7226 -28.1511 -0.854072 -0.409297 -0.320965
-1.8534 84.8745 -28.1117 -0.854959 -0.400389 -0.329748
-2.33819 85.9363 -28.111 -0.856531 -0.393289 -0.33407
-2.85947 87.1478 -28.1514 -0.864674 -0.371939 -0.337639
-3.33918 88.1655 -28.0356 -0.864267 -0.365119 -0.346021
-3.85354 88.9524 -27.5491 -0.867046 -0.34724 -0.357291
-4.31555 88.7679 -26.2672 -0.856394 -0.354423 -0.375464
-4.8171 88.2663 -24.6669 -0.848117 -0.361995 -0.386846
-5.18071 87.8273 -23.4836 -0.839163 -0.363081 -0.404942
-5.50467 87.4854 -22.4782 -0.83327 -0.377256 -0.403923
-5.8295 86.9716 -21.3211 -0.823423 -0.395787 -0.406604
-6.06958 86.4155 -20.2731 -0.794494 -0.441734 -0.416713
-6.33483 85.9688 -19.2749 -0.783865 -0.467495 -0.408526
-6.58857 85.3919 -18.1617 -0.772148 -0.469037 -0.428636
-6.76658 84.8814 -17.2314 -0.75662 -0.496724 -0.424902
-6.97705 84.1801 -15.9818 -0.738178 -0.539884 -0.404005
-7.13242 83.5512 -14.862 -0.703646 -0.578025 -0.413243
-7.18674 82.9512 -13.8705 -0.691481 -0.602401 -0.398346
-7.18354 82.2983 -12.8508 -0.657218 -0.646417 -0.386797
-7.19124 81.729 -11.8255 -0.643585 -0.662646 -0.382885
-7.10905 81.1185 -10.8424 -0.621098 -0.689325 -0.372894
-6.99729 80.3738 -9.57579 -0.58901 -0.725158 -0.355984
-6.91859 79.8036 -8.49391 -0.569821 -0.734817 -0.36721
-6.59158 79.1774 -7.6748 -0.539184 -0.763636 -0.355159
-6.14302 78.3991 -6.57995 -0.521597 -0.787117 -0.329216
-5.69904 77.7507 -5.61435 -0.484867 -0.817588 -0.310492
-5.1656 77.1358 -4.73941 -0.463418 -0.835663 -0.294755
-4.66868 76.5944 -3.93365 -0.430081 -0.858965 -0.277457
-4.06887 76.0388 -3.04815 -0.396491 -0.879778 -0.262269
-3.36997 75.4992 -2.20795 -0.379983 -0.895333 -0.232361
-2.30151 74.9544 -1.77659 -0.360595 -0.910794 -0.201063
-1.39423 74.7936 -2.71211 -0.365412 -0.911995 -0.186382
-0.874171 74.8256 -3.93691 -0.390948 -0.902082 -0.182778
-0.275526 74.7372 -4.97523 -0.420795 -0.894109 -0.153126
0.361631 74.625 -6.15777 -0.436445 -0.889999 -0.131736
0.901951 74.5155 -7.22004 -0.444781 -0.886983 -0.124163
1.34156 74.4153 -8.19719 -0.459851 -0.880905 -0.112001
2.14456 73.952 -7.65208 -0.431024 -0.897866 -0.089111
1.70314 74.0542 -6.66343 -0.41369 -0.904601 -0.101772
1.20835 74.1573 -5.68737 -0.41514 -0.902849 -0.111905
0.727876 74.2314 -4.6253 -0.394182 -0.909798 -0.129506
0.136198 74.3463 -3.71124 -0.389378 -0.908721 -0.150273
-0.394729 74.3841 -2.66197 -0.373497 -0.912961 -0.164293
-0.841028 74.3717 -1.67624 -0.342035 -0.920912 -0.186881
-1.79404 74.5359 -0.777628 -0.336439 -0.918671 -0.207008
-2.77434 74.8395 -0.563719 -0.335119 -0.913318 -0.231176
-3.66602 75.2967 -1.02331 -0.351099 -0.903762 -0.244611
-4.51629 75.8682 -1.82502 -0.364196 -0.895402 -0.256156
-5.10017 76.4031 -2.69704 -0.401333 -0.868608 -0.29029
-5.73462 77.053 -3.67744 -0.433799 -0.843224 -0.316994
-6.23164 77.6251 -4.47832 -0.448939 -0.837563 -0.311355
-6.68536 78.22 -5.32764 -0.486979 -0.810235 -0.326146
-7.07208 78.8592 -6.26302 -0.497603 -0.79317 -0.351101
-7.43214 79.5295 -7.18042 -0.516948 -0.769242 -0.375542
-7.64675 80.1775 -8.15526 -0.557243 -0.73973 -0.37708
-7.77001 80.7562 -9.07865 -0.577231 -0.716304 -0.391817
-7.87198 81.352 -10.0455 -0.592582 -0.703829 -0.391686
-8.03829 82.2046 -11.2511 -0.628664 -0.668265 -0.397748
-7.94683 82.7657 -12.3143 -0.657513 -0.636916 -0.40251
-7.96498 83.5939 -13.5341 -0.6662 -0.604947 -0.435492
-7.88013 84.2463 -14.5444 -0.701556 -0.570605 -0.426577
-7.72396 84.8282 -15.521 -0.726244 -0.535795 -0.430522
-7.50294 85.5209 -16.6937 -0.74947 -0.495179 -0.439423
-7.29105 86.0441 -17.6273 -0.762005 -0.475689 -0.439397
-7.05728 86.6056 -18.6209 -0.788628 -0.437027 -0.43252
-6.74409 87.1143 -19.701 -0.79485 -0.433112 -0.424826
-6.49444 87.6176 -20.6542 -0.809535 -0.407879 -0.422179
-6.21296 88.1092 -21.6532 -0.820582 -0.377136 -0.429334
-5.83654 88.5604 -22.7829 -0.836036 -0.359956 -0.413984
-5.44693 88.9886 -23.9729 -0.84622 -0.354285 -0.397986
-5.15995 89.4067 -24.9553 -0.856267 -0.339504 -0.389287
-4.80783 89.6976 -25.9948 -0.864431 -0.334053 -0.375687
-4.42695 89.9668 -27.1158 -0.870923 -0.333405 -0.361001
-4.05789 90.378 -28.3912 -0.881941 -0.31335 -0.352125
-3.45117 89.3351 -28.9343 -0.880509 -0.334275 -0.336065
-3.02213 88.3146 -29.0026 -0.871383 -0.358661 -0.334617
-2.42574 87.0303 -29.1443 -0.868061 -0.372363 -0.328287
-1.98786 85.9309 -29.0217 -0.861055 -0.38767 -0.329083
-1.4212 84.7311 -29.0746 -0.858883 -0.398409 -0.321837
-0.840055 83.5426 -29.1334 -0.857254 -0.407859 -0.314272
-0.352552 82.5879 -29.2212 -0.855908 -0.414033 -0.309837
0.211172 81.4186 -29.2036 -0.855315 -0.419548 -0.303999
0.7986 80.2485 -29.2598 -0.860768 -0.412764 -0.297832
1.3305 79.0721 -29.1669 -0.869141 -0.410422 -0.275949
1.4032 78.3881 -28.3528 -0.871975 -0.416259 -0.257558
1.24134 78.0592 -27.2306 -0.873797 -0.429961 -0.227072
1.10301 77.6602 -25.881 -0.863595 -0.459607 -0.207281
0.988286 77.4074 -24.7692 -0.855468 -0.492269 -0.159826
1.017 76.9799 -23.6242 -0.840546 -0.519499 -0.151911
1.06076 76.6243 -22.5079 -0.820233 -0.556534 -0.132238
1.16174 76.2542 -21.4706 -0.806253 -0.579997 -0.116448
1.29504 75.8939 -20.3537 -0.766895 -0.634787 -0.0916103
1.51319 75.4977 -19.2978 -0.737632 -0.670841 -0.0766237
1.7585 75.138 -18.3028 -0.720619 -0.691045 -0.0562613
2.04464 74.7799 -17.213 -0.66998 -0.740343 -0.0549457
2.38024 74.4165 -16.124 -0.641631 -0.766083 -0.0377724
2.68314 74.1273 -15.0272 -0.615542 -0.787543 -0.0297373
2.91488 73.9178 -13.8584 -0.574442 -0.818255 -0.0207112
3.03738 73.8136 -12.8004 -0.564541 -0.824945 -0.022785
3.12857 73.7157 -11.6603 -0.501975 -0.864627 -0.0165147
2.98431 73.738 -10.2919 -0.482871 -0.874855 -0.0353403
2.67756 73.822 -9.20896 -0.469954 -0.880221 -0.0659884
2.33238 73.9052 -8.12445 -0.447261 -0.888778 -0.100155
2.28454 73.9154 -8.00072 -0.442959 -0.891834 -0.0911659
3.03335 73.5077 -7.37368 -0.415017 -0.906556 -0.07692
2.54568 73.6282 -6.22351 -0.383299 -0.920755 -0.0695764
2.05443 73.7354 -5.25112 -0.395917 -0.912618 -0.101606
1.67978 73.7725 -4.24994 -0.383648 -0.915274 -0.122833
1.07932 73.8952 -3.34163 -0.37971 -0.914806 -0.13744
0.621774 73.922 -2.3045 -0.365185 -0.919211 -0.14719
0.188553 73.9193 -1.3118 -0.341235 -0.922842 -0.178665
-0.560831 74.0229 -0.422795 -0.299809 -0.940168 -0.16186
-1.53475 74.1944 0.333717 -0.313305 -0.924678 -0.216355
-2.54376 74.4525 0.664243 -0.281304 -0.933206 -0.221579
-3.72035 74.9537 0.257141 -0.317982 -0.914403 -0.250317
-4.68837 75.5225 -0.457744 -0.338472 -0.89852 -0.279411
-5.48343 76.1344 -1.35379 -0.37606 -0.878997 -0.293135
-6.0833 76.6806 -2.16546 -0.401863 -0.857892 -0.320095
-6.6382 77.2858 -3.05748 -0.418515 -0.852266 -0.31353
-7.19716 77.967 -4.01401 -0.452155 -0.826694 -0.334806
-7.54664 78.5216 -4.8695 -0.467732 -0.807769 -0.358438
-7.92617 79.1554 -5.755 -0.478145 -0.797964 -0.366921
-8.27059 79.8833 -6.747 -0.513879 -0.755197 -0.406904
-8.50128 80.5972 -7.72932 -0.549185 -0.726098 -0.413565
-8.76133 81.353 -8.70078 -0.58307 -0.706443 -0.401198
-8.78756 81.9054 -9.66254 -0.586957 -0.710483 -0.388194
-8.84602 82.5126 -10.5381 -0.616153 -0.660108 -0.429666
-8.9114 83.1897 -11.4556 -0.646983 -0.635234 -0.42177
-8.78779 83.683 -12.3901 -0.647896 -0.625756 -0.434351
-8.77842 84.4227 -13.3966 -0.674959 -0.585401 -0.449149
-8.57239 85.1816 -14.5932 -0.692686 -0.550829 -0.465294
-8.36758 85.8107 -15.6009 -0.728084 -0.496529 -0.472542
-8.14476 86.395 -16.5692 -0.749005 -0.473223 -0.463736
-7.84319 87.0923 -17.7459 -0.773381 -0.439267 -0.457085
-7.53188 87.705 -18.8415 -0.785082 -0.409249 -0.464477
-7.17441 88.1996 -19.9221 -0.802506 -0.404371 -0.438563
-6.89414 88.843 -20.9908 -0.818076 -0.375491 -0.435613
-6.48358 89.3641 -22.1937 -0.826272 -0.356206 -0.436338
-6.12067 89.7508 -23.2364 -0.838467 -0.353757 -0.414523
-5.73073 90.2171 -24.4321 -0.851779 -0.333895 -0.403715
-5.40392 90.6083 -25.443 -0.859595 -0.325544 -0.393848
-4.9957 90.8453 -26.5512 -0.868646 -0.319513 -0.378627
-4.68187 91.3059 -27.6687 -0.881031 -0.304281 -0.362211
-4.24781 91.447 -28.8689 -0.883313 -0.30841 -0.353002
-3.76744 91.1864 -29.8893 -0.89196 -0.316618 -0.322739
-3.37847 90.1663 -29.9478 -0.885798 -0.327943 -0.328352
-2.98164 89.1096 -29.9475 -0.879883 -0.345065 -0.326541
-2.51146 88.0286 -30.0369 -0.874057 -0.361123 -0.32488
-1.84595 86.5295 -30.107 -0.866777 -0.377526 -0.325832
-1.32736 85.3095 -30.0354 -0.863539 -0.391725 -0.317573
-0.748052 84.1317 -30.1375 -0.861149 -0.396081 -0.318651
-0.227097 83.0556 -30.1804 -0.860211 -0.405721 -0.308902
0.33564 81.9203 -30.2425 -0.857288 -0.415575 -0.303899
0.855843 80.8393 -30.2433 -0.859241 -0.413895 -0.300656
1.44131 79.5991 -30.2317 -0.863234 -0.405227 -0.300996
1.93936 78.4749 -30.1831 -0.872724 -0.38837 -0.29584
2.13612 77.7035 -29.7456 -0.879113 -0.379985 -0.287701
1.93792 77.4159 -28.6496 -0.88797 -0.385735 -0.250437
1.73506 77.1842 -27.5121 -0.881494 -0.415265 -0.224775
1.63391 76.7829 -26.2515 -0.878393 -0.432045 -0.204358
1.54179 76.5202 -25.0263 -0.868051 -0.474164 -0.147042
1.60692 76.0915 -23.7197 -0.829599 -0.548609 -0.101523
1.70903 75.6895 -22.4902 -0.819958 -0.562465 -0.10631
1.78891 75.3578 -21.3423 -0.795919 -0.598547 -0.0818143
2.04805 74.9697 -20.3633 -0.765606 -0.642524 -0.0191256
2.29613 74.6272 -19.2175 -0.736325 -0.67616 -0.0251573
2.63458 74.2541 -18.1251 -0.693538 -0.719774 -0.0305019
2.98001 73.9173 -17.011 -0.672334 -0.739987 -0.00451331
3.37157 73.6013 -15.6949 -0.624607 -0.780806 -0.0144018
3.66778 73.3852 -14.6287 -0.588192 -0.80867 0.00884533
3.86566 73.2563 -13.516 -0.553857 -0.830323 0.0375172
4.02247 73.1948 -12.3847 -0.508011 -0.86006 0.0410146
4.03956 73.2055 -11.2039 -0.468278 -0.883067 -0.00393609
3.9745 73.1904 -10.0261 -0.45129 -0.890983 -0.0498617
3.59183 73.315 -8.92678 -0.462272 -0.884936 -0.0562283
3.32025 73.4095 -7.76337 -0.428944 -0.901225 -0.0560791
3.21009 73.4489 -7.63356 -0.415022 -0.906554 -0.076921
-1.90706 75.0951 -3.09918 -0.380195 -0.901548 -0.20655
-3.05236 75.7744 -3.78109 -0.405204 -0.884067 -0.232885
-4.04536 76.3575 -4.17316 -0.415056 -0.873185 -0.255493
-4.92273 77.3088 -5.62881 -0.468125 -0.835301 -0.288325
-3.81692 76.5999 -5.32945 -0.455097 -0.848569 -0.269846
-2.66096 75.8638 -4.85699 -0.435355 -0.868065 -0.2386
-1.56114 75.1726 -4.13812 -0.413973 -0.887018 -0.204511
-1.49609 75.1312 -4.09025 -0.408518 -0.892151 -0.19282
-0.866832 75.0059 -4.90921 -0.41848 -0.890641 -0.177858
-2.07661 75.7992 -5.85658 -0.445819 -0.873455 -0.195759
-3.34169 76.6508 -6.42158 -0.496299 -0.839795 -0.220071
-4.48198 77.4212 -6.7228 -0.50116 -0.815531 -0.289391
-5.69012 78.2502 -6.92562 -0.50139 -0.809221 -0.306217
-6.19938 79.0863 -8.10184 -0.56302 -0.756862 -0.331914
-5.14064 78.3087 -8.02668 -0.554875 -0.77571 -0.300645
-4.11314 77.5565 -7.84495 -0.526559 -0.802623 -0.280236
-2.86065 76.6612 -7.50914 -0.51442 -0.824341 -0.236294
-1.54081 75.7529 -6.86127 -0.461239 -0.862721 -0.207295
-0.577151 75.0934 -6.1184 -0.434761 -0.883967 -0.172004
-0.507027 75.0446 -6.04512 -0.434759 -0.883967 -0.172009
0.168305 74.8406 -6.92785 -0.447707 -0.883347 -0.138765
-0.66807 75.4253 -7.72993 -0.479743 -0.862228 -0.162507
-1.5651 76.0787 -8.31393 -0.526067 -0.826292 -0.201233
-2.93383 77.0917 -8.82862 -0.548962 -0.806518 -0.219474
-4.31049 78.1311 -9.13915 -0.548204 -0.789569 -0.275776
-5.43472 78.9847 -9.19001 -0.573998 -0.762219 -0.299248
-5.95025 79.374 -9.20713 -0.573577 -0.74754 -0.334954
-6.29929 80.123 -10.2458 -0.604101 -0.719925 -0.341716
-5.19892 79.235 -10.2678 -0.593241 -0.747217 -0.299552
-4.20434 78.4653 -10.2645 -0.58486 -0.760925 -0.280949
-3.23192 77.6876 -10.1356 -0.561596 -0.795301 -0.228268
-1.86466 76.621 -9.81681 -0.564582 -0.797401 -0.21307
-0.88474 75.8633 -9.30188 -0.528293 -0.831983 -0.169446
0.147207 75.0945 -8.40963 -0.477485 -0.865699 -0.150246
0.646402 74.7429 -7.95395 -0.460077 -0.878387 -0.129482
1.01092 74.7235 -9.16012 -0.469047 -0.875668 -0.114893
0.172334 75.331 -9.94019 -0.50261 -0.85449 -0.131267
-0.900025 76.1699 -10.7031 -0.553737 -0.81137 -0.187226
-2.06035 77.0977 -11.1299 -0.575854 -0.792028 -0.20269
-3.01917 77.8822 -11.2882 -0.600363 -0.764818 -0.233706
-4.23998 78.8783 -11.3306 -0.601771 -0.751956 -0.269134
-5.3173 79.7677 -11.3127 -0.619523 -0.718106 -0.31704
-6.27617 80.5833 -11.2491 -0.614051 -0.713945 -0.336487
-6.50901 80.7769 -11.2349 -0.623756 -0.699109 -0.349535
-6.73372 81.4744 -12.1781 -0.647381 -0.672412 -0.358832
-5.66097 80.5118 -12.2861 -0.648978 -0.686744 -0.32743
-4.55877 79.5469 -12.3596 -0.632045 -0.716938 -0.294141
-3.62613 78.7325 -12.368 -0.615983 -0.746948 -0.250268
-2.56789 77.8281 -12.3119 -0.619384 -0.756539 -0.209792
-1.37541 76.8322 -12.1322 -0.593841 -0.781198 -0.192569
-0.175537 75.8611 -11.714 -0.582097 -0.800005 -0.145447
0.695612 75.171 -11.0596 -0.5295 -0.840917 -0.11175
1.45254 74.6211 -10.2793 -0.511615 -0.852606 -0.106366
1.58042 74.7054 -11.851 -0.544845 -0.83585 -0.067075
0.760678 75.3364 -12.5606 -0.571306 -0.810158 -0.131353
-0.172491 76.0915 -12.9856 -0.621079 -0.770093 -0.145664
-1.16893 76.9214 -13.2023 -0.615321 -0.766549 -0.183801
-2.14546 77.7656 -13.3192 -0.638229 -0.74201 -0.205146
-3.08369 78.6049 -13.3691 -0.657001 -0.710417 -0.252304
-4.25003 79.6712 -13.3552 -0.660464 -0.694445 -0.285542
-5.20584 80.5491 -13.2936 -0.66196 -0.68322 -0.308252
-6.16656 81.4548 -13.1888 -0.667911 -0.658802 -0.346231
-6.56261 81.8348 -13.1378 -0.672242 -0.654161 -0.346648
-6.74112 82.5441 -14.0298 -0.692181 -0.614251 -0.378922
-5.83112 81.6252 -14.1605 -0.687894 -0.636139 -0.349471
-4.75648 80.5668 -14.2824 -0.677609 -0.668195 -0.307183
-3.78175 79.6146 -14.3445 -0.670662 -0.690388 -0.271252
-2.77228 78.6545 -14.3508 -0.66822 -0.707604 -0.229736
-1.80912 77.7544 -14.3084 -0.651215 -0.732842 -0.197132
-0.783521 76.8311 -14.1979 -0.630009 -0.761125 -0.154197
0.262142 75.9282 -13.9948 -0.620786 -0.773604 -0.127131
1.21866 75.132 -13.623 -0.587146 -0.803806 -0.0956805
1.60791 74.8246 -13.2893 -0.586062 -0.806545 -0.077569
1.19146 75.2991 -14.8903 -0.640318 -0.764311 -0.0762988
0.20597 76.1616 -15.1024 -0.650881 -0.749292 -0.122132
-0.764921 77.0427 -15.2416 -0.661618 -0.734782 -0.149523
-1.81071 78.0371 -15.3166 -0.674651 -0.708409 -0.207371
-2.84275 79.0671 -15.3288 -0.692931 -0.68137 -0.235759
-3.96297 80.1904 -15.283 -0.685499 -0.66586 -0.294485
-5.12447 81.3939 -15.1683 -0.6938 -0.641264 -0.327753
-6.10163 82.4295 -15.0382 -0.705989 -0.605154 -0.367924
-6.58078 82.9487 -14.9587 -0.709318 -0.579436 -0.401399
-6.63568 83.627 -15.8373 -0.72731 -0.552239 -0.407495
-5.5896 82.4178 -16.0159 -0.726538 -0.585528 -0.359584
-4.57533 81.2845 -16.1525 -0.725154 -0.613785 -0.312121
-3.67214 80.2898 -16.2391 -0.713835 -0.64595 -0.270534
-2.72057 79.2894 -16.2916 -0.701005 -0.665206 -0.257086
-1.82399 78.357 -16.3053 -0.706476 -0.675285 -0.211851
-0.781815 77.3026 -16.2737 -0.690086 -0.701325 -0.178676
0.106086 76.4331 -16.1933 -0.682513 -0.717791 -0.137664
0.987379 75.6171 -16.0575 -0.670546 -0.736467 -0.0893565
0.67104 76.0691 -17.18 -0.699658 -0.70634 -0.107525
-0.255486 77.0118 -17.2742 -0.702243 -0.696185 -0.148932
-1.29668 78.1036 -17.2934 -0.71487 -0.66912 -0.203073
-2.30877 79.2014 -17.2754 -0.728865 -0.642119 -0.23757
-3.2179 80.2159 -17.2178 -0.720965 -0.627232 -0.294602
-4.28231 81.4429 -17.1141 -0.741076 -0.592032 -0.316709
-5.08339 82.3903 -17.0011 -0.737492 -0.576456 -0.351857
-5.94756 83.4256 -16.8534 -0.739371 -0.547137 -0.392392
-6.40301 83.9914 -16.7689 -0.750278 -0.521668 -0.406135
-6.25291 84.486 -17.6875 -0.755181 -0.509043 -0.413009
-5.32069 83.2732 -17.8674 -0.759908 -0.527976 -0.379184
-4.3587 82.0687 -18.0271 -0.749607 -0.567153 -0.341213
-3.44478 80.925 -18.1322 -0.748651 -0.589661 -0.30302
-2.59604 79.9271 -18.218 -0.747374 -0.608189 -0.267467
-1.59852 78.7526 -18.2655 -0.735519 -0.640644 -0.220426
-0.478951 77.4945 -18.2837 -0.737543 -0.6507 -0.180609
0.571298 76.355 -18.2208 -0.72362 -0.678161 -0.128343
0.0825532 77.1195 -19.251 -0.7507 -0.640739 -0.160946
-0.862134 78.2255 -19.2466 -0.755298 -0.626301 -0.193057
-1.80445 79.364 -19.2068 -0.757026 -0.599798 -0.259141
-2.73211 80.5144 -19.1404 -0.761379 -0.593457 -0.260981
-3.68481 81.751 -19.0372 -0.764033 -0.562781 -0.315485
-4.58294 82.9262 -18.9098 -0.767078 -0.531845 -0.358793
-5.33779 83.9373 -18.7671 -0.768955 -0.516601 -0.376606
-6.1254 85.0306 -18.6109 -0.766114 -0.496791 -0.40776
-6.19389 85.1251 -18.5973 -0.773052 -0.481498 -0.412977
-5.9157 85.5027 -19.5549 -0.787979 -0.468935 -0.398986
-5.05052 84.2218 -19.7284 -0.791626 -0.479512 -0.378676
-4.22738 83.0543 -19.8799 -0.788246 -0.511588 -0.341974
-3.39744 81.9022 -19.9972 -0.782757 -0.535382 -0.317266
-2.6333 80.8599 -20.0821 -0.767401 -0.568558 -0.296373
-1.75952 79.7021 -20.1534 -0.77424 -0.576876 -0.260322
-0.927125 78.6171 -20.1941 -0.775767 -0.59071 -0.22192
-0.0857945 77.5715 -20.2232 -0.770781 -0.613481 -0.171864
0.218859 77.1897 -20.2247 -0.764503 -0.628048 -0.145228
0.0545455 77.6673 -21.2098 -0.801311 -0.574355 -0.167386
-0.747687 78.7513 -21.1559 -0.779542 -0.581304 -0.233236
-1.51854 79.7864 -21.1029 -0.7867 -0.569872 -0.237379
-2.52226 81.2025 -21.0211 -0.787434 -0.541788 -0.293962
-3.38487 82.4323 -20.9176 -0.790999 -0.517243 -0.326773
-4.08246 83.4597 -20.815 -0.799104 -0.490662 -0.347394
-4.78598 84.5349 -20.6944 -0.79946 -0.471788 -0.371859
-5.47673 85.603 -20.5542 -0.796472 -0.459172 -0.393438
-5.60478 85.8015 -20.5267 -0.802957 -0.445986 -0.39542
-5.44686 86.3737 -21.4642 -0.807866 -0.430561 -0.402455
-4.77249 85.2394 -21.6087 -0.809629 -0.440531 -0.387857
-3.99903 84.0116 -21.7434 -0.808794 -0.473234 -0.349145
-3.29956 82.8915 -21.8544 -0.813327 -0.477463 -0.332459
-2.52771 81.739 -21.9469 -0.806803 -0.506579 -0.304051
-1.80356 80.6501 -22.013 -0.803044 -0.526927 -0.278331
-1.10682 79.6283 -22.0707 -0.808928 -0.536031 -0.241468
-0.298292 78.4688 -22.1276 -0.80344 -0.561373 -0.198355
0.116242 77.8862 -22.1528 -0.811944 -0.554679 -0.181874
-0.0328042 78.4441 -23.0942 -0.820158 -0.532069 -0.21034
-0.806268 79.6142 -23.0261 -0.822194 -0.516551 -0.239109
-1.58103 80.8067 -22.9635 -0.818178 -0.510398 -0.264723
-2.28024 81.9035 -22.9036 -0.813699 -0.495669 -0.303655
-3.02158 83.0789 -22.816 -0.820338 -0.47005 -0.325729
-3.75559 84.2828 -22.7035 -0.817133 -0.463211 -0.343116
-4.49776 85.5629 -22.5639 -0.82719 -0.424225 -0.368496
-5.1238 86.6485 -22.4293 -0.827152 -0.403301 -0.391368
-5.21423 86.8137 -22.4084 -0.827078 -0.403372 -0.391449
-4.91678 87.1341 -23.3623 -0.83645 -0.387356 -0.387695
-4.26649 85.9374 -23.513 -0.82807 -0.415945 -0.375886
-3.50184 84.5747 -23.6622 -0.829166 -0.436975 -0.348622
-2.83002 83.4075 -23.7677 -0.828811 -0.451828 -0.330036
-2.14612 82.2677 -23.8505 -0.822136 -0.471023 -0.319733
-1.37399 80.9831 -23.9209 -0.82928 -0.487374 -0.273424
-0.616281 79.7624 -23.9856 -0.823546 -0.510027 -0.248282
0.155619 78.5384 -24.0681 -0.835289 -0.500568 -0.227428
0.179062 78.9252 -25.0251 -0.847588 -0.472906 -0.240738
-0.538942 80.1146 -24.9454 -0.833628 -0.484232 -0.265677
-1.29163 81.3978 -24.8684 -0.834888 -0.465747 -0.293328
-2.13477 82.8707 -24.7785 -0.835417 -0.452226 -0.312362
-2.77214 83.9921 -24.6944 -0.833402 -0.439782 -0.334713
-3.53396 85.3909 -24.5749 -0.838183 -0.41655 -0.352046
-4.19229 86.6309 -24.4369 -0.841803 -0.393602 -0.369384
-4.66158 87.5543 -24.3291 -0.84202 -0.385167 -0.377689
-4.40073 87.973 -25.3092 -0.856216 -0.36086 -0.369695
-3.68187 86.5014 -25.4655 -0.847984 -0.385924 -0.363298
-3.03357 85.2372 -25.5814 -0.844511 -0.410321 -0.344149
-2.45692 84.1351 -25.6666 -0.844575 -0.417036 -0.335819
-1.79301 82.9112 -25.7451 -0.837354 -0.44322 -0.319991
-1.07809 81.618 -25.8306 -0.84372 -0.448764 -0.29453
-0.315075 80.2799 -25.9075 -0.83854 -0.468867 -0.277513
0.308225 79.1813 -25.9815 -0.847355 -0.473031 -0.241309
0.320124 79.6908 -26.9239 -0.853056 -0.443412 -0.2751
-0.338267 80.902 -26.8476 -0.846385 -0.445935 -0.29116
-0.947233 82.0221 -26.7789 -0.848703 -0.432628 -0.304197
-1.557 83.1629 -26.7014 -0.845154 -0.427199 -0.321272
-2.14072 84.2721 -26.6323 -0.847687 -0.413539 -0.332283
-2.77841 85.5287 -26.547 -0.850286 -0.39572 -0.347014
-3.44894 86.9037 -26.4345 -0.857709 -0.377308 -0.349247
-3.89748 87.8393 -26.3442 -0.856312 -0.357647 -0.372583
-3.61935 88.1467 -27.3289 -0.862338 -0.360481 -0.355565
-3.02076 86.8528 -27.4346 -0.858929 -0.378815 -0.344586
-2.4784 85.7259 -27.5124 -0.852074 -0.39829 -0.33961
-1.961 84.6747 -27.5851 -0.85248 -0.409394 -0.325077
