1.18033 75.0827 -8.13646 -0.472447 -0.873429 -0.117653
1.65247 74.9612 -9.19101 -0.486458 -0.867923 -0.100339
2.12106 74.8191 -10.2975 -0.494586 -0.863998 -0.0943021
2.25858 74.8516 -11.5007 -0.538688 -0.838428 -0.0827846
2.26315 74.9412 -12.617 -0.551196 -0.832132 -0.0592761
2.30587 75.0005 -13.7787 -0.610546 -0.789243 -0.0657962
2.18115 75.1817 -14.8254 -0.633306 -0.771122 -0.0648768
1.90743 75.5223 -16.0768 -0.661319 -0.746076 -0.0776401
1.64276 75.9177 -17.3294 -0.690287 -0.717478 -0.0934336
1.43303 76.2704 -18.3475 -0.741377 -0.661911 -0.110607
1.26549 76.6129 -19.3159 -0.761187 -0.641109 -0.0978433
1.11354 77.0412 -20.558 -0.786846 -0.60331 -0.129965
1.0219 77.449 -21.6651 -0.807173 -0.570903 -0.150136
0.995472 77.7787 -22.6437 -0.826627 -0.534182 -0.177025
1.02472 78.1437 -23.8133 -0.837186 -0.512654 -0.19054
1.05595 78.4834 -24.8065 -0.848543 -0.479024 -0.224745
1.1469 78.9832 -26.1559 -0.860095 -0.453506 -0.233601
1.28737 79.4146 -27.4099 -0.864062 -0.426465 -0.26744
0.941348 80.519 -28.055 -0.853944 -0.431959 -0.290158
0.360516 81.6961 -28.0818 -0.85633 -0.425356 -0.292867
-0.150121 82.7261 -28.0904 -0.850115 -0.424053 -0.312224
-0.70399 83.8321 -28.0626 -0.853726 -0.411742 -0.318737
-1.15539 84.7559 -28.0224 -0.854287 -0.403439 -0.327768
-1.69566 85.8708 -27.9465 -0.861027 -0.386644 -0.330347
-2.2087 87.0596 -27.9835 -0.862999 -0.375262 -0.338246
-2.63534 88.0088 -27.9163 -0.866593 -0.357365 -0.348291
-3.10593 89.0641 -27.8108 -0.872484 -0.349166 -0.341841
-3.58312 89.2812 -26.8482 -0.868263 -0.34432 -0.357045
-3.92878 88.9384 -25.7173 -0.858351 -0.353872 -0.371495
-4.3216 88.4708 -24.3847 -0.849966 -0.358896 -0.385683
-4.6531 88.2121 -23.4084 -0.839681 -0.381851 -0.386167
-4.93362 87.8686 -22.477 -0.828647 -0.390444 -0.401121
-5.1866 87.3603 -21.4752 -0.822887 -0.396197 -0.407245
-5.49307 86.8709 -20.3729 -0.812259 -0.41394 -0.410962
-5.79959 86.4652 -19.3737 -0.802215 -0.431073 -0.41307
-6.01404 85.8866 -18.325 -0.780743 -0.465202 -0.417166
-6.19687 85.3083 -17.3185 -0.77032 -0.495013 -0.401956
-6.43455 84.861 -16.3414 -0.743639 -0.522283 -0.417399
-6.54052 84.3002 -15.4086 -0.728485 -0.551024 -0.406725
-6.62751 83.7197 -14.4669 -0.709381 -0.572413 -0.411244
-6.68816 83.1457 -13.5033 -0.691468 -0.603919 -0.395723
-6.66517 82.3152 -12.1603 -0.648871 -0.658363 -0.381477
-6.56478 81.6009 -11.0658 -0.636405 -0.677901 -0.368019
-6.57148 81.1201 -10.1284 -0.608653 -0.71013 -0.353916
-6.37484 80.5522 -9.29492 -0.602449 -0.721671 -0.340949
-6.14045 79.9647 -8.41091 -0.575095 -0.749002 -0.329032
-5.90537 79.313 -7.28774 -0.552308 -0.766446 -0.327285
-5.65845 78.7845 -6.4033 -0.517606 -0.793643 -0.319698
-5.21484 78.172 -5.56363 -0.494235 -0.813737 -0.30553
-4.71361 77.5412 -4.60192 -0.465614 -0.838398 -0.283227
-4.20724 76.9925 -3.75062 -0.43594 -0.860516 -0.26357
-3.59668 76.4745 -3.02167 -0.406087 -0.875605 -0.261552
-2.8316 75.9479 -2.38222 -0.38782 -0.892045 -0.232014
-1.71117 75.5101 -2.59999 -0.396209 -0.895181 -0.204044
-1.04057 75.4516 -3.68977 -0.411771 -0.892859 -0.182337
-0.494871 75.4088 -4.75903 -0.420399 -0.890419 -0.174411
0.0424765 75.3583 -5.94182 -0.445321 -0.88298 -0.147342
0.508372 75.2634 -6.90021 -0.470499 -0.870383 -0.144494
1.08618 75.1094 -7.94816 -0.460172 -0.880178 -0.11579
1.87215 74.6338 -7.45803 -0.452167 -0.886572 -0.0976487
1.36779 74.7762 -6.54522 -0.437614 -0.89231 -0.110641
0.890975 74.8771 -5.54407 -0.433288 -0.893698 -0.116468
0.486411 74.9172 -4.55473 -0.407872 -0.901629 -0.143386
-0.0174752 74.9832 -3.61407 -0.394959 -0.907275 -0.144266
-0.536364 75.0055 -2.5299 -0.374718 -0.909719 -0.178155
-1.28279 75.0978 -1.5209 -0.347371 -0.918822 -0.187293
-2.43435 75.46 -1.08448 -0.366568 -0.905669 -0.213055
-3.38638 75.9045 -1.341 -0.370173 -0.892496 -0.257725
-4.09827 76.3857 -1.97366 -0.391061 -0.87967 -0.269966
-4.77794 76.9181 -2.64855 -0.407199 -0.869626 -0.279175
-5.35425 77.54 -3.62442 -0.445363 -0.841147 -0.306795
-5.79828 78.0841 -4.42124 -0.469504 -0.823714 -0.317902
-6.24571 78.7072 -5.31336 -0.491206 -0.802475 -0.338749
-6.60745 79.3049 -6.16798 -0.51642 -0.787167 -0.337163
-6.82165 79.8689 -7.08504 -0.534812 -0.765956 -0.356774
-7.00597 80.4285 -7.98118 -0.576158 -0.738113 -0.351043
-7.22746 81.0819 -8.9511 -0.589275 -0.717671 -0.371041
-7.44236 81.7107 -9.81577 -0.600144 -0.698526 -0.389694
-7.37419 82.3978 -11.1126 -0.645154 -0.6562 -0.391381
-7.50371 83.0421 -11.9515 -0.661083 -0.634514 -0.400451
-7.45674 83.6711 -12.9744 -0.669246 -0.599516 -0.438506
-7.38492 84.2664 -13.9308 -0.694827 -0.575047 -0.431246
-7.22625 84.7586 -14.8397 -0.714711 -0.550696 -0.430949
-7.189 85.4096 -15.6922 -0.73824 -0.512502 -0.43857
-6.93378 85.8841 -16.6605 -0.757567 -0.486634 -0.435063
-6.71288 86.3519 -17.5558 -0.777363 -0.460955 -0.42805
-6.51912 87.0575 -18.6325 -0.791586 -0.436456 -0.427667
-6.21821 87.5687 -19.6788 -0.802001 -0.414243 -0.430344
-5.86806 87.9833 -20.738 -0.812497 -0.399179 -0.424769
-5.61443 88.46 -21.653 -0.822941 -0.379379 -0.422696
-5.35031 88.9191 -22.6109 -0.835423 -0.368068 -0.40802
-4.97396 89.2087 -23.6419 -0.847045 -0.355672 -0.394977
-4.67797 89.578 -24.6129 -0.855085 -0.340999 -0.390575
-4.29291 90.0595 -25.9083 -0.860188 -0.336862 -0.38277
-3.92313 90.2866 -26.9677 -0.869215 -0.324229 -0.373277
-3.57577 90.4764 -27.9905 -0.880975 -0.319374 -0.349098
-3.16845 90.2221 -28.7955 -0.879075 -0.329439 -0.344358
-2.73245 89.084 -28.7912 -0.878627 -0.340262 -0.335016
-2.19916 87.912 -28.9434 -0.87173 -0.362546 -0.329542
-1.75606 86.8804 -28.9577 -0.865642 -0.374984 -0.331661
-1.2205 85.6683 -28.9472 -0.86423 -0.387133 -0.3213
-0.679636 84.5495 -29.0248 -0.857797 -0.401097 -0.321412
-0.18828 83.5236 -29.0418 -0.856814 -0.409427 -0.313432
0.273912 82.5705 -29.0528 -0.855761 -0.415234 -0.308632
0.759706 81.5837 -29.0651 -0.856564 -0.418967 -0.301272
1.29631 80.4596 -29.0452 -0.861636 -0.412129 -0.296196
1.83774 79.2879 -29.0013 -0.870037 -0.408534 -0.275926
1.89755 78.5285 -28.0199 -0.875833 -0.410266 -0.253837
1.69589 78.1697 -26.6641 -0.874524 -0.429344 -0.225545
1.64446 77.7939 -25.6741 -0.869764 -0.450222 -0.202015
1.58989 77.4563 -24.5505 -0.856489 -0.488279 -0.167363
1.55534 77.1329 -23.3671 -0.843846 -0.514276 -0.153112
1.61677 76.7357 -22.1674 -0.816918 -0.560936 -0.133473
1.70313 76.3926 -21.1933 -0.808914 -0.573933 -0.127515
1.84345 76.0548 -20.1916 -0.789947 -0.6078 -0.0810045
2.02874 75.7161 -19.1949 -0.756492 -0.649968 -0.0725347
2.24442 75.3902 -18.1692 -0.728486 -0.682857 -0.0548998
2.49465 75.0756 -17.1211 -0.703592 -0.709894 -0.0317603
2.8179 74.7189 -15.9525 -0.639639 -0.767865 -0.0352965
3.07409 74.4508 -14.6683 -0.626507 -0.778437 -0.0387513
3.16964 74.3493 -13.3691 -0.585382 -0.810587 -0.01663
3.17979 74.2964 -12.2744 -0.54058 -0.839996 -0.0362079
3.13755 74.2716 -10.9368 -0.50213 -0.863002 -0.055622
2.93382 74.3096 -9.81244 -0.4876 -0.869346 -0.0805242
2.4002 74.4791 -8.50067 -0.469151 -0.879468 -0.0802121
1.98686 74.596 -7.64591 -0.455144 -0.884503 -0.102294
2.6832 74.1879 -7.03336 -0.423611 -0.902024 -0.0824682
3.19565 74.0213 -7.96919 -0.430673 -0.899317 -0.0758251
3.68065 73.8429 -9.1154 -0.468141 -0.880382 -0.0757833
4.03418 73.7278 -10.1699 -0.478321 -0.876617 -0.0524572
4.16254 73.6897 -11.2776 -0.490889 -0.871201 -0.00608817
4.11554 73.7017 -12.5248 -0.549685 -0.835168 0.0156534
4.06467 73.7061 -13.5397 -0.594034 -0.804371 0.00545794
3.92237 73.7946 -14.9408 -0.60808 -0.793757 0.00124734
3.64661 74.0267 -16.1026 -0.637781 -0.76965 0.012091
3.3377 74.2728 -17.0625 -0.685962 -0.727392 -0.00551255
3.07121 74.5455 -18.1361 -0.708463 -0.705238 -0.0268012
2.76749 74.8938 -19.1906 -0.733255 -0.679175 -0.0325323
2.54427 75.1804 -20.167 -0.77612 -0.629821 -0.0310182
2.32994 75.5419 -21.2839 -0.81158 -0.580308 -0.0674493
2.19112 75.9611 -22.4845 -0.823519 -0.558154 -0.100709
2.11875 76.3074 -23.6724 -0.84144 -0.53171 -0.0947812
2.10472 76.6609 -24.9596 -0.874796 -0.46335 -0.140973
2.14519 76.9244 -25.9501 -0.885113 -0.423452 -0.193037
2.22395 77.2573 -27.0205 -0.888077 -0.413356 -0.200885
2.39152 77.5118 -28.1378 -0.880922 -0.399549 -0.253642
2.62059 77.6946 -29.2282 -0.887558 -0.371056 -0.27207
2.6433 78.3257 -30.1192 -0.877486 -0.383923 -0.287329
2.18543 79.2614 -30.0111 -0.868061 -0.3965 -0.298762
1.63766 80.4662 -30.0489 -0.863063 -0.405823 -0.300717
1.07831 81.6278 -30.0381 -0.861186 -0.410997 -0.299059
0.558469 82.6996 -30.0201 -0.859975 -0.40869 -0.305604
0.0148646 83.8404 -30.0053 -0.860641 -0.399867 -0.315282
-0.59547 85.1085 -29.9436 -0.861293 -0.394293 -0.320481
-1.05849 86.1194 -29.9256 -0.866508 -0.384559 -0.318243
-1.5529 87.2937 -29.9649 -0.868078 -0.373998 -0.326443
-2.04205 88.4313 -29.9277 -0.87594 -0.355972 -0.325589
-2.48097 89.4238 -29.8241 -0.882179 -0.343752 -0.321861
-2.86348 90.5155 -29.8874 -0.887092 -0.325878 -0.326856
-3.26437 91.4942 -29.7463 -0.891666 -0.313839 -0.326116
-3.72922 91.9165 -28.8968 -0.88807 -0.308241 -0.340931
-3.98007 91.5236 -27.9241 -0.881258 -0.310314 -0.356497
-4.35251 91.3624 -26.8962 -0.873389 -0.312324 -0.373692
-4.74873 91.0038 -25.6927 -0.863319 -0.325634 -0.385542
-5.10144 90.5945 -24.5845 -0.850413 -0.33361 -0.406649
-5.39623 90.2335 -23.6486 -0.84657 -0.34439 -0.405797
-5.75545 89.928 -22.6583 -0.840485 -0.352669 -0.41135
-6.09803 89.4924 -21.6415 -0.823614 -0.363863 -0.435045
-6.35503 88.9655 -20.7071 -0.815552 -0.387937 -0.429363
-6.71081 88.5521 -19.6864 -0.803176 -0.402333 -0.439314
-7.00647 88.058 -18.7208 -0.780743 -0.422548 -0.460319
-7.26249 87.5686 -17.8247 -0.779668 -0.428599 -0.456496
-7.48463 86.8829 -16.7695 -0.763963 -0.45807 -0.454453
-7.89447 86.2719 -15.4884 -0.738045 -0.493078 -0.460612
-7.9108 85.5808 -14.7296 -0.716264 -0.522298 -0.461815
-8.13311 85.0584 -13.7346 -0.709609 -0.544802 -0.446819
-8.25151 84.3945 -12.7473 -0.662515 -0.592595 -0.458153
-8.35707 83.8101 -11.7794 -0.655395 -0.63404 -0.410428
-8.2613 83.1265 -10.8878 -0.64001 -0.643196 -0.420341
-8.28503 82.4525 -9.81236 -0.618965 -0.663309 -0.420206
-8.19721 81.8415 -8.86948 -0.595815 -0.71093 -0.373609
-8.01471 81.1988 -7.9466 -0.575563 -0.722636 -0.382786
-7.79817 80.5875 -7.10795 -0.558258 -0.725683 -0.40216
-7.61751 79.994 -6.18864 -0.528441 -0.762699 -0.372882
-7.22037 79.2595 -5.20031 -0.478226 -0.794683 -0.373764
-6.86635 78.6601 -4.3275 -0.468647 -0.805817 -0.36198
-6.36038 77.9507 -3.31542 -0.45027 -0.824554 -0.342589
-5.82327 77.3215 -2.35218 -0.413455 -0.861683 -0.294206
-5.24198 76.7901 -1.5985 -0.385933 -0.870632 -0.305049
-4.38134 76.1216 -0.685545 -0.360927 -0.890469 -0.277058
-3.54402 75.5969 -0.0688463 -0.347756 -0.895178 -0.278788
-2.35124 75.1427 0.0264932 -0.328607 -0.916059 -0.229509
-1.36261 74.8222 -0.0759671 -0.342971 -0.918344 -0.19752
-0.373453 74.6529 -1.0044 -0.337355 -0.923579 -0.182187
0.255487 74.5665 -1.88966 -0.365614 -0.915668 -0.166967
0.750564 74.5445 -2.96221 -0.379508 -0.913633 -0.145768
1.21486 74.4932 -3.89623 -0.384413 -0.913525 -0.133035
1.65855 74.441 -4.95978 -0.403176 -0.907224 -0.119975
2.17449 74.3071 -5.89624 -0.42075 -0.902063 -0.0961602
2.58856 74.214 -6.85592 -0.425778 -0.900398 -0.0888551
-2.91932 76.2723 -3.46476 -0.425531 -0.876105 -0.226634
-2.12471 75.8732 -3.37494 -0.408503 -0.886758 -0.216299
-1.32311 75.702 -4.23608 -0.421042 -0.883986 -0.203206
-2.3439 76.2185 -4.35452 -0.424916 -0.882426 -0.201915
-3.3115 76.7404 -4.44863 -0.450837 -0.859615 -0.240432
-4.07056 77.1585 -4.52006 -0.44695 -0.858745 -0.250585
-4.37935 77.6365 -5.43828 -0.479571 -0.827056 -0.293241
-3.46068 77.1035 -5.39112 -0.465777 -0.841148 -0.274811
-2.53393 76.5702 -5.32455 -0.459524 -0.863871 -0.206311
-1.51684 76.0068 -5.23062 -0.440182 -0.879187 -0.182402
-0.900959 75.6839 -5.16057 -0.449138 -0.876174 -0.174911
-0.521154 75.6662 -6.10744 -0.44697 -0.879202 -0.164991
-1.55261 76.2398 -6.20126 -0.48581 -0.849931 -0.203977
-2.43164 76.7545 -6.26462 -0.495803 -0.842185 -0.211907
-3.36355 77.3154 -6.31253 -0.491449 -0.833052 -0.253971
-4.24476 77.8488 -6.33517 -0.513367 -0.808696 -0.287166
-4.93141 78.2848 -6.32926 -0.523889 -0.803134 -0.283752
-5.22826 78.8081 -7.2062 -0.531892 -0.790651 -0.303252
-4.1326 78.0896 -7.23341 -0.523565 -0.808276 -0.269387
-3.23737 77.5025 -7.23289 -0.524823 -0.810596 -0.259798
-2.17503 76.842 -7.19585 -0.510261 -0.832798 -0.214666
-1.10493 76.1899 -7.13068 -0.499519 -0.848094 -0.176684
-0.0620908 75.5923 -7.04155 -0.464 -0.871927 -0.156355
0.484134 75.4444 -7.97278 -0.482286 -0.863075 -0.150006
-0.417552 75.978 -8.04505 -0.507603 -0.84575 -0.164456
-1.75669 76.8094 -8.11893 -0.519151 -0.830589 -0.201504
-2.62918 77.3771 -8.14336 -0.546113 -0.803646 -0.23646
-3.52688 77.9844 -8.15327 -0.529014 -0.808159 -0.258887
-4.6274 78.7389 -8.11772 -0.543661 -0.78927 -0.285457
-5.47654 79.3196 -8.06489 -0.558613 -0.766719 -0.316375
-5.5619 79.3791 -8.05844 -0.558618 -0.766714 -0.316379
-5.77084 79.8915 -8.90166 -0.576835 -0.751236 -0.32079
-4.64089 79.0776 -9.00389 -0.567363 -0.765174 -0.304316
-3.69437 78.3997 -9.05225 -0.569998 -0.781229 -0.254524
-2.53254 77.578 -9.07106 -0.553876 -0.802146 -0.223121
-1.58368 76.9204 -9.05837 -0.54346 -0.811654 -0.214169
-0.673382 76.3319 -9.02129 -0.526786 -0.831786 -0.175009
0.217985 75.7701 -8.9656 -0.518783 -0.841772 -0.14928
0.8058 75.4122 -8.91914 -0.497893 -0.856528 -0.135877
1.33944 75.2387 -9.84476 -0.508046 -0.85215 -0.125417
0.473955 75.7783 -9.91181 -0.533104 -0.83724 -0.121777
-0.626527 76.49 -9.97201 -0.534146 -0.830019 -0.160487
-1.65219 77.2035 -9.99671 -0.57222 -0.792776 -0.209927
-2.49174 77.8122 -9.99554 -0.581487 -0.779166 -0.234036
-3.40201 78.4889 -9.9657 -0.587382 -0.76673 -0.259052
-4.35382 79.204 -9.90959 -0.594874 -0.754203 -0.278033
-5.17606 79.8167 -9.83633 -0.594635 -0.744232 -0.304186
-5.95146 80.407 -9.73574 -0.605457 -0.722435 -0.333931
-6.057 80.8954 -10.5784 -0.616223 -0.711895 -0.336861
-5.23777 80.2338 -10.6997 -0.62336 -0.71718 -0.311568
-4.44199 79.6034 -10.7879 -0.619279 -0.72706 -0.296441
-3.5276 78.8862 -10.8581 -0.613063 -0.743699 -0.266583
-2.52947 78.1173 -10.9141 -0.589701 -0.770816 -0.24103
-1.42728 77.2755 -10.9275 -0.584744 -0.783586 -0.209922
-0.55923 76.6501 -10.9147 -0.56445 -0.804918 -0.183039
0.299311 76.0538 -10.8868 -0.556649 -0.816228 -0.15464
1.42323 75.3116 -10.8118 -0.529398 -0.842437 -0.100189
1.43754 75.3025 -10.8105 -0.529402 -0.842434 -0.10019
1.55943 75.3272 -11.7801 -0.557694 -0.82561 -0.0857044
0.504005 76.0599 -11.8438 -0.573614 -0.808579 -0.131025
-0.678652 76.9362 -11.8656 -0.596831 -0.786159 -0.160458
-1.50584 77.5732 -11.8602 -0.609294 -0.76719 -0.200453
-2.33922 78.2499 -11.8311 -0.614197 -0.757713 -0.220527
-3.17094 78.916 -11.7817 -0.620859 -0.740267 -0.257953
-4.01781 79.614 -11.7081 -0.62963 -0.721983 -0.286892
-5.13262 80.5384 -11.5714 -0.639497 -0.701855 -0.313757
-6.14185 81.3917 -11.4117 -0.636409 -0.677899 -0.368018
-6.25923 81.9446 -12.2338 -0.662634 -0.648323 -0.374958
-5.43313 81.2045 -12.3872 -0.665056 -0.667711 -0.334458
-4.56126 80.4404 -12.5215 -0.645931 -0.699429 -0.305896
-3.77571 79.7536 -12.6193 -0.641599 -0.71684 -0.272929
-2.99092 79.0717 -12.6961 -0.63812 -0.726092 -0.256112
-2.11179 78.3297 -12.7583 -0.632875 -0.739507 -0.229345
-1.18889 77.5653 -12.7942 -0.631013 -0.750734 -0.195502
-0.333038 76.8792 -12.8063 -0.606047 -0.775789 -0.175663
0.592224 76.1648 -12.7981 -0.59266 -0.79621 -0.12167
1.57991 75.4324 -12.7399 -0.573821 -0.814178 -0.0885608
1.71937 75.3329 -12.729 -0.573821 -0.814178 -0.0885608
1.85991 75.3373 -13.6802 -0.59237 -0.801958 -0.0772094
0.895205 76.077 -13.7469 -0.62221 -0.775358 -0.108053
0.0495169 76.7697 -13.7547 -0.624671 -0.765647 -0.153526
-0.851954 77.5249 -13.7349 -0.631886 -0.754356 -0.177953
-1.62689 78.1955 -13.6974 -0.650048 -0.728379 -0.216569
-2.49654 78.9587 -13.6392 -0.659884 -0.707695 -0.252428
-3.29858 79.6743 -13.5643 -0.662033 -0.701479 -0.263894
-4.14005 80.4481 -13.4595 -0.665636 -0.690896 -0.28212
-5.05946 81.2963 -13.3101 -0.673807 -0.65818 -0.335834
-5.93528 82.1099 -13.1387 -0.676069 -0.640387 -0.364465
-6.19336 82.355 -13.0861 -0.676778 -0.631449 -0.378476
-6.05278 82.7099 -13.9554 -0.692991 -0.619151 -0.369346
-5.26243 81.9422 -14.1235 -0.686617 -0.635013 -0.353999
-4.50591 81.1956 -14.2707 -0.690577 -0.6566 -0.303282
-3.73781 80.4497 -14.3931 -0.685649 -0.66153 -0.303748
-2.94833 79.7035 -14.5033 -0.674589 -0.687183 -0.269647
-1.99084 78.8056 -14.5913 -0.674316 -0.70366 -0.223966
-1.18097 78.0528 -14.6483 -0.66437 -0.721343 -0.195642
-0.392704 77.3494 -14.6884 -0.651316 -0.742453 -0.156688
0.448864 76.6101 -14.696 -0.637129 -0.760276 -0.126677
1.4438 75.764 -14.6597 -0.62221 -0.775358 -0.108053
1.57189 75.6656 -14.651 -0.618107 -0.781774 -0.0822982
1.42234 75.9006 -15.6016 -0.657258 -0.748768 -0.0857796
0.55141 76.6921 -15.6342 -0.668789 -0.731667 -0.13185
-0.212735 77.4022 -15.629 -0.684866 -0.708469 -0.170383
-1.14155 78.2786 -15.5644 -0.681661 -0.704577 -0.197255
-2.04811 79.166 -15.4908 -0.69477 -0.675828 -0.246073
-2.99479 80.1044 -15.3943 -0.697415 -0.66654 -0.263319
-3.96743 81.0803 -15.2417 -0.699107 -0.646951 -0.304473
-4.77014 81.9114 -15.077 -0.712838 -0.61196 -0.34259
-5.6995 82.8734 -14.8761 -0.713207 -0.604999 -0.353994
-6.06724 83.2565 -14.7887 -0.720841 -0.568589 -0.396351
-6.09349 83.8473 -15.6089 -0.732943 -0.555816 -0.392254
-5.39139 83.0712 -15.7935 -0.730084 -0.580178 -0.361067
-4.60298 82.2113 -15.9749 -0.719429 -0.597527 -0.354096
-3.8774 81.4226 -16.1312 -0.722447 -0.613391 -0.319095
-3.06956 80.572 -16.2726 -0.714505 -0.645637 -0.269509
-2.22775 79.6824 -16.3817 -0.717364 -0.642927 -0.268391
-1.44338 78.8692 -16.4522 -0.7117 -0.665895 -0.223756
-0.667691 78.0681 -16.5158 -0.699257 -0.68877 -0.191405
0.227406 77.1819 -16.5576 -0.697086 -0.701442 -0.148492
1.12332 76.3118 -16.5448 -0.682876 -0.722802 -0.106011
1.27527 76.165 -16.5385 -0.689043 -0.717638 -0.10107
0.971897 76.6091 -17.4694 -0.723454 -0.679963 -0.11943
0.116097 77.4991 -17.4665 -0.717789 -0.677427 -0.160845
-0.686171 78.3557 -17.4203 -0.73138 -0.65176 -0.20073
-1.48544 79.2126 -17.3539 -0.727093 -0.646554 -0.230876
-2.29737 80.1146 -17.2662 -0.732889 -0.627115 -0.263819
-3.01932 80.9263 -17.1671 -0.719514 -0.629862 -0.292529
-3.78659 81.7731 -17.0194 -0.741398 -0.592667 -0.314762
-4.51531 82.6085 -16.8599 -0.738189 -0.584926 -0.336065
-5.2031 83.3979 -16.6867 -0.738998 -0.56086 -0.373253
-5.84954 84.1565 -16.5021 -0.752261 -0.519178 -0.405656
-5.77833 84.7006 -17.3445 -0.758383 -0.511526 -0.403976
-5.09731 83.8493 -17.5456 -0.755912 -0.535744 -0.376264
-4.40797 83.0134 -17.7371 -0.764374 -0.545981 -0.342981
-3.58696 82.0274 -17.9257 -0.756428 -0.563833 -0.331526
-2.79048 81.0869 -18.0929 -0.734522 -0.613287 -0.290442
-2.03089 80.1953 -18.1837 -0.754096 -0.60357 -0.258925
-1.33243 79.3715 -18.2643 -0.745878 -0.626201 -0.22702
-0.638225 78.5655 -18.325 -0.738052 -0.649094 -0.184272
0.240564 77.5721 -18.3707 -0.733094 -0.660933 -0.16044
1.00833 76.7366 -18.3769 -0.738487 -0.660911 -0.133541
0.874512 77.0515 -19.2787 -0.755324 -0.641874 -0.132225
0.167412 77.894 -19.2571 -0.745562 -0.64505 -0.167475
-0.562287 78.7756 -19.2189 -0.756705 -0.621721 -0.202139
-1.40238 79.8032 -19.1406 -0.766812 -0.592257 -0.24745
-2.12303 80.6945 -19.0559 -0.765192 -0.577047 -0.285479
-2.81279 81.5442 -18.9552 -0.767909 -0.567424 -0.29723
-3.52499 82.4495 -18.8039 -0.771359 -0.544808 -0.32892
-4.26027 83.3775 -18.6272 -0.769873 -0.536134 -0.346203
-4.92956 84.2402 -18.4393 -0.765851 -0.530086 -0.363979
-5.75105 85.3138 -18.1841 -0.779724 -0.478487 -0.403832
-5.56685 85.7801 -19.0597 -0.794643 -0.463525 -0.39203
-4.94554 84.9009 -19.2625 -0.785602 -0.477632 -0.393316
-4.21571 83.8959 -19.4793 -0.788409 -0.49606 -0.363778
-3.61366 83.0837 -19.6434 -0.790059 -0.51039 -0.339573
-2.75815 81.9477 -19.8204 -0.775161 -0.544074 -0.321106
-2.06975 81.0529 -19.9302 -0.776872 -0.570929 -0.265539
-1.41937 80.1954 -20.012 -0.782073 -0.570848 -0.249988
-0.773698 79.3475 -20.0803 -0.778279 -0.588903 -0.217888
-0.128234 78.5207 -20.124 -0.764929 -0.61564 -0.189396
0.511529 77.7141 -20.1517 -0.77803 -0.607948 -0.158329
0.783303 77.3788 -20.1621 -0.770576 -0.620198 -0.146858
0.662093 77.7689 -21.053 -0.788678 -0.592761 -0.163163
0.0429094 78.6058 -21.0183 -0.792241 -0.570293 -0.217073
-0.605179 79.4754 -20.9649 -0.786934 -0.570859 -0.234212
-1.33133 80.4645 -20.8915 -0.798824 -0.541355 -0.262327
-2.01579 81.4222 -20.805 -0.787315 -0.543603 -0.290914
-2.80024 82.5115 -20.674 -0.781126 -0.53466 -0.32246
-3.58985 83.6132 -20.4888 -0.794169 -0.499556 -0.346033
-4.33979 84.699 -20.2812 -0.800388 -0.468549 -0.373953
-4.96042 85.6211 -20.0907 -0.806891 -0.442008 -0.391862
-5.22248 86.0009 -19.9949 -0.797199 -0.447942 -0.404749
-5.09741 86.5641 -20.8414 -0.811827 -0.421827 -0.403731
-4.51983 85.6471 -21.0352 -0.811419 -0.442515 -0.381811
-3.77763 84.507 -21.2696 -0.811939 -0.448864 -0.373196
-3.08357 83.4652 -21.4528 -0.806165 -0.481579 -0.343772
-2.44989 82.5373 -21.5898 -0.798417 -0.512213 -0.316494
-1.58769 81.2653 -21.7235 -0.801701 -0.523689 -0.288142
-0.792279 80.1079 -21.8142 -0.808795 -0.537046 -0.23965
-0.138184 79.1732 -21.8719 -0.808642 -0.55082 -0.206627
0.55522 78.1831 -21.9181 -0.810882 -0.555117 -0.185244
0.666437 78.0227 -21.9244 -0.810884 -0.555114 -0.185247
0.672686 78.3043 -22.7864 -0.823009 -0.530039 -0.204244
0.0532465 79.2242 -22.7401 -0.815248 -0.533497 -0.22528
-0.516079 80.1094 -22.6946 -0.81487 -0.523979 -0.247857
-1.13622 81.0471 -22.6307 -0.81644 -0.513488 -0.264114
-1.83033 82.1162 -22.5419 -0.812848 -0.497098 -0.303599
-2.46322 83.0896 -22.4265 -0.817185 -0.480341 -0.318563
-3.03674 83.9948 -22.2936 -0.813762 -0.460475 -0.354617
-3.77494 85.1817 -22.0831 -0.821219 -0.434929 -0.369371
-4.49522 86.3561 -21.8655 -0.817018 -0.429288 -0.38496
-4.84137 86.9347 -21.7528 -0.818448 -0.4087 -0.403866
-4.56758 87.2712 -22.6593 -0.83264 -0.386961 -0.396196
-3.917 86.1204 -22.8617 -0.834056 -0.408104 -0.371217
-3.33093 85.1263 -23.0447 -0.834766 -0.417365 -0.359127
-2.79259 84.2318 -23.1809 -0.826024 -0.448496 -0.341373
-2.22951 83.2954 -23.308 -0.826274 -0.464679 -0.318345
-1.64425 82.343 -23.4213 -0.820426 -0.480104 -0.310487
-1.09745 81.465 -23.4945 -0.823869 -0.486872 -0.290166
-0.549609 80.5806 -23.5495 -0.826611 -0.5015 -0.255367
0.0231825 79.6675 -23.5983 -0.824646 -0.515232 -0.233441
0.531282 78.8571 -23.6372 -0.821906 -0.529274 -0.21057
0.547856 79.2264 -24.5145 -0.84015 -0.494566 -0.222605
-0.00220429 80.141 -24.4649 -0.833282 -0.492674 -0.250826
-0.668941 81.2537 -24.3979 -0.835143 -0.4785 -0.271246
-1.28576 82.291 -24.3175 -0.831405 -0.466364 -0.302111
-1.89561 83.3262 -24.2069 -0.831012 -0.458486 -0.314974
-2.67526 84.6667 -24.0383 -0.839173 -0.428577 -0.334828
-3.17756 85.551 -23.9142 -0.840811 -0.410701 -0.352649
-3.67244 86.4533 -23.7695 -0.838751 -0.402041 -0.367234
-4.25545 87.5116 -23.5879 -0.842553 -0.385672 -0.375982
-4.31645 87.6257 -23.5683 -0.842513 -0.381797 -0.380003
-3.92128 87.7094 -24.5388 -0.84681 -0.380534 -0.371628
-3.3333 86.5833 -24.7147 -0.842989 -0.401466 -0.358042
-2.84345 85.6644 -24.8436 -0.845817 -0.402941 -0.349617
-2.30151 84.6499 -24.9555 -0.840546 -0.425617 -0.335161
-1.7334 83.646 -25.0712 -0.839365 -0.435466 -0.325324
-0.991496 82.3242 -25.1921 -0.837091 -0.454597 -0.304337
-0.258285 81.0445 -25.2956 -0.840055 -0.465164 -0.279159
0.258565 80.1527 -25.3448 -0.835443 -0.482011 -0.264009
0.724788 79.3571 -25.3871 -0.84354 -0.477119 -0.246571
0.777166 79.7081 -26.2455 -0.848035 -0.464665 -0.254802
0.2289 80.7072 -26.1862 -0.844643 -0.461 -0.272135
-0.379741 81.7816 -26.1121 -0.842738 -0.45576 -0.286486
-0.931697 82.7813 -26.0279 -0.848095 -0.437666 -0.298635
-1.52494 83.8795 -25.945 -0.845657 -0.436251 -0.307489
-2.05437 84.8822 -25.8547 -0.843911 -0.418641 -0.335492
-2.62888 85.9846 -25.7349 -0.852554 -0.392555 -0.345038
-3.31034 87.3267 -25.5676 -0.851468 -0.376613 -0.364917
-3.68694 88.0926 -25.4666 -0.855349 -0.363128 -0.36948
-3.2345 88.009 -26.4504 -0.862586 -0.349684 -0.365603
-2.75161 87.0015 -26.5636 -0.858716 -0.376889 -0.34722
-2.22438 85.9215 -26.6616 -0.851395 -0.396526 -0.343356
-1.6188 84.7352 -26.7845 -0.853376 -0.407152 -0.325541
-1.09931 83.7179 -26.8628 -0.849121 -0.421843 -0.317873
-0.536149 82.6463 -26.9267 -0.846921 -0.430953 -0.311456
-0.0405501 81.736 -27.0018 -0.844927 -0.446296 -0.294819
0.614536 80.5082 -27.0699 -0.85244 -0.441413 -0.280181
0.981873 79.8385 -27.1097 -0.850253 -0.45009 -0.272926
