0.792898 76.5459 -8.18708 -0.513641 -0.843408 -0.156264
1.27098 76.4246 -9.14296 -0.529472 -0.83802 -0.131836
1.66413 76.3416 -10.2064 -0.547648 -0.827923 -0.120921
2.077 76.2084 -11.2267 -0.557856 -0.82482 -0.0912979
2.44536 76.0746 -12.3459 -0.589539 -0.801589 -0.0994828
2.62868 76.076 -13.6595 -0.616544 -0.783843 -0.0739149
2.62613 76.2063 -14.876 -0.65224 -0.752505 -0.0912147
2.55946 76.3725 -15.9349 -0.699175 -0.709176 -0.0906823
2.4536 76.6083 -17.1389 -0.70281 -0.708715 -0.0614954
2.27718 76.9561 -18.35 -0.758768 -0.643583 -0.100361
2.09048 77.3903 -19.6068 -0.782329 -0.610502 -0.123481
2.04098 77.6969 -20.7022 -0.802398 -0.576898 -0.152795
1.97626 78.1546 -22.0407 -0.823959 -0.544391 -0.157257
1.96772 78.5184 -23.0806 -0.84043 -0.512944 -0.174358
2.01612 78.895 -24.2653 -0.854707 -0.47512 -0.209133
2.10905 79.2254 -25.3616 -0.863825 -0.448139 -0.230169
2.25492 79.5196 -26.4621 -0.865824 -0.433427 -0.249981
2.26173 80.1228 -27.4581 -0.86409 -0.41851 -0.279472
1.61751 81.5479 -27.6203 -0.858799 -0.421021 -0.291832
1.09229 82.6204 -27.626 -0.856673 -0.41902 -0.300858
0.516085 83.7396 -27.5418 -0.856247 -0.411928 -0.311692
-0.0666094 84.9112 -27.4706 -0.854398 -0.405967 -0.324337
-0.52362 85.9374 -27.5233 -0.860141 -0.39203 -0.326283
-1.07319 87.1386 -27.5055 -0.859609 -0.382865 -0.33827
-1.61948 88.3828 -27.4646 -0.867346 -0.35729 -0.346489
-2.0408 89.3716 -27.4195 -0.872228 -0.34505 -0.346552
-2.48869 89.7843 -26.7052 -0.866685 -0.341085 -0.363887
-2.80386 89.4587 -25.6409 -0.8633 -0.350592 -0.36304
-3.10865 89.1248 -24.6175 -0.85564 -0.357208 -0.374491
-3.46511 88.7655 -23.4567 -0.843768 -0.372132 -0.386747
-3.79541 88.3806 -22.3602 -0.837414 -0.38039 -0.392407
-4.15921 87.9203 -21.139 -0.826044 -0.401871 -0.395159
-4.38434 87.3908 -20.1315 -0.814235 -0.422148 -0.398513
-4.64459 86.8516 -19.0358 -0.800389 -0.435288 -0.412191
-4.96148 86.3412 -17.8569 -0.779334 -0.466133 -0.418759
-5.15482 85.7534 -16.8006 -0.761058 -0.493008 -0.421585
-5.31906 85.1739 -15.7778 -0.749191 -0.52918 -0.39835
-5.44876 84.587 -14.7217 -0.738844 -0.557877 -0.377999
-5.50347 84.034 -13.7945 -0.701046 -0.603544 -0.379827
-5.54484 83.3207 -12.5454 -0.687335 -0.617864 -0.381856
-5.51687 82.7637 -11.6204 -0.662385 -0.649999 -0.372119
-5.4119 81.9921 -10.3904 -0.632851 -0.686541 -0.357996
-5.2725 81.3835 -9.43942 -0.614426 -0.710395 -0.34325
-5.04778 80.7244 -8.42778 -0.593661 -0.734363 -0.328996
-4.73545 79.9549 -7.18395 -0.560986 -0.767372 -0.309767
-4.42346 79.3496 -6.18054 -0.545336 -0.782369 -0.300846
-3.87658 78.6295 -5.11665 -0.494262 -0.824154 -0.276541
-3.31823 78.0586 -4.33947 -0.47896 -0.837796 -0.262098
-2.57206 77.4236 -3.53772 -0.454375 -0.85817 -0.238843
-1.56064 76.9913 -3.86904 -0.433521 -0.873672 -0.220647
-0.93131 76.9373 -5.04317 -0.476787 -0.857022 -0.194631
-0.333554 76.8262 -6.11053 -0.478569 -0.862049 -0.166327
0.210627 76.7184 -7.18432 -0.496744 -0.854572 -0.151263
0.515955 76.625 -7.69273 -0.500795 -0.853506 -0.143985
1.17073 76.1329 -7.02563 -0.485138 -0.86417 -0.133611
0.549234 76.2932 -5.88858 -0.471402 -0.870932 -0.138727
-0.118066 76.4265 -4.64661 -0.455176 -0.873565 -0.171419
-0.573133 76.4531 -3.66739 -0.421363 -0.886829 -0.189705
-1.20164 76.5495 -2.77821 -0.415495 -0.885492 -0.207941
-2.23961 76.9036 -2.2185 -0.417707 -0.878995 -0.229974
-3.21866 77.4883 -2.61665 -0.438118 -0.863651 -0.249004
-3.88706 78.0521 -3.34324 -0.44419 -0.858235 -0.257152
-4.37966 78.6021 -4.17879 -0.477519 -0.83061 -0.285929
-4.93322 79.2127 -4.93014 -0.508711 -0.806263 -0.301916
-5.33912 79.8636 -5.90559 -0.523838 -0.79081 -0.316564
-5.63454 80.5143 -6.92933 -0.556224 -0.757831 -0.340757
-5.81135 81.0866 -7.88064 -0.57575 -0.739041 -0.349403
-6.09511 81.8681 -8.98489 -0.602749 -0.707468 -0.368549
-6.21738 82.5119 -9.96334 -0.631773 -0.685541 -0.361774
-6.2713 83.1639 -10.9738 -0.653482 -0.657446 -0.374786
-6.34456 83.8049 -11.9203 -0.669274 -0.625947 -0.399732
-6.24837 84.3455 -12.9312 -0.690745 -0.614635 -0.380914
-6.23393 84.9947 -13.8899 -0.715233 -0.554718 -0.424909
-6.09341 85.676 -15.0104 -0.732012 -0.535169 -0.421607
-5.86932 86.2643 -16.1114 -0.760819 -0.487308 -0.428447
-5.66661 86.8623 -17.1245 -0.776117 -0.458932 -0.432462
-5.44741 87.4227 -18.115 -0.791262 -0.433557 -0.431199
-5.12554 87.8399 -19.1454 -0.799346 -0.426188 -0.423568
-4.84661 88.5277 -20.3537 -0.82234 -0.389473 -0.414811
-4.55253 88.9689 -21.3422 -0.83349 -0.374939 -0.405851
-4.21546 89.3435 -22.3932 -0.839513 -0.363141 -0.404158
-3.90178 89.6933 -23.3768 -0.85215 -0.349375 -0.389587
-3.5237 90.0581 -24.526 -0.859988 -0.342332 -0.378387
-3.11394 90.4917 -25.8569 -0.866537 -0.334206 -0.370629
-2.78014 90.9316 -27.0586 -0.873103 -0.332017 -0.356945
-2.19283 90.5962 -28.2233 -0.877629 -0.333284 -0.344508
-1.74018 89.6337 -28.4526 -0.880364 -0.339387 -0.331296
-1.23692 88.3686 -28.4392 -0.872309 -0.358757 -0.33222
-0.808747 87.358 -28.4443 -0.86574 -0.375887 -0.330385
-0.21693 86.0944 -28.5174 -0.864733 -0.387988 -0.318908
0.312402 84.8526 -28.4147 -0.85937 -0.401318 -0.316902
0.800173 83.906 -28.5333 -0.858464 -0.406355 -0.312909
1.37966 82.7192 -28.5734 -0.858192 -0.411453 -0.306938
1.87779 81.6882 -28.5842 -0.858663 -0.415506 -0.300088
2.39922 80.567 -28.5432 -0.864314 -0.408689 -0.293148
2.93149 79.2867 -28.3437 -0.874436 -0.399264 -0.275344
2.83634 78.7688 -27.2109 -0.878741 -0.410921 -0.242805
2.63996 78.4672 -25.9158 -0.873079 -0.432435 -0.225238
2.55563 78.1195 -24.7498 -0.867163 -0.466153 -0.174122
2.51769 77.7307 -23.4049 -0.85041 -0.501238 -0.159885
2.55287 77.3193 -22.1036 -0.819877 -0.553539 -0.146273
2.64832 76.9067 -20.9505 -0.803388 -0.585228 -0.109893
2.71623 76.6286 -19.7583 -0.78401 -0.615246 -0.0824223
2.93641 76.2461 -18.6607 -0.756076 -0.652549 -0.0502785
3.14039 75.9459 -17.4834 -0.728067 -0.684762 -0.0319156
3.31255 75.7096 -16.2076 -0.692824 -0.721019 -0.0112571
3.42803 75.5219 -14.9071 -0.641223 -0.766529 -0.0352618
3.44842 75.4398 -13.8224 -0.606058 -0.79467 -0.0345364
3.35492 75.4409 -12.48 -0.574696 -0.816812 -0.0439843
3.05842 75.5535 -11.3249 -0.54118 -0.839042 -0.0559731
2.60308 75.7568 -10.253 -0.517609 -0.849695 -0.100501
2.20323 75.8454 -9.0646 -0.50968 -0.85144 -0.123292
1.62995 76.0082 -7.89809 -0.488912 -0.862211 -0.132502
1.37215 76.0705 -7.35354 -0.485139 -0.864168 -0.133618
2.25955 75.5354 -7.02732 -0.45887 -0.882289 -0.104345
2.70038 75.4294 -8.1366 -0.492332 -0.862247 -0.118911
3.21619 75.255 -9.11779 -0.499979 -0.860756 -0.0954962
3.57068 75.1581 -10.2539 -0.49772 -0.864854 -0.0655967
4.06666 74.9022 -11.5156 -0.54639 -0.836722 -0.0355694
4.23151 74.8179 -12.5781 -0.572125 -0.819863 -0.0223042
4.25132 74.811 -13.65 -0.608834 -0.793085 -0.0183467
4.23688 74.8441 -14.7578 -0.633737 -0.773336 0.00404201
4.09585 74.9785 -16.0426 -0.666827 -0.745179 -0.00263498
3.93853 75.1237 -17.1341 -0.715836 -0.698228 -0.00740651
3.75002 75.3299 -18.3047 -0.725124 -0.688205 -0.0174973
3.49973 75.6245 -19.3573 -0.757682 -0.651983 0.00230449
3.28295 75.9906 -20.671 -0.806427 -0.587253 -0.0693449
3.22603 76.2257 -21.7645 -0.815289 -0.574783 -0.0702046
3.12439 76.5877 -22.7759 -0.835567 -0.536731 -0.117252
3.03186 76.9594 -23.7909 -0.867399 -0.47813 -0.137882
3.06506 77.2621 -24.9557 -0.872781 -0.466751 -0.141749
3.10182 77.6574 -26.1798 -0.883988 -0.427668 -0.188845
3.33538 77.8821 -27.5649 -0.888219 -0.390806 -0.241532
3.47376 78.229 -28.595 -0.887337 -0.382379 -0.257645
3.63821 78.5629 -29.5258 -0.873619 -0.385322 -0.297183
3.11706 79.7385 -29.525 -0.863705 -0.400107 -0.306469
2.56838 80.9164 -29.5162 -0.861882 -0.405859 -0.304035
1.95332 82.2282 -29.5311 -0.86093 -0.408053 -0.303796
1.41973 83.3579 -29.5359 -0.861985 -0.40352 -0.306794
0.879548 84.4441 -29.4403 -0.861956 -0.399922 -0.311585
0.42528 85.4566 -29.473 -0.862834 -0.392838 -0.318112
-0.0155368 86.4401 -29.4823 -0.867146 -0.385501 -0.315353
-0.498055 87.4924 -29.4212 -0.870245 -0.372638 -0.322201
-1.08686 88.8648 -29.3799 -0.8744 -0.36257 -0.322441
-1.47593 89.8735 -29.4202 -0.884996 -0.336942 -0.321292
-1.90799 90.8714 -29.2534 -0.886282 -0.323697 -0.331248
-2.32906 91.9315 -29.1335 -0.892085 -0.315048 -0.323901
-2.68614 92.0035 -28.2493 -0.884993 -0.309048 -0.348218
-3.0758 91.9531 -27.2326 -0.880769 -0.30757 -0.360064
-3.40584 91.6045 -26.1422 -0.872836 -0.314565 -0.373067
-3.80433 91.3167 -24.9896 -0.866809 -0.312731 -0.388322
-4.12998 90.912 -23.925 -0.857234 -0.325407 -0.399075
-4.45597 90.5435 -22.9395 -0.840557 -0.3391 -0.42233
-4.79505 90.065 -21.8423 -0.838032 -0.36452 -0.405989
-5.1911 89.6826 -20.7312 -0.819996 -0.375181 -0.431975
-5.48681 89.1559 -19.7295 -0.80811 -0.390855 -0.440589
-5.78291 88.6467 -18.7041 -0.791891 -0.419037 -0.444202
-6.07908 88.1893 -17.7329 -0.788197 -0.428104 -0.442122
-6.33546 87.5872 -16.7 -0.771833 -0.44749 -0.451682
-6.55652 86.8989 -15.6217 -0.748521 -0.490466 -0.446272
-6.74838 86.3641 -14.712 -0.743348 -0.501248 -0.442926
-6.92759 85.8203 -13.7989 -0.714945 -0.532192 -0.453363
-7.0042 85.1243 -12.797 -0.685221 -0.606571 -0.403166
-7.11738 84.4816 -11.6594 -0.656104 -0.614437 -0.437007
-7.0799 83.796 -10.7062 -0.640257 -0.643568 -0.41939
-7.05877 83.1472 -9.7069 -0.627008 -0.666951 -0.402338
-6.97289 82.5291 -8.80661 -0.590105 -0.708179 -0.387631
-6.76801 81.8294 -7.80967 -0.589341 -0.717328 -0.371642
-6.53954 81.0393 -6.61491 -0.558454 -0.744947 -0.364172
-6.25868 80.4153 -5.69274 -0.528285 -0.775327 -0.346097
-6.00754 79.8546 -4.80256 -0.5072 -0.796321 -0.329578
-5.49874 79.1571 -3.89792 -0.497298 -0.804504 -0.324759
-5.00281 78.5658 -3.03841 -0.46475 -0.838283 -0.285112
-4.37892 77.9641 -2.28001 -0.41628 -0.860204 -0.294549
-3.62994 77.3711 -1.58712 -0.40616 -0.86365 -0.298563
-2.59485 76.7627 -1.11821 -0.396088 -0.879952 -0.262295
-1.4988 76.3239 -1.23913 -0.394331 -0.894116 -0.212272
-0.446279 76.0722 -2.17377 -0.40179 -0.895101 -0.193282
0.152293 75.9967 -3.08567 -0.403701 -0.899201 -0.167449
0.632123 75.9498 -4.07419 -0.419374 -0.89264 -0.165287
1.18483 75.8283 -5.07736 -0.456171 -0.880925 -0.126005
1.64012 75.7396 -6.09705 -0.471369 -0.873356 -0.122723
2.02649 75.5987 -6.58443 -0.457858 -0.881547 -0.115074
-2.75774 77.8077 -4.53895 -0.471302 -0.844276 -0.255092
-1.71855 77.3425 -4.96019 -0.464236 -0.861132 -0.207212
-1.50232 77.2467 -5.04666 -0.464662 -0.860913 -0.207167
-0.794658 77.1492 -6.35635 -0.49993 -0.843989 -0.194301
-1.81544 77.6515 -5.92819 -0.499865 -0.83738 -0.221201
-2.91321 78.1655 -5.47559 -0.499639 -0.83076 -0.245353
-3.28367 78.3423 -5.32041 -0.495853 -0.826371 -0.266909
-3.6143 78.8152 -6.17518 -0.526054 -0.800967 -0.285864
-2.43788 78.2311 -6.67419 -0.517175 -0.824031 -0.231308
-1.50984 77.7513 -7.07 -0.511334 -0.832302 -0.214036
-0.414867 77.1748 -7.53983 -0.519781 -0.836157 -0.175126
0.0277606 76.9377 -7.73395 -0.524387 -0.834493 -0.169232
0.643554 76.8062 -9.02281 -0.538698 -0.827002 -0.160851
-0.341424 77.3565 -8.59283 -0.541705 -0.822091 -0.175279
-1.43502 77.962 -8.11253 -0.532609 -0.82206 -0.20136
-2.38355 78.4869 -7.69872 -0.54777 -0.802806 -0.235479
-3.46623 79.0707 -7.22778 -0.542645 -0.800188 -0.255413
-3.99424 79.3665 -7.00127 -0.557581 -0.776901 -0.292453
-4.43105 79.9935 -7.83302 -0.58792 -0.749489 -0.304329
-3.26458 79.3215 -8.33017 -0.570068 -0.776461 -0.268572
-2.31692 78.7469 -8.73296 -0.573779 -0.778057 -0.255744
-1.14167 78.0531 -9.25263 -0.565556 -0.795339 -0.218134
0.0472088 77.3497 -9.77542 -0.555377 -0.815913 -0.160758
1.04972 76.7508 -10.2152 -0.549086 -0.827074 -0.120221
1.68605 76.5128 -11.4953 -0.575224 -0.807477 -0.13076
0.698143 77.1497 -11.0565 -0.575665 -0.802566 -0.156517
-0.320548 77.7927 -10.6059 -0.583971 -0.788703 -0.19216
-1.36691 78.4685 -10.156 -0.603014 -0.766707 -0.220305
-2.38536 79.1076 -9.70359 -0.604049 -0.753949 -0.258236
-3.33594 79.7125 -9.29563 -0.596825 -0.751446 -0.281299
-4.37656 80.3569 -8.83588 -0.592943 -0.748769 -0.296249
-4.50328 80.4343 -8.77791 -0.600386 -0.738268 -0.307403
-4.74108 81.0195 -9.65394 -0.622328 -0.705225 -0.339655
-3.85326 80.4291 -10.0534 -0.619603 -0.724714 -0.301467
-2.87339 79.7734 -10.4788 -0.623562 -0.733973 -0.269173
-1.89347 79.1095 -10.912 -0.614767 -0.755045 -0.227967
-0.91288 78.4371 -11.3459 -0.623151 -0.7518 -0.21559
0.0603152 77.7745 -11.7715 -0.614038 -0.766722 -0.187334
1.04744 77.1114 -12.2141 -0.598906 -0.786089 -0.152888
1.93243 76.4899 -12.6206 -0.612425 -0.779061 -0.134164
2.20777 76.4334 -13.7284 -0.6311 -0.770796 -0.0871004
1.279 77.1273 -13.3181 -0.643167 -0.751925 -0.144721
0.256021 77.8688 -12.8557 -0.618321 -0.765418 -0.178368
-0.881919 78.6853 -12.3426 -0.632599 -0.743445 -0.217043
-1.74312 79.3269 -11.9686 -0.647551 -0.7237 -0.238613
-2.7864 80.0805 -11.5121 -0.629504 -0.730244 -0.26546
-3.77229 80.8009 -11.0678 -0.636871 -0.708067 -0.305021
-4.71238 81.4715 -10.6374 -0.642629 -0.685696 -0.341832
-4.9112 81.6094 -10.5471 -0.636134 -0.68436 -0.356349
-4.81857 82.0351 -11.5723 -0.664158 -0.65591 -0.358715
-3.72083 81.1968 -12.0746 -0.659249 -0.689786 -0.29931
-2.75802 80.4405 -12.502 -0.658892 -0.698027 -0.280393
-1.82792 79.7082 -12.9116 -0.665894 -0.705407 -0.242871
-0.915688 78.9889 -13.3098 -0.66422 -0.715183 -0.217543
0.0152823 78.2917 -13.7436 -0.641759 -0.745003 -0.181976
0.920852 77.5888 -14.1239 -0.643166 -0.751924 -0.144733
1.80352 76.8852 -14.5212 -0.664111 -0.73759 -0.122137
2.21594 76.5376 -14.7168 -0.646318 -0.757044 -0.0956976
2.00821 76.8533 -15.5826 -0.673742 -0.731152 -0.107185
1.01726 77.7066 -15.1367 -0.672741 -0.725699 -0.144154
0.0691451 78.4777 -14.7228 -0.677053 -0.710307 -0.192516
-0.907784 79.2885 -14.2932 -0.686581 -0.692928 -0.220132
-1.7472 79.9898 -13.9141 -0.6733 -0.695467 -0.250983
-2.64689 80.7472 -13.5257 -0.685756 -0.673396 -0.276184
-3.58635 81.5341 -13.1184 -0.695467 -0.652626 -0.300674
-4.63848 82.4007 -12.6433 -0.686349 -0.640395 -0.344701
-5.04099 82.7287 -12.4512 -0.685066 -0.64171 -0.344809
-5.13558 83.3747 -13.403 -0.705178 -0.615586 -0.351821
-4.34142 82.6549 -13.751 -0.706863 -0.62181 -0.337189
-3.49872 81.9039 -14.1304 -0.704754 -0.638414 -0.309435
-2.68538 81.1855 -14.4726 -0.705845 -0.649386 -0.282985
-1.80423 80.4013 -14.8517 -0.705291 -0.660465 -0.257585
-0.925906 79.6193 -15.2307 -0.698013 -0.6804 -0.223235
0.0481098 78.7611 -15.662 -0.694621 -0.698435 -0.172307
0.934869 77.954 -16.0431 -0.690955 -0.706899 -0.151244
1.89101 77.0889 -16.4531 -0.686475 -0.718047 -0.11472
2.01286 76.9848 -16.5088 -0.686582 -0.720286 -0.0989572
1.9299 77.1975 -17.4039 -0.724778 -0.681769 -0.0994431
1.02722 78.0854 -17.0166 -0.732845 -0.663755 -0.149558
-0.0460635 79.1153 -16.5654 -0.716673 -0.67356 -0.180824
-0.935323 79.9537 -16.1759 -0.71564 -0.656116 -0.239524
-1.75637 80.7284 -15.8197 -0.721319 -0.636428 -0.273238
-2.54261 81.4761 -15.49 -0.715099 -0.634163 -0.29406
-3.36248 82.277 -15.1535 -0.722147 -0.618044 -0.310686
-4.21614 83.0862 -14.7775 -0.730606 -0.592652 -0.339084
-5.08976 83.929 -14.4071 -0.720599 -0.597198 -0.352266
-4.88433 84.3481 -15.4586 -0.732876 -0.571525 -0.369124
-4.11016 83.5458 -15.7779 -0.742198 -0.568689 -0.354592
-3.34102 82.7461 -16.1021 -0.746432 -0.581611 -0.32337
-2.39875 81.7787 -16.4958 -0.744976 -0.595587 -0.300479
-1.57422 80.9435 -16.846 -0.743767 -0.614243 -0.263661
-0.563868 79.9227 -17.2696 -0.748481 -0.618805 -0.238447
0.196311 79.1483 -17.596 -0.746908 -0.635446 -0.195797
1.02358 78.3058 -17.9437 -0.737269 -0.656649 -0.15889
1.78318 77.5121 -18.2627 -0.738728 -0.663563 -0.118171
1.90215 77.3842 -18.3097 -0.747109 -0.656387 -0.104807
1.70227 77.7733 -19.1288 -0.768769 -0.626958 -0.126163
0.945527 78.6124 -18.8273 -0.769858 -0.610955 -0.184533
0.209813 79.4348 -18.533 -0.754373 -0.625895 -0.197932
-0.537653 80.2367 -18.2172 -0.761728 -0.599009 -0.246898
-1.30681 81.0898 -17.8904 -0.760783 -0.591749 -0.266537
-2.31358 82.1681 -17.4603 -0.760239 -0.579627 -0.293375
-3.08902 83.0064 -17.133 -0.760627 -0.564949 -0.31981
-3.83697 83.819 -16.8165 -0.758269 -0.543233 -0.360452
-4.56591 84.6274 -16.5012 -0.762046 -0.518154 -0.388334
-4.91284 85.0201 -16.35 -0.758188 -0.521414 -0.391508
-4.61596 85.4011 -17.3991 -0.776462 -0.490212 -0.395978
-3.8632 84.4779 -17.7119 -0.769056 -0.508583 -0.387164
-3.03654 83.5057 -18.0758 -0.769387 -0.537884 -0.344564
-2.19371 82.5223 -18.4262 -0.768028 -0.55708 -0.315902
-1.48273 81.7054 -18.7269 -0.777871 -0.559557 -0.286029
-0.752241 80.8688 -19.0435 -0.778136 -0.568777 -0.266454
0.0540563 79.931 -19.3763 -0.777311 -0.590704 -0.216463
0.839765 79.0051 -19.6925 -0.77266 -0.609504 -0.177488
1.59475 78.097 -19.9718 -0.789099 -0.592131 -0.163409
1.72638 77.9327 -20.0123 -0.7891 -0.592131 -0.163409
1.56304 78.3986 -20.8565 -0.799055 -0.569664 -0.192338
0.789802 79.3704 -20.5563 -0.790768 -0.575166 -0.209451
0.047468 80.3064 -20.2706 -0.799695 -0.552686 -0.234577
-0.689329 81.2167 -19.9634 -0.786851 -0.547664 -0.284481
-1.3934 82.0781 -19.6668 -0.789448 -0.544115 -0.284097
-2.33554 83.2276 -19.2872 -0.784575 -0.530521 -0.320918
-3.07079 84.1556 -18.9731 -0.783334 -0.51101 -0.353915
-3.92977 85.2767 -18.6431 -0.789841 -0.497909 -0.358103
-4.33879 85.8416 -18.4819 -0.796671 -0.463115 -0.388381
-4.1563 86.3789 -19.5012 -0.810617 -0.440841 -0.385434
-3.41932 85.3057 -19.7724 -0.802398 -0.472324 -0.364784
-2.6133 84.2029 -20.0797 -0.804611 -0.485669 -0.341651
-1.79283 83.1083 -20.4046 -0.794319 -0.519689 -0.314612
-0.908008 81.9453 -20.7582 -0.806657 -0.516608 -0.28709
-0.223458 81.0627 -21.0407 -0.804234 -0.53765 -0.253259
0.586505 79.9878 -21.3548 -0.805624 -0.543648 -0.235408
1.27378 79.073 -21.6073 -0.811067 -0.549271 -0.201174
1.57785 78.6442 -21.7059 -0.814097 -0.552095 -0.180105
1.54923 78.9802 -22.5418 -0.825127 -0.52835 -0.200028
0.76505 80.1184 -22.2819 -0.818257 -0.525607 -0.232795
0.0415388 81.1269 -22.0174 -0.820222 -0.508455 -0.262124
-0.696864 82.1527 -21.7246 -0.806658 -0.516609 -0.287085
-1.3653 83.073 -21.4651 -0.812087 -0.491235 -0.314966
-2.02081 83.9989 -21.2223 -0.813164 -0.47517 -0.336122
-2.74601 85.0541 -20.9385 -0.808778 -0.464508 -0.360709
-3.39882 86.0299 -20.697 -0.811248 -0.440947 -0.383982
-4.01805 87.0076 -20.4794 -0.820214 -0.423242 -0.384858
-3.73778 87.4474 -21.5346 -0.831011 -0.405607 -0.380663
-3.03893 86.261 -21.7485 -0.819333 -0.43532 -0.373082
-2.35001 85.1631 -21.9991 -0.822003 -0.447933 -0.351663
-1.71169 84.1827 -22.2289 -0.825348 -0.458313 -0.329771
-0.986135 83.0951 -22.5007 -0.825426 -0.468925 -0.314294
-0.368006 82.1869 -22.7295 -0.827652 -0.481458 -0.288428
0.381213 81.0843 -23.0065 -0.834539 -0.492604 -0.246752
1.17095 79.9031 -23.2754 -0.831995 -0.504607 -0.230557
1.69938 79.0903 -23.4404 -0.838831 -0.512232 -0.184336
1.72862 79.4161 -24.3034 -0.84635 -0.487518 -0.214517
1.13465 80.3621 -24.1147 -0.838559 -0.486841 -0.244552
0.466837 81.4054 -23.8941 -0.842117 -0.473009 -0.25904
-0.246499 82.5376 -23.6454 -0.832981 -0.473153 -0.286825
-0.901126 83.56 -23.418 -0.835291 -0.461357 -0.299062
-1.55034 84.5664 -23.1845 -0.831811 -0.44798 -0.327726
-2.16461 85.5856 -22.9834 -0.831376 -0.43363 -0.347532
-2.7553 86.5972 -22.7857 -0.834091 -0.416385 -0.361822
-3.45334 87.8363 -22.5506 -0.840145 -0.387446 -0.379528
-2.96986 87.8365 -23.6572 -0.850262 -0.377065 -0.367256
-2.22217 86.4682 -23.8967 -0.842138 -0.407998 -0.352621
-1.55323 85.2976 -24.1088 -0.841815 -0.416448 -0.343393
-0.781533 83.9645 -24.3438 -0.839186 -0.439979 -0.319663
-0.181036 82.9648 -24.5291 -0.84188 -0.456734 -0.287458
0.425595 81.9692 -24.7285 -0.847218 -0.455622 -0.273184
1.04961 80.9427 -24.9314 -0.845664 -0.462569 -0.266238
1.68291 79.8947 -25.1244 -0.852732 -0.467512 -0.232981
1.78756 79.7189 -25.1545 -0.852732 -0.467512 -0.232982
1.88855 79.9874 -26.0233 -0.860149 -0.438626 -0.260289
1.09278 81.3656 -25.7845 -0.84734 -0.453676 -0.276029
0.414354 82.5392 -25.5916 -0.851403 -0.430508 -0.299626
-0.192643 83.6118 -25.4284 -0.848811 -0.428162 -0.310158
-0.820063 84.7026 -25.2224 -0.844297 -0.423706 -0.32808
-1.3727 85.6959 -25.0545 -0.848588 -0.403443 -0.342247
-1.93058 86.7166 -24.8809 -0.84769 -0.402777 -0.345244
-2.58337 87.9954 -24.7214 -0.85251 -0.377211 -0.361854
-2.85235 88.5298 -24.6392 -0.855012 -0.364052 -0.369351
-2.51503 88.7605 -25.6536 -0.86329 -0.350493 -0.36316
-1.97756 87.657 -25.805 -0.858175 -0.373904 -0.351754
-1.48833 86.658 -25.9069 -0.850282 -0.401847 -0.339911
-0.947491 85.6503 -26.0779 -0.854452 -0.402512 -0.328476
-0.380573 84.6096 -26.2514 -0.852037 -0.41245 -0.322364
0.151138 83.6405 -26.4088 -0.848809 -0.428162 -0.310162
0.694612 82.6669 -26.574 -0.852802 -0.426703 -0.301087
1.29993 81.5641 -26.7173 -0.854203 -0.4374 -0.281103
1.77066 80.7213 -26.8507 -0.859732 -0.430333 -0.27509
