15.8505 28.1609 -17.699 -0.450344 -0.86474 -0.221646
15.0346 28.4433 -17.0967 -0.450198 -0.868411 -0.207809
14.1819 28.7323 -16.5286 -0.427732 -0.880713 -0.203444
13.3331 29.0135 -16.0198 -0.387222 -0.905537 -0.172359
12.4742 29.2887 -15.4899 -0.379999 -0.914323 -0.138642
11.4926 29.5925 -15.0749 -0.342881 -0.929894 -0.133086
10.5276 29.8911 -14.7605 -0.314523 -0.940877 -0.125803
9.35134 30.2065 -14.3062 -0.280466 -0.950914 -0.13077
8.35234 30.4655 -13.9684 -0.254926 -0.961014 -0.106294
7.32851 30.689 -13.6048 -0.225944 -0.96941 -0.0958884
6.32931 30.8851 -13.2399 -0.200113 -0.978022 -0.0585422
5.40797 31.0399 -12.8306 -0.174788 -0.982744 -0.0605314
4.56927 31.172 -12.2522 -0.159478 -0.986818 -0.0216032
3.67872 31.3171 -11.5545 -0.15461 -0.987927 0.00890794
2.84925 31.452 -10.8731 -0.142765 -0.989677 0.00870257
2.11851 31.5755 -9.99317 -0.126458 -0.991557 0.0243566
1.39222 31.6956 -8.8658 -0.0981409 -0.994729 0.0296946
0.841145 31.7893 -7.83958 -0.0918046 -0.994974 0.0399942
0.362224 31.8854 -6.61515 -0.0614447 -0.996765 0.051814
-0.0766556 31.9554 -5.65147 -0.045504 -0.997887 0.0456354
-0.635149 32.0457 -4.44412 -0.024861 -0.998333 0.0476841
-1.05178 32.0974 -3.44031 0.00470013 -0.998353 0.0571743
-1.52186 32.15 -2.33038 0.0240982 -0.99848 0.049575
-1.80542 32.196 -1.21553 0.0512363 -0.99744 0.0498911
-1.83135 32.249 -0.16594 0.0626479 -0.995892 0.0653733
-1.26316 32.3533 0.788249 0.0524111 -0.995325 0.0805068
-0.31975 32.4323 1.27489 0.0389154 -0.995756 0.0832355
0.68289 32.4853 1.59962 0.0125572 -0.996191 0.0862841
1.89274 32.5152 1.90611 -0.0112808 -0.99462 0.102972
2.89435 32.5155 2.21558 -0.0457819 -0.992106 0.116446
4.05796 32.5055 2.58451 -0.0788975 -0.987539 0.136146
5.18652 32.4395 2.80021 -0.0908265 -0.984776 0.148214
6.24876 32.3645 3.03782 -0.101535 -0.982413 0.156702
7.58839 32.2273 3.26278 -0.129531 -0.977235 0.167822
8.60352 32.1021 3.4113 -0.175953 -0.964998 0.193795
9.79812 31.7816 3.07519 -0.220873 -0.954266 0.201476
10.7278 31.4432 2.57703 -0.247643 -0.943153 0.221664
11.7436 31.0046 1.98211 -0.291284 -0.929457 0.226415
12.6062 30.5427 1.28807 -0.328206 -0.918888 0.218918
13.3267 30.0934 0.606153 -0.372748 -0.898376 0.232135
14.0999 29.6 -0.0283398 -0.400278 -0.887129 0.228627
14.7669 29.1349 -0.733017 -0.403353 -0.89003 0.212495
15.4337 28.6276 -1.49348 -0.437906 -0.878183 0.192439
16.0173 28.1734 -2.20158 -0.451133 -0.87346 0.183158
16.6483 27.6844 -2.9505 -0.480389 -0.86112 0.166431
17.4284 27.0845 -3.83251 -0.487518 -0.862289 0.137054
18.1225 26.5262 -4.68756 -0.509203 -0.852334 0.119329
18.7036 26.0566 -5.49814 -0.534696 -0.838389 0.105039
19.4585 25.4459 -6.51207 -0.549912 -0.830266 0.0908635
20.1593 24.9259 -7.31309 -0.559669 -0.826905 0.0546347
20.6772 24.5407 -8.23996 -0.558299 -0.828872 0.0348967
21.4042 24.0378 -9.10037 -0.562942 -0.826095 0.0215199
21.9579 23.6819 -10.1064 -0.562874 -0.826306 -0.01945
22.5723 23.2869 -10.9988 -0.568754 -0.821946 -0.0303941
23.1757 22.917 -11.8221 -0.559842 -0.826 -0.0655804
23.7032 22.6384 -12.7079 -0.563505 -0.822481 -0.0773743
24.1974 22.3981 -13.6573 -0.568597 -0.817027 -0.0957356
24.7972 22.0968 -14.5902 -0.574637 -0.811355 -0.107207
25.4272 21.8054 -15.6716 -0.579088 -0.806611 -0.118227
26.0855 21.5065 -16.7915 -0.587453 -0.79873 -0.130086
26.5439 21.3345 -17.7561 -0.588261 -0.795377 -0.146032
27.2507 20.9987 -18.8309 -0.607814 -0.780375 -0.146338
27.7797 20.7799 -19.8229 -0.622171 -0.765183 -0.165518
28.3543 20.5415 -20.8635 -0.62238 -0.763028 -0.174444
28.8221 20.366 -21.8 -0.649171 -0.736849 -0.188761
29.3054 20.1707 -22.7152 -0.64725 -0.740576 -0.180592
29.8484 19.9282 -23.65 -0.662463 -0.722891 -0.196396
30.3121 19.7748 -24.6651 -0.668575 -0.717629 -0.194976
30.7038 19.7161 -25.7175 -0.672211 -0.706885 -0.220011
31.087 19.6731 -26.7643 -0.68813 -0.68835 -0.229458
31.5677 19.6444 -28.068 -0.686646 -0.684159 -0.245852
30.9047 20.3899 -28.3243 -0.67587 -0.691951 -0.253669
30.1139 21.1741 -28.4257 -0.655957 -0.711045 -0.253097
29.2173 22.0288 -28.5419 -0.647552 -0.718514 -0.253769
28.4756 22.7802 -28.8199 -0.633327 -0.731597 -0.252315
27.6414 23.5713 -29.0275 -0.627075 -0.733725 -0.261581
26.6664 24.4455 -29.1754 -0.618677 -0.740554 -0.262326
25.7615 25.2425 -29.3079 -0.614816 -0.739826 -0.27323
24.8387 26.043 -29.4096 -0.611538 -0.741459 -0.276154
24.1333 26.4345 -28.914 -0.604329 -0.741487 -0.29152
23.6371 26.3426 -27.6547 -0.593892 -0.754216 -0.280039
23.1357 26.3958 -26.7687 -0.576185 -0.766261 -0.284339
22.6093 26.4601 -25.885 -0.569285 -0.769417 -0.289676
22.097 26.4962 -24.9523 -0.555871 -0.78224 -0.281262
21.3746 26.5941 -23.7826 -0.550988 -0.787623 -0.275795
20.7742 26.7359 -22.9602 -0.545643 -0.794547 -0.266399
20.1788 26.838 -22.0636 -0.537581 -0.799412 -0.26823
19.5132 26.9927 -21.178 -0.525171 -0.81172 -0.255551
18.8222 27.1935 -20.4011 -0.509568 -0.820897 -0.257815
18.0868 27.4143 -19.6106 -0.500688 -0.834241 -0.230781
17.1577 27.7344 -18.8029 -0.478899 -0.850188 -0.218712
16.3651 27.9819 -18.0751 -0.456901 -0.863366 -0.214103
15.9458 28.1277 -17.7682 -0.460712 -0.859711 -0.220396
15.5145 28.5829 -18.5916 -0.456842 -0.856882 -0.238849
14.6757 28.8432 -17.9882 -0.433706 -0.868543 -0.239746
13.7142 29.1423 -17.3681 -0.416945 -0.879468 -0.229549
12.7574 29.4356 -16.8115 -0.375083 -0.900392 -0.219569
11.6062 29.755 -16.2091 -0.340847 -0.919749 -0.194643
10.4878 30.0668 -15.8447 -0.317499 -0.932275 -0.17243
9.47922 30.3246 -15.4665 -0.28789 -0.944779 -0.156563
8.49234 30.5558 -15.0409 -0.268846 -0.954617 -0.12817
7.17752 30.8403 -14.6158 -0.240993 -0.962103 -0.127598
6.12958 31.0149 -14.2294 -0.18897 -0.975985 -0.108364
5.12374 31.1511 -13.8138 -0.170111 -0.980821 -0.0951452
4.16989 31.2755 -13.2798 -0.150984 -0.986626 -0.0603628
3.29671 31.3837 -12.5305 -0.159476 -0.986818 -0.0216023
2.29472 31.5209 -11.812 -0.13035 -0.991413 -0.00251086
1.57646 31.6169 -11.0021 -0.105345 -0.994432 0.000960867
0.933371 31.7058 -10.0463 -0.0972979 -0.994911 0.0257614
0.285114 31.7953 -8.97135 -0.0842797 -0.995821 0.0344013
-0.295902 31.8789 -7.98203 -0.0721362 -0.996881 0.0319965
-0.69339 31.9452 -6.71118 -0.0442929 -0.998666 0.0262312
-1.28183 32.002 -5.62558 -0.0107905 -0.99952 0.0270421
-1.60807 32.0397 -4.65317 0.00696742 -0.999423 0.0322323
-2.05761 32.07 -3.70782 0.0212305 -0.998995 0.0380629
-2.46593 32.1065 -2.73035 0.0558412 -0.997798 0.0357998
-2.81785 32.13 -1.48203 0.0677598 -0.99687 0.0407169
-2.95285 32.1802 -0.177178 0.0803648 -0.995319 0.0536819
-2.62369 32.2723 0.898014 0.0719082 -0.994977 0.069641
-1.84225 32.3874 1.70269 0.0724283 -0.994158 0.0796864
-0.947091 32.4896 2.20125 0.0530154 -0.994226 0.093294
0.193158 32.5708 2.54746 0.0231885 -0.994796 0.0983479
1.45219 32.6298 2.89698 0.000931473 -0.993665 0.111101
2.42438 32.6587 3.19693 -0.00296166 -0.991496 0.130103
3.77929 32.661 3.55801 -0.0454227 -0.988707 0.1428
5.04342 32.5908 3.71002 -0.0844853 -0.984142 0.155968
6.11122 32.5528 4.09832 -0.102208 -0.981214 0.163624
7.32099 32.4483 4.26569 -0.113235 -0.974606 0.19303
8.34542 32.3552 4.43933 -0.143925 -0.968833 0.201312
9.36288 32.157 4.33283 -0.182916 -0.955059 0.232801
10.626 31.773 3.82345 -0.202528 -0.948963 0.241444
11.4756 31.4397 3.36882 -0.250336 -0.931112 0.264334
12.5149 30.9317 2.67518 -0.292464 -0.928514 0.228733
13.4868 30.3744 1.89976 -0.326686 -0.911145 0.250953
14.4734 29.7086 0.948515 -0.370242 -0.891044 0.262137
15.1791 29.2156 0.361278 -0.433086 -0.863265 0.258958
15.9312 28.5892 -0.555158 -0.445642 -0.865118 0.229911
16.53 28.1028 -1.27537 -0.455277 -0.869596 0.190876
17.1793 27.5623 -2.04953 -0.484426 -0.856644 0.177042
17.7807 27.0644 -2.76098 -0.516872 -0.839415 0.167693
18.3939 26.558 -3.41387 -0.536972 -0.829819 0.151859
19.0004 26.0336 -4.26858 -0.545687 -0.827524 0.130186
19.556 25.553 -5.0245 -0.559474 -0.82211 0.105083
20.1102 25.0878 -5.7837 -0.555674 -0.82716 0.0838603
20.7819 24.556 -6.52363 -0.560308 -0.826521 0.0538834
21.2986 24.1482 -7.46933 -0.557893 -0.82937 0.0279745
21.9453 23.6809 -8.25315 -0.57039 -0.821135 0.0188286
22.4122 23.3488 -9.10608 -0.58098 -0.813881 -0.00153299
23.0739 22.9081 -10.0988 -0.577194 -0.816247 -0.0242497
23.638 22.5455 -10.9002 -0.563955 -0.824706 -0.0425973
24.2236 22.191 -11.7665 -0.579808 -0.811305 -0.0748755
24.6717 21.9631 -12.7347 -0.583257 -0.807762 -0.0856289
25.2849 21.6374 -13.7284 -0.581351 -0.807167 -0.102502
25.8289 21.3684 -14.6737 -0.583058 -0.804889 -0.110406
26.3806 21.0972 -15.597 -0.59325 -0.794936 -0.12701
26.8632 20.881 -16.5232 -0.597804 -0.791499 -0.127047
27.4699 20.6042 -17.6416 -0.601177 -0.787595 -0.135062
28.0089 20.3304 -18.4924 -0.625106 -0.76752 -0.141772
28.4793 20.1355 -19.4641 -0.623224 -0.766162 -0.156608
29.1878 19.8197 -20.7924 -0.646071 -0.747069 -0.156095
29.7102 19.5743 -21.7879 -0.660304 -0.731592 -0.169071
30.3114 19.3089 -22.9322 -0.670655 -0.720378 -0.176853
30.8252 19.0107 -23.6452 -0.680231 -0.707581 -0.191178
31.1268 19.0088 -24.7114 -0.688197 -0.699287 -0.193347
31.5072 18.9641 -25.8507 -0.695006 -0.687422 -0.210439
31.9802 18.8445 -26.9687 -0.697586 -0.680813 -0.223193
32.3621 18.7963 -27.9583 -0.694314 -0.6762 -0.246331
32.5668 18.9419 -28.931 -0.696821 -0.672829 -0.24848
31.8329 19.7901 -29.1821 -0.684402 -0.679658 -0.263849
31.0605 20.6136 -29.3548 -0.668274 -0.695451 -0.264116
30.045 21.6129 -29.4823 -0.659539 -0.705855 -0.258265
29.0483 22.5769 -29.6642 -0.642091 -0.718611 -0.267044
28.345 23.2918 -29.9384 -0.634096 -0.726758 -0.264088
27.578 23.9927 -30.0554 -0.626252 -0.731674 -0.269185
26.6369 24.8437 -30.2056 -0.618357 -0.737388 -0.271832
25.8573 25.5368 -30.3156 -0.615722 -0.738249 -0.275452
25.0361 26.2875 -30.4837 -0.61739 -0.734824 -0.280826
24.1616 27.0158 -30.4644 -0.619542 -0.727998 -0.293575
23.5978 27.145 -29.5932 -0.604623 -0.738469 -0.298481
23.16 27.0744 -28.5459 -0.59348 -0.742343 -0.310797
22.7161 27.0184 -27.5485 -0.576914 -0.755063 -0.311524
22.0291 27.1109 -26.4725 -0.566608 -0.763845 -0.309023
21.3567 27.1439 -25.2848 -0.557278 -0.778123 -0.289662
20.7092 27.2334 -24.2751 -0.547993 -0.788408 -0.279446
20.0572 27.3765 -23.4068 -0.546005 -0.790902 -0.27632
19.398 27.4405 -22.315 -0.532452 -0.801496 -0.272159
18.4698 27.6944 -21.2929 -0.516992 -0.807528 -0.283933
17.7512 27.8857 -20.5096 -0.493498 -0.829686 -0.260923
16.9321 28.1698 -19.8354 -0.492134 -0.830514 -0.260503
16.1494 28.379 -19.0743 -0.460353 -0.854066 -0.242105
15.8327 28.4762 -18.8176 -0.456841 -0.856883 -0.238846
15.5072 28.9163 -19.66 -0.465095 -0.838638 -0.283468
16.2136 28.769 -20.4122 -0.477329 -0.831752 -0.283452
17.0823 28.5062 -21.1659 -0.500849 -0.820111 -0.276703
17.8706 28.3069 -21.9914 -0.497066 -0.821658 -0.278932
18.6658 28.0805 -22.7596 -0.529015 -0.801062 -0.280054
19.2853 28.0206 -23.7471 -0.541028 -0.789355 -0.290185
19.9302 27.9051 -24.6406 -0.542112 -0.789478 -0.287817
20.6567 27.7827 -25.6709 -0.547428 -0.78172 -0.298697
21.1312 27.813 -26.5876 -0.554386 -0.771855 -0.31128
21.7624 27.7398 -27.5354 -0.568691 -0.762059 -0.309607
22.3007 27.7533 -28.5558 -0.580566 -0.745889 -0.326287
22.7311 27.833 -29.5142 -0.613699 -0.724793 -0.313127
23.2178 27.9382 -30.7167 -0.628439 -0.71825 -0.298631
23.8578 27.8006 -31.7717 -0.635887 -0.716024 -0.288002
24.6207 27.059 -31.5886 -0.623106 -0.730577 -0.279261
25.6324 26.1458 -31.437 -0.618997 -0.734719 -0.277545
26.4219 25.4363 -31.3168 -0.619058 -0.736095 -0.273736
27.1875 24.7142 -31.1074 -0.621654 -0.73333 -0.275247
28.1318 23.8682 -30.9993 -0.625392 -0.730049 -0.275506
28.9894 23.0482 -30.8005 -0.63261 -0.724708 -0.273129
29.7391 22.3055 -30.5948 -0.642091 -0.71861 -0.267046
30.5393 21.5561 -30.5427 -0.656035 -0.70448 -0.270777
31.3748 20.6869 -30.3343 -0.670901 -0.690171 -0.271197
32.1928 19.8223 -30.1838 -0.682821 -0.675005 -0.279505
33.0571 18.8959 -30.0956 -0.692979 -0.664777 -0.279019
33.717 17.9691 -29.5362 -0.708634 -0.651932 -0.269857
33.4352 17.8914 -28.5603 -0.712036 -0.659621 -0.240635
33.0723 17.9204 -27.601 -0.705327 -0.668097 -0.236589
32.6286 18.0289 -26.5048 -0.703557 -0.677223 -0.215325
32.1695 18.1886 -25.49 -0.69939 -0.685642 -0.201862
31.8441 18.2278 -24.4434 -0.697805 -0.692208 -0.184164
31.4875 18.3008 -23.3724 -0.68124 -0.709852 -0.178949
30.9686 18.5425 -22.3449 -0.683015 -0.708917 -0.17586
30.3173 18.9218 -21.2766 -0.653615 -0.741919 -0.149475
29.8216 19.1556 -20.2722 -0.652758 -0.742511 -0.150283
29.321 19.41 -19.3437 -0.642016 -0.753117 -0.143634
28.7912 19.6516 -18.2469 -0.625485 -0.768426 -0.135241
28.3531 19.8557 -17.3511 -0.627286 -0.768248 -0.127698
27.7053 20.2133 -16.3821 -0.607401 -0.784383 -0.125723
27.1429 20.4776 -15.2747 -0.602535 -0.790037 -0.113078
26.555 20.7719 -14.2254 -0.598812 -0.793207 -0.110667
25.9407 21.0847 -13.1013 -0.5849 -0.805499 -0.0952013
25.3413 21.4092 -12.0684 -0.596881 -0.798049 -0.0827678
24.7452 21.7538 -10.9382 -0.598818 -0.798643 -0.0598957
24.1865 22.1116 -10.1004 -0.58952 -0.806633 -0.0411463
23.6443 22.4707 -9.1678 -0.588541 -0.808434 -0.00735145
23.0618 22.8843 -8.29825 -0.580852 -0.813953 -0.00757806
22.391 23.4043 -7.08239 -0.591772 -0.805361 0.0346355
21.7112 23.9277 -6.18474 -0.578408 -0.814525 0.0446388
21.1699 24.3782 -5.48594 -0.580103 -0.810984 0.0760674
20.4738 24.964 -4.6532 -0.576022 -0.8106 0.105139
19.9212 25.4537 -3.93148 -0.572438 -0.807162 0.143356
19.3731 25.9741 -3.14105 -0.553266 -0.816185 0.16588
18.8289 26.4713 -2.4075 -0.530173 -0.831395 0.166409
18.1302 27.0956 -1.58853 -0.538473 -0.818777 0.198356
17.4492 27.7143 -0.739057 -0.486469 -0.849436 0.204467
16.8136 28.2433 -0.104514 -0.468406 -0.8465 0.25232
16.25 28.7406 0.62677 -0.454668 -0.852353 0.257558
15.592 29.3255 1.40933 -0.43932 -0.858869 0.26333
14.7921 29.9071 2.07327 -0.370241 -0.891045 0.262135
14.0509 30.4335 2.8665 -0.341994 -0.901716 0.264475
13.2857 30.8863 3.41778 -0.312972 -0.910791 0.269084
12.3348 31.4146 4.14446 -0.272271 -0.921886 0.275409
11.2453 31.8712 4.76604 -0.210275 -0.945763 0.247622
9.95698 32.2671 5.25547 -0.162198 -0.95056 0.264817
8.96565 32.4718 5.41088 -0.143987 -0.961165 0.234373
7.60698 32.6301 5.29832 -0.112971 -0.972423 0.203896
6.3865 32.7232 5.17834 -0.083555 -0.979525 0.183163
5.19479 32.7782 5.00294 -0.0691004 -0.98311 0.16798
4.21744 32.823 4.79224 -0.0642895 -0.986474 0.150324
3.18584 32.8338 4.59892 -0.026045 -0.989454 0.142474
2.23545 32.7874 4.16955 0.00186953 -0.990634 0.136401
1.18207 32.7672 4.00182 0.0201198 -0.990345 0.137157
-0.018522 32.6846 3.58825 0.0337988 -0.992242 0.119641
-1.09128 32.5919 3.28754 0.0614073 -0.99157 0.1141
-2.13839 32.4663 2.82282 0.0757134 -0.993117 0.0893697
-3.06498 32.3305 2.15249 0.0881706 -0.992559 0.083949
-3.62387 32.2068 1.25189 0.0923095 -0.993052 0.0729782
-3.94582 32.1127 0.255379 0.0941618 -0.994183 0.0517902
-3.9746 32.0638 -0.902896 0.0928881 -0.995094 0.0340469
-3.77511 32.0464 -2.07258 0.0626089 -0.997588 0.0299558
-3.37208 32.0382 -3.13445 0.0600067 -0.997665 0.0326089
-2.93904 32.0344 -4.28116 0.0309447 -0.999194 0.0247401
-2.46634 32.0171 -5.3991 -0.0028748 -0.999697 0.0244375
-1.99957 31.9952 -6.55998 -0.0164017 -0.999775 0.0134255
-1.49613 31.9585 -7.66795 -0.0518538 -0.998592 0.0111585
-1.16125 31.917 -8.69236 -0.0701287 -0.996795 0.0384817
-0.474981 31.8291 -9.627 -0.0675558 -0.996757 0.0436932
0.137618 31.7659 -10.8934 -0.0780958 -0.996853 0.00815296
0.88092 31.6921 -11.7846 -0.107492 -0.994189 -0.00575786
1.62968 31.616 -12.739 -0.124809 -0.992144 -0.00852307
2.61817 31.5117 -13.2984 -0.140108 -0.98946 -0.0362087
3.537 31.4241 -14.1476 -0.150093 -0.985321 -0.0813281
4.46988 31.3189 -14.5705 -0.138238 -0.98754 -0.0751942
5.43544 31.2387 -15.0624 -0.170931 -0.977542 -0.123262
6.42531 31.1497 -15.3697 -0.191348 -0.961903 -0.195263
7.5673 30.9457 -15.9032 -0.251449 -0.95515 -0.1564
8.68372 30.6869 -16.2253 -0.281623 -0.944971 -0.16649
9.74543 30.4282 -16.5271 -0.271594 -0.946085 -0.175595
10.7555 30.218 -16.9209 -0.275676 -0.928379 -0.242472
11.9208 29.9251 -17.4012 -0.353887 -0.90229 -0.245365
12.8904 29.6834 -18.0161 -0.387735 -0.887077 -0.250389
13.7641 29.4319 -18.4781 -0.416837 -0.868832 -0.26711
14.5914 29.224 -19.1105 -0.435533 -0.85804 -0.272173
15.2862 28.9861 -19.5083 -0.461723 -0.839584 -0.286199
-1.07468 32.1807 -1.92981 0.0260487 -0.998265 0.0528015
-1.06712 32.2613 -0.626865 0.0296296 -0.997218 0.0684027
-1.07819 32.2981 -0.0649827 0.0309408 -0.997345 0.0659174
-0.0128966 32.3668 0.40073 0.0351947 -0.996285 0.0786036
0.0128588 32.2712 -0.831843 -0.00054502 -0.995991 0.0894512
-0.0085731 32.1729 -2.30768 -0.0038583 -0.997463 0.0710756
-0.117139 32.0672 -3.82158 -0.026875 -0.997773 0.0610529
-0.137143 32.0546 -4.03641 -0.0284236 -0.997521 0.0643804
0.667897 31.9017 -5.88799 -0.0666112 -0.996163 0.056762
0.873419 31.977 -4.54848 -0.0643734 -0.995354 0.0715954
1.02332 32.0869 -3.09012 -0.0624964 -0.993934 0.0904946
1.09938 32.2134 -1.47197 -0.0318318 -0.996543 0.0767362
1.08463 32.3207 -0.139255 -0.0138288 -0.996354 0.0841898
1.03581 32.4432 1.08015 -0.0151904 -0.994791 0.100797
1.03388 32.4473 1.12007 -0.0140341 -0.994787 0.101005
2.10336 32.4532 1.32681 -0.0140341 -0.994787 0.101005
2.16128 32.3163 0.0755618 -0.0485421 -0.993498 0.102984
2.18419 32.1714 -1.41401 -0.0670055 -0.993889 0.0877213
2.11186 32.0147 -3.10945 -0.0820857 -0.991558 0.100369
1.98053 31.9124 -4.36616 -0.0851324 -0.993744 0.0722883
1.79103 31.8346 -5.57608 -0.0975896 -0.992243 0.0770105
1.55514 31.7802 -6.79699 -0.0959038 -0.993477 0.0616893
1.36463 31.7493 -7.66758 -0.0889193 -0.995113 0.0429435
2.16702 31.6178 -8.71902 -0.133012 -0.989988 0.0472311
2.47231 31.6394 -7.47676 -0.113585 -0.992125 0.0527796
2.80647 31.7054 -5.92752 -0.101615 -0.991464 0.0816975
3.02762 31.7861 -4.68334 -0.121024 -0.989141 0.0833843
3.195 31.9043 -3.214 -0.110993 -0.988493 0.102769
3.26426 32.0304 -1.98004 -0.0983322 -0.989492 0.105997
3.26752 32.1747 -0.653307 -0.079147 -0.99124 0.105728
3.20875 32.3664 0.98321 -0.0632155 -0.991928 0.109922
3.18082 32.4259 1.54315 -0.0507392 -0.993001 0.106653
4.26479 32.3571 1.62472 -0.081276 -0.988803 0.12515
4.3473 32.1558 0.0276596 -0.100352 -0.98818 0.115891
4.37197 31.9624 -1.48831 -0.113323 -0.986504 0.118181
4.31875 31.8182 -2.80607 -0.130609 -0.985029 0.112515
4.20006 31.6961 -4.07341 -0.151777 -0.982353 0.109298
3.95122 31.5787 -5.57367 -0.152863 -0.983401 0.0977538
3.61832 31.5027 -7.14214 -0.138129 -0.987589 0.0747544
3.2412 31.4751 -8.63773 -0.155592 -0.986243 0.0558156
2.88285 31.4654 -9.90128 -0.147344 -0.988831 0.0224173
3.65609 31.3259 -10.7554 -0.157896 -0.987435 0.00636184
4.12167 31.3024 -9.22694 -0.178649 -0.982658 0.0496683
4.5132 31.3114 -7.84157 -0.168719 -0.983862 0.0595717
4.81593 31.357 -6.61121 -0.165844 -0.983333 0.074515
5.05941 31.4192 -5.38255 -0.172628 -0.979509 0.103733
5.27579 31.5231 -4.09844 -0.17348 -0.977929 0.116445
5.42571 31.6859 -2.59928 -0.164561 -0.978441 0.124789
5.47739 31.8628 -1.12824 -0.137212 -0.982351 0.127123
5.43583 32.0599 0.323673 -0.128945 -0.983159 0.129505
5.36254 32.2348 1.54178 -0.103659 -0.985807 0.132056
5.34883 32.2601 1.70767 -0.0967275 -0.984704 0.144922
6.38238 32.2596 2.49507 -0.124534 -0.979333 0.159369
6.48693 32.037 1.17438 -0.126762 -0.981132 0.145985
6.56355 31.8475 -0.0721316 -0.142384 -0.981007 0.131724
6.59382 31.6471 -1.3509 -0.179356 -0.971653 0.154022
6.53046 31.4711 -2.69773 -0.193265 -0.973479 0.122419
6.38164 31.3247 -4.04364 -0.214445 -0.968271 0.128313
6.12127 31.2053 -5.49409 -0.209359 -0.971255 0.113284
5.84772 31.1455 -6.74163 -0.195982 -0.9764 0.0907382
5.55222 31.1078 -7.93023 -0.202601 -0.975782 0.0824733
5.16297 31.1084 -9.28062 -0.182675 -0.982048 0.0470188
4.67158 31.1511 -10.815 -0.180924 -0.983235 0.0226788
4.46221 31.1853 -11.4808 -0.167075 -0.98594 0.0028472
5.36871 31.0228 -11.8457 -0.181268 -0.983342 -0.0134006
5.87629 30.9214 -10.3638 -0.217549 -0.975966 0.0127436
6.27577 30.8781 -9.06941 -0.229281 -0.972089 0.0497243
6.63911 30.8729 -7.85936 -0.223552 -0.972556 0.0644899
6.97016 30.9095 -6.59468 -0.252009 -0.962593 0.0995248
7.28613 30.9862 -5.12677 -0.228593 -0.966603 0.115859
7.51049 31.0875 -3.90316 -0.231551 -0.96432 0.128342
7.65136 31.2357 -2.63846 -0.217725 -0.962963 0.159053
7.70353 31.4322 -1.3564 -0.203195 -0.967629 0.149686
7.6522 31.6553 -0.0306053 -0.188429 -0.968853 0.160682
7.56825 31.8771 1.21819 -0.156863 -0.974181 0.162375
7.46857 32.11 2.51249 -0.150466 -0.974847 0.164417
7.4502 32.1505 2.72244 -0.146079 -0.972719 0.180221
8.52812 31.9774 2.73482 -0.183909 -0.962431 0.19976
8.66363 31.6529 1.18762 -0.215554 -0.960435 0.176353
8.75195 31.3658 -0.320541 -0.237186 -0.957956 0.16144
8.79113 31.1405 -1.56483 -0.248603 -0.953363 0.171162
8.7352 30.9174 -2.95185 -0.254731 -0.955398 0.149421
8.54875 30.7719 -4.29573 -0.273982 -0.953197 0.127861
8.27686 30.6744 -5.62463 -0.255471 -0.958915 0.123353
7.92023 30.6086 -7.07976 -0.266149 -0.959461 0.0927298
7.54814 30.6036 -8.34351 -0.259358 -0.96415 0.0561158
7.1734 30.6333 -9.56233 -0.244011 -0.969053 0.0373553
6.73669 30.7145 -10.8416 -0.231656 -0.972789 0.00421787
6.24605 30.8468 -12.2456 -0.213834 -0.976593 -0.0232703
6.16299 30.8709 -12.4914 -0.210463 -0.976581 -0.0446597
7.15823 30.6498 -12.4952 -0.241171 -0.969152 -0.0508147
7.70847 30.4714 -10.9879 -0.263591 -0.964634 0.000544778
8.12434 30.3723 -9.8302 -0.262107 -0.964342 0.0366649
8.5945 30.3101 -8.4097 -0.266931 -0.961626 0.0634297
9.00655 30.303 -7.06013 -0.291595 -0.951828 0.0948425
9.32755 30.3386 -5.87155 -0.28292 -0.951185 0.123299
9.60555 30.4205 -4.61995 -0.295404 -0.946048 0.13315
9.80129 30.5629 -3.24289 -0.28266 -0.948622 0.142196
9.89937 30.7648 -1.97202 -0.273354 -0.945345 0.177765
9.87593 31.0317 -0.568783 -0.267428 -0.948004 0.172539
9.78629 31.3263 0.886239 -0.261297 -0.948917 0.176861
9.64713 31.6699 2.37977 -0.217447 -0.956848 0.192764
9.64241 31.6808 2.42705 -0.220873 -0.954266 0.201476
10.8006 31.2333 1.75155 -0.253678 -0.944706 0.207794
10.9318 30.8443 0.103953 -0.282328 -0.940666 0.188253
10.9714 30.5788 -1.1766 -0.328827 -0.925717 0.186873
10.9317 30.3293 -2.54124 -0.318338 -0.932901 0.168395
10.783 30.1101 -4.118 -0.316293 -0.93583 0.1555
10.5145 30.0115 -5.45226 -0.327808 -0.93634 0.125736
10.2115 29.9658 -6.65726 -0.320019 -0.941368 0.106837
9.75603 29.9759 -8.13798 -0.316585 -0.945405 0.0773523
9.33866 30.0397 -9.32639 -0.312836 -0.948635 0.0471695
8.89866 30.1409 -10.5535 -0.286883 -0.957961 0.00291251
8.35598 30.3199 -11.9659 -0.257663 -0.965591 -0.0352639
7.97434 30.4759 -13.0076 -0.258753 -0.962139 -0.0856437
8.82606 30.2786 -13.47 -0.278369 -0.956367 -0.088725
9.2907 30.0588 -12.215 -0.280051 -0.958494 -0.0534784
9.73123 29.8895 -11.0777 -0.31181 -0.950001 -0.0165254
10.1789 29.7479 -9.86827 -0.308398 -0.950665 0.0335688
10.6305 29.6501 -8.64124 -0.315779 -0.946688 0.0637589
11.0333 29.5997 -7.44909 -0.340141 -0.936191 0.088609
11.5263 29.6053 -5.76192 -0.342488 -0.933123 0.109471
11.8014 29.6792 -4.49572 -0.35455 -0.92501 0.136568
11.9862 29.8696 -2.96186 -0.354026 -0.920425 0.165779
12.0648 30.1158 -1.54644 -0.335522 -0.92378 0.18454
12.0285 30.4457 -0.0342215 -0.325916 -0.925628 0.19233
11.9532 30.6826 0.902051 -0.325812 -0.919268 0.220892
13.1275 29.9949 -0.139104 -0.377933 -0.900874 0.213524
13.1369 29.6996 -1.45971 -0.391435 -0.901063 0.186719
13.0745 29.4713 -2.72978 -0.378942 -0.909921 0.168661
12.9451 29.2977 -4.00116 -0.386164 -0.910332 0.148904
12.7352 29.1714 -5.36949 -0.377341 -0.917381 0.126594
12.2864 29.1861 -6.83976 -0.380003 -0.919421 0.101306
11.8726 29.2324 -8.09187 -0.363712 -0.92961 0.0594908
11.4342 29.3255 -9.29099 -0.346354 -0.937448 0.0350832
10.889 29.4991 -10.7108 -0.347694 -0.937606 -0.00211937
10.3902 29.6954 -11.9623 -0.304473 -0.950909 -0.0553858
9.93647 29.9072 -13.1182 -0.305761 -0.950565 -0.054189
9.72308 30.0294 -13.6779 -0.30112 -0.949274 -0.0905853
10.5498 29.791 -14.0554 -0.318529 -0.942307 -0.102936
10.9846 29.5343 -12.9126 -0.338079 -0.938519 -0.069892
11.4533 29.3113 -11.7603 -0.33504 -0.9416 -0.0337217
11.9611 29.0915 -10.5546 -0.366359 -0.930456 -0.00575112
12.4724 28.9243 -9.28753 -0.362426 -0.930865 0.0462338
13.0056 28.7982 -7.8286 -0.381292 -0.921426 0.0747638
13.5157 28.7109 -6.38131 -0.391576 -0.914133 0.105018
13.8653 28.7384 -5.0071 -0.402764 -0.904491 0.140273
14.0588 28.8381 -3.78185 -0.420335 -0.896519 0.139902
14.1827 29.0438 -2.39507 -0.408964 -0.894924 0.178491
14.2282 29.2797 -1.14893 -0.406746 -0.891342 0.200168
15.2496 28.5272 -2.41782 -0.44586 -0.878111 0.173582
15.1253 28.314 -3.86391 -0.436185 -0.884017 0.168098
14.8712 28.2402 -5.21225 -0.41929 -0.899648 0.121773
14.4304 28.2579 -6.79447 -0.421002 -0.902924 0.0865235
14.0138 28.3505 -7.95264 -0.411724 -0.909329 0.0600387
13.4855 28.5051 -9.30246 -0.404673 -0.913698 0.037353
12.8399 28.7377 -10.8537 -0.392124 -0.919846 -0.0110438
12.3587 28.9646 -11.9836 -0.380406 -0.924318 -0.0304745
11.7904 29.2775 -13.3618 -0.348565 -0.934307 -0.0746471
11.3572 29.5541 -14.4414 -0.346062 -0.929116 -0.130323
12.2796 29.2113 -14.5339 -0.369677 -0.921078 -0.122284
12.7504 28.9047 -13.4304 -0.387759 -0.916381 -0.0994377
13.2159 28.6174 -12.3338 -0.398253 -0.915823 -0.0516009
13.8253 28.3191 -10.8992 -0.420092 -0.907481 0.00106419
14.4369 28.063 -9.49339 -0.420356 -0.906189 0.046061
14.9338 27.8937 -8.26374 -0.436217 -0.898061 0.0565681
15.3579 27.7799 -7.11619 -0.442999 -0.892733 0.0823412
15.751 27.7046 -5.91055 -0.448362 -0.887509 0.106302
16.0469 27.7222 -4.63556 -0.472538 -0.871908 0.128391
16.2242 27.7913 -3.59826 -0.474499 -0.863723 0.169803
17.1058 27.1599 -4.50514 -0.482282 -0.864752 0.140031
16.7946 27.162 -5.82242 -0.487038 -0.867489 0.101279
16.3806 27.2463 -7.12863 -0.467297 -0.880314 0.0817379
15.8425 27.4216 -8.56838 -0.4654 -0.883116 0.0592284
15.3453 27.6114 -9.77495 -0.443005 -0.895966 0.031503
14.7497 27.8901 -11.1107 -0.443593 -0.896223 0.00320501
14.2221 28.1721 -12.3363 -0.422101 -0.905846 -0.0356899
13.6745 28.513 -13.5557 -0.416787 -0.905964 -0.0742788
13.13 28.9046 -14.7971 -0.396368 -0.909012 -0.128802
12.9553 29.0351 -15.1804 -0.396369 -0.909011 -0.128802
13.75 28.7585 -15.5512 -0.403265 -0.902873 -0.148988
14.3046 28.3251 -14.4102 -0.427465 -0.89636 -0.117523
14.8959 27.9082 -13.1171 -0.439761 -0.895016 -0.0745415
15.4404 27.5638 -11.887 -0.444918 -0.894977 -0.0326117
16.052 27.2378 -10.5181 -0.462614 -0.886536 0.00648209
16.5783 26.9917 -9.31193 -0.484863 -0.873476 0.0441215
17.165 26.7572 -7.82104 -0.486787 -0.871285 0.062448
17.6071 26.6129 -6.53315 -0.50521 -0.859347 0.07928
17.9697 26.5147 -5.45181 -0.515082 -0.851238 0.100416
18.6901 25.9465 -6.52309 -0.528272 -0.844853 0.0845708
18.2876 26.0963 -7.74176 -0.525997 -0.848586 0.0568331
17.7054 26.3686 -9.15329 -0.508765 -0.860203 0.0347777
17.0718 26.6949 -10.5611 -0.479822 -0.877299 0.0108669
16.5548 26.9809 -11.6922 -0.468629 -0.88305 -0.0246833
15.8951 27.4128 -13.1189 -0.463547 -0.883976 -0.0609166
15.3873 27.7777 -14.2069 -0.452173 -0.885539 -0.106586
14.7074 28.3144 -15.6187 -0.444596 -0.883389 -0.14818
14.4654 28.5139 -16.0746 -0.411205 -0.895811 -0.168624
15.2132 28.2387 -16.5486 -0.444114 -0.879676 -0.170096
15.7723 27.7577 -15.4847 -0.447437 -0.884951 -0.12908
16.4422 27.2199 -14.0956 -0.481971 -0.871028 -0.0949436
16.9587 26.8375 -13.0218 -0.474618 -0.877425 -0.0697437
17.5547 26.4382 -11.7915 -0.484961 -0.874065 -0.0286954
18.1982 26.0568 -10.4563 -0.495683 -0.868498 -0.00302259
18.7559 25.7354 -9.26732 -0.522567 -0.852227 0.0251675
19.3394 25.4309 -7.86213 -0.544058 -0.837946 0.0429876
19.5329 25.3336 -7.38238 -0.544887 -0.836562 0.0571246
20.145 24.8793 -8.6815 -0.554989 -0.831284 0.0309018
19.5711 25.2249 -9.9551 -0.530487 -0.847683 -0.00407484
19.0097 25.5808 -11.0732 -0.503111 -0.864024 -0.0185053
18.3569 26.0039 -12.353 -0.501338 -0.863992 -0.046666
17.7458 26.442 -13.5487 -0.492967 -0.866897 -0.0739812
17.1473 26.9137 -14.7555 -0.483735 -0.866889 -0.120432
16.6349 27.3529 -15.7783 -0.461532 -0.873776 -0.153311
16.0014 27.9203 -16.9727 -0.460384 -0.867643 -0.187729
16.7073 27.6722 -17.5561 -0.459606 -0.864721 -0.202534
17.3285 27.0854 -16.4252 -0.477829 -0.859828 -0.179932
18.0179 26.4642 -15.0903 -0.489919 -0.860566 -0.139304
18.5561 26.0286 -14.0721 -0.4949 -0.864129 -0.091402
19.1758 25.5669 -12.8979 -0.510844 -0.857676 -0.05857
19.7842 25.1327 -11.7745 -0.521639 -0.852041 -0.0438161
20.3873 24.7133 -10.6583 -0.539776 -0.841652 -0.0162627
20.9248 24.35 -9.60086 -0.547994 -0.836477 -0.00301417
21.0087 24.2944 -9.42583 -0.547995 -0.836476 -0.00301213
21.603 23.9305 -10.5988 -0.548696 -0.835638 -0.0253226
20.9216 24.4218 -11.8104 -0.531045 -0.845384 -0.0575951
20.1874 24.9713 -13.1018 -0.519547 -0.852318 -0.060215
19.5871 25.4396 -14.2053 -0.507263 -0.857004 -0.0907058
18.9567 25.9619 -15.3616 -0.511856 -0.848311 -0.135542
18.3974 26.4634 -16.3918 -0.493239 -0.854307 -0.163935
17.6618 27.1676 -17.7051 -0.495704 -0.846614 -0.193708
17.3628 27.4679 -18.216 -0.478899 -0.850188 -0.218713
17.9846 27.2773 -18.9034 -0.497733 -0.838185 -0.222952
18.5699 26.6843 -17.9166 -0.495701 -0.846615 -0.193708
19.1452 26.1327 -16.9584 -0.515086 -0.838215 -0.179112
19.8799 25.4565 -15.6849 -0.510967 -0.847432 -0.144121
20.4658 24.9607 -14.6821 -0.52664 -0.844184 -0.100018
21.1894 24.372 -13.423 -0.53173 -0.842014 -0.0909646
21.9114 23.8116 -12.2506 -0.54358 -0.837436 -0.0567667
22.1995 23.5867 -11.813 -0.562972 -0.824528 -0.0567022
22.9962 23.0987 -12.5235 -0.552962 -0.829385 -0.0797031
22.3255 23.6514 -13.5872 -0.547091 -0.83207 -0.091387
21.6037 24.254 -14.7469 -0.537673 -0.836654 -0.104486
20.9705 24.8018 -15.7626 -0.53043 -0.836806 -0.135647
20.3 25.4133 -16.8806 -0.520403 -0.840168 -0.15264
19.5811 26.1036 -18.0361 -0.521107 -0.832993 -0.18593
18.9097 26.7649 -19.0824 -0.506038 -0.835149 -0.215527
18.6368 27.0552 -19.5305 -0.5071 -0.830341 -0.23105
19.3315 26.7823 -20.098 -0.52281 -0.820335 -0.231774
19.9756 26.1294 -19.1766 -0.529018 -0.824487 -0.200904
20.7041 25.4026 -18.0636 -0.526452 -0.83045 -0.18221
21.3938 24.7336 -16.9476 -0.528283 -0.833824 -0.160174
22.1383 24.064 -15.7899 -0.533447 -0.834998 -0.134956
22.7624 23.5199 -14.8558 -0.543795 -0.831484 -0.113673
23.4744 22.9143 -13.8163 -0.553735 -0.827235 -0.0951806
23.5266 22.8707 -13.7438 -0.560977 -0.821844 -0.0993854
24.1274 22.5926 -14.8004 -0.56887 -0.81447 -0.114132
23.4795 23.1649 -15.6887 -0.561153 -0.817324 -0.130724
22.7807 23.7873 -16.6712 -0.541995 -0.827892 -0.144352
22.0755 24.453 -17.7508 -0.538198 -0.825084 -0.171986
21.4619 25.0571 -18.6839 -0.539858 -0.821782 -0.182286
20.7738 25.7494 -19.7037 -0.527094 -0.824448 -0.206052
20.1137 26.4144 -20.5707 -0.533504 -0.812508 -0.234955
19.9112 26.6236 -20.8319 -0.53317 -0.809042 -0.247347
20.447 26.5169 -21.6159 -0.533297 -0.806089 -0.256542
21.1321 25.8191 -20.8155 -0.539362 -0.809011 -0.233645
21.8294 25.1047 -19.8882 -0.539242 -0.816471 -0.206383
22.5498 24.3785 -18.8569 -0.544467 -0.816601 -0.19162
23.2101 23.7295 -17.8998 -0.553376 -0.815115 -0.171353
23.8557 23.1178 -16.9767 -0.562489 -0.813925 -0.145367
24.6322 22.4091 -15.9309 -0.567962 -0.813291 -0.1264
24.8937 22.1722 -15.5879 -0.572529 -0.810164 -0.125878
25.4835 21.9271 -16.681 -0.582666 -0.802241 -0.130038
24.6758 22.6806 -17.6917 -0.569802 -0.807687 -0.151549
23.9106 23.4254 -18.7271 -0.569621 -0.803449 -0.173208
23.2344 24.1014 -19.6414 -0.55383 -0.807792 -0.201853
22.4539 24.8979 -20.6772 -0.54776 -0.806425 -0.222796
21.6208 25.752 -21.6926 -0.545165 -0.80418 -0.236833
20.979 26.4099 -22.4018 -0.540902 -0.802267 -0.252572
21.5587 26.2399 -23.1009 -0.553854 -0.79069 -0.260874
22.2691 25.5109 -22.3634 -0.553996 -0.793948 -0.250468
23.1269 24.635 -21.4177 -0.557776 -0.799198 -0.223984
24.0933 23.6443 -20.2198 -0.567293 -0.799906 -0.195777
24.8911 22.8386 -19.2137 -0.575027 -0.799028 -0.175779
25.7206 22.0111 -18.1335 -0.581293 -0.797651 -0.160781
25.952 21.789 -17.854 -0.586382 -0.797039 -0.144518
26.6473 21.4592 -18.8192 -0.601194 -0.783361 -0.157834
25.9732 22.1326 -19.6266 -0.588647 -0.788876 -0.176548
25.057 23.0683 -20.707 -0.585021 -0.787956 -0.192032
24.3642 23.7835 -21.5149 -0.572978 -0.792713 -0.208094
23.6795 24.4876 -22.2678 -0.569026 -0.792149 -0.220704
22.8626 25.3254 -23.0913 -0.561312 -0.789909 -0.246926
22.0691 26.1392 -23.8805 -0.556949 -0.787034 -0.265304
22.529 26.1016 -24.7087 -0.561378 -0.780046 -0.276374
23.3446 25.258 -23.97 -0.566213 -0.783773 -0.255152
24.2387 24.3336 -23.1079 -0.578577 -0.781701 -0.232792
25.0592 23.4828 -22.2671 -0.582901 -0.783199 -0.216392
25.784 22.7311 -21.4953 -0.584625 -0.784126 -0.208234
26.7403 21.7356 -20.4302 -0.601457 -0.775569 -0.191682
27.2358 21.2317 -19.9048 -0.610623 -0.774018 -0.167437
27.6856 21.1427 -21.0722 -0.62091 -0.761614 -0.185514
26.8746 22.0086 -21.9588 -0.612555 -0.763481 -0.204631
25.9823 22.9426 -22.8348 -0.601542 -0.768792 -0.217039
25.1718 23.786 -23.604 -0.593425 -0.769909 -0.234707
24.3522 24.6405 -24.3533 -0.583007 -0.771616 -0.254386
23.4878 25.5412 -25.1277 -0.578192 -0.772771 -0.26176
22.9234 26.1246 -25.5982 -0.56984 -0.775645 -0.271398
23.4623 26.0013 -26.3715 -0.578099 -0.764813 -0.284364
24.2149 25.2153 -25.7673 -0.586058 -0.767431 -0.259973
24.9871 24.4018 -25.1078 -0.590654 -0.767874 -0.247985
25.9331 23.4108 -24.298 -0.593424 -0.769909 -0.234708
26.6941 22.6129 -23.6288 -0.608204 -0.763515 -0.217102
27.453 21.8048 -22.9269 -0.619554 -0.757284 -0.206576
28.2184 20.983 -22.2064 -0.625634 -0.756476 -0.190594
28.4642 20.7178 -21.9643 -0.626315 -0.75562 -0.191752
28.867 20.6761 -23.1571 -0.653525 -0.729419 -0.20212
28.0046 21.6172 -23.9013 -0.623469 -0.751885 -0.214371
27.1475 22.5409 -24.6276 -0.617084 -0.75227 -0.230862
26.416 23.3223 -25.2422 -0.614482 -0.752255 -0.237748
25.624 24.1567 -25.8701 -0.607635 -0.753898 -0.249833
24.8273 25.0053 -26.5362 -0.599567 -0.756621 -0.260852
24.0132 25.8645 -27.1539 -0.589771 -0.757014 -0.281248
24.3127 25.9911 -28.1317 -0.593166 -0.752866 -0.285213
25.1775 25.0697 -27.5014 -0.603592 -0.752074 -0.264692
26.0453 24.1399 -26.8378 -0.609297 -0.751736 -0.25229
26.854 23.2782 -26.22 -0.614029 -0.750085 -0.245644
27.7333 22.3279 -25.5235 -0.627752 -0.744636 -0.226814
28.6829 21.2875 -24.7532 -0.642149 -0.735531 -0.215962
29.4294 20.4478 -24.1423 -0.653862 -0.727724 -0.207078
29.5009 20.3667 -24.0827 -0.658345 -0.724104 -0.20556
29.9485 20.2583 -25.1503 -0.670148 -0.709486 -0.218016
29.2143 21.1061 -25.7145 -0.652042 -0.724272 -0.224212
28.3621 22.0599 -26.3709 -0.634951 -0.735705 -0.235745
27.5118 22.9992 -27.0286 -0.626328 -0.740438 -0.243853
26.582 24.0007 -27.7116 -0.615896 -0.746176 -0.252771
25.621 25.0415 -28.4303 -0.608774 -0.746634 -0.268201
25.1837 25.5075 -28.7352 -0.610169 -0.744106 -0.27203
27.2169 23.7449 -28.4968 -0.623403 -0.736898 -0.261437
28.0789 22.8157 -27.928 -0.627698 -0.738059 -0.247515
28.9816 21.7912 -27.2354 -0.648031 -0.72062 -0.246503
29.9304 20.7033 -26.5217 -0.663389 -0.712185 -0.22958
30.274 20.2951 -26.2631 -0.666841 -0.710099 -0.226013
30.7247 20.2009 -27.2979 -0.674678 -0.699688 -0.235045
29.9046 21.1664 -27.8574 -0.654241 -0.715721 -0.244359
