5.19787 31.5925 -12.44 -0.178095 -0.983801 -0.0178189
6.33105 31.39 -12.8456 -0.192496 -0.979948 -0.0482895
7.5759 31.1485 -13.1844 -0.241759 -0.968139 -0.0652628
8.71401 30.8924 -13.6229 -0.258991 -0.962329 -0.0826577
9.82005 30.6077 -13.9828 -0.279568 -0.955038 -0.0987117
10.98 30.2737 -14.3344 -0.323574 -0.941318 -0.0960224
12.2109 29.8881 -14.7306 -0.339121 -0.931052 -0.134556
13.3171 29.5168 -15.2109 -0.388373 -0.912452 -0.128829
14.2807 29.1889 -15.7371 -0.41777 -0.89693 -0.144863
15.2113 28.8633 -16.3381 -0.438506 -0.881768 -0.173772
16.1457 28.5342 -17.0972 -0.468875 -0.863761 -0.183722
17.0307 28.2278 -17.8503 -0.469005 -0.858163 -0.208352
17.87 27.9188 -18.5122 -0.502253 -0.83743 -0.21553
18.6876 27.6273 -19.2718 -0.505009 -0.833206 -0.225241
19.355 27.446 -20.0763 -0.516243 -0.822612 -0.238333
20.0753 27.2479 -20.9487 -0.528802 -0.813294 -0.242735
20.9401 27.0333 -22.1086 -0.530611 -0.808731 -0.253781
21.6037 26.8715 -22.9872 -0.541331 -0.79911 -0.261409
22.3133 26.7395 -24.07 -0.553247 -0.788582 -0.268433
23.0341 26.6523 -25.2941 -0.564896 -0.780923 -0.266556
23.5521 26.6253 -26.2565 -0.573959 -0.769349 -0.280429
24.1658 26.5658 -27.3747 -0.584948 -0.759475 -0.284664
24.5789 26.6074 -28.3566 -0.597297 -0.750378 -0.28313
25.3966 26.2865 -29.2611 -0.607097 -0.744591 -0.277519
26.2015 25.5853 -29.1527 -0.61238 -0.742085 -0.272571
26.9954 24.8775 -28.9982 -0.615447 -0.744182 -0.259627
27.8442 24.0986 -28.8001 -0.626276 -0.735768 -0.25772
28.6068 23.3723 -28.5879 -0.633494 -0.72902 -0.25926
29.4738 22.5647 -28.4494 -0.639065 -0.727591 -0.24929
30.4307 21.6751 -28.3673 -0.654873 -0.712052 -0.253073
31.2918 20.7669 -28.1119 -0.676764 -0.6932 -0.247768
31.4062 20.3345 -27.1697 -0.680845 -0.695553 -0.229429
30.969 20.4304 -26.1516 -0.678911 -0.700957 -0.218493
30.4212 20.5885 -24.9662 -0.667139 -0.713787 -0.213084
29.9946 20.7031 -23.9937 -0.66253 -0.721926 -0.19964
29.4536 20.9338 -23.0494 -0.655755 -0.729959 -0.192607
28.8242 21.2182 -22.0188 -0.632089 -0.751204 -0.189523
28.158 21.4906 -20.904 -0.624972 -0.759585 -0.180111
27.5062 21.7278 -19.6805 -0.604951 -0.77898 -0.164983
26.9798 21.9287 -18.7022 -0.59677 -0.787951 -0.151654
26.4725 22.1318 -17.7872 -0.586365 -0.796707 -0.1464
25.8622 22.4267 -16.9347 -0.577804 -0.805537 -0.131207
25.301 22.6654 -15.9542 -0.573068 -0.809604 -0.126949
24.7883 22.8538 -14.8139 -0.569579 -0.814561 -0.109701
24.2288 23.108 -13.7931 -0.565703 -0.818629 -0.0989501
23.6602 23.3981 -12.941 -0.559631 -0.824933 -0.0791746
22.9282 23.7893 -11.7992 -0.558432 -0.82749 -0.0584248
22.3259 24.145 -10.9742 -0.554447 -0.831803 -0.0262964
21.7 24.5289 -9.96924 -0.548897 -0.835579 -0.0228071
21.1506 24.8987 -9.02502 -0.553488 -0.832437 0.0257181
20.5008 25.3692 -8.09454 -0.553085 -0.8319 0.0451549
19.914 25.8094 -7.29403 -0.54956 -0.833468 0.05758
19.3466 26.2525 -6.46941 -0.538324 -0.839351 0.0754798
18.6929 26.7549 -5.7288 -0.528186 -0.841215 0.114334
17.9883 27.2952 -4.89465 -0.517764 -0.846687 0.122399
17.4543 27.7406 -4.04079 -0.503486 -0.851578 0.14595
16.8061 28.2604 -3.14832 -0.478076 -0.864402 0.155734
16.0555 28.8255 -2.35218 -0.462516 -0.870146 0.17007
15.3737 29.3213 -1.66228 -0.442592 -0.874995 0.196118
14.6044 29.9185 -0.676036 -0.39585 -0.891768 0.219212
13.7639 30.517 0.210247 -0.368794 -0.89892 0.236505
12.9609 31.0479 1.05189 -0.329483 -0.91374 0.237739
12.1592 31.4964 1.71835 -0.300248 -0.924451 0.235036
11.3665 31.8959 2.39525 -0.254568 -0.942456 0.216281
10.3899 32.2746 2.92734 -0.225788 -0.948866 0.21923
9.4025 32.5874 3.41821 -0.196138 -0.958975 0.204686
8.15553 32.8286 3.6087 -0.132979 -0.971394 0.195898
7.09659 32.96 3.55456 -0.113464 -0.979303 0.167607
5.7175 33.0548 3.22027 -0.0882043 -0.98525 0.146634
4.6616 33.0986 3.00895 -0.0557903 -0.989316 0.134679
3.59949 33.1245 2.77182 -0.0380091 -0.991497 0.124451
2.32699 33.1074 2.35816 -0.00561772 -0.992741 0.120142
1.06178 33.0689 2.01911 0.020073 -0.99482 0.0987941
-0.226056 32.997 1.60744 0.0465004 -0.994966 0.0887694
-1.23039 32.8985 1.04299 0.0700073 -0.994663 0.0757872
-1.9324 32.7891 0.195299 0.0721534 -0.995166 0.0666275
-1.97776 32.6968 -1.32831 0.0544635 -0.996859 0.0574901
-1.53898 32.6583 -2.4632 0.0368986 -0.997766 0.0556704
-1.02873 32.5952 -3.89658 0.00800281 -0.998906 0.0460657
-0.605073 32.5499 -4.91789 -0.0326024 -0.997746 0.0586561
-0.075319 32.4719 -6.09608 -0.0345619 -0.998699 0.0375024
0.457424 32.3897 -7.21982 -0.0555728 -0.997528 0.0413265
0.856866 32.317 -8.24897 -0.0699017 -0.996642 0.0423569
1.56808 32.1938 -9.30499 -0.0975166 -0.994198 0.0453876
2.4187 32.0574 -10.3496 -0.13521 -0.990175 0.0356552
3.21901 31.9282 -11.1198 -0.130999 -0.991185 0.0198067
4.30794 31.7455 -11.9412 -0.156853 -0.987606 0.00258367
5.09583 31.611 -12.3825 -0.184423 -0.982795 -0.010106
4.49575 31.7371 -13.2796 -0.149673 -0.987914 -0.0403067
3.51288 31.874 -12.6367 -0.139027 -0.990062 -0.0209996
2.52266 32.0107 -11.8877 -0.133442 -0.991016 0.00855125
1.65642 32.1292 -11.0597 -0.102717 -0.994588 0.0131373
0.747809 32.2482 -9.95305 -0.0813516 -0.995947 0.0383649
0.00231824 32.3573 -8.7913 -0.0747263 -0.996208 0.043911
-0.60093 32.4486 -7.43086 -0.049534 -0.998276 0.0289397
-1.20762 32.5065 -6.13261 -0.0278677 -0.998778 0.0408097
-1.7302 32.5462 -4.94978 0.00576144 -0.99946 0.0311946
-2.16792 32.5749 -3.86556 0.017489 -0.999134 0.0370358
-2.51038 32.5967 -2.85046 0.0495505 -0.998035 0.0381991
-2.97514 32.6233 -1.64063 0.0745293 -0.996211 0.044824
-3.22955 32.6463 -0.583907 0.0912423 -0.99488 0.0426191
-2.9547 32.7285 0.563869 0.109253 -0.99215 0.0608507
-2.39315 32.8458 1.59203 0.086692 -0.993599 0.0724227
-1.49402 32.9664 2.15436 0.0808372 -0.992809 0.0882889
-0.473472 33.0737 2.59211 0.0579515 -0.994167 0.0909558
0.666453 33.17 3.03434 0.0281126 -0.993902 0.106624
1.71839 33.2116 3.23713 0.00670099 -0.993325 0.115156
2.83521 33.2532 3.64582 -0.0224874 -0.990501 0.135651
3.97096 33.2583 3.94355 -0.0429105 -0.990203 0.132876
5.31924 33.2317 4.18535 -0.054832 -0.986796 0.152404
6.41104 33.1851 4.45459 -0.0916401 -0.982104 0.164364
7.56258 33.1068 4.64998 -0.115136 -0.973975 0.195232
8.87698 32.933 4.62134 -0.13987 -0.964948 0.222062
9.90423 32.7112 4.3705 -0.183723 -0.95094 0.248916
10.7901 32.4065 3.87849 -0.218223 -0.941595 0.255857
11.739 32.0408 3.38073 -0.228926 -0.940993 0.249251
12.6041 31.5762 2.60037 -0.291192 -0.929152 0.227426
13.6313 31.0157 1.84839 -0.326205 -0.909167 0.258136
14.408 30.4603 0.999243 -0.370661 -0.89721 0.240012
15.3478 29.77 0.0560313 -0.402068 -0.875474 0.266931
16.0404 29.1637 -0.89129 -0.443789 -0.87038 0.212831
16.8627 28.5397 -1.71461 -0.471551 -0.859812 0.195082
17.5095 27.9971 -2.50564 -0.509586 -0.841809 0.177989
18.1827 27.4167 -3.39286 -0.507822 -0.849632 0.142233
18.9893 26.7094 -4.63369 -0.529969 -0.838344 0.127721
19.6879 26.1602 -5.29198 -0.556412 -0.825061 0.0983923
20.3305 25.6277 -6.18009 -0.556458 -0.827257 0.0774613
20.9232 25.1451 -7.09676 -0.565686 -0.822327 0.0613257
21.6178 24.6129 -8.07074 -0.571219 -0.819901 0.0382973
22.2 24.1874 -9.05062 -0.56155 -0.827298 0.0154993
22.8299 23.7728 -10.0902 -0.564826 -0.825081 -0.0145892
23.458 23.3709 -10.9457 -0.570808 -0.820194 -0.0378184
23.9628 23.0864 -11.8537 -0.571033 -0.817209 -0.0778573
24.5944 22.7319 -12.7307 -0.573366 -0.815168 -0.082167
25.182 22.4296 -13.7208 -0.574759 -0.812042 -0.101193
25.7491 22.1782 -14.8444 -0.57431 -0.809963 -0.118855
26.1813 22.0133 -15.8139 -0.582441 -0.802929 -0.126688
26.7465 21.7485 -16.7172 -0.586726 -0.799735 -0.1271
27.3979 21.432 -17.7285 -0.593389 -0.792795 -0.139161
27.8781 21.2444 -18.6988 -0.60684 -0.780886 -0.147999
28.3977 21.0196 -19.6468 -0.617186 -0.770311 -0.1603
28.9213 20.8095 -20.642 -0.637067 -0.752439 -0.167275
29.4937 20.5338 -21.6128 -0.643329 -0.745313 -0.174478
30.1916 20.2166 -22.8328 -0.662905 -0.726096 -0.182375
30.7107 19.9691 -23.7315 -0.668983 -0.716039 -0.199374
31.1383 19.8734 -24.8435 -0.679362 -0.70619 -0.199309
31.6018 19.7024 -25.791 -0.680925 -0.700418 -0.213821
32.0135 19.6065 -26.7902 -0.686986 -0.691444 -0.223371
32.5049 19.533 -28.0197 -0.691386 -0.67894 -0.247035
32.4838 19.8565 -28.8372 -0.690649 -0.677111 -0.253993
31.7194 20.6987 -29.058 -0.673146 -0.695042 -0.25248
30.7757 21.7109 -29.3735 -0.656442 -0.706102 -0.265527
29.9344 22.4955 -29.4124 -0.645103 -0.7159 -0.267076
29.151 23.2274 -29.5195 -0.635712 -0.726213 -0.261649
28.2933 24.0422 -29.727 -0.627148 -0.734494 -0.259238
27.4312 24.8467 -29.9267 -0.619443 -0.736807 -0.270936
26.4087 25.7739 -30.1277 -0.613487 -0.740625 -0.274059
25.4792 26.6139 -30.3089 -0.616031 -0.737011 -0.278065
24.708 27.2011 -30.1643 -0.612945 -0.730782 -0.300345
24.0485 27.3622 -29.1943 -0.606692 -0.736055 -0.30013
23.6902 27.2458 -28.1793 -0.584569 -0.753383 -0.301152
23.1948 27.2502 -27.2176 -0.572948 -0.764286 -0.29597
22.5773 27.2923 -26.1354 -0.562083 -0.775662 -0.287074
21.8271 27.3582 -24.8696 -0.550498 -0.786775 -0.279174
21.1944 27.4369 -23.8543 -0.538381 -0.79537 -0.27834
20.3931 27.6096 -22.7837 -0.531722 -0.804845 -0.263621
19.5519 27.7864 -21.6419 -0.517362 -0.816419 -0.256374
18.7992 27.9962 -20.7834 -0.503182 -0.82704 -0.25062
18.0867 28.1642 -19.907 -0.496438 -0.832703 -0.245086
17.2047 28.4713 -19.1373 -0.49472 -0.837055 -0.233647
16.2866 28.7641 -18.3374 -0.471762 -0.852159 -0.226418
15.1377 29.154 -17.4787 -0.436807 -0.875289 -0.207077
14.1574 29.4687 -16.8242 -0.419003 -0.883603 -0.209001
12.8422 29.8772 -16.1133 -0.38248 -0.904903 -0.186707
11.6824 30.2118 -15.558 -0.331336 -0.927538 -0.172173
10.3888 30.5863 -15.2204 -0.291696 -0.947738 -0.129254
9.35728 30.8458 -14.853 -0.279824 -0.951005 -0.131481
8.36181 31.0891 -14.565 -0.263747 -0.957802 -0.11425
7.23232 31.3231 -14.1437 -0.238626 -0.964559 -0.112618
6.18826 31.5119 -13.8955 -0.201394 -0.974217 -0.101692
5.09143 31.6587 -13.6018 -0.168476 -0.983549 -0.0628002
4.76723 31.7019 -13.4264 -0.149671 -0.987914 -0.0403063
4.38363 31.8128 -14.3793 -0.141331 -0.988155 -0.0597912
5.54398 31.6952 -14.867 -0.13686 -0.986521 -0.0891986
6.79486 31.5444 -15.0936 -0.195635 -0.965878 -0.169726
8.09167 31.2893 -15.5224 -0.256655 -0.956642 -0.137615
9.2689 31.0114 -15.8155 -0.281213 -0.948355 -0.146773
10.4284 30.7538 -16.2865 -0.289944 -0.937274 -0.19352
11.7427 30.4026 -16.6921 -0.326458 -0.921728 -0.209306
12.6856 30.1778 -17.1753 -0.357529 -0.905627 -0.22722
13.8401 29.8448 -17.7878 -0.407877 -0.87942 -0.245475
14.7445 29.5585 -18.3377 -0.431652 -0.872315 -0.229659
15.5893 29.3096 -18.9518 -0.456963 -0.855352 -0.244046
16.5061 29.0419 -19.7546 -0.468513 -0.845184 -0.257077
17.3704 28.751 -20.4497 -0.498602 -0.83268 -0.240827
18.1106 28.5893 -21.3311 -0.491018 -0.826096 -0.27558
18.8524 28.3965 -22.1279 -0.514002 -0.811522 -0.277643
19.6176 28.2266 -23.0995 -0.526092 -0.804397 -0.275984
20.2425 28.1159 -23.9773 -0.53275 -0.797544 -0.28302
20.906 28.0162 -24.9404 -0.540737 -0.791396 -0.285124
21.5051 27.9853 -25.9511 -0.539149 -0.787262 -0.299227
22.0338 27.9725 -26.8671 -0.56505 -0.764241 -0.310892
22.6002 27.9821 -27.9177 -0.579386 -0.756167 -0.304149
23.0363 28.0393 -28.8702 -0.582735 -0.746291 -0.321666
23.5618 28.0827 -29.9513 -0.613431 -0.723838 -0.315709
24.1099 28.0948 -31.1016 -0.635196 -0.715147 -0.291703
24.8743 27.5619 -31.4421 -0.628233 -0.72796 -0.274586
25.8376 26.6789 -31.2759 -0.621163 -0.734241 -0.273945
26.7249 25.8615 -31.0708 -0.617624 -0.736998 -0.274532
27.5251 25.1395 -30.936 -0.619385 -0.736498 -0.271903
28.6006 24.1405 -30.7077 -0.623199 -0.73312 -0.27227
29.5631 23.2357 -30.523 -0.633483 -0.72648 -0.266319
30.3383 22.4967 -30.3946 -0.64824 -0.711908 -0.270132
31.1957 21.6824 -30.3294 -0.657532 -0.701893 -0.273816
32.0383 20.7878 -30.1071 -0.669563 -0.691704 -0.270611
32.8728 19.8873 -29.9233 -0.691043 -0.669446 -0.27257
33.7712 18.936 -29.8824 -0.695708 -0.662609 -0.27738
33.6192 18.6892 -28.8787 -0.70929 -0.657202 -0.254521
33.1316 18.787 -27.7596 -0.704424 -0.664572 -0.249261
32.7125 18.8378 -26.6029 -0.698383 -0.678874 -0.226582
32.1688 18.9869 -25.2788 -0.689465 -0.697682 -0.194622
31.7133 19.1603 -24.2903 -0.683119 -0.703643 -0.195536
31.2478 19.3079 -23.1711 -0.679572 -0.709359 -0.187062
30.7034 19.5922 -22.2217 -0.672871 -0.720369 -0.168262
30.1857 19.8324 -21.1761 -0.656107 -0.738343 -0.156118
29.6161 20.1461 -20.2812 -0.647046 -0.747475 -0.150376
29.0671 20.3882 -19.1945 -0.628799 -0.765006 -0.139185
28.4718 20.6672 -18.1168 -0.619418 -0.771518 -0.145194
27.9782 20.8858 -17.1344 -0.608494 -0.783063 -0.128638
27.3785 21.1864 -16.1199 -0.596306 -0.79423 -0.116694
26.8337 21.4437 -15.1578 -0.581748 -0.804877 -0.117221
26.4174 21.6029 -14.1894 -0.583417 -0.80428 -0.112835
25.8645 21.8773 -13.2284 -0.582012 -0.80629 -0.105629
25.2892 22.1768 -12.1475 -0.582473 -0.808945 -0.0795845
24.6108 22.5794 -11.2266 -0.588611 -0.806283 -0.0578812
24.1033 22.8804 -10.2815 -0.571768 -0.81884 -0.0508167
23.3317 23.3985 -9.20513 -0.578477 -0.815299 -0.0255201
22.7558 23.8177 -8.24787 -0.57776 -0.816147 0.00988037
22.2241 24.2201 -7.32858 -0.578589 -0.815 0.0317804
21.572 24.7472 -6.34581 -0.580266 -0.81268 0.0533182
21.0024 25.2337 -5.44597 -0.579285 -0.810931 0.0824067
20.3578 25.7961 -4.58707 -0.575767 -0.809689 0.113521
19.6056 26.4414 -3.80365 -0.540137 -0.831113 0.132299
18.9436 27.0759 -2.68567 -0.527601 -0.83379 0.162578
18.3132 27.6429 -1.91643 -0.526213 -0.827608 0.195359
17.7763 28.1561 -1.15046 -0.485685 -0.848626 0.20963
17.0013 28.7674 -0.484882 -0.468468 -0.856011 0.217907
16.469 29.2825 0.342426 -0.449931 -0.848375 0.278805
15.7985 29.8621 1.0694 -0.416882 -0.862897 0.285689
15.0681 30.4304 1.80241 -0.356327 -0.888464 0.289245
14.3854 30.928 2.54491 -0.345642 -0.900383 0.264185
13.3934 31.5327 3.36009 -0.302139 -0.911138 0.280249
12.6551 31.9588 4.0038 -0.281932 -0.918337 0.277436
11.6145 32.4179 4.62052 -0.217751 -0.934963 0.280052
10.6951 32.7769 5.16592 -0.170511 -0.94684 0.271187
9.66658 33.0314 5.5063 -0.138424 -0.958626 0.248022
8.37234 33.229 5.68953 -0.106504 -0.971406 0.212196
6.94888 33.3584 5.67379 -0.0745801 -0.980515 0.181329
5.92179 33.3859 5.41785 -0.0801944 -0.984063 0.158711
4.80522 33.4137 5.21434 -0.0373632 -0.986418 0.159946
3.63698 33.4063 4.92059 -0.0261467 -0.990791 0.132848
2.4857 33.3914 4.63584 -0.00788469 -0.990064 0.140396
1.44899 33.3401 4.29123 0.0138319 -0.992611 0.120104
0.0118456 33.2469 3.9351 0.0496939 -0.991667 0.118739
-1.06461 33.1369 3.54192 0.0710312 -0.992222 0.102228
-2.36949 32.9681 3.00374 0.0858572 -0.991246 0.0993961
-3.30269 32.8058 2.20707 0.103291 -0.991662 0.0769406
-4.03009 32.6367 0.975571 0.118743 -0.990185 0.0735211
-4.33916 32.5279 -0.47356 0.115785 -0.992611 0.0362332
-4.1697 32.5123 -1.60648 0.109246 -0.993575 0.0295479
-3.66002 32.5238 -2.81332 0.07022 -0.997041 0.0287439
-3.21431 32.5258 -4.08117 0.0431294 -0.998847 0.0206395
-2.75193 32.5283 -5.18092 0.021221 -0.999521 0.0133938
-2.27771 32.5092 -6.21672 0.00142136 -0.999806 0.0196611
-1.88184 32.4913 -7.33363 -0.0129228 -0.99978 0.0165294
-1.30048 32.4643 -8.42002 -0.058452 -0.997793 0.0192484
-0.891111 32.3861 -9.51453 -0.0667719 -0.996553 0.0492181
-0.224949 32.3057 -10.4262 -0.0571269 -0.99792 0.0298784
0.40395 32.2404 -11.3775 -0.0818508 -0.996449 0.0197464
1.23484 32.1656 -12.0671 -0.0832136 -0.99646 0.000515846
1.99813 32.0743 -12.8327 -0.113642 -0.993221 -0.014196
3.04925 31.9601 -13.5084 -0.13717 -0.990132 -0.0284518
4.10311 31.844 -14.2321 -0.141331 -0.988155 -0.0597912
-1.39883 32.8069 -0.0783643 0.0643866 -0.995745 0.0659259
-1.40411 32.7378 -1.16248 0.054948 -0.996828 0.0575719
-0.376495 32.9292 0.883546 0.0338157 -0.996833 0.0719736
-0.333165 32.8294 -0.551516 0.0275497 -0.996427 0.0798412
-0.38992 32.7151 -2.08581 0.0204282 -0.997691 0.0647709
-0.545203 32.6279 -3.44838 0.0205756 -0.998059 0.0587777
0.193772 32.4994 -5.33248 -0.0283885 -0.997736 0.0609698
0.421052 32.5774 -4.07589 -0.020746 -0.99735 0.0697323
0.581014 32.6691 -2.81843 -0.0152696 -0.996741 0.0792097
0.704263 32.7763 -1.33073 -0.0212359 -0.997342 0.0697056
0.716416 32.8877 0.0121629 -0.00915362 -0.996125 0.0874731
0.67138 32.9982 1.24572 0.0171126 -0.996378 0.0832899
0.669727 33.0008 1.27801 0.0148995 -0.996644 0.0804961
1.72844 33.0276 1.58331 -0.0202001 -0.994314 0.104555
1.77714 32.9029 0.31084 -0.0352961 -0.994416 0.0994532
1.77094 32.7809 -0.985679 -0.0497921 -0.994897 0.0877562
1.70101 32.6777 -2.27042 -0.054759 -0.994234 0.0921941
1.56639 32.5732 -3.4887 -0.055514 -0.994606 0.0876231
1.32018 32.4741 -4.94017 -0.0546578 -0.996175 0.0681727
1.07016 32.4092 -6.15777 -0.0545846 -0.996974 0.0553466
0.922398 32.3862 -6.78648 -0.0579688 -0.99706 0.0501064
1.62844 32.2455 -8.25091 -0.0965495 -0.993862 0.0540124
2.00137 32.3046 -6.65967 -0.108481 -0.991993 0.0646614
2.3231 32.3795 -5.22178 -0.0823175 -0.993118 0.0833088
2.55155 32.453 -3.99625 -0.0830936 -0.993194 0.0816157
2.72959 32.5735 -2.66514 -0.0759233 -0.992246 0.0984077
2.8336 32.7357 -0.94325 -0.0541131 -0.993968 0.0953933
2.85224 32.8798 0.387952 -0.0407137 -0.992886 0.111888
2.81747 33.0014 1.48043 -0.0317533 -0.993401 0.110206
3.90248 32.9965 1.87172 -0.0602098 -0.989676 0.130061
3.93101 32.8418 0.616952 -0.079941 -0.98951 0.120332
3.90525 32.6558 -0.955635 -0.0772396 -0.990801 0.111115
3.81998 32.5161 -2.23403 -0.0988522 -0.98868 0.112873
3.69779 32.3961 -3.45483 -0.10523 -0.989231 0.101733
3.49517 32.2995 -4.70615 -0.11624 -0.98981 0.0822434
3.15157 32.215 -6.24709 -0.13649 -0.986685 0.0884536
2.74411 32.1425 -7.84224 -0.112564 -0.991617 0.0634357
2.33861 32.1139 -9.36827 -0.133133 -0.989653 0.0534995
2.32797 32.1133 -9.40655 -0.133135 -0.989653 0.0535034
3.12807 31.9713 -10.1302 -0.130212 -0.990474 0.0447985
3.51928 31.9801 -8.77706 -0.159596 -0.98546 0.0582822
3.90286 32.0165 -7.39023 -0.155408 -0.985148 0.0730164
4.2665 32.0754 -5.9886 -0.148267 -0.986256 0.0729086
4.54876 32.1542 -4.70686 -0.146795 -0.983688 0.103969
4.76509 32.2773 -3.35291 -0.143224 -0.982702 0.117405
4.9017 32.4351 -1.91969 -0.118556 -0.985629 0.120334
4.99137 32.5782 -0.6764 -0.114222 -0.985955 0.121848
5.01834 32.7496 0.592499 -0.087763 -0.988017 0.126966
4.98113 32.9746 2.28592 -0.0885942 -0.987389 0.1312
4.97347 33.0071 2.52507 -0.0823383 -0.987336 0.135605
6.09402 32.9431 2.72685 -0.12189 -0.980141 0.156419
6.10128 32.732 1.34529 -0.111938 -0.984175 0.137365
6.08069 32.5215 -0.0908315 -0.128444 -0.98163 0.141082
6.00927 32.3238 -1.59403 -0.153756 -0.979251 0.132012
5.85293 32.1439 -3.1105 -0.16017 -0.978904 0.126859
5.61634 31.9947 -4.60075 -0.166985 -0.97872 0.119263
5.30848 31.897 -6.01969 -0.17509 -0.980751 0.0864305
4.8958 31.8378 -7.53468 -0.166008 -0.983309 0.0744594
4.53098 31.8127 -8.8045 -0.186156 -0.980486 0.063195
4.17809 31.8115 -10.0123 -0.176947 -0.983439 0.0392145
3.95754 31.8216 -10.751 -0.156515 -0.987275 0.028131
4.74784 31.6731 -11.4394 -0.187018 -0.982309 0.00962732
5.18044 31.6257 -10.0461 -0.193689 -0.980458 0.0344381
5.53566 31.6174 -8.8607 -0.193377 -0.97933 0.0593076
5.93259 31.6342 -7.51498 -0.197024 -0.97671 0.0849616
6.29082 31.6766 -6.28115 -0.196913 -0.97529 0.100176
6.56827 31.7627 -5.04059 -0.203727 -0.971732 0.1193
6.82453 31.8815 -3.72442 -0.207193 -0.969024 0.134401
6.98353 32.0261 -2.4989 -0.201465 -0.968947 0.143366
7.10146 32.237 -0.967633 -0.1559 -0.97673 0.14729
7.17244 32.4393 0.478499 -0.153141 -0.977778 0.143168
7.21138 32.6672 1.93725 -0.143634 -0.976156 0.162751
7.21159 32.8029 2.7222 -0.140876 -0.975471 0.169145
8.34017 32.6487 2.84059 -0.167631 -0.9694 0.17934
8.33495 32.3699 1.25314 -0.182144 -0.968377 0.170499
8.24651 32.1442 -0.125087 -0.204473 -0.967199 0.150721
8.13314 31.9302 -1.55908 -0.227945 -0.959586 0.165035
7.99022 31.7362 -2.92237 -0.220617 -0.965062 0.14136
7.78618 31.6038 -4.17688 -0.227449 -0.96505 0.130173
7.51308 31.4966 -5.48302 -0.222351 -0.96791 0.117094
7.18672 31.4332 -6.75306 -0.24189 -0.965734 0.0940549
6.72519 31.3987 -8.29179 -0.233031 -0.969547 0.0753356
6.32957 31.409 -9.58004 -0.220711 -0.974327 0.0444163
5.9438 31.4517 -10.7989 -0.200577 -0.979299 0.0272485
5.59462 31.5142 -11.9181 -0.191229 -0.981544 -0.0019477
6.43661 31.35 -12.2885 -0.197619 -0.980034 -0.0219013
6.90241 31.2386 -10.9071 -0.22746 -0.973534 0.0221971
7.30535 31.1769 -9.68341 -0.238013 -0.970362 0.0417986
7.74677 31.1475 -8.30769 -0.254785 -0.964314 0.0719886
8.18443 31.1679 -6.87891 -0.250361 -0.962421 0.105192
8.49878 31.2266 -5.67511 -0.246498 -0.961134 0.124335
8.8653 31.3472 -4.01097 -0.266284 -0.956139 0.122028
9.10687 31.511 -2.54363 -0.259202 -0.95392 0.151163
9.25498 31.6966 -1.30577 -0.253113 -0.950468 0.180402
9.38276 31.8876 -0.0910327 -0.223457 -0.958586 0.176578
9.44842 32.1222 1.19913 -0.206308 -0.96017 0.188444
9.48821 32.364 2.47156 -0.208878 -0.95779 0.197507
10.6129 32.0046 2.01464 -0.242803 -0.947011 0.210279
10.5588 31.7323 0.65112 -0.257294 -0.947993 0.187373
10.4321 31.4931 -0.697826 -0.27978 -0.942148 0.184609
10.2308 31.2386 -2.31386 -0.287196 -0.940038 0.183974
9.9626 31.0603 -3.79374 -0.29517 -0.942139 0.158896
9.70119 30.9661 -5.00392 -0.284539 -0.949905 0.129303
9.39254 30.9039 -6.23274 -0.294232 -0.949152 0.111978
9.03101 30.8685 -7.49893 -0.268922 -0.957912 0.10043
8.62265 30.8881 -8.74002 -0.269155 -0.961251 0.0596062
8.12494 30.9514 -10.1993 -0.262208 -0.964647 0.0265261
7.71064 31.0389 -11.3804 -0.230172 -0.973141 -0.00417517
7.47368 31.1179 -12.0643 -0.226345 -0.973406 -0.0353399
8.29155 30.9298 -12.4597 -0.261944 -0.964256 -0.039939
8.82237 30.7498 -11.0225 -0.266259 -0.963741 -0.0175892
9.28652 30.6433 -9.71887 -0.268939 -0.962207 0.0427638
9.75111 30.5781 -8.40972 -0.310529 -0.947925 0.0707753
10.2386 30.5605 -6.90421 -0.310406 -0.946004 0.0934022
10.6116 30.599 -5.57302 -0.314163 -0.941022 0.125614
10.9341 30.6766 -4.28176 -0.324626 -0.935857 0.137079
11.2234 30.8227 -2.84464 -0.328916 -0.92922 0.16842
11.4289 31.0319 -1.42771 -0.328753 -0.924211 0.194306
11.562 31.252 -0.188262 -0.328999 -0.921643 0.205751
11.6746 31.4982 1.0756 -0.302532 -0.926978 0.221781
11.6882 31.534 1.24363 -0.302529 -0.926979 0.221781
12.7169 30.9948 0.48533 -0.346208 -0.913187 0.215011
12.5763 30.7045 -0.993592 -0.355552 -0.913886 0.195947
12.391 30.4867 -2.39124 -0.347242 -0.921182 0.175635
12.1376 30.3407 -3.69294 -0.351971 -0.922791 0.156759
11.8259 30.2559 -4.97361 -0.335063 -0.932397 0.135532
11.4624 30.2119 -6.27116 -0.33941 -0.933696 0.114077
11.0417 30.2234 -7.56928 -0.330513 -0.939691 0.0879906
10.6229 30.2732 -8.79122 -0.327743 -0.943241 0.0536715
10.1384 30.3679 -10.0937 -0.300825 -0.953424 0.0220493
9.67557 30.5014 -11.3331 -0.283184 -0.958896 -0.0180141
9.11707 30.7239 -12.8767 -0.271005 -0.961491 -0.045736
9.10975 30.7268 -12.8972 -0.258811 -0.964042 -0.0603318
9.86401 30.5421 -13.436 -0.286794 -0.955189 -0.0732286
10.3167 30.3301 -12.2658 -0.295395 -0.954411 -0.0429037
10.8334 30.1329 -10.8309 -0.305416 -0.952218 -0.00123921
11.4327 29.9647 -9.3255 -0.338587 -0.939813 0.0459326
11.9341 29.869 -7.94909 -0.352812 -0.933172 0.0686583
12.3636 29.8274 -6.70447 -0.362328 -0.926135 0.104848
12.7313 29.8245 -5.52495 -0.366524 -0.923132 0.116136
13.0949 29.8803 -4.19374 -0.373647 -0.915297 0.150398
13.3802 30.0106 -2.82277 -0.37274 -0.912114 0.170628
13.6325 30.2248 -1.22306 -0.384614 -0.902043 0.195935
13.7059 30.3134 -0.671799 -0.3837 -0.899026 0.211013
14.7049 29.6312 -1.72997 -0.411713 -0.890949 0.191581
14.432 29.4988 -3.02175 -0.420321 -0.891866 0.167048
14.0939 29.405 -4.47881 -0.415938 -0.89772 0.145239
13.7221 29.3958 -5.71932 -0.412806 -0.902712 0.121251
13.2724 29.4198 -7.08132 -0.378678 -0.920097 0.100121
12.8169 29.4978 -8.31758 -0.382687 -0.920506 0.0788627
12.308 29.6289 -9.61373 -0.355407 -0.934346 0.0261333
11.8641 29.7688 -10.7496 -0.35594 -0.934443 0.0110759
11.428 29.9388 -11.9247 -0.327377 -0.944566 -0.024887
10.951 30.1769 -13.1743 -0.333689 -0.940066 -0.0701973
10.7569 30.2842 -13.7027 -0.301249 -0.948062 -0.102119
11.6627 29.9779 -13.7978 -0.331323 -0.937735 -0.104294
12.1206 29.7178 -12.6168 -0.359162 -0.931566 -0.0564498
12.6397 29.4768 -11.2836 -0.376857 -0.926251 -0.00612564
13.0911 29.3021 -10.1167 -0.379396 -0.924763 0.0295203
13.5585 29.1505 -8.97274 -0.403456 -0.91297 0.0608984
14.1216 29.0082 -7.55593 -0.406534 -0.910432 0.0764512
14.6131 28.9249 -6.23802 -0.429544 -0.897159 0.102947
15.0632 28.8884 -4.88557 -0.417513 -0.900915 0.118467
15.4124 28.9024 -3.69996 -0.456503 -0.875226 0.159952
15.6293 28.9611 -2.79261 -0.438832 -0.883979 0.161268
16.5006 28.334 -3.67784 -0.478076 -0.864401 0.155735
16.0894 28.3513 -5.00899 -0.468422 -0.874484 0.125928
15.6741 28.4034 -6.25421 -0.451803 -0.886558 0.0994382
15.1972 28.5259 -7.41507 -0.432084 -0.897534 0.0879581
14.6616 28.6801 -8.72363 -0.416332 -0.90688 0.0650887
14.077 28.8764 -10.1219 -0.396456 -0.917583 0.0293814
13.5469 29.1054 -11.3945 -0.402441 -0.915285 -0.0171403
13.0217 29.3703 -12.7128 -0.386159 -0.920015 -0.0667401
12.5372 29.6737 -13.9506 -0.374321 -0.921734 -0.101435
12.456 29.7305 -14.1767 -0.372097 -0.922995 -0.0980988
13.2569 29.4386 -14.4753 -0.387997 -0.912757 -0.127798
13.8103 29.0613 -13.0145 -0.402978 -0.913245 -0.0599396
14.2884 28.7854 -11.8727 -0.414191 -0.910052 -0.0158354
14.8346 28.5253 -10.6186 -0.420679 -0.907209 0.000350492
15.3807 28.2964 -9.37544 -0.442585 -0.89598 0.0365777
15.9853 28.0793 -7.97912 -0.457382 -0.887394 0.0577376
16.5194 27.9127 -6.7149 -0.476481 -0.874247 0.0930506
17.0507 27.7714 -5.37873 -0.493392 -0.861958 0.116584
17.2438 27.7463 -4.7991 -0.496105 -0.85878 0.127972
17.907 27.2031 -5.96837 -0.51973 -0.847297 0.109398
17.348 27.3868 -7.32095 -0.491817 -0.866398 0.0864363
16.7753 27.6221 -8.54278 -0.48203 -0.874665 0.0510723
16.1773 27.8721 -9.85879 -0.452473 -0.891257 0.0304684
15.6424 28.1209 -11.0368 -0.447145 -0.89446 0.00147986
15.0841 28.4297 -12.3056 -0.437558 -0.898043 -0.0454113
14.446 28.8321 -13.8067 -0.413418 -0.906768 -0.0828121
14.0046 29.1877 -14.9334 -0.395599 -0.905909 -0.151098
14.8547 28.8154 -15.0792 -0.417597 -0.897041 -0.144672
15.3194 28.4385 -13.9731 -0.426057 -0.897607 -0.113038
15.831 28.0884 -12.8241 -0.442651 -0.893901 -0.0707226
16.357 27.7651 -11.6587 -0.46343 -0.88613 -0.00226033
17.0499 27.3946 -10.1975 -0.474749 -0.88009 0.00736407
17.7267 27.0703 -8.82108 -0.498943 -0.865938 0.0347449
18.3269 26.7919 -7.59088 -0.512283 -0.856299 0.0657069
18.7189 26.6235 -6.75843 -0.529479 -0.844246 0.0830748
19.4252 26.1039 -7.62996 -0.542543 -0.837414 0.0662161
18.8853 26.3748 -8.72379 -0.526816 -0.84863 0.0478737
18.3093 26.6842 -9.84777 -0.512412 -0.858174 0.0311632
17.5662 27.1051 -11.305 -0.494983 -0.868898 -0.00299508
17.0203 27.4449 -12.4043 -0.467163 -0.882635 -0.0521052
16.4832 27.8097 -13.516 -0.465164 -0.882887 -0.0642821
15.9363 28.2213 -14.7257 -0.448756 -0.885623 -0.119541
15.5089 28.5952 -15.7283 -0.437539 -0.886057 -0.153177
16.1955 28.3382 -16.2364 -0.459976 -0.870223 -0.176447
16.7734 27.8209 -14.9954 -0.462889 -0.877842 -0.122996
17.4401 27.2974 -13.6387 -0.48908 -0.868926 -0.0759516
18.1624 26.7944 -12.207 -0.48729 -0.871643 -0.0527959
18.8608 26.3469 -10.8937 -0.509084 -0.860678 -0.00818814
19.4425 25.992 -9.83106 -0.52667 -0.849961 0.0135692
20.0311 25.6423 -8.77118 -0.544564 -0.838004 0.0346264
20.8262 25.1041 -9.42832 -0.553563 -0.83269 0.0139749
19.982 25.6615 -10.9404 -0.535226 -0.844529 -0.0174353
19.1502 26.229 -12.3802 -0.505122 -0.860991 -0.0595557
18.5865 26.6319 -13.4484 -0.492705 -0.866113 -0.0842073
18.0221 27.0589 -14.5057 -0.48688 -0.865618 -0.116845
17.4571 27.5308 -15.6137 -0.478927 -0.865332 -0.147745
17.0107 27.9463 -16.4907 -0.480054 -0.860242 -0.17185
17.538 27.8436 -17.4164 -0.488703 -0.851525 -0.189933
18.1296 27.273 -16.3011 -0.487863 -0.858264 -0.159286
18.6935 26.7763 -15.2278 -0.495467 -0.859025 -0.128798
19.3626 26.2357 -13.9997 -0.511404 -0.855106 -0.0852035
20.0156 25.7322 -12.8457 -0.518243 -0.853116 -0.0601413
20.6183 25.2958 -11.794 -0.53932 -0.840929 -0.0444165
21.2127 24.8667 -10.7496 -0.539232 -0.841947 -0.0188093
21.3644 24.7656 -10.4835 -0.539924 -0.84134 -0.02509
22.0581 24.346 -11.4301 -0.553714 -0.830365 -0.0624167
21.2978 24.9215 -12.6458 -0.536041 -0.841946 -0.0615345
20.6664 25.4026 -13.6528 -0.518092 -0.850561 -0.0901492
19.9509 25.9913 -14.9104 -0.509803 -0.85334 -0.10914
19.2219 26.6274 -16.1888 -0.5072 -0.850747 -0.137757
18.5313 27.2788 -17.4507 -0.491349 -0.853494 -0.173561
18.3114 27.4966 -17.8715 -0.494351 -0.846962 -0.195635
18.8618 27.3728 -18.6826 -0.501361 -0.841248 -0.202334
19.4761 26.7527 -17.6077 -0.504504 -0.843131 -0.186024
20.0801 26.183 -16.5903 -0.511621 -0.845663 -0.151983
20.8397 25.5016 -15.3262 -0.519097 -0.843555 -0.137675
21.466 24.9732 -14.2884 -0.531222 -0.840319 -0.10802
22.1811 24.396 -13.1772 -0.541157 -0.83681 -0.083054
22.483 24.1658 -12.7222 -0.557538 -0.826717 -0.0754308
23.2744 23.7105 -13.4493 -0.55039 -0.828835 -0.100513
22.6213 24.2481 -14.4104 -0.539858 -0.835422 -0.103066
21.9555 24.8136 -15.4009 -0.53221 -0.836352 -0.131411
21.315 25.388 -16.4243 -0.526734 -0.837474 -0.145563
20.632 26.0266 -17.5197 -0.515856 -0.837157 -0.181826
19.9766 26.6707 -18.5761 -0.512543 -0.83421 -0.203454
19.5313 27.1294 -19.3152 -0.515262 -0.8313 -0.208434
20.2251 26.8557 -19.8958 -0.525863 -0.822044 -0.218433
20.8901 26.1745 -18.9012 -0.524273 -0.826963 -0.203149
21.5042 25.5682 -17.9408 -0.528231 -0.828883 -0.184187
22.1203 24.982 -16.9987 -0.528328 -0.833703 -0.160652
22.7312 24.4254 -16.0635 -0.5335 -0.834667 -0.136779
23.4688 23.7787 -14.9909 -0.538974 -0.834504 -0.114495
23.7902 23.5022 -14.552 -0.549771 -0.826707 -0.11961
24.3767 23.2461 -15.558 -0.559344 -0.818208 -0.132928
23.6395 23.9209 -16.5717 -0.552171 -0.822043 -0.139116
22.8927 24.6087 -17.6505 -0.536731 -0.827012 -0.167246
22.2792 25.1999 -18.5506 -0.537091 -0.822356 -0.187787
21.6588 25.8164 -19.4429 -0.534709 -0.819726 -0.205269
21.0137 26.4684 -20.3292 -0.524281 -0.822157 -0.22178
20.7253 26.7648 -20.7463 -0.526578 -0.817781 -0.232272
21.3289 26.581 -21.4622 -0.534581 -0.810571 -0.23916
22.2317 25.6606 -20.2998 -0.538335 -0.814644 -0.215755
22.9559 24.9335 -19.3123 -0.553231 -0.809836 -0.195196
23.6486 24.2437 -18.3436 -0.560768 -0.810204 -0.170611
24.3301 23.5884 -17.398 -0.564971 -0.811197 -0.150888
24.9715 22.9944 -16.5531 -0.56588 -0.812612 -0.139434
25.4987 22.8197 -17.6801 -0.574409 -0.804038 -0.153551
24.8344 23.4544 -18.5266 -0.572544 -0.805446 -0.153131
24.0882 24.2024 -19.502 -0.557281 -0.808636 -0.188534
23.4104 24.8901 -20.4064 -0.552852 -0.806767 -0.208523
22.6815 25.636 -21.3182 -0.542708 -0.809085 -0.225497
21.9786 26.3558 -22.1419 -0.548006 -0.80113 -0.240585
21.8589 26.4791 -22.2798 -0.540934 -0.804716 -0.244584
22.477 26.272 -22.9641 -0.54114 -0.801671 -0.253953
23.1816 25.5523 -22.2268 -0.556853 -0.799179 -0.226335
24.0505 24.6596 -21.2199 -0.559101 -0.799536 -0.219425
24.8889 23.7952 -20.1797 -0.573447 -0.797014 -0.189542
25.5387 23.127 -19.3432 -0.581044 -0.794352 -0.177178
26.2069 22.4626 -18.5026 -0.583046 -0.797169 -0.156776
26.8556 22.1678 -19.4335 -0.594273 -0.785906 -0.170858
26.1713 22.8704 -20.2435 -0.591751 -0.783882 -0.188042
25.5106 23.5647 -21.0613 -0.582556 -0.786827 -0.203794
24.7705 24.3395 -21.936 -0.574958 -0.788376 -0.218831
23.9708 25.1663 -22.7992 -0.567938 -0.78806 -0.237503
23.1131 26.0482 -23.6567 -0.558241 -0.789086 -0.256338
22.8286 26.3402 -23.9502 -0.548802 -0.794817 -0.259
23.2683 26.3201 -24.8174 -0.563488 -0.78212 -0.266025
23.9977 25.5627 -24.1381 -0.57291 -0.77857 -0.256128
24.9398 24.5911 -23.2367 -0.576444 -0.781112 -0.239952
25.7709 23.7147 -22.346 -0.581474 -0.784167 -0.216727
26.71 22.72 -21.3013 -0.598529 -0.775269 -0.201795
27.3248 22.0662 -20.5475 -0.59592 -0.78238 -0.180998
27.8842 21.8795 -21.5941 -0.616188 -0.766141 -0.182592
26.9629 22.8656 -22.6013 -0.5987 -0.772504 -0.211652
26.2179 23.664 -23.3743 -0.599386 -0.766638 -0.230223
25.4506 24.4812 -24.1455 -0.589418 -0.772118 -0.237529
24.512 25.461 -24.9832 -0.583339 -0.770417 -0.257244
23.8204 26.179 -25.5889 -0.575678 -0.771302 -0.271455
24.2329 26.1873 -26.4737 -0.58705 -0.763462 -0.269253
25.019 25.3647 -25.8433 -0.589234 -0.765033 -0.259862
25.7965 24.546 -25.1869 -0.596959 -0.763766 -0.245563
26.533 23.7559 -24.5076 -0.601798 -0.765574 -0.227455
27.3253 22.8974 -23.7235 -0.60385 -0.767592 -0.214866
28.1922 21.9514 -22.8425 -0.620231 -0.75671 -0.206649
28.4506 21.6714 -22.5914 -0.623385 -0.756112 -0.199213
29.0051 21.4574 -23.5273 -0.639384 -0.741838 -0.20215
28.2614 22.2892 -24.2614 -0.619035 -0.753229 -0.222355
27.3875 23.2553 -25.1005 -0.608477 -0.759852 -0.228869
26.6512 24.0642 -25.7859 -0.607748 -0.755809 -0.243713
25.876 24.8974 -26.437 -0.595404 -0.761056 -0.257464
25.0308 25.787 -27.0863 -0.599062 -0.755178 -0.266141
24.9513 25.8722 -27.147 -0.598294 -0.754433 -0.269955
25.1583 26.0923 -28.215 -0.602991 -0.747535 -0.278558
26.0296 25.1626 -27.5624 -0.604963 -0.752527 -0.260236
26.9453 24.1815 -26.8566 -0.609716 -0.751582 -0.251736
27.9332 23.0903 -25.9916 -0.619123 -0.749468 -0.234487
28.6404 22.2895 -25.3362 -0.633734 -0.739251 -0.227789
29.4652 21.3406 -24.5458 -0.650574 -0.730292 -0.208392
29.6575 21.1156 -24.3625 -0.653789 -0.726714 -0.210822
30.1717 20.9267 -25.325 -0.662673 -0.717685 -0.213993
29.3661 21.8837 -26.0592 -0.64351 -0.731416 -0.225668
28.5985 22.772 -26.7758 -0.632156 -0.73778 -0.236768
27.7993 23.6778 -27.4623 -0.623865 -0.741158 -0.247944
27.0364 24.5127 -28.0528 -0.612775 -0.745849 -0.261181
26.3637 25.2397 -28.5566 -0.610843 -0.747536 -0.260884
28.6498 23.1565 -28.068 -0.634164 -0.733075 -0.245841
29.3794 22.306 -27.4285 -0.647137 -0.721909 -0.245074
30.08 21.4681 -26.803 -0.657981 -0.716688 -0.231126
30.594 20.8511 -26.3596 -0.667854 -0.710889 -0.220471
31.0064 20.7904 -27.386 -0.673923 -0.702856 -0.22764
30.5047 21.4084 -27.7955 -0.659291 -0.710897 -0.244868
