5.66394 32.0389 -12.3406 -0.176486 -0.984219 -0.00687841
6.83063 31.8229 -12.7578 -0.185878 -0.981876 -0.0332934
8.14203 31.5519 -13.0171 -0.220415 -0.974599 -0.0375512
9.22645 31.2996 -13.2596 -0.256316 -0.963544 -0.0753354
10.5947 30.9234 -13.6022 -0.2978 -0.952236 -0.0675348
11.6325 30.6112 -13.9716 -0.324641 -0.942259 -0.0821926
12.5924 30.3032 -14.3959 -0.35539 -0.930616 -0.0874792
13.636 29.9392 -14.841 -0.373979 -0.919058 -0.124386
14.6186 29.5883 -15.3916 -0.406335 -0.90184 -0.146891
15.5357 29.249 -15.9456 -0.440741 -0.882073 -0.166332
16.6014 28.8471 -16.6869 -0.453051 -0.876669 -0.161853
17.4707 28.5374 -17.4825 -0.471653 -0.860915 -0.190705
18.3678 28.2043 -18.2253 -0.475511 -0.857753 -0.195318
19.2282 27.8874 -18.9726 -0.495363 -0.842661 -0.211038
20.0061 27.6395 -19.8113 -0.502284 -0.835783 -0.221758
20.7717 27.4514 -20.8628 -0.523016 -0.818999 -0.235997
21.4666 27.2605 -21.7398 -0.531862 -0.812565 -0.238452
22.1341 27.1183 -22.7292 -0.54167 -0.802973 -0.248652
22.7426 27.0664 -23.8663 -0.546262 -0.796843 -0.258132
23.3807 26.9196 -24.7524 -0.556797 -0.786384 -0.267536
23.9429 26.8428 -25.6924 -0.572274 -0.770304 -0.281309
24.5219 26.8362 -26.884 -0.581791 -0.764071 -0.278605
24.9976 26.8438 -27.8975 -0.592669 -0.758436 -0.271142
25.7009 26.6894 -28.9859 -0.605958 -0.746403 -0.27512
26.69 25.8408 -28.8695 -0.608814 -0.744879 -0.27295
27.4846 25.1313 -28.6944 -0.61457 -0.744935 -0.259541
28.3984 24.3065 -28.523 -0.62195 -0.739955 -0.256179
29.3309 23.4752 -28.4336 -0.634604 -0.728679 -0.257475
30.3759 22.4744 -28.2199 -0.652543 -0.717747 -0.242957
31.3901 21.4305 -27.9305 -0.668124 -0.700699 -0.250174
31.1389 21.2947 -26.8117 -0.675448 -0.702581 -0.223941
30.4189 21.5439 -25.4616 -0.659545 -0.720464 -0.214209
29.8351 21.7591 -24.3774 -0.646978 -0.735905 -0.199659
29.2963 21.9747 -23.4544 -0.638381 -0.741809 -0.205402
28.6375 22.2376 -22.3732 -0.618564 -0.76051 -0.197491
28.0704 22.4408 -21.3765 -0.608728 -0.769364 -0.193725
27.2956 22.7436 -20.1481 -0.589097 -0.787086 -0.182925
26.7015 22.9479 -19.0793 -0.581965 -0.796201 -0.165473
26.0451 23.1794 -17.8275 -0.578371 -0.801603 -0.151391
25.4917 23.3926 -16.823 -0.566571 -0.812619 -0.136558
24.9337 23.6151 -15.8343 -0.560296 -0.817574 -0.132824
24.3527 23.8614 -14.8663 -0.557094 -0.821336 -0.122691
23.7646 24.1205 -13.8525 -0.554205 -0.826363 -0.0994931
23.2731 24.3482 -12.9109 -0.55666 -0.82659 -0.0826194
22.6576 24.6805 -11.964 -0.558563 -0.82706 -0.0619615
22.1582 24.9562 -10.9471 -0.552043 -0.833431 -0.0253379
21.4125 25.427 -9.86093 -0.550186 -0.83496 -0.0116873
20.696 25.9065 -8.95547 -0.546948 -0.836934 0.0196013
19.9936 26.4105 -7.98259 -0.545865 -0.836726 0.0438192
19.394 26.8527 -7.1674 -0.527018 -0.846539 0.0733517
18.6382 27.4238 -6.17818 -0.520486 -0.84791 0.0989138
18.0691 27.8996 -5.28827 -0.507747 -0.853498 0.115917
17.5484 28.3314 -4.44167 -0.498209 -0.856334 0.135937
16.8362 28.9017 -3.50758 -0.466002 -0.869873 0.161372
16.1717 29.4348 -2.59208 -0.447305 -0.87482 0.185294
15.5114 29.9738 -1.73386 -0.449059 -0.870088 0.203208
14.6535 30.6181 -0.762991 -0.396605 -0.892591 0.213444
13.8933 31.1695 0.133756 -0.364767 -0.902152 0.230364
13.1312 31.6312 0.817548 -0.315095 -0.92223 0.22407
12.2767 32.1251 1.66849 -0.288267 -0.929426 0.23037
11.3432 32.6009 2.52686 -0.235566 -0.942765 0.236015
10.5069 32.9609 3.14408 -0.232603 -0.945279 0.228785
9.12875 33.3571 3.8442 -0.152687 -0.968871 0.194872
7.73099 33.5561 3.90246 -0.11919 -0.975312 0.185798
6.65159 33.6299 3.72399 -0.0911635 -0.982506 0.16239
5.45594 33.6828 3.47581 -0.063309 -0.988223 0.139309
4.37638 33.7226 3.33337 -0.0537483 -0.990176 0.129085
3.25809 33.72 2.97185 -0.0203315 -0.993338 0.113131
2.00037 33.6945 2.69508 0.0121225 -0.993826 0.110134
0.73767 33.6176 2.22817 0.0359332 -0.994022 0.103098
-0.279299 33.5378 1.79185 0.0559969 -0.99494 0.0834223
-1.35273 33.4248 1.28192 0.0885716 -0.99399 0.0643281
-2.25465 33.2936 0.448183 0.0903979 -0.994836 0.0461534
-2.39186 33.1988 -1.04914 0.0869657 -0.994591 0.0564329
-1.97896 33.1754 -2.31167 0.0646411 -0.996935 0.0440767
-1.57837 33.1541 -3.33667 0.0361618 -0.998283 0.0460892
-1.09233 33.1219 -4.34621 0.0103597 -0.997976 0.0627393
-0.441708 33.0451 -5.70374 -0.0201819 -0.997444 0.0685445
-0.0338537 32.9786 -6.73776 -0.0387897 -0.998543 0.0375244
0.478945 32.9047 -7.78368 -0.0534262 -0.997452 0.0468367
1.17919 32.7949 -8.96028 -0.0802637 -0.994815 0.0605157
2.08377 32.6592 -10.0861 -0.101796 -0.993667 0.0457224
3.04925 32.5 -10.9802 -0.135827 -0.990234 0.0314159
4.16804 32.3101 -11.7256 -0.147732 -0.988738 0.0239413
5.19992 32.1257 -12.1448 -0.183268 -0.983062 0.00151264
5.40306 32.0877 -12.2339 -0.183271 -0.983061 0.00151577
5.09729 32.1549 -13.2419 -0.160806 -0.986566 -0.025542
6.16757 31.9948 -13.6393 -0.161911 -0.984334 -0.0646213
7.30344 31.8019 -13.9131 -0.192001 -0.976831 -0.0912273
8.41689 31.5734 -14.1243 -0.240024 -0.965427 -0.101676
9.47391 31.3254 -14.3321 -0.260683 -0.960036 -0.101854
10.5212 31.0607 -14.6741 -0.290527 -0.950653 -0.108755
11.7835 30.6969 -15.1146 -0.343551 -0.932276 -0.113059
12.8697 30.3583 -15.6051 -0.365971 -0.916719 -0.15844
14.0236 29.9843 -16.1526 -0.375409 -0.906947 -0.189619
14.9994 29.6675 -16.7541 -0.418712 -0.885538 -0.201195
16.1484 29.2711 -17.5793 -0.460556 -0.866713 -0.191566
16.9565 29.0245 -18.3245 -0.474205 -0.851577 -0.223367
17.8227 28.7359 -19.0579 -0.492389 -0.841973 -0.220532
18.8355 28.3594 -19.8736 -0.497983 -0.835263 -0.233122
19.7666 28.1191 -21.0072 -0.505631 -0.829601 -0.236853
20.5186 27.9423 -21.9768 -0.522334 -0.814604 -0.252164
21.2743 27.7379 -22.8935 -0.532962 -0.808421 -0.249809
21.7938 27.715 -23.8896 -0.538235 -0.799858 -0.265458
22.5687 27.5838 -25.0248 -0.54141 -0.789521 -0.288908
23.2592 27.4521 -26.0014 -0.55486 -0.780633 -0.28762
23.6881 27.5248 -27.0263 -0.566371 -0.768596 -0.297461
24.2673 27.526 -28.1627 -0.591448 -0.750176 -0.295381
24.771 27.499 -29.1403 -0.602973 -0.743476 -0.28925
25.2251 27.5101 -30.1198 -0.617137 -0.73267 -0.286917
26.2084 26.6657 -30.0355 -0.610054 -0.74203 -0.277896
27.3718 25.6091 -29.7741 -0.612008 -0.744185 -0.267646
28.3666 24.6982 -29.5567 -0.623386 -0.734543 -0.267996
29.1829 23.9556 -29.4282 -0.634603 -0.728679 -0.257478
30.0974 23.1449 -29.3998 -0.642084 -0.719948 -0.263422
30.9633 22.2471 -29.0947 -0.661775 -0.706431 -0.251016
32.0728 21.1548 -29.0024 -0.669762 -0.692719 -0.267475
32.5962 20.4184 -28.4219 -0.68796 -0.683052 -0.245257
32.2117 20.4461 -27.4127 -0.683165 -0.689904 -0.239412
31.5925 20.6403 -26.1227 -0.679477 -0.701811 -0.213945
31.0705 20.8489 -25.1555 -0.670619 -0.712701 -0.205734
30.5634 21.0489 -24.1929 -0.664499 -0.72041 -0.198623
30.0096 21.2769 -23.1703 -0.651891 -0.73364 -0.19186
29.4075 21.5371 -22.1356 -0.640312 -0.746066 -0.182526
28.7369 21.7859 -20.8449 -0.622904 -0.761949 -0.177269
28.1314 22.0437 -19.8603 -0.599783 -0.783152 -0.164114
27.5092 22.2857 -18.7613 -0.58638 -0.793165 -0.164461
26.9089 22.5233 -17.6811 -0.58551 -0.796637 -0.15016
26.3466 22.742 -16.5575 -0.57652 -0.806868 -0.128649
25.7506 22.9974 -15.506 -0.567268 -0.813289 -0.129433
25.2187 23.2274 -14.5873 -0.56545 -0.816682 -0.115134
24.5513 23.5389 -13.4187 -0.564086 -0.820102 -0.0960819
23.9793 23.8128 -12.2416 -0.566467 -0.821247 -0.0683276
23.4038 24.136 -11.2624 -0.560194 -0.827079 -0.0457202
22.9141 24.4254 -10.134 -0.559386 -0.828545 -0.0231524
22.2669 24.8567 -9.55156 -0.556125 -0.831089 -0.00403566
21.656 25.2756 -8.59743 -0.558036 -0.829507 0.0225923
20.936 25.8039 -7.63898 -0.558006 -0.82891 0.0392023
20.133 26.4382 -6.47335 -0.557882 -0.825922 0.0813658
19.3861 27.0361 -5.55271 -0.548063 -0.827628 0.121076
18.7101 27.6302 -4.4447 -0.521708 -0.842982 0.130834
18.1757 28.1069 -3.6165 -0.511065 -0.845872 0.152684
17.393 28.7657 -2.63161 -0.482232 -0.858726 0.172995
16.6787 29.3957 -1.59039 -0.46426 -0.863688 0.19623
16.0446 29.9235 -0.833212 -0.44469 -0.866238 0.227682
15.135 30.6392 0.160284 -0.412169 -0.879728 0.237055
14.52 31.143 0.967648 -0.360806 -0.897085 0.255063
13.6981 31.6386 1.62517 -0.325016 -0.913569 0.244293
13.0488 32.0665 2.37842 -0.306217 -0.916178 0.258047
12.2117 32.5228 3.12066 -0.243466 -0.933855 0.261992
11.0729 33.0484 3.99912 -0.206512 -0.94557 0.251126
10.2003 33.3541 4.56243 -0.147086 -0.959799 0.239065
8.93125 33.6235 4.93981 -0.125677 -0.971379 0.200882
7.75609 33.7494 4.97212 -0.084124 -0.981318 0.173024
6.40601 33.8178 4.75227 -0.0598379 -0.985035 0.161633
5.23966 33.8427 4.49698 -0.0382599 -0.987844 0.150641
3.8638 33.8556 4.22481 -0.0264833 -0.990398 0.135683
2.76266 33.8318 3.86271 -0.0110896 -0.99202 0.12559
1.56248 33.7866 3.59502 0.0152037 -0.99348 0.112987
0.126905 33.686 3.11489 0.0371382 -0.994277 0.100171
-0.846877 33.5726 2.63458 0.0687676 -0.993221 0.0933975
-2.05825 33.4237 2.18103 0.102843 -0.991172 0.0835458
-2.932 33.2757 1.38617 0.103735 -0.99228 0.0679496
-3.50769 33.1386 0.187439 0.132109 -0.990199 0.0449024
-3.47752 33.0881 -1.11969 0.115098 -0.992726 0.035314
-3.12131 33.0873 -2.2851 0.0890916 -0.995515 0.0318088
-2.59934 33.0906 -3.44489 0.0604968 -0.997688 0.0309598
-2.1544 33.0878 -4.48087 0.0253187 -0.999098 0.0340938
-1.54601 33.0541 -5.64581 0.0114257 -0.998996 0.0433193
-1.2394 33.0094 -6.70603 -0.00976694 -0.999551 0.0283396
-0.654687 32.9621 -7.81854 -0.0289334 -0.99884 0.0371975
-0.0940313 32.884 -8.93195 -0.0712158 -0.996393 0.0455487
0.640724 32.7908 -9.93356 -0.0745585 -0.996415 0.0399665
1.47185 32.6874 -10.9647 -0.0983691 -0.994803 0.0262917
2.4177 32.5568 -11.7985 -0.123006 -0.992137 0.0205075
3.3341 32.4204 -12.4837 -0.133005 -0.991019 0.0102759
4.58383 32.2328 -13.0073 -0.166759 -0.985962 -0.00835548
4.83686 32.191 -13.1198 -0.157325 -0.987344 -0.0158951
4.24958 32.3025 -14.0539 -0.140853 -0.989407 -0.0343679
5.40194 32.1482 -14.4797 -0.145793 -0.98856 -0.0386509
6.45445 32.0404 -14.8033 -0.126988 -0.97468 -0.177502
7.80029 31.8059 -15 -0.222809 -0.9642 -0.143789
8.83072 31.6019 -15.3189 -0.236671 -0.964851 -0.114234
9.87588 31.3545 -15.4897 -0.289206 -0.949964 -0.118019
10.8419 31.1418 -15.9717 -0.272152 -0.94443 -0.183566
12.0542 30.8186 -16.3669 -0.346092 -0.920836 -0.179627
13.2946 30.4531 -16.8975 -0.376182 -0.896936 -0.232363
14.4516 30.1088 -17.53 -0.416732 -0.877823 -0.235826
15.4634 29.7955 -18.214 -0.435464 -0.867536 -0.239308
16.4022 29.5044 -18.973 -0.46578 -0.852281 -0.238047
17.3743 29.2065 -19.8046 -0.484882 -0.838795 -0.247142
18.1511 28.9552 -20.5484 -0.493576 -0.837331 -0.235073
18.9913 28.7078 -21.4225 -0.494941 -0.830106 -0.256473
19.6843 28.5955 -22.3932 -0.510275 -0.818693 -0.263365
20.4555 28.4009 -23.3032 -0.525079 -0.809994 -0.261156
21.1033 28.3678 -24.4438 -0.525411 -0.802778 -0.281916
21.754 28.2752 -25.37 -0.536803 -0.788822 -0.299143
22.4549 28.13 -26.2847 -0.555389 -0.777573 -0.294828
22.9468 28.236 -27.4197 -0.5723 -0.758245 -0.31231
23.489 28.1983 -28.3512 -0.580365 -0.751641 -0.313136
24.0815 28.1642 -29.402 -0.601958 -0.741309 -0.296829
24.2969 28.4434 -30.4578 -0.62902 -0.714323 -0.306523
25.2958 27.8995 -31.2632 -0.625794 -0.728387 -0.278988
26.122 27.1133 -31.0412 -0.6196 -0.735233 -0.274825
27.3749 25.9892 -30.815 -0.61364 -0.739664 -0.276301
28.3793 25.083 -30.6466 -0.620303 -0.73483 -0.274316
29.2667 24.2533 -30.4421 -0.632922 -0.725296 -0.270815
30.1322 23.4762 -30.3889 -0.63554 -0.721302 -0.275342
30.9137 22.705 -30.1985 -0.646401 -0.714636 -0.267322
31.7267 21.8881 -30.032 -0.663984 -0.695877 -0.273571
32.6407 20.9775 -29.9797 -0.668662 -0.690129 -0.276757
33.4281 20.1129 -29.7952 -0.687167 -0.670402 -0.279934
33.6205 19.4978 -28.7751 -0.69579 -0.670713 -0.256582
33.153 19.6185 -27.7617 -0.692128 -0.681478 -0.237794
32.7017 19.7303 -26.7291 -0.694759 -0.683431 -0.224094
32.2045 19.9292 -25.7734 -0.695795 -0.68854 -0.203793
31.6169 20.192 -24.6841 -0.683786 -0.702262 -0.198063
31.1407 20.381 -23.7193 -0.677329 -0.711256 -0.187779
30.5578 20.6527 -22.6111 -0.662065 -0.731118 -0.163577
30.0199 20.8985 -21.6493 -0.640806 -0.747727 -0.173987
29.4697 21.1316 -20.5552 -0.620865 -0.767205 -0.161006
28.9053 21.3711 -19.5302 -0.612482 -0.774493 -0.158137
28.2783 21.639 -18.4163 -0.596091 -0.788252 -0.152756
27.7117 21.8914 -17.4369 -0.602372 -0.789929 -0.112559
27.2304 22.1034 -16.4651 -0.57809 -0.808679 -0.107765
26.7168 22.3148 -15.5047 -0.575037 -0.807328 -0.132077
26.1667 22.5314 -14.3418 -0.571339 -0.812992 -0.112323
25.429 22.9037 -13.233 -0.57827 -0.808934 -0.105969
24.9836 23.1075 -12.2541 -0.582153 -0.808971 -0.0816132
24.3967 23.4419 -11.2837 -0.591734 -0.804244 -0.0543158
23.8157 23.8083 -10.0529 -0.573788 -0.818907 -0.0125746
23.2663 24.1712 -9.15839 -0.563079 -0.826323 -0.0115162
22.7738 24.5168 -8.23316 -0.566463 -0.823996 0.0122857
22.0011 25.0831 -7.39899 -0.578639 -0.814765 0.0365402
21.3837 25.5714 -6.61222 -0.570747 -0.818845 0.061152
20.578 26.234 -5.52714 -0.57606 -0.810811 0.102912
19.9322 26.8347 -4.52275 -0.557013 -0.816832 0.14739
19.2713 27.4278 -3.58 -0.536105 -0.829763 0.155171
18.785 27.9193 -2.67503 -0.542324 -0.821874 0.174376
18.1268 28.4816 -2.00415 -0.497828 -0.842873 0.204282
17.4746 29.1269 -0.936435 -0.482059 -0.847893 0.220671
16.7713 29.7102 -0.178307 -0.466107 -0.848184 0.250203
16.0675 30.3457 0.656834 -0.436882 -0.860287 0.262756
15.4958 30.8625 1.43044 -0.373981 -0.878374 0.297653
14.6714 31.4462 2.22528 -0.362639 -0.894404 0.261792
13.9646 31.914 2.97686 -0.326986 -0.909552 0.256505
13.1708 32.3877 3.61447 -0.276548 -0.914074 0.29663
12.263 32.9071 4.48183 -0.223544 -0.930379 0.290555
11.2963 33.2861 5.02334 -0.202679 -0.941666 0.268376
10.3058 33.6286 5.70346 -0.132231 -0.958046 0.253506
9.16522 33.8267 5.99992 -0.098831 -0.969824 0.222875
7.97836 33.9325 6.01395 -0.0771512 -0.978713 0.190133
6.61061 33.9936 5.86796 -0.0587295 -0.981931 0.179897
5.54816 34.0082 5.6609 -0.042409 -0.986616 0.157452
4.45357 34.0028 5.38768 -0.0279154 -0.989464 0.142051
3.35433 33.9902 5.14339 -0.0159117 -0.98973 0.142034
2.13318 33.9384 4.78535 0.0181578 -0.99133 0.130134
0.903075 33.8628 4.44253 0.0411555 -0.991725 0.120761
-0.146489 33.7743 4.11129 0.0635069 -0.991281 0.115454
-1.18493 33.6545 3.70165 0.0768043 -0.992182 0.0983667
-2.28241 33.4989 3.266 0.118812 -0.986756 0.10997
-3.43959 33.2939 2.46845 0.113628 -0.99053 0.0769186
-4.10529 33.1405 1.61943 0.147266 -0.986854 0.0665793
-4.57043 33.0126 0.600807 0.14703 -0.988485 0.0357594
-4.58203 32.9632 -0.699924 0.129356 -0.991117 0.0301166
-4.29552 32.9694 -2.049 0.115236 -0.993095 0.0219927
-3.88925 32.9969 -3.1574 0.0970396 -0.995197 0.0128972
-3.3504 33.0268 -4.24603 0.0658956 -0.997669 0.0177126
-2.90251 33.0337 -5.38291 0.0470345 -0.998763 0.0161443
-2.43571 33.0158 -6.36782 0.0207033 -0.999277 0.0318859
-2.00569 32.9958 -7.46173 -0.0108844 -0.999547 0.0280546
-1.38515 32.9629 -8.60655 -0.0307339 -0.999455 0.00766028
-0.919601 32.9038 -9.6257 -0.0568851 -0.997631 0.0386948
-0.238921 32.825 -10.6294 -0.0587738 -0.997624 0.0359314
0.726758 32.7332 -11.6482 -0.0732331 -0.997124 0.0127025
1.56943 32.6388 -12.441 -0.113955 -0.993243 0.0219452
2.4592 32.5349 -13.0681 -0.114266 -0.993248 -0.00732158
3.53306 32.398 -13.6584 -0.140339 -0.990061 -0.0091777
4.14039 32.3162 -13.9991 -0.132555 -0.990009 -0.0453479
-1.62629 33.3386 0.276597 0.0696791 -0.996095 0.0542235
-1.77374 33.2535 -1.00069 0.0683383 -0.995821 0.0605832
-0.995346 33.2025 -2.74614 0.0406075 -0.997514 0.057587
-0.785325 33.2979 -1.34871 0.0362097 -0.997596 0.0590889
-0.606176 33.381 -0.113474 0.0417656 -0.997146 0.0628908
-0.452575 33.4702 1.11003 0.0492533 -0.995852 0.076504
0.695497 33.5659 1.62383 0.0249678 -0.996553 0.0791147
0.547902 33.463 0.376729 0.0152451 -0.995909 0.0890633
0.34443 33.3596 -0.928408 0.0188961 -0.99794 0.0613071
0.139548 33.2702 -2.17949 0.00510434 -0.997187 0.0747851
-0.11611 33.1864 -3.39742 0.00716997 -0.998288 0.058051
-0.385657 33.1183 -4.51956 0.00830367 -0.998087 0.0612603
0.215961 33.0138 -5.91064 -0.045628 -0.997285 0.0578013
0.601884 33.0975 -4.63371 -0.0339468 -0.996607 0.0749851
0.907583 33.1788 -3.42943 -0.0156569 -0.997109 0.0743578
1.23727 33.2867 -1.90459 -0.0274258 -0.995967 0.0854262
1.48641 33.3911 -0.484347 -0.0263711 -0.996273 0.0821208
1.71061 33.5235 1.01833 -0.0122275 -0.995672 0.0921242
1.83681 33.607 1.87233 0.000246205 -0.99427 0.106895
3.00222 33.6283 2.13717 -0.0271279 -0.992835 0.116377
2.81747 33.4981 0.890393 -0.00631666 -0.994867 0.100998
2.57121 33.3654 -0.446942 -0.0449038 -0.992845 0.110643
2.28896 33.2482 -1.88753 -0.0515404 -0.99475 0.0884043
2.00584 33.1533 -3.14663 -0.0584207 -0.995064 0.0802104
1.70057 33.0674 -4.32171 -0.0537455 -0.994335 0.0916983
1.27174 32.9792 -5.75878 -0.042176 -0.996916 0.0661813
0.877384 32.9263 -6.98873 -0.0510964 -0.99725 0.0536806
0.867091 32.9252 -7.01957 -0.0515489 -0.997265 0.0529736
1.56884 32.8204 -8.00181 -0.0649545 -0.996013 0.0611424
2.02114 32.8733 -6.62071 -0.0779918 -0.994735 0.0664776
2.40416 32.9308 -5.41194 -0.0664324 -0.994272 0.0837267
2.75098 33.0011 -4.23742 -0.0677296 -0.994889 0.0748914
3.13298 33.1054 -2.7861 -0.0858947 -0.990515 0.10725
3.40157 33.2067 -1.61831 -0.0571058 -0.992969 0.103692
3.67033 33.3266 -0.357563 -0.043927 -0.993069 0.109014
3.93611 33.474 1.0844 -0.0537613 -0.992329 0.111328
4.19159 33.6319 2.52923 -0.0563269 -0.991168 0.120056
4.20727 33.642 2.61923 -0.0570132 -0.990963 0.121417
5.40936 33.6035 2.88997 -0.0627015 -0.988481 0.137745
5.16017 33.449 1.61124 -0.0796887 -0.988544 0.128183
4.88117 33.2938 0.204414 -0.0815766 -0.989634 0.118196
4.61944 33.177 -0.984592 -0.10952 -0.987336 0.114771
4.27077 33.0485 -2.38424 -0.0973979 -0.988273 0.117604
3.9111 32.9393 -3.73608 -0.106417 -0.989235 0.10045
3.53556 32.8499 -5.05047 -0.103869 -0.990799 0.0867679
3.11139 32.7807 -6.39352 -0.10668 -0.991376 0.0761071
2.6423 32.723 -7.82161 -0.103324 -0.992176 0.0700765
2.20405 32.6927 -9.03713 -0.0916422 -0.994286 0.0547486
2.88635 32.5688 -9.94798 -0.127876 -0.990657 0.0474008
3.32575 32.5736 -8.7604 -0.125666 -0.990333 0.0587233
3.81296 32.6097 -7.39595 -0.144682 -0.986503 0.0766691
4.20838 32.6549 -6.20368 -0.142942 -0.985413 0.0923473
4.59501 32.7198 -4.97235 -0.132943 -0.984945 0.110501
4.94658 32.8087 -3.76518 -0.153123 -0.981756 0.112727
5.27619 32.9138 -2.57383 -0.123392 -0.986139 0.110923
5.61333 33.0223 -1.30765 -0.134474 -0.98252 0.12873
5.97271 33.1789 0.11719 -0.135546 -0.980941 0.139218
6.32197 33.3388 1.6194 -0.100948 -0.986138 0.131688
6.6251 33.5141 2.99709 -0.0925472 -0.984126 0.151431
6.6612 33.5351 3.15592 -0.0918578 -0.983331 0.156916
7.81137 33.399 3.11824 -0.124616 -0.97526 0.18259
7.52453 33.2331 1.89503 -0.13892 -0.975042 0.173191
7.18603 33.0723 0.606904 -0.150491 -0.977395 0.148494
6.88703 32.9502 -0.546152 -0.155492 -0.977919 0.139629
6.49301 32.8018 -2.00502 -0.165805 -0.975924 0.141709
6.12899 32.6828 -3.30328 -0.168524 -0.976589 0.13369
5.77781 32.589 -4.49935 -0.175212 -0.977825 0.114717
5.38074 32.5159 -5.74823 -0.165005 -0.979966 0.11153
4.95326 32.452 -7.05607 -0.161175 -0.983057 0.0872993
4.54226 32.4268 -8.23334 -0.173112 -0.981583 0.0807914
4.06681 32.4239 -9.50916 -0.151394 -0.98672 0.0588529
3.67068 32.4271 -10.5904 -0.136765 -0.98965 0.0434624
4.48153 32.2769 -11.1393 -0.170682 -0.984899 0.0290172
4.98164 32.2466 -9.79325 -0.178052 -0.982762 0.0497729
5.41297 32.2352 -8.6156 -0.181114 -0.980861 0.071474
5.87064 32.249 -7.36337 -0.193565 -0.976644 0.093275
6.32818 32.3066 -6.02894 -0.197133 -0.973739 0.113893
6.69829 32.3766 -4.87693 -0.212933 -0.968314 0.13049
7.07957 32.4523 -3.65188 -0.207826 -0.970264 0.124078
7.45949 32.5729 -2.36307 -0.19042 -0.969689 0.15311
7.79327 32.6911 -1.21175 -0.183336 -0.971443 0.150618
8.20539 32.8478 0.26041 -0.193666 -0.966525 0.168295
8.53904 32.9936 1.4754 -0.176032 -0.969883 0.168343
8.86648 33.1755 2.78461 -0.16975 -0.965327 0.198315
8.9911 33.2668 3.28767 -0.152686 -0.968871 0.194872
9.96756 32.9514 2.6359 -0.169747 -0.965329 0.19831
9.68053 32.7893 1.4934 -0.193162 -0.964259 0.181363
9.31865 32.6194 0.277725 -0.222147 -0.955972 0.191753
8.91121 32.4598 -1.10625 -0.225256 -0.959531 0.168997
8.54308 32.3372 -2.32424 -0.237977 -0.958179 0.158936
8.1769 32.2283 -3.52297 -0.227475 -0.961777 0.15245
7.78979 32.1514 -4.7412 -0.237242 -0.962331 0.1328
7.41351 32.0837 -5.90515 -0.212244 -0.970407 0.115162
6.98317 32.0337 -7.1212 -0.214118 -0.971735 0.0994197
6.53698 32.027 -8.32516 -0.200021 -0.977322 0.0695216
6.10841 32.0418 -9.49412 -0.208176 -0.976779 0.0506492
5.57408 32.0797 -10.9317 -0.194267 -0.980445 0.0314419
5.30524 32.1106 -11.6439 -0.180516 -0.983501 0.0118485
6.26169 31.9241 -11.7769 -0.195243 -0.980751 0.00288521
6.76209 31.848 -10.4456 -0.213212 -0.976669 0.0256793
7.19794 31.8061 -9.2864 -0.232977 -0.970567 0.0609959
7.69499 31.7916 -7.97117 -0.238958 -0.966611 0.0925344
8.14963 31.8019 -6.74526 -0.245004 -0.962956 0.112646
8.6591 31.8579 -5.28031 -0.251114 -0.959674 0.12636
9.06417 31.9192 -4.07153 -0.259569 -0.954099 0.149393
9.48026 32.0256 -2.77185 -0.243131 -0.9557 0.165905
9.83814 32.1292 -1.63904 -0.253918 -0.952308 0.169221
10.2048 32.2548 -0.484883 -0.265551 -0.94462 0.192812
10.5814 32.413 0.803039 -0.259119 -0.944523 0.201824
10.8993 32.5791 1.92121 -0.247478 -0.947957 0.200331
11.857 32.1722 1.32837 -0.2903 -0.929187 0.228775
11.5078 32.0148 0.176131 -0.2853 -0.936657 0.203169
11.1127 31.8755 -1.05665 -0.27884 -0.940584 0.193781
10.7157 31.7551 -2.29018 -0.277317 -0.943492 0.181431
10.3165 31.6575 -3.50653 -0.284219 -0.945077 0.1614
9.87791 31.5885 -4.80028 -0.285391 -0.948412 0.138081
9.46429 31.5431 -5.98539 -0.262489 -0.956826 0.12483
8.92516 31.5158 -7.45683 -0.267385 -0.958546 0.0984574
8.41808 31.5397 -8.77567 -0.251957 -0.965405 0.0671622
7.93653 31.5933 -9.99274 -0.230891 -0.971818 0.0475274
7.38967 31.6801 -11.397 -0.222797 -0.974853 0.00491508
7.07484 31.7684 -12.1872 -0.207172 -0.978241 -0.0111286
7.99101 31.5669 -12.3384 -0.214711 -0.976326 -0.026199
8.6043 31.3977 -10.8341 -0.248321 -0.968406 0.0229534
9.15718 31.2905 -9.47745 -0.269434 -0.961325 0.0570859
9.63828 31.2435 -8.27692 -0.265423 -0.960731 0.0809074
10.0741 31.2166 -7.16388 -0.295856 -0.949418 0.105241
10.5088 31.2274 -5.98755 -0.302351 -0.944855 0.125829
10.9585 31.2642 -4.73857 -0.308646 -0.939408 0.149162
11.3717 31.3249 -3.55258 -0.292561 -0.942306 0.162688
11.7789 31.4048 -2.34903 -0.332451 -0.926269 0.177487
12.2696 31.5426 -0.869126 -0.319213 -0.926514 0.199183
12.6507 31.6663 0.28477 -0.315568 -0.924492 0.213848
13.4936 31.154 -0.545076 -0.343491 -0.912045 0.224029
13.0742 31.036 -1.80608 -0.35892 -0.910884 0.203635
12.663 30.9719 -2.933 -0.36392 -0.913354 0.182613
12.2534 30.9209 -4.05357 -0.353229 -0.921511 0.161392
11.8486 30.8876 -5.18316 -0.332339 -0.931518 0.147732
11.2998 30.8823 -6.64898 -0.322567 -0.939523 0.115099
10.7238 30.9077 -8.14053 -0.317212 -0.943122 0.0994879
10.223 30.9852 -9.35638 -0.292757 -0.954325 0.0596332
9.6905 31.1047 -10.6437 -0.277678 -0.960579 0.0135451
9.21529 31.2295 -11.7943 -0.268245 -0.963027 -0.0249641
8.92586 31.336 -12.4945 -0.246021 -0.968704 -0.0329511
9.85896 31.0818 -12.6448 -0.263811 -0.962373 -0.0651232
10.4855 30.8544 -11.1183 -0.283174 -0.959064 -0.00290147
11.0492 30.6923 -9.81505 -0.320438 -0.946504 0.0380655
11.5166 30.5996 -8.71786 -0.321897 -0.943899 0.0737416
12.169 30.5169 -7.09041 -0.332619 -0.936902 0.107608
12.7253 30.4881 -5.63325 -0.361582 -0.923006 0.131602
13.182 30.4938 -4.41318 -0.376872 -0.914366 0.147993
13.7111 30.5334 -2.98113 -0.400883 -0.898719 0.177756
14.1736 30.5984 -1.72794 -0.383336 -0.903141 0.193365
14.2157 30.6092 -1.60135 -0.381171 -0.901299 0.205839
15.0619 30.0698 -2.27313 -0.416802 -0.88572 0.204392
14.624 30.0363 -3.43787 -0.408658 -0.894672 0.180447
14.1381 30.0344 -4.69301 -0.407623 -0.901045 0.148197
13.6205 30.0557 -6.05398 -0.38647 -0.913588 0.12648
13.1587 30.1053 -7.22832 -0.386391 -0.917183 0.0973575
12.6447 30.1993 -8.45576 -0.366121 -0.927865 0.0708623
12.172 30.3109 -9.56169 -0.346416 -0.937389 0.0360344
11.6829 30.4613 -10.6759 -0.317141 -0.948262 0.0148566
11.1263 30.6596 -11.9838 -0.309355 -0.950473 -0.0300176
10.697 30.8487 -12.9998 -0.2978 -0.952236 -0.0675348
11.5565 30.5824 -13.2911 -0.340405 -0.938452 -0.0585844
12.1088 30.3075 -12.0306 -0.352462 -0.935295 -0.031519
12.7157 30.0699 -10.6214 -0.350245 -0.936646 0.0047538
13.2292 29.9021 -9.46806 -0.364332 -0.930091 0.0468333
13.8396 29.7382 -8.08275 -0.387251 -0.918134 0.0840636
14.3512 29.633 -6.87538 -0.413992 -0.904174 0.105259
14.8535 29.5577 -5.64568 -0.413565 -0.901902 0.124649
15.3347 29.5169 -4.42024 -0.42945 -0.889015 0.158826
15.8586 29.5026 -3.06757 -0.447222 -0.878292 0.169101
16.4817 28.9519 -4.25059 -0.475716 -0.866996 0.148366
15.9834 29.0222 -5.5224 -0.457011 -0.880738 0.124268
15.5233 29.1079 -6.61455 -0.435978 -0.893752 0.105504
15.0499 29.2228 -7.70756 -0.439471 -0.895009 0.0763151
14.3786 29.4165 -9.21334 -0.401685 -0.914469 0.048955
13.8882 29.5918 -10.2892 -0.397715 -0.917361 0.0164571
13.2587 29.8635 -11.6879 -0.366732 -0.930003 -0.0245384
12.7196 30.1238 -12.8718 -0.347778 -0.935099 -0.068125
12.4737 30.2549 -13.4102 -0.354277 -0.930901 -0.0889488
13.1592 30.0478 -14.0511 -0.387844 -0.917706 -0.0859838
13.6597 29.7446 -12.9651 -0.389743 -0.918823 -0.0621649
14.268 29.4264 -11.6606 -0.407845 -0.912813 -0.0208249
14.9636 29.1097 -10.1834 -0.418535 -0.908193 0.00382243
15.5353 28.8941 -8.96004 -0.436737 -0.898033 0.0528839
16.084 28.7137 -7.75747 -0.442988 -0.892263 0.0873354
16.6528 28.5531 -6.44315 -0.484112 -0.868625 0.10548
17.2818 28.4073 -4.93683 -0.497526 -0.856606 0.136726
17.8245 27.9148 -6.22767 -0.491801 -0.862938 0.116058
17.2956 28.0913 -7.44933 -0.483976 -0.871738 0.0764223
16.7421 28.2996 -8.63182 -0.480007 -0.875381 0.0574556
16.1622 28.532 -9.85324 -0.457709 -0.887856 0.0470536
15.5406 28.8263 -11.133 -0.44026 -0.89776 0.0140818
14.8923 29.1682 -12.476 -0.416199 -0.907894 -0.05006
14.3368 29.504 -13.6399 -0.407612 -0.90921 -0.0847898
14.0395 29.697 -14.2672 -0.401348 -0.908204 -0.118685
14.8175 29.3968 -14.7013 -0.412075 -0.903982 -0.11406
15.3581 29.0261 -13.6056 -0.430323 -0.899403 -0.076785
15.8686 28.7066 -12.5733 -0.441885 -0.895541 -0.0523775
16.4276 28.3854 -11.4454 -0.457847 -0.888907 -0.014866
17.0393 28.0723 -10.2243 -0.484894 -0.874445 0.014926
17.617 27.7984 -9.05775 -0.487289 -0.872521 0.0354467
18.1601 27.5583 -7.93104 -0.508456 -0.858371 0.0683519
18.4902 27.4058 -7.2771 -0.52708 -0.846643 0.073357
19.2744 26.8663 -8.009 -0.532865 -0.844304 0.0566235
18.735 27.1405 -9.05365 -0.525343 -0.850103 0.0365994
18.1913 27.4318 -10.0975 -0.493639 -0.869598 0.0109617
17.5486 27.7863 -11.3259 -0.483427 -0.875342 -0.00864756
16.8383 28.2185 -12.7004 -0.45599 -0.888915 -0.0436169
16.2884 28.5793 -13.7977 -0.448108 -0.890707 -0.0764183
15.6632 29.0428 -15.0326 -0.432024 -0.891419 -0.136849
15.5257 29.1509 -15.3027 -0.432024 -0.891419 -0.136849
16.438 28.7141 -15.4378 -0.448594 -0.884346 -0.129215
17.0511 28.243 -14.3043 -0.460413 -0.880707 -0.111244
17.61 27.8393 -13.239 -0.490073 -0.869472 -0.062023
18.2677 27.4015 -12.0021 -0.490481 -0.871048 -0.0265451
18.8972 27.01 -10.8354 -0.510119 -0.860075 -0.00707397
19.5497 26.6234 -9.65352 -0.528727 -0.848346 0.0275221
19.9239 26.4133 -8.94044 -0.538566 -0.842234 0.0242729
20.6694 25.9085 -9.76398 -0.543209 -0.839551 -0.00883619
20.0299 26.3231 -10.8658 -0.525667 -0.850566 -0.0145219
19.3625 26.7608 -12.0229 -0.50845 -0.860193 -0.0393193
18.7342 27.1974 -13.1518 -0.494389 -0.867861 -0.0489604
18.1039 27.6567 -14.2837 -0.482984 -0.871 -0.089925
17.3761 28.2316 -15.5961 -0.476591 -0.869259 -0.131336
17.094 28.4699 -16.0916 -0.475135 -0.864819 -0.162281
17.6796 28.3008 -16.8827 -0.486717 -0.857174 -0.168402
18.3019 27.7596 -15.8194 -0.479428 -0.866113 -0.141409
18.9181 27.2562 -14.7452 -0.488413 -0.865238 -0.113209
19.5312 26.7872 -13.679 -0.505582 -0.859016 -0.08049
20.1404 26.3367 -12.6171 -0.518694 -0.853138 -0.055775
20.9919 25.7262 -11.1716 -0.538363 -0.842261 -0.0275991
21.3423 25.4837 -10.6088 -0.550885 -0.834378 -0.0184228
21.9054 25.1488 -11.5858 -0.544904 -0.837046 -0.0493243
21.2028 25.6831 -12.7661 -0.53371 -0.843759 -0.0567758
20.4457 26.2696 -14.0268 -0.520299 -0.850421 -0.0779267
19.852 26.7479 -15.0255 -0.514033 -0.850151 -0.114075
19.1926 27.3066 -16.1241 -0.493043 -0.858931 -0.138368
18.6255 27.8061 -17.0973 -0.486829 -0.85768 -0.165475
18.3065 28.1046 -17.6381 -0.475511 -0.857753 -0.195318
19.0323 27.8111 -18.1643 -0.49629 -0.845633 -0.196472
19.6327 27.2439 -17.1835 -0.513064 -0.841457 -0.169453
20.3385 26.6127 -16.0562 -0.510445 -0.848192 -0.141481
20.948 26.0876 -15.0696 -0.527103 -0.843477 -0.103486
21.6709 25.4951 -13.8882 -0.529517 -0.842422 -0.0996835
22.3463 24.9511 -12.8302 -0.542924 -0.837241 -0.0652833
22.496 24.8344 -12.5831 -0.545517 -0.835648 -0.0640587
23.1106 24.5216 -13.5355 -0.549469 -0.83122 -0.0846078
22.3527 25.1542 -14.685 -0.537135 -0.83749 -0.100484
21.6349 25.773 -15.8027 -0.532148 -0.836585 -0.130172
21.0089 26.3269 -16.7822 -0.519495 -0.842213 -0.144228
20.3622 26.9292 -17.7733 -0.517957 -0.836069 -0.180858
19.7517 27.5169 -18.7221 -0.496401 -0.843966 -0.203243
20.4457 27.2488 -19.3342 -0.512104 -0.83095 -0.21742
21.1322 26.5709 -18.3186 -0.524476 -0.829584 -0.191614
21.7419 25.9913 -17.4113 -0.522938 -0.835353 -0.16947
22.342 25.4418 -16.5114 -0.534991 -0.833135 -0.140251
23.1337 24.7456 -15.3588 -0.541472 -0.830977 -0.127614
23.5793 24.3604 -14.7218 -0.548769 -0.828683 -0.110167
24.1662 24.1064 -15.6504 -0.554103 -0.822287 -0.129669
23.4002 24.7974 -16.7067 -0.538627 -0.829446 -0.147987
22.7702 25.3823 -17.6329 -0.534909 -0.829766 -0.159249
22.1606 25.9588 -18.501 -0.530272 -0.827132 -0.186185
21.4331 26.6694 -19.5005 -0.526203 -0.825259 -0.205082
21.0114 27.0878 -20.0883 -0.518185 -0.826253 -0.220885
21.4804 27.0226 -20.9568 -0.53059 -0.815475 -0.231246
22.3143 26.1971 -19.8874 -0.534682 -0.818928 -0.208497
23.0905 25.4408 -18.8664 -0.540553 -0.818412 -0.194947
23.6988 24.8516 -18.0319 -0.548475 -0.820807 -0.159533
24.4187 24.1723 -17.0475 -0.554287 -0.819177 -0.147357
24.8088 23.8191 -16.5536 -0.558797 -0.817703 -0.138232
25.3633 23.6086 -17.5156 -0.565987 -0.808967 -0.158843
24.7024 24.2412 -18.406 -0.56135 -0.812443 -0.157553
23.9482 24.9841 -19.3822 -0.559035 -0.808915 -0.182035
23.3054 25.619 -20.2052 -0.548415 -0.809397 -0.210043
22.645 26.275 -21.0092 -0.538546 -0.812165 -0.224401
22.0583 26.8614 -21.6979 -0.536531 -0.809683 -0.237797
22.6857 26.6533 -22.4085 -0.543817 -0.804066 -0.240292
23.411 25.9191 -21.5985 -0.549032 -0.804504 -0.226577
24.265 25.0607 -20.6032 -0.553229 -0.805572 -0.212111
24.9997 24.3268 -19.7144 -0.565534 -0.803726 -0.184919
25.6672 23.6621 -18.8964 -0.575976 -0.799044 -0.17257
25.9009 23.4382 -18.6256 -0.575285 -0.801 -0.165667
26.4806 23.2155 -19.5523 -0.587035 -0.789949 -0.177117
25.7836 23.9208 -20.3817 -0.574608 -0.795689 -0.191585
24.9709 24.7475 -21.3104 -0.570222 -0.793544 -0.212452
24.0543 25.6833 -22.3384 -0.562934 -0.794288 -0.228498
23.3162 26.4383 -23.1231 -0.5446 -0.799828 -0.252361
23.1072 26.6505 -23.3447 -0.5446 -0.799828 -0.25236
23.5254 26.6557 -24.2717 -0.558913 -0.78877 -0.255849
24.2786 25.8796 -23.5218 -0.560548 -0.792386 -0.240647
25.1249 25.0051 -22.6339 -0.569124 -0.788964 -0.231589
25.8193 24.2844 -21.8836 -0.578772 -0.787395 -0.212209
26.589 23.4894 -21.0429 -0.590156 -0.782753 -0.197516
26.9231 23.1497 -20.6815 -0.590832 -0.783167 -0.193824
27.5639 22.8935 -21.6094 -0.594027 -0.780248 -0.195818
26.8697 23.6113 -22.3106 -0.59408 -0.775417 -0.214005
26.139 24.3759 -23.0595 -0.584118 -0.779392 -0.226615
25.4175 25.1276 -23.7731 -0.582549 -0.777314 -0.237529
24.7254 25.8515 -24.4516 -0.574954 -0.778897 -0.250495
24.1044 26.4928 -25.026 -0.565965 -0.782444 -0.25974
24.6676 26.3292 -25.7602 -0.569164 -0.776438 -0.270548
25.4486 25.5205 -25.086 -0.582202 -0.773703 -0.249848
26.2532 24.6753 -24.3514 -0.58927 -0.772103 -0.237945
26.9601 23.9347 -23.6923 -0.602409 -0.767518 -0.219135
27.7488 23.1051 -22.948 -0.608918 -0.764345 -0.212119
28.1576 22.6658 -22.5188 -0.613636 -0.765171 -0.194845
28.7088 22.4927 -23.5372 -0.625465 -0.752687 -0.205561
27.9932 23.2551 -24.1636 -0.613357 -0.757397 -0.223927
27.0086 24.2993 -25.0303 -0.597201 -0.767486 -0.23306
26.1914 25.1645 -25.7456 -0.590633 -0.766649 -0.251798
25.3855 26.0048 -26.3901 -0.58582 -0.763694 -0.271267
25.0897 26.3138 -26.6214 -0.58367 -0.765632 -0.270439
25.3821 26.4338 -27.5911 -0.592668 -0.758436 -0.271143
26.2377 25.5328 -26.9499 -0.598083 -0.756641 -0.264179
27.0131 24.7131 -26.3453 -0.602764 -0.758071 -0.249008
27.866 23.8007 -25.6296 -0.606121 -0.758888 -0.238133
28.5939 23.0162 -25.0129 -0.620266 -0.751508 -0.224736
29.3566 22.1783 -24.3792 -0.638745 -0.741672 -0.204761
29.9019 21.967 -25.3069 -0.64615 -0.732717 -0.213576
29.1606 22.7998 -25.8977 -0.642014 -0.732409 -0.226703
28.3044 23.7452 -26.6015 -0.620674 -0.745791 -0.241989
27.5315 24.5805 -27.2026 -0.61505 -0.748096 -0.249131
26.7631 25.4024 -27.7811 -0.605022 -0.752525 -0.260106
25.9395 26.2751 -28.3904 -0.603061 -0.750062 -0.271523
25.871 26.3475 -28.436 -0.604878 -0.74655 -0.277102
28.1875 24.2922 -27.9603 -0.621921 -0.741557 -0.251611
29.0556 23.3394 -27.3137 -0.635068 -0.734648 -0.238707
29.8803 22.4024 -26.6634 -0.649681 -0.725657 -0.226576
30.3854 21.8237 -26.2722 -0.661749 -0.715345 -0.224432
30.7248 21.8502 -27.3275 -0.658111 -0.711665 -0.245811
30.2689 22.3864 -27.6724 -0.652542 -0.717746 -0.242958
