5.47137 32.6053 -12.137 0.169652 0.985405 -0.0139376
6.82758 32.3542 -12.4374 0.188098 0.981881 0.00657452
7.99833 32.1205 -12.6005 0.219441 0.975327 0.0237392
9.15429 31.8487 -12.7791 0.245469 0.969078 0.025159
10.1236 31.6068 -13.0459 0.263243 0.963162 0.0549726
11.1044 31.3286 -13.3554 0.291592 0.95434 0.0648722
12.1111 31.0227 -13.682 0.314773 0.946132 0.0758496
13.4037 30.5921 -14.1925 0.361183 0.928813 0.0815673
14.4488 30.213 -14.6294 0.398369 0.909952 0.115278
15.5933 29.7586 -15.2145 0.431886 0.893241 0.12445
16.5079 29.3936 -15.8117 0.448469 0.885403 0.12222
17.2885 29.0965 -16.4187 0.476359 0.863897 0.163594
18.0687 28.8186 -17.1956 0.482418 0.859534 0.168305
18.8387 28.5489 -18.0051 0.485608 0.85298 0.191304
19.5638 28.2877 -18.7306 0.49178 0.846849 0.202437
20.3974 27.9935 -19.5703 0.50674 0.836745 0.20754
21.0984 27.7761 -20.3787 0.511967 0.831411 0.215974
21.8987 27.5712 -21.4694 0.524794 0.817632 0.236791
22.7052 27.3832 -22.6096 0.53288 0.811436 0.240021
23.3442 27.2274 -23.484 0.546588 0.796682 0.257953
23.8603 27.2075 -24.5114 0.550738 0.792958 0.260587
24.4046 27.1411 -25.4611 0.570276 0.773065 0.277768
25.0002 27.0607 -26.4839 0.575851 0.772079 0.268869
25.4161 27.0927 -27.4435 0.58636 0.763215 0.271451
25.8117 27.1318 -28.3957 0.600129 0.751002 0.27539
26.7959 26.4449 -28.6834 0.604961 0.747381 0.274671
27.5942 25.7694 -28.5935 0.612358 0.74742 0.2576
28.441 25.0525 -28.5488 0.621645 0.739207 0.259097
29.3044 24.2749 -28.3967 0.627177 0.738744 0.246733
30.0848 23.5403 -28.2268 0.642965 0.723907 0.250111
30.945 22.6648 -27.9311 0.655908 0.714592 0.243174
30.6912 22.4963 -26.7334 0.658474 0.716718 0.229604
30.0921 22.6954 -25.6236 0.652685 0.725223 0.219214
29.452 22.9206 -24.5041 0.639592 0.741546 0.202266
28.8977 23.1519 -23.6553 0.612464 0.763183 0.205984
28.1161 23.4361 -22.424 0.602444 0.773125 0.19832
27.618 23.5158 -21.2842 0.592271 0.780692 0.199338
27.1542 23.6163 -20.2735 0.589361 0.787021 0.182176
26.5735 23.8216 -19.2609 0.583611 0.793477 0.172602
25.7349 24.176 -18.0243 0.574312 0.803599 0.156183
25.2041 24.359 -17.039 0.555753 0.817562 0.150768
24.7851 24.4639 -16.0252 0.55188 0.82286 0.135257
24.2874 24.6429 -15.038 0.551888 0.824731 0.123377
23.6493 24.938 -14.1027 0.547853 0.829688 0.106975
23.1169 25.1755 -13.1876 0.55299 0.828417 0.0890306
22.6378 25.4136 -12.2937 0.555052 0.83021 0.0516616
21.9792 25.7831 -11.1936 0.551218 0.833886 0.0281196
21.3923 26.1464 -10.2426 0.550457 0.834776 0.0121103
20.8566 26.499 -9.44237 0.547601 0.836504 -0.0198646
20.2977 26.9032 -8.57814 0.546087 0.836704 -0.0399615
19.7591 27.3026 -7.79559 0.535817 0.84181 -0.0649122
19.2253 27.7144 -6.98753 0.537328 0.839207 -0.0836941
18.6275 28.164 -6.22362 0.514822 0.852068 -0.0945433
17.9958 28.6316 -5.50832 0.499522 0.858431 -0.116257
17.4501 29.0487 -4.74042 0.477865 0.86862 -0.130933
16.8861 29.4918 -3.94412 0.462098 0.872723 -0.157546
16.2926 29.9472 -3.23066 0.450227 0.876203 -0.171941
15.6843 30.418 -2.504 0.423714 0.882912 -0.202318
15.0668 30.9722 -1.41935 0.415325 0.885504 -0.207778
14.361 31.4694 -0.698907 0.380824 0.897168 -0.223646
13.5855 32.0104 0.215529 0.336412 0.909905 -0.242692
12.9522 32.4462 1.02319 0.322432 0.916459 -0.236731
11.993 32.9717 1.91297 0.281018 0.927223 -0.247347
11.1771 33.3886 2.71286 0.221292 0.94799 -0.227518
10.4026 33.7257 3.44834 0.178023 0.957456 -0.224972
9.40312 33.9963 3.94029 0.147387 0.968684 -0.198823
8.40896 34.1816 4.27764 0.0914019 0.979162 -0.18133
7.31711 34.2584 4.21695 0.0736232 0.983791 -0.163508
6.09021 34.301 3.99687 0.0491049 0.989944 -0.13266
4.95962 34.3199 3.7483 0.0356774 0.9913 -0.126688
3.85748 34.3224 3.51045 0.0270624 0.993342 -0.111978
2.75384 34.2925 3.145 -0.000491737 0.993854 -0.110647
1.67087 34.2322 2.75861 -0.0247549 0.99429 -0.103805
0.547168 34.1577 2.40722 -0.0531663 0.994507 -0.0901624
-0.657656 34.0446 2.0345 -0.0744106 0.99464 -0.0713511
-1.59296 33.9269 1.54271 -0.10763 0.992109 -0.0638398
-2.45246 33.7877 0.748886 -0.107538 0.993248 -0.0435257
-2.70569 33.7007 -0.39152 -0.116816 0.991886 -0.0501587
-2.46107 33.6675 -1.58845 -0.099126 0.99399 -0.0464494
-1.96136 33.6607 -2.79791 -0.0762568 0.996252 -0.0408152
-1.57022 33.6458 -3.87116 -0.0488904 0.997963 -0.0409851
-0.949638 33.6014 -5.15798 -0.0110476 0.99864 -0.0509456
-0.388501 33.5494 -6.18844 0.0132288 0.998193 -0.0586105
-0.0282749 33.4943 -7.15755 0.041355 0.997869 -0.0504708
0.756659 33.3716 -8.57446 0.062343 0.995979 -0.0643417
1.48616 33.2585 -9.5811 0.083608 0.994855 -0.0572199
2.2928 33.1389 -10.4219 0.113212 0.992356 -0.0491221
3.22926 32.9882 -10.9978 0.126441 0.990796 -0.0455065
4.42027 32.7942 -11.639 0.146577 0.988609 -0.0329061
5.36285 32.6245 -12.0998 0.169447 0.985442 -0.0138217
4.83458 32.7009 -12.9707 0.151651 0.988371 0.000456539
3.80842 32.8637 -12.4834 0.146634 0.989105 -0.0130198
2.70332 33.0259 -11.8639 0.120523 0.99223 -0.0308823
1.69552 33.1577 -11.2455 0.10082 0.994362 -0.0328606
0.788436 33.2758 -10.4011 0.083619 0.995564 -0.0431288
0.134743 33.3765 -9.38094 0.0751669 0.996098 -0.0462507
-0.56925 33.4625 -8.54066 0.0453829 0.997511 -0.0539652
-1.0149 33.5133 -7.31012 0.0112995 0.999282 -0.0361673
-1.41743 33.5454 -6.37053 -0.0210278 0.999253 -0.0287141
-2.05013 33.5758 -5.23929 -0.0358037 0.998683 -0.0366061
-2.54392 33.58 -4.25943 -0.0662312 0.997551 -0.0225016
-2.95257 33.5758 -3.04564 -0.074915 0.996863 -0.0254153
-3.42275 33.555 -1.99152 -0.11185 0.993489 -0.0193932
-3.78916 33.5451 -0.752521 -0.125097 0.991177 -0.0422752
-3.76478 33.5938 0.355502 -0.145198 0.988191 -0.0489581
-3.27607 33.7283 1.50316 -0.144577 0.986347 -0.0780916
-2.31435 33.9019 2.30419 -0.114951 0.990468 -0.0756361
-1.44853 34.0441 2.83244 -0.106106 0.989847 -0.09348
-0.352806 34.172 3.21996 -0.079468 0.992533 -0.0925391
0.625421 34.2699 3.51649 -0.0553032 0.992989 -0.104472
2.13441 34.3751 3.99694 -0.0249699 0.993891 -0.107497
3.17166 34.4314 4.37243 0.00547101 0.993744 -0.111548
4.32033 34.4486 4.58992 0.0107512 0.991124 -0.132295
5.46815 34.4662 4.93051 0.0343796 0.989384 -0.1412
6.6688 34.4468 5.14203 0.0459097 0.987226 -0.152567
7.96855 34.4044 5.31643 0.0587445 0.982352 -0.177579
9.03458 34.2869 5.14126 0.0952672 0.974057 -0.204729
10.0045 34.0944 4.77678 0.132903 0.963942 -0.229385
10.8963 33.8292 4.29041 0.194591 0.949215 -0.246806
11.668 33.4987 3.63922 0.221902 0.938 -0.266298
12.4068 33.1247 2.92742 0.24262 0.941481 -0.23398
13.1326 32.7235 2.264 0.294843 0.916969 -0.26784
13.873 32.2494 1.48317 0.329504 0.908081 -0.257826
14.5625 31.7341 0.577479 0.363178 0.897922 -0.248017
15.3314 31.1736 -0.234488 0.400681 0.877796 -0.262543
15.9747 30.6239 -1.06446 0.451081 0.864585 -0.2214
16.5253 30.1021 -2.01102 0.44518 0.86934 -0.21462
17.1283 29.6057 -2.68073 0.479709 0.85618 -0.190251
17.7632 29.0856 -3.48689 0.495119 0.853095 -0.163975
18.5382 28.4518 -4.55188 0.502264 0.855679 -0.124662
19.0983 27.9938 -5.31064 0.530502 0.838316 -0.125673
19.706 27.4977 -6.08153 0.541188 0.834959 -0.0986703
20.3464 26.9826 -7.00788 0.55635 0.827206 -0.0787768
21.0117 26.4622 -7.99671 0.559681 0.827342 -0.0462223
21.5721 26.0377 -8.79575 0.56501 0.824446 -0.0316422
22.1199 25.6566 -9.66652 0.556331 0.830937 0.00628029
22.6456 25.3167 -10.5637 0.556852 0.829995 0.0319938
23.2045 24.9893 -11.5395 0.553958 0.831006 0.0505892
23.7048 24.709 -12.3939 0.555425 0.828524 0.0707063
24.2188 24.464 -13.3831 0.550836 0.829266 0.0943266
24.8249 24.1741 -14.2902 0.555435 0.824735 0.106319
25.3401 23.9676 -15.2662 0.557187 0.820467 0.127819
25.8673 23.8033 -16.4524 0.560117 0.81669 0.138858
26.3648 23.6318 -17.4615 0.570915 0.808542 0.14241
26.9167 23.3802 -18.2911 0.586649 0.798429 0.135474
27.4751 23.1374 -19.1835 0.589371 0.791151 0.163466
27.9704 22.97 -20.128 0.595263 0.783353 0.178921
28.4452 22.921 -21.4075 0.592906 0.782312 0.190855
29.1601 22.6634 -22.615 0.621681 0.75765 0.198695
29.7541 22.4094 -23.5337 0.635408 0.748298 0.190189
30.3023 22.1608 -24.4297 0.651669 0.732443 0.196843
30.7589 22.0157 -25.3699 0.664274 0.718303 0.206695
31.4297 21.7656 -26.5895 0.664121 0.711366 0.230004
31.9755 21.5874 -27.6173 0.675795 0.696974 0.239737
32.3339 21.6079 -28.6642 0.669157 0.698206 0.254177
31.3661 22.6086 -28.8865 0.653849 0.708656 0.265117
30.6459 23.3479 -29.1072 0.642499 0.719087 0.26478
29.8945 24.06 -29.2412 0.628988 0.73104 0.26449
29.1571 24.7527 -29.4123 0.622569 0.735552 0.267154
28.4002 25.4401 -29.5511 0.61518 0.741016 0.269165
27.4848 26.2148 -29.5896 0.612228 0.743216 0.269786
26.7253 26.9132 -29.8081 0.609831 0.743873 0.273382
25.7814 27.6749 -29.7722 0.612509 0.738927 0.280692
25.2112 27.8255 -28.9529 0.595201 0.746878 0.296495
24.7971 27.7599 -27.9416 0.595069 0.750067 0.288604
24.2919 27.7167 -26.8208 0.575819 0.767075 0.282894
23.6884 27.7884 -25.8339 0.558783 0.777768 0.287818
23.1045 27.8057 -24.726 0.545264 0.791025 0.27743
22.3655 27.8996 -23.528 0.533443 0.803401 0.264491
21.5096 28.1117 -22.4429 0.518312 0.818105 0.248958
20.7564 28.248 -21.3298 0.51211 0.82644 0.23394
19.8947 28.4971 -20.3284 0.506015 0.833033 0.223618
19.121 28.7418 -19.5196 0.499598 0.838867 0.216102
18.2988 29.0381 -18.7988 0.487085 0.849571 0.202428
17.5942 29.2504 -17.9961 0.474781 0.858903 0.192008
16.8127 29.5162 -17.2876 0.458708 0.868489 0.187919
15.9504 29.8192 -16.633 0.439546 0.883278 0.163154
14.8985 30.2048 -15.9299 0.42169 0.894969 0.14504
13.9729 30.5428 -15.5112 0.369295 0.917162 0.149785
13.0633 30.8414 -15.1262 0.352433 0.924266 0.146711
12.0996 31.1381 -14.7327 0.328338 0.938745 0.104492
11.1318 31.4147 -14.3617 0.29247 0.951025 0.0998561
9.9501 31.7306 -14.0792 0.258552 0.962172 0.085889
8.99486 31.9529 -13.7778 0.245013 0.967261 0.0661444
7.92988 32.1862 -13.6183 0.209321 0.976177 0.0548759
6.82403 32.3849 -13.4623 0.165494 0.984846 0.0518646
5.54998 32.593 -13.2224 0.161461 0.986806 0.0119888
5.2164 32.6465 -13.1342 0.153161 0.988108 0.0106149
4.88342 32.7018 -14.1045 0.138058 0.990207 0.0152702
3.85537 32.8513 -13.6518 0.14937 0.988773 0.00413597
2.90462 32.9747 -13.2234 0.119776 0.992769 -0.00790952
1.9591 33.0945 -12.6265 0.10579 0.994091 -0.023927
0.940431 33.2036 -11.91 0.0762298 0.99679 -0.0169598
-0.154044 33.3266 -10.8699 0.0729447 0.996668 -0.0359006
-0.809529 33.4116 -9.94 0.0615198 0.997068 -0.0453902
-1.50526 33.4738 -8.91225 0.0159279 0.999602 -0.0232956
-1.91724 33.4986 -7.85745 -0.000328685 0.999727 -0.0219386
-2.38221 33.5181 -6.93142 -0.0153308 0.999799 -0.012883
-2.85529 33.5253 -5.87319 -0.035051 0.998837 -0.0331059
-3.4255 33.512 -4.58557 -0.0723958 0.997307 -0.0112725
-3.92011 33.4786 -3.33953 -0.103713 0.994579 -0.00753978
-4.38652 33.4318 -2.33463 -0.129157 0.991466 -0.0176814
-4.74219 33.404 -1.24212 -0.127767 0.991731 -0.0120532
-4.84208 33.4159 -0.194456 -0.146398 0.988676 -0.0329684
-4.71069 33.4742 0.952469 -0.160774 0.986434 -0.0331725
-4.19862 33.6345 2.07563 -0.161994 0.983604 -0.0792376
-3.41404 33.8029 2.79486 -0.125403 0.989363 -0.0737228
-2.59398 33.9657 3.47297 -0.129921 0.987468 -0.0895936
-1.47329 34.1529 3.9701 -0.0848199 0.987524 -0.132674
-0.354554 34.2847 4.26035 -0.0794316 0.990542 -0.111877
0.948991 34.4243 4.76792 -0.0560564 0.992194 -0.111396
2.20921 34.4969 5.07356 -0.0248609 0.993303 -0.112829
3.18629 34.5651 5.42883 -0.0116471 0.99221 -0.124029
4.24153 34.5856 5.56202 0.00552232 0.989943 -0.140949
5.29155 34.6344 6.03538 0.0273765 0.988989 -0.1452
6.36121 34.6181 6.15086 0.0271347 0.987893 -0.152748
7.37385 34.6073 6.27732 0.0448676 0.983432 -0.175639
8.51385 34.5632 6.30737 0.0450737 0.9787 -0.200288
9.91054 34.3678 5.9086 0.0964585 0.968977 -0.226617
10.9688 34.1091 5.4198 0.149597 0.959705 -0.237882
11.8734 33.8064 4.87184 0.188669 0.939954 -0.282348
12.5603 33.4371 4.1661 0.221038 0.937875 -0.267452
13.5064 32.911 3.3156 0.267479 0.919382 -0.288303
14.2434 32.4336 2.5703 0.329365 0.899278 -0.286662
14.9266 31.9446 1.8234 0.353381 0.896779 -0.266036
15.6328 31.3811 0.890861 0.367564 0.890899 -0.266824
16.3009 30.8413 0.202754 0.428719 0.859833 -0.277281
16.801 30.3301 -0.602501 0.452986 0.847113 -0.276565
17.3261 29.8117 -1.42163 0.472771 0.854202 -0.216349
18.0024 29.2386 -2.16671 0.491864 0.845908 -0.20618
18.6376 28.6482 -3.07795 0.516943 0.841058 -0.159343
19.2889 28.0751 -3.97997 0.531776 0.833688 -0.148495
19.8443 27.6009 -4.71281 0.550179 0.825415 -0.126467
20.596 26.9329 -5.81973 0.570858 0.81294 -0.113966
21.2689 26.3754 -6.68353 0.583306 0.809905 -0.0617049
21.8236 25.9147 -7.64936 0.584425 0.810003 -0.0481873
22.5383 25.3617 -8.55092 0.591674 0.806045 -0.0146044
23.0301 25.0299 -9.42646 0.56912 0.821905 0.023446
23.5802 24.6743 -10.3845 0.565044 0.824471 0.0291378
24.0618 24.3777 -11.2473 0.582072 0.811151 0.0554499
24.6379 24.0677 -12.3558 0.569324 0.818314 0.0784075
25.3145 23.7147 -13.3361 0.56881 0.815617 0.105637
25.8597 23.4906 -14.481 0.563895 0.817002 0.120404
26.3754 23.2743 -15.3785 0.568618 0.811015 0.137474
26.7345 23.186 -16.3275 0.561391 0.815504 0.140648
27.3058 22.9249 -17.2917 0.604016 0.790246 0.101397
27.8621 22.6489 -18.2008 0.614385 0.774521 0.149538
28.35 22.4684 -19.1691 0.612909 0.770766 0.173964
28.895 22.2856 -20.2194 0.600465 0.778651 0.182057
29.4214 22.1681 -21.4022 0.595998 0.778722 0.19586
30.0407 21.9287 -22.608 0.643346 0.745408 0.174223
30.6528 21.6228 -23.5326 0.655307 0.736131 0.169364
31.2441 21.3924 -24.7453 0.666237 0.718659 0.199144
31.822 21.1217 -25.7234 0.686547 0.697502 0.205291
32.3338 20.9324 -26.7085 0.680266 0.696716 0.227653
32.8339 20.7603 -27.6795 0.692388 0.679951 0.24128
33.1869 20.7771 -28.7049 0.681589 0.682047 0.265038
33.2952 21.029 -29.6193 0.677049 0.679554 0.28251
32.572 21.8109 -29.8014 0.670115 0.690661 0.271907
31.7884 22.5769 -29.8508 0.659329 0.701763 0.269715
31.0565 23.3252 -30.0494 0.649294 0.712068 0.267151
30.3079 24.0277 -30.1444 0.636137 0.722376 0.271113
29.5453 24.7449 -30.2991 0.628016 0.729489 0.270982
28.7654 25.4775 -30.4917 0.618777 0.736338 0.273716
27.743 26.3551 -30.5601 0.612223 0.741636 0.274136
26.9295 27.1275 -30.8352 0.612049 0.741953 0.273683
26.0546 27.885 -30.91 0.621302 0.733106 0.276657
25.2185 28.5688 -30.8409 0.624385 0.726194 0.287723
24.6913 28.5201 -29.6426 0.607074 0.734023 0.304162
24.2663 28.4729 -28.6676 0.602944 0.738239 0.302426
23.8388 28.3949 -27.69 0.579114 0.755394 0.306605
23.286 28.3901 -26.6564 0.556864 0.774312 0.300572
22.59 28.4699 -25.5831 0.537573 0.788205 0.29958
22.1681 28.3963 -24.6391 0.531436 0.801765 0.273373
21.3795 28.5908 -23.7008 0.510857 0.817839 0.264885
20.7692 28.7079 -22.8757 0.51382 0.817787 0.259255
20.1286 28.8161 -21.9759 0.500345 0.830966 0.243113
19.3222 29.0273 -21.0174 0.501959 0.834652 0.22669
18.5793 29.2529 -20.2216 0.495126 0.83746 0.231324
17.5812 29.5988 -19.3802 0.476361 0.849457 0.2267
16.7631 29.8209 -18.5025 0.459712 0.860187 0.22078
15.818 30.106 -17.6805 0.437481 0.87924 0.188502
14.8563 30.4594 -17.1761 0.413508 0.891215 0.186273
13.796 30.8077 -16.5706 0.35779 0.915221 0.185356
12.7486 31.1132 -16.0489 0.340998 0.92395 0.173233
11.62 31.4093 -15.5697 0.292153 0.942916 0.159846
10.4077 31.7193 -15.1611 0.279221 0.952902 0.118377
9.347 31.9728 -14.9469 0.232802 0.966095 0.110376
8.36961 32.173 -14.6689 0.226544 0.970074 0.0873746
7.33056 32.3713 -14.6473 0.170973 0.982504 0.073498
6.30779 32.5149 -14.3904 0.152572 0.987068 0.0485973
5.27462 32.6516 -14.206 0.134349 0.990514 0.0288544
30.2993 23.0266 -27.2671 0.648529 0.720875 0.244436
29.5494 23.8528 -27.7543 0.62811 0.739183 0.243075
29.4791 23.9284 -27.8063 0.623199 0.742499 0.245599
29.8506 23.1275 -26.3408 0.638552 0.732108 0.237214
29.1145 23.9187 -26.8358 0.620293 0.746967 0.239326
28.4166 24.6701 -27.3516 0.617179 0.74813 0.243705
27.613 25.5257 -27.9398 0.608325 0.750777 0.257439
27.5283 25.6166 -28.0024 0.609546 0.748402 0.261436
26.2143 26.6105 -27.839 0.596041 0.757376 0.266676
26.9525 25.8263 -27.2572 0.600837 0.756317 0.258805
27.8966 24.8242 -26.5209 0.609654 0.753112 0.247273
28.6486 24.0343 -25.9728 0.617103 0.752739 0.229279
29.4924 23.1334 -25.3342 0.634946 0.740472 0.220329
28.9709 23.3028 -24.428 0.62098 0.753342 0.216472
28.2188 24.0941 -25.0323 0.605597 0.76149 0.231052
27.5022 24.842 -25.5954 0.601556 0.760549 0.244325
26.8008 25.5809 -26.1737 0.599806 0.759402 0.252072
26.1025 26.3153 -26.7444 0.589824 0.763341 0.263474
25.7796 26.6518 -26.9964 0.591471 0.760783 0.267156
25.3255 26.7217 -26.2073 0.578593 0.769688 0.269833
26.0181 25.9961 -25.6159 0.587192 0.768346 0.254654
26.8164 25.1577 -24.9186 0.593068 0.76833 0.240707
27.7547 24.1864 -24.1003 0.597233 0.767592 0.232626
28.2126 23.7155 -23.719 0.603246 0.768902 0.211858
27.6572 23.8816 -22.7628 0.589441 0.777636 0.218727
26.7504 24.8202 -23.6455 0.583441 0.780494 0.224555
26.0704 25.5292 -24.2964 0.579914 0.779275 0.237551
25.3765 26.2603 -24.9636 0.576139 0.775055 0.259526
25.0264 26.6284 -25.2857 0.570246 0.779531 0.259133
24.4245 26.8493 -24.6462 0.561847 0.784069 0.263749
25.0951 26.1351 -23.9372 0.571057 0.780832 0.253368
25.793 25.4056 -23.2133 0.578816 0.782043 0.231042
26.44 24.7334 -22.5436 0.582109 0.780964 0.226372
27.0703 24.065 -21.8012 0.585428 0.782113 0.213482
27.1737 23.9562 -21.6887 0.591341 0.780219 0.203898
26.7827 23.9618 -20.562 0.579012 0.792313 0.192314
26.1636 24.6049 -21.321 0.574967 0.79096 0.209271
25.4935 25.3017 -22.1002 0.569072 0.791809 0.221802
24.8412 25.9829 -22.8174 0.56381 0.791808 0.23486
24.1071 26.7492 -23.6422 0.561993 0.790894 0.24218
23.5645 26.8937 -22.8943 0.539435 0.803428 0.252017
24.1953 26.2398 -22.1468 0.562918 0.79529 0.225026
24.8217 25.5954 -21.3978 0.563055 0.798519 0.212925
25.4906 24.9074 -20.594 0.574305 0.793576 0.201025
26.1074 24.2804 -19.8123 0.574964 0.797417 0.183145
26.1367 24.2504 -19.7739 0.57417 0.7989 0.17913
25.6703 24.3605 -18.7355 0.573966 0.801667 0.167015
25.0505 24.9776 -19.5678 0.567062 0.801882 0.188216
24.4157 25.6101 -20.3941 0.551432 0.809229 0.202662
23.778 26.2569 -21.1928 0.540401 0.81306 0.216565
23.0796 26.9775 -22.0693 0.539672 0.807288 0.238832
22.9708 27.0905 -22.2096 0.532879 0.811437 0.240021
22.5152 27.1386 -21.3511 0.533589 0.814246 0.228664
23.1853 26.4548 -20.4416 0.537508 0.81698 0.208877
23.8156 25.8239 -19.5806 0.548374 0.814258 0.190447
24.4388 25.2099 -18.7173 0.55164 0.816029 0.172597
25.0154 24.6429 -17.8573 0.555926 0.816 0.158402
25.0255 24.6329 -17.8416 0.553524 0.816955 0.161854
24.5301 24.7652 -16.7834 0.550194 0.822327 0.145141
23.9161 25.3549 -17.7274 0.544375 0.824201 0.15604
23.2295 26.024 -18.7653 0.544115 0.818833 0.182896
22.6295 26.6119 -19.6292 0.535289 0.820869 0.199099
22.0382 27.2074 -20.4766 0.523913 0.822026 0.223133
21.9403 27.3097 -20.6263 0.521342 0.823934 0.222116
21.3666 27.4799 -19.9 0.521828 0.82689 0.209637
21.9393 26.9088 -19.033 0.524361 0.828683 0.195781
22.5491 26.3146 -18.0942 0.52298 0.834533 0.173339
23.1385 25.7521 -17.1585 0.533486 0.830862 0.158304
23.6765 25.2466 -16.29 0.535102 0.832463 0.143773
24.0531 24.9021 -15.6984 0.550288 0.825081 0.128159
23.5147 25.108 -14.7457 0.53777 0.835017 0.116409
22.8421 25.707 -15.8498 0.531813 0.836323 0.133188
22.1521 26.3398 -16.9713 0.524332 0.836152 0.161016
21.5062 26.9534 -18.0176 0.518433 0.835168 0.183633
20.8672 27.5814 -19.0398 0.509671 0.836042 0.203148
20.8389 27.6098 -19.087 0.503862 0.839713 0.202497
20.1767 27.8712 -18.5232 0.506685 0.840932 0.190009
20.7268 27.3366 -17.586 0.512901 0.840687 0.17372
21.2866 26.8104 -16.6309 0.518018 0.843867 0.139806
21.8223 26.3275 -15.721 0.521207 0.842992 0.133072
22.4794 25.7549 -14.588 0.531795 0.84052 0.103541
22.8956 25.3946 -13.8373 0.537034 0.837 0.105003
22.3934 25.6156 -12.8187 0.539594 0.837637 0.0848671
21.6921 26.1844 -14.0834 0.52393 0.846802 0.0917818
21.0074 26.7617 -15.2783 0.512785 0.848353 0.131718
20.328 27.3625 -16.4786 0.504773 0.851823 0.140008
19.6824 27.9744 -17.6133 0.50003 0.846526 0.182657
19.537 28.1154 -17.8687 0.50003 0.846526 0.182659
19.0064 28.2431 -17.0123 0.48783 0.854077 0.180484
19.5239 27.7705 -16.0836 0.503956 0.85089 0.148374
20.0285 27.3279 -15.1656 0.503366 0.854894 0.125615
20.615 26.8455 -14.095 0.512189 0.85343 0.0965384
21.2888 26.323 -12.8615 0.523021 0.849935 0.0637159
21.6295 26.0655 -12.2347 0.54211 0.838564 0.0540966
21.1182 26.3421 -11.2169 0.537823 0.842705 0.0243802
20.5256 26.7617 -12.3062 0.520324 0.852417 0.0514619
19.892 27.2249 -13.5041 0.508028 0.858605 0.0685894
19.3816 27.6164 -14.4572 0.504868 0.857546 0.0986104
18.8211 28.0836 -15.5218 0.490612 0.861221 0.132657
18.2857 28.5595 -16.5108 0.490654 0.85661 0.159617
17.5822 28.857 -15.9908 0.471777 0.869118 0.148529
18.1731 28.3582 -14.8427 0.486702 0.866146 0.11363
18.7675 27.8963 -13.6937 0.491635 0.867438 0.0764565
19.3545 27.4777 -12.579 0.504001 0.862156 0.0516711
19.9671 27.065 -11.4167 0.520406 0.853604 0.0231759
20.4947 26.7252 -10.4173 0.53952 0.841938 0.00764894
20.0835 27.0122 -9.18033 0.538704 0.841702 -0.0365352
19.5359 27.3156 -10.2609 0.51737 0.855731 -0.00723582
18.9009 27.7035 -11.4866 0.49418 0.869135 0.0197796
18.3108 28.0758 -12.6337 0.487899 0.871467 0.0500008
17.8036 28.4285 -13.6237 0.489807 0.86928 0.0666497
17.3022 28.8159 -14.6179 0.4622 0.880229 0.107552
16.9107 29.1295 -15.3978 0.455212 0.881003 0.128904
16.1971 29.4211 -14.8749 0.43603 0.892465 0.115686
16.6822 29.0503 -13.8722 0.467241 0.880228 0.08297
17.2573 28.6692 -12.7442 0.476018 0.877409 0.0596625
17.8288 28.3083 -11.6111 0.481032 0.876369 0.0241991
18.3348 28.0238 -10.6107 0.486463 0.873461 -0.0204823
18.8424 27.7579 -9.59594 0.513748 0.856912 -0.0420093
19.4057 27.4771 -8.43668 0.516124 0.854413 -0.0599484
19.4189 27.4716 -8.40873 0.523842 0.849001 -0.0691904
18.8197 27.9138 -7.52575 0.527102 0.845365 -0.0867311
18.3215 28.1151 -8.58069 0.490703 0.86932 -0.0590965
17.7341 28.3811 -9.78082 0.478484 0.876862 -0.0465496
17.1704 28.6661 -10.9143 0.473105 0.881005 -0.000861836
16.6165 28.9665 -12.0428 0.454943 0.889725 0.0376277
15.9772 29.3578 -13.3118 0.447516 0.891023 0.0762102
15.5606 29.638 -14.1624 0.420596 0.901881 0.0985391
14.7202 29.9973 -13.8654 0.401814 0.909856 0.103473
15.2768 29.6545 -12.7367 0.411191 0.910616 0.041235
15.8826 29.3227 -11.504 0.443898 0.896052 0.00670188
16.4976 29.0239 -10.252 0.447371 0.894189 -0.016885
17.0466 28.7849 -9.14196 0.47338 0.879347 -0.0515875
17.6043 28.5688 -7.99375 0.479077 0.87516 -0.0676712
18.1218 28.3834 -6.90986 0.476533 0.875401 -0.0811762
18.2896 28.3284 -6.5463 0.505277 0.857044 -0.100851
17.6246 28.7954 -5.80316 0.475246 0.871847 -0.118426
17.1362 28.9278 -6.86641 0.476681 0.872576 -0.106703
16.4973 29.1355 -8.21442 0.456328 0.886991 -0.0707924
15.9539 29.3329 -9.32659 0.453308 0.88978 -0.0529494
15.2754 29.6113 -10.7009 0.419261 0.907768 -0.0133154
14.7403 29.8635 -11.8086 0.416439 0.909089 0.0116551
14.0514 30.2287 -13.1909 0.407879 0.910723 0.064953
13.7841 30.3962 -13.7532 0.380805 0.920827 0.0840538
13.0145 30.6655 -13.3042 0.361219 0.928906 0.0815754
13.5392 30.386 -12.2246 0.36625 0.929705 0.038853
14.0658 30.1485 -11.1265 0.394919 0.918694 -0.00638484
14.5964 29.9336 -10.0312 0.399236 0.91606 -0.0380028
15.1087 29.7554 -9.01117 0.402122 0.913923 -0.055157
15.6853 29.5703 -7.82239 0.437011 0.895815 -0.0808536
16.3437 29.4015 -6.41116 0.461588 0.87992 -0.112596
16.7762 29.3073 -5.42882 0.460305 0.87821 -0.129868
16.3287 29.7648 -4.06536 0.460493 0.873127 -0.159983
15.8124 29.8196 -5.31469 0.437106 0.888531 -0.139467
15.2335 29.919 -6.63944 0.425782 0.897162 -0.117518
14.5911 30.0673 -8.01242 0.416546 0.904944 -0.0869788
13.9135 30.2583 -9.39136 0.402125 0.913922 -0.0551562
13.3836 30.4338 -10.4556 0.371073 0.928334 -0.0223527
12.9012 30.619 -11.4777 0.347753 0.937514 0.0116618
12.3499 30.8557 -12.609 0.337082 0.940603 0.0405093
12.0856 30.9894 -13.1715 0.33622 0.939003 0.0723114
11.3072 31.221 -12.6838 0.298042 0.952904 0.0560802
11.9431 30.9735 -11.3557 0.321099 0.946783 0.0222877
12.4449 30.8056 -10.324 0.353799 0.934859 -0.0294068
13.0541 30.6303 -9.10513 0.371104 0.926925 -0.0556015
13.6445 30.4939 -7.87858 0.396888 0.912944 -0.0949356
14.2932 30.3681 -6.48889 0.404636 0.908481 -0.104556
14.834 30.2996 -5.24926 0.413064 0.898836 -0.146535
15.308 30.2705 -4.11563 0.431392 0.887862 -0.160004
15.6073 30.2689 -3.35819 0.433253 0.882751 -0.181776
14.9409 30.7733 -2.51852 0.415367 0.8856 -0.207802
14.4718 30.7335 -3.7165 0.410984 0.894719 -0.174845
13.9924 30.746 -4.86745 0.393328 0.907488 -0.147506
13.4414 30.7823 -6.12918 0.384161 0.913681 -0.132692
12.9172 30.8485 -7.27087 0.369376 0.923544 -0.103097
12.3388 30.9501 -8.50038 0.345948 0.934733 -0.0812031
11.7073 31.0872 -9.78998 0.318598 0.946547 -0.0504441
11.1141 31.2463 -10.9888 0.317354 0.948266 -0.00881614
10.5526 31.4376 -12.1498 0.30548 0.952136 0.0109179
10.4735 31.4695 -12.3152 0.283917 0.957484 0.0511394
9.46392 31.7574 -12.2819 0.261286 0.964783 0.0304001
10.0437 31.5778 -11.1022 0.280266 0.959922 0.000269028
10.5636 31.4557 -10.0593 0.286462 0.957562 -0.0318485
11.2462 31.3225 -8.65911 0.319667 0.944549 -0.0750967
11.7995 31.2447 -7.48043 0.323112 0.940601 -0.104252
12.3009 31.1968 -6.40293 0.359294 0.926076 -0.115287
12.8468 31.1646 -5.18203 0.35469 0.924254 -0.14124
13.3045 31.1597 -4.11836 0.375754 0.910947 -0.170245
13.7602 31.1958 -3.00946 0.374789 0.908076 -0.186901
14.2242 31.2627 -1.79113 0.397403 0.895232 -0.201568
14.3392 31.2814 -1.4816 0.397405 0.895231 -0.20157
13.6448 31.7682 -0.679569 0.351783 0.908336 -0.226217
13.1515 31.6512 -2.00115 0.34416 0.918044 -0.196846
12.5825 31.5777 -3.4274 0.346774 0.920499 -0.180081
12.0831 31.5535 -4.60311 0.353024 0.922792 -0.154364
11.6166 31.5461 -5.66343 0.323121 0.935182 -0.145008
11.0286 31.5733 -6.95077 0.300485 0.947062 -0.113059
10.4574 31.6178 -8.16844 0.293402 0.951599 -0.0915117
9.81654 31.7086 -9.47804 0.26575 0.962253 -0.0587048
9.18192 31.8221 -10.7695 0.248715 0.968247 -0.02527
8.67127 31.9472 -11.7844 0.24157 0.970372 0.00461654
8.5592 31.9761 -12.0058 0.24157 0.970372 0.00461653
7.5935 32.1993 -11.8222 0.211721 0.977328 0.00183531
8.22738 32.0709 -10.5866 0.228034 0.972844 -0.0396856
8.7699 31.9877 -9.50503 0.246571 0.966186 -0.0754124
9.42114 31.921 -8.18767 0.259506 0.961549 -0.0898864
10.0527 31.8887 -6.84953 0.285806 0.951797 -0.111347
10.6082 31.8873 -5.63013 0.304505 0.942142 -0.140161
11.1426 31.9088 -4.41786 0.316363 0.934471 -0.163333
11.6663 31.9487 -3.18491 0.320032 0.931443 -0.173184
12.1745 32.0287 -1.91246 0.316755 0.928097 -0.195711
12.7352 32.1724 -0.403068 0.324892 0.919376 -0.221792
12.8933 32.2205 0.0439323 0.338786 0.912968 -0.227407
12.1903 32.6675 0.926716 0.290159 0.929811 -0.226405
11.6919 32.501 -0.471829 0.28552 0.935589 -0.207731
11.1697 32.3753 -1.86031 0.284077 0.940312 -0.187386
10.6643 32.2814 -3.12914 0.281523 0.942275 -0.18128
10.1969 32.2323 -4.21954 0.280822 0.945809 -0.163045
9.56381 32.1912 -5.66088 0.255765 0.957255 -0.135084
8.94988 32.1791 -6.99832 0.258598 0.958781 -0.117754
8.41254 32.1926 -8.12637 0.244781 0.96449 -0.0992037
7.79985 32.2369 -9.36642 0.226448 0.971567 -0.0691366
7.15832 32.3165 -10.6156 0.215678 0.975681 -0.0391105
6.54443 32.4189 -11.7832 0.176998 0.984178 -0.0080636
5.68577 32.5867 -11.3657 0.175217 0.984016 -0.0318084
6.23523 32.5266 -10.3398 0.196317 0.979059 -0.0538897
6.84099 32.4711 -9.18344 0.211688 0.974541 -0.0738819
7.37009 32.4454 -8.11751 0.223306 0.969295 -0.102967
8.00155 32.4429 -6.8047 0.237749 0.964147 -0.117882
8.64576 32.472 -5.39454 0.23463 0.962663 -0.135011
9.13843 32.5094 -4.27222 0.254285 0.95474 -0.154305
9.64272 32.5774 -3.09793 0.241163 0.956059 -0.166709
10.1847 32.6849 -1.76393 0.239917 0.954168 -0.178895
10.6334 32.7952 -0.56256 0.251954 0.948519 -0.191914
11.0427 32.9223 0.566359 0.258067 0.943819 -0.206417
11.4076 33.0657 1.6238 0.250164 0.942421 -0.221945
10.5409 33.3924 2.12047 0.208702 0.954575 -0.212676
10.1297 33.2298 0.916904 0.22291 0.95754 -0.182832
9.74934 33.1044 -0.151405 0.206946 0.958362 -0.196765
9.33857 32.994 -1.2417 0.215326 0.963068 -0.161662
8.82385 32.885 -2.53469 0.231599 0.957125 -0.173993
8.26281 32.787 -3.88621 0.222836 0.961674 -0.159775
7.78969 32.7412 -4.98041 0.217653 0.966609 -0.135259
7.29961 32.6967 -6.08061 0.210433 0.969308 -0.127122
6.76787 32.6703 -7.20301 0.21198 0.971246 -0.108376
6.19516 32.6734 -8.35393 0.198513 0.975815 -0.0915329
5.5877 32.701 -9.53191 0.191323 0.978869 -0.0721864
4.81192 32.7621 -10.9643 0.182609 0.982135 -0.0454436
4.7938 32.7639 -10.9973 0.166619 0.98508 -0.0430837
4.0956 32.9104 -10.2754 0.158208 0.985268 -0.0649342
4.6735 32.887 -9.21823 0.172839 0.98186 -0.0779617
5.31168 32.8792 -7.99763 0.174532 0.979581 -0.0997998
5.90169 32.8912 -6.81004 0.187848 0.975524 -0.114308
6.43761 32.935 -5.65855 0.176728 0.976591 -0.122627
6.95336 32.9872 -4.49073 0.201114 0.970927 -0.129823
7.41698 33.0502 -3.41542 0.19704 0.967746 -0.156981
7.9513 33.1561 -2.10982 0.194005 0.967995 -0.159209
8.53749 33.2928 -0.57727 0.218368 0.959381 -0.178617
8.9941 33.4248 0.669716 0.198201 0.963922 -0.177682
9.39166 33.5575 1.81874 0.170014 0.968862 -0.180003
9.726 33.6979 2.79703 0.162767 0.966343 -0.199217
8.72796 33.8905 2.95471 0.128839 0.972763 -0.192696
8.25022 33.7013 1.54031 0.144729 0.975155 -0.167706
7.79686 33.5613 0.269298 0.15265 0.976154 -0.15434
7.24091 33.4169 -1.22651 0.155444 0.97685 -0.146974
6.63537 33.2888 -2.74899 0.163048 0.974991 -0.151021
5.99266 33.1929 -4.2793 0.165849 0.978688 -0.121093
5.39597 33.1263 -5.63587 0.16148 0.979532 -0.120174
4.8667 33.0781 -6.74734 0.164609 0.980208 -0.109985
4.24121 33.0556 -7.98848 0.154855 0.984295 -0.0847543
3.59159 33.0543 -9.20126 0.142617 0.986943 -0.0748592
3.22465 33.058 -9.87217 0.135733 0.989017 -0.058494
2.32879 33.1879 -9.50156 0.116033 0.991046 -0.0660581
2.8775 33.1918 -8.50021 0.123559 0.989323 -0.0772931
3.5663 33.2223 -7.18487 0.118057 0.9886 -0.0934436
4.09575 33.2593 -6.11577 0.127294 0.986026 -0.107469
4.5981 33.3129 -5.03749 0.125154 0.987227 -0.098582
5.07193 33.3712 -3.93931 0.125899 0.984435 -0.122627
5.54275 33.4499 -2.80842 0.12548 0.984943 -0.118923
5.99218 33.5281 -1.69548 0.121597 0.985451 -0.118745
6.45834 33.6443 -0.51313 0.133932 0.980324 -0.145008
6.89625 33.7599 0.69209 0.120149 0.981199 -0.151039
7.3053 33.8821 1.84269 0.118037 0.982588 -0.143485
7.70301 34.033 3.01523 0.0997968 0.982821 -0.155254
7.91348 34.1032 3.63266 0.0837688 0.982607 -0.165732
6.8213 34.1836 3.50389 0.0797045 0.985135 -0.152169
6.27707 33.9972 1.92807 0.0841471 0.986186 -0.142675
5.77135 33.8479 0.515205 0.0789692 0.989068 -0.124535
5.31995 33.7402 -0.67631 0.0749941 0.988601 -0.13055
4.87184 33.6437 -1.80458 0.0947577 0.989479 -0.109323
4.44451 33.5665 -2.86628 0.0872946 0.990458 -0.106638
3.94462 33.4868 -4.08135 0.11534 0.987439 -0.107981
3.32603 33.417 -5.46378 0.0814566 0.99304 -0.0850622
2.7042 33.3524 -6.73292 0.0958754 0.991451 -0.0884985
2.18528 33.3206 -7.74395 0.0997945 0.99189 -0.0787146
1.63992 33.2974 -8.75767 0.0910342 0.993005 -0.0751873
0.970196 33.3971 -7.9732 0.0624019 0.995805 -0.0669248
1.53012 33.4353 -6.88875 0.0693198 0.99483 -0.074213
2.14358 33.4926 -5.65923 0.0603419 0.994638 -0.0839829
2.7352 33.5614 -4.38373 0.0821732 0.992024 -0.0955784
3.20554 33.6312 -3.27991 0.0841715 0.990972 -0.104352
3.6735 33.7121 -2.09699 0.0636086 0.993436 -0.0950692
4.13173 33.8035 -0.917083 0.0644981 0.992474 -0.104089
4.69502 33.9292 0.514991 0.0669073 0.991053 -0.115487
5.14255 34.0547 1.73044 0.0642697 0.989956 -0.125922
5.71733 34.233 3.3515 0.0515023 0.989984 -0.131453
4.55763 34.2472 3.05297 0.0434735 0.991625 -0.12161
4.10758 34.1225 1.8181 0.0469542 0.992175 -0.115692
3.60043 33.9958 0.517233 0.0441084 0.993281 -0.106993
3.15523 33.8985 -0.588233 0.0477379 0.993541 -0.102939
2.75679 33.8124 -1.6579 0.0445247 0.994893 -0.0905883
2.31306 33.7245 -2.81106 0.0512537 0.993896 -0.0976917
1.77851 33.6474 -4.08974 0.0552588 0.99524 -0.0802774
1.30636 33.5801 -5.12468 0.0400585 0.995974 -0.0801976
0.741576 33.5184 -6.2818 0.0304688 0.99714 -0.0691674
0.4297 33.4887 -6.8992 0.0404968 0.997896 -0.050623
0.138924 33.5973 -5.27618 0.0112064 0.998136 -0.0599902
0.642101 33.663 -4.16591 0.00754476 0.997306 -0.0729666
1.13241 33.7408 -3.01096 0.0209679 0.996322 -0.0830778
1.59183 33.8287 -1.8519 0.0270816 0.995213 -0.0939075
2.00758 33.9131 -0.772126 0.0251687 0.996352 -0.0815444
2.45542 34.0113 0.43141 0.00646555 0.9959 -0.0902343
2.89388 34.1085 1.47934 0.000187586 0.99469 -0.102915
3.30674 34.2229 2.53456 0.023779 0.993547 -0.110901
2.08201 34.1864 2.22891 -0.00386532 0.993876 -0.110437
1.63028 34.08 1.12725 0.00434799 0.995403 -0.0956757
1.21336 33.982 0.0589595 -0.00109529 0.996458 -0.0840831
0.805366 33.8997 -1.00541 0.00212628 0.996854 -0.0792353
0.295905 33.7901 -2.3378 -0.0112944 0.997114 -0.0750686
-0.164938 33.7032 -3.47406 -0.0137806 0.997902 -0.0632569
-0.549971 33.6484 -4.36511 -0.0151129 0.998451 -0.0535411
-1.20672 33.6792 -3.32785 -0.0337968 0.998194 -0.0496545
-0.67151 33.7908 -1.97214 -0.0310691 0.996786 -0.0738462
-0.133919 33.8969 -0.57231 -0.053173 0.996797 -0.0597429
0.295948 34.0017 0.547323 -0.0367398 0.996362 -0.0768972
0.837943 34.1285 1.91483 -0.0584099 0.994848 -0.0828551
0.845947 34.1307 1.93352 -0.0373303 0.994786 -0.094906
-0.481582 34.0155 1.38817 -0.0716199 0.995451 -0.0628261
-0.952906 33.9083 0.196159 -0.0648719 0.995401 -0.0704809
-1.43541 33.785 -1.08861 -0.0955765 0.993581 -0.0605158
-1.58863 33.7452 -1.49984 -0.0895304 0.994713 -0.0502957
-2.15131 33.7824 -0.0669122 -0.116909 0.991852 -0.0506253
-1.98651 33.8214 0.366299 -0.107538 0.993248 -0.0435257
