-22.7711 12.4134 59.5123 0.329109 -0.874138 -0.35717
-21.9647 13.0629 58.6606 0.327069 -0.870628 -0.367468
-21.263 13.6657 57.9249 0.356929 -0.851809 -0.383435
-20.1209 14.6788 56.7156 0.36291 -0.85334 -0.374308
-19.3959 15.3358 55.9378 0.36943 -0.85218 -0.370555
-18.6941 15.9638 55.1833 0.367168 -0.853773 -0.369133
-17.8316 16.7507 54.27 0.366779 -0.844881 -0.389422
-17.2123 17.3201 53.6286 0.37019 -0.842782 -0.390742
-16.5903 17.8925 52.9857 0.387365 -0.83006 -0.401183
-15.8996 18.5974 52.2568 0.412619 -0.817428 -0.401943
-15.2386 19.2749 51.5574 0.408607 -0.819686 -0.401441
-14.2779 20.2338 50.5289 0.402223 -0.827974 -0.390738
-13.6282 20.877 49.8346 0.397925 -0.827435 -0.396241
-12.6803 21.8063 48.844 0.405141 -0.827225 -0.389307
-12.0634 22.4082 48.2068 0.404036 -0.828201 -0.388378
-11.2417 23.2083 47.3492 0.396898 -0.827545 -0.39704
-10.837 23.6017 46.9275 0.384475 -0.837094 -0.38917
-19.1083 16.1869 54.3049 0.363361 -0.846965 -0.388096
-18.2778 16.9458 53.4265 0.366779 -0.844881 -0.389423
-17.6548 17.5192 52.783 0.370014 -0.840888 -0.394964
-17.0249 18.1005 52.1355 0.387366 -0.830061 -0.401182
0.65205 33.539 27.9984 0.0907642 -0.96563 -0.243557
0.358484 33.4416 28.2752 0.0908773 -0.965787 -0.242891
-0.136176 33.5876 27.5118 0.0947945 -0.965406 -0.24291
1.06738 33.9447 26.3745 0.0486416 -0.97516 -0.216093
1.27844 34.0004 26.1756 0.0489502 -0.974128 -0.22063
1.68754 34.3832 24.5636 0.0286112 -0.974954 -0.220558
0.788023 34.1491 25.4114 0.0401792 -0.972827 -0.228021
-0.0950153 33.9125 26.2429 0.0863907 -0.964274 -0.250423
-0.854286 33.6537 26.9554 0.098826 -0.965166 -0.242256
-1.01957 33.923 25.8833 0.090161 -0.961437 -0.259826
-0.132493 34.1953 25.0521 0.0401799 -0.972826 -0.228023
1.44027 34.6083 23.5756 0.0409813 -0.972356 -0.22988
1.73662 34.6863 23.2987 0.0338599 -0.97239 -0.230894
1.79019 34.9955 22.031 0.00480492 -0.969986 -0.243113
0.715361 34.7059 23.0333 0.0409806 -0.972356 -0.229878
-0.172424 34.4724 23.863 0.04058 -0.972592 -0.228951
-1.3301 34.1294 24.9492 0.0826066 -0.967005 -0.240993
-2.10309 33.8783 25.6727 0.0910904 -0.961382 -0.259705
-2.87681 33.9357 25.1696 0.0948104 -0.962944 -0.252486
-1.87761 34.2589 24.2354 0.0853432 -0.967188 -0.2393
-0.797711 34.6037 23.2299 0.040008 -0.966994 -0.251639
0.767136 35.0337 21.7731 0.0291358 -0.966752 -0.254051
1.5071 35.2317 21.0827 0.00480751 -0.969986 -0.243114
0.5613 35.2915 20.7529 0.0271133 -0.970372 -0.240088
-0.447281 35.0182 21.693 0.0400061 -0.966994 -0.251637
-1.62978 34.6737 22.7884 0.0644029 -0.963073 -0.261426
-2.59505 34.3403 23.6819 0.0779079 -0.958693 -0.273567
-3.46758 34.0544 24.4949 0.0900798 -0.9651 -0.245902
-4.17459 34.1418 23.9304 0.0924144 -0.952778 -0.289266
-3.21299 34.4727 23.0421 0.0779079 -0.958693 -0.273567
-2.24772 34.8061 22.1487 0.0644002 -0.963073 -0.261426
-0.967953 35.1789 20.9631 0.0503901 -0.965921 -0.253886
0.199755 35.4987 19.877 0.023644 -0.969948 -0.242162
0.639144 35.6119 19.4667 0.0253802 -0.970162 -0.241126
0.0327131 35.7587 18.8193 0.0239895 -0.967985 -0.249859
-0.933829 35.5098 19.7221 0.0236439 -0.969948 -0.24216
-1.97172 35.2023 20.6818 0.0499092 -0.964702 -0.258571
-2.86566 34.9384 21.5089 0.0644002 -0.963073 -0.261426
-3.82657 34.608 22.3962 0.074909 -0.95871 -0.274342
-4.78106 34.2821 23.2746 0.0924144 -0.952778 -0.289266
-5.38753 34.4224 22.6189 0.0924156 -0.952778 -0.289264
-4.43304 34.7483 21.7404 0.074909 -0.95871 -0.274342
-3.38592 35.1103 20.7802 0.0481431 -0.959968 -0.275941
-2.4795 35.3745 19.9423 0.031937 -0.962607 -0.269013
-1.51304 35.6636 19.0494 0.0367817 -0.967444 -0.250397
-0.022995 36.0644 17.6674 0.0243275 -0.965961 -0.257541
0.124438 36.1045 17.531 0.00601411 -0.969224 -0.246106
-0.372737 36.2902 16.7877 0.00601411 -0.969224 -0.246106
-1.26352 36.0492 17.6123 0.0131655 -0.964724 -0.262933
-2.42593 35.7277 18.6849 0.0320325 -0.962224 -0.270368
-3.69153 35.3587 19.8548 0.031937 -0.962607 -0.269013
-4.78279 34.9888 20.8547 0.0696176 -0.953451 -0.293402
-5.7714 34.6386 21.7582 0.0722671 -0.956131 -0.283885
-5.99401 34.5626 21.9631 0.0924156 -0.952778 -0.289264
-6.8198 34.6301 21.5094 0.0893637 -0.946413 -0.31035
-5.71934 35.0329 20.5079 0.0577938 -0.952028 -0.300503
-4.68925 35.3817 19.5651 0.0643316 -0.957025 -0.282781
-3.63797 35.7119 18.5973 0.0320328 -0.962224 -0.270366
-2.53197 36.0359 17.5811 0.0321253 -0.96184 -0.271721
-1.5984 36.2883 16.7183 0.0131655 -0.964724 -0.262933
-0.8535 36.4856 16.0286 -0.000212948 -0.96729 -0.253672
-1.32342 36.6875 15.259 -0.000208416 -0.96729 -0.253675
-2.23007 36.4479 16.0986 0.0131451 -0.965176 -0.26127
-3.43769 36.1099 17.2121 0.0262053 -0.960834 -0.275883
-4.50232 35.8021 18.1901 0.032733 -0.958861 -0.281984
-5.45436 35.4905 19.0612 0.0510426 -0.956383 -0.287622
-6.50412 35.1386 20.0221 0.0724614 -0.950189 -0.303133
-7.34359 34.8162 20.7829 0.087109 -0.948136 -0.305696
-7.82913 35.0186 20.0212 0.0845582 -0.947372 -0.308766
-6.65256 35.4601 18.9551 0.0636691 -0.954643 -0.290866
-5.59716 35.8084 17.9891 0.0497395 -0.95566 -0.29024
-4.68631 36.0995 17.1573 0.0327331 -0.958861 -0.281983
-3.39662 36.4717 15.9737 0.0132113 -0.962166 -0.272145
-1.81675 36.8836 14.5111 0.00611508 -0.963515 -0.267583
-1.74695 36.9003 14.4469 -0.0156802 -0.966477 -0.256273
-1.1926 37.3442 12.7408 -0.0173362 -0.966243 -0.257048
-2.25489 37.1028 13.7197 -0.00558713 -0.964604 -0.263643
-3.24883 36.8414 14.6317 0.00606732 -0.964236 -0.264975
-4.15751 36.6015 15.472 0.0203532 -0.959992 -0.279285
-5.55956 36.178 16.7537 0.0453885 -0.958083 -0.282874
-6.72853 35.8003 17.822 0.0636692 -0.954643 -0.290866
-7.81637 35.4106 18.8071 0.0775859 -0.953438 -0.29144
-7.99884 35.3453 18.9724 0.0810749 -0.95045 -0.300118
-8.96776 35.3645 18.6479 0.0972835 -0.945159 -0.311787
-7.98332 35.7199 17.7567 0.0644431 -0.949327 -0.307611
-7.04662 36.0582 16.9088 0.0640903 -0.949812 -0.306185
-5.89628 36.4242 15.862 0.0456011 -0.958373 -0.281855
-4.97454 36.7152 15.0218 0.032979 -0.95926 -0.280592
-3.75792 37.0416 13.9038 0.00616279 -0.962787 -0.27019
-2.71668 37.3159 12.95 -0.00558724 -0.964604 -0.263643
-1.71503 37.5435 12.0269 -0.0173362 -0.966243 -0.257048
-1.59891 37.5699 11.9199 -0.0213538 -0.962676 -0.269814
-1.62238 37.9131 10.7565 -0.0310575 -0.961448 -0.273227
-3.05825 37.5637 12.0719 -0.0175552 -0.959184 -0.282237
-4.08922 37.2951 13.0152 -0.00898652 -0.958969 -0.283367
-5.08583 37.0346 13.9283 0.00527803 -0.958678 -0.284444
-6.28882 36.6639 15.0212 0.033076 -0.956487 -0.289893
-7.20304 36.3797 15.8546 0.0330773 -0.956487 -0.289893
-8.09007 36.0698 16.6544 0.0640903 -0.949812 -0.306185
-9.02677 35.7315 17.5022 0.0644431 -0.949327 -0.307611
-9.26121 35.6468 17.7144 0.0752486 -0.94759 -0.310502
-10.0582 35.7344 17.2314 0.0860459 -0.945732 -0.313349
-9.13352 36.0814 16.3999 0.0640899 -0.949812 -0.306185
-7.7643 36.5685 15.1676 0.0484144 -0.953534 -0.297371
-6.87097 36.8494 14.3553 0.031618 -0.953107 -0.300976
-5.28908 37.3302 12.9223 0.0195419 -0.958191 -0.285463
-4.17963 37.6234 11.907 -0.00898652 -0.958969 -0.283367
-3.26098 37.8599 11.0711 -0.00974261 -0.959386 -0.281929
-1.92979 38.1798 9.85314 -0.0310575 -0.961448 -0.273227
-1.74687 38.2215 9.68552 -0.0310585 -0.961448 -0.273226
-1.66151 38.5861 8.42611 -0.0462922 -0.960478 -0.274481
-2.92473 38.2935 9.58164 -0.0316657 -0.958799 -0.282316
-4.06057 38.0026 10.6131 -0.0136584 -0.957348 -0.288615
-4.97236 37.7681 11.4423 -0.00936463 -0.959178 -0.282648
-5.93791 37.4964 12.3198 0.0195433 -0.958191 -0.285463
-6.85801 37.2295 13.153 0.0255815 -0.955698 -0.293234
-7.93077 36.8869 14.1251 0.0362334 -0.953051 -0.300634
-8.99662 36.5221 15.0846 0.0496029 -0.946191 -0.319784
-10.1839 36.0937 16.1513 0.0636499 -0.941687 -0.330414
-10.815 35.8472 16.7151 0.0652752 -0.93909 -0.337414
-11.2433 36.1067 15.9102 0.0636478 -0.941687 -0.330416
-10.1838 36.5008 14.9625 0.062019 -0.944229 -0.323396
-9.28395 36.8202 14.1527 0.0408466 -0.952975 -0.300285
-7.84125 37.2914 12.8534 0.0362333 -0.953051 -0.300634
-6.6776 37.6397 11.8005 0.00709216 -0.950915 -0.309372
-5.77343 37.9119 10.9846 0.00207333 -0.953247 -0.302186
-4.10079 38.3571 9.46861 -0.0175717 -0.955249 -0.295282
-3.04273 38.6125 8.50813 -0.0267885 -0.959047 -0.281977
-2.24534 38.7988 7.7803 -0.0462895 -0.960477 -0.274484
-1.95192 39.1967 6.32507 -0.0572427 -0.958535 -0.279166
-2.86767 39.0031 7.16876 -0.0380647 -0.958342 -0.283075
-3.80971 38.7763 8.02371 -0.0267885 -0.959047 -0.281977
-4.7582 38.5497 8.88469 -0.022179 -0.957181 -0.288638
-6.49883 38.0768 10.4576 -0.00294678 -0.9555 -0.294975
-7.44668 37.7926 11.3129 0.00709216 -0.950915 -0.309372
-8.34515 37.5185 12.1206 0.0215678 -0.947898 -0.317843
-9.32335 37.1862 12.9981 0.0279456 -0.944745 -0.326612
-10.2454 36.8814 13.8276 0.045226 -0.949642 -0.310055
-11.2433 36.5138 14.7214 0.062019 -0.944229 -0.323396
-11.9146 36.2641 15.3218 0.0578197 -0.943447 -0.326442
-12.6359 36.4133 14.7775 0.0536189 -0.942639 -0.329479
-11.4814 36.8398 13.7451 0.0529813 -0.94052 -0.335582
-10.5053 37.1933 12.8764 0.0323819 -0.944784 -0.326091
-9.26491 37.6147 11.7637 0.0279464 -0.944745 -0.326613
-8.21087 37.9438 10.8183 0.0151876 -0.95093 -0.309034
-7.31158 38.2177 10.0094 0.00207309 -0.953247 -0.302186
-6.41878 38.4635 9.20425 -0.00294589 -0.9555 -0.294976
-5.52488 38.7149 8.39935 -0.0172467 -0.953474 -0.300982
-4.60544 38.9409 7.56613 -0.0325605 -0.955862 -0.292005
-3.67155 39.168 6.71878 -0.0380647 -0.958342 -0.283075
-2.69133 39.38 5.81983 -0.039533 -0.960899 -0.274062
-2.21961 39.4793 5.38486 -0.063395 -0.961952 -0.265761
-2.66589 39.7249 4.61156 -0.0716844 -0.956941 -0.281291
-3.6209 39.5177 5.48513 -0.0435676 -0.960711 -0.274111
-5.18296 39.1608 6.91076 -0.0281029 -0.956028 -0.291926
-6.2911 38.8825 7.91253 -0.0172467 -0.953474 -0.300982
-7.18517 38.6301 8.71739 -0.0108518 -0.950649 -0.31008
-8.94993 38.1007 10.2993 0.0113115 -0.948313 -0.317135
-9.86694 37.8188 11.1218 0.0215679 -0.947898 -0.317843
-10.7988 37.4994 11.9549 0.0368173 -0.944802 -0.325566
-11.6861 37.1924 12.7453 0.0445828 -0.941646 -0.333639
-12.9343 36.7188 13.8549 0.0529811 -0.94052 -0.335582
-13.1469 37.0684 12.8622 0.0543463 -0.938452 -0.341107
-11.5581 37.6444 11.4483 0.0368188 -0.944802 -0.325566
-10.6218 37.974 10.6161 0.0248929 -0.942916 -0.332099
-9.72945 38.2594 9.81992 0.00743054 -0.945613 -0.325208
-8.83262 38.5425 9.01726 0.00181555 -0.94824 -0.317549
-7.63212 38.8878 7.94317 -0.0073272 -0.950718 -0.309972
-6.38651 39.2185 6.8193 -0.0236438 -0.956173 -0.291845
-5.27361 39.5003 5.81399 -0.0373643 -0.953117 -0.300287
-3.91953 39.8051 4.58002 -0.0523888 -0.95485 -0.292434
-2.67453 40.067 3.45013 -0.0716844 -0.956941 -0.281291
-3.23517 40.2968 2.78842 -0.0603084 -0.95764 -0.281583
-4.24981 40.0907 3.70696 -0.0563485 -0.956267 -0.287015
-5.17223 39.8836 4.54825 -0.0475094 -0.955064 -0.292567
-6.35318 39.6013 5.61453 -0.0320964 -0.950892 -0.307853
-7.59065 39.2818 6.73032 -0.0272217 -0.951069 -0.307777
-8.70564 38.9626 7.72683 -0.00380256 -0.950775 -0.30986
-10.0822 38.5529 8.95858 0.0131431 -0.945724 -0.324704
-11.1065 38.2203 9.86925 0.0188551 -0.945804 -0.324189
-12.2152 37.8355 10.8541 0.0309309 -0.939926 -0.339974
-13.4262 37.3912 11.9265 0.0542613 -0.936233 -0.347166
-13.9289 37.6408 11.1933 0.0521682 -0.933877 -0.353769
-12.9689 37.9925 10.3456 0.0420381 -0.939616 -0.339639
-11.4173 38.5231 8.96786 0.0188551 -0.945804 -0.324189
-10.3485 38.8747 8.0193 0.00889651 -0.943711 -0.330652
-8.84857 39.3193 6.6822 -0.0109325 -0.946243 -0.323272
-7.69781 39.6328 5.6531 -0.0223464 -0.951223 -0.307694
-6.35022 39.9699 4.43823 -0.0426288 -0.955256 -0.292694
-5.18833 40.2396 3.38865 -0.0475094 -0.955064 -0.292567
-4.15149 40.4544 2.4487 -0.066429 -0.954402 -0.29104
-2.98166 40.6992 1.39162 -0.0764872 -0.952649 -0.294294
-2.91851 41.0637 0.166687 -0.0899744 -0.953868 -0.286429
-3.99229 40.8551 1.14217 -0.0725448 -0.951033 -0.300454
-5.22867 40.5964 2.25937 -0.0656772 -0.951399 -0.300875
-6.40446 40.3259 3.31542 -0.0536618 -0.948968 -0.310773
-7.53427 40.0562 4.33404 -0.0496254 -0.949041 -0.311222
-8.45368 39.8113 5.15628 -0.0223464 -0.951223 -0.307694
-10.083 39.3573 6.61267 -0.00351784 -0.946198 -0.323569
-10.996 39.0767 7.42132 0.00389705 -0.946099 -0.323853
-11.9879 38.7498 8.30036 0.0138912 -0.941249 -0.337428
-12.9156 38.4392 9.12147 0.0326538 -0.935623 -0.351486
-13.7532 38.1326 9.86101 0.0420372 -0.939616 -0.339638
-14.1451 38.4302 9.03116 0.0326164 -0.935701 -0.351282
-12.9917 38.8398 8.01691 0.00911569 -0.940741 -0.339003
-12.0442 39.1512 7.17841 0.0115013 -0.940999 -0.338215
-11.0439 39.463 6.29238 0.00389705 -0.946099 -0.323853
-10.1309 39.7436 5.48372 -0.00351784 -0.946198 -0.323569
-9.18118 40.0059 4.63817 -0.0311417 -0.944021 -0.328413
-8.27082 40.2576 3.82825 -0.0383674 -0.946621 -0.320058
-7.1733 40.5249 2.84052 -0.0536632 -0.948968 -0.310772
-5.58006 40.8865 1.41152 -0.0588085 -0.951721 -0.301277
-4.55697 41.1042 0.489743 -0.0764872 -0.952649 -0.294294
-3.1907 41.3644 -0.753191 -0.0822182 -0.952647 -0.292754
-2.98054 41.4013 -0.945357 -0.103252 -0.954 -0.281465
-2.74382 41.7868 -2.33202 -0.105998 -0.953225 -0.283068
-3.6894 41.6307 -1.46412 -0.0840049 -0.951055 -0.297385
-5.3026 41.3152 0.000691033 -0.0865341 -0.950503 -0.298422
-6.4254 41.0673 1.00559 -0.0588085 -0.951721 -0.301277
-7.50477 40.8283 1.9713 -0.0562378 -0.950359 -0.30603
-8.5175 40.5801 2.88219 -0.0455885 -0.949099 -0.31166
-9.62124 40.2883 3.86826 -0.0309236 -0.94405 -0.32835
-10.614 40.0147 4.74786 -0.0205581 -0.942052 -0.334835
-12.1121 39.553 6.07075 -0.0106743 -0.940641 -0.339236
-13.0513 39.2428 6.89697 0.00934948 -0.9393 -0.342969
-14.1614 38.8638 7.87603 0.0326876 -0.935545 -0.351691
-14.2884 39.2586 6.81852 0.0176828 -0.93238 -0.361047
-13.3433 39.5758 5.98888 0.00958672 -0.937842 -0.346931
-12.4101 39.8822 5.16738 -0.0105408 -0.940264 -0.340284
-11.2889 40.2279 4.18132 -0.0104075 -0.939885 -0.341332
-10.3524 40.4913 3.35264 -0.0307056 -0.944079 -0.328288
-9.288 40.78 2.40872 -0.0463118 -0.945518 -0.32226
-7.90138 41.1198 1.16665 -0.0617273 -0.94651 -0.316715
-6.69588 41.39 0.0888721 -0.069871 -0.946389 -0.315381
-5.65697 41.614 -0.841772 -0.0815963 -0.949756 -0.302169
-4.3507 41.8653 -2.02742 -0.0865341 -0.950503 -0.298422
-3.30561 42.0479 -2.98182 -0.108107 -0.949421 -0.294809
-3.1577 42.4333 -4.27744 -0.114537 -0.950537 -0.288723
-4.1229 42.2695 -3.39689 -0.107272 -0.949603 -0.294527
-5.10699 42.0878 -2.5042 -0.0894158 -0.947902 -0.305756
-6.41213 41.8281 -1.32508 -0.0741222 -0.949508 -0.304862
-8.06227 41.4697 0.15255 -0.0617291 -0.94651 -0.316715
-9.39408 41.1467 1.33816 -0.0544053 -0.947286 -0.315736
-10.7536 40.7843 2.54561 -0.0307174 -0.944499 -0.327074
-12.2047 40.3668 3.82667 -0.0121271 -0.939636 -0.341961
-13.5088 39.9602 4.97056 -0.000915361 -0.936049 -0.351869
-14.43 39.6538 5.78002 -0.000324022 -0.935127 -0.354314
-14.5494 39.6141 5.88493 0.00859967 -0.93398 -0.357223
-14.8775 39.9459 5.00965 0.00860038 -0.933978 -0.357226
-13.5528 40.3787 3.84874 -0.00767716 -0.938197 -0.346018
-12.4325 40.7255 2.86597 -0.0200192 -0.93673 -0.349479
-11.365 41.0275 1.92622 -0.0436231 -0.939766 -0.339022
-10.3469 41.305 1.0259 -0.0447008 -0.940653 -0.336414
-9.30151 41.5609 0.0984092 -0.0664691 -0.942614 -0.327201
-8.22316 41.8195 -0.861549 -0.0617291 -0.94651 -0.316715
-7.30207 42.0162 -1.68661 -0.0839786 -0.943798 -0.319678
-5.91579 42.302 -2.93181 -0.0926038 -0.947266 -0.306775
-4.41482 42.5804 -4.29302 -0.10727 -0.949603 -0.294528
-3.10154 42.7919 -5.4878 -0.126447 -0.948896 -0.289149
-2.57922 42.8679 -5.96539 -0.126447 -0.948896 -0.289149
-1.83054 43.3229 -7.80605 -0.136952 -0.94927 -0.283073
-2.8531 43.1794 -6.87259 -0.127614 -0.949752 -0.285807
-3.8406 43.0374 -5.9701 -0.116901 -0.949149 -0.29232
-5.16635 42.8131 -4.76772 -0.112122 -0.948118 -0.297492
-6.32318 42.6004 -3.72253 -0.0957901 -0.94662 -0.30779
-7.73922 42.3133 -2.44881 -0.0839786 -0.943798 -0.319678
-8.75581 42.0952 -1.54136 -0.0742767 -0.942464 -0.325953
-10.3763 41.7064 -0.102191 -0.0561284 -0.942128 -0.330521
-11.283 41.468 0.694548 -0.0447008 -0.940653 -0.336414
-12.3011 41.1905 1.59486 -0.0436231 -0.939766 -0.339022
-13.3675 40.8715 2.52701 -0.0210822 -0.938038 -0.345891
-14.7104 40.4445 3.70343 -0.009087 -0.932936 -0.359927
-14.9439 40.3679 3.9078 -0.00600636 -0.933051 -0.359695
-14.8316 40.8516 2.65125 -0.00600529 -0.93305 -0.359697
-13.666 41.2083 1.63197 -0.0210822 -0.938038 -0.345891
-12.6267 41.5199 0.723657 -0.0323549 -0.938968 -0.342481
-11.6512 41.7803 -0.13578 -0.0457782 -0.941531 -0.333802
-10.6772 42.0363 -0.991631 -0.0561284 -0.942128 -0.330521
-9.53961 42.3119 -1.99833 -0.066244 -0.940795 -0.33244
-8.52281 42.5358 -2.90362 -0.0823015 -0.94403 -0.319429
-6.91146 42.8668 -4.34629 -0.0976351 -0.944144 -0.314737
-5.8986 43.0587 -5.25844 -0.1169 -0.946902 -0.299517
-4.15163 43.3445 -6.84393 -0.112123 -0.948117 -0.297494
-3.1356 43.4891 -7.77099 -0.139156 -0.943949 -0.299325
-2.14737 43.6293 -8.67271 -0.146732 -0.945087 -0.292029
-1.27238 43.7345 -9.4913 -0.146329 -0.948763 -0.280065
-1.1185 44.1039 -10.7958 -0.162399 -0.944074 -0.286968
-2.27504 43.9652 -9.71953 -0.15431 -0.946129 -0.284655
-3.74838 43.7675 -8.36393 -0.139156 -0.943949 -0.299325
-4.783 43.6153 -7.41956 -0.126515 -0.943796 -0.305357
-5.69205 43.4597 -6.59981 -0.120233 -0.942374 -0.312212
-6.66164 43.2993 -5.72122 -0.107276 -0.945595 -0.30715
-7.73104 43.0909 -4.76126 -0.100498 -0.943609 -0.315441
-8.78216 42.8753 -3.82335 -0.0849503 -0.940296 -0.329587
-9.90456 42.63 -2.82592 -0.0742752 -0.942464 -0.325951
-11.0009 42.3661 -1.85749 -0.0679753 -0.940521 -0.332867
-12.2024 42.0537 -0.801881 -0.0540657 -0.936056 -0.347674
-13.2558 41.7663 0.117792 -0.0386509 -0.931898 -0.360655
-14.4476 41.4131 1.15944 -0.0386887 -0.932038 -0.36029
-15.3456 41.1407 1.93971 -0.0173371 -0.928307 -0.371409
-15.4547 41.5567 0.881249 -0.0226622 -0.931237 -0.363709
-14.4711 41.8527 0.0248506 -0.0386511 -0.931899 -0.360653
-13.3011 42.1876 -0.98969 -0.055044 -0.935955 -0.34779
-12.0174 42.5295 -2.11168 -0.0610248 -0.938338 -0.340291
-10.5204 42.8956 -3.42887 -0.0793747 -0.937827 -0.337904
-9.56784 43.1037 -4.27231 -0.0849491 -0.940295 -0.329588
-8.36592 43.3533 -5.34374 -0.100499 -0.943609 -0.31544
-7.24359 43.5735 -6.3465 -0.111556 -0.940951 -0.319634
-5.86028 43.8102 -7.5928 -0.120233 -0.942374 -0.312212
-4.40135 44.0355 -8.91991 -0.132786 -0.945135 -0.298474
-3.37293 44.1861 -9.85858 -0.146736 -0.945086 -0.29203
-1.81484 44.3754 -11.3009 -0.15536 -0.943436 -0.292904
-0.75719 44.4819 -12.2841 -0.169426 -0.944631 -0.28101
-0.345001 44.8669 -13.8206 -0.186562 -0.941458 -0.280806
-1.31094 44.7708 -12.921 -0.176712 -0.939999 -0.291847
-2.23619 44.6805 -12.06 -0.162402 -0.944073 -0.286969
-3.1896 44.5667 -11.1795 -0.164032 -0.94069 -0.296978
-4.20401 44.438 -10.2472 -0.14339 -0.939866 -0.309987
-5.11916 44.2962 -9.41517 -0.141231 -0.938437 -0.315262
-6.10294 44.1479 -8.51866 -0.126515 -0.943796 -0.305357
-7.72763 43.8701 -7.05703 -0.119471 -0.942524 -0.312049
-8.70178 43.6794 -6.18865 -0.103628 -0.939263 -0.327179
-9.61343 43.4957 -5.37808 -0.0893698 -0.937288 -0.336905
-10.9286 43.2094 -4.21439 -0.0874867 -0.939895 -0.330067
-11.9141 42.9718 -3.34789 -0.0712519 -0.935636 -0.345701
-13.1452 42.6558 -2.27421 -0.0565807 -0.933392 -0.354369
-14.1963 42.3769 -1.35754 -0.0468283 -0.933911 -0.354425
-15.1813 42.0875 -0.505199 -0.0406988 -0.931448 -0.36159
-16.2461 41.7596 0.411144 -0.0226622 -0.931237 -0.363709
-16.3031 41.7418 0.460238 -0.0226606 -0.931237 -0.363709
-16.2744 42.2134 -0.70688 -0.0284832 -0.926086 -0.376236
-14.9129 42.6109 -1.88251 -0.0442161 -0.928407 -0.368924
-13.3407 43.0437 -3.24313 -0.0581172 -0.930781 -0.360928
-12.0075 43.3706 -4.40805 -0.072413 -0.935478 -0.345886
-10.9843 43.604 -5.30886 -0.0912477 -0.934627 -0.343723
-9.59505 43.9 -6.53503 -0.107166 -0.938626 -0.327866
-8.48152 44.1205 -7.5249 -0.111556 -0.940951 -0.319634
-7.55546 44.2798 -8.35695 -0.123811 -0.936762 -0.327335
-6.16141 44.5184 -9.60956 -0.138346 -0.938935 -0.315058
-5.11983 44.6798 -10.5566 -0.143389 -0.939865 -0.309988
-4.1491 44.8165 -11.4426 -0.145546 -0.941261 -0.304703
-3.1037 44.9395 -12.4077 -0.16462 -0.941132 -0.295248
-1.96228 45.0628 -13.467 -0.176714 -0.939999 -0.291847
-0.704568 45.183 -14.6416 -0.186562 -0.941458 -0.280806
-0.170117 45.2219 -15.1486 -0.19446 -0.940944 -0.277146
0.194311 45.581 -16.6636 -0.200511 -0.940567 -0.274098
-1.06413 45.4992 -15.4626 -0.186563 -0.941458 -0.280803
-2.54746 45.3614 -14.0746 -0.183128 -0.940302 -0.286872
-3.5853 45.2439 -13.1133 -0.165205 -0.94157 -0.293518
-5.06492 45.0583 -11.752 -0.145546 -0.941261 -0.304703
-6.02388 44.9236 -10.8766 -0.1471 -0.936539 -0.318208
-7.1702 44.7407 -9.83887 -0.135459 -0.939425 -0.31485
-8.26276 44.5491 -8.85986 -0.123811 -0.936762 -0.327335
-9.57396 44.3028 -7.69497 -0.109527 -0.935466 -0.336016
-10.822 44.0584 -6.58754 -0.0992112 -0.936689 -0.335815
-12.4496 43.693 -5.15931 -0.0850255 -0.932118 -0.352031
-13.3754 43.4589 -4.35576 -0.0755092 -0.932538 -0.353089
-14.3892 43.1983 -3.47313 -0.0597808 -0.930572 -0.361196
-15.4071 42.9237 -2.59323 -0.0535479 -0.92805 -0.368585
-16.6359 42.5566 -1.53946 -0.0442161 -0.928407 -0.368924
-17.0066 42.4445 -1.2202 -0.030092 -0.925954 -0.376435
-17.4724 42.7716 -1.95891 -0.0432773 -0.922567 -0.383403
-16.0294 43.1983 -3.19417 -0.0535479 -0.92805 -0.368585
-14.6058 43.5876 -4.42158 -0.0719886 -0.927206 -0.367569
-13.4751 43.872 -5.40109 -0.0774417 -0.929699 -0.360088
-12.2913 44.1468 -6.43487 -0.0925975 -0.93442 -0.343926
-10.5852 44.5119 -7.93257 -0.111882 -0.93223 -0.344137
-9.44929 44.7372 -8.93586 -0.128624 -0.93571 -0.328486
-8.22284 44.9528 -10.0303 -0.126218 -0.936239 -0.327911
-6.81064 45.1884 -11.3031 -0.138301 -0.935339 -0.325598
-5.73826 45.3414 -12.2806 -0.15588 -0.937614 -0.310775
-4.59409 45.4937 -13.3267 -0.173877 -0.936166 -0.30555
-3.44322 45.6287 -14.3893 -0.172022 -0.936581 -0.305326
-2.33509 45.7353 -15.4258 -0.187596 -0.938678 -0.289294
-1.21922 45.8302 -16.4753 -0.206427 -0.937235 -0.28103
0.223399 45.9275 -17.8446 -0.202685 -0.938282 -0.280259
0.266679 45.9299 -17.886 -0.218323 -0.938979 -0.265807
0.947757 46.2904 -19.7039 -0.219424 -0.936946 -0.272001
-0.330112 46.2347 -18.4726 -0.210518 -0.938683 -0.273049
-1.60781 46.1526 -17.2567 -0.210164 -0.936174 -0.281796
-2.57679 46.0742 -16.3446 -0.189272 -0.934449 -0.30163
-3.801 45.959 -15.2008 -0.17982 -0.937689 -0.297328
-5.14411 45.8039 -13.9598 -0.175731 -0.935745 -0.305777
-6.33419 45.6427 -12.8751 -0.15763 -0.932674 -0.324457
-7.6368 45.4466 -11.6941 -0.141866 -0.93445 -0.326616
-8.63331 45.2863 -10.7948 -0.1377 -0.932516 -0.333846
-10.321 44.9824 -9.29323 -0.120261 -0.934033 -0.336334
-11.2909 44.7838 -8.43969 -0.112032 -0.932204 -0.344157
-12.5763 44.51 -7.31558 -0.0979511 -0.92768 -0.360299
-13.5469 44.2851 -6.4726 -0.0952809 -0.93109 -0.352127
-14.5282 44.046 -5.62134 -0.0791831 -0.92948 -0.360273
-15.5026 43.7959 -4.78054 -0.0647835 -0.924831 -0.374821
-16.6323 43.4829 -3.80963 -0.0618918 -0.92202 -0.382163
-17.6787 43.1736 -2.91819 -0.0508177 -0.924954 -0.376666
-17.958 43.5596 -3.80877 -0.0534317 -0.919878 -0.388547
-16.5649 43.9606 -4.99699 -0.0703474 -0.924054 -0.375733
-15.2195 44.3171 -6.15406 -0.0857355 -0.921918 -0.377778
-13.716 44.6819 -7.44845 -0.0983198 -0.927625 -0.360341
-12.3165 44.9916 -8.66862 -0.112032 -0.932205 -0.344156
-11.0642 45.2467 -9.76747 -0.116685 -0.927797 -0.35437
-10.0576 45.4352 -10.6586 -0.129956 -0.931392 -0.340029
-8.49677 45.7068 -12.0536 -0.147238 -0.930954 -0.334133
-7.15881 45.9153 -13.2581 -0.159958 -0.932122 -0.324903
-6.16677 46.06 -14.156 -0.166694 -0.934289 -0.315146
-4.92951 46.2014 -15.2997 -0.178477 -0.9321 -0.315177
-3.9643 46.306 -16.192 -0.194489 -0.932946 -0.302962
-2.65791 46.4337 -17.4076 -0.199741 -0.935409 -0.291744
-1.46406 46.5082 -18.5454 -0.211221 -0.93423 -0.287403
-0.296762 46.5703 -19.6643 -0.225334 -0.935089 -0.273557
0.830074 46.6213 -20.749 -0.227952 -0.937089 -0.264388
1.22308 46.9539 -22.3016 -0.238413 -0.934276 -0.265119
0.279097 46.9324 -21.3771 -0.237433 -0.935703 -0.260933
-0.606638 46.8992 -20.5193 -0.231235 -0.933194 -0.275099
-1.53229 46.8627 -19.6238 -0.212272 -0.932251 -0.293
-3.08175 46.754 -18.1553 -0.211224 -0.934229 -0.287403
-4.15426 46.6599 -17.1507 -0.199699 -0.931414 -0.304284
-5.07163 46.5765 -16.2933 -0.19047 -0.929972 -0.314442
-6.77358 46.3643 -14.736 -0.182683 -0.928024 -0.324651
-8.23492 46.157 -13.4132 -0.162284 -0.931565 -0.325347
-9.40737 45.9657 -12.3609 -0.148139 -0.928474 -0.340576
-10.3896 45.7955 -11.4875 -0.143852 -0.926055 -0.348896
-11.8371 45.5226 -10.209 -0.123741 -0.924907 -0.359492
-13.4783 45.173 -8.77732 -0.123145 -0.922908 -0.364797
-14.4081 44.9604 -7.97558 -0.0986844 -0.92757 -0.360383
-15.7089 44.6499 -6.85507 -0.0857339 -0.921918 -0.377778
-16.6327 44.4073 -6.06175 -0.0727614 -0.91897 -0.387557
-17.7593 44.0932 -5.09945 -0.0618948 -0.922021 -0.382161
-18.5094 43.8732 -4.46518 -0.065325 -0.917564 -0.392186
-19.0766 44.1892 -5.11005 -0.0653236 -0.917563 -0.392187
-18.1004 44.4736 -5.92591 -0.0746638 -0.915561 -0.395187
-16.7594 44.8343 -7.07397 -0.0857517 -0.920546 -0.381105
-15.7132 45.0986 -7.97385 -0.102505 -0.922683 -0.371683
-14.6521 45.3535 -8.87938 -0.106305 -0.917644 -0.382922
-13.4893 45.6123 -9.88378 -0.124965 -0.922558 -0.365062
-12.2035 45.878 -11.0075 -0.126158 -0.926529 -0.354441
-10.8492 46.1361 -12.2021 -0.145547 -0.927354 -0.344719
-9.26858 46.4011 -13.6081 -0.148138 -0.928473 -0.340578
-8.30438 46.547 -14.4744 -0.168471 -0.923841 -0.343709
-6.58627 46.7805 -16.0311 -0.182683 -0.928024 -0.324651
-4.92149 46.9613 -17.5699 -0.1997 -0.931413 -0.304285
-3.81855 47.0695 -18.5955 -0.213302 -0.927524 -0.306923
-2.80666 47.1325 -19.5591 -0.218431 -0.930267 -0.294775
-1.39071 47.2101 -20.9149 -0.232372 -0.931361 -0.280302
-0.382568 47.2557 -21.8881 -0.241601 -0.930358 -0.275796
0.566189 47.2695 -22.8232 -0.238413 -0.934276 -0.265119
1.51753 47.2911 -23.7548 -0.247923 -0.935003 -0.253583
2.26172 47.2796 -24.5019 -0.257378 -0.93552 -0.241988
2.73753 47.5799 -26.1643 -0.26203 -0.934723 -0.240067
1.7743 47.5936 -25.1953 -0.257484 -0.935298 -0.242732
0.860634 47.6068 -24.2764 -0.247923 -0.935003 -0.253583
-0.088377 47.5922 -23.3417 -0.249664 -0.931065 -0.266056
-1.03686 47.5793 -22.4063 -0.241604 -0.930357 -0.275797
-2.1649 47.5282 -21.3174 -0.240397 -0.927114 -0.287523
-3.5132 47.4528 -20.0264 -0.224579 -0.92824 -0.296537
-4.5977 47.3774 -18.9986 -0.201975 -0.926589 -0.317236
-6.29873 47.2073 -17.419 -0.200844 -0.929024 -0.310767
-7.25485 47.0925 -16.5432 -0.184163 -0.927694 -0.324759
-8.15922 46.9824 -15.7158 -0.176331 -0.925839 -0.33426
-9.83907 46.732 -14.2124 -0.165472 -0.921041 -0.352565
-10.7979 46.5649 -13.3648 -0.158969 -0.918926 -0.360976
-11.7564 46.398 -12.518 -0.15093 -0.916726 -0.36991
-12.9738 46.1602 -11.4487 -0.141101 -0.920515 -0.364338
-13.9755 45.9521 -10.5761 -0.125309 -0.92086 -0.369208
-15.6044 45.5857 -9.17135 -0.106307 -0.917644 -0.382922
-16.6594 45.3343 -8.27284 -0.099298 -0.915045 -0.390939
-18.0484 44.9657 -7.08548 -0.0869844 -0.917457 -0.388208
-19.0103 44.691 -6.27597 -0.0656269 -0.915102 -0.397846
-19.9245 44.4246 -5.51251 -0.0755299 -0.911823 -0.403576
-20.3572 44.8046 -6.26567 -0.0854221 -0.908415 -0.409249
-18.9597 45.1978 -7.4301 -0.0851728 -0.906688 -0.413113
-17.6073 45.5591 -8.57225 -0.094612 -0.912563 -0.397842
-16.6188 45.8061 -9.41316 -0.108308 -0.917208 -0.383404
-15.5698 46.0555 -10.3061 -0.114529 -0.911831 -0.394268
-14.5956 46.2691 -11.1476 -0.125653 -0.919143 -0.373347
-13.5307 46.493 -12.0738 -0.14244 -0.917401 -0.3716
-12.4669 46.7095 -13 -0.15093 -0.916726 -0.36991
-11.5151 46.8742 -13.8362 -0.158516 -0.919014 -0.360952
-10.5532 47.0418 -14.6865 -0.165472 -0.921041 -0.352566
-8.9487 47.2772 -16.1198 -0.175512 -0.91862 -0.354024
-7.42956 47.4784 -17.5003 -0.194287 -0.918236 -0.345101
-6.1964 47.6094 -18.6386 -0.21822 -0.92088 -0.323048
-4.95965 47.7269 -19.7891 -0.213302 -0.927524 -0.306923
-4.06386 47.7864 -20.6397 -0.226105 -0.924422 -0.307115
-3.14961 47.8505 -21.5057 -0.236715 -0.924636 -0.298353
-1.78047 47.901 -22.8364 -0.247273 -0.924928 -0.28873
-0.864713 47.9205 -23.7341 -0.259795 -0.923449 -0.282399
0.489409 47.9322 -25.0756 -0.272354 -0.92749 -0.256096
1.41167 47.9132 -26.0086 -0.276444 -0.926744 -0.254409
2.27931 47.8953 -26.8863 -0.277765 -0.928412 -0.246773
3.19174 47.8562 -27.8221 -0.26816 -0.937091 -0.223494
3.30715 47.8514 -27.9404 -0.26816 -0.937092 -0.223493
3.70684 48.1247 -29.5498 -0.289105 -0.931724 -0.219792
2.85465 48.1714 -28.6669 -0.285649 -0.928807 -0.236054
1.99642 48.2112 -27.7848 -0.282361 -0.929421 -0.237591
1.11286 48.241 -26.8781 -0.276444 -0.926744 -0.254409
0.190592 48.26 -25.9452 -0.272354 -0.92749 -0.256095
-0.905958 48.2705 -24.8417 -0.26826 -0.928218 -0.257777
-1.96475 48.2507 -23.8019 -0.253536 -0.924336 -0.28517
-2.90355 48.2179 -22.8902 -0.247267 -0.925179 -0.28793
-4.47826 48.1335 -21.3796 -0.226105 -0.924423 -0.307115
-5.51685 48.0689 -20.389 -0.232875 -0.916613 -0.324945
-6.43638 47.982 -19.5387 -0.218219 -0.92088 -0.323049
-7.37732 47.8974 -18.6617 -0.206948 -0.920431 -0.331631
-8.36382 47.7743 -17.7615 -0.194961 -0.91902 -0.342625
-9.40013 47.6429 -16.8163 -0.189332 -0.915536 -0.354892
-10.3416 47.4952 -15.982 -0.179048 -0.914072 -0.363888
-11.2674 47.3516 -15.1606 -0.165472 -0.921041 -0.352566
-12.2226 47.1862 -14.3209 -0.158065 -0.9191 -0.36093
-13.1774 47.0209 -13.482 -0.150929 -0.916726 -0.369911
-14.6028 46.732 -12.2432 -0.142535 -0.913003 -0.382241
-16.169 46.3969 -10.8913 -0.12768 -0.909468 -0.395683
-17.6324 46.0376 -9.6512 -0.11487 -0.906729 -0.405768
-18.9575 45.6989 -8.53326 -0.109719 -0.908051 -0.404235
-20.2668 45.3318 -7.45464 -0.0851728 -0.906688 -0.413113
-21.3234 45.0345 -6.57421 -0.0715805 -0.905683 -0.417869
-21.8268 45.3946 -7.2685 -0.0715805 -0.905683 -0.417869
-20.706 45.7122 -8.19087 -0.0849236 -0.904944 -0.416971
-19.5622 46.0371 -9.12881 -0.097332 -0.906586 -0.410644
-17.8131 46.4811 -10.5925 -0.109008 -0.907142 -0.406462
-16.62 46.7656 -11.6052 -0.134613 -0.912519 -0.386249
-15.5527 46.9957 -12.5207 -0.136922 -0.9084 -0.395048
-13.9188 47.3284 -13.9362 -0.160042 -0.906068 -0.391697
-12.9556 47.5045 -14.7737 -0.172472 -0.9057 -0.387248
-12.0181 47.6751 -15.5901 -0.179936 -0.90883 -0.376366
-10.9838 47.831 -16.5095 -0.183207 -0.912941 -0.364655
-9.96834 47.9903 -17.4093 -0.189332 -0.915536 -0.354892
-8.6021 48.1585 -18.6572 -0.200573 -0.918413 -0.341011
-7.66415 48.2658 -19.5182 -0.219217 -0.918349 -0.329512
-6.1867 48.4094 -20.878 -0.220201 -0.915774 -0.33596
-5.13703 48.4765 -21.8771 -0.245484 -0.917193 -0.313839
-4.19782 48.5333 -22.7732 -0.259968 -0.913846 -0.311932
-3.22378 48.5629 -23.7236 -0.247267 -0.925179 -0.28793
-2.28498 48.5957 -24.6354 -0.253537 -0.924335 -0.285172
-1.20477 48.5983 -25.7113 -0.26826 -0.928218 -0.257777
-0.108225 48.5878 -26.8148 -0.272354 -0.92749 -0.256095
0.783409 48.5603 -27.7269 -0.279069 -0.930022 -0.239122
1.66152 48.529 -28.6299 -0.282361 -0.929421 -0.237588
2.51534 48.4841 -29.5125 -0.288011 -0.931939 -0.220315
4.15959 48.3784 -31.2269 -0.290197 -0.931508 -0.219268
4.21925 48.3744 -31.289 -0.2911 -0.932915 -0.211968
5.15056 48.5634 -33.4917 -0.297378 -0.934035 -0.197851
4.20833 48.6426 -32.4976 -0.29199 -0.934269 -0.204652
3.12666 48.7306 -31.356 -0.291103 -0.932914 -0.211967
2.17147 48.7919 -30.3588 -0.305882 -0.923086 -0.233126
1.12514 48.8608 -29.2638 -0.300311 -0.92195 -0.244587
0.129801 48.9004 -28.2381 -0.298523 -0.919926 -0.254205
-0.771306 48.9324 -27.3104 -0.287579 -0.919689 -0.267339
-1.75468 48.9377 -26.3231 -0.283667 -0.917852 -0.277634
-2.66325 48.9439 -25.4088 -0.284208 -0.914427 -0.288183
-3.66471 48.9192 -24.4248 -0.27338 -0.913387 -0.301642
-4.68474 48.894 -23.424 -0.259968 -0.913846 -0.311932
-5.67069 48.8307 -22.49 -0.24648 -0.914044 -0.322134
-6.61036 48.7738 -21.5935 -0.232876 -0.916613 -0.324946
-7.51844 48.6856 -20.7576 -0.242037 -0.90806 -0.341826
-8.50233 48.6024 -19.8398 -0.229489 -0.905703 -0.356423
-9.51774 48.4698 -18.9232 -0.216853 -0.903005 -0.370886
-10.4252 48.3513 -18.1041 -0.20875 -0.910868 -0.35601
-11.6507 48.1694 -17.0121 -0.187364 -0.911793 -0.365415
-12.5773 48.0298 -16.1885 -0.187363 -0.911793 -0.365415
-13.7107 47.8297 -15.1979 -0.172472 -0.9057 -0.387248
-14.8975 47.6051 -14.1764 -0.160042 -0.906068 -0.391697
-15.8515 47.4117 -13.3492 -0.149078 -0.904587 -0.399373
-16.802 47.1982 -12.5434 -0.139212 -0.904189 -0.403809
-17.8079 46.9715 -11.6884 -0.11487 -0.906729 -0.405768
-18.8427 46.7101 -10.8276 -0.109008 -0.907142 -0.406462
-19.976 46.4274 -9.88342 -0.119873 -0.893844 -0.432057
-21.054 46.128 -8.99913 -0.106847 -0.895124 -0.432824
-22.141 45.8258 -8.10596 -0.0963344 -0.895052 -0.435433
-22.562 45.7004 -7.76724 -0.0814828 -0.891891 -0.444849
-23.4037 45.9813 -8.17624 -0.0814813 -0.891892 -0.444847
-22.4612 46.262 -8.9344 -0.0858092 -0.894875 -0.43799
-21.2814 46.5918 -9.90229 -0.106847 -0.895124 -0.432824
-20.2757 46.8694 -10.7147 -0.119873 -0.893844 -0.432057
-19.1704 47.144 -11.636 -0.133944 -0.894194 -0.427171
-18.1177 47.4019 -12.5042 -0.149331 -0.894554 -0.421276
-17.1662 47.602 -13.3156 -0.16493 -0.895142 -0.414148
-16.2156 47.8131 -14.1224 -0.149076 -0.904588 -0.399371
-15.1525 48.0196 -15.0385 -0.161159 -0.907246 -0.3885
-13.9176 48.2545 -16.0994 -0.166818 -0.906488 -0.38788
-12.7041 48.4496 -17.1711 -0.193914 -0.903275 -0.382742
-11.2565 48.6899 -18.4338 -0.210753 -0.898346 -0.385431
-10.1625 48.8285 -19.4196 -0.216853 -0.903005 -0.370886
-9.15183 48.9605 -20.3319 -0.216853 -0.903005 -0.370886
-8.16323 49.0444 -21.254 -0.242037 -0.90806 -0.341826
-7.15176 49.133 -22.1952 -0.261734 -0.90079 -0.346516
-6.15762 49.1913 -23.1408 -0.24648 -0.914044 -0.322134
-5.17167 49.2546 -24.0748 -0.259968 -0.913846 -0.311933
-4.22692 49.278 -25.0017 -0.27338 -0.913387 -0.301642
-3.22866 49.3024 -25.9888 -0.284208 -0.914427 -0.288183
-1.65269 49.287 -27.5821 -0.287582 -0.919688 -0.267339
-0.677678 49.2581 -28.5842 -0.294992 -0.920676 -0.255607
0.184415 49.2219 -29.4742 -0.302068 -0.923881 -0.234945
1.08382 49.1668 -30.4159 -0.305882 -0.923086 -0.233126
2.08131 49.0998 -31.4596 -0.307216 -0.924545 -0.225466
3.01962 49.0198 -32.4542 -0.31064 -0.925501 -0.216682
4.1524 48.9206 -33.6545 -0.310559 -0.926204 -0.213774
5.10614 48.8244 -34.6715 -0.302526 -0.932297 -0.198243
5.93953 48.7423 -35.5571 -0.30696 -0.93275 -0.189087
6.06526 48.9657 -36.9336 -0.311359 -0.933107 -0.179909
5.13536 49.0824 -35.9294 -0.306956 -0.932751 -0.189087
3.97622 49.2093 -34.6876 -0.32164 -0.925555 -0.19974
3.09455 49.2955 -33.7448 -0.310473 -0.9269 -0.210862
1.88998 49.4004 -32.4665 -0.30853 -0.925946 -0.217792
1.044 49.4713 -31.5694 -0.307214 -0.924546 -0.225466
0.051042 49.534 -30.53 -0.302068 -0.923881 -0.234944
-0.93904 49.5941 -29.4932 -0.30031 -0.92195 -0.244587
-2.42299 49.6434 -27.9644 -0.303774 -0.911396 -0.27763
-3.42009 49.6557 -26.9493 -0.29502 -0.914289 -0.277559
-4.71423 49.6384 -25.6581 -0.273331 -0.914354 -0.298742
-5.6586 49.6153 -24.7255 -0.259968 -0.913846 -0.311933
-6.66115 49.5621 -23.7681 -0.278024 -0.901173 -0.33255
-7.67486 49.5157 -22.7949 -0.261734 -0.90079 -0.346516
-8.78233 49.4081 -21.7722 -0.245323 -0.899992 -0.360321
-9.79192 49.3198 -20.8325 -0.229487 -0.905703 -0.356423
-10.8547 49.1836 -19.8743 -0.221047 -0.902013 -0.370825
-11.8027 49.065 -19.0207 -0.221048 -0.902013 -0.370824
-13.1272 48.8525 -17.8602 -0.200387 -0.894381 -0.399909
-14.1764 48.6854 -16.9448 -0.201542 -0.886348 -0.416855
-15.241 48.4799 -16.0367 -0.185938 -0.891202 -0.413747
-16.476 48.245 -14.9756 -0.178003 -0.892099 -0.4153
-17.5317 48.0232 -14.0805 -0.16493 -0.895142 -0.414148
-18.4831 47.8231 -13.2691 -0.149332 -0.894554 -0.421275
-19.4995 47.5767 -12.4375 -0.133691 -0.893701 -0.428282
-20.5753 47.3114 -11.5459 -0.119873 -0.893844 -0.432057
-21.5717 47.0367 -10.7429 -0.105773 -0.893295 -0.436848
-22.5957 46.7535 -9.91228 -0.0963326 -0.895053 -0.435432
-23.539 46.4726 -9.15352 -0.085809 -0.894875 -0.43799
-24.7019 46.6695 -9.29219 -0.0939452 -0.883717 -0.458496
-23.7586 46.9505 -10.0509 -0.103718 -0.883812 -0.4562
-22.1988 47.3985 -11.3047 -0.129026 -0.881907 -0.453423
-20.9622 47.732 -12.3054 -0.127889 -0.878111 -0.461048
-19.8649 47.9979 -13.2024 -0.133691 -0.893701 -0.428282
-18.8486 48.2443 -14.0339 -0.149332 -0.894554 -0.421275
-17.5895 48.5127 -15.0994 -0.164673 -0.890955 -0.42318
-16.6088 48.7145 -15.9273 -0.178004 -0.8921 -0.415297
-15.4858 48.9301 -16.8878 -0.183888 -0.883837 -0.430136
-14.4115 49.1306 -17.7977 -0.219098 -0.888421 -0.403367
-13.31 49.2953 -18.7589 -0.209754 -0.891446 -0.401656
-11.7116 49.5198 -20.1812 -0.221048 -0.902013 -0.370824
-10.4981 49.6769 -21.2704 -0.242635 -0.885846 -0.39548
-9.30543 49.7908 -22.3718 -0.245323 -0.899992 -0.360321
-8.19797 49.8984 -23.3946 -0.261735 -0.900789 -0.346517
-7.18425 49.9448 -24.3678 -0.278024 -0.901173 -0.33255
-6.24188 49.9953 -25.2728 -0.294663 -0.897587 -0.32789
-5.1564 50.0062 -26.3565 -0.300511 -0.900882 -0.313216
-4.24601 50.0179 -27.2642 -0.295479 -0.913389 -0.280024
-3.0126 50.0073 -28.5224 -0.295934 -0.912482 -0.282487
-2.09859 49.9812 -29.4624 -0.31159 -0.910229 -0.272754
-1.11884 49.9295 -30.4896 -0.324152 -0.912526 -0.249442
-0.0778105 49.8587 -31.5837 -0.324174 -0.913488 -0.245867
0.842596 49.7788 -32.5636 -0.320037 -0.919518 -0.228174
1.69003 49.7069 -33.4625 -0.320564 -0.920235 -0.224513
2.64786 49.614 -34.4873 -0.310472 -0.9269 -0.210863
3.79894 49.4939 -35.721 -0.321639 -0.925555 -0.19974
5.02671 49.3425 -37.0496 -0.322074 -0.92762 -0.189183
5.9997 49.2191 -38.1009 -0.321769 -0.92935 -0.181033
6.65458 49.1211 -38.8174 -0.313598 -0.935161 -0.164712
8.43149 49.088 -41.996 -0.30677 -0.939611 -0.151736
6.9753 49.2959 -40.4207 -0.313596 -0.935161 -0.164714
5.74229 49.4882 -39.0715 -0.324592 -0.930466 -0.169921
4.91029 49.6065 -38.1614 -0.321442 -0.931016 -0.172871
4.02411 49.7216 -37.2015 -0.32093 -0.927832 -0.190083
3.00038 49.846 -36.0916 -0.333353 -0.922435 -0.194911
2.03729 49.9588 -35.0488 -0.327195 -0.919867 -0.216304
0.96403 50.0648 -33.8994 -0.321092 -0.920937 -0.220851
0.0734066 50.15 -32.947 -0.338998 -0.913232 -0.226026
-0.928486 50.2383 -31.8778 -0.324184 -0.91444 -0.242288
-2.13832 50.3149 -30.6022 -0.316212 -0.914376 -0.252838
-3.24145 50.3682 -29.4484 -0.303775 -0.911395 -0.277633
-4.23771 50.3851 -28.4257 -0.329273 -0.898094 -0.291558
-5.2907 50.4009 -27.3484 -0.302186 -0.896227 -0.324748
-6.4037 50.3857 -26.2397 -0.308722 -0.898786 -0.311247
-7.78948 50.3322 -24.8889 -0.280462 -0.895961 -0.344376
-8.72107 50.2811 -23.9942 -0.261735 -0.900789 -0.346517
-9.7393 50.1948 -23.0459 -0.27528 -0.886005 -0.373117
-10.7413 50.1125 -22.1111 -0.260038 -0.88715 -0.381241
-11.7299 49.991 -21.2235 -0.240541 -0.88362 -0.401692
-13.1027 49.8065 -19.9957 -0.24444 -0.882793 -0.401156
-14.2705 49.632 -18.9787 -0.219099 -0.888421 -0.403366
-15.2066 49.492 -18.1618 -0.201542 -0.886348 -0.416855
-16.5688 49.22 -17.0205 -0.197317 -0.87825 -0.435595
-17.533 49.0259 -16.2082 -0.194436 -0.874931 -0.443497
-18.472 48.8309 -15.4165 -0.182527 -0.882184 -0.434092
-19.5569 48.6032 -14.5089 -0.16913 -0.876816 -0.450098
-20.7876 48.3179 -13.4962 -0.168648 -0.876035 -0.451798
-22.1821 47.9487 -12.3797 -0.127889 -0.878111 -0.461048
-23.231 47.6658 -11.531 -0.115363 -0.88102 -0.458797
-24.4687 47.2895 -10.5464 -0.102695 -0.881887 -0.460141
-25.232 47.0551 -9.93482 -0.0841679 -0.883532 -0.460746
-25.2658 47.6154 -10.9669 -0.112242 -0.869294 -0.481384
-24.0204 47.9831 -11.9598 -0.111796 -0.875634 -0.469858
-22.5566 48.4012 -13.1227 -0.126741 -0.87425 -0.46864
-21.5418 48.6843 -13.9252 -0.147733 -0.875366 -0.460336
-20.516 48.9213 -14.7685 -0.169613 -0.877592 -0.4484
-19.2941 49.1944 -15.7653 -0.192547 -0.875644 -0.442914
-18.2904 49.399 -16.612 -0.197482 -0.87122 -0.449418
-17.2338 49.6196 -17.4936 -0.210697 -0.87245 -0.440951
-15.8949 49.867 -18.6228 -0.211444 -0.869367 -0.446646
-14.9474 50.026 -19.4337 -0.226315 -0.873866 -0.430278
-13.9794 50.1784 -20.2711 -0.248333 -0.881951 -0.400616
-12.4152 50.3784 -21.6653 -0.242633 -0.885847 -0.39548
-11.4121 50.4973 -22.5673 -0.244718 -0.88803 -0.38925
-10.2987 50.6001 -23.5956 -0.27528 -0.886005 -0.373118
-9.20641 50.6951 -24.6116 -0.292787 -0.882686 -0.367616
-8.01637 50.7432 -25.7736 -0.295274 -0.88929 -0.349252
-6.92182 50.7774 -26.8475 -0.310029 -0.894206 -0.322921
-5.95693 50.7921 -27.8081 -0.302186 -0.896227 -0.324748
-4.68033 50.7713 -29.1156 -0.329273 -0.898094 -0.291558
-3.75521 50.7482 -30.0686 -0.347734 -0.891501 -0.290358
-2.85111 50.6948 -31.0277 -0.331848 -0.903062 -0.272681
-1.67227 50.6226 -32.2729 -0.352393 -0.900656 -0.25424
-0.494201 50.5105 -33.5409 -0.341059 -0.910985 -0.231917
0.45645 50.4137 -34.5626 -0.342035 -0.910851 -0.231003
1.41404 50.3132 -35.5936 -0.328958 -0.917686 -0.222799
2.72793 50.1508 -37.0218 -0.346846 -0.916613 -0.198794
3.64452 50.0189 -38.029 -0.335518 -0.925096 -0.177835
4.73526 49.8639 -39.2221 -0.321441 -0.931016 -0.172872
5.74431 49.7128 -40.3261 -0.327737 -0.929898 -0.166967
6.9497 49.5205 -41.6477 -0.324839 -0.933658 -0.150872
7.83012 49.3784 -42.6065 -0.304245 -0.941253 -0.146553
8.65721 49.2507 -43.5039 -0.304244 -0.941253 -0.146553
9.71127 49.0743 -44.6468 -0.309366 -0.940694 -0.139239
10.6135 48.9319 -45.6203 -0.287616 -0.948051 -0.135929
11.5673 48.7795 -46.6444 -0.284534 -0.951987 -0.112961
10.1773 49.1729 -46.4188 -0.303415 -0.945542 -0.117854
9.17369 49.3518 -45.327 -0.307131 -0.94203 -0.135093
8.03687 49.5432 -44.0944 -0.306808 -0.940983 -0.142896
7.15847 49.6857 -43.1375 -0.326226 -0.933445 -0.149186
6.31306 49.8331 -42.2109 -0.324839 -0.933658 -0.150872
5.48122 49.9716 -41.2951 -0.323454 -0.933865 -0.152556
4.63741 50.1103 -40.3673 -0.324592 -0.930466 -0.169921
3.81224 50.2392 -39.4575 -0.349505 -0.918938 -0.182755
2.98913 50.3714 -38.5477 -0.347031 -0.919415 -0.185053
2.09074 50.5054 -37.5536 -0.344551 -0.919883 -0.187351
0.904098 50.6577 -36.2597 -0.335714 -0.915608 -0.221264
-0.443703 50.8115 -34.7986 -0.342248 -0.912183 -0.225365
-1.85173 50.9684 -33.2622 -0.357598 -0.904324 -0.233069
-3.32412 51.0711 -31.6984 -0.346323 -0.897684 -0.27244
-4.41133 51.1522 -30.523 -0.347734 -0.891501 -0.290358
-5.32825 51.1712 -29.5834 -0.334575 -0.890466 -0.308433
-6.24762 51.1915 -28.6397 -0.315802 -0.897367 -0.308224
-7.13949 51.1867 -27.7422 -0.343779 -0.874811 -0.341353
-8.01398 51.1855 -26.8583 -0.327452 -0.876001 -0.354114
-9.20487 51.1321 -25.7022 -0.310002 -0.882364 -0.354023
-10.5652 51.0345 -24.4156 -0.275429 -0.882584 -0.381031
-12.2279 50.865 -22.8932 -0.262936 -0.876585 -0.403067
-13.2241 50.7547 -21.9925 -0.280359 -0.864656 -0.416857
-14.8351 50.5529 -20.565 -0.261178 -0.870717 -0.416699
-15.9827 50.3748 -19.5737 -0.239127 -0.868755 -0.433685
-17.1106 50.1672 -18.6274 -0.212188 -0.866246 -0.452321
-18.2019 49.9568 -17.7135 -0.196736 -0.867997 -0.455934
-19.7027 49.6519 -16.4607 -0.199237 -0.859476 -0.47075
-20.7557 49.4047 -15.6113 -0.187479 -0.856126 -0.481561
-21.6975 49.1896 -14.8469 -0.169132 -0.876815 -0.4501
-22.9351 48.8591 -13.8616 -0.147579 -0.865213 -0.479193
-24.0355 48.5639 -12.9897 -0.134799 -0.862751 -0.487329
-25.1348 48.2291 -12.1246 -0.121901 -0.87119 -0.475571
-26.0217 47.9587 -11.419 -0.102568 -0.867286 -0.487129
-26.2427 48.4768 -12.2948 -0.105232 -0.866527 -0.487911
-24.8857 48.8958 -13.3565 -0.121988 -0.860085 -0.495351
-23.738 49.218 -14.2623 -0.147579 -0.865213 -0.479193
-22.4668 49.5706 -15.2568 -0.162752 -0.854753 -0.492859
-21.3599 49.8322 -16.136 -0.187479 -0.856126 -0.481561
-20.4134 50.0543 -16.8994 -0.187479 -0.856126 -0.481561
-19.4427 50.2524 -17.7064 -0.210943 -0.862598 -0.459813
-18.4717 50.4502 -18.504 -0.223791 -0.853986 -0.469707
-17.5153 50.6217 -19.308 -0.212188 -0.866246 -0.452321
-16.1252 50.8678 -20.4827 -0.23871 -0.865779 -0.439824
-15.1064 51.0349 -21.3505 -0.256126 -0.861041 -0.439326
-13.5417 51.2197 -22.7436 -0.279738 -0.864741 -0.417096
-12.5981 51.324 -23.5961 -0.28098 -0.864568 -0.41662
-11.343 51.4415 -24.7478 -0.312598 -0.862995 -0.39689
-10.1687 51.5301 -25.8501 -0.292785 -0.882687 -0.367615
-8.64508 51.6036 -27.3227 -0.310981 -0.876816 -0.366722
-7.60001 51.6132 -28.3712 -0.343779 -0.874811 -0.341353
-6.7291 51.6122 -29.2524 -0.356941 -0.874813 -0.327558
-5.77823 51.5708 -30.2491 -0.352378 -0.882072 -0.312696
-4.35914 51.5033 -31.7432 -0.360715 -0.892092 -0.272134
-3.21644 51.4181 -32.9786 -0.346323 -0.897684 -0.27244
-2.04385 51.3024 -34.2505 -0.362348 -0.899689 -0.243443
-1.03659 51.1946 -35.3511 -0.36614 -0.898976 -0.240383
-0.182745 51.0892 -36.2832 -0.369924 -0.898241 -0.237317
0.663661 50.978 -37.2132 -0.37206 -0.906774 -0.198322
1.55276 50.839 -38.2022 -0.344551 -0.919883 -0.187351
2.45114 50.7049 -39.1962 -0.347031 -0.919416 -0.185053
3.27426 50.5728 -40.106 -0.349505 -0.918938 -0.182755
4.75288 50.3038 -41.7548 -0.351975 -0.922407 -0.158995
5.67642 50.1456 -42.774 -0.324842 -0.933657 -0.150872
6.52183 49.9982 -43.7007 -0.326226 -0.933445 -0.149186
7.35338 49.8496 -44.6151 -0.324347 -0.936072 -0.136263
8.90523 49.5744 -46.3054 -0.30489 -0.943343 -0.130943
9.10688 49.5384 -46.5248 -0.310708 -0.943455 -0.115556
8.1875 49.8744 -46.7955 -0.30781 -0.943431 -0.123254
6.82857 50.1313 -45.3078 -0.326695 -0.935708 -0.133116
5.85695 50.3081 -44.2389 -0.321992 -0.936423 -0.139405
5.03207 50.4634 -43.3266 -0.348075 -0.926731 -0.14147
3.92126 50.6783 -42.0867 -0.351975 -0.922407 -0.158995
2.72567 50.8949 -40.7522 -0.34681 -0.923498 -0.16393
1.87582 51.0441 -39.8035 -0.358761 -0.913363 -0.192508
1.0364 51.1843 -38.8626 -0.372873 -0.906595 -0.197614
0.160573 51.3305 -37.8809 -0.37206 -0.906774 -0.198322
-0.658107 51.4634 -36.9593 -0.371247 -0.906953 -0.199028
-1.51175 51.5689 -36.0271 -0.366139 -0.898976 -0.240383
-2.51901 51.6768 -34.9266 -0.362348 -0.899689 -0.243443
-3.50981 51.808 -33.8184 -0.398162 -0.877822 -0.266262
-4.49033 51.8851 -32.7506 -0.381902 -0.875187 -0.296983
-5.5737 51.9617 -31.583 -0.376111 -0.876679 -0.299958
-6.41727 52.0024 -30.6922 -0.370039 -0.87332 -0.316833
-7.27016 52.0362 -29.801 -0.343742 -0.876052 -0.338193
-8.71046 52.0387 -28.3433 -0.34376 -0.875433 -0.339773
-9.78294 52.0042 -27.2916 -0.345569 -0.858088 -0.379825
-11.3824 51.9216 -25.7607 -0.312751 -0.861046 -0.400983
-12.3391 51.8536 -24.8596 -0.29669 -0.863276 -0.408325
-13.7159 51.7003 -23.6232 -0.280825 -0.863897 -0.418113
-15.2244 51.5364 -22.2716 -0.276818 -0.861905 -0.424842
-16.2156 51.381 -21.4207 -0.276734 -0.837608 -0.470989
-17.4082 51.1838 -20.4086 -0.236475 -0.84633 -0.47729
-18.8384 50.9305 -19.2044 -0.237415 -0.854646 -0.461752
-19.9747 50.6966 -18.2829 -0.210111 -0.853113 -0.477547
-20.9111 50.5068 -17.5101 -0.199237 -0.859476 -0.47075
-21.998 50.2506 -16.642 -0.174187 -0.859344 -0.480819
-23.1409 49.9792 -15.743 -0.174188 -0.859344 -0.480818
-24.9603 49.4644 -14.3308 -0.149439 -0.857658 -0.492027
-26.4612 49.0119 -13.1578 -0.129999 -0.857041 -0.498578
-26.7033 48.9387 -12.9687 -0.119135 -0.855004 -0.504752
-27.1699 49.3987 -13.6379 -0.119135 -0.855004 -0.504752
-26.0925 49.7339 -14.47 -0.134051 -0.840832 -0.524434
-24.9178 50.0773 -15.3742 -0.154523 -0.849 -0.505293
-23.8168 50.3875 -16.2278 -0.16275 -0.854754 -0.492858
-22.673 50.659 -17.1275 -0.174187 -0.859344 -0.480819
-21.5653 50.9315 -17.9895 -0.21402 -0.820379 -0.530258
-20.3851 51.1692 -18.9465 -0.210111 -0.853113 -0.477547
-19.2925 51.3953 -19.8311 -0.223791 -0.853986 -0.469708
-17.8876 51.6602 -20.9895 -0.23546 -0.83775 -0.49268
-16.5718 51.8816 -22.1018 -0.276734 -0.837608 -0.470989
-15.4551 52.0434 -23.0647 -0.295257 -0.838355 -0.45824
-14.3703 52.1664 -24.031 -0.318978 -0.836982 -0.44465
-12.8394 52.2988 -25.4406 -0.304034 -0.851584 -0.427046
-11.9354 52.3682 -26.2808 -0.312896 -0.859079 -0.405068
-10.5335 52.4489 -27.6134 -0.34557 -0.858088 -0.379824
-9.42029 52.4875 -28.7003 -0.367026 -0.853651 -0.369555
-8.53629 52.462 -29.6154 -0.38761 -0.852524 -0.350659
-7.65811 52.4601 -30.5046 -0.356942 -0.874812 -0.32756
-6.00008 52.3758 -32.2624 -0.370303 -0.878132 -0.302921
-5.00659 52.3076 -33.3317 -0.383041 -0.877935 -0.287246
-3.96197 52.2149 -34.4838 -0.398162 -0.877822 -0.266262
-2.97733 52.0749 -35.5948 -0.412048 -0.874765 -0.254957
-1.9869 51.9432 -36.7032 -0.366139 -0.898976 -0.240383
