0.183655 44.8826 -12.072 -0.175332 -0.944192 -0.278846
-0.119092 44.5821 -10.8554 -0.166677 -0.944584 -0.282631
-0.420846 44.3025 -9.77373 -0.158581 -0.94511 -0.285678
-0.792447 43.915 -8.27031 -0.15368 -0.948029 -0.278522
-1.0834 43.6163 -7.12464 -0.141215 -0.94811 -0.284861
-1.35786 43.3343 -6.04993 -0.138632 -0.950104 -0.27936
-1.62518 42.8857 -4.43195 -0.125747 -0.949594 -0.287158
-1.88403 42.4213 -2.78316 -0.121756 -0.952033 -0.280613
-1.97892 42.1031 -1.67805 -0.101068 -0.953619 -0.283541
-2.02283 41.7793 -0.573286 -0.100567 -0.952949 -0.28595
-2.0862 41.4135 0.663363 -0.0934761 -0.954148 -0.284367
-1.9702 40.9936 2.05688 -0.0922009 -0.956569 -0.276541
-1.78727 40.5469 3.50195 -0.0739368 -0.957764 -0.277605
-1.65033 40.1542 4.87476 -0.0665788 -0.962009 -0.26475
-1.34265 39.6798 6.53747 -0.062783 -0.960492 -0.270947
-1.08958 39.2832 7.88388 -0.0559816 -0.96232 -0.266095
-0.786562 38.9156 9.14974 -0.0560514 -0.962542 -0.265275
-0.726786 38.6211 10.2089 -0.0560969 -0.962767 -0.264448
-0.604998 38.22 11.6248 -0.0280815 -0.960261 -0.277627
-0.293996 37.7621 13.3172 -0.0122391 -0.966883 -0.254926
-0.137978 37.4812 14.3753 -0.0122403 -0.966883 -0.254925
0.199675 37.0877 15.8804 -0.0094352 -0.969361 -0.245427
0.748344 36.7166 17.3484 -0.00648883 -0.970057 -0.242789
1.25774 36.4171 18.5298 0.000634864 -0.972227 -0.23373
1.82864 36.2039 19.4756 -0.00249153 -0.973995 -0.226318
2.45114 35.9063 20.6804 -0.00838481 -0.968028 -0.250703
2.80875 35.6504 21.69 0.00552488 -0.973755 -0.227531
2.89737 35.3268 23.077 0.0156101 -0.971566 -0.235881
2.89893 34.9514 24.7542 0.029576 -0.977066 -0.210872
2.45056 34.6796 25.9505 0.0416892 -0.973679 -0.223377
1.84243 34.3803 27.1301 0.0591725 -0.975307 -0.212777
1.19239 34.0876 28.2912 0.0777477 -0.969931 -0.229226
0.592149 33.6725 29.7323 0.100604 -0.966613 -0.235667
0.0648885 33.2367 31.1623 0.121279 -0.9611 -0.247952
-0.0793039 33.5232 30.0249 0.116558 -0.959495 -0.256483
-0.687933 33.7842 28.7451 0.100854 -0.964333 -0.244682
-1.63358 33.9526 27.6698 0.105387 -0.964111 -0.243685
-2.50979 34.0826 26.8141 0.095361 -0.96082 -0.260198
-3.71348 34.206 25.8697 0.142727 -0.952296 -0.269626
-4.55793 34.3086 25.0486 0.111912 -0.953718 -0.2791
-5.36836 34.5236 23.9892 0.107841 -0.948776 -0.296402
-6.35239 34.7668 22.9318 0.10377 -0.943833 -0.313706
-7.24832 34.9054 22.2431 0.0926745 -0.943082 -0.319388
-8.27827 35.1916 21.1084 0.102044 -0.940768 -0.323159
-9.08571 35.4067 20.1889 0.115408 -0.940583 -0.319352
-9.97743 35.657 19.1636 0.0954812 -0.935878 -0.339141
-10.741 35.8891 18.3081 0.0927967 -0.940202 -0.327485
-11.8964 36.2354 17.0505 0.0763954 -0.936135 -0.343098
-12.7758 36.5586 15.9527 0.086604 -0.934206 -0.346056
-13.3799 36.8392 15.0501 0.0864991 -0.933474 -0.348058
-13.9459 37.3161 13.6595 0.0696152 -0.934248 -0.349491
-14.3335 37.742 12.415 0.0582906 -0.936122 -0.34673
-14.7587 38.2434 11.0229 0.0558695 -0.933773 -0.353477
-15.0356 38.6679 9.86632 0.0359927 -0.935977 -0.350217
-15.2078 39.2183 8.3813 0.028114 -0.933363 -0.35769
-15.3963 39.696 7.1461 0.0199585 -0.931456 -0.363307
-15.5204 40.2191 5.79148 0.0196611 -0.932252 -0.361274
-15.7133 40.7352 4.49562 0.00113645 -0.929635 -0.368369
-16.0159 41.2716 3.11108 -0.00262227 -0.932652 -0.360768
-16.5098 41.7843 1.87167 -0.0122027 -0.924512 -0.380957
-16.9528 42.2296 0.789799 -0.025929 -0.927979 -0.37165
-17.5207 42.8 -0.558042 -0.0327723 -0.924992 -0.378571
-17.9676 43.2038 -1.48801 -0.036559 -0.919167 -0.392167
-18.7269 43.7984 -2.81078 -0.0393444 -0.918823 -0.392694
-19.4984 44.3145 -3.8828 -0.0457921 -0.911351 -0.409074
-20.3231 44.7429 -4.74496 -0.0516202 -0.910068 -0.411182
-21.3091 45.1727 -5.52139 -0.0592649 -0.901023 -0.429704
-22.318 45.6124 -6.3042 -0.0643706 -0.900006 -0.431065
-23.091 46.0065 -6.99927 -0.0747173 -0.892518 -0.444537
-23.9829 46.5019 -7.80439 -0.0799598 -0.886046 -0.45665
-24.8415 46.9929 -8.61155 -0.0765845 -0.881771 -0.465286
-25.9348 47.6678 -9.67545 -0.0910683 -0.875774 -0.473967
-26.4763 48.1793 -10.4993 -0.0991287 -0.873229 -0.477121
-27.0391 48.8963 -11.6004 -0.111073 -0.856963 -0.503267
-27.3846 49.566 -12.6645 -0.11752 -0.859954 -0.496561
-27.5829 50.3269 -13.8301 -0.152925 -0.837924 -0.523925
-27.4912 50.9553 -14.862 -0.152924 -0.837924 -0.523925
-27.3098 51.5703 -15.8289 -0.14609 -0.820688 -0.552384
-27.2507 52.3191 -16.914 -0.160796 -0.801126 -0.57646
-27.2676 53.0947 -17.9751 -0.158072 -0.798388 -0.581024
-27.3078 53.8347 -18.929 -0.188471 -0.763095 -0.618122
-27.4917 54.662 -19.8769 -0.185475 -0.757885 -0.625467
-28.5655 54.9163 -19.8666 -0.208919 -0.725725 -0.653679
-28.9752 55.8099 -20.6359 -0.232363 -0.693563 -0.681893
-29.2438 56.6393 -21.4001 -0.16936 -0.710634 -0.682873
-29.4792 57.738 -22.3115 -0.189381 -0.641722 -0.743188
-29.535 58.7846 -23.201 -0.189412 -0.641666 -0.743228
-29.521 59.9392 -24.046 -0.213201 -0.567063 -0.795603
-29.1564 61.2686 -25.0912 -0.235351 -0.527232 -0.814975
-28.7403 62.7282 -26.002 -0.227693 -0.444249 -0.866486
-28.4964 63.991 -26.7469 -0.422701 -0.441417 -0.791153
-27.5777 64.7891 -27.6673 -0.437382 -0.407249 -0.801776
-26.7237 64.8696 -28.344 -0.68515 -0.423201 -0.556729
-25.9224 64.9723 -29.3703 -0.584966 -0.524205 -0.618889
-25.3418 65.4653 -30.5069 -0.578304 -0.579909 -0.57382
-24.9678 66.2025 -31.774 -0.583228 -0.636578 -0.504592
-24.6991 67.2389 -33.3068 -0.466528 -0.676907 -0.56934
-24.4366 67.839 -34.2214 -0.499064 -0.601898 -0.623341
-23.7802 68.2382 -35.1784 -0.535289 -0.587525 -0.606861
-22.3472 67.7789 -36.0879 -0.590195 -0.586373 -0.55483
-21.3404 67.3109 -36.6644 -0.598022 -0.578273 -0.554835
-20.4116 66.9509 -37.372 -0.659097 -0.564434 -0.496996
-19.2299 66.5257 -38.4562 -0.644643 -0.583239 -0.493654
-18.4199 66.0374 -39.0169 -0.675176 -0.591486 -0.440774
-17.5405 65.5302 -39.7002 -0.682161 -0.58572 -0.437708
-16.6113 65.1278 -40.9643 -0.749262 -0.561081 -0.351844
-16.0022 64.8595 -41.8868 -0.783142 -0.568406 -0.246298
-15.4603 64.6312 -43.1485 -0.761683 -0.604339 -0.233694
-14.9023 64.4592 -44.8668 -0.777647 -0.610455 -0.150364
-14.6207 64.4838 -46.6105 -0.719438 -0.686548 -0.105166
-14.5758 64.6102 -47.7835 -0.718212 -0.690224 -0.0876879
-14.6784 64.8934 -49.2065 -0.704391 -0.704629 -0.0843484
-14.9256 65.2981 -50.8148 -0.699246 -0.710581 -0.0777697
-15.1373 65.6346 -52.0846 -0.68629 -0.723688 -0.0726739
-15.4295 66.0521 -53.4895 -0.683141 -0.72559 -0.0820153
-15.6217 66.377 -54.7143 -0.666218 -0.740685 -0.0868283
-14.8768 65.8038 -55.8571 -0.705867 -0.704165 -0.0739194
-13.8986 64.8323 -55.599 -0.695354 -0.716133 -0.0602936
-12.9967 63.9072 -55.0959 -0.68668 -0.723185 -0.0730081
-11.923 62.9073 -54.9251 -0.670672 -0.737612 -0.0782771
-10.962 61.9832 -54.4518 -0.664288 -0.743909 -0.0721259
-10.003 61.09 -53.8574 -0.657903 -0.750207 -0.0659759
-9.10701 60.2915 -53.2386 -0.616977 -0.782988 -0.0774193
-8.11877 59.4861 -52.6706 -0.606044 -0.792415 -0.0692083
-7.22734 58.688 -51.9056 -0.585257 -0.80083 -0.124705
-6.44275 58.0862 -51.4126 -0.543617 -0.830538 -0.121191
-5.16276 57.1179 -50.5183 -0.549868 -0.827467 -0.113283
-3.80206 56.1898 -49.8205 -0.50818 -0.851891 -0.126629
-2.67685 55.4455 -49.3286 -0.508083 -0.851949 -0.126626
-1.52047 54.8321 -49.1055 -0.444848 -0.887388 -0.121051
-0.464625 54.276 -48.9767 -0.435132 -0.889443 -0.138523
0.653462 53.7304 -48.7629 -0.410832 -0.901233 -0.137827
1.83289 53.148 -48.47 -0.396853 -0.908657 -0.128504
2.92121 52.6749 -48.2842 -0.37372 -0.919211 -0.124032
4.05781 52.2003 -48.1917 -0.368098 -0.921925 -0.120439
5.47364 51.6808 -48.3753 -0.349452 -0.92869 -0.124168
6.72908 51.2142 -48.4191 -0.337238 -0.933813 -0.118561
7.99037 50.7934 -48.5098 -0.316456 -0.941324 -0.117324
9.71276 50.24 -48.7153 -0.314316 -0.942277 -0.11537
10.7808 49.9107 -48.7871 -0.299336 -0.948345 -0.105071
11.85 49.5728 -48.7799 -0.283165 -0.95301 -0.107654
13.1659 49.1778 -48.765 -0.285879 -0.951735 -0.111682
14.5165 48.7782 -48.6806 -0.265653 -0.957606 -0.111442
16.6244 48.194 -48.6855 -0.26797 -0.956546 -0.114867
17.8821 47.8842 -48.8689 -0.252034 -0.962116 -0.103978
19.1226 47.5814 -49.0743 -0.246296 -0.963465 -0.105063
20.2051 47.3267 -49.2152 -0.243688 -0.963096 -0.114292
21.5313 47.0228 -49.4435 -0.234216 -0.965692 -0.112167
23.4532 46.5578 -49.4657 -0.234904 -0.965639 -0.111179
24.2949 46.2672 -48.6339 -0.224655 -0.968172 -0.110336
24.602 46.0599 -47.518 -0.225263 -0.966633 -0.121969
24.1824 45.9649 -45.9923 -0.229951 -0.965115 -0.125198
22.9267 46.2598 -45.9597 -0.228979 -0.96569 -0.122489
21.5069 46.6024 -45.9402 -0.23441 -0.96411 -0.124674
20.3607 46.9102 -46.1304 -0.240402 -0.962836 -0.123101
19.0945 47.2529 -46.2985 -0.244447 -0.961442 -0.125998
17.6266 47.6223 -46.1835 -0.252809 -0.959748 -0.122356
15.5062 48.1741 -45.9698 -0.267779 -0.955229 -0.12559
14.0144 48.5051 -45.3709 -0.272059 -0.953301 -0.13095
13.0751 48.6899 -44.7041 -0.27882 -0.951638 -0.129015
12.2091 48.8459 -43.9892 -0.27534 -0.950813 -0.141926
11.4155 48.9777 -43.2348 -0.291881 -0.946036 -0.14079
10.7248 49.063 -42.3757 -0.289167 -0.946124 -0.145606
10.0331 49.0775 -41.1499 -0.286452 -0.946212 -0.150424
9.38029 49.0936 -39.9497 -0.30512 -0.939287 -0.156839
8.83456 49.011 -38.4767 -0.303191 -0.93834 -0.166115
8.30115 48.9577 -37.2018 -0.303191 -0.938339 -0.166116
7.91935 48.7935 -35.7268 -0.29321 -0.938505 -0.182308
7.45873 48.6592 -34.3267 -0.292363 -0.936944 -0.191412
6.97921 48.516 -32.9262 -0.288443 -0.937965 -0.192391
6.46718 48.4338 -31.7788 -0.280929 -0.939343 -0.196759
6.12347 48.2956 -30.6369 -0.281861 -0.936268 -0.20966
5.88853 48.1139 -29.5099 -0.281859 -0.936253 -0.209728
5.42424 47.9692 -28.2956 -0.272785 -0.936521 -0.220241
4.86823 47.7684 -26.7761 -0.270703 -0.93609 -0.224609
4.43367 47.5805 -25.5239 -0.255322 -0.939566 -0.228094
3.78148 47.2945 -23.6837 -0.251088 -0.937022 -0.242784
3.31083 47.0991 -22.435 -0.249956 -0.934435 -0.253299
3.09871 46.8596 -21.3722 -0.231468 -0.939213 -0.253395
2.64982 46.5222 -19.6978 -0.223118 -0.942265 -0.249711
2.50879 46.2498 -18.5789 -0.211266 -0.941668 -0.261971
2.3904 45.9609 -17.4449 -0.210169 -0.942947 -0.25819
2.04045 45.7578 -16.4035 -0.20584 -0.943196 -0.260691
1.85402 45.3364 -14.7749 -0.199814 -0.94413 -0.262023
1.60883 45.0532 -13.5958 -0.187761 -0.944204 -0.270602
1.27313 44.7759 -12.3953 -0.180901 -0.944052 -0.27566
0.945562 44.461 -11.1143 -0.174886 -0.944851 -0.276897
0.57059 44.1708 -9.88728 -0.166677 -0.944584 -0.282631
0.273974 43.877 -8.71691 -0.148675 -0.950153 -0.274052
0.0136622 43.5904 -7.58228 -0.144945 -0.949131 -0.279457
-0.218959 43.2583 -6.35141 -0.136045 -0.952099 -0.27386
-0.479006 42.9376 -5.10745 -0.136046 -0.952099 -0.273861
-0.685873 42.5004 -3.56911 -0.125747 -0.949593 -0.287159
-0.922639 42.145 -2.2338 -0.115404 -0.953647 -0.277881
-1.01983 41.7315 -0.79622 -0.110545 -0.954489 -0.276944
-1.046 41.4302 0.265339 -0.0934761 -0.954148 -0.284367
-0.95217 40.9631 1.82322 -0.0922009 -0.956569 -0.276541
-0.824903 40.6322 2.93087 -0.0876445 -0.957552 -0.274614
-0.696964 40.3069 4.06779 -0.0883819 -0.960623 -0.263423
-0.45377 39.8023 5.84738 -0.0812222 -0.96203 -0.26058
-0.276906 39.4958 6.92372 -0.0788669 -0.962823 -0.258342
-0.0135325 39.1479 8.14673 -0.0560059 -0.962317 -0.266102
0.205192 38.8479 9.18586 -0.0560514 -0.962542 -0.265275
0.279407 38.5048 10.42 -0.0540042 -0.96308 -0.263744
0.558261 38.0495 12.1117 -0.0396365 -0.970263 -0.238732
0.825741 37.6926 13.4918 -0.0377722 -0.969216 -0.243299
0.950852 37.3324 14.8872 -0.0123123 -0.967774 -0.251495
1.49915 36.9629 16.3443 -0.00648762 -0.970057 -0.24279
1.96165 36.5882 17.8291 -0.00641904 -0.970001 -0.243016
2.73793 36.252 19.2207 -0.0126031 -0.97348 -0.228424
3.50638 35.9217 20.5859 -0.0104961 -0.970754 -0.239564
3.96927 35.5847 21.9955 0.0030521 -0.973605 -0.228221
3.93091 35.2744 23.3187 0.00306702 -0.973628 -0.22812
3.80679 34.8555 25.2915 0.021661 -0.976733 -0.213358
3.24139 34.4903 26.9207 0.0203392 -0.977784 -0.208627
2.37901 34.1162 28.4378 0.0494202 -0.974595 -0.218454
1.81414 33.7791 29.7039 0.0567539 -0.969513 -0.238378
1.45866 33.4881 30.841 0.0813114 -0.969582 -0.230062
1.06085 32.9536 32.8002 0.0933774 -0.965126 -0.244565
1.4418 32.6607 34.219 0.11987 -0.964717 -0.234421
1.6064 32.3858 35.3615 0.118383 -0.960148 -0.253183
1.9001 32.171 36.4301 0.150843 -0.956458 -0.249226
2.36281 31.9272 37.569 0.168558 -0.95394 -0.246976
2.8422 31.7561 38.6731 0.191697 -0.950976 -0.242056
3.42181 31.6206 39.6892 0.212134 -0.947025 -0.241127
4.18981 31.5599 40.5659 0.167859 -0.957896 -0.232396
5.4011 31.5061 41.5855 0.16618 -0.95447 -0.247732
6.22587 31.4408 42.3175 0.146136 -0.961566 -0.230768
7.33074 31.444 43.1616 0.162804 -0.963594 -0.212042
8.80252 31.4279 44.265 0.146721 -0.963091 -0.225672
9.79612 31.4112 44.9723 0.110154 -0.975499 -0.190441
10.5992 31.3119 45.8522 0.0958318 -0.975533 -0.197866
10.9151 30.954 47.6685 0.133001 -0.970731 -0.199932
10.3141 30.626 48.8606 0.129478 -0.971731 -0.19736
9.70272 30.2986 49.9185 0.156353 -0.965187 -0.209685
9.21796 29.9931 50.9632 0.156342 -0.965175 -0.209748
8.43392 29.5848 52.0176 0.193642 -0.951797 -0.237875
7.79002 29.1972 53.0443 0.193629 -0.951782 -0.237947
7.3431 28.8224 54.0868 0.246422 -0.93932 -0.238651
6.62296 28.3169 55.2701 0.266518 -0.925277 -0.269872
6.07562 27.8281 56.4055 0.269892 -0.926726 -0.261245
5.50478 27.2612 57.8406 0.280798 -0.923572 -0.261088
5.00371 26.7144 59.2359 0.282646 -0.924388 -0.256104
4.88958 26.2582 60.5312 0.317977 -0.900214 -0.297497
5.13102 25.9749 61.6465 0.314463 -0.899918 -0.302041
5.59544 25.716 62.9597 0.308744 -0.908256 -0.282395
6.23981 25.5019 64.3528 0.288739 -0.911479 -0.292114
6.99616 25.3552 65.5447 0.314841 -0.896342 -0.312164
7.87924 25.2732 66.6707 0.317814 -0.902938 -0.288221
8.48832 25.1755 67.6798 0.298019 -0.912132 -0.281425
7.52297 24.7615 67.9995 0.309403 -0.910833 -0.272852
6.47696 24.3343 68.1999 0.339947 -0.900138 -0.271442
5.18125 23.7105 68.5243 0.358275 -0.892559 -0.273772
3.79957 23.0504 68.8829 0.370599 -0.886659 -0.276059
2.65628 22.4 69.331 0.395526 -0.874684 -0.280155
1.16131 21.4834 70.082 0.394152 -0.876083 -0.277692
-0.159812 20.7405 70.4424 0.425733 -0.863373 -0.270812
-1.21966 20.2021 70.4928 0.433859 -0.858624 -0.272833
-2.68607 19.3643 70.7129 0.450223 -0.851739 -0.268026
-3.69578 18.7888 70.8469 0.457107 -0.848859 -0.265503
-4.73047 18.111 71.2325 0.453897 -0.851713 -0.261781
-5.72765 17.4088 71.8165 0.450689 -0.854567 -0.258059
-6.76607 16.684 72.3786 0.454589 -0.854715 -0.250476
-7.93644 15.9428 72.8286 0.449876 -0.858914 -0.244702
-8.88309 15.5918 72.2828 0.463052 -0.85382 -0.237853
-10.0409 15.4077 70.6893 0.463615 -0.851718 -0.244119
-11.0704 15.0802 69.9166 0.460967 -0.850355 -0.253782
-12.1534 14.696 69.2367 0.460172 -0.850522 -0.254662
-13.2984 14.3121 68.5123 0.432455 -0.866389 -0.249704
-14.4568 13.9036 67.9236 0.436407 -0.865402 -0.246169
-15.6605 13.3814 67.6216 0.428207 -0.87143 -0.239267
-16.9833 12.7837 67.4311 0.423286 -0.872543 -0.243826
-18.46 12.0672 67.4443 0.422688 -0.871226 -0.249599
-19.8108 11.4074 67.4596 0.418389 -0.872439 -0.252531
-20.7892 11.1111 66.9478 0.392581 -0.887162 -0.242535
-21.6633 10.9252 66.213 0.384019 -0.88954 -0.247277
-22.5705 10.7705 65.4088 0.370911 -0.887488 -0.272628
-23.7471 10.628 64.4442 0.321201 -0.894139 -0.312002
-24.7396 10.5899 63.5314 0.320987 -0.893978 -0.312683
-25.3692 10.7119 62.538 0.321526 -0.893582 -0.31326
-25.6687 10.9887 61.441 0.320049 -0.893416 -0.31523
-25.2462 11.5083 60.4489 0.33381 -0.873098 -0.355345
-24.4367 12.2609 59.3538 0.332037 -0.873948 -0.354918
-23.7235 12.8583 58.5501 0.332033 -0.873824 -0.355228
-22.9447 13.5026 57.7584 0.329228 -0.864609 -0.379554
-22.2658 14.1623 56.8444 0.344618 -0.857595 -0.381419
-21.5968 14.8213 55.9892 0.35966 -0.853831 -0.376322
-21.0437 15.4501 55.0911 0.365249 -0.845593 -0.388981
-20.6541 16.0724 54.1533 0.370839 -0.837355 -0.401641
-20.0283 16.9268 52.9067 0.353749 -0.845788 -0.399379
-19.3979 17.614 52.0071 0.353608 -0.846175 -0.398684
-18.5397 18.3334 51.2675 0.368491 -0.832373 -0.413641
-17.712 18.924 50.85 0.388254 -0.817163 -0.425683
-16.7978 19.6357 50.361 0.396659 -0.819183 -0.413963
-15.948 20.4309 49.5497 0.38928 -0.827925 -0.403733
-15.1285 21.277 48.627 0.400112 -0.822682 -0.403859
-14.5121 21.986 47.798 0.398699 -0.8203 -0.410018
-13.7337 22.6906 47.1351 0.391298 -0.824231 -0.409297
-12.7791 23.5432 46.3382 0.394063 -0.827313 -0.400175
-11.8891 24.263 45.6927 0.390091 -0.833407 -0.391486
-11.0551 24.9202 45.1248 0.392023 -0.832635 -0.391194
-10.1318 25.6886 44.3472 0.365747 -0.841437 -0.39776
-9.37114 26.3791 43.5859 0.359214 -0.850389 -0.384048
-8.61025 27.0385 42.761 0.33282 -0.86779 -0.369013
-7.98242 27.5943 42.0202 0.33282 -0.86779 -0.369013
-7.35362 28.1423 41.2476 0.326605 -0.878307 -0.349151
-6.55617 28.7723 40.4148 0.310311 -0.891545 -0.328368
-5.78506 29.2911 39.6243 0.290283 -0.902583 -0.317932
-4.74856 29.908 38.7691 0.257107 -0.916956 -0.305103
-3.67617 30.5409 37.7707 0.257393 -0.914909 -0.31089
-2.38728 31.2316 36.657 0.218165 -0.928697 -0.299877
-1.44922 31.8165 35.5296 0.202344 -0.935197 -0.289771
-1.03154 32.1668 34.5467 0.188553 -0.948427 -0.254823
-0.738116 32.6086 33.147 0.146371 -0.953885 -0.261939
-0.77354 32.9436 31.8994 0.132237 -0.959095 -0.249972
-0.959547 33.2026 30.8244 0.12564 -0.958638 -0.255231
-1.41087 33.5063 29.4396 0.131168 -0.95626 -0.261328
-2.19966 33.6632 28.5075 0.127621 -0.954738 -0.26868
-3.01573 33.792 27.6339 0.151056 -0.94922 -0.275697
-3.84754 33.8882 26.8939 0.139749 -0.950719 -0.276772
-4.89705 33.9733 26.0585 0.128807 -0.953796 -0.270791
-5.7338 34.1066 25.2674 0.111912 -0.953718 -0.2791
-6.52104 34.3255 24.2037 0.10784 -0.948775 -0.296404
-7.5534 34.5291 23.2657 0.0926745 -0.943082 -0.319388
-8.53786 34.7281 22.3581 0.112461 -0.939683 -0.323023
-9.79623 35.0814 20.8866 0.115931 -0.939644 -0.321914
-11.0932 35.451 19.4177 0.105009 -0.933516 -0.342654
-11.9483 35.6978 18.4712 0.109588 -0.930593 -0.349217
-12.7657 35.955 17.5759 0.10301 -0.924733 -0.366412
-13.5759 36.2791 16.5107 0.0867089 -0.934937 -0.344055
-14.2151 36.5765 15.5472 0.0831449 -0.933091 -0.349876
-14.7781 37.0046 14.284 0.0792384 -0.931368 -0.355329
-15.2024 37.4414 13.0593 0.0804844 -0.929976 -0.358698
-15.5792 37.916 11.7584 0.0557022 -0.933767 -0.353519
-16.1165 38.5844 9.92362 0.0551383 -0.931916 -0.358458
-16.156 38.9857 8.89564 0.0409995 -0.92755 -0.371428
-16.3506 39.4151 7.81183 0.0411261 -0.926356 -0.374397
-16.4295 39.8417 6.7158 0.0198099 -0.931854 -0.362291
-16.576 40.3314 5.47949 0.00489646 -0.92662 -0.375967
-16.8269 40.9227 4.01896 0.00113797 -0.929636 -0.368367
-17.5124 41.6032 2.34331 -0.0133482 -0.924432 -0.381111
-17.8819 42.1016 1.149 -0.0145789 -0.924269 -0.381462
-18.3414 42.5554 0.106212 -0.0176341 -0.919173 -0.393459
-18.7013 42.9742 -0.881323 -0.0346657 -0.922079 -0.385369
-19.3272 43.3931 -1.79978 -0.0421285 -0.91848 -0.393216
-19.8707 43.8273 -2.75581 -0.0439605 -0.914916 -0.401146
-20.7066 44.3095 -3.73648 -0.0457921 -0.911351 -0.409074
-21.6967 44.7288 -4.52289 -0.0574459 -0.908785 -0.413292
-22.6729 45.1609 -5.30853 -0.0643714 -0.900007 -0.431063
-23.6277 45.5993 -6.06639 -0.0694792 -0.89899 -0.432422
-24.6793 46.2144 -7.12459 -0.0761093 -0.88644 -0.456527
-25.6995 46.7666 -8.03594 -0.0722572 -0.886834 -0.456404
-26.5735 47.3485 -8.96284 -0.0977539 -0.872045 -0.479564
-27.3355 47.9739 -9.94472 -0.098439 -0.872638 -0.478342
-27.9626 48.6807 -11.0415 -0.0948042 -0.859119 -0.502919
-28.4613 49.3211 -12.0332 -0.109053 -0.850239 -0.514977
-28.6334 50.0084 -13.0922 -0.109254 -0.830861 -0.545649
-28.5413 50.9168 -14.4938 -0.13109 -0.834393 -0.534786
-28.253 51.9092 -16.0513 -0.163521 -0.803862 -0.571898
-28.2439 52.7566 -17.2449 -0.160797 -0.801124 -0.576462
-28.2952 53.4998 -18.1982 -0.191464 -0.768306 -0.610776
-28.3415 54.2137 -19.0816 -0.18847 -0.763096 -0.618121
-29.4128 54.3294 -18.8915 -0.169359 -0.765745 -0.619978
-29.8693 55.3014 -19.8527 -0.169338 -0.71065 -0.682863
-30.1063 56.4772 -21.0175 -0.16938 -0.710621 -0.682883
-30.4926 57.3352 -21.6982 -0.196587 -0.648618 -0.735288
-30.7625 58.4935 -22.6369 -0.189431 -0.641632 -0.743252
-30.7697 59.7236 -23.5438 -0.222244 -0.577381 -0.785646
-30.5147 60.8391 -24.4211 -0.235351 -0.527232 -0.814975
-30.2251 61.9033 -25.1322 -0.2575 -0.487414 -0.834339
-29.7806 63.4973 -26.123 -0.22771 -0.444229 -0.866492
-29.5998 64.7608 -26.7058 -0.286309 -0.360888 -0.887574
-29.4794 66.0343 -27.0747 -0.260199 -0.180364 -0.945039
-28.4028 65.9673 -27.4961 -0.692424 -0.180223 -0.698619
-27.4695 65.8769 -28.2789 -0.506866 -0.393595 -0.762643
-26.8635 65.8272 -29.2049 -0.689458 -0.495332 -0.504419
-26.1367 66.0476 -30.2942 -0.611915 -0.584547 -0.52989
-25.8726 66.6632 -31.357 -0.488002 -0.750049 -0.446409
-25.679 67.2991 -32.558 -0.502667 -0.711456 -0.491077
-25.5044 67.9327 -33.4439 -0.501661 -0.607746 -0.615615
-25.0827 68.6761 -34.5039 -0.496465 -0.596051 -0.631067
-24.5325 69.189 -35.3989 -0.542747 -0.557231 -0.628426
-23.2066 68.7488 -36.1561 -0.537478 -0.561702 -0.628917
-21.5921 68.2221 -37.2873 -0.600967 -0.520938 -0.606186
-20.4698 67.688 -38.0639 -0.67132 -0.495855 -0.550434
-19.3303 67.2736 -39.0573 -0.704118 -0.49862 -0.501717
-18.6093 66.8135 -39.7462 -0.742082 -0.489101 -0.458361
-17.7623 66.4204 -40.5458 -0.72763 -0.565752 -0.380438
-16.9833 65.9959 -41.6056 -0.758449 -0.582414 -0.292488
-16.3338 65.5907 -42.574 -0.807834 -0.554401 -0.200107
-15.7318 65.3365 -44.0877 -0.772915 -0.604728 -0.185671
-15.4226 65.2356 -45.3277 -0.768035 -0.629277 -0.10969
-15.2812 65.1994 -46.5423 -0.749302 -0.656501 -0.0845994
-15.3006 65.4368 -48.3224 -0.730539 -0.678756 -0.0748519
-15.4043 65.6653 -49.6515 -0.710089 -0.700746 -0.0687633
-15.6907 66.0673 -50.9777 -0.699507 -0.71283 -0.0506213
-15.9508 66.4145 -52.1232 -0.691675 -0.719008 -0.0679174
-16.1927 66.7873 -53.7106 -0.680508 -0.730056 -0.0626687
-16.4109 67.1189 -54.9879 -0.669408 -0.73315 -0.116032
-16.1378 67.1033 -56.1746 -0.6726 -0.725615 -0.145233
-15.6054 66.7148 -57.5775 -0.727265 -0.686342 -0.00449148
-14.8691 65.9325 -57.2547 -0.727265 -0.686342 -0.00449103
-14.1016 65.1319 -56.9668 -0.70633 -0.707427 -0.0253903
-12.9798 63.9927 -56.5129 -0.69531 -0.717178 -0.0449884
-12.0758 63.1279 -56.1042 -0.6729 -0.73889 -0.0353114
-10.5598 61.7146 -55.4179 -0.670188 -0.741108 -0.0396824
-9.49888 60.7895 -54.864 -0.62791 -0.773561 -0.0856305
-8.61445 60.0012 -54.2277 -0.616977 -0.782988 -0.0774198
-7.77104 59.3185 -53.7755 -0.59674 -0.798451 -0.0798543
-6.89851 58.5841 -52.9533 -0.572824 -0.815399 -0.0783031
-5.85479 57.8009 -52.209 -0.55612 -0.824394 -0.105378
-4.80692 57.01 -51.5522 -0.556135 -0.824385 -0.105376
-3.55612 56.2059 -50.9363 -0.499828 -0.860772 -0.0961411
-2.55606 55.5672 -50.6324 -0.508083 -0.851949 -0.126626
-1.59696 55.0233 -50.2259 -0.444847 -0.887388 -0.12105
-0.48658 54.4175 -49.9291 -0.460064 -0.882028 -0.101821
1.33545 53.5262 -49.6445 -0.419498 -0.902968 -0.0931186
2.438 53.0169 -49.4773 -0.381499 -0.91867 -0.102191
3.49942 52.5614 -49.2605 -0.37544 -0.921635 -0.098151
4.59925 52.117 -49.2591 -0.356457 -0.92887 -0.0999972
6.18042 51.5578 -49.525 -0.346217 -0.933217 -0.0961285
7.21869 51.1723 -49.492 -0.319645 -0.942176 -0.100657
8.66646 50.699 -49.6674 -0.320202 -0.941918 -0.101296
10.3763 50.1678 -49.9515 -0.300097 -0.948019 -0.105841
11.6426 49.7663 -49.9389 -0.29997 -0.948158 -0.104948
12.8174 49.4168 -49.9447 -0.283288 -0.952975 -0.107642
13.8618 49.0929 -49.8325 -0.278263 -0.955302 -0.0994139
15.4234 48.6496 -49.7988 -0.269724 -0.957646 -0.100815
16.443 48.3383 -49.5702 -0.261495 -0.959659 -0.102949
17.5534 48.0751 -49.8386 -0.253401 -0.961627 -0.10517
18.9648 47.7329 -50.0933 -0.246371 -0.963447 -0.105053
20.0545 47.4651 -50.1269 -0.24038 -0.964855 -0.106175
21.1909 47.1997 -50.3033 -0.2368 -0.966026 -0.103403
22.6057 46.9027 -50.6944 -0.231615 -0.967316 -0.103217
24.0082 46.5384 -50.4298 -0.223845 -0.968272 -0.111094
24.8452 46.2727 -49.7984 -0.223039 -0.968371 -0.11185
25.4386 45.9945 -48.588 -0.221754 -0.968203 -0.115797
25.6535 45.7748 -47.1934 -0.222632 -0.967177 -0.122487
25.5419 45.6052 -45.6744 -0.222004 -0.966879 -0.125917
24.6279 45.7171 -44.9007 -0.229023 -0.965134 -0.126735
23.0187 46.1071 -44.9738 -0.228094 -0.965152 -0.128272
21.9034 46.3761 -44.9622 -0.236436 -0.962893 -0.130135
20.2884 46.8016 -45.1403 -0.24079 -0.962203 -0.127152
18.6881 47.2104 -45.1461 -0.251378 -0.959325 -0.128324
17.3338 47.5607 -45.1267 -0.249923 -0.958902 -0.134331
15.9015 47.9118 -44.8738 -0.262854 -0.956008 -0.130217
14.3 48.2571 -44.1588 -0.272062 -0.953301 -0.130949
13.3814 48.4484 -43.6006 -0.275369 -0.950808 -0.141898
12.3786 48.6092 -42.7324 -0.275316 -0.950817 -0.141943
11.6931 48.682 -41.8231 -0.289169 -0.946123 -0.145607
10.9692 48.7516 -40.8825 -0.286454 -0.946212 -0.150424
10.1281 48.8037 -39.6099 -0.286746 -0.946059 -0.150827
9.71291 48.6183 -37.8526 -0.279601 -0.945554 -0.166584
9.17877 48.5467 -36.4819 -0.2982 -0.938422 -0.174213
8.87225 48.3483 -34.9972 -0.29516 -0.936798 -0.187858
8.23755 48.2877 -33.6977 -0.292361 -0.936945 -0.191411
7.89082 48.1329 -32.4111 -0.287326 -0.938837 -0.189814
7.43378 47.9922 -31.0505 -0.280937 -0.939324 -0.196836
7.03267 47.8454 -29.8492 -0.281859 -0.936253 -0.209727
6.55176 47.6728 -28.432 -0.277267 -0.936788 -0.213348
5.92381 47.5292 -27.0407 -0.260695 -0.941271 -0.214585
5.54104 47.394 -26.0015 -0.258934 -0.938927 -0.226648
5.19505 47.0969 -24.3842 -0.254575 -0.939099 -0.230819
4.64952 46.9611 -23.2944 -0.251086 -0.937023 -0.242782
4.17637 46.812 -22.1913 -0.238664 -0.942166 -0.235221
3.92137 46.3168 -20.0589 -0.22312 -0.942263 -0.249717
3.61409 46.0271 -18.7045 -0.223033 -0.941367 -0.253149
3.32824 45.5941 -16.8545 -0.209072 -0.944227 -0.254408
2.99558 45.2797 -15.4413 -0.199817 -0.94413 -0.262021
2.84627 45.0115 -14.3399 -0.197021 -0.946096 -0.257071
2.54261 44.7339 -13.1296 -0.187813 -0.944169 -0.270688
2.27534 44.4924 -12.0768 -0.184278 -0.947221 -0.262323
1.81175 44.1644 -10.6394 -0.17208 -0.945527 -0.276346
1.3661 43.923 -9.50173 -0.166371 -0.950855 -0.261143
1.11583 43.5338 -7.99637 -0.158161 -0.948903 -0.273073
0.871422 43.2621 -6.90862 -0.145757 -0.950601 -0.274065
0.717729 42.9334 -5.68707 -0.136045 -0.952099 -0.27386
0.422112 42.6152 -4.43407 -0.130897 -0.950846 -0.28051
0.324371 42.2103 -2.99694 -0.117764 -0.954473 -0.274068
0.0609347 41.8662 -1.68539 -0.115405 -0.953648 -0.277879
-0.0201932 41.4896 -0.343141 -0.108049 -0.956156 -0.272196
-0.120264 41.1539 0.875812 -0.107519 -0.956258 -0.272047
0.0757813 40.794 2.07943 -0.087669 -0.957529 -0.274686
0.220796 40.4643 3.18589 -0.0883787 -0.96062 -0.263435
0.466626 40.0798 4.52435 -0.0824 -0.962907 -0.256944
0.70275 39.6751 5.95627 -0.0788669 -0.962823 -0.258342
0.886893 39.3408 7.15891 -0.0765348 -0.963576 -0.256248
1.01634 39.0283 8.29622 -0.0765104 -0.963603 -0.256155
1.18527 38.7012 9.5131 -0.0662867 -0.967005 -0.245983
1.53803 38.277 10.9943 -0.0477514 -0.967195 -0.248955
1.69907 37.8971 12.5417 -0.0396345 -0.970264 -0.23873
1.95357 37.6108 13.6376 -0.0431445 -0.968409 -0.245608
2.02513 37.3182 14.7944 -0.0360952 -0.974647 -0.220819
2.65976 36.9002 16.4831 -0.0340953 -0.97053 -0.23843
2.9471 36.5759 17.7782 -0.0259371 -0.975616 -0.217946
3.61929 36.3144 18.8608 -0.0253902 -0.975073 -0.220428
4.19541 36.0861 19.8047 -0.0322228 -0.974528 -0.22183
4.85328 35.7512 21.2456 -0.0282401 -0.978676 -0.203458
5.23499 35.3212 23.1368 0.00306678 -0.973628 -0.228122
5.10584 35.0909 24.2492 0.00375242 -0.98026 -0.197673
4.77737 34.8264 25.5187 0.0209041 -0.976535 -0.21434
4.41761 34.5089 26.9482 0.0203237 -0.977787 -0.208615
3.83935 34.2268 28.214 0.0203566 -0.97778 -0.208641
3.09444 33.875 29.6186 0.062962 -0.971756 -0.227057
2.80093 33.5991 30.7703 0.069169 -0.97399 -0.215774
2.34479 33.1878 32.3662 0.0933744 -0.965127 -0.244564
2.4719 32.8377 33.9696 0.10319 -0.970231 -0.219094
2.71079 32.5802 35.2518 0.127184 -0.966312 -0.222539
3.09604 32.2934 36.6838 0.15084 -0.956458 -0.249227
3.80347 32.007 38.3413 0.163561 -0.958932 -0.231728
4.57099 31.8631 39.5206 0.167223 -0.961433 -0.218348
5.61156 31.832 40.4712 0.167857 -0.957897 -0.232396
6.74302 31.743 41.442 0.130512 -0.958429 -0.253735
8.10974 31.7127 42.521 0.132858 -0.969072 -0.205895
9.0351 31.6584 43.2662 0.110146 -0.975503 -0.190425
10.0109 31.6676 43.783 0.110161 -0.975498 -0.190441
10.9448 31.6171 44.5098 0.0963762 -0.976081 -0.194876
11.6782 31.4784 45.5542 0.0958786 -0.975531 -0.197855
12.071 31.287 46.7183 0.105152 -0.975436 -0.193565
12.1612 31.0721 47.8979 0.117698 -0.973811 -0.193976
11.6838 30.7693 49.0598 0.129789 -0.972642 -0.192671
10.9131 30.5175 49.8118 0.129697 -0.97267 -0.192592
10.4844 30.2299 50.8173 0.156332 -0.965163 -0.20981
9.90985 29.932 51.7355 0.155957 -0.963787 -0.216315
9.10292 29.4983 52.9083 0.193629 -0.951782 -0.237947
8.52622 29.1083 54.0084 0.193234 -0.95253 -0.235261
7.92052 28.6936 55.1901 0.219828 -0.945925 -0.236956
7.25139 28.1569 56.4691 0.273263 -0.928177 -0.252618
6.75258 27.725 57.5168 0.273243 -0.928203 -0.252543
6.296 27.2195 58.8391 0.282647 -0.924388 -0.256105
5.88198 26.8096 59.8804 0.284529 -0.925164 -0.251226
6.0473 26.5211 60.973 0.314462 -0.899918 -0.302041
6.30575 26.2419 62.0546 0.310943 -0.899526 -0.306866
6.75677 26.0667 63.1014 0.288737 -0.911479 -0.292115
7.1587 25.8451 64.1307 0.268605 -0.914665 -0.302058
7.80237 25.7482 65.1006 0.277779 -0.920426 -0.275054
8.5096 25.6515 66.1387 0.277557 -0.920469 -0.275133
9.68615 25.7519 66.9122 0.256763 -0.935636 -0.242196
10.4359 25.7384 67.7593 0.256859 -0.935598 -0.24224
10.0713 25.4174 68.5103 0.287105 -0.91802 -0.27342
8.87766 25.0039 68.645 0.287105 -0.91802 -0.273421
7.61294 24.4722 69.0406 0.30128 -0.914864 -0.2688
6.60686 24.063 69.2467 0.348792 -0.895154 -0.277304
5.35245 23.4418 69.6451 0.357435 -0.894382 -0.268924
4.35424 22.936 69.9897 0.383772 -0.878926 -0.28321
3.28814 22.3351 70.4051 0.384698 -0.878391 -0.283615
2.23273 21.7312 70.821 0.394152 -0.876083 -0.277693
0.953185 21.0025 71.318 0.405609 -0.87128 -0.275953
-0.449793 20.2694 71.4886 0.422088 -0.864225 -0.273742
-1.45937 19.719 71.608 0.441235 -0.85514 -0.272097
-2.57517 19.1156 71.6896 0.44765 -0.852514 -0.269869
-3.67918 18.4674 71.903 0.453247 -0.850623 -0.266436
-4.95862 17.5792 72.5953 0.450689 -0.854567 -0.258059
-5.96869 16.9146 73.0365 0.452862 -0.855362 -0.251539
-7.2042 16.0432 73.8326 0.451164 -0.85933 -0.240836
-8.38726 15.3984 73.917 0.45122 -0.859291 -0.240873
-9.49295 15.0256 73.1558 0.453663 -0.859927 -0.233914
-10.1806 14.934 72.1588 0.453694 -0.859912 -0.233907
-10.6964 14.9154 71.2245 0.455767 -0.859353 -0.231926
-11.7332 14.5513 70.5366 0.455701 -0.859364 -0.232014
-12.7409 14.2035 69.8591 0.438999 -0.866331 -0.237953
-14.0711 13.7429 69.1512 0.431532 -0.867845 -0.246222
-15.0162 13.4071 68.6786 0.430768 -0.867836 -0.24758
-16.619 12.6862 68.4265 0.429546 -0.868105 -0.248765
-17.6504 12.2169 68.3212 0.422226 -0.875813 -0.233829
-18.7925 11.6345 68.4405 0.422223 -0.875826 -0.233789
-20.0398 11.0591 68.3847 0.406771 -0.884444 -0.228685
-21.2941 10.6237 67.9178 0.392823 -0.887787 -0.239843
-22.8552 10.3361 66.5222 0.375458 -0.891918 -0.25202
-23.6549 10.2533 65.6313 0.330729 -0.90869 -0.252739
-24.8347 10.1584 64.7308 0.29634 -0.908104 -0.295854
-25.6565 10.1721 63.8399 0.311147 -0.906471 -0.285478
-26.5365 10.1758 62.8693 0.316327 -0.90003 -0.299369
-26.9194 10.5853 61.321 0.318571 -0.893251 -0.317199
-26.4843 11.1539 60.1568 0.326174 -0.883187 -0.336258
-25.8395 11.7506 59.2962 0.333816 -0.873094 -0.355351
-25.0764 12.4102 58.3879 0.332034 -0.873822 -0.355232
-24.312 13.0065 57.6647 0.332421 -0.868997 -0.366526
-23.3675 13.7378 56.8197 0.341593 -0.864198 -0.369426
-22.767 14.4411 55.7498 0.343206 -0.860625 -0.37621
-22.0969 15.2646 54.5054 0.365249 -0.845593 -0.388981
-21.5315 15.9758 53.5446 0.370839 -0.837355 -0.401641
-21.0761 16.5899 52.6848 0.370789 -0.837354 -0.401689
-20.5566 17.2836 51.6984 0.334836 -0.845837 -0.415265
-19.6264 18.0637 50.8595 0.334828 -0.845813 -0.415319
-18.7524 18.7812 50.2202 0.362466 -0.822781 -0.437777
-17.8179 19.3939 49.8514 0.388254 -0.817163 -0.425683
-16.8656 20.2959 48.9418 0.38928 -0.827926 -0.403732
-16.0483 21.0816 48.1236 0.370458 -0.825195 -0.426398
-15.44 21.7972 47.2836 0.396675 -0.818746 -0.415094
-14.3072 22.8497 46.2709 0.386727 -0.821601 -0.418721
-13.4695 23.5578 45.6547 0.373518 -0.831187 -0.411841
-12.3261 24.4893 44.8222 0.377273 -0.829681 -0.411454
-11.5338 25.0771 44.3464 0.370102 -0.839685 -0.397434
-10.3797 26.2177 43 0.359212 -0.850391 -0.384046
-9.52349 26.9412 42.1367 0.352705 -0.859319 -0.370364
-8.84736 27.5254 41.4021 0.329713 -0.873049 -0.359082
-8.22818 28.0788 40.5893 0.326605 -0.878307 -0.349151
-7.32871 28.749 39.7524 0.304009 -0.881081 -0.362053
-6.43271 29.3758 38.7924 0.290282 -0.902582 -0.317932
-5.54755 29.9442 37.987 0.273694 -0.90977 -0.311517
-4.77628 30.4081 37.2584 0.257679 -0.912862 -0.316677
-4.02021 30.8758 36.5254 0.257691 -0.912855 -0.316688
-2.78734 31.4916 35.5608 0.218165 -0.928693 -0.299889
-2.13536 31.9254 34.6688 0.200923 -0.939431 -0.277667
-1.78233 32.36 33.4342 0.154687 -0.951138 -0.267194
-1.59714 32.7349 32.1818 0.158586 -0.952179 -0.261161
-2.00634 32.9811 31.0878 0.15403 -0.94891 -0.275399
-2.41925 33.2494 29.8734 0.131168 -0.95626 -0.261328
-3.30271 33.3805 28.9373 0.158006 -0.951083 -0.265472
-4.52021 33.5914 27.5396 0.144221 -0.94737 -0.285816
-5.52254 33.6969 26.6381 0.157657 -0.939264 -0.303963
-6.8968 33.8816 25.4864 0.144899 -0.935297 -0.322836
-7.55146 34.1027 24.5518 0.128404 -0.944508 -0.30097
-8.69848 34.3011 23.544 0.142449 -0.926557 -0.348138
-9.64412 34.5812 22.4002 0.112461 -0.939683 -0.323023
-10.4677 34.7521 21.5781 0.141746 -0.932782 -0.331401
-11.1538 34.9472 20.7355 0.129069 -0.92991 -0.343923
-12.5758 35.2713 19.4106 0.10959 -0.930592 -0.349219
-13.3833 35.4918 18.59 0.104288 -0.929978 -0.352512
-14.0334 35.7502 17.7358 0.105445 -0.925403 -0.364019
-14.6982 36.1671 16.4797 0.11243 -0.924658 -0.363823
-15.3193 36.4419 15.6172 0.0990658 -0.927425 -0.36065
-15.7986 36.8882 14.3512 0.0871766 -0.924243 -0.371719
-16.3061 37.3107 13.145 0.0782082 -0.927202 -0.366191
-16.7003 37.8472 11.7404 0.0741362 -0.924505 -0.373891
-17.0079 38.2413 10.6784 0.0480006 -0.930361 -0.363383
-17.2165 38.729 9.42531 0.0408589 -0.928806 -0.368306
-17.3197 39.3147 7.9539 0.0411247 -0.926356 -0.374398
-17.3661 39.7907 6.77823 0.0280515 -0.923107 -0.383466
-17.6044 40.3307 5.45516 0.0208904 -0.925155 -0.379015
-17.9499 40.9347 3.96186 0.020802 -0.925135 -0.379068
-18.3131 41.3418 3.00749 -0.00508261 -0.921235 -0.388775
-18.9347 41.956 1.54198 -0.0145788 -0.92427 -0.381462
-19.2425 42.4166 0.470819 -0.0176337 -0.919174 -0.393458
-19.5299 42.8629 -0.555829 -0.0221479 -0.918716 -0.394298
-20.287 43.2782 -1.43567 -0.0272427 -0.912081 -0.409103
-21.0045 43.7769 -2.51655 -0.0439604 -0.914916 -0.401146
-22.0644 44.2689 -3.46068 -0.04702 -0.906576 -0.419238
-22.8934 44.6714 -4.24533 -0.0366251 -0.904362 -0.425192
-24.4134 45.3626 -5.47327 -0.0525998 -0.892793 -0.447387
-25.0608 45.7913 -6.25251 -0.0576357 -0.887184 -0.457638
-26.3525 46.3873 -7.20407 -0.0623171 -0.881704 -0.467669
-27.4939 47.1651 -8.4627 -0.07389 -0.87001 -0.487466
-28.0923 47.6775 -9.2864 -0.0737823 -0.870041 -0.487427
-29.0628 48.645 -10.7788 -0.0907872 -0.857871 -0.505781
-29.7362 49.4392 -11.9585 -0.106795 -0.849179 -0.517194
-29.8677 50.3869 -13.4214 -0.111529 -0.83 -0.546493
-29.5849 51.1813 -14.6836 -0.11383 -0.829123 -0.547356
-29.2689 51.8286 -15.6695 -0.136171 -0.80887 -0.572002
-29.2234 52.5624 -16.718 -0.136149 -0.808881 -0.571992
-29.327 53.8668 -18.3503 -0.147255 -0.763183 -0.62918
5.89703 28.3764 54.3491 0.256471 -0.932298 -0.254262
6.42785 28.7473 53.4358 0.248408 -0.939967 -0.234001
7.01195 29.1771 52.3293 0.238378 -0.944634 -0.225033
7.6816 29.5576 51.3653 0.228348 -0.949301 -0.216067
8.48891 30.0296 50.2054 0.19759 -0.955206 -0.217453
9.09615 30.3918 48.9826 0.166775 -0.964881 -0.202954
9.6039 30.6848 48.0485 0.16785 -0.962292 -0.214059
9.83674 30.9527 46.9292 0.135213 -0.967329 -0.213828
8.96118 31.1222 45.6727 0.146718 -0.963088 -0.225687
7.85808 31.1609 44.7901 0.146722 -0.963091 -0.225672
6.54576 31.174 43.769 0.163916 -0.962506 -0.216134
5.47005 31.169 42.9231 0.19508 -0.953169 -0.231099
4.52804 31.2003 42.0948 0.193938 -0.94348 -0.268762
3.54812 31.2358 41.2628 0.203975 -0.943176 -0.262045
2.72243 31.297 40.3448 0.214014 -0.942871 -0.255329
2.08545 31.411 39.3549 0.200217 -0.945615 -0.256369
1.45225 31.6443 38.0126 0.188757 -0.944598 -0.268326
0.851741 31.9789 36.4741 0.185185 -0.941876 -0.280292
0.380378 32.1571 35.5567 0.179512 -0.94531 -0.272331
-0.985057 31.5923 36.5771 0.202344 -0.935197 -0.289771
-1.86901 31.0742 37.5349 0.222291 -0.928581 -0.297193
-2.78292 30.5966 38.3624 0.241204 -0.924396 -0.294673
-3.67999 30.0665 39.1972 0.260176 -0.916886 -0.302701
-4.54802 29.5735 39.9444 0.261821 -0.91253 -0.31399
-5.76703 28.7743 41.1552 0.310311 -0.891545 -0.328368
-6.8327 27.9391 42.246 0.328237 -0.877676 -0.349202
-7.59119 27.2596 43.1707 0.352484 -0.868342 -0.348909
-8.42824 26.5595 44.0675 0.352815 -0.867372 -0.350972
-9.28901 25.8133 44.9077 0.381262 -0.847283 -0.369799
-10.1688 25.098 45.6396 0.387608 -0.839573 -0.38035
-10.9789 24.4344 46.2353 0.393954 -0.831863 -0.390902
-11.8765 23.7153 46.8713 0.39406 -0.827314 -0.400176
-12.7091 22.9477 47.6025 0.39551 -0.822594 -0.408538
-13.5524 22.1628 48.3818 0.392551 -0.826125 -0.404254
-14.2637 21.409 49.215 0.400114 -0.822682 -0.403858
-15.058 20.5529 50.1774 0.399503 -0.823512 -0.402772
-15.9753 19.7045 51.013 0.396656 -0.819184 -0.413964
-17.0025 18.9067 51.5589 0.407512 -0.813563 -0.414652
-17.8974 18.2161 52.0992 0.369943 -0.840279 -0.39627
-18.8097 17.4014 52.98 0.359061 -0.843516 -0.399398
-19.5144 16.5402 54.1781 0.353891 -0.845401 -0.400073
-19.9521 15.8585 55.2313 0.365126 -0.84441 -0.391737
-20.7582 14.9523 56.4891 0.357751 -0.853424 -0.379054
-21.4115 14.348 57.2329 0.357751 -0.853424 -0.379053
-22.5508 13.2403 58.6974 0.329354 -0.869766 -0.367225
-23.3955 12.5286 59.6657 0.330851 -0.8741 -0.35565
-24.3176 11.6884 60.8731 0.333812 -0.878406 -0.341686
-24.3534 11.2206 62.1278 0.320777 -0.893815 -0.313364
-23.6055 11.0798 63.2952 0.320989 -0.893977 -0.312683
-22.5005 11.1844 64.2498 0.366365 -0.883057 -0.293235
-21.3017 11.3486 65.2532 0.370911 -0.887488 -0.272627
-20.335 11.5911 65.9817 0.41409 -0.873653 -0.255462
-19.2702 11.9627 66.4367 0.418389 -0.872439 -0.252531
-17.9297 12.6119 66.4409 0.422688 -0.871226 -0.249599
-16.7778 13.1405 66.5224 0.418362 -0.873658 -0.248384
-15.6385 13.6547 66.6658 0.434282 -0.867923 -0.24095
-14.4175 14.1792 67.0131 0.440358 -0.864416 -0.242632
-13.1693 14.6508 67.5608 0.445916 -0.858539 -0.252622
-11.8443 15.1165 68.3927 0.459377 -0.850688 -0.255542
-10.5005 15.5849 69.2607 0.460885 -0.850405 -0.253765
-9.54139 15.8738 70.0339 0.462489 -0.850036 -0.252065
-8.67306 16.0549 71.0291 0.463614 -0.851718 -0.244119
-7.62569 16.4766 71.5262 0.454589 -0.854715 -0.250476
-6.50162 17.2318 71.0343 0.459303 -0.850516 -0.25625
-5.48863 17.9467 70.4527 0.453898 -0.851713 -0.261781
-4.49252 18.6161 70.0274 0.457107 -0.848859 -0.265503
-3.5099 19.2263 69.7682 0.453247 -0.850623 -0.266437
-2.52116 19.7855 69.6557 0.451061 -0.851089 -0.268684
-1.57533 20.3479 69.4703 0.446079 -0.849971 -0.280257
-0.247658 21.0449 69.3622 0.424061 -0.857501 -0.291315
0.700806 21.5875 69.1255 0.402597 -0.869262 -0.286525
1.98487 22.3545 68.5347 0.389599 -0.874585 -0.288642
3.25077 23.1052 67.969 0.389536 -0.873476 -0.292041
4.66074 23.7884 67.6042 0.359107 -0.890742 -0.278604
6.03187 24.471 67.189 0.339948 -0.900138 -0.271441
5.99022 24.9317 65.7462 0.325807 -0.893395 -0.309122
5.14199 25.1759 64.1404 0.326594 -0.894811 -0.304003
4.61013 25.3806 62.9097 0.32452 -0.900324 -0.290007
4.09464 25.7072 61.2403 0.361703 -0.882929 -0.299223
3.99574 26.12 59.8714 0.357032 -0.886856 -0.293281
4.16762 26.554 58.7536 0.345251 -0.898697 -0.269209
4.56733 26.9987 57.6668 0.331087 -0.909734 -0.250531
4.90968 27.4365 56.5496 0.319871 -0.909344 -0.265993
5.35103 27.9063 55.4216 0.266519 -0.925276 -0.269873
5.43574 27.978 55.2596 0.266518 -0.925277 -0.269872
-23.6674 11.8632 61.0701 0.336772 -0.882713 -0.327724
-21.8626 11.9136 62.9177 0.377098 -0.873481 -0.307941
-19.8584 12.0858 65.0623 0.409907 -0.870159 -0.273495
-19.8254 12.0907 65.099 0.41409 -0.873653 -0.255462
-17.0144 13.2209 65.8412 0.418362 -0.873658 -0.248384
-19.0583 12.9629 63.5854 0.411914 -0.861234 -0.297662
-20.979 12.7951 61.5259 0.377809 -0.870568 -0.315233
-22.1577 12.7381 60.3005 0.348526 -0.870601 -0.34725
-21.5516 13.6485 58.6556 0.369943 -0.851395 -0.371845
-19.3477 13.7492 60.9426 0.408389 -0.86025 -0.305268
-17.1849 13.959 63.281 0.408451 -0.862561 -0.298591
-15.3419 14.212 65.3351 0.444275 -0.852963 -0.273997
-14.4615 14.3486 66.33 0.441826 -0.858908 -0.258972
-10.166 15.8743 68.8982 0.460802 -0.850455 -0.253746
-11.8303 15.5572 66.9683 0.462293 -0.846467 -0.264158
-13.1369 15.3247 65.4656 0.453611 -0.847247 -0.276423
-14.8 15.0605 63.5797 0.446898 -0.849568 -0.280208
-16.1558 14.8801 62.0706 0.423309 -0.851758 -0.308735
-17.762 14.7261 60.3352 0.417569 -0.85546 -0.306308
-19.2167 14.6203 58.7916 0.38849 -0.853552 -0.347167
-20.5206 14.6113 57.481 0.365341 -0.851292 -0.376599
-19.2684 15.5812 56.5327 0.376366 -0.846966 -0.375495
-17.8572 15.6121 57.9693 0.416401 -0.841003 -0.345433
-16.3994 15.7031 59.5052 0.407177 -0.846057 -0.344085
-15.0962 15.8383 60.9237 0.435586 -0.844593 -0.31133
-13.7224 16.0119 62.4461 0.447966 -0.847317 -0.285271
-12.2667 16.2393 64.0961 0.454234 -0.845979 -0.279268
-10.6019 16.5295 66.0074 0.463898 -0.845581 -0.26418
-9.07598 16.8141 67.7736 0.463571 -0.845622 -0.264623
-7.83808 17.0473 69.2064 0.464439 -0.847789 -0.256027
-6.80385 17.2556 70.4137 0.461291 -0.850346 -0.253223
-5.769 18.1833 69.2235 0.461862 -0.846095 -0.266096
-7.02103 17.942 67.7706 0.466537 -0.844727 -0.262257
-8.79132 17.6269 65.7358 0.462627 -0.841418 -0.279272
-10.5681 17.3171 63.6963 0.468964 -0.835638 -0.285976
-12.2273 17.0349 61.7925 0.458251 -0.839452 -0.292106
-13.5287 16.863 60.3413 0.447244 -0.835586 -0.319011
-14.833 16.7243 58.9168 0.432958 -0.841805 -0.322355
-16.5856 16.6019 57.0569 0.397907 -0.851016 -0.342699
-18.3993 16.5611 55.2101 0.37636 -0.84342 -0.383399
-19.0869 16.5646 54.5274 0.37636 -0.843421 -0.383399
-17.986 17.5489 53.442 0.375682 -0.841683 -0.387857
-16.5006 17.5429 54.9188 0.380011 -0.842675 -0.381433
-14.7719 17.6236 56.7173 0.443328 -0.826618 -0.346644
-13.4374 17.7535 58.1673 0.447245 -0.829448 -0.334646
-12.0353 17.9062 59.7042 0.457881 -0.829477 -0.319862
-10.5377 18.1326 61.4028 0.481958 -0.824978 -0.295174
-8.69262 18.4314 63.5044 0.466662 -0.837531 -0.284197
-7.42502 18.6407 64.9488 0.463306 -0.840903 -0.279695
-5.95074 18.897 66.6381 0.466576 -0.839769 -0.27766
-4.38648 19.1776 68.435 0.456214 -0.848074 -0.269515
-3.79637 19.2806 69.1097 0.45925 -0.845837 -0.271385
-2.08513 20.3338 68.6986 0.449527 -0.847775 -0.281432
-3.57637 20.086 67.0034 0.461503 -0.841656 -0.280413
-5.25921 19.7957 65.0798 0.466105 -0.840115 -0.277403
-6.70598 19.5571 63.4329 0.468171 -0.834475 -0.290633
-8.77603 19.2354 61.0886 0.464152 -0.831823 -0.304358
-10.6983 18.9746 58.9384 0.470101 -0.817938 -0.331637
-12.259 18.7919 57.2136 0.461792 -0.819465 -0.339448
-13.8146 18.6522 55.5322 0.448385 -0.818027 -0.360254
-15.1811 18.5718 54.0949 0.412729 -0.819968 -0.396618
-16.7156 18.5586 52.5518 0.410986 -0.816685 -0.405112
-16.9794 18.5571 52.287 0.410987 -0.816685 -0.405111
-15.6697 19.615 51.4832 0.412397 -0.816403 -0.404247
-13.8928 19.6274 53.2673 0.409755 -0.818458 -0.402774
-12.5759 19.7143 54.6621 0.448272 -0.815959 -0.365053
-11.2789 19.8313 56.0646 0.444772 -0.82681 -0.344328
-9.97069 19.9539 57.482 0.450531 -0.828483 -0.332622
-8.26982 20.1581 59.3637 0.461973 -0.828206 -0.317263
-6.80166 20.3665 61.012 0.465341 -0.831379 -0.303753
-5.45923 20.5714 62.5289 0.466559 -0.835024 -0.291646
-3.68163 20.8522 64.5408 0.457663 -0.840401 -0.290295
-2.14271 21.1041 66.2853 0.456685 -0.845166 -0.277729
-0.766433 21.309 67.8311 0.43611 -0.848894 -0.298642
-0.000484977 21.4004 68.6692 0.415597 -0.863938 -0.284411
1.63088 22.3463 68.0818 0.389598 -0.874585 -0.288643
0.202139 22.2129 66.5491 0.405107 -0.86613 -0.292757
-1.19752 22.0298 65.0024 0.429361 -0.856733 -0.285757
-2.90392 21.7761 63.0923 0.457664 -0.8404 -0.290295
-4.25344 21.5792 61.5772 0.459669 -0.833509 -0.306543
-6.04553 21.319 59.5645 0.463323 -0.830288 -0.309765
-7.48336 21.1307 57.9612 0.459945 -0.827301 -0.322528
-8.9534 20.9733 56.3505 0.449295 -0.826689 -0.338701
-10.5321 20.8318 54.6462 0.44561 -0.821874 -0.3549
-12.151 20.7198 52.9275 0.432347 -0.824328 -0.365459
-13.6949 20.6657 51.336 0.407718 -0.824402 -0.39259
-14.5333 20.6548 50.4895 0.399503 -0.823512 -0.402772
-13.5889 21.6941 49.3039 0.396642 -0.823997 -0.404603
-11.9431 21.7258 50.9776 0.417991 -0.825737 -0.378738
-10.4686 21.7881 52.5079 0.433034 -0.824631 -0.363958
-9.05016 21.8965 54.0221 0.440759 -0.824894 -0.353951
-7.64152 22.0221 55.5417 0.449002 -0.824971 -0.343248
-5.99957 22.1998 57.3433 0.460414 -0.826202 -0.324668
-4.68724 22.3586 58.793 0.446605 -0.838374 -0.312528
-3.24487 22.5522 60.3973 0.449198 -0.842547 -0.297214
-1.25229 22.8033 62.5964 0.434819 -0.847074 -0.305611
0.371437 23.0126 64.3872 0.413245 -0.863631 -0.288737
1.76315 23.1529 65.8867 0.393374 -0.868717 -0.300978
3.10621 23.2658 67.316 0.379864 -0.875325 -0.299182
4.81949 24.1371 66.751 0.340847 -0.886947 -0.311686
3.46802 24.0775 65.3546 0.366267 -0.881731 -0.297319
1.96135 23.9546 63.7546 0.400603 -0.871417 -0.283107
0.289956 23.7952 61.961 0.404798 -0.864228 -0.298745
-1.37953 23.6085 60.1412 0.417338 -0.85596 -0.305224
-2.76886 23.4526 58.6238 0.43732 -0.846505 -0.303611
-4.27861 23.2637 56.9556 0.44091 -0.83745 -0.322917
-5.71082 23.1263 55.4033 0.437425 -0.83707 -0.328594
-7.01877 23.0013 53.9844 0.444756 -0.830076 -0.3364
-8.3348 22.8981 52.577 0.440642 -0.825116 -0.353578
-10.11 22.7914 50.7068 0.425354 -0.824009 -0.374277
-11.7237 22.7397 49.0462 0.410554 -0.823997 -0.390479
-12.5749 22.725 48.1819 0.402049 -0.824689 -0.3978
-11.1534 23.7647 47.4759 0.403846 -0.823088 -0.399292
-9.69299 23.7881 48.9581 0.416303 -0.826356 -0.379246
-8.1532 23.8566 50.5604 0.414835 -0.833468 -0.365026
-6.09489 23.9983 52.7445 0.416691 -0.842392 -0.341678
-4.49447 24.127 54.4569 0.432546 -0.838216 -0.332112
-3.06924 24.2475 55.9857 0.421558 -0.848348 -0.320303
-1.25904 24.4352 57.9508 0.427787 -0.854304 -0.295233
0.147025 24.5923 59.4833 0.399044 -0.865557 -0.302615
1.58385 24.7093 61.0116 0.38918 -0.871138 -0.299428
3.34396 24.859 62.8852 0.379477 -0.887168 -0.262546
4.75949 24.9523 64.3703 0.328669 -0.889299 -0.318001
2.84036 25.6084 60.0121 0.358226 -0.887263 -0.290584
1.25614 25.4857 58.3338 0.372817 -0.883137 -0.28474
-0.0617994 25.3499 56.9089 0.407867 -0.868106 -0.282908
-1.93355 25.214 54.926 0.406579 -0.858432 -0.31271
-3.31342 25.0948 53.4455 0.417241 -0.849721 -0.322311
-4.99343 24.9722 51.6603 0.40921 -0.84527 -0.343606
-6.72778 24.8812 49.8456 0.416203 -0.833128 -0.364243
-8.24008 24.8196 48.2772 0.412383 -0.83131 -0.372644
-9.57601 24.783 46.9073 0.397197 -0.833375 -0.384343
-9.89029 24.7824 46.5919 0.393954 -0.831863 -0.390902
-8.91114 25.7702 45.396 0.381262 -0.847283 -0.369799
-7.52239 25.7953 46.8094 0.391282 -0.847739 -0.358103
-5.68264 25.8551 48.7042 0.399733 -0.845539 -0.353945
-4.35096 25.9017 50.0774 0.398226 -0.850081 -0.344643
-2.94362 25.9603 51.5369 0.380974 -0.859899 -0.339754
-1.6148 26.0483 52.9405 0.376533 -0.874098 -0.306881
0.214914 26.1739 54.8736 0.381983 -0.875029 -0.297343
1.72447 26.2747 56.4632 0.362556 -0.89344 -0.265177
3.65965 26.4262 58.5133 0.359417 -0.887661 -0.287886
3.97788 27.1382 56.4389 0.322446 -0.907343 -0.269738
2.07984 27.0462 54.4678 0.334969 -0.898358 -0.284162
0.388466 26.9704 52.714 0.339218 -0.896827 -0.283958
-1.01313 26.872 51.2319 0.348076 -0.886109 -0.30603
-2.77789 26.8364 49.4308 0.37093 -0.869583 -0.32594
-4.46764 26.7681 47.6822 0.3693 -0.867662 -0.332837
-6.13944 26.7341 45.9761 0.362517 -0.868834 -0.337208
-7.54692 26.7207 44.5536 0.353146 -0.866403 -0.353035
