3.21334 47.6507 38.059 -0.0502364 0.994366 0.0933376
3.62131 47.794 36.617 -0.0162853 0.993974 0.108403
4.04546 47.9204 35.4985 -0.0119211 0.994564 0.103442
4.44982 48.0433 34.3628 -0.00547804 0.993073 0.116462
5.18674 48.2667 32.5449 0.0088704 0.992939 0.118297
5.87857 48.4226 31.1185 0.0622272 0.990747 0.120531
6.44327 48.533 30.0141 0.070289 0.987784 0.139073
7.01568 48.6804 28.669 0.072157 0.988116 0.135724
7.58852 48.8479 27.1448 0.0777182 0.986645 0.142854
7.69742 49.0724 25.6752 0.116771 0.980959 0.15519
7.48625 49.3157 24.2884 0.0880769 0.981709 0.168318
7.08508 49.568 23.1342 0.0946184 0.978891 0.18116
6.68174 49.8196 21.9849 0.104373 0.975169 0.194583
6.22219 50.1167 20.8469 0.116998 0.972255 0.202564
5.57967 50.513 19.3829 0.130358 0.966411 0.221488
5.19394 50.8265 18.2423 0.115891 0.968198 0.221246
4.77427 51.1809 16.9163 0.114615 0.968106 0.222789
4.44561 51.4806 15.8102 0.117916 0.965983 0.230156
4.14691 51.7958 14.6302 0.126048 0.964942 0.230211
3.75205 52.1789 13.247 0.12036 0.965323 0.231564
3.4283 52.5304 11.9443 0.138424 0.964474 0.22501
3.28144 52.9094 10.5375 0.13062 0.958286 0.254215
3.19197 53.2986 9.11121 0.129858 0.958612 0.253376
3.17591 53.6423 7.80406 0.131307 0.959281 0.250078
3.16785 54.0328 6.46012 0.147084 0.951113 0.271464
3.1073 54.595 4.49822 0.154102 0.95053 0.269713
3.42938 54.8799 3.33798 0.151687 0.94922 0.275632
3.53688 55.2087 2.16423 0.156164 0.946303 0.283057
3.64028 55.588 0.84418 0.155707 0.946074 0.284077
3.79253 55.9563 -0.456105 0.16093 0.942657 0.292402
4.10831 56.2704 -1.6481 0.190133 0.937851 0.290317
4.50146 56.6754 -3.2093 0.191147 0.936518 0.293919
4.79426 57.1014 -4.74771 0.193036 0.935542 0.295802
5.19506 57.4386 -6.05671 0.191429 0.934423 0.300348
5.52627 57.7232 -7.18242 0.212478 0.931347 0.295686
5.698 58.0562 -8.3312 0.219651 0.926724 0.304854
6.02811 58.6743 -10.4247 0.218906 0.924701 0.311461
6.19707 59.0471 -11.6912 0.239109 0.923382 0.300322
6.63165 59.5054 -13.3974 0.242964 0.918843 0.310923
7.07499 59.8207 -14.6896 0.252324 0.917089 0.308675
7.54772 60.1543 -16.1004 0.270065 0.916958 0.293682
7.92456 60.4234 -17.2796 0.270039 0.916424 0.295374
8.25686 60.7151 -18.4699 0.284641 0.909398 0.303272
8.78088 60.931 -19.6668 0.302289 0.907748 0.290886
9.18242 61.1787 -20.8569 0.302679 0.909116 0.286127
9.55305 61.4008 -21.9765 0.314602 0.908692 0.274415
10.3795 61.709 -23.9934 0.317395 0.910988 0.263363
10.7947 61.9322 -25.2689 0.330967 0.908529 0.255016
11.4658 62.1752 -26.9981 0.329387 0.908944 0.255586
12.0808 62.3545 -28.4842 0.33198 0.911655 0.242221
12.5256 62.533 -29.7584 0.330172 0.912086 0.243076
13.1459 62.6753 -31.233 0.331463 0.915641 0.227451
13.7928 62.6906 -32.2833 0.337111 0.915334 0.220268
14.5047 62.7349 -33.5947 0.328825 0.920515 0.211012
15.8342 62.6832 -35.5546 0.325818 0.925096 0.194837
16.9895 62.4588 -36.3573 0.31789 0.927152 0.19833
18.0764 62.2134 -37.0005 0.317069 0.930726 0.182168
19.4935 61.8527 -37.5254 0.302436 0.935388 0.183254
21.4369 61.3268 -38.0283 0.299548 0.934194 0.193785
22.5961 61.0082 -38.2844 0.295092 0.935969 0.191974
23.9457 60.5853 -38.232 0.2834 0.938867 0.19548
25.4972 60.0834 -38.0645 0.283115 0.939981 0.190412
27.7418 59.3782 -37.8683 0.276378 0.942203 0.189388
28.9332 59.0814 -38.1303 0.272409 0.94289 0.191653
29.6251 59.1674 -39.5065 0.268439 0.943576 0.193918
29.586 59.4586 -40.9247 0.269543 0.945656 0.181885
29.0948 59.8759 -42.3827 0.270315 0.946452 0.176515
28.2266 60.3574 -43.6886 0.264773 0.949848 0.166385
27.1028 60.8169 -44.4709 0.271986 0.948456 0.16259
25.8563 61.2239 -44.7882 0.274223 0.948468 0.158703
24.2355 61.7225 -44.9163 0.276012 0.948672 0.154315
22.6917 62.1911 -45.0005 0.280565 0.947364 0.154226
20.6662 62.8125 -45.0238 0.292034 0.944861 0.148033
19.2731 63.2736 -45.2744 0.287482 0.946902 0.143984
17.9803 63.7298 -45.575 0.301254 0.943875 0.135377
16.3758 64.2772 -45.8707 0.298036 0.94528 0.132739
14.7622 64.8561 -46.1097 0.321626 0.939129 0.120671
12.9266 65.5442 -46.6614 0.325301 0.938616 0.114472
11.5566 66.0579 -47.0219 0.324761 0.940481 0.100126
10.1277 66.6142 -47.4412 0.336584 0.937305 0.0893496
9.00125 67.0379 -47.7715 0.337434 0.938025 0.0787321
7.26824 67.7284 -48.3991 0.349075 0.934059 0.0749688
5.57782 68.409 -48.9442 0.35816 0.93223 0.0516652
4.33894 68.9327 -49.3536 0.375117 0.925241 0.0567126
2.59235 69.6664 -49.9257 0.39989 0.915906 0.0303735
1.16332 70.331 -50.3239 0.420466 0.906957 0.0252469
-0.379993 71.0683 -50.6074 0.437043 0.899331 0.0140732
-1.47129 71.5906 -50.1323 0.459172 0.888239 0.0138625
-1.78512 71.7109 -48.8974 0.452219 0.890722 0.0459492
-2.02068 71.7679 -47.678 0.458871 0.887472 0.0427835
-2.17992 71.794 -46.4455 0.459983 0.8871 0.0383209
-2.43442 71.8773 -45.0327 0.471465 0.881477 0.0268002
-3.00926 72.1264 -43.299 0.48981 0.871169 0.0339168
-3.86643 72.5546 -41.8092 0.527033 0.847828 0.058522
-4.71092 72.9684 -40.525 0.517723 0.851762 0.0804038
-5.54475 73.4085 -39.5181 0.546058 0.828957 0.12104
-6.59279 73.9214 -38.2746 0.548702 0.827528 0.118839
-7.85729 74.5222 -36.772 0.561543 0.81344 0.151607
-8.59431 74.8002 -35.6225 0.546696 0.808596 0.217138
-9.57026 75.1143 -34.2022 0.575481 0.774005 0.260685
-10.3298 75.2862 -33.2297 0.581123 0.762313 0.283311
-11.6224 75.844 -32.185 0.593414 0.709038 0.380953
-12.5477 76.1109 -31.4807 0.579114 0.692744 0.425569
-13.6453 76.5695 -30.7999 0.549519 0.676767 0.487332
-14.9674 77.176 -30.2348 0.498858 0.640081 0.582941
-16.1108 77.828 -30.0682 0.40427 0.655007 0.637419
-17.1367 78.6651 -30.1298 0.430261 0.570077 0.69992
-18.781 79.5737 -29.932 0.391493 0.610577 0.688424
-18.3671 78.8418 -29.5351 0.376014 0.598721 0.706745
-17.8961 77.8707 -28.9215 0.401071 0.609394 0.682362
-17.5432 76.7717 -28.1608 0.407732 0.633389 0.655942
-16.9903 75.1378 -26.8428 0.329667 0.652749 0.682084
-16.7948 73.5833 -25.377 0.33763 0.686661 0.643819
-16.9403 72.358 -24.0306 0.240475 0.690369 0.682321
-17.5419 71.6837 -23.0653 0.201024 0.75104 0.628911
-18.3701 71.1114 -22.1171 0.185191 0.745407 0.640051
-19.5617 70.4914 -21.1029 0.17776 0.776247 0.601654
-20.2936 69.6647 -19.6612 0.152651 0.853617 0.491503
-20.7451 69.0752 -18.5024 0.227878 0.822069 0.521798
-21.6102 68.6402 -17.3002 0.331689 0.765135 0.551861
-22.9219 68.5183 -16.3428 0.330996 0.765677 0.551526
-24.0873 68.0039 -14.9779 0.322184 0.753269 0.572655
-24.1225 67.208 -13.8865 0.295275 0.742866 0.600801
-24.1289 66.4844 -12.9347 0.328292 0.75869 0.562684
-24.24 65.3017 -11.2654 0.238945 0.789299 0.565608
-24.2786 64.5803 -10.2424 0.236754 0.786418 0.570489
-24.1786 63.3075 -8.46023 0.211165 0.809323 0.548093
-23.8073 61.9676 -6.62254 0.176351 0.821181 0.542737
-23.4417 61.1455 -5.49533 0.164058 0.835792 0.523321
-23.2607 60.4342 -4.36754 0.148236 0.844609 0.514453
-22.9518 59.6909 -3.2363 0.131879 0.859908 0.492102
-22.512 58.7551 -1.64672 0.0994643 0.866389 0.489363
-22.2428 58.0879 -0.449317 0.0930382 0.881467 0.46299
-21.9278 57.5372 0.568339 0.0620384 0.890972 0.449799
-21.2618 56.9902 1.56229 0.0619996 0.89139 0.448976
-20.7696 56.3202 2.88754 0.00697069 0.905412 0.424279
-20.4088 55.4421 4.7181 -0.0019643 0.901477 0.432824
-20.2178 54.9367 5.83954 -0.0116825 0.911758 0.410562
-20.053 54.4155 6.96124 -0.0326472 0.908495 0.416346
-19.7577 53.9115 8.12975 -0.0398833 0.913785 0.404235
-19.5673 53.3952 9.2991 -0.054349 0.910859 0.409002
-19.4527 52.8821 10.4872 -0.0581594 0.914418 0.400571
-19.3067 52.361 11.7147 -0.0781078 0.917158 0.390727
-19.2093 51.8985 12.8112 -0.0980441 0.910399 0.401947
-19.0011 51.4141 13.9591 -0.106245 0.914414 0.390308
-18.8585 50.9655 15.0904 -0.118049 0.913987 0.388036
-18.7177 50.4595 16.2914 -0.127122 0.91286 0.387807
-18.3218 49.9305 17.6979 -0.14924 0.910719 0.385014
-17.8852 49.5076 18.8991 -0.148641 0.914224 0.376933
-17.2742 49.0737 20.2353 -0.166055 0.915419 0.366652
-16.5241 48.6355 21.6801 -0.190996 0.909186 0.370002
-15.4403 48.174 23.402 -0.196715 0.910873 0.362786
-14.5419 47.9392 24.5083 -0.215533 0.91724 0.334988
-13.405 47.6818 25.9276 -0.211558 0.921875 0.324332
-12.5426 47.4749 27.1023 -0.225725 0.914284 0.336351
-11.5504 47.2792 28.3254 -0.233216 0.914205 0.33142
-10.5516 47.1377 29.4599 -0.230612 0.918832 0.320259
-9.72891 47.0119 30.4132 -0.234833 0.92522 0.297025
-8.79933 46.9132 31.5723 -0.246987 0.930826 0.269372
-8.02844 46.7292 32.915 -0.247089 0.933436 0.259901
-7.63307 46.5312 34.0463 -0.248263 0.93594 0.249763
-7.272 46.3226 35.1871 -0.248087 0.940023 0.233513
-7.39931 46.0459 36.244 -0.247907 0.944108 0.217263
-8.52737 45.7136 36.1291 -0.320668 0.910952 0.259496
-8.34327 46.1143 34.9026 -0.247726 0.935993 0.250098
-8.9897 46.2681 33.6897 -0.247186 0.936047 0.250431
-9.58346 46.485 32.333 -0.24302 0.931216 0.271582
-10.4052 46.5568 31.3711 -0.239055 0.931607 0.273791
-11.1886 46.7 30.257 -0.232694 0.918619 0.319354
-12.6582 46.9381 28.4869 -0.233996 0.916306 0.324935
-13.8501 47.1495 27.0775 -0.249904 0.904677 0.34512
-14.6353 47.3625 26.0002 -0.230807 0.905363 0.356435
-15.6506 47.576 24.7893 -0.206125 0.914057 0.348885
-16.6535 47.9131 23.3577 -0.216364 0.906291 0.363075
-17.3985 48.1789 22.3339 -0.195698 0.901485 0.38604
-18.1338 48.5972 20.9589 -0.180455 0.907425 0.379449
-18.6006 48.956 19.8898 -0.174814 0.907875 0.381056
-19.1419 49.3647 18.7349 -0.160034 0.907636 0.387807
-19.6263 49.8144 17.4837 -0.139601 0.908226 0.394463
-19.879 50.2935 16.3037 -0.133366 0.906443 0.400718
-20.0018 50.8683 14.9628 -0.127514 0.90799 0.399068
-20.2661 51.4833 13.4999 -0.0899939 0.910644 0.403271
-20.3546 51.9839 12.3498 -0.089931 0.910622 0.403337
-20.3948 52.4814 11.2649 -0.0693719 0.908517 0.411707
-20.7965 53.124 9.73987 -0.0543487 0.910859 0.409004
-20.9627 53.7771 8.30012 -0.0505541 0.907315 0.417402
-21.2581 54.5618 6.58142 -0.02541 0.903205 0.428456
-21.4235 55.1487 5.33443 -0.0185467 0.907481 0.41951
-21.7376 55.8821 3.81458 0.0181874 0.899927 0.435661
-21.8973 56.4802 2.61511 0.0348797 0.887926 0.458663
-22.5963 57.1111 1.46055 0.0336949 0.885117 0.464148
-23.419 58.0631 -0.177995 0.0675374 0.873091 0.482857
-23.8093 58.9193 -1.67374 0.1108 0.863457 0.491956
-23.9384 59.5523 -2.74319 0.122176 0.86047 0.494636
-24.3917 60.7219 -4.54325 0.122903 0.844054 0.521984
-24.7362 61.5701 -5.72924 0.152143 0.81417 0.560339
-25.0782 62.5634 -7.11111 0.184178 0.808154 0.55899
-25.3667 63.7408 -8.64218 0.201584 0.802226 0.561668
-25.5148 64.4722 -9.59111 0.234568 0.783534 0.575371
-25.3297 65.2492 -10.7317 0.257531 0.77662 0.574418
-25.3001 66.0641 -11.8132 0.276117 0.763945 0.583222
-25.2083 66.8113 -12.8247 0.275597 0.759648 0.589051
-25.1489 67.5547 -13.8112 0.291417 0.745476 0.598996
-25.3206 68.8452 -15.3298 0.321441 0.741689 0.588704
-25.1181 69.6427 -16.4021 0.341858 0.700359 0.624015
-23.42 69.2241 -16.9478 0.357556 0.741693 0.56745
-22.4539 69.2668 -17.6604 0.351562 0.803915 0.47062
-21.4704 69.5997 -19.012 0.206907 0.853815 0.473743
-21.1432 70.3966 -20.5583 0.0599916 0.874977 0.4646
-20.5148 71.1896 -21.6989 0.0648949 0.740079 0.669382
-19.4004 71.6359 -22.4712 0.140687 0.730729 0.666879
-18.3987 72.3352 -23.4744 0.244704 0.702173 0.668635
-17.9245 73.3714 -24.709 0.240465 0.690353 0.682341
-17.7459 74.4135 -25.8086 0.293066 0.650602 0.700592
-18.2231 75.691 -26.8156 0.293846 0.657995 0.693323
-18.9432 77.2026 -27.8033 0.35132 0.603415 0.715867
-19.4538 78.1982 -28.4118 0.376014 0.59872 0.706746
-19.9782 79.1509 -28.9488 0.333144 0.611083 0.718048
-20.3182 80.133 -29.6375 0.319267 0.635697 0.702821
-20.5705 81.1473 -30.4478 0.304988 0.655037 0.691214
-20.8558 82.1293 -31.2679 0.313084 0.658507 0.684359
-20.5109 82.3297 -31.6185 0.299092 0.682221 0.666361
-19.6807 81.6471 -31.3635 0.34736 0.647497 0.678299
-18.777 80.8793 -31.1133 0.36495 0.63891 0.677204
-17.7014 79.788 -30.7654 0.430057 0.600356 0.674258
-16.282 78.8876 -30.8365 0.491783 0.556318 0.665984
-15.3409 78.0577 -30.9284 0.501914 0.609794 0.613378
-14.3141 77.496 -31.1821 0.532772 0.619408 0.576617
-13.3515 77.1022 -31.9528 0.647525 0.594685 0.476509
-12.4077 76.6762 -32.5913 0.579105 0.692749 0.425576
-11.4759 76.3268 -33.4383 0.626951 0.739046 0.246463
-10.4594 75.9083 -34.5968 0.575481 0.774005 0.260685
-9.67631 75.5692 -35.5409 0.577864 0.798917 0.166427
-9.02572 75.2888 -36.4966 0.577067 0.801572 0.156451
-8.28702 74.9892 -37.6864 0.569302 0.807509 0.154024
-7.46999 74.5551 -38.5155 0.57235 0.810765 0.122782
-6.61071 74.182 -40.0071 0.547379 0.828244 0.119941
-5.51176 73.553 -41.0478 0.55203 0.829581 0.0840151
-4.82608 73.148 -42.032 0.532529 0.845491 0.0327298
-4.23648 72.8333 -43.0936 0.519989 0.853965 0.018815
-3.53281 72.4652 -44.2497 0.502516 0.864443 0.00965427
-3.23892 72.3259 -45.7435 0.469287 0.882507 0.0304415
-3.00469 72.2542 -47.067 0.469483 0.882228 0.0354882
-2.78051 72.2247 -49.0604 0.45728 0.88835 0.0408197
-2.53259 72.1423 -50.3306 0.454554 0.890618 0.00158155
-2.05226 71.9066 -51.7548 0.467064 0.884222 -0.00137346
-1.0216 71.3709 -51.9058 0.424085 0.905454 -0.0174985
0.387165 70.7137 -51.7702 0.43056 0.902394 -0.00170971
1.53038 70.1837 -51.4675 0.407651 0.912772 0.0258347
2.88044 69.5983 -51.1659 0.383592 0.922965 0.0295479
4.38402 68.9629 -50.6477 0.365049 0.930536 0.0290207
5.63752 68.4562 -50.1687 0.370079 0.92789 0.042865
6.89562 67.9551 -49.7321 0.348288 0.9354 0.0610111
8.46201 67.3477 -49.2029 0.339153 0.939012 0.0568431
9.57445 66.9206 -48.8013 0.331263 0.940393 0.0769787
10.8801 66.4239 -48.3522 0.331397 0.940363 0.0767726
12.1151 65.9696 -48.0169 0.325772 0.940315 0.0983866
13.2343 65.5566 -47.7591 0.314827 0.944271 0.0961112
14.4218 65.1305 -47.4651 0.31502 0.944199 0.0961805
15.5368 64.7244 -47.149 0.321626 0.939129 0.120671
16.7466 64.3264 -47.0679 0.302485 0.945985 0.116685
18.0377 63.8809 -46.803 0.302595 0.945974 0.116486
20.0294 63.2021 -46.3186 0.289537 0.948121 0.131279
21.5033 62.7225 -46.1062 0.289572 0.948118 0.131228
22.8918 62.3068 -46.099 0.283133 0.947227 0.15032
24.3095 61.8739 -46.0075 0.273176 0.950143 0.150343
25.527 61.5093 -45.9161 0.276011 0.948672 0.154318
26.7669 61.1318 -45.7834 0.270854 0.949808 0.156534
27.9481 60.7091 -45.2623 0.266304 0.951007 0.156992
29.1042 60.2612 -44.5375 0.266013 0.949862 0.164317
29.9119 59.8144 -43.304 0.266946 0.947473 0.17613
30.279 59.4718 -42.0059 0.263613 0.948463 0.175856
30.7532 59.085 -40.7026 0.265555 0.946267 0.184552
30.7954 58.7185 -38.929 0.265074 0.944935 0.191922
30.4332 58.5832 -37.7626 0.265105 0.944884 0.192128
29.4456 58.7239 -37.1167 0.264345 0.94269 0.203612
28.2137 59.0235 -36.8444 0.274213 0.940406 0.201104
26.7827 59.4369 -36.8259 0.274078 0.940436 0.20115
25.3862 59.8781 -36.9221 0.283847 0.93813 0.198352
24.0445 60.3112 -37.0588 0.286976 0.938332 0.192759
22.767 60.7069 -37.0588 0.290506 0.937808 0.190061
21.0249 61.1884 -36.724 0.303059 0.933461 0.191803
19.7554 61.5595 -36.4976 0.306572 0.932727 0.189825
18.564 61.8741 -36.14 0.306863 0.930307 0.200858
17.5403 62.0662 -35.4059 0.318637 0.926732 0.199093
16.2237 62.3141 -34.4535 0.325818 0.925096 0.194837
15.6244 62.2945 -33.418 0.32871 0.92059 0.210864
14.8554 62.3358 -32.3993 0.326104 0.920017 0.2172
14.4111 62.2281 -31.314 0.330626 0.917157 0.222384
13.8463 62.0628 -29.788 0.330843 0.91386 0.235241
13.312 61.9289 -28.5595 0.330172 0.912086 0.243074
12.7176 61.8347 -27.3889 0.322759 0.916454 0.236513
11.8974 61.6008 -25.4763 0.319389 0.914356 0.248885
11.5981 61.3737 -24.2833 0.319563 0.912412 0.255701
11.1592 61.168 -23.0517 0.311225 0.913033 0.263647
10.5437 60.9621 -21.6516 0.303486 0.913373 0.271379
10.0998 60.7266 -20.3812 0.28733 0.915281 0.282315
9.35095 60.4209 -18.6279 0.287346 0.915277 0.282314
9.00708 60.1241 -17.3409 0.270203 0.916404 0.295286
8.77751 59.8199 -16.187 0.270062 0.916959 0.293681
8.26041 59.5124 -14.7427 0.261206 0.917291 0.300334
7.84637 59.2617 -13.6435 0.248993 0.921251 0.298829
7.45792 58.7824 -11.8813 0.239109 0.922052 0.304346
7.16486 58.4091 -10.5003 0.239101 0.923367 0.300372
6.86754 58.1185 -9.36521 0.23178 0.928558 0.289927
6.74592 57.7825 -8.22938 0.211773 0.930308 0.299466
6.60119 57.4388 -7.05905 0.212482 0.931347 0.295682
6.20219 57.0833 -5.63143 0.213313 0.932425 0.291688
5.81416 56.8005 -4.46156 0.191147 0.936518 0.293919
5.57917 56.3779 -2.95255 0.189256 0.937496 0.292034
5.29815 56.0518 -1.72096 0.190041 0.937847 0.290391
4.94929 55.7817 -0.612016 0.184446 0.942429 0.278941
4.68197 55.2351 1.39424 0.182014 0.941897 0.282312
4.58828 54.9128 2.55171 0.173662 0.946542 0.271846
4.49819 54.5956 3.71185 0.173513 0.94646 0.272225
4.11842 54.2698 5.0666 0.15269 0.951394 0.267444
4.2436 53.6801 7.11274 0.147087 0.951112 0.271466
4.36591 53.358 8.26982 0.131307 0.959281 0.250078
4.34099 53.0087 9.61907 0.130619 0.958285 0.254218
4.52439 52.6416 10.9031 0.131381 0.957959 0.255058
4.78299 52.2314 12.3924 0.135646 0.965887 0.220529
5.05418 51.9422 13.5205 0.129841 0.965977 0.223525
5.38165 51.5736 14.8905 0.125364 0.965923 0.226422
5.56137 51.2681 16.0998 0.133135 0.964321 0.228824
6.01529 50.93 17.2897 0.134975 0.965844 0.221196
6.56585 50.5591 18.6015 0.131268 0.966716 0.219598
7.21781 50.1397 20.1616 0.116998 0.972255 0.202564
7.59417 49.8445 21.3326 0.132246 0.972806 0.189626
8.28861 49.4276 23.1266 0.123917 0.976031 0.178908
8.5398 49.1948 24.2907 0.112768 0.979557 0.166588
8.84409 48.8537 26.1946 0.116786 0.980953 0.155215
8.65281 48.6812 27.58 0.103279 0.98526 0.136365
8.10002 48.5493 28.9337 0.102185 0.985169 0.137843
7.49715 48.4241 30.3112 0.063039 0.989389 0.130906
7.01461 48.2976 31.5328 0.0660099 0.990831 0.117882
6.17924 48.1523 33.1494 0.0584414 0.990662 0.123179
5.64645 48.0585 34.247 0.0294147 0.993513 0.109848
5.31055 47.9261 35.5353 0.029436 0.993515 0.109829
4.78857 47.8085 36.66 -0.0141023 0.994269 0.105923
4.36896 47.6783 37.9523 0.0236931 0.993179 0.114164
4.03989 47.5377 39.084 0.00177169 0.987438 0.157999
3.65813 47.3526 40.4038 -0.0340788 0.991137 0.125553
3.3966 47.119 41.8918 -0.050978 0.987954 0.14611
3.4141 46.9557 43.1798 -0.0806512 0.989074 0.1234
3.19117 46.7592 44.6093 -0.0807463 0.989076 0.123327
3.19057 46.5587 46.1931 -0.121918 0.982756 0.139022
3.13084 46.3783 47.4156 -0.121551 0.982624 0.140266
2.77528 46.1145 49.0486 -0.112145 0.985629 0.126325
2.25713 45.8116 50.5218 -0.171225 0.973706 0.150263
1.74574 45.5503 51.6326 -0.183417 0.969741 0.160302
1.37197 45.2758 52.7595 -0.202081 0.96985 0.129825
0.791218 45.0416 53.9579 -0.2085 0.973949 0.089168
0.399257 44.7695 55.1092 -0.270915 0.949757 0.156739
0.0840847 44.4658 56.2421 -0.278385 0.937238 0.209967
-0.159276 44.1171 57.4731 -0.279086 0.936968 0.210243
-0.343634 43.8419 58.7417 -0.233285 0.948802 0.212963
-0.266712 43.4714 60.0587 -0.248364 0.910125 0.32402
-0.146395 42.9618 61.4027 -0.262887 0.891898 0.365749
0.246865 42.5512 62.6351 -0.266769 0.877017 0.396508
0.726215 42.0836 63.8664 -0.378628 0.791228 0.474171
1.28068 41.7128 64.9652 -0.229467 0.854446 0.46612
1.79191 41.306 65.9626 -0.22948 0.854495 0.466023
2.50251 40.9431 67.0123 -0.228359 0.864277 0.448193
3.37626 40.5767 68.1791 -0.234511 0.864821 0.443947
4.04921 40.2713 69.1131 -0.219672 0.85867 0.462752
4.85564 40.0119 69.9474 -0.203039 0.862116 0.464254
5.93331 39.7701 70.8799 -0.207154 0.863015 0.460752
6.93234 39.5388 71.7623 -0.207153 0.863048 0.46069
8.61222 39.2435 73.1528 -0.182183 0.891708 0.414321
9.57313 39.0577 73.9739 -0.180888 0.892425 0.413348
10.5675 38.8739 74.7265 -0.161262 0.878372 0.449952
9.99168 38.1555 75.8682 -0.177666 0.867101 0.465372
8.88029 37.811 76.0857 -0.177663 0.867123 0.465332
7.27792 37.2479 76.3614 -0.216121 0.843265 0.492135
5.7107 36.7186 76.4922 -0.28912 0.834544 0.468912
3.95692 36.0714 76.5627 -0.289121 0.834544 0.468913
2.69262 35.4062 76.8173 -0.337039 0.816008 0.469613
1.61409 34.8317 76.9618 -0.399278 0.782919 0.476306
0.474755 34.0474 77.2201 -0.416449 0.766038 0.489649
-0.921794 33.1254 77.4082 -0.450518 0.7678 0.455142
-1.93977 32.4619 77.5334 -0.45226 0.776717 0.438373
-2.9527 31.8086 77.5643 -0.517097 0.753657 0.405723
-3.95061 31.1302 77.5527 -0.517066 0.753703 0.405677
-5.01613 30.4215 77.4599 -0.546772 0.73537 0.400338
-6.05315 29.6459 77.4682 -0.548453 0.733634 0.401215
-7.00544 28.9002 77.4761 -0.588763 0.723271 0.360884
-7.94994 28.0776 77.6076 -0.578528 0.732839 0.358122
-8.90324 27.2441 77.7407 -0.605257 0.722149 0.334911
-9.88931 26.4433 77.767 -0.579479 0.748999 0.321254
-11.1429 25.328 78.006 -0.600696 0.748288 0.280761
-12.853 24.2783 77.275 -0.59899 0.755182 0.26564
-14.0955 23.6348 76.2395 -0.586067 0.7763 0.23213
-14.7557 23.4311 75.2578 -0.584757 0.778269 0.22878
-16.0493 23.0077 73.3608 -0.584877 0.779312 0.224925
-16.7915 22.7363 72.2985 -0.59942 0.764422 0.237392
-17.8946 22.2027 71.2314 -0.577859 0.779253 0.241133
-18.851 21.7433 70.5487 -0.556213 0.794104 0.245003
-19.849 21.1872 70.1082 -0.552696 0.794884 0.250373
-20.9929 20.5054 69.7993 -0.539837 0.803843 0.249825
-22.0832 19.8397 69.7858 -0.447205 0.8635 0.233184
-23.2014 19.2688 69.748 -0.458362 0.856919 0.235783
-24.4052 18.5727 69.9377 -0.458383 0.85691 0.235775
-25.5884 18.0974 69.5893 -0.424823 0.86028 0.281808
-26.5548 17.8843 68.7665 -0.429548 0.857823 0.282186
-27.5963 17.6944 67.7654 -0.42823 0.857976 0.283719
-28.0378 18.0594 66.0916 -0.424644 0.845911 0.32241
-27.3224 18.924 64.7757 -0.415269 0.847353 0.330974
-25.8798 19.8801 64.1265 -0.424123 0.849978 0.3125
-24.7929 20.6431 63.5264 -0.438346 0.841087 0.316429
-23.9351 21.3619 62.871 -0.452567 0.832261 0.320194
-23.142 22.1696 61.8576 -0.450417 0.836022 0.313357
-22.5275 22.8841 60.801 -0.425214 0.841359 0.323171
-22.2602 23.5344 59.707 -0.390997 0.829988 0.397797
-22.0808 24.1825 58.6336 -0.529639 0.743204 0.408789
-22.2893 25.0107 56.9492 -0.456103 0.7709 0.444615
-22.3865 25.7872 55.5834 -0.459487 0.755322 0.46729
-22.6421 26.3894 54.3524 -0.461087 0.755747 0.465022
-22.6055 27.36 52.8968 -0.471408 0.733255 0.489889
-22.3186 28.1741 51.9895 -0.487174 0.701076 0.520723
-22.0063 29.1605 50.9535 -0.487123 0.70113 0.520699
-21.2491 30.5561 49.8308 -0.52526 0.67654 0.516134
-20.6528 31.5285 49.1629 -0.52526 0.676572 0.516093
-19.834 32.6904 48.4791 -0.541867 0.667629 0.510541
-19.1128 33.6222 47.9838 -0.530972 0.696829 0.482181
-18.1189 34.7231 47.5757 -0.560345 0.687449 0.461667
-16.9417 36.0001 47.0678 -0.568843 0.687675 0.451132
-16.013 37.0528 46.6343 -0.568832 0.687655 0.451178
-15.2127 38.24 45.6981 -0.548578 0.718754 0.427147
-14.5374 39.211 44.9315 -0.548579 0.718754 0.427146
-14.0626 40.0352 44.0153 -0.499731 0.779409 0.377876
-13.4709 40.8461 43.1252 -0.499762 0.779391 0.377873
-12.6359 41.828 42.0876 -0.464058 0.822948 0.326537
-12.0223 42.6046 41.0022 -0.464053 0.822949 0.326542
-11.1581 43.5385 39.6872 -0.418771 0.854781 0.306
-10.1754 44.2878 38.8806 -0.371868 0.890173 0.26325
-9.16404 45.0978 37.5555 -0.345792 0.904685 0.246809
-8.66044 45.5442 36.5595 -0.320667 0.910952 0.259496
-15.4807 75.9645 -28.4667 0.365958 0.698677 0.614756
-14.8582 76.0138 -29.0275 0.509302 0.646709 0.567784
-15.3044 75.2509 -27.834 0.373965 0.656226 0.655376
-14.2435 75.337 -28.7935 0.48237 0.656721 0.579687
-13.4975 75.3854 -29.492 0.507312 0.686114 0.521423
-11.7256 74.7862 -30.3712 0.512335 0.702833 0.493495
-12.9003 74.7637 -29.1735 0.473966 0.717137 0.51095
-14.0325 74.6447 -28.1703 0.430496 0.695114 0.575751
-15.1116 74.5331 -27.2253 0.361138 0.647565 0.670999
-15.0224 73.7871 -26.5239 0.310807 0.704977 0.637501
-13.4595 74.022 -27.8289 0.403738 0.737939 0.540778
-12.297 74.1423 -28.861 0.419284 0.733405 0.535087
-11.3086 74.1688 -29.861 0.457572 0.753576 0.471965
-10.223 74.1559 -31.0099 0.520415 0.752846 0.402977
-9.34324 74.0595 -32.0671 0.547369 0.76131 0.347554
-8.3282 73.8936 -33.2899 0.522281 0.790635 0.319562
-7.44364 73.6933 -34.3995 0.542236 0.799614 0.258065
-6.49817 73.3816 -35.6504 0.54613 0.817147 0.184424
-5.56562 73.0169 -36.9095 0.530994 0.835695 0.140214
-4.71817 72.6626 -38.063 0.536734 0.835567 0.117234
-3.80642 72.2677 -39.2991 0.523136 0.842472 0.128723
-2.94655 71.8892 -40.4535 0.522414 0.849858 0.069466
-1.96072 71.433 -41.7504 0.49079 0.867486 0.0811997
-1.14187 71.0627 -42.8156 0.464267 0.883895 0.0564393
-0.068142 70.6039 -44.1682 0.452622 0.889849 0.0574598
1.19789 70.0707 -45.74 0.413441 0.908568 0.0597636
2.12783 69.7319 -46.858 0.404904 0.912784 0.0536574
2.94304 69.4208 -47.8357 0.40649 0.912363 0.0485761
3.75501 69.0568 -47.4695 0.376145 0.924956 0.0545135
2.29591 69.585 -45.7286 0.403309 0.913176 0.0587428
1.1868 69.9874 -44.3964 0.409658 0.908316 0.0845159
-0.154977 70.5365 -42.7242 0.46731 0.88044 0.0802963
-1.1306 70.9464 -41.4852 0.482758 0.872487 0.0755683
-2.08094 71.3653 -40.2505 0.484092 0.869323 0.0996643
-3.08001 71.7627 -38.9462 0.523136 0.842472 0.128723
-4.24233 72.2612 -37.3805 0.53189 0.836737 0.130247
-5.12503 72.6122 -36.195 0.531175 0.831772 0.161271
-5.99092 72.9097 -35.0614 0.529664 0.827882 0.184571
-6.85526 73.1615 -33.948 0.522868 0.808797 0.269179
-7.72659 73.332 -32.8835 0.533474 0.789108 0.304491
-8.78083 73.4677 -31.6566 0.532311 0.769153 0.353623
-9.6849 73.5474 -30.6132 0.514672 0.738781 0.435104
-10.6835 73.5816 -29.5294 0.45757 0.753577 0.471965
-12.192 73.4999 -28.0627 0.419284 0.733405 0.535087
-13.3546 73.3796 -27.0306 0.403738 0.737939 0.540778
-14.4509 73.2053 -26.1142 0.327417 0.716833 0.615588
-14.8455 72.3908 -25.0033 0.283643 0.72252 0.630485
-13.2161 72.7098 -26.2909 0.370481 0.709588 0.599357
-12.0871 72.8575 -27.2644 0.419281 0.733408 0.535085
-11.0989 72.9377 -28.1866 0.434701 0.728659 0.529236
-9.446 72.9531 -29.8868 0.514672 0.738782 0.435102
-8.19024 72.9072 -31.2398 0.489038 0.792534 0.364323
-7.16026 72.7876 -32.4274 0.501282 0.799715 0.330411
-6.28469 72.6347 -33.4732 0.522869 0.808793 0.269187
-5.42788 72.4157 -34.5467 0.524553 0.817502 0.237769
-4.58117 72.1614 -35.6241 0.513664 0.842973 0.159831
-3.71096 71.8249 -36.7835 0.526995 0.837665 0.143504
-2.58089 71.371 -38.2809 0.487689 0.864652 0.120563
-1.71692 71.0408 -39.4074 0.486414 0.86515 0.122133
-0.25979 70.4462 -41.2726 0.474004 0.876586 0.0831748
0.781937 70.0256 -42.5747 0.454235 0.887421 0.0784539
2.16503 69.5326 -44.2502 0.409658 0.908316 0.0845159
3.03035 69.2218 -45.2873 0.411728 0.908517 0.0712592
3.89066 68.9289 -46.307 0.380835 0.921871 0.0715504
4.59395 68.6927 -47.1292 0.38257 0.921816 0.0624057
5.6485 68.2518 -47.0443 0.362022 0.929278 0.073361
4.78628 68.5371 -46.0383 0.37907 0.921843 0.0806969
3.79318 68.8443 -44.883 0.395466 0.915331 0.0759929
2.78086 69.1941 -43.6739 0.407511 0.907953 0.0977586
1.9251 69.4689 -42.6582 0.424384 0.901274 0.0871934
0.799507 69.8994 -41.2684 0.439416 0.894521 0.0821355
-0.467362 70.3799 -39.6832 0.485132 0.865647 0.1237
-1.73966 70.8646 -38.0519 0.487688 0.864653 0.120563
-2.8044 71.2498 -36.6828 0.490933 0.852212 0.180883
-3.66733 71.5401 -35.5701 0.550866 0.814808 0.180651
-4.53456 71.8206 -34.4548 0.515248 0.822807 0.239809
-5.6065 72.0832 -33.1303 0.520206 0.809379 0.272564
-6.59296 72.2438 -31.972 0.501278 0.799718 0.330411
-7.5502 72.3393 -30.892 0.487431 0.784318 0.38374
-8.5292 72.3949 -29.8277 0.449225 0.792286 0.412892
-9.68732 72.4107 -28.5979 0.437499 0.777782 0.451275
-10.8308 72.3176 -27.5299 0.395976 0.768993 0.501849
-11.9685 72.2169 -26.478 0.385839 0.757193 0.527055
-13.0622 72.0274 -25.5781 0.370481 0.709588 0.599357
-14.1431 71.8405 -24.6887 0.327419 0.716832 0.615588
-15.137 71.6062 -23.9535 0.285299 0.744956 0.60303
-16.494 70.5496 -22.0959 0.25233 0.736579 0.627519
-14.7824 70.9873 -23.3516 0.27483 0.753353 0.597435
-13.5521 71.2627 -24.303 0.319182 0.749928 0.579423
-12.3019 71.4902 -25.3192 0.324323 0.756202 0.568307
-11.0711 71.6826 -26.3673 0.385839 0.757193 0.527055
-9.93343 71.7832 -27.4191 0.395976 0.768993 0.501849
-8.7753 71.8573 -28.5283 0.437499 0.777782 0.451275
-7.79189 71.8439 -29.5726 0.468469 0.788534 0.398435
-6.12048 71.7063 -31.4144 0.463199 0.800449 0.380431
-4.93172 71.5401 -32.7764 0.491799 0.820535 0.291299
-3.97454 71.3236 -33.9401 0.520491 0.820495 0.236384
-2.92334 70.9945 -35.2847 0.509978 0.839654 0.186824
-1.90098 70.6949 -36.5566 0.499388 0.850558 0.16481
-0.761396 70.3058 -38.0016 0.493678 0.857853 0.142727
0.110011 69.986 -39.1019 0.457337 0.88178 0.115358
1.13632 69.6237 -40.3724 0.453522 0.883101 0.120206
2.01939 69.3166 -41.4478 0.446566 0.889009 0.101197
3.16365 68.9305 -42.821 0.407511 0.907953 0.0977587
4.04197 68.6481 -43.8639 0.398585 0.910936 0.106419
4.97211 68.3649 -44.9439 0.37907 0.921843 0.0806968
5.96771 68.0531 -46.1029 0.372326 0.925616 0.0678888
6.35986 67.9357 -46.5517 0.358235 0.930889 0.0715024
7.34326 67.5482 -46.3676 0.354441 0.932481 0.0696425
5.99936 67.9169 -44.8382 0.379342 0.920378 0.094891
5.09361 68.1938 -43.7866 0.38874 0.915444 0.104135
3.5788 68.6536 -42.0095 0.410049 0.906595 0.0997281
2.21995 69.0748 -40.3944 0.426394 0.897413 0.113301
0.811258 69.565 -38.6639 0.462788 0.876213 0.134456
-0.522741 69.978 -37.0325 0.479965 0.861464 0.165872
-1.44177 70.2917 -35.8673 0.490932 0.852213 0.180885
-2.50556 70.5892 -34.5508 0.485296 0.848985 0.209074
-3.58596 70.8555 -33.2287 0.514763 0.819907 0.25054
-4.44307 71.0294 -32.203 0.484631 0.814661 0.318529
-5.48272 71.1797 -31.0165 0.462231 0.814871 0.349754
-6.52061 71.2288 -29.9148 0.438573 0.815894 0.376791
-7.86328 71.3039 -28.4587 0.437499 0.777781 0.451277
-9.0247 71.2341 -27.3403 0.424972 0.761863 0.488839
-10.1737 71.1483 -26.2565 0.385839 0.757192 0.527057
-11.3942 70.9744 -25.1916 0.375366 0.744726 0.5518
-12.6356 70.7629 -24.1609 0.319182 0.749926 0.579426
-13.8854 70.4985 -23.1633 0.31398 0.743509 0.590433
-15.8883 69.9945 -21.6802 0.247439 0.740698 0.624613
-17.1182 69.6709 -20.7672 0.231818 0.777811 0.584183
-18.0576 69.3936 -20.0575 0.207765 0.782966 0.586344
-19.6748 68.2786 -17.8255 0.273629 0.781198 0.561121
-18.5393 68.5556 -18.7648 0.248969 0.785673 0.566332
-17.0441 68.993 -19.9 0.218249 0.777823 0.589372
-15.6778 69.3532 -20.9424 0.239531 0.772967 0.587492
-14.3316 69.7002 -21.9478 0.243559 0.757069 0.606239
-12.9689 69.9986 -23.0213 0.31398 0.743509 0.590433
-11.7191 70.263 -24.0189 0.319182 0.749926 0.579426
-10.5202 70.4384 -25.0587 0.326153 0.794478 0.512279
-9.38802 70.6062 -26.0398 0.348698 0.790287 0.503841
-8.26388 70.6796 -27.1156 0.383536 0.807028 0.449006
-7.10847 70.7493 -28.2278 0.37929 0.808586 0.449808
-5.97574 70.7066 -29.4182 0.438573 0.815894 0.376791
-4.93784 70.6575 -30.5199 0.462231 0.814871 0.349755
-3.81915 70.4958 -31.7967 0.46358 0.825589 0.321709
-2.78612 70.3232 -32.9905 0.477586 0.847117 0.233032
-1.43499 69.9918 -34.6335 0.488192 0.844235 0.221214
-0.577317 69.7502 -35.6917 0.479968 0.861462 0.165876
0.308788 69.4897 -36.7748 0.460306 0.871939 0.166856
1.29594 69.1841 -37.982 0.468036 0.870278 0.153491
2.33445 68.8734 -39.2304 0.430251 0.892803 0.133368
3.37387 68.5376 -40.4819 0.418858 0.899988 0.120744
4.56899 68.1916 -41.8811 0.410703 0.904619 0.11396
5.61572 67.8879 -43.098 0.385329 0.915958 0.111993
6.57874 67.6213 -44.2034 0.368226 0.924912 0.0945879
7.95443 67.2464 -45.7681 0.362183 0.926543 0.10169
8.94904 66.8502 -45.599 0.345616 0.933376 0.0967448
7.75744 67.1574 -44.2556 0.365208 0.925738 0.0981447
6.74917 67.4222 -43.1077 0.371752 0.920645 0.119222
5.86075 67.6614 -42.0889 0.387471 0.912457 0.13149
4.834 67.9386 -40.9036 0.396605 0.909915 0.121488
3.90845 68.2005 -39.8237 0.418858 0.899988 0.120744
2.64945 68.5643 -38.3325 0.433908 0.887806 0.153376
1.67051 68.8553 -37.1538 0.44329 0.881345 0.163479
0.496199 69.189 -35.7347 0.462731 0.870034 0.170061
-0.770788 69.5092 -34.2146 0.467956 0.857974 0.211888
-1.62337 69.7204 -33.1823 0.482904 0.845705 0.227127
-2.67575 69.9287 -31.9387 0.482506 0.833294 0.269831
-3.60199 70.0403 -30.9064 0.441572 0.837858 0.320948
-4.88678 70.1587 -29.4992 0.440473 0.811913 0.38312
-5.91705 70.1997 -28.414 0.442349 0.807883 0.389426
-7.11247 70.1894 -27.2179 0.375041 0.810127 0.450597
-8.25668 70.1204 -26.1166 0.377411 0.796602 0.472214
-9.58002 69.9666 -24.9255 0.326151 0.794478 0.512279
-10.8028 69.7854 -23.866 0.319398 0.786661 0.528347
-12.0304 69.5465 -22.8538 0.27399 0.787272 0.552387
-13.2804 69.2817 -21.8564 0.270003 0.782292 0.561353
-14.6716 68.9319 -20.7863 0.224422 0.782535 0.580753
-15.9399 68.5956 -19.8222 0.245339 0.777636 0.57887
-17.3471 68.2042 -18.7468 0.221218 0.783775 0.58031
-18.472 67.8979 -17.8818 0.248972 0.785669 0.566336
-19.51 67.6533 -17.02 0.280672 0.790301 0.544654
-20.8308 67.3711 -15.9132 0.29603 0.7876 0.540419
-21.8227 67.1679 -15.0796 0.295084 0.786314 0.542804
-22.2207 66.4343 -13.7904 0.262994 0.791205 0.552113
-20.7731 66.741 -15.0011 0.275066 0.808509 0.520243
-19.2613 67.0617 -16.2745 0.265884 0.806302 0.528377
-18.1835 67.3011 -17.1691 0.229088 0.799824 0.554797
-16.3499 67.7998 -18.5788 0.2245 0.790319 0.570083
-14.7968 68.2221 -19.7743 0.228242 0.786052 0.57448
-13.3786 68.588 -20.8651 0.265981 0.777217 0.570252
-12.3394 68.8347 -21.6861 0.270002 0.782293 0.561353
-11.1022 69.0848 -22.6919 0.312522 0.778559 0.54422
-9.88661 69.31 -23.712 0.319397 0.786661 0.528347
-8.62189 69.4797 -24.8264 0.371036 0.785624 0.495103
-7.25356 69.6213 -26.0764 0.377411 0.796602 0.472214
-6.18936 69.6794 -27.0904 0.401732 0.800105 0.445469
-5.08954 69.6561 -28.2261 0.442348 0.807883 0.389427
-3.90011 69.6303 -29.4606 0.422058 0.831887 0.36032
-2.6602 69.5087 -30.8142 0.441549 0.837878 0.320928
-1.67369 69.3512 -31.9471 0.482506 0.833294 0.269831
-0.722052 69.1929 -33.0412 0.46128 0.853426 0.242663
0.160877 68.9767 -34.1062 0.456506 0.862211 0.219533
1.16546 68.7454 -35.2867 0.459767 0.866397 0.194862
2.36743 68.4134 -36.727 0.445189 0.876942 0.181054
3.72608 68.0462 -38.3301 0.412994 0.899166 0.144693
5.15308 67.6769 -39.9852 0.399047 0.906489 0.137979
6.24554 67.3773 -41.2512 0.38747 0.912457 0.13149
7.12471 67.1593 -42.2502 0.370486 0.920375 0.125103
8.40094 66.8394 -43.6957 0.355207 0.926686 0.122803
9.44545 66.5903 -44.8649 0.345613 0.933377 0.096744
10.0897 66.4269 -45.59 0.34381 0.933792 0.0991342
10.7504 66.1253 -45.0408 0.333399 0.937379 0.100827
9.57019 66.3974 -43.7237 0.353423 0.927051 0.125176
8.53406 66.6407 -42.5621 0.356992 0.926312 0.120426
7.28475 66.9391 -41.152 0.36974 0.919776 0.131548
6.34715 67.1639 -40.0897 0.39841 0.904462 0.152372
4.88999 67.5257 -38.4178 0.407203 0.901008 0.149569
4.0101 67.7513 -37.3936 0.419534 0.890485 0.176148
2.82155 68.0476 -36.0057 0.425378 0.888819 0.170453
1.55292 68.3458 -34.5227 0.446718 0.868805 0.213591
0.437341 68.6026 -33.2117 0.462246 0.860114 0.215714
-0.534291 68.7829 -32.0808 0.45414 0.848009 0.2732
-1.67627 68.9718 -30.7689 0.446541 0.855216 0.26307
-3.37765 69.1297 -28.9242 0.444883 0.828548 0.33998
-4.36092 69.144 -27.9105 0.39883 0.834441 0.38032
-6.02693 69.1254 -26.2461 0.388711 0.812212 0.434989
-7.39281 69.0227 -24.9726 0.329417 0.814639 0.477334
-8.49835 68.8896 -23.9826 0.350354 0.80042 0.486395
-10.1555 68.6151 -22.5635 0.312524 0.778559 0.544219
-11.4164 68.3872 -21.4998 0.264994 0.81225 0.519642
-12.4671 68.1423 -20.6644 0.23927 0.807336 0.539406
-13.5205 67.8961 -19.8287 0.231765 0.801493 0.551265
-15.1132 67.4695 -18.5976 0.221595 0.796058 0.563194
-16.2536 67.1539 -17.7235 0.226298 0.789403 0.570642
-17.3417 66.8622 -16.8791 0.237167 0.807363 0.540293
-18.7352 66.543 -15.7476 0.266656 0.80797 0.525433
-20.0397 66.2605 -14.6423 0.271247 0.809075 0.521366
-21.7225 65.8881 -13.2467 0.26846 0.791429 0.549153
-21.9093 65.8451 -13.0953 0.257515 0.790951 0.555051
-22.0259 65.1583 -12.0625 0.256727 0.789552 0.557404
-20.7838 65.4437 -13.0652 0.268458 0.791429 0.549154
-19.6533 65.7166 -13.9818 0.243544 0.816348 0.523701
-17.9219 66.0902 -15.4523 0.251338 0.822747 0.50982
-16.8817 66.3332 -16.2934 0.238961 0.806536 0.540737
-15.3837 66.7241 -17.4606 0.215253 0.790297 0.573669
-13.9141 67.1286 -18.5876 0.222901 0.79576 0.563099
-12.7103 67.4528 -19.525 0.224204 0.795466 0.562997
-11.6509 67.7006 -20.3654 0.23927 0.807336 0.539406
-10.6217 67.9356 -21.1992 0.264994 0.81225 0.519642
-9.38703 68.1569 -22.2423 0.276404 0.820019 0.501169
-8.31546 68.3493 -23.1503 0.302111 0.825285 0.47711
-7.32772 68.4537 -24.0464 0.329417 0.814638 0.477336
-5.65328 68.597 -25.5934 0.368026 0.822549 0.433555
-4.01822 68.6503 -27.1881 0.399188 0.833122 0.382826
-2.97423 68.64 -28.2588 0.422054 0.83189 0.360319
-1.98867 68.5571 -29.3203 0.400154 0.854201 0.33199
-0.71606 68.4578 -30.6825 0.433386 0.855997 0.28186
0.21464 68.2985 -31.7546 0.438847 0.86224 0.252893
1.3141 68.1065 -33.0114 0.438082 0.870564 0.224057
2.40534 67.8645 -34.2873 0.436852 0.875247 0.20761
3.3231 67.6734 -35.3381 0.427249 0.878532 0.213635
4.57604 67.3667 -36.7971 0.419533 0.890486 0.176145
5.60904 67.1355 -37.9765 0.392393 0.90565 0.160704
6.50838 66.9141 -39.0081 0.395433 0.906113 0.150309
7.69985 66.6568 -40.3449 0.369526 0.917642 0.146235
8.63691 66.4328 -41.404 0.363938 0.921295 0.136983
9.82365 66.1683 -42.7295 0.348342 0.928372 0.129553
10.7765 65.9502 -43.7926 0.349737 0.928741 0.122978
11.7385 65.7513 -44.8529 0.33116 0.935772 0.121094
12.7271 65.3772 -44.6655 0.33116 0.935772 0.121091
11.7617 65.5691 -43.6062 0.329147 0.935209 0.130562
10.8031 65.775 -42.5449 0.348348 0.92837 0.129552
9.87058 65.9718 -41.5096 0.346937 0.927958 0.136123
8.87292 66.1925 -40.3953 0.369522 0.917644 0.146232
7.56151 66.4645 -38.9331 0.369226 0.915307 0.160888
6.50229 66.7055 -37.7345 0.39239 0.905652 0.1607
5.57351 66.9056 -36.6795 0.389303 0.905083 0.171078
4.63499 67.1062 -35.6145 0.395615 0.896561 0.199165
3.69508 67.2987 -34.5409 0.427249 0.878532 0.213635
2.78926 67.4871 -33.5041 0.432057 0.876905 0.210626
1.63793 67.7118 -32.1821 0.433881 0.865941 0.248782
0.256588 67.9416 -30.6104 0.433386 0.855997 0.28186
-0.709545 68.0427 -29.5568 0.427533 0.848977 0.310571
-1.67387 68.1044 -28.5348 0.400152 0.854202 0.331991
-2.7571 68.1478 -27.4094 0.378126 0.844524 0.37921
-3.96753 68.1607 -26.1754 0.399188 0.833122 0.382826
-5.09105 68.1057 -25.0984 0.347143 0.832444 0.431889
-6.82045 67.9551 -23.5024 0.325505 0.830188 0.452585
-8.69066 67.6878 -21.8601 0.278362 0.819414 0.501075
-9.82702 67.4839 -20.8985 0.264996 0.812252 0.519638
-10.8539 67.25 -20.0649 0.253446 0.804052 0.537834
-11.888 67.0128 -19.2307 0.231761 0.801496 0.551264
-13.7692 66.5151 -17.759 0.193821 0.815362 0.545545
-15.0375 66.1575 -16.7903 0.204504 0.803631 0.558887
-16.1175 65.88 -15.9384 0.234283 0.813435 0.532385
-17.9173 65.4694 -14.4526 0.251338 0.822747 0.50982
-18.9281 65.2513 -13.5942 0.255191 0.821898 0.509275
-19.9867 64.9895 -12.7426 0.231804 0.810491 0.537932
-21.0362 64.7288 -11.898 0.233887 0.810082 0.537647
-22.171 64.4501 -10.9871 0.230701 0.811761 0.53649
-22.3159 64.4145 -10.871 0.230701 0.811761 0.53649
-22.4577 63.7324 -9.77792 0.228037 0.809325 0.541287
-21.2883 64.0196 -10.7154 0.230701 0.811761 0.53649
-19.8978 64.3632 -11.8397 0.232234 0.809275 0.539575
-18.7879 64.6418 -12.7352 0.232021 0.809884 0.538753
-17.1608 65.0157 -14.0874 0.247481 0.823583 0.510357
-16.044 65.264 -15.0296 0.2409 0.818589 0.52142
-14.4591 65.6638 -16.2921 0.211091 0.809889 0.547285
-13.2406 66.0219 -17.2162 0.181824 0.809405 0.558393
-12.1252 66.317 -18.0888 0.205752 0.821037 0.532508
-11.0822 66.5873 -18.9144 0.220319 0.826372 0.518237
-10.0568 66.8126 -19.7541 0.229515 0.832765 0.503811
-8.66051 67.0992 -20.9143 0.270592 0.830995 0.486031
-7.12983 67.3741 -22.2143 0.302111 0.825285 0.47711
-5.94579 67.5066 -23.2811 0.297177 0.8427 0.448934
-4.95308 67.5964 -24.1943 0.343607 0.845441 0.408856
-3.74023 67.6692 -25.3429 0.373405 0.833316 0.407618
-2.44821 67.6787 -26.6341 0.356843 0.855431 0.375369
-1.22332 67.6427 -27.8942 0.400528 0.852054 0.337017
0.263103 67.5265 -29.4847 0.427533 0.848977 0.310571
1.20034 67.4298 -30.5052 0.406402 0.867041 0.28823
2.30352 67.2595 -31.7378 0.420717 0.874696 0.240632
3.69527 67.0154 -33.3091 0.412291 0.884036 0.220218
4.65994 66.8174 -34.4116 0.414192 0.887245 0.203079
5.75231 66.6131 -35.6386 0.39982 0.896647 0.190178
7.27621 66.2985 -37.3591 0.382826 0.904532 0.187793
8.40805 66.0696 -38.6195 0.365522 0.917262 0.15819
9.47756 65.849 -39.8119 0.356924 0.919972 0.16204
10.49 65.6498 -40.9287 0.353152 0.924401 0.144104
11.5748 65.4228 -42.1316 0.342958 0.927789 0.146927
12.5805 65.2268 -43.2338 0.335843 0.931784 0.137799
13.594 65.0259 -44.3456 0.328246 0.934224 0.139569
13.7058 65.006 -44.4671 0.323219 0.936978 0.132673
14.6285 64.6507 -44.2059 0.323219 0.936978 0.132673
13.6905 64.8196 -43.1857 0.335846 0.931783 0.137799
12.7583 65.0044 -42.1631 0.335843 0.931784 0.137799
11.8204 65.1754 -41.1388 0.332723 0.93106 0.149741
10.8882 65.3693 -40.1058 0.350744 0.923555 0.154999
9.92898 65.5426 -39.0551 0.348291 0.922593 0.165876
9.01589 65.7274 -38.0397 0.365522 0.917262 0.15819
7.90362 65.9354 -36.8102 0.36581 0.91207 0.185233
6.9615 66.101 -35.7664 0.382823 0.904532 0.187797
5.73683 66.3404 -34.3882 0.391372 0.896387 0.208132
4.81919 66.5025 -33.3609 0.402813 0.891886 0.205621
3.75994 66.6798 -32.1758 0.410273 0.88055 0.237292
2.60938 66.8712 -30.8844 0.416319 0.870585 0.262223
1.68724 66.99 -29.8719 0.414009 0.865283 0.282634
0.412117 67.1121 -28.4959 0.399041 0.866255 0.300614
-0.734745 67.1766 -27.2965 0.400528 0.852054 0.337017
-2.12487 67.2099 -25.8731 0.356842 0.855432 0.375367
-3.2416 67.1915 -24.77 0.339514 0.855847 0.3902
-4.27687 67.1271 -23.7922 0.343608 0.84544 0.408859
-5.45438 67.026 -22.7042 0.29718 0.842699 0.448935
-6.5286 66.8978 -21.743 0.278073 0.846808 0.453423
-8.07893 66.6358 -20.4099 0.262708 0.842227 0.470785
-9.24959 66.3968 -19.4345 0.234791 0.831512 0.503449
-10.2817 66.17 -18.5894 0.220324 0.82637 0.518237
-11.382 65.8851 -17.7147 0.211053 0.819702 0.532489
-12.9908 65.4458 -16.4624 0.179226 0.826487 0.533664
-14.0849 65.1538 -15.5975 0.182411 0.843127 0.505829
-15.5001 64.7927 -14.4637 0.196626 0.853913 0.481842
-16.5978 64.5468 -13.539 0.209093 0.854496 0.475517
-17.7188 64.2784 -12.6072 0.190415 0.833083 0.519341
-19.625 63.7803 -11.0828 0.233891 0.810079 0.537649
-21.0941 63.42 -9.89166 0.233125 0.811322 0.536105
-22.2536 63.1252 -8.96493 0.225365 0.80686 0.546065
-22.1836 62.5053 -8.0155 0.196249 0.837945 0.509248
-21.0301 62.7994 -8.94393 0.199163 0.837585 0.50871
-19.9918 63.0576 -9.79352 0.20468 0.84056 0.501562
-18.7654 63.3615 -10.7878 0.181622 0.836653 0.516745
-17.403 63.7407 -11.8611 0.180705 0.832598 0.523571
-16.2174 64.0529 -12.8255 0.200103 0.833475 0.515052
-15.1161 64.3023 -13.7513 0.196627 0.853914 0.481839
-13.6967 64.6564 -14.9056 0.175972 0.85602 0.486069
-12.65 64.9395 -15.7327 0.16065 0.853013 0.496548
-10.658 65.4531 -17.3244 0.17993 0.854534 0.487234
-9.48118 65.7527 -18.2643 0.220324 0.82637 0.518237
-8.17111 66.0317 -19.3466 0.240062 0.830234 0.503072
-6.96815 66.2619 -20.3608 0.262089 0.84241 0.470801
-5.91322 66.4405 -21.2662 0.278073 0.846808 0.453422
-4.44174 66.6096 -22.5909 0.28776 0.853771 0.433901
-2.84987 66.7197 -24.0835 0.321981 0.85595 0.404572
-1.12484 66.7525 -25.7813 0.35686 0.855366 0.375499
0.37697 66.7045 -27.3248 0.369459 0.868381 0.330777
1.71126 66.5975 -28.7376 0.399046 0.866252 0.300617
2.68759 66.4834 -29.8029 0.403101 0.8735 0.27296
3.93684 66.341 -31.1587 0.389093 0.889175 0.24078
4.98297 66.1757 -32.3231 0.387978 0.894645 0.221547
6.16487 65.9763 -33.6414 0.394375 0.893844 0.213335
7.35053 65.7799 -34.9535 0.369368 0.908695 0.194525
8.44633 65.5872 -36.1675 0.36581 0.91207 0.185233
9.8803 65.3323 -37.746 0.365759 0.91474 0.171671
10.9031 65.1417 -38.8709 0.348291 0.922593 0.165876
11.8624 64.9685 -39.9216 0.350744 0.923555 0.154999
12.7689 64.8002 -40.9136 0.332723 0.93106 0.149741
13.6713 64.6362 -41.8989 0.334286 0.931441 0.143771
14.6159 64.4622 -42.9283 0.320622 0.936605 0.141324
15.5512 64.2954 -43.9447 0.323218 0.936979 0.13267
16.7093 63.9006 -43.9369 0.301253 0.943885 0.135378
15.5143 64.1077 -42.6421 0.328058 0.932243 0.152646
14.552 64.2754 -41.5979 0.326523 0.932171 0.156335
13.1684 64.5183 -40.0918 0.338487 0.927889 0.156361
12.2494 64.6723 -39.0946 0.341928 0.924277 0.1697
11.3209 64.8401 -38.0776 0.349395 0.921987 0.166921
10.0922 65.0489 -36.7356 0.357278 0.916657 0.179145
9.15633 65.2126 -35.707 0.356466 0.914882 0.189536
8.05946 65.3867 -34.5045 0.373013 0.905194 0.203681
6.79483 65.5757 -33.1222 0.366199 0.905011 0.216457
5.22904 65.8348 -31.3776 0.389093 0.889175 0.24078
3.95365 65.9916 -29.9965 0.387056 0.884021 0.262095
2.85306 66.1122 -28.8007 0.382126 0.881558 0.277191
1.81183 66.1912 -27.7022 0.371238 0.880643 0.294364
0.650901 66.2676 -26.4838 0.369232 0.868798 0.329936
-0.46768 66.3079 -25.336 0.349807 0.868947 0.350094
-1.47419 66.2736 -24.3589 0.343641 0.861736 0.373258
-2.97721 66.2128 -22.9097 0.322 0.855637 0.405219
-3.98984 66.1433 -21.9599 0.301598 0.856403 0.419063
-5.21494 65.9926 -20.8641 0.28776 0.853771 0.4339
-6.76356 65.7427 -19.5254 0.241573 0.855954 0.45715
-8.17452 65.4598 -18.345 0.216551 0.85603 0.469381
-9.30465 65.2158 -17.408 0.194459 0.852384 0.485414
-10.6197 64.8898 -16.3506 0.17993 0.854534 0.487234
-11.7891 64.5876 -15.4082 0.176945 0.85152 0.493563
-13.0784 64.2412 -14.3833 0.167808 0.85881 0.484031
-14.3369 63.9105 -13.3602 0.175971 0.856022 0.486067
-15.875 63.5226 -12.1004 0.200103 0.833475 0.515052
-17.0339 63.2178 -11.157 0.190414 0.833084 0.51934
-18.7337 62.7567 -9.802 0.182526 0.840655 0.509886
-20.8977 62.2103 -8.02607 0.202076 0.837216 0.508168
-21.9296 61.947 -7.1948 0.18528 0.830033 0.526039
-21.094 61.537 -6.84217 0.18528 0.830033 0.526039
-19.9046 61.845 -7.81915 0.202076 0.837216 0.508168
-18.6584 62.169 -8.84859 0.203378 0.838895 0.50487
-17.5928 62.452 -9.70332 0.155395 0.854638 0.495425
-16.4447 62.7746 -10.6182 0.157501 0.858218 0.488523
-15.2515 63.0914 -11.5874 0.161897 0.861669 0.480952
-14.0693 63.4162 -12.5458 0.148604 0.869131 0.471728
-12.9937 63.6892 -13.4253 0.155092 0.873816 0.46086
-11.9239 63.9668 -14.2968 0.164235 0.855937 0.490305
-10.8726 64.242 -15.1405 0.176945 0.85152 0.493563
-9.80448 64.5191 -16.0014 0.178435 0.853035 0.4904
-8.77397 64.7627 -16.8408 0.208942 0.850046 0.483492
-7.0048 65.1436 -18.3079 0.226628 0.854231 0.467899
-5.91544 65.3464 -19.2314 0.241574 0.855955 0.457147
-4.42115 65.5669 -20.5398 0.279699 0.853858 0.43897
-3.01924 65.7102 -21.8172 0.322026 0.855322 0.405861
-1.79712 65.8005 -22.9596 0.307501 0.873713 0.376921
-0.825273 65.8318 -23.9029 0.330328 0.867977 0.370808
0.233281 65.8594 -24.9373 0.369004 0.869214 0.329095
1.78254 65.8086 -26.5206 0.366404 0.876439 0.312414
2.77568 65.7379 -27.566 0.380127 0.878274 0.290066
3.90101 65.6443 -28.7573 0.382126 0.881558 0.277191
5.11573 65.5014 -30.0744 0.390051 0.883349 0.259914
6.52124 65.3286 -31.5964 0.389093 0.889175 0.24078
7.50346 65.1816 -32.6734 0.362097 0.907365 0.213482
8.4373 65.0494 -33.6901 0.35838 0.909637 0.21006
9.45261 64.898 -34.797 0.355722 0.912979 0.199829
10.7751 64.6861 -36.2413 0.351711 0.918278 0.181836
11.9629 64.4976 -37.53 0.347771 0.920965 0.175725
12.8945 64.3372 -38.5451 0.334436 0.926503 0.172468
14.3469 64.0934 -40.1213 0.331743 0.930011 0.158198
15.3943 63.9227 -41.2541 0.32652 0.932172 0.156334
16.3201 63.7624 -42.2581 0.314065 0.937367 0.150684
17.6187 63.5649 -43.651 0.303792 0.94109 0.148526
18.3257 63.2523 -43.1512 0.303087 0.939601 0.15902
17.3049 63.4006 -42.0601 0.314064 0.937368 0.150685
16.3356 63.5574 -41.0151 0.314175 0.935895 0.159354
15.3576 63.7127 -39.9597 0.326567 0.931251 0.161633
13.858 63.9506 -38.3402 0.33629 0.925484 0.174325
12.7812 64.1188 -37.1779 0.339677 0.921633 0.187651
11.3035 64.3532 -35.5749 0.344191 0.91899 0.192326
10.086 64.534 -34.2534 0.350587 0.914307 0.202811
9.03236 64.6813 -33.1116 0.358379 0.909637 0.210061
8.11567 64.8103 -32.1145 0.362371 0.904365 0.225415
6.94681 64.9491 -30.863 0.358627 0.900674 0.245304
5.85598 65.0759 -29.6868 0.36623 0.898285 0.242817
4.93931 65.1825 -28.6984 0.363237 0.895337 0.257741
3.88092 65.2652 -27.5833 0.380127 0.878274 0.290066
2.73411 65.3574 -26.3708 0.366404 0.876439 0.312414
1.57874 65.391 -25.1955 0.361436 0.871913 0.33035
-0.00656604 65.3958 -23.6118 0.329744 0.869915 0.366764
-1.38531 65.3598 -22.2739 0.307501 0.873713 0.376921
-3.09934 65.21 -20.686 0.284605 0.873263 0.39549
-4.0997 65.0791 -19.7957 0.279699 0.853858 0.43897
-5.9536 64.785 -18.1861 0.236684 0.852339 0.466369
