26.063 60.5265 -37.8507 0.284009 0.940019 0.188811
27.1391 60.1697 -37.6603 0.278029 0.939893 0.19814
29.1251 59.5771 -37.6368 0.277657 0.938685 0.204394
29.8911 59.533 -38.4813 0.269142 0.943189 0.194824
29.9691 59.8146 -39.9669 0.272289 0.943459 0.189062
29.6377 60.2314 -41.5904 0.270848 0.945129 0.182667
28.9578 60.665 -42.8371 0.269273 0.946924 0.175479
28.2353 61.0275 -43.7242 0.266588 0.948614 0.170477
27.1119 61.4694 -44.3549 0.274778 0.947102 0.165727
25.9694 61.83 -44.5472 0.277272 0.947187 0.161029
23.9962 62.4773 -44.8907 0.279092 0.947574 0.155466
22.9395 62.7812 -44.8328 0.28093 0.947179 0.154694
21.901 63.0999 -44.8978 0.288514 0.945083 0.153346
20.7781 63.4797 -45.0666 0.291595 0.944998 0.148021
19.4182 63.9269 -45.297 0.287092 0.947011 0.144042
18.1037 64.3791 -45.5212 0.299951 0.944174 0.13619
16.5554 64.9044 -45.7969 0.296985 0.945473 0.133716
15.1248 65.4238 -46.0397 0.320163 0.939374 0.122678
13.3986 66.0777 -46.6146 0.323669 0.938886 0.116903
12.372 66.4628 -46.8828 0.323321 0.940509 0.104431
10.5165 67.1807 -47.4184 0.336354 0.937176 0.0913925
9.54188 67.5478 -47.7118 0.330673 0.940491 0.0783069
8.38648 68.0002 -48.0755 0.343505 0.935653 0.0809758
7.39832 68.3889 -48.3536 0.358558 0.930798 0.0709068
5.64121 69.1014 -49.0185 0.358803 0.932216 0.0472565
4.36987 69.6333 -49.3753 0.374343 0.925832 0.0519877
3.27428 70.0753 -49.5986 0.364046 0.931158 0.0203911
1.85105 70.6974 -50.177 0.406746 0.913485 0.0101511
0.622178 71.2528 -50.396 0.4082 0.912844 0.00405416
-0.443195 71.7454 -50.3656 0.423446 0.905914 0.00354961
-1.16535 72.079 -49.3509 0.441695 0.896931 0.00166858
-1.32515 72.1144 -47.9111 0.438192 0.898442 0.0280894
-1.58241 72.1875 -46.8697 0.437462 0.897769 0.0513653
-1.84077 72.2557 -45.6446 0.451757 0.891473 0.0345088
-2.15379 72.3772 -44.4999 0.45736 0.888889 0.026435
-2.72445 72.6348 -43.307 0.48072 0.876439 0.0276317
-3.26814 72.9038 -42.3716 0.502734 0.864022 0.022316
-3.78765 73.1303 -41.0339 0.515598 0.854119 0.0673305
-4.5561 73.5037 -40.0735 0.522576 0.848841 0.0788409
-5.29475 73.8993 -39.33 0.546245 0.830075 0.112216
-5.88599 74.1583 -38.3501 0.559188 0.822272 0.105709
-6.69062 74.53 -37.4004 0.546112 0.823206 0.154942
-7.40674 74.7968 -36.3704 0.550774 0.819313 0.158791
-8.04997 74.9909 -35.2607 0.566858 0.801089 0.192166
-9.09991 75.3845 -33.9248 0.585923 0.768711 0.252444
-9.86747 75.5561 -32.8929 0.587035 0.758277 0.282347
-11.0308 75.9865 -31.8335 0.587351 0.713934 0.381205
-12.0971 76.3204 -31.0756 0.578635 0.692481 0.425714
-12.9637 76.6876 -30.5531 0.543618 0.692739 0.473911
-14.0374 77.1796 -30.1111 0.51144 0.622137 0.59243
-14.9324 77.7212 -29.8924 0.504565 0.615477 0.605326
-16.0761 78.4378 -29.7523 0.453016 0.606327 0.653302
-17.1537 79.3142 -29.7795 0.463814 0.582773 0.667084
-18.1538 79.3292 -29.156 0.425002 0.610731 0.668117
-17.735 78.3813 -28.5707 0.431681 0.601466 0.672227
-17.3303 77.154 -27.7304 0.395336 0.626383 0.671829
-16.9554 76.1616 -27.0139 0.364742 0.642513 0.673856
-16.6436 75.2699 -26.3553 0.345157 0.624653 0.700482
-16.321 74.4261 -25.7619 0.328928 0.660762 0.67296
-16.5231 73.3985 -24.5545 0.312693 0.696872 0.645439
-16.7454 72.5109 -23.5301 0.232992 0.681314 0.693921
-17.3181 71.9634 -22.7388 0.1937 0.75128 0.630919
-18.1247 71.3978 -21.8178 0.171966 0.744315 0.644756
-19.0554 70.8259 -20.9652 0.154321 0.774387 0.610587
-19.7919 70.2566 -19.9366 0.108455 0.815369 0.566467
-20.3171 69.5178 -18.5998 0.199565 0.831448 0.518526
-20.8002 69.0575 -17.6758 0.272045 0.848402 0.441238
-22.086 68.7751 -16.4464 0.317665 0.779209 0.540216
-23.2091 68.8063 -15.7861 0.359904 0.74724 0.558625
-23.9433 68.5452 -14.9986 0.346967 0.740831 0.575137
-24.0623 67.8467 -13.9776 0.303529 0.758792 0.575547
-24.0806 67.179 -13.0782 0.340116 0.763207 0.549397
-24.0731 66.2941 -11.8993 0.26798 0.781781 0.56238
-24.088 65.4662 -10.702 0.246562 0.79567 0.553277
-24.2039 64.4818 -9.2588 0.243032 0.790589 0.562053
-24.049 63.5577 -7.91972 0.206712 0.811398 0.546371
-23.6674 62.5707 -6.64132 0.180944 0.818695 0.544248
-23.251 61.76 -5.48876 0.164708 0.833794 0.526933
-23.1829 60.6933 -3.83629 0.140556 0.845138 0.514785
-22.9101 59.9169 -2.56131 0.118206 0.859154 0.497878
-22.7149 59.3661 -1.6406 0.120758 0.86323 0.490155
-22.1901 58.4436 0.0078691 0.0725704 0.883133 0.463419
-21.7372 57.7869 1.16942 0.0711144 0.879921 0.469768
-21.3273 57.3213 2.09607 0.0234205 0.902409 0.430243
-20.927 56.5572 3.65876 0.0191753 0.898764 0.438014
-20.5862 56.0737 4.69169 0.00843101 0.907332 0.420331
-20.3029 55.6274 5.64608 -0.0115521 0.902716 0.430029
-20.2063 55.1322 6.73834 -0.0395763 0.909354 0.414135
-20.0659 54.6408 7.83064 -0.0396948 0.910669 0.411214
-19.8656 54.1495 8.94759 -0.0398106 0.911984 0.40829
-19.7135 53.7168 9.92906 -0.0525147 0.90801 0.415371
-19.5001 53.1952 11.1196 -0.0902627 0.907484 0.410276
-19.4409 52.7302 12.161 -0.0902627 0.907484 0.410276
-19.346 52.1181 13.5695 -0.0990475 0.912688 0.39634
-19.3289 51.6374 14.6758 -0.110191 0.910492 0.398576
-19.1862 51.1955 15.7478 -0.129342 0.912713 0.387453
-18.6466 50.6076 17.2814 -0.134122 0.908611 0.395522
-18.295 50.1822 18.4644 -0.148214 0.915921 0.372989
-17.9417 49.7817 19.5559 -0.168289 0.907018 0.385855
-17.3309 49.3392 20.9323 -0.187563 0.909386 0.371265
-16.7121 49.0309 22.0143 -0.190437 0.910756 0.36641
-15.9568 48.7615 23.0822 -0.207424 0.908819 0.361838
-14.9095 48.4804 24.3612 -0.197846 0.91088 0.362153
-14.2407 48.2894 25.3063 -0.216706 0.917174 0.33441
-13.3714 48.0895 26.4158 -0.215054 0.91938 0.329365
-12.4152 47.8596 27.6704 -0.215317 0.918238 0.332383
-11.484 47.6864 28.8256 -0.233572 0.92006 0.314502
-10.61 47.5977 29.7472 -0.240258 0.921277 0.305714
-9.85918 47.4935 30.681 -0.246956 0.92099 0.301314
-9.14018 47.3827 31.6768 -0.250738 0.930829 0.265846
-8.50246 47.2303 32.8274 -0.253707 0.930588 0.263891
-8.02998 46.9736 34.2523 -0.25223 0.935395 0.247816
-7.86313 46.7101 35.4105 -0.250482 0.940226 0.229891
-8.00206 46.443 36.4427 -0.250433 0.944894 0.210852
-8.00353 46.4405 36.4522 -0.29019 0.92617 0.235502
-9.01529 46.105 36.339 -0.329946 0.907446 0.260148
-8.81142 46.4656 35.3506 -0.304551 0.911553 0.276261
-9.11465 46.6686 34.2921 -0.253926 0.935233 0.246701
-9.5042 46.8433 33.2289 -0.253817 0.93291 0.255297
-10.1456 46.9851 32.129 -0.247773 0.931069 0.267803
-10.8874 47.1046 31.0271 -0.247363 0.926029 0.284561
-11.9258 47.2213 29.8749 -0.233565 0.921562 0.310115
-12.6881 47.3543 28.9008 -0.263443 0.908183 0.325272
-13.7516 47.5964 27.4872 -0.249651 0.904415 0.345988
-14.4127 47.7905 26.5212 -0.229344 0.903537 0.36197
-15.205 47.9 25.7304 -0.230941 0.905671 0.355566
-15.8724 48.1169 24.7495 -0.207424 0.908818 0.361841
-16.6952 48.3063 23.7808 -0.217003 0.906757 0.361528
-17.3385 48.556 22.827 -0.196585 0.901655 0.385191
-17.9265 48.8085 21.9358 -0.193508 0.906206 0.375801
-18.544 49.1421 20.8257 -0.172513 0.910161 0.376625
-19.0613 49.5162 19.6983 -0.164059 0.903877 0.395084
-19.387 49.9409 18.5916 -0.164065 0.903862 0.395114
-19.7478 50.4081 17.3662 -0.132195 0.908768 0.395804
-20.1572 50.9293 16.0355 -0.130267 0.908925 0.396087
-20.3811 51.3475 15.0434 -0.121772 0.902674 0.412736
-20.3449 51.82 13.9791 -0.109628 0.910558 0.398581
-20.5055 52.2854 12.9124 -0.104758 0.905525 0.411156
-20.6041 52.9505 11.4374 -0.0654169 0.904781 0.420823
-20.7502 53.5012 10.2307 -0.0654153 0.904778 0.42083
-21.0098 54.194 8.70763 -0.065219 0.904036 0.422452
-21.254 54.9379 7.09301 -0.0118252 0.905662 0.423836
-21.3516 55.5065 5.87524 -0.0118121 0.905654 0.423853
-21.6118 55.9702 4.90493 -0.0113095 0.899821 0.436113
-22.1417 56.7621 3.28819 0.0021019 0.896213 0.44362
-22.3864 57.2969 2.20492 0.0212986 0.900587 0.434127
-22.9996 57.9889 0.982145 0.0711144 0.879921 0.469768
-23.3623 58.6312 -0.166026 0.0725704 0.883133 0.463419
-23.837 59.4243 -1.46659 0.120758 0.863229 0.490156
-23.9975 60.1551 -2.71414 0.119485 0.861191 0.494017
-24.3447 60.9024 -3.80722 0.162907 0.831123 0.531692
-24.5041 61.5985 -4.84641 0.162907 0.831121 0.531695
-24.7559 62.2935 -5.86247 0.180943 0.818695 0.544249
-24.8913 62.9687 -6.7811 0.19718 0.803595 0.561565
-25.1245 64.0988 -8.31653 0.206712 0.811398 0.546371
-25.2642 64.7494 -9.17739 0.239952 0.791268 0.562421
-25.1113 65.588 -10.4224 0.24149 0.79093 0.562236
-25.2071 66.2891 -11.3183 0.289398 0.767891 0.571482
-25.1531 66.9132 -12.1842 0.288755 0.762742 0.578659
-25.1071 67.6424 -13.1694 0.28885 0.7631 0.578138
-25.0538 68.2972 -14.0305 0.312989 0.741427 0.593568
-25.1245 69.1401 -15.0687 0.322911 0.74615 0.582227
-24.8403 69.7003 -15.9428 0.380543 0.722927 0.576485
-23.2754 69.3834 -16.5154 0.35991 0.747237 0.558624
-22.3878 69.343 -17.1262 0.350288 0.793463 0.494579
-21.6497 69.531 -17.9975 0.344527 0.865354 0.363955
-21.1337 69.9833 -19.109 0.145799 0.893879 0.423938
-20.8388 70.7295 -20.5086 0.00262757 0.875512 0.464813
-20.2531 71.2278 -21.1769 0.0710034 0.721621 0.688638
-19.242 71.7842 -21.9847 0.162881 0.728598 0.665293
-18.3708 72.3733 -22.8226 0.236399 0.69643 0.67757
-17.7556 73.248 -23.9145 0.232958 0.681206 0.694038
-17.4773 74.0454 -24.7906 0.272829 0.689039 0.669738
-17.5633 74.8415 -25.5201 0.326362 0.631886 0.702707
-17.756 75.6647 -26.1823 0.307568 0.639114 0.704936
-18.3132 76.8913 -26.9275 0.338225 0.576426 0.743866
-18.8055 78.1561 -27.7426 0.457384 0.556997 0.69163
-19.1942 79.1341 -28.3606 0.386411 0.613238 0.68893
-19.6705 80.1179 -29.0337 0.32008 0.667421 0.672382
-19.9302 80.9802 -29.7735 0.301609 0.677778 0.670558
-20.2879 81.9163 -30.538 0.318321 0.681902 0.658464
-20.4714 82.7691 -31.3663 0.297597 0.712601 0.635323
-19.5216 82.0013 -31.0032 0.347568 0.669385 0.656203
-18.5711 81.2699 -30.8245 0.38693 0.654135 0.649917
-17.8027 80.5142 -30.525 0.450509 0.626027 0.6365
-16.6104 79.6204 -30.4277 0.412804 0.640778 0.6473
-15.6171 78.8096 -30.4467 0.528481 0.579247 0.61938
-14.5376 78.2407 -30.7497 0.504565 0.615477 0.605325
-13.5915 77.52 -30.8968 0.619553 0.582533 0.524587
-12.4555 77.0864 -31.719 0.586947 0.671694 0.448739
-11.4491 76.7006 -32.5262 0.557176 0.724122 0.404529
-10.5447 76.2272 -33.207 0.626074 0.740197 0.245234
-9.85413 76.0859 -34.3101 0.585924 0.768711 0.252445
-8.86086 75.6296 -35.4975 0.595466 0.780629 0.18757
-8.11307 75.3513 -36.7266 0.558264 0.814152 0.159681
-7.57013 75.1726 -37.7428 0.550774 0.819313 0.158791
-6.91836 74.8804 -38.5106 0.558574 0.822464 0.107457
-6.24812 74.5602 -39.5782 0.553026 0.826075 0.108087
-5.25769 74.0133 -40.687 0.556488 0.828501 0.0625078
-4.61344 73.6662 -41.465 0.542289 0.839963 0.019565
-3.93417 73.3093 -42.9356 0.512458 0.858626 0.0121973
-3.36775 73.0169 -43.8898 0.489926 0.87141 0.0224775
-2.86685 72.7528 -44.8511 0.453678 0.890802 0.0254484
-2.66599 72.6937 -46.1811 0.452317 0.891247 0.0329495
-2.52584 72.6809 -47.4573 0.438632 0.897373 0.0480712
-2.29504 72.6136 -48.5965 0.450081 0.89182 0.0456517
-1.96929 72.4953 -49.7827 0.459949 0.887945 -0.000205566
-1.53416 72.2682 -51.0071 0.45601 0.889872 0.00192763
-0.887303 71.938 -51.732 0.414411 0.909488 -0.0330979
0.442829 71.3269 -51.6317 0.415886 0.909344 -0.00337121
1.77208 70.7439 -51.3453 0.396396 0.91799 0.0128387
2.74118 70.3414 -51.1118 0.377732 0.92566 0.019012
3.8136 69.8918 -50.8505 0.372233 0.927762 0.0245552
4.85971 69.475 -50.5044 0.364239 0.93108 0.0204916
5.84213 69.081 -50.1415 0.366574 0.929024 0.0496158
6.99762 68.6225 -49.6895 0.34759 0.935797 0.0588706
7.93492 68.252 -49.312 0.338953 0.939195 0.0549855
9.44722 67.6819 -48.8969 0.341246 0.937418 0.0679894
10.4328 67.3069 -48.5818 0.331067 0.940416 0.0775464
11.4407 66.9224 -48.2219 0.322674 0.943255 0.0779374
12.816 66.4091 -47.7984 0.325382 0.940207 0.10068
13.9235 66.0076 -47.5697 0.31364 0.944391 0.0987666
14.9087 65.6567 -47.3421 0.313616 0.944402 0.0987436
16.0333 65.2349 -46.9744 0.310417 0.941623 0.129514
17.392 64.7996 -46.9142 0.299238 0.945865 0.125383
18.8548 64.2779 -46.4744 0.299951 0.944174 0.13619
20.2821 63.8219 -46.328 0.287092 0.947011 0.144042
21.5773 63.3824 -46.0205 0.291595 0.944998 0.148021
22.6639 63.0454 -45.9591 0.283679 0.9471 0.15009
23.9331 62.6497 -45.8604 0.28362 0.947114 0.150117
25.1022 62.3042 -45.8287 0.27593 0.949389 0.150078
27.0835 61.6886 -45.5968 0.27229 0.948616 0.1612
28.1753 61.2788 -45.0294 0.27301 0.94864 0.159836
29.232 60.8698 -44.4052 0.267191 0.948628 0.169445
29.9696 60.4889 -43.4394 0.269272 0.946924 0.17548
30.6047 60.0552 -42.114 0.262452 0.947844 0.180859
30.8101 59.7792 -40.9825 0.264874 0.945739 0.188195
30.9889 59.509 -39.8827 0.264195 0.945698 0.189357
31.0808 59.222 -38.6155 0.265797 0.943565 0.197578
30.7354 59.0568 -37.3666 0.269793 0.941113 0.203761
29.8532 59.1425 -36.5907 0.271878 0.940977 0.201608
28.6563 59.4564 -36.4415 0.271919 0.940966 0.201603
27.0301 59.9611 -36.5541 0.279828 0.938445 0.202506
25.8449 60.3984 -36.9336 0.286471 0.936539 0.202002
24.3493 60.8237 -36.7491 0.290965 0.934856 0.203429
22.4269 61.3942 -36.5895 0.297455 0.933762 0.198933
21.0994 61.8171 -36.5948 0.296319 0.932913 0.204617
20.0907 62.0645 -36.205 0.309538 0.928998 0.202852
18.9125 62.3535 -35.7302 0.309562 0.929003 0.202792
17.2713 62.6991 -34.753 0.320409 0.925382 0.2025
16.5104 62.7957 -34.0127 0.317566 0.92494 0.208898
15.7217 62.8281 -32.9167 0.329028 0.920678 0.209977
15.0565 62.8743 -32.0951 0.329647 0.916598 0.226231
14.5235 62.743 -30.7867 0.329624 0.916593 0.226288
14.0318 62.6758 -29.7793 0.335013 0.915462 0.222926
13.557 62.5823 -28.7645 0.330831 0.911832 0.243133
13.0172 62.434 -27.4679 0.327389 0.914207 0.238834
12.752 62.2318 -26.3967 0.325099 0.911305 0.2526
12.351 62.0868 -25.3479 0.326821 0.909237 0.257743
11.7062 61.8666 -23.788 0.322113 0.910137 0.260564
11.3876 61.6852 -22.8005 0.312467 0.908969 0.275934
11.0268 61.4996 -21.7803 0.312478 0.908967 0.275929
10.4997 61.3041 -20.55 0.297274 0.911398 0.284575
9.98345 61.0859 -19.3119 0.299718 0.910529 0.284779
9.37824 60.7898 -17.7628 0.282731 0.914832 0.28833
9.02844 60.5591 -16.684 0.276405 0.915461 0.292378
8.80238 60.2814 -15.6254 0.271783 0.916274 0.294208
8.53231 60.0297 -14.5767 0.263547 0.917399 0.297993
8.08982 59.8276 -13.6008 0.255916 0.916985 0.306016
7.79733 59.5366 -12.4693 0.244178 0.920399 0.305358
7.69393 59.2062 -11.3866 0.244351 0.921801 0.300959
7.44797 58.9329 -10.35 0.244336 0.921787 0.301012
7.07765 58.6941 -9.32503 0.226828 0.923778 0.308519
6.9879 58.3422 -8.17803 0.217183 0.928661 0.300699
6.7854 58.0214 -7.04091 0.21778 0.929321 0.298205
6.53161 57.749 -5.9971 0.218311 0.929968 0.295802
6.19573 57.4702 -4.87267 0.207483 0.931211 0.29944
5.98096 57.1903 -3.84956 0.193714 0.935419 0.295746
5.78451 56.887 -2.7618 0.193721 0.935442 0.295671
5.5569 56.6151 -1.74422 0.194993 0.936155 0.29256
5.18511 56.2871 -0.426735 0.189394 0.939553 0.285254
4.99872 55.8883 1.02747 0.191067 0.940203 0.281977
4.73515 55.6307 2.06499 0.191009 0.940246 0.281874
4.71182 55.2589 3.40018 0.1689 0.94824 0.268605
4.53105 54.9304 4.65685 0.157383 0.95072 0.267108
4.53797 54.504 6.15525 0.160694 0.949234 0.270431
4.49141 53.9861 8.11221 0.163319 0.95499 0.247632
4.33864 53.7145 9.26052 0.163159 0.955037 0.247557
4.63787 53.2398 10.9315 0.164861 0.95623 0.241755
4.8925 52.7628 12.6446 0.160349 0.957939 0.237915
5.2323 52.4073 13.9664 0.135602 0.964827 0.225214
5.59962 52.0651 15.2113 0.135012 0.96571 0.221728
5.80838 51.7105 16.6477 0.135216 0.966274 0.219162
6.2547 51.3582 17.9322 0.135262 0.967055 0.215657
6.66385 51.0698 18.9687 0.1334 0.967429 0.215132
7.17906 50.8004 19.8745 0.140955 0.970348 0.196356
7.6511 50.5284 20.8802 0.131225 0.970021 0.204167
8.12815 50.2133 22.1423 0.120607 0.97686 0.176322
8.62222 49.9579 23.1788 0.130795 0.975292 0.178042
8.81463 49.7519 24.1978 0.121232 0.980381 0.155419
9.18065 49.5481 25.1977 0.121217 0.980368 0.155516
9.03156 49.3772 26.3773 0.119487 0.980368 0.156847
8.61076 49.2823 27.3755 0.110039 0.984107 0.139374
8.19019 49.0945 28.9871 0.106477 0.983846 0.143906
7.75301 49.01 29.9891 0.0830403 0.987497 0.132309
7.28631 48.8687 31.1924 0.0645756 0.988392 0.13748
6.72426 48.7515 32.3296 0.0654877 0.988773 0.134309
6.1456 48.6566 33.277 0.0430153 0.99088 0.127697
5.55567 48.5667 34.2875 0.0468528 0.993292 0.105717
5.27177 48.3548 36.0953 -0.000958049 0.993908 0.108831
4.97636 48.2601 37.1235 -0.000378788 0.995799 0.0915624
4.66487 48.1605 38.1738 0.0183451 0.994156 0.10637
4.15797 48.0171 39.3158 -0.0197536 0.992567 0.120089
3.67101 47.7963 41.1024 -0.0183942 0.993054 0.116209
3.39333 47.6706 42.1397 -0.0438309 0.995072 0.0889465
3.42178 47.5263 43.5187 -0.0786617 0.99083 0.109859
3.21737 47.3585 44.8856 -0.0811833 0.99176 0.0984032
3.09625 47.2108 46.0927 -0.126457 0.983627 0.128403
2.92191 47.0233 47.3574 -0.125095 0.983217 0.132724
2.55113 46.8197 48.5392 -0.11593 0.985654 0.122661
2.15648 46.5402 50.0955 -0.173925 0.973527 0.14821
1.8064 46.3209 51.0895 -0.17369 0.972764 0.153497
1.03297 45.8891 52.6981 -0.198171 0.964472 0.174707
0.597418 45.6898 53.7535 -0.212724 0.973082 0.0886596
0.197603 45.3846 55.102 -0.279136 0.945949 0.165116
-0.103557 45.0776 56.2091 -0.281236 0.933008 0.22449
-0.272737 44.7838 57.225 -0.278774 0.934012 0.2234
-0.427113 44.5396 58.3173 -0.224238 0.963366 0.147118
-0.36489 44.1401 59.8444 -0.197988 0.935055 0.294065
-0.299017 43.5578 61.5077 -0.217097 0.907133 0.360527
-0.146341 43.1302 62.675 -0.216593 0.907055 0.361024
0.337387 42.847 63.6417 -0.218723 0.900575 0.375666
1.08147 42.3832 65.1869 -0.210976 0.901364 0.378109
1.90635 41.9503 66.4089 -0.204483 0.866519 0.455337
2.70147 41.5636 67.502 -0.204504 0.866557 0.455255
4.01169 41.0994 68.9671 -0.244074 0.852069 0.463039
4.84358 40.8058 69.8911 -0.197328 0.868226 0.455243
5.81958 40.4477 71.0268 -0.202275 0.872316 0.44514
6.51506 40.1789 71.8219 -0.161607 0.870756 0.464397
7.72625 39.911 72.7427 -0.175287 0.872977 0.45483
8.81069 39.6513 73.7165 -0.188642 0.876092 0.443708
9.6512 39.4297 74.4892 -0.16472 0.884099 0.437306
10.3151 39.0632 75.4506 -0.161703 0.876382 0.45366
9.40787 38.6549 75.8737 -0.19328 0.863608 0.465643
7.92052 37.9987 76.4734 -0.193244 0.863601 0.465671
6.88409 37.6374 76.6746 -0.231429 0.838231 0.49377
5.72604 37.2711 76.7524 -0.232156 0.838602 0.492799
4.33314 36.7358 76.945 -0.268241 0.8266 0.494752
3.24627 36.3122 77.0541 -0.272608 0.813044 0.514436
2.22849 35.7618 77.2185 -0.364434 0.782655 0.504618
1.15498 35.1146 77.447 -0.36447 0.782593 0.504688
0.155296 34.4714 77.5525 -0.452199 0.757996 0.470062
-0.726694 33.8543 77.6991 -0.456465 0.755316 0.470225
-1.69262 33.2433 77.7308 -0.460733 0.752637 0.470385
-2.62635 32.6301 77.8081 -0.467909 0.76485 0.4426
-4.096 31.6325 77.78 -0.521072 0.748603 0.409972
-5.05805 30.9724 77.7319 -0.551959 0.728996 0.404853
-6.17341 30.1304 77.7274 -0.552111 0.728817 0.404969
-7.06411 29.4144 77.7626 -0.592642 0.716852 0.367284
-8.0195 28.6056 77.8148 -0.581351 0.727565 0.364253
-9.11342 27.661 77.9183 -0.606364 0.71784 0.342095
-9.9948 26.8987 78.017 -0.58124 0.744684 0.328033
-11.3094 25.7285 78.2232 -0.601633 0.743999 0.28998
-12.6474 24.8605 77.7757 -0.59812 0.751673 0.277511
-13.9996 24.1091 76.7971 -0.600482 0.75663 0.258101
-14.982 23.6883 75.7161 -0.60411 0.755464 0.253623
-15.6256 23.4975 74.7515 -0.608546 0.755647 0.241891
-16.4218 23.1836 73.6295 -0.61979 0.751296 0.226751
-17.0795 23.0047 72.4247 -0.618501 0.750893 0.2315
-18.1809 22.4355 71.5445 -0.582576 0.773257 0.250358
-18.9708 22.0993 70.75 -0.573213 0.783648 0.239424
-19.8328 21.6106 70.3134 -0.564556 0.796184 0.21764
-20.8849 21.0105 69.8515 -0.516326 0.820758 0.244466
-21.8852 20.4229 69.7751 -0.478755 0.84641 0.233201
-22.9849 19.78 69.8519 -0.465939 0.843318 0.265541
-24.3245 19.0865 69.896 -0.429757 0.859313 0.27729
-25.4733 18.4905 69.9625 -0.430672 0.858887 0.277187
-26.3467 18.2357 69.3914 -0.431689 0.858426 0.277039
-27.2289 18.0347 68.6247 -0.439821 0.858002 0.265311
-27.916 17.9717 67.6893 -0.439829 0.858006 0.265285
-28.2914 18.173 66.4645 -0.432176 0.845132 0.314017
-27.7678 18.9253 65.1804 -0.417749 0.847899 0.326423
-26.8983 19.5279 64.7433 -0.434578 0.85008 0.297121
-25.8493 20.2706 64.1123 -0.421934 0.85336 0.306184
-24.8231 21.0236 63.4279 -0.434773 0.845091 0.31071
-23.9734 21.6663 62.9283 -0.447621 0.836836 0.315184
-23.3399 22.2941 62.1637 -0.447778 0.836398 0.316122
-22.7497 23.0317 61.1264 -0.47393 0.834093 0.279626
-22.4008 23.6024 60.1112 -0.391795 0.824794 0.407689
-22.3545 24.0939 59.1615 -0.464296 0.772349 0.423846
-22.3942 24.7567 57.9709 -0.499886 0.748312 0.433907
-22.5089 25.2975 56.9419 -0.463269 0.762176 0.452183
-22.6888 26.1305 55.4448 -0.465379 0.746972 0.474822
-22.8353 26.8682 54.1525 -0.487334 0.723198 0.489377
-22.8581 27.7513 52.8248 -0.487342 0.723191 0.48938
-22.5892 28.4824 52.0149 -0.454863 0.718762 0.525801
-22.3193 29.4046 51.025 -0.51523 0.691325 0.506565
-21.8473 30.2239 50.3869 -0.531851 0.686941 0.494785
-21.3291 31.0661 49.7884 -0.542856 0.674032 0.500648
-20.7494 32.0177 49.157 -0.535032 0.668601 0.516443
-20.254 32.8519 48.5737 -0.530658 0.676561 0.510555
-19.5895 33.7905 48.0609 -0.543529 0.687401 0.481722
-18.4449 34.9841 47.7157 -0.579226 0.665203 0.47117
-17.6159 35.9216 47.3308 -0.565755 0.688632 0.45355
-16.825 36.8852 46.9091 -0.585853 0.67338 0.450928
-16.1095 37.7273 46.5206 -0.581255 0.693731 0.425299
-15.3992 38.7814 45.6803 -0.556646 0.7175 0.418735
-14.8076 39.5813 45.0894 -0.556993 0.721325 0.411642
-14.006 40.8053 43.7861 -0.509885 0.76859 0.386377
-13.359 41.6169 43.0256 -0.530274 0.76043 0.374062
-12.8959 42.2603 42.1626 -0.47505 0.813594 0.333942
-12.0589 43.2847 40.8634 -0.471471 0.827257 0.303515
-11.5301 43.8698 39.9992 -0.431106 0.846598 0.31152
-10.7756 44.5657 39.1604 -0.414719 0.863357 0.284729
-10.1446 45.0671 38.3918 -0.383109 0.885804 0.261877
-9.19474 45.7543 37.3348 -0.329785 0.91136 0.245855
-9.04175 46.0231 36.5912 -0.329945 0.907446 0.260149
28.2985 60.245 -39.7119 0.274342 0.941903 0.193793
26.6075 61.0927 -41.4795 0.277494 0.943943 0.178797
25.7437 61.5106 -42.3856 0.279189 0.944257 0.174448
26.0058 60.8694 -39.4618 0.277162 0.941731 0.190587
24.309 61.7361 -41.2421 0.290096 0.941876 0.169449
22.8447 62.4611 -42.7869 0.287427 0.943094 0.167214
19.8176 63.4981 -43.3349 0.297468 0.941207 0.160132
21.5023 62.6627 -41.551 0.297078 0.94065 0.164081
23.0844 61.8498 -39.8807 0.288162 0.939731 0.184033
23.746 61.5107 -39.185 0.289509 0.939022 0.185535
21.0786 62.3855 -39.3433 0.297789 0.936472 0.185315
19.2639 63.3243 -41.2646 0.301435 0.937566 0.173513
16.8142 64.5491 -43.8623 0.308375 0.938597 0.154725
16.7997 64.5565 -43.8778 0.321369 0.937394 0.134218
13.5794 65.7762 -44.6578 0.328823 0.935998 0.125632
15.2968 64.9068 -42.8227 0.321895 0.935126 0.148065
16.8913 64.0795 -41.1225 0.313443 0.935299 0.164225
18.8478 63.0485 -39.0514 0.301356 0.937586 0.173543
19.1306 62.9021 -38.7518 0.303797 0.935306 0.18141
17.4674 63.285 -37.8655 0.317511 0.930084 0.184744
15.7198 64.2337 -39.7116 0.325469 0.930703 0.16692
13.5716 65.3792 -42.0003 0.330467 0.930872 0.155784
11.997 66.1858 -43.6834 0.326737 0.935061 0.137491
10.1822 67.1064 -45.6487 0.345639 0.933091 0.0993681
10.0551 67.1683 -45.788 0.345642 0.93309 0.0993687
6.70535 68.5363 -46.7853 0.358562 0.930809 0.0709076
8.63245 67.5734 -44.644 0.353746 0.929847 0.101234
10.3172 66.6929 -42.8015 0.350906 0.927653 0.12777
11.9533 65.8141 -41.0602 0.352221 0.923531 0.151762
13.5563 64.936 -39.3618 0.337658 0.925961 0.169064
15.2614 63.9829 -37.5528 0.331598 0.926696 0.176854
15.9057 63.6219 -36.8761 0.329448 0.924224 0.193066
14.4906 63.8929 -35.7596 0.329097 0.924423 0.192712
12.9237 64.7994 -37.3786 0.343126 0.922839 0.17502
11.0891 65.8422 -39.3182 0.347003 0.922229 0.170536
9.44258 66.7741 -41.0669 0.368764 0.919674 0.134955
7.69021 67.7437 -42.9745 0.370834 0.92078 0.121022
6.16853 68.5542 -44.6695 0.388852 0.916441 0.094496
4.08137 69.623 -47.028 0.379561 0.923558 0.0545401
3.498 69.8951 -47.695 0.375594 0.925482 0.0491186
0.766347 71.1272 -48.1497 0.428135 0.9031 0.0333175
2.23942 70.3796 -46.4048 0.40265 0.91351 0.0580729
4.14234 69.3653 -44.2216 0.394489 0.915785 0.0756043
5.67654 68.5102 -42.4897 0.383142 0.916779 0.112773
7.29487 67.5804 -40.6974 0.375906 0.917067 0.132974
8.87085 66.6649 -39.0181 0.367498 0.915732 0.16242
10.9043 65.4656 -36.8733 0.362817 0.913219 0.185456
13.1711 64.1197 -34.5344 0.348096 0.916205 0.198489
12.4735 63.9551 -32.6762 0.345177 0.914475 0.211159
10.6087 65.0977 -34.5477 0.362188 0.90933 0.204791
8.90552 66.1537 -36.3436 0.369743 0.912328 0.175919
7.05986 67.2851 -38.2679 0.383091 0.911199 0.15152
4.88994 68.5967 -40.6185 0.398255 0.908481 0.126709
3.15056 69.6291 -42.5609 0.40476 0.908984 0.0995826
1.44141 70.607 -44.5526 0.407071 0.909466 0.0846458
0.120616 71.3236 -46.137 0.426082 0.902734 0.0593759
-0.633563 71.5898 -44.2444 0.442385 0.895023 0.0568293
0.926954 70.6478 -42.3543 0.433241 0.897726 0.0799404
2.38066 69.7493 -40.6595 0.432578 0.893994 0.116836
4.13651 68.6443 -38.7057 0.416331 0.896686 0.150408
5.76081 67.6046 -36.9643 0.401637 0.898434 0.177493
7.37281 66.581 -35.3038 0.393889 0.89908 0.191068
8.94774 65.5616 -33.6672 0.365523 0.907699 0.206098
10.9756 64.2811 -31.6709 0.353038 0.907701 0.226812
11.6645 63.8469 -30.9894 0.350724 0.909115 0.224728
10.9509 63.6571 -29.1881 0.346986 0.904575 0.24768
8.92061 64.9707 -31.1842 0.367053 0.902889 0.223751
7.20584 66.1008 -32.8397 0.378105 0.895863 0.233379
5.61058 67.1615 -34.4742 0.393201 0.895449 0.20872
4.07424 68.1969 -36.0723 0.421181 0.890489 0.172151
2.22814 69.4523 -38.0763 0.434202 0.889017 0.145319
0.257197 70.774 -40.3368 0.464387 0.877817 0.117397
-1.31819 71.8032 -42.2317 0.48058 0.87368 0.0756759
-2.23538 72.154 -40.4577 0.48058 0.87368 0.0756764
-0.368918 70.827 -38.2459 0.480825 0.868733 0.118787
1.59913 69.3906 -36.0255 0.454992 0.874249 0.169324
3.07857 68.3265 -34.4552 0.419745 0.882777 0.210995
5.20081 66.8116 -32.2694 0.395775 0.888172 0.233479
6.87433 65.6686 -30.6435 0.372593 0.899406 0.228568
8.59325 64.5194 -29.0061 0.35692 0.900521 0.248335
10.0439 63.5543 -27.5752 0.34217 0.902656 0.261021
9.48721 63.225 -25.6808 0.334622 0.905708 0.260231
7.37542 64.6264 -27.683 0.356205 0.893929 0.272044
5.71713 65.759 -29.2525 0.376302 0.890061 0.257271
3.95459 67.0144 -30.9287 0.395771 0.888173 0.233481
2.14499 68.3818 -32.7808 0.429026 0.870392 0.241566
0.508847 69.6145 -34.4696 0.446685 0.868008 0.216872
-1.28274 71.0095 -36.4051 0.493549 0.854456 0.162218
-2.88712 72.2288 -38.2518 0.50018 0.857391 0.121248
-3.1438 72.4384 -38.6056 0.51725 0.846481 0.126182
-4.70226 73.2868 -37.6452 0.524757 0.837936 0.149977
-3.02194 71.7943 -35.4759 0.525441 0.832579 0.175283
-1.60934 70.6199 -33.9187 0.48056 0.849653 0.217144
0.217532 69.1419 -32.097 0.439956 0.86036 0.257332
1.98465 67.7742 -30.3615 0.410384 0.873492 0.26191
3.77445 66.4038 -28.5929 0.382285 0.884766 0.266546
5.34199 65.287 -27.1454 0.357835 0.890765 0.280164
7.03985 64.1206 -25.5582 0.343283 0.892659 0.292089
8.539 63.1038 -24.1585 0.321319 0.904185 0.281433
8.13687 62.6067 -22.1375 0.313236 0.902497 0.295604
6.45378 63.7299 -23.6902 0.327821 0.894669 0.30348
4.27523 65.2441 -25.6935 0.351912 0.883195 0.310039
2.70235 66.3793 -27.139 0.371839 0.879509 0.296983
1.03098 67.6746 -28.7467 0.396218 0.869924 0.293673
-0.860368 69.2294 -30.5232 0.427633 0.859523 0.279912
-2.50927 70.6337 -32.1629 0.477317 0.8389 0.261562
-3.88813 71.8845 -33.681 0.51146 0.824819 0.241003
-5.26979 73.2066 -35.389 0.518377 0.830497 0.203863
-5.75673 73.6461 -36.0247 0.513941 0.837536 0.185466
-6.74017 73.8313 -34.2148 0.539371 0.809981 0.230238
-5.27577 72.3279 -32.4494 0.488616 0.820528 0.296629
-3.80607 70.8756 -30.8682 0.463712 0.831263 0.30655
-2.04999 69.2853 -29.1604 0.44521 0.829996 0.335998
-0.256523 67.7997 -27.5004 0.3855 0.859804 0.334853
1.61767 66.3255 -25.7254 0.361007 0.87033 0.334961
3.6294 64.8574 -23.8809 0.339368 0.882709 0.325044
5.23755 63.7462 -22.4096 0.322562 0.893151 0.313424
6.80877 62.7004 -20.9849 0.320868 0.899498 0.296559
6.88119 61.8544 -18.5947 0.293606 0.906853 0.302347
5.13758 62.9727 -20.1736 0.305922 0.895844 0.322295
3.13072 64.3259 -21.9788 0.324808 0.887059 0.328066
1.49779 65.5089 -23.4418 0.32038 0.881952 0.345712
-0.0495755 66.6896 -24.8586 0.334371 0.865123 0.373843
-1.80468 68.1058 -26.4832 0.360836 0.854581 0.373482
-3.53439 69.603 -28.0869 0.403332 0.836011 0.372033
-5.17167 71.1598 -29.6532 0.443901 0.822135 0.356435
-6.78368 72.8036 -31.2875 0.487866 0.801593 0.345596
-8.02897 74.1735 -32.7119 0.526414 0.792479 0.308003
-9.29483 74.3463 -31.1478 0.519003 0.769518 0.372127
-7.86268 72.7202 -29.7157 0.434651 0.803161 0.407443
-5.95699 70.766 -27.8825 0.415954 0.807024 0.41916
-4.25416 69.1429 -26.3105 0.404155 0.830419 0.383487
-2.48293 67.6081 -24.7052 0.361362 0.851421 0.380132
-0.647477 66.1382 -23.0401 0.333932 0.867239 0.369305
0.956537 64.9495 -21.5974 0.302845 0.883702 0.356869
2.82302 63.6562 -19.9317 0.278433 0.894232 0.350463
4.79487 62.3692 -18.1592 0.272967 0.904853 0.326696
6.25954 61.4304 -16.816 0.267833 0.91404 0.304626
5.6039 61.0185 -15.0505 0.262413 0.910568 0.319381
3.37603 62.4032 -17.1139 0.271063 0.902837 0.333781
1.40991 63.6872 -18.8883 0.290568 0.888232 0.355829
-0.615352 65.0969 -20.6799 0.282253 0.877173 0.388459
-2.22805 66.3024 -22.1198 0.295829 0.869139 0.396335
-4.05549 67.7817 -23.7527 0.341247 0.845817 0.410053
-5.76592 69.2649 -25.2748 0.377298 0.818933 0.432429
-7.31569 70.777 -26.6538 0.408048 0.80248 0.435342
-9.02109 72.5608 -28.1656 0.434251 0.795121 0.423331
-10.9591 74.7775 -29.9587 0.475584 0.734461 0.484136
-13.1852 75.7615 -29.2202 0.492561 0.686708 0.534617
-11.4543 73.6876 -27.8175 0.415 0.738226 0.531787
-9.99109 72.0517 -26.5851 0.398147 0.767174 0.502914
-8.19603 70.2118 -25.0349 0.370043 0.789661 0.489392
-6.42889 68.568 -23.4855 0.320643 0.829659 0.457005
-4.8059 67.2163 -22.0597 0.295261 0.847336 0.441409
-2.90939 65.7454 -20.3899 0.275369 0.870925 0.407015
-0.757566 64.1965 -18.4854 0.267777 0.883601 0.384116
1.01392 63.0212 -16.9111 0.241072 0.901128 0.360351
2.80758 61.8815 -15.2762 0.248227 0.906645 0.341142
5.0835 60.4969 -13.1674 0.241677 0.916451 0.318919
4.60903 59.9567 -11.2399 0.236527 0.918193 0.317769
2.72758 61.0419 -12.9754 0.220168 0.916331 0.334461
0.982905 62.1023 -14.5792 0.236647 0.903835 0.356483
-1.04806 63.3742 -16.4144 0.254075 0.891891 0.374135
-2.69081 64.4615 -17.8568 0.238652 0.878108 0.414694
-4.42459 65.707 -19.3849 0.271162 0.861841 0.428603
-6.31185 67.1865 -21.033 0.26394 0.835182 0.482501
-8.01451 68.6281 -22.5192 0.280472 0.815456 0.506327
-9.56518 70.051 -23.8472 0.318221 0.781871 0.53611
-11.2831 71.7705 -25.2838 0.331257 0.749302 0.573424
-12.8576 73.5422 -26.5906 0.377784 0.736492 0.561123
-14.2949 75.247 -27.7398 0.467002 0.655429 0.593567
-15.1294 76.3508 -28.2989 0.472041 0.645798 0.600102
-14.2007 73.1809 -25.359 0.273102 0.719681 0.638337
-12.6686 71.4863 -24.0878 0.307634 0.772882 0.55499
-10.6574 69.5448 -22.4456 0.262841 0.796121 0.545075
-8.71253 67.8335 -20.796 0.277693 0.829886 0.483918
-6.57593 66.1112 -18.9354 0.241801 0.850327 0.467413
-4.70706 64.7571 -17.2966 0.211059 0.872894 0.439898
-2.57066 63.3244 -15.408 0.225225 0.890924 0.394371
-0.775237 62.2084 -13.7926 0.198313 0.909649 0.364981
1.46406 60.8981 -11.7512 0.203571 0.911696 0.356889
3.38008 59.8169 -9.99838 0.205624 0.920487 0.332298
4.19433 59.3746 -9.25868 0.206282 0.926418 0.314955
4.06421 58.6337 -7.00717 0.210704 0.925105 0.315886
1.89407 59.7815 -8.98068 0.203826 0.924259 0.3228
-0.10804 60.8705 -10.8023 0.195658 0.916172 0.34978
-2.24645 62.0815 -12.7483 0.196276 0.903568 0.380843
-4.11766 63.2296 -14.4196 0.187201 0.890254 0.415214
-6.04787 64.4887 -16.1388 0.206842 0.86885 0.449796
-8.27283 66.0767 -18.0869 0.201732 0.852356 0.482486
-10.4796 67.8411 -20.0163 0.232027 0.814416 0.531873
-12.4298 69.5373 -21.5939 0.24083 0.786531 0.568656
-14.0525 71.0686 -22.9308 0.260621 0.761845 0.593017
-15.093 72.123 -23.7845 0.272705 0.73676 0.618722
-15.8364 71.0022 -22.1137 0.22689 0.73877 0.634619
-13.9449 69.1954 -20.5238 0.237788 0.778631 0.580681
-12.2347 67.7626 -19.1588 0.216505 0.809304 0.546033
-10.1575 66.1162 -17.386 0.195359 0.832214 0.518897
-8.42055 64.8641 -15.882 0.190737 0.862304 0.469096
-6.59621 63.6359 -14.2598 0.158067 0.876624 0.454473
-4.6399 62.4548 -12.5301 0.165204 0.897304 0.409333
-2.86151 61.4485 -10.9327 0.14296 0.913704 0.380405
-0.99591 60.4407 -9.23216 0.163215 0.919098 0.358635
1.02556 59.3821 -7.39257 0.167776 0.927257 0.334733
3.40133 58.1651 -5.23084 0.177295 0.93301 0.313144
2.95273 57.6076 -3.2698 0.170854 0.936165 0.307252
1.07541 58.5128 -4.96277 0.158771 0.933448 0.321661
-0.770867 59.4247 -6.64123 0.148725 0.928268 0.34088
-2.94302 60.516 -8.63557 0.134236 0.918452 0.372056
-5.00252 61.6097 -10.5153 0.154418 0.906217 0.393607
-6.90385 62.6705 -12.1807 0.148699 0.888274 0.434577
-9.02432 63.9952 -14.0521 0.162954 0.864983 0.474605
-10.8492 65.238 -15.6357 0.171185 0.850552 0.49725
-12.8251 66.7231 -17.3199 0.201342 0.826969 0.52496
-14.7189 68.2302 -18.8571 0.193319 0.804253 0.561965
-16.4539 69.7447 -20.3081 0.212059 0.778281 0.591025
-18.2787 69.5629 -19.4488 0.183548 0.78506 0.5916
-16.2305 67.828 -17.7553 0.201961 0.809602 0.55114
-14.1907 66.2661 -16.111 0.190172 0.825391 0.531567
-11.7061 64.4611 -14.0331 0.14319 0.852969 0.501937
-9.51686 63.0477 -12.1198 0.135892 0.882233 0.450776
-7.39008 61.8322 -10.2697 0.116837 0.896216 0.427955
-5.3204 60.7719 -8.42996 0.104516 0.915926 0.3875
-3.42471 59.8329 -6.70019 0.133067 0.929543 0.343866
-1.58984 58.9462 -5.01494 0.135721 0.934568 0.328882
0.224798 58.0866 -3.36993 0.144258 0.936143 0.320664
2.11812 57.2296 -1.65374 0.167838 0.938346 0.30222
2.70386 56.9578 -1.11845 0.16572 0.941097 0.294742
1.84501 56.6165 0.470599 0.146345 0.944377 0.294509
-0.416577 57.5904 -1.58123 0.136999 0.940101 0.312156
-2.25874 58.4066 -3.25643 0.115345 0.932387 0.342565
-4.09083 59.2272 -4.92246 0.105246 0.925865 0.362902
-5.96296 60.095 -6.62867 0.0944793 0.928074 0.360212
-7.86799 61.012 -8.33917 0.0962061 0.910121 0.403019
-9.7555 61.9895 -9.97098 0.125268 0.888763 0.440918
-11.5587 63.0716 -11.551 0.145657 0.873484 0.464554
-13.4728 64.2696 -13.2038 0.143187 0.852967 0.501941
-15.7437 65.9424 -15.0571 0.189028 0.8243 0.533665
-17.8417 67.5031 -16.6834 0.197318 0.818992 0.538812
-19.1534 68.6148 -17.7069 0.243017 0.792323 0.559613
-20.425 68.0925 -16.3618 0.284143 0.797213 0.532648
-18.4029 66.4662 -14.8592 0.250629 0.812201 0.526797
-16.6001 65.0978 -13.4294 0.209855 0.824742 0.52513
-14.4952 63.6152 -11.7246 0.159246 0.8579 0.488516
-12.6827 62.5213 -10.1626 0.129509 0.881282 0.454498
-10.7528 61.4121 -8.49455 0.112535 0.899299 0.422608
-8.76886 60.4297 -6.7623 0.0812005 0.917597 0.38913
-6.53009 59.4157 -4.75223 0.0860359 0.925677 0.368402
-4.24516 58.4323 -2.68126 0.0827847 0.936739 0.340099
-1.93354 57.4432 -0.578078 0.105633 0.942995 0.315598
0.0434725 56.6236 1.21491 0.126325 0.94683 0.295897
1.9309 55.8557 2.92403 0.118441 0.95081 0.286237
1.65683 55.2598 5.08398 0.123811 0.954892 0.26991
-0.430895 56.0761 3.16921 0.122385 0.948841 0.291073
-2.55107 56.8903 1.25147 0.0965175 0.946071 0.309247
-4.60053 57.723 -0.603488 0.090476 0.940643 0.327116
-6.48907 58.4916 -2.3181 0.0651295 0.935214 0.348043
-8.86107 59.4979 -4.45961 0.0659093 0.925684 0.372513
-10.8584 60.405 -6.23458 0.0774057 0.909934 0.407465
-12.7949 61.4005 -7.91112 0.0997749 0.889022 0.446861
-14.8832 62.5833 -9.7016 0.108899 0.875804 0.470221
-17.3015 64.1538 -11.6838 0.18665 0.833626 0.519836
-19.4827 65.8356 -13.3745 0.241625 0.809489 0.535112
-21.235 67.2619 -14.6894 0.273378 0.807206 0.523147
-21.8311 67.7672 -15.1312 0.282642 0.795595 0.535856
-22.3251 66.654 -13.2549 0.270133 0.788186 0.552984
-20.4886 65.1232 -11.8903 0.232587 0.804935 0.545878
-18.3467 63.4953 -10.2288 0.19798 0.833213 0.516294
-16.4635 62.2697 -8.69581 0.152617 0.860164 0.486648
-13.9703 60.8668 -6.5869 0.0914571 0.882839 0.460685
-12.0396 59.914 -4.91376 0.0731506 0.917722 0.390429
-10.0494 59.0513 -3.13963 0.0628134 0.929534 0.363347
-7.93503 58.188 -1.23167 0.0651295 0.935214 0.348043
-6.02986 57.4507 0.493464 0.0615253 0.940311 0.33471
-4.0082 56.6791 2.32477 0.062264 0.950831 0.303388
-2.16443 55.9943 3.99916 0.0861614 0.954639 0.285026
-0.13714 55.2584 5.86755 0.0976103 0.955697 0.277697
1.71855 54.5362 7.5784 0.135072 0.950481 0.279896
1.73325 53.8701 9.99714 0.115533 0.958997 0.258799
-0.185789 54.566 8.24724 0.110726 0.956879 0.268555
-2.58117 55.429 6.04537 0.0655177 0.956409 0.284587
-5.08397 56.2934 3.75424 0.0622613 0.950831 0.303388
-6.99141 56.9721 2.01344 0.0344222 0.94617 0.321835
-8.96152 57.7009 0.230675 0.0404689 0.937246 0.346311
-10.9914 58.4991 -1.59827 0.0462987 0.929399 0.366162
-12.8761 59.2747 -3.27621 0.0561018 0.919065 0.390093
-14.7939 60.1466 -4.95401 0.0681666 0.899744 0.431061
-16.7291 61.1827 -6.5844 0.141074 0.878804 0.455853
-18.6979 62.4065 -8.20711 0.161829 0.868921 0.467747
-20.6633 63.7965 -9.76433 0.246448 0.822293 0.512931
-22.1767 64.996 -10.9189 0.26129 0.801905 0.537285
-22.4662 63.7567 -8.87685 0.232569 0.816174 0.528935
-20.6639 62.4381 -7.46655 0.192757 0.85143 0.487761
-18.7739 61.2031 -5.93894 0.144931 0.86625 0.478128
-16.2463 59.7693 -3.83802 0.108287 0.893119 0.436592
-14.393 58.9158 -2.23404 0.0510788 0.914941 0.400343
-12.26 58.0544 -0.345673 0.031347 0.928398 0.370263
-9.85724 57.1556 1.8102 0.0222597 0.935363 0.352987
-7.94628 56.4848 3.5483 0.0344247 0.94617 0.321834
-6.03343 55.8477 5.30149 0.0314452 0.952536 0.302796
-4.00383 55.1936 7.16164 0.047604 0.955767 0.290246
-1.45758 54.3435 9.4895 0.0555594 0.958259 0.28045
0.929085 53.5103 11.6775 0.105881 0.963505 0.245861
2.07736 53.1103 12.7397 0.125776 0.96134 0.244961
2.83795 52.2559 15.8909 0.0901484 0.967044 0.238116
0.367946 53.0653 13.605 0.0807716 0.963606 0.254834
-1.67187 53.7266 11.717 0.0537159 0.964205 0.259661
-3.53967 54.3208 10.0007 0.0411863 0.962043 0.269771
-5.40094 54.8952 8.29531 0.0320202 0.95597 0.291712
-7.88118 55.6663 6.02167 -0.00370742 0.947117 0.320867
-9.79362 56.2711 4.26872 0.00834679 0.942936 0.332868
-12.4046 57.1796 1.90735 0.0222571 0.935363 0.352988
-14.5724 58.0059 -0.0205933 0.0392172 0.921747 0.385805
-16.546 58.8421 -1.73997 0.0760202 0.903448 0.421903
-18.4726 59.8105 -3.36393 0.103773 0.88359 0.456618
-20.3044 60.8645 -4.87707 0.134734 0.867487 0.478866
-21.6352 61.7192 -5.95145 0.18002 0.832664 0.523702
-21.2019 60.109 -3.31038 0.127081 0.859043 0.495879
-19.2715 59.051 -1.71268 0.0951544 0.883869 0.457953
-17.2723 58.1256 -0.0168565 0.0365749 0.910757 0.411321
-15.2448 57.2918 1.75475 0.0318416 0.920101 0.390385
-13.3459 56.591 3.4472 0.00495802 0.93256 0.360981
-11.3502 55.9275 5.25258 -0.0149707 0.941259 0.337353
-8.63218 55.0914 7.7429 -0.00286511 0.951068 0.30897
-6.54032 54.4721 9.67172 -0.00402312 0.953657 0.30087
-4.52804 53.9137 11.5216 -0.00340713 0.957735 0.287631
-2.19892 53.223 13.6737 0.0511361 0.962493 0.266442
0.252376 52.4736 15.9377 0.0744213 0.966773 0.244563
2.51943 51.7663 18.0523 0.0718655 0.970406 0.230539
4.07089 51.271 19.5183 0.113245 0.96789 0.224421
5.12431 50.3957 22.9969 0.0758881 0.979647 0.185828
3.26412 50.9436 21.2366 0.0817669 0.970669 0.226086
1.41703 51.5082 19.4951 0.0442832 0.96862 0.244569
-0.618951 52.1233 17.5852 0.0434179 0.96418 0.261672
-2.58206 52.6759 15.76 0.0449257 0.964331 0.260858
-4.54733 53.2066 13.9422 -0.0113173 0.957806 0.287193
-6.54061 53.7243 12.1008 -0.00900479 0.955101 0.296145
-9.27991 54.4555 9.55315 -0.0303609 0.946111 0.322416
-11.1293 54.9993 7.84518 -0.018256 0.941708 0.335936
-13.2165 55.6463 5.95822 -0.0149164 0.935721 0.352425
-15.4868 56.4151 3.91335 0.00124232 0.930566 0.366122
-17.4367 57.1657 2.18353 0.0306741 0.916927 0.397875
-19.4319 58.0097 0.475953 0.0598579 0.905201 0.420747
-20.3929 58.4563 -0.327408 0.0740425 0.893274 0.443372
-19.2135 56.8453 2.97616 0.0150266 0.913304 0.407001
-17.0336 56.003 4.90641 -0.00285259 0.924928 0.380131
-15.1054 55.3396 6.63394 -0.0252106 0.928788 0.369753
-12.7304 54.6027 8.78003 -0.0396943 0.934155 0.354653
-10.8314 54.0681 10.5261 -0.0557703 0.942756 0.328788
-8.73461 53.5105 12.4831 -0.051939 0.950227 0.3072
-6.74234 53.0246 14.3352 -0.0594156 0.950201 0.30592
-4.85928 52.5772 16.0917 -0.0106259 0.961961 0.27298
-2.79281 52.0705 18.0199 -0.00805598 0.97025 0.241972
-0.430936 51.4029 20.2226 0.0358435 0.96407 0.26322
2.11708 50.7139 22.6275 0.0498276 0.972518 0.227435
4.45814 50.0742 24.8519 0.0484074 0.981081 0.18745
6.05215 49.6839 26.3863 0.0863016 0.983727 0.157585
5.51576 49.3928 28.3913 0.0370635 0.986729 0.158088
3.16111 49.9051 26.1048 0.0510515 0.982378 0.179798
1.1087 50.3828 24.1348 0.0137642 0.972751 0.231443
-0.735398 50.8264 22.378 0.0226872 0.970063 0.241793
-3.22807 51.4606 20.0534 -0.00128991 0.960546 0.278117
-5.18134 51.9056 18.2072 -0.0502997 0.954694 0.293309
-7.26142 52.3773 16.264 -0.0645281 0.952686 0.297029
-9.25318 52.836 14.4043 -0.0670186 0.944332 0.322095
-11.7119 53.4449 12.1182 -0.065868 0.935079 0.348267
-13.6388 53.973 10.3371 -0.0379486 0.934123 0.354929
-15.9261 54.6557 8.26852 -0.0558054 0.923377 0.379816
-17.8643 55.2957 6.53065 -0.0461049 0.918944 0.391684
-18.2934 55.4504 6.14786 -0.0195614 0.916002 0.400696
-17.7522 54.2611 8.99373 -0.0675114 0.915721 0.396102
-15.7268 53.6369 10.8144 -0.0655977 0.924896 0.374519
-13.7722 53.1042 12.5986 -0.0915268 0.931155 0.352948
-11.7428 52.6056 14.4823 -0.0979438 0.933656 0.34452
-9.82119 52.167 16.2727 -0.0878136 0.941895 0.324226
-7.87833 51.7438 18.0878 -0.0834033 0.946681 0.311188
-6.00469 51.3597 19.8501 -0.0759086 0.954238 0.289252
-3.79769 50.8871 21.9427 -0.0673109 0.958936 0.275519
-1.91409 50.4724 23.7205 -0.0380042 0.973211 0.226751
0.0587347 50.0519 25.6066 0.00342378 0.98067 0.19564
2.20414 49.627 27.6838 0.00530854 0.980481 0.196541
4.25863 49.242 29.6962 0.0219677 0.986777 0.160586
4.42316 49.2119 29.8585 0.0219678 0.986777 0.160585
3.92749 48.9085 31.9121 0.013651 0.991146 0.132074
1.68637 49.2663 29.6981 0.00424794 0.986625 0.162953
-0.67842 49.6664 27.3838 -0.0456023 0.972158 0.229845
-2.73405 50.0242 25.3935 -0.0579014 0.96733 0.246818
-5.0037 50.4237 23.2174 -0.0772869 0.95465 0.287525
-7.35794 50.879 20.9766 -0.105103 0.947816 0.300996
-9.46816 51.2863 18.9857 -0.110907 0.938468 0.327073
-11.5203 51.7085 17.0671 -0.110934 0.940029 0.322552
-14.0526 52.2622 14.707 -0.112162 0.932055 0.344518
-15.9939 52.7513 12.9241 -0.101516 0.920654 0.37695
-17.7169 53.2311 11.3725 -0.0792202 0.916779 0.391458
-17.2966 52.1337 14.0816 -0.101515 0.920655 0.376947
-15.1808 51.6253 16.0247 -0.126166 0.924838 0.358826
-13.1761 51.1929 17.8909 -0.13509 0.931673 0.337248
-10.8418 50.7453 20.0721 -0.11981 0.937943 0.325436
-8.90261 50.411 21.9108 -0.113769 0.947479 0.2989
-6.69956 50.045 24.019 -0.0946341 0.954265 0.28359
-4.24455 49.6784 26.3946 -0.0776022 0.967162 0.242026
-2.2681 49.3715 28.3158 -0.056227 0.972282 0.226952
-0.146765 49.0987 30.4217 -0.0370887 0.982471 0.182687
1.91932 48.8108 32.4623 -0.0298265 0.987516 0.15467
3.16597 48.6491 33.7056 -0.00398813 0.990622 0.136575
1.83394 48.4612 34.9351 -0.0350821 0.991734 0.123424
-0.0930879 48.6418 33.0037 -0.0823895 0.980822 0.176636
-1.97573 48.7914 31.103 -0.101412 0.976707 0.189102
-3.86157 49.0112 29.2307 -0.0968945 0.972096 0.213637
-6.0529 49.2984 27.0916 -0.108508 0.963699 0.243948
-8.17699 49.5395 25.0104 -0.142947 0.951553 0.272237
-10.5136 49.8892 22.7652 -0.14783 0.942269 0.30046
-12.5899 50.2291 20.802 -0.140666 0.934764 0.326235
-14.6789 50.6169 18.8502 -0.140408 0.926924 0.347991
-17.184 51.1448 16.522 -0.124633 0.920998 0.369092
-15.9957 49.9731 19.9762 -0.162575 0.920526 0.355248
-14.1286 49.6533 21.7221 -0.167212 0.924448 0.34269
-11.9831 49.3251 23.7498 -0.177461 0.93406 0.309902
-9.91399 49.0425 25.7418 -0.183921 0.938258 0.292992
-7.92408 48.8374 27.6971 -0.163887 0.952131 0.258045
-5.79407 48.6183 29.7879 -0.150234 0.95673 0.249192
-3.76069 48.428 31.8108 -0.161916 0.963454 0.213399
-1.84083 48.3483 33.7898 -0.172177 0.965879 0.193475
0.50817 48.1663 36.153 -0.0759223 0.988437 0.131253
1.85636 48.1297 37.5394 -0.0754057 0.991756 0.103607
1.35958 47.8241 39.618 -0.115915 0.981979 0.149266
-0.583582 47.8947 37.6266 -0.146586 0.981535 0.122888
-2.93405 47.8968 35.1776 -0.16399 0.968715 0.186276
-5.06389 47.9561 32.9849 -0.173532 0.956737 0.233539
-7.24318 48.0788 30.7891 -0.20776 0.936423 0.28275
-9.69311 48.2626 28.359 -0.196614 0.937361 0.287571
-10.4969 48.3526 27.5756 -0.18393 0.937209 0.296326
-6.50067 47.417 33.9897 -0.196025 0.956133 0.217677
-4.85236 47.3988 35.6919 -0.216314 0.95697 0.193435
-3.24789 47.4533 37.3955 -0.227214 0.958393 0.172789
-1.56007 47.485 39.1759 -0.182573 0.969347 0.164416
0.301353 47.5044 41.1216 -0.160618 0.976063 0.146637
0.323789 47.5046 41.1449 -0.16062 0.976063 0.146637
0.105569 47.117 43.5094 -0.149267 0.980146 0.130515
-1.6696 47.0511 41.6255 -0.203532 0.968717 0.14199
-3.6916 46.9478 39.4565 -0.256955 0.952034 0.16615
-5.52178 46.8778 37.5014 -0.25779 0.944814 0.202165
-5.92321 46.8614 37.0756 -0.257498 0.943981 0.206386
-6.77942 46.269 38.657 -0.314254 0.918136 0.241393
-4.68492 46.3917 40.9164 -0.28422 0.933637 0.218041
-3.03987 46.5335 42.7243 -0.309233 0.935957 0.168399
-1.44229 46.6291 44.4463 -0.233503 0.959587 0.157064
0.302521 46.733 46.3418 -0.206362 0.964696 0.163634
-0.273077 46.3037 48.3776 -0.204329 0.971239 0.122248
-2.2659 46.138 46.1696 -0.310462 0.932404 0.185032
-3.80005 45.9403 44.4161 -0.341217 0.922143 0.182273
-5.74619 45.7157 42.2425 -0.325862 0.91976 0.21876
-7.47192 45.5881 40.3597 -0.314064 0.919378 0.23687
-8.47787 44.7983 41.6599 -0.382036 0.887774 0.256721
-6.77654 45.0135 43.5835 -0.388803 0.890271 0.237169
-5.09891 45.2653 45.5192 -0.342798 0.925237 0.162561
-3.21394 45.5344 47.7076 -0.30829 0.937986 0.158552
-1.26531 45.7626 49.9252 -0.288602 0.941783 0.172494
-1.10033 45.7793 50.1098 -0.289251 0.944717 0.154413
-1.97186 45.2572 51.8299 -0.316663 0.935334 0.157716
-3.69227 44.9693 49.79 -0.390345 0.901495 0.186914
-5.11905 44.7136 48.087 -0.408611 0.8944 0.181894
-6.91078 44.3221 45.8793 -0.408085 0.882453 0.233972
-8.4088 44.1152 44.1687 -0.465961 0.838947 0.281155
-9.88264 43.8914 42.445 -0.457849 0.843504 0.280848
-10.2296 43.047 44.3675 -0.513367 0.796768 0.318772
-8.73449 43.2914 46.1304 -0.472949 0.837918 0.272421
-7.249 43.6407 48.0014 -0.472569 0.856207 0.208777
-5.60991 44.0789 50.1209 -0.485841 0.856634 0.1736
-4.15619 44.4128 51.9238 -0.410948 0.902018 0.132234
-2.70427 44.6956 53.676 -0.316648 0.934848 0.160602
-2.41749 44.7355 54.0097 -0.316649 0.934848 0.160603
-2.84306 44.1153 56.1579 -0.357688 0.907884 0.218645
-4.697 43.88 53.9868 -0.36658 0.914298 0.172274
-6.01637 43.4335 52.2334 -0.526092 0.840131 0.131935
-7.52036 42.9644 50.2083 -0.51415 0.834567 0.197858
-9.44137 42.4015 47.6405 -0.49216 0.837941 0.23587
-11.1572 42.0029 45.4835 -0.519475 0.804421 0.288188
-11.4817 41.9483 45.0974 -0.505415 0.79979 0.323868
-11.9095 40.9564 46.742 -0.570422 0.756411 0.320097
-10.3332 41.3803 48.8197 -0.59475 0.760524 0.260528
-9.10172 41.8325 50.594 -0.60086 0.761224 0.243935
-7.66183 42.3063 52.6014 -0.539953 0.821874 0.181586
-6.37653 42.7951 54.4098 -0.586617 0.774244 0.237543
-4.85021 43.073 56.2862 -0.465833 0.849498 0.247694
-3.29382 43.4726 58.2629 -0.496301 0.85133 0.170067
-2.76319 42.6856 61.3204 -0.409238 0.837129 0.362959
-4.29702 42.4948 59.5713 -0.534502 0.803838 0.26106
-5.62236 42.1158 57.8117 -0.572756 0.77872 0.256017
-7.03727 41.7363 55.9386 -0.598437 0.750104 0.281455
-8.63276 41.2013 53.68 -0.637451 0.735853 0.228421
-10.1006 40.6551 51.5181 -0.65365 0.701462 0.284063
-11.7899 40.0893 49.0965 -0.629189 0.712669 0.310199
-13.0697 39.7649 47.4203 -0.607326 0.700799 0.374213
-14.0775 38.494 48.1801 -0.608308 0.704688 0.365207
-12.7198 38.8393 49.9426 -0.660119 0.677484 0.324437
-11.2938 39.2856 51.9991 -0.67257 0.676693 0.299559
-9.99569 39.7819 53.9702 -0.684925 0.6652 0.297299
-8.6286 40.2604 55.9767 -0.666534 0.677199 0.311663
-7.39551 40.7014 57.791 -0.632873 0.731949 0.252433
-5.87944 41.2477 59.9919 -0.631509 0.732801 0.253377
-4.39538 41.6589 61.959 -0.471696 0.82867 0.301344
