-0.485811 70.1265 -27.2596 0.393 0.852631 0.344341
0.871857 70.0047 -28.7265 0.412222 0.860844 0.298363
1.8213 69.9107 -29.7553 0.413738 0.867899 0.274905
2.7983 69.7596 -30.8597 0.417522 0.873638 0.249865
3.70603 69.6047 -31.8833 0.424959 0.871929 0.243209
4.90948 69.3763 -33.2513 0.409621 0.888494 0.206854
6.03686 69.1613 -34.5249 0.397093 0.894408 0.205797
6.92985 68.991 -35.5234 0.39166 0.903373 0.174696
7.78112 68.8085 -36.488 0.388373 0.904141 0.178031
9.42096 68.4762 -38.3119 0.375062 0.909622 0.178652
10.9307 68.1774 -39.9791 0.358804 0.919802 0.158819
11.9715 67.9792 -41.1211 0.352194 0.923791 0.150235
13.2977 67.7087 -42.5806 0.341511 0.928589 0.145234
14.2517 67.525 -43.6232 0.32337 0.934785 0.147001
15.0383 67.3873 -44.4743 0.317375 0.938827 0.133708
15.5946 67.1035 -43.8023 0.315934 0.937901 0.143273
14.6995 67.2468 -42.8392 0.31446 0.936888 0.152823
13.3456 67.5054 -41.361 0.333771 0.929654 0.156012
12.3166 67.6906 -40.2395 0.35016 0.922695 0.161313
11.2359 67.8983 -39.0521 0.361182 0.917185 0.168285
10.1344 68.1017 -37.846 0.364261 0.914356 0.176827
9.21852 68.2729 -36.8353 0.364998 0.914236 0.175921
8.33624 68.4458 -35.8572 0.388373 0.904141 0.178031
7.44976 68.618 -34.864 0.394183 0.895101 0.208358
6.53949 68.7832 -33.8515 0.397095 0.894406 0.205801
5.63724 68.9552 -32.8322 0.401651 0.889943 0.216052
4.33243 69.1605 -31.3852 0.410339 0.879617 0.240613
3.39892 69.3219 -30.333 0.421246 0.872794 0.24654
2.42954 69.4482 -29.2573 0.409675 0.861574 0.299761
1.29061 69.5607 -28.024 0.410949 0.86121 0.299062
-0.00533524 69.6558 -26.6426 0.393004 0.852628 0.344346
-1.28936 69.6822 -25.3352 0.375769 0.848296 0.373084
-2.86211 69.635 -23.8013 0.34579 0.8407 0.416716
-3.82278 69.554 -22.9156 0.318011 0.836162 0.44688
-4.81186 69.4334 -22.0374 0.301698 0.83528 0.459658
-6.64592 69.133 -20.4808 0.253174 0.826393 0.502968
-7.65952 68.9516 -19.6424 0.243661 0.814444 0.526603
-8.77303 68.6705 -18.7814 0.214537 0.830509 0.514031
-9.81437 68.4255 -17.9509 0.196455 0.82588 0.528514
-10.8676 68.1199 -17.1428 0.17709 0.821084 0.542641
-12.3329 67.6903 -16.0214 0.174043 0.820208 0.544948
-13.5566 67.3181 -15.0703 0.164697 0.821466 0.545957
-14.8142 66.9239 -14.0875 0.162672 0.829854 0.533741
-16.0354 66.5452 -13.1265 0.164075 0.829732 0.533502
-17.2759 66.187 -12.1212 0.187381 0.830539 0.524494
-18.3249 65.8851 -11.2684 0.184745 0.82985 0.526515
-19.5231 65.546 -10.3237 0.196036 0.823982 0.531623
-20.5938 65.2766 -9.46792 0.221704 0.829404 0.512773
-21.7881 65.0013 -8.4853 0.217782 0.835301 0.50482
-21.8529 64.3545 -7.39538 0.215521 0.834068 0.50782
-20.2177 64.7439 -8.74486 0.220045 0.836521 0.501809
-18.8547 65.0988 -9.85231 0.180468 0.836107 0.518032
-17.7696 65.4058 -10.7078 0.184746 0.82985 0.526515
-16.7207 65.7077 -11.5607 0.187381 0.830539 0.524494
-15.3395 66.121 -12.6734 0.163164 0.842701 0.513062
-14.1103 66.5023 -13.6408 0.159035 0.832754 0.530309
-13.0431 66.8405 -14.4749 0.146229 0.839036 0.524057
-12.0336 67.1388 -15.2638 0.152265 0.844162 0.514009
-11.0296 67.4353 -16.0485 0.157327 0.845829 0.509726
-9.91156 67.7573 -16.9084 0.178263 0.820787 0.542707
-8.52637 68.119 -17.9933 0.214538 0.830509 0.514031
-7.18058 68.4357 -19.0666 0.214596 0.820098 0.530459
-6.16126 68.6336 -19.9043 0.253173 0.826395 0.502966
-5.1472 68.8303 -20.7378 0.2775 0.82998 0.483867
-3.55427 69.035 -22.1396 0.293649 0.837532 0.460772
-2.56113 69.1213 -23.0505 0.331402 0.836013 0.437328
-1.37817 69.1815 -24.1784 0.35951 0.845088 0.3957
-0.248728 69.2007 -25.2885 0.375769 0.848296 0.373084
0.724479 69.1712 -26.2879 0.404518 0.852664 0.330648
1.8646 69.108 -27.4857 0.392511 0.865582 0.31097
2.87479 69.005 -28.5812 0.402231 0.868656 0.289218
3.85703 68.9048 -29.6463 0.405964 0.865138 0.294498
4.77839 68.7683 -30.6645 0.395605 0.88706 0.23795
5.67031 68.635 -31.6505 0.399424 0.886558 0.233397
7.03802 68.4059 -33.1735 0.401651 0.889942 0.216055
7.90199 68.2518 -34.1327 0.384802 0.900615 0.20204
9.03763 68.0556 -35.3877 0.370663 0.90564 0.205973
10.2028 67.8478 -36.6683 0.364998 0.914236 0.175921
11.2437 67.6543 -37.8129 0.363523 0.914473 0.177734
12.4256 67.4495 -39.0975 0.348579 0.921853 0.169352
13.3267 67.2802 -40.0846 0.35016 0.922695 0.161313
14.2978 67.119 -41.1337 0.335208 0.926529 0.17082
15.7608 66.8704 -42.7154 0.31446 0.936888 0.152823
16.4919 66.7504 -43.5037 0.323154 0.933757 0.153846
17.1515 66.4312 -42.9519 0.323153 0.933758 0.153846
16.2701 66.5761 -42.0014 0.323235 0.932307 0.16224
14.857 66.7966 -40.4825 0.330681 0.928477 0.169059
13.8689 66.9577 -39.4171 0.342698 0.92465 0.166072
12.884 67.1319 -38.3449 0.346984 0.920943 0.177384
11.4952 67.3654 -36.8405 0.355268 0.917745 0.177563
10.6133 67.5172 -35.8749 0.372168 0.905808 0.202493
9.60687 67.682 -34.7759 0.369155 0.905458 0.209453
8.57897 67.8532 -33.6455 0.384802 0.900615 0.20204
7.42169 68.0385 -32.3732 0.386248 0.894458 0.225294
6.47125 68.1913 -31.3198 0.390902 0.890503 0.232809
5.24981 68.3715 -29.9741 0.396476 0.886273 0.239431
3.74101 68.529 -28.3563 0.388006 0.875045 0.289391
2.6682 68.6384 -27.1929 0.392511 0.865583 0.31097
1.32195 68.6958 -25.7928 0.393568 0.8574 0.331617
0.080151 68.7085 -24.5413 0.372028 0.841924 0.390845
-1.02448 68.692 -23.4541 0.365782 0.843525 0.393279
-1.99117 68.6307 -22.5445 0.331173 0.837768 0.434131
-3.13294 68.5411 -21.493 0.308435 0.841154 0.444216
-4.50964 68.3555 -20.2908 0.285419 0.841412 0.458869
-5.87728 68.1138 -19.1438 0.237747 0.848734 0.472363
-7.00556 67.8913 -18.2096 0.20937 0.844201 0.493447
-8.58214 67.5062 -16.9593 0.187636 0.844798 0.501108
-10 67.1213 -15.8484 0.160296 0.847768 0.505563
-11.1166 66.7977 -14.9752 0.153307 0.844015 0.513942
-12.1837 66.4824 -14.1414 0.146228 0.839035 0.524059
-13.3226 66.1098 -13.2606 0.14961 0.8333 0.532191
-14.4553 65.7656 -12.3606 0.167225 0.8523 0.4956
-15.6773 65.4115 -11.3657 0.138431 0.849117 0.509742
-17.1682 64.9439 -10.1819 0.139485 0.851698 0.505128
-18.8037 64.4958 -8.86874 0.178799 0.842925 0.507452
-19.9965 64.1935 -7.89218 0.193645 0.851062 0.488052
-21.295 63.877 -6.811 0.19128 0.855265 0.481595
-21.7726 63.7608 -6.41506 0.186343 0.848205 0.495807
-21.003 63.3424 -5.99873 0.181355 0.840911 0.509882
-19.8174 63.6414 -6.98168 0.193929 0.855271 0.480524
-18.6218 63.9342 -7.98547 0.193646 0.85106 0.488055
-17.5244 64.2356 -8.86798 0.142771 0.854628 0.499227
-16.387 64.5752 -9.77201 0.140535 0.854254 0.5005
-14.9548 65.0209 -10.9113 0.152846 0.850821 0.502734
-13.28 65.4921 -12.2868 0.139826 0.861758 0.48767
-12.2125 65.8337 -13.1209 0.140172 0.83377 0.534022
-11.1384 66.1792 -13.953 0.153307 0.844015 0.513942
-10.0215 66.5073 -14.8273 0.15435 0.843866 0.513874
-8.90528 66.8252 -15.699 0.173405 0.845739 0.504635
-7.77218 67.1156 -16.6049 0.186483 0.843566 0.503607
-6.50091 67.4145 -17.6248 0.229859 0.841998 0.488062
-5.41049 67.6384 -18.5246 0.233815 0.845405 0.48023
-3.579 67.9294 -20.0893 0.285118 0.840606 0.460531
-2.0656 68.0951 -21.4438 0.330939 0.839513 0.430926
-0.780506 68.2045 -22.6212 0.310253 0.862527 0.399739
0.318904 68.2313 -23.6944 0.336391 0.86969 0.361221
1.43403 68.2541 -24.7878 0.347946 0.867324 0.355926
2.45899 68.2166 -25.8437 0.371285 0.873766 0.314134
3.4718 68.1688 -26.9001 0.392511 0.865583 0.31097
4.6128 68.0779 -28.1085 0.373684 0.881224 0.28949
5.70777 67.9672 -29.2777 0.390795 0.878925 0.27344
6.61166 67.8417 -30.2681 0.393861 0.886973 0.241147
7.7461 67.6807 -31.5072 0.390902 0.890503 0.232809
9.21937 67.4612 -33.1176 0.383418 0.89821 0.214964
10.1135 67.3196 -34.0951 0.362452 0.908868 0.206369
11.4043 67.1141 -35.5024 0.366458 0.908994 0.198592
12.8701 66.8862 -37.0853 0.354131 0.91619 0.187582
14.2036 66.666 -38.5274 0.342147 0.920397 0.189221
15.3045 66.5004 -39.7074 0.326144 0.930399 0.167294
16.2694 66.3488 -40.7452 0.325504 0.930502 0.167967
17.6494 66.1355 -42.2271 0.320473 0.932304 0.167649
18.5736 65.9989 -43.2161 0.303084 0.941169 0.149471
19.2252 65.6871 -42.6518 0.311312 0.934493 0.172647
18.162 65.8356 -41.5181 0.316075 0.933982 0.166657
17.1953 65.9782 -40.4841 0.320475 0.932303 0.16765
15.9781 66.1615 -39.1791 0.332171 0.924459 0.187185
14.27 66.401 -37.3584 0.342147 0.920397 0.189221
13.0399 66.6041 -36.0281 0.351087 0.915854 0.194804
11.6784 66.7987 -34.5642 0.35726 0.912273 0.200309
10.7404 66.9421 -33.5442 0.36682 0.904224 0.218683
9.47352 67.1163 -32.1762 0.37074 0.900717 0.226409
8.51364 67.2592 -31.1276 0.376603 0.897071 0.231159
7.06599 67.4475 -29.5593 0.382292 0.892362 0.239882
5.45338 67.6293 -27.8278 0.382266 0.880137 0.281481
4.48204 67.7029 -26.8037 0.374679 0.87989 0.292248
3.53053 67.7521 -25.8183 0.371285 0.873766 0.314134
2.62563 67.7944 -24.8756 0.359443 0.864815 0.350566
1.68259 67.8029 -23.9331 0.336391 0.869689 0.361223
0.602848 67.7809 -22.8744 0.336391 0.86969 0.361221
-0.431085 67.7378 -21.8854 0.310253 0.862527 0.399739
-1.41335 67.6426 -20.9937 0.289271 0.864533 0.41098
-2.41252 67.5454 -20.0873 0.268171 0.866018 0.422016
-3.39115 67.4032 -19.238 0.247336 0.868095 0.43039
-4.44927 67.2537 -18.317 0.261511 0.844931 0.466588
-5.5614 67.027 -17.3987 0.229861 0.841998 0.488061
-6.66983 66.7994 -16.4841 0.209366 0.844203 0.493445
-7.68437 66.5447 -15.6704 0.162937 0.866469 0.471892
-8.95324 66.2175 -14.6538 0.143629 0.857388 0.494223
-10.0891 65.8898 -13.7617 0.140726 0.857871 0.49422
-11.1052 65.6005 -12.9511 0.12543 0.864493 0.486744
-12.1238 65.2762 -12.1577 0.104829 0.866144 0.488677
-13.5312 64.8338 -11.0324 0.112298 0.87044 0.479295
-14.5525 64.5299 -10.2027 0.152846 0.850821 0.502734
-15.7661 64.1578 -9.23389 0.141195 0.853439 0.501704
-16.8071 63.8436 -8.40426 0.144429 0.852805 0.501861
-17.9031 63.5371 -7.51275 0.157659 0.876172 0.455485
-19.6752 63.0865 -6.0361 0.156209 0.874682 0.458835
-20.7175 62.7917 -5.18394 0.13327 0.87307 0.469029
-21.4508 62.5826 -4.58642 0.15741 0.857529 0.489761
-20.6597 62.227 -4.14918 0.131425 0.869947 0.47531
-19.6207 62.5232 -4.99574 0.13327 0.87307 0.469029
-18.5551 62.808 -5.88663 0.156209 0.874682 0.458835
-17.5627 63.0603 -6.71356 0.15766 0.876173 0.455483
-16.3545 63.3697 -7.72926 0.151438 0.864813 0.478712
-15.134 63.7397 -8.70336 0.10341 0.867879 0.485893
-13.882 64.1567 -9.69106 0.0981866 0.884681 0.455741
-12.7753 64.4912 -10.5872 0.112298 0.87044 0.479295
-11.6005 64.8595 -11.5313 0.108564 0.86831 0.483996
-10.0959 65.3042 -12.7278 0.145982 0.862468 0.484601
-9.05698 65.6008 -13.5539 0.143632 0.857385 0.494228
-7.8983 65.9331 -14.4735 0.154749 0.861777 0.483108
-6.64981 66.2446 -15.4766 0.177111 0.864391 0.470595
-5.39204 66.5214 -16.5156 0.198128 0.868267 0.454816
-4.28366 66.7479 -17.4308 0.221086 0.865755 0.448988
-3.16382 66.921 -18.3961 0.247336 0.868094 0.430392
-2.13808 67.0701 -19.2862 0.268171 0.866018 0.422016
-1.08232 67.1741 -20.2411 0.28907 0.864017 0.412206
-0.0816631 67.2711 -21.1495 0.310251 0.862527 0.39974
0.93992 67.3172 -22.1227 0.331057 0.860026 0.388274
2.00192 67.3532 -23.1478 0.347947 0.867325 0.355921
3.60341 67.3369 -24.7496 0.365434 0.869459 0.332415
4.57808 67.2928 -25.7544 0.363141 0.876331 0.3165
5.65256 67.2295 -26.8701 0.365744 0.883523 0.292604
6.99117 67.1049 -28.2894 0.380879 0.8863 0.263444
8.12173 66.9847 -29.4948 0.376963 0.892423 0.247952
9.24825 66.8436 -30.7113 0.376603 0.897071 0.231159
10.3965 66.6906 -31.9512 0.361558 0.904201 0.227371
11.3757 66.555 -33.0089 0.366822 0.904224 0.21868
13.0301 66.3324 -34.7822 0.353127 0.910592 0.214764
14.3364 66.136 -36.1893 0.342149 0.920397 0.189216
15.3871 65.9914 -37.3067 0.330112 0.924452 0.190824
16.6946 65.8073 -38.7011 0.332172 0.924458 0.187188
18.3024 65.5901 -40.4113 0.322143 0.928299 0.185701
19.7298 65.3866 -41.9351 0.306075 0.936338 0.172013
20.7013 65.2632 -42.9648 0.302453 0.938079 0.16891
21.4236 64.9421 -42.4748 0.302451 0.938079 0.168913
20.3157 65.0828 -41.3005 0.303907 0.935758 0.178879
18.9565 65.2531 -39.8613 0.322141 0.928299 0.185704
17.9631 65.3866 -38.805 0.322429 0.928268 0.18536
16.8527 65.5365 -37.6243 0.324103 0.925915 0.194008
15.7706 65.6806 -36.4761 0.335122 0.92145 0.196527
14.8071 65.8125 -35.4517 0.333604 0.919936 0.205977
13.7093 65.9516 -34.2846 0.353125 0.910593 0.214764
12.7795 66.0776 -33.2899 0.352283 0.910663 0.215845
11.7227 66.2156 -32.157 0.353008 0.908875 0.222109
10.3981 66.3825 -30.7346 0.363057 0.903032 0.229612
9.37902 66.4989 -29.646 0.358914 0.900725 0.244693
8.13027 66.6372 -28.3114 0.367666 0.890704 0.267333
6.98719 66.7521 -27.097 0.373364 0.885031 0.278064
5.62737 66.8465 -25.6813 0.357691 0.885142 0.297624
4.63167 66.89 -24.6597 0.348313 0.883937 0.311983
3.63602 66.9059 -23.6621 0.332581 0.88391 0.328774
2.60986 66.9118 -22.6401 0.331481 0.881065 0.337409
1.33553 66.8548 -21.4287 0.296414 0.882141 0.366013
0.267758 66.8044 -20.4137 0.310251 0.862527 0.39974
-0.787732 66.7007 -19.4583 0.288866 0.863499 0.413431
-1.86364 66.5947 -18.4851 0.268169 0.866016 0.422021
-2.94903 66.4304 -17.5474 0.243916 0.862749 0.442909
-4.11417 66.2457 -16.546 0.221084 0.865753 0.448992
-5.29074 65.9963 -15.5743 0.19125 0.862135 0.469199
-6.6381 65.6893 -14.461 0.177114 0.864393 0.470591
-7.86193 65.3567 -13.4849 0.146533 0.856894 0.494227
-8.88051 65.0834 -12.6613 0.123358 0.882274 0.454285
-9.89589 64.7919 -11.8469 0.115253 0.880891 0.459074
-10.9089 64.5044 -11.0306 0.104446 0.890668 0.442495
-11.9112 64.2022 -10.2182 0.100368 0.886446 0.451817
-13.0058 63.8737 -9.33055 0.0981867 0.884681 0.455741
-14.0647 63.5421 -8.47918 0.0647576 0.881398 0.467914
-15.315 63.1148 -7.50116 0.0646875 0.881312 0.468086
-16.4364 62.7871 -6.57462 0.137725 0.885024 0.444708
-17.4349 62.5296 -5.73717 0.156212 0.874682 0.458834
-18.5035 62.246 -4.84146 0.155432 0.873203 0.461906
-19.5629 61.9584 -3.96098 0.131427 0.869946 0.475311
-20.6759 61.618 -3.04872 0.129577 0.866777 0.481568
-20.8733 60.9651 -1.78918 0.0887405 0.89318 0.440856
-19.8964 61.2681 -2.59473 0.097864 0.883671 0.457764
-18.9158 61.5747 -3.39606 0.114261 0.885019 0.451315
-17.4021 61.9835 -4.66745 0.131764 0.887974 0.440614
-16.1428 62.332 -5.72376 0.123272 0.911913 0.391432
-14.9164 62.6826 -6.74292 0.0646189 0.881228 0.468253
-13.7329 63.0924 -7.67803 0.0803876 0.882263 0.463842
-12.1296 63.5907 -8.97004 0.0981867 0.884681 0.455741
-10.7201 64.0192 -10.1111 0.0921885 0.888376 0.449765
-9.54802 64.3459 -11.0705 0.116683 0.892772 0.435135
-8.41116 64.6697 -11.9853 0.123356 0.882274 0.454286
-6.91813 65.0642 -13.1974 0.129393 0.884231 0.448768
-5.31257 65.4402 -14.5253 0.158022 0.89126 0.42507
-4.0051 65.7312 -15.6113 0.194697 0.865232 0.462024
-2.77483 65.9318 -16.6645 0.210493 0.88519 0.414888
-1.60002 66.1237 -17.67 0.233111 0.882894 0.407624
-0.484167 66.2435 -18.6724 0.25808 0.883615 0.390666
0.606412 66.3586 -19.6533 0.276982 0.881904 0.381478
1.67347 66.4187 -20.6513 0.296414 0.882141 0.366013
2.70583 66.4756 -21.6246 0.313443 0.880316 0.356086
3.74041 66.485 -22.6361 0.331477 0.881065 0.337412
4.75073 66.4739 -23.6454 0.346903 0.881302 0.320883
5.71617 66.4482 -24.6187 0.348313 0.883937 0.311983
6.76122 66.3837 -25.7006 0.365657 0.883701 0.292177
7.92373 66.3063 -26.9042 0.357015 0.894731 0.26832
9.25804 66.1805 -28.3142 0.359146 0.897392 0.256325
10.318 66.0687 -29.4397 0.359488 0.900624 0.244221
11.3079 65.9561 -30.4962 0.357634 0.905072 0.230091
12.4228 65.8239 -31.6864 0.354563 0.906986 0.227291
13.4108 65.7032 -32.741 0.342845 0.912187 0.224436
14.9462 65.5095 -34.3729 0.34007 0.916581 0.210311
14.9699 65.5065 -34.3981 0.336068 0.917468 0.212862
12.9342 65.4592 -31.0121 0.343269 0.91053 0.230436
11.9811 65.564 -29.9999 0.354437 0.904801 0.23603
10.4879 65.7161 -28.4213 0.355413 0.899363 0.254614
9.13601 65.8489 -26.9921 0.357012 0.894733 0.268319
8.04247 65.932 -25.8579 0.352521 0.892532 0.281274
6.79032 66.009 -24.5639 0.346897 0.891021 0.292821
5.63727 66.0417 -23.4012 0.329928 0.891821 0.309519
3.97 66.0499 -21.7512 0.330347 0.878146 0.346021
2.41197 66.0047 -20.2516 0.296089 0.880978 0.369065
1.08294 65.9287 -19.0157 0.295758 0.879805 0.372117
-0.149542 65.8055 -17.9029 0.25808 0.883615 0.390666
-1.37063 65.6663 -16.8106 0.233111 0.882894 0.407624
-2.54544 65.4744 -15.8051 0.210493 0.88519 0.414888
-4.04622 65.2085 -14.5153 0.181573 0.885792 0.427087
-5.20937 64.9546 -13.5453 0.157031 0.889818 0.428445
-6.98389 64.5113 -12.0869 0.127337 0.88488 0.448076
-8.07579 64.2176 -11.2018 0.115974 0.886912 0.447144
-9.33723 63.8772 -10.1652 0.116683 0.892772 0.435137
-10.6993 63.4827 -9.05563 0.0921873 0.888375 0.449767
-12.0673 63.0656 -7.94617 0.0758365 0.892125 0.445378
-13.2339 62.6974 -7.01003 0.0760677 0.900865 0.427383
-14.2752 62.3626 -6.16085 0.0374185 0.9078 0.417731
-15.3976 62.0217 -5.2357 0.123272 0.911914 0.39143
-16.4888 61.7041 -4.32504 0.0881357 0.890837 0.445692
-17.8239 61.3201 -3.20963 0.130623 0.886091 0.444724
-19.4624 60.8341 -1.84971 0.0997977 0.889077 0.446747
-20.5029 60.5207 -0.963388 0.0887405 0.89318 0.440856
-20.7677 60.4327 -0.742306 0.0757432 0.89184 0.445964
-20.1326 60.0763 -0.137596 0.0887412 0.893179 0.440858
-19.1688 60.3666 -0.958503 0.101719 0.894345 0.435662
-18.2041 60.6578 -1.77831 0.11426 0.88502 0.451313
-17.1731 60.9701 -2.63945 0.0572058 0.912634 0.404755
-15.9344 61.3416 -3.67405 0.0649697 0.914682 0.398919
-14.882 61.6579 -4.5503 0.105765 0.901897 0.418803
-13.8668 61.9797 -5.38259 0.0535407 0.904177 0.42379
-12.3692 62.4459 -6.61232 0.0762685 0.909245 0.409216
-11.1189 62.8265 -7.62877 0.0834193 0.893381 0.441487
-9.85004 63.2044 -8.66527 0.0793281 0.898212 0.432345
-8.64019 63.5476 -9.65741 0.101512 0.899424 0.425126
-7.17634 63.9449 -10.8606 0.112913 0.900808 0.419279
-5.98448 64.2431 -11.8411 0.121504 0.89384 0.43161
-4.93888 64.4981 -12.704 0.156046 0.888362 0.431814
-3.61564 64.7832 -13.8163 0.181573 0.885792 0.427087
-2.56235 64.9793 -14.7183 0.211732 0.889103 0.40579
-1.14125 65.209 -15.9512 0.233112 0.882892 0.407628
0.112454 65.3541 -17.0713 0.2556 0.880091 0.400136
1.27566 65.4826 -18.1141 0.276981 0.881906 0.381475
2.36928 65.5451 -19.1311 0.295759 0.879805 0.372115
3.48499 65.6124 -20.1655 0.288111 0.893305 0.34496
4.9625 65.6398 -21.5952 0.306063 0.89167 0.333542
5.99627 65.6355 -22.6157 0.32979 0.889934 0.315049
7.05706 65.6067 -23.6841 0.345369 0.888678 0.301615
8.45813 65.5352 -25.1196 0.352521 0.892532 0.281274
9.40867 65.4629 -26.1054 0.356631 0.891756 0.278543
10.3483 65.3916 -27.0799 0.357012 0.894733 0.268319
11.2885 65.305 -28.0657 0.349876 0.901526 0.254633
11.5394 65.2819 -28.3288 0.349876 0.901526 0.254633
10.704 65.015 -26.2673 0.339644 0.901391 0.268582
9.78642 65.0774 -25.3213 0.338691 0.901604 0.269069
8.83865 65.1398 -24.3455 0.331849 0.896688 0.292962
7.89554 65.1819 -23.3845 0.338286 0.894341 0.292773
6.77179 65.2188 -22.2505 0.326716 0.891358 0.314225
5.81943 65.2352 -21.3 0.317963 0.890903 0.324332
4.70782 65.2157 -20.226 0.305945 0.892432 0.331606
3.36984 65.1654 -18.9631 0.270131 0.893734 0.358145
1.75398 65.0572 -17.4744 0.270037 0.896659 0.35083
0.543992 64.9304 -16.3828 0.228994 0.901883 0.366292
-0.598639 64.8038 -15.3566 0.22371 0.89856 0.377549
-1.77356 64.6204 -14.3261 0.19642 0.898392 0.392824
-3.11754 64.3861 -13.1605 0.174936 0.899273 0.40088
-4.42867 64.109 -12.0532 0.142425 0.894958 0.422807
-5.54343 63.8561 -11.1224 0.130127 0.900462 0.415013
-6.66663 63.5702 -10.1978 0.110193 0.899135 0.423574
-7.95703 63.2238 -9.13557 0.101964 0.903611 0.416041
-8.94436 62.9658 -8.31158 0.102409 0.907707 0.406915
-10.4262 62.5096 -7.10697 0.0661341 0.908402 0.412835
-11.5252 62.1884 -6.19747 0.0762672 0.909244 0.409216
-13.2626 61.656 -4.76835 0.0535408 0.904176 0.423791
-14.245 61.3601 -3.95025 0.0441349 0.91995 0.389544
-15.2647 61.044 -3.1007 0.0649703 0.914681 0.39892
-16.8316 60.5729 -1.79224 0.057018 0.915283 0.398755
-18.2018 60.1475 -0.630979 0.0415248 0.914611 0.402196
-19.6488 59.6748 0.593474 0.0417033 0.913703 0.404238
-19.7943 59.6245 0.715138 0.0186842 0.904156 0.426793
-19.7509 59.1043 1.81528 0.018686 0.904155 0.426796
-18.3475 59.5929 0.643386 0.0418851 0.912789 0.406278
-17.1842 59.9734 -0.340119 0.0491783 0.916291 0.397482
-15.5685 60.4598 -1.71056 0.0429511 0.921352 0.38635
-14.5468 60.7794 -2.56357 0.0394889 0.918583 0.39325
-13.4857 61.1093 -3.44728 0.0487823 0.921281 0.385825
-11.9244 61.573 -4.75191 0.0435988 0.922143 0.384385
-10.2971 62.0606 -6.1007 0.058857 0.913617 0.402293
-8.86079 62.4779 -7.28783 0.0661342 0.908402 0.412835
-7.83751 62.7635 -8.13384 0.0904618 0.910923 0.402537
-6.68325 63.0686 -9.09395 0.0958138 0.912595 0.397479
-5.63737 63.3368 -9.96168 0.10476 0.911046 0.398773
-4.54908 63.5809 -10.8732 0.1446 0.898275 0.414962
-3.26032 63.8738 -11.949 0.158712 0.89729 0.411925
-1.74566 64.1449 -13.2625 0.192542 0.895186 0.401956
-0.559475 64.3358 -14.3011 0.218392 0.895086 0.388749
1.41658 64.5806 -16.067 0.237566 0.899639 0.36635
3.11408 64.7089 -17.6312 0.270037 0.896659 0.35083
4.43284 64.7972 -18.8462 0.288107 0.893306 0.344963
6.1094 64.8215 -20.4583 0.303408 0.893549 0.330928
7.11484 64.8131 -21.4491 0.323639 0.892771 0.313397
8.7129 64.7657 -23.0577 0.338284 0.894343 0.292771
9.98127 64.7101 -24.344 0.339463 0.899741 0.274283
10.2245 64.6946 -24.5941 0.339466 0.89974 0.274282
9.40846 64.3635 -22.5974 0.325392 0.898993 0.293141
8.48725 64.3933 -21.6704 0.32268 0.894217 0.310249
7.2569 64.4162 -20.4485 0.321724 0.895647 0.307099
5.88753 64.4048 -19.1273 0.300869 0.894658 0.330249
4.90676 64.3897 -18.1865 0.288107 0.893306 0.344963
3.83238 64.3244 -17.1887 0.269924 0.89953 0.343493
2.81128 64.2667 -16.2352 0.258059 0.898549 0.354985
1.28781 64.1198 -14.8518 0.237566 0.899639 0.36635
0.322929 63.9891 -13.9925 0.199826 0.910499 0.362024
-0.70827 63.8486 -13.0723 0.183048 0.911021 0.369504
-1.79496 63.6601 -12.1251 0.167555 0.912261 0.373773
-3.10308 63.4241 -10.9934 0.133512 0.912646 0.386331
-4.5192 63.118 -9.80311 0.126313 0.914101 0.38531
-5.66993 62.8461 -8.83687 0.113697 0.909418 0.400039
-7.13081 62.4664 -7.62012 0.0881666 0.915662 0.392161
-8.70541 62.0386 -6.3043 0.0637559 0.915079 0.398204
-10.1828 61.6046 -5.08179 0.056535 0.920646 0.386283
-11.27 61.3019 -4.1641 0.0463095 0.925234 0.376561
-12.4759 60.9328 -3.15372 0.043601 0.922144 0.384383
-13.6249 60.5822 -2.19541 0.0376944 0.922527 0.384087
-14.8797 60.2039 -1.14055 0.0324803 0.925488 0.377381
-16.6137 59.6546 0.329139 0.0287377 0.922219 0.385599
-17.885 59.2349 1.39993 0.0418861 0.91279 0.406277
-18.9305 58.8702 2.27262 0.0201476 0.904151 0.426737
-19.6188 58.6169 2.84526 0.0184037 0.905557 0.423825
-19.3521 58.1792 3.76882 0.0184016 0.905559 0.423822
-18.061 58.6542 2.6921 0.0055122 0.910135 0.414275
-16.9598 59.0412 1.76854 0.0197247 0.917849 0.396438
-15.3102 59.5935 0.378129 0.0287377 0.922219 0.385599
-14.3119 59.9098 -0.467969 0.0324803 0.925489 0.377381
-12.9644 60.316 -1.6008 0.0299885 0.927138 0.373518
-11.8051 60.6667 -2.57961 0.0357576 0.927218 0.372811
-10.6738 61.0129 -3.52756 0.0463112 0.925233 0.376563
-9.64309 61.2999 -4.39752 0.0518438 0.927799 0.369462
-8.49344 61.6174 -5.37018 0.0602254 0.922732 0.380708
-7.43587 61.9255 -6.24765 0.0748199 0.917767 0.390008
-6.36888 62.198 -7.14452 0.0865868 0.920116 0.381955
-5.18476 62.4818 -8.14662 0.108428 0.916813 0.384315
-4.1346 62.7382 -9.02806 0.120012 0.911805 0.392694
-3.09292 62.9603 -9.90604 0.140704 0.911142 0.387328
-1.82672 63.2077 -10.9877 0.168187 0.916319 0.363419
-0.488745 63.4323 -12.1545 0.183048 0.911023 0.369501
1.15959 63.6596 -13.6257 0.213388 0.907326 0.362251
2.31301 63.7789 -14.6747 0.238215 0.906714 0.348029
3.36998 63.873 -15.6434 0.245708 0.904929 0.347465
4.50935 63.9412 -16.7043 0.257931 0.906341 0.334689
5.52686 63.9935 -17.6571 0.28736 0.902905 0.319668
6.49926 64.002 -18.5933 0.300869 0.894658 0.330249
7.5473 64.0194 -19.5954 0.311333 0.895262 0.318713
8.41816 64.0038 -20.4594 0.3082 0.9009 0.305601
7.23257 63.6136 -18.1652 0.293618 0.904459 0.309423
6.28636 63.6083 -17.2518 0.28736 0.902905 0.319668
5.32028 63.5746 -16.3366 0.269517 0.903845 0.332301
4.33115 63.516 -15.4155 0.255564 0.904736 0.340793
3.35229 63.4417 -14.5077 0.245708 0.904929 0.347465
2.25144 63.3362 -13.5025 0.226903 0.903977 0.36241
1.15249 63.2176 -12.5051 0.208397 0.91241 0.352247
-0.0273004 63.0531 -11.4516 0.190281 0.912287 0.362666
-1.07527 62.8896 -10.5332 0.168187 0.916318 0.36342
-2.15469 62.6878 -9.60598 0.140705 0.911141 0.387329
-3.45323 62.4262 -8.50023 0.124441 0.922647 0.365016
-5.13025 62.048 -7.07412 0.103124 0.923905 0.368463
-6.74135 61.6399 -5.71593 0.0844056 0.925831 0.368393
-8.27275 61.2334 -4.42104 0.0566697 0.930036 0.363071
-9.28128 60.9506 -3.56673 0.0494918 0.928203 0.368769
-10.8905 60.4872 -2.20206 0.0330939 0.931339 0.362648
-12.7519 59.9214 -0.630775 0.0240797 0.927865 0.372137
-13.7441 59.6156 0.204613 0.0324803 0.925489 0.377381
-15.0131 59.2016 1.2777 0.0284103 0.919818 0.391315
-16.1185 58.8325 2.20977 0.0191292 0.920508 0.390255
-17.149 58.4893 3.0845 0.00481567 0.918852 0.394574
-18.547 57.9605 4.24753 -0.0087251 0.915265 0.402758
-18.9366 57.813 4.57675 -0.0185253 0.913264 0.406947
-18.572 57.4351 5.4341 -0.0285047 0.910152 0.413292
-17.4482 57.8662 4.48678 -0.00854318 0.916239 0.400541
-16.0669 58.3666 3.32712 0.0185368 0.923126 0.384051
-14.9575 58.7484 2.38583 0.000562904 0.927377 0.374129
-13.9693 59.0746 1.55099 0.00401198 0.929818 0.367998
-12.0933 59.6672 -0.0366915 0.0170549 0.934557 0.355404
-11.0246 59.9996 -0.93743 0.0285894 0.929623 0.367401
-9.65642 60.4007 -2.10101 0.0376703 0.930861 0.363427
-8.65629 60.6806 -2.95523 0.0460773 0.933721 0.355023
-7.11224 61.099 -4.26823 0.0656933 0.92825 0.366109
-6.04153 61.3741 -5.17862 0.081481 0.93149 0.354524
-4.96951 61.6288 -6.0941 0.0844057 0.925831 0.368393
-3.73639 61.9135 -7.14245 0.1168 0.920841 0.372033
-2.49123 62.1759 -8.20873 0.132066 0.924352 0.357956
-1.06006 62.4477 -9.43862 0.136405 0.917874 0.372693
-0.0862242 62.5986 -10.293 0.187929 0.911062 0.366945
1.45466 62.8216 -11.6581 0.208397 0.91241 0.352247
3.20202 62.9969 -13.2514 0.225513 0.907561 0.354228
4.25733 63.0805 -14.2278 0.253185 0.903089 0.346884
5.25413 63.1561 -15.1522 0.255564 0.904736 0.340793
6.49141 63.2038 -16.3213 0.281063 0.901217 0.329866
7.04587 63.2231 -16.8465 0.287362 0.902904 0.319668
6.52811 62.8034 -15.2215 0.269797 0.910999 0.311913
5.54094 62.7614 -14.2904 0.250431 0.909844 0.330859
4.48037 62.6823 -13.306 0.240636 0.911876 0.332531
3.11495 62.5675 -12.0478 0.213485 0.915507 0.340986
2.09052 62.4591 -11.1154 0.2188 0.913307 0.343507
0.66178 62.2738 -9.84162 0.176441 0.924219 0.338656
-0.3746 62.135 -8.92308 0.163923 0.922277 0.350049
-2.22152 61.7941 -7.3223 0.12444 0.922648 0.365014
-3.26144 61.5667 -6.43298 0.114332 0.926832 0.357645
-4.8222 61.2305 -5.08547 0.0911746 0.929216 0.358114
-6.37145 60.8481 -3.76495 0.0637999 0.932707 0.354947
-7.35755 60.603 -2.91913 0.0538363 0.935443 0.349355
-8.73533 60.2217 -1.73812 0.041877 0.932308 0.359231
-10.2429 59.7847 -0.448955 0.0310495 0.9351 0.35302
-11.2546 59.4829 0.407743 0.0170557 0.934557 0.355403
-12.2255 59.1889 1.22734 0.0128666 0.93228 0.36151
-13.3701 58.8139 2.20315 0.00634325 0.929885 0.367795
-14.4524 58.4487 3.1187 -0.00288768 0.924885 0.380236
-15.912 57.9352 4.35676 0.00782505 0.924061 0.382166
-16.9036 57.562 5.19419 -0.00854318 0.916239 0.400541
-18.1022 57.1003 6.20383 -0.0300219 0.913667 0.405354
-18.5919 56.9044 6.61702 -0.0315369 0.91711 0.397384
-18.6675 56.3631 7.86024 -0.0381733 0.914378 0.403058
-17.0338 57.0287 6.47435 -0.037896 0.921171 0.38731
-16.0615 57.3996 5.65313 -0.0331857 0.924979 0.378566
-15.085 57.7694 4.82332 -0.0217667 0.929981 0.366962
-13.26 58.3927 3.26931 -0.0102485 0.934806 0.35501
-11.9794 58.8114 2.17661 0.00867659 0.929947 0.367591
-10.6103 59.2397 1.01626 0.0235336 0.934484 0.355227
-9.52883 59.5547 0.095876 0.030011 0.934369 0.35504
-8.45099 59.8649 -0.826646 0.0345964 0.935767 0.350918
-7.48044 60.1329 -1.66608 0.0435975 0.938341 0.34295
-6.0794 60.5 -2.86855 0.0618953 0.937026 0.343731
-4.70909 60.8201 -4.04922 0.0893957 0.933642 0.346872
-3.53742 61.0917 -5.0524 0.101514 0.930982 0.350668
-1.65201 61.4692 -6.69263 0.117096 0.931027 0.345654
0.000714616 61.7652 -8.13866 0.151357 0.920067 0.361341
1.25424 61.9428 -9.24711 0.176441 0.924219 0.338656
2.2825 62.0682 -10.1628 0.205 0.919624 0.335063
3.4234 62.1812 -11.2038 0.213485 0.915507 0.340984
4.43947 62.2774 -12.1343 0.242611 0.914713 0.323171
5.40883 62.3393 -13.0374 0.241629 0.913305 0.327855
6.18157 62.385 -13.7588 0.260199 0.907719 0.329154
5.63823 61.9545 -12.117 0.24036 0.915657 0.322178
4.60511 61.8873 -11.1545 0.228082 0.915244 0.332126
3.00708 61.734 -9.69469 0.212309 0.920374 0.328384
1.83999 61.6008 -8.65023 0.197671 0.918782 0.341709
0.810312 61.4732 -7.73407 0.163922 0.922278 0.350048
-0.481208 61.2535 -6.58869 0.144075 0.932931 0.329972
-1.48364 61.075 -5.69929 0.12235 0.929428 0.348131
-2.90981 60.7977 -4.4579 0.117095 0.931028 0.345654
-3.89139 60.5859 -3.6082 0.0876038 0.93793 0.335579
-5.04184 60.3297 -2.61389 0.0688716 0.935449 0.346687
-6.40678 59.9979 -1.4376 0.0579288 0.937768 0.342395
-7.7324 59.6348 -0.289082 0.0389469 0.934982 0.352551
-9.50324 59.1242 1.22664 0.030011 0.934369 0.35504
-10.5847 58.8092 2.14702 0.0235336 0.934484 0.355227
-12.3252 58.2572 3.63789 -0.000195534 0.93799 0.346661
-13.8145 57.7571 4.91285 -0.0160259 0.934373 0.355935
-15.1686 57.2594 6.0662 -0.0275048 0.925429 0.377923
-16.1437 56.8892 6.89314 -0.0378979 0.921171 0.387307
-17.9785 56.1284 8.45783 -0.0503606 0.9221 0.383661
-18.052 56.0977 8.52081 -0.0596788 0.918998 0.389719
-18.4401 55.4339 10.0432 -0.0720663 0.920862 0.383169
-17.1249 55.9999 8.91227 -0.0607185 0.924554 0.376183
-15.5206 56.6496 7.54149 -0.0551558 0.92691 0.371209
-14.274 57.1187 6.47589 -0.0275048 0.925429 0.377923
-13.2959 57.488 5.64269 -0.0217661 0.929982 0.366961
-12.1812 57.8611 4.68694 -0.00446793 0.935207 0.354074
-10.8721 58.2905 3.56173 -0.0132281 0.939881 0.341245
-9.46238 58.7167 2.34545 0.0171902 0.94182 0.335677
-8.37861 59.0324 1.4231 0.0164007 0.939925 0.340987
-7.38883 59.3018 0.569223 0.0393032 0.942165 0.332836
-6.14731 59.6417 -0.505845 0.0579288 0.937768 0.342395
-4.43082 60.0547 -1.993 0.0686875 0.936772 0.343132
-3.4156 60.2732 -2.87377 0.101619 0.934163 0.342072
-1.9257 60.5689 -4.17239 0.119584 0.935944 0.331221
-0.712599 60.7979 -5.23053 0.131631 0.93011 0.342884
0.278288 60.9658 -6.11846 0.151362 0.92947 0.336416
1.55424 61.1593 -7.26845 0.186713 0.928145 0.322003
3.44706 61.3727 -8.96656 0.205 0.919624 0.335063
4.61096 61.4806 -10.0302 0.219525 0.91794 0.330445
5.0836 61.5231 -10.4621 0.229784 0.91798 0.323283
4.79021 61.0899 -9.06401 0.219524 0.917941 0.330445
3.5588 60.9827 -7.93326 0.194797 0.926923 0.320731
2.438 60.8613 -6.92181 0.186713 0.928144 0.322004
1.47234 60.7463 -6.04049 0.166858 0.929115 0.330006
0.433104 60.5738 -5.10786 0.146971 0.929976 0.336962
-0.930888 60.3438 -3.89561 0.125746 0.934203 0.333844
-2.04864 60.1407 -2.91806 0.110609 0.935105 0.336666
-3.05999 59.9315 -2.03727 0.0992078 0.941205 0.322941
-4.33039 59.6624 -0.927775 0.0676905 0.938342 0.339017
-5.59258 59.3575 0.168058 0.0677956 0.942662 0.326792
-6.8121 59.045 1.22818 0.0393032 0.942165 0.332836
-8.28176 58.642 2.49432 0.0171924 0.94182 0.335677
-9.69966 58.239 3.72276 0.017979 0.943685 0.330355
-10.8682 57.8652 4.72804 -0.0162766 0.937901 0.346522
-12.0259 57.4766 5.72547 -0.018289 0.940799 0.338472
-13.4611 56.9671 6.95926 -0.0404597 0.934207 0.35443
-14.4767 56.5941 7.8265 -0.0404612 0.934207 0.35443
-15.4852 56.1897 8.69512 -0.0551559 0.926909 0.371211
-16.5803 55.7395 9.63309 -0.063328 0.92235 0.38113
-17.754 55.238 10.643 -0.0726043 0.91915 0.387158
-18.1312 55.0695 10.9677 -0.0731403 0.91742 0.39114
-17.6866 54.7677 11.7768 -0.0911259 0.920281 0.380498
-16.4505 55.3116 10.7126 -0.0728369 0.927805 0.365887
-15.4673 55.723 9.86499 -0.0736899 0.927769 0.365806
-14.517 56.1041 9.04524 -0.0522062 0.927088 0.371191
-13.3166 56.5733 8.01395 -0.0452342 0.934423 0.353281
-11.9622 57.0835 6.85204 -0.0351575 0.939288 0.341323
-10.8165 57.456 5.85863 -0.0202985 0.943623 0.330398
-9.79374 57.7929 4.97417 -0.0147518 0.938896 0.343884
-8.51904 58.1644 3.87163 0.017979 0.943685 0.330355
-7.38302 58.4938 2.88615 0.0190875 0.949655 0.312717
-6.40948 58.7463 2.03622 0.0350233 0.943206 0.330358
-5.42925 59.008 1.18501 0.0514638 0.945173 0.322489
-4.4347 59.2256 0.315415 0.0678856 0.946823 0.314512
-3.44924 59.4592 -0.541343 0.0834625 0.939921 0.331033
-2.02433 59.7374 -1.78986 0.102083 0.940429 0.324304
-0.689907 59.9746 -2.96676 0.131904 0.932418 0.336448
0.365862 60.1576 -3.8988 0.145971 0.933298 0.328098
1.68339 60.367 -5.08051 0.150475 0.932006 0.329729
3.27622 60.5584 -6.5338 0.191264 0.929331 0.315853
4.60981 60.6901 -7.75104 0.201752 0.925064 0.321795
4.72869 60.7008 -7.86006 0.213429 0.926498 0.309919
4.54966 60.2888 -6.55328 0.201389 0.928592 0.311705
2.86129 60.1129 -5.0042 0.181411 0.930409 0.318479
1.40357 59.9156 -3.68177 0.154977 0.930691 0.331357
-0.206149 59.6597 -2.24478 0.126926 0.941881 0.311045
-1.26842 59.4838 -1.3017 0.104958 0.939641 0.325665
-2.85795 59.1774 0.0945632 0.103651 0.943024 0.316168
-4.01854 58.9314 1.11131 0.0678856 0.946823 0.314512
-5.0131 58.7138 1.9809 0.051465 0.945173 0.322491
-5.98763 58.4599 2.83102 0.0351362 0.951811 0.304667
-6.94913 58.2241 3.67863 0.0190875 0.949655 0.312717
-8.06299 57.9005 4.64502 0.0030351 0.947187 0.320666
-9.09765 57.6073 5.54742 -0.0149997 0.949152 0.314462
-10.2452 57.2279 6.54513 -0.0202985 0.943623 0.330398
-11.3909 56.8554 7.53854 -0.0351577 0.939289 0.341321
-12.555 56.4169 8.53723 -0.0499134 0.935244 0.350467
-13.6552 55.996 9.49009 -0.0664044 0.933967 0.351134
-15.4443 55.2624 11.0381 -0.0745433 0.927733 0.365725
-17.0662 54.5568 12.4356 -0.0910067 0.922175 0.375914
-18.1077 54.088 13.3472 -0.0988633 0.922298 0.373622
-17.7704 53.7527 14.2641 -0.0988658 0.922298 0.373619
-16.7345 54.219 13.3573 -0.0908826 0.924046 0.371322
-15.7671 54.6544 12.5105 -0.0910067 0.922175 0.375914
-14.6716 55.1186 11.5606 -0.0745433 0.927733 0.365725
-13.6067 55.5683 10.6367 -0.0704766 0.930887 0.358444
-12.589 55.9608 9.75608 -0.0498213 0.935869 0.348808
-11.2819 56.4532 8.62162 -0.049911 0.935245 0.350466
-10.1403 56.8482 7.63606 -0.0261183 0.944022 0.328846
-8.97766 57.2387 6.62252 -0.0319378 0.944387 0.327283
-7.566 57.655 5.38652 0.00194582 0.953466 0.301493
-6.51525 57.9544 4.47112 0.0190888 0.949655 0.312716
-5.55375 58.1903 3.6235 0.0351362 0.951811 0.304667
-4.37943 58.4648 2.58453 0.0775859 0.949104 0.305259
-3.0247 58.7571 1.39656 0.0763362 0.94451 0.31949
-1.90958 58.9708 0.415587 0.102333 0.946309 0.306637
-0.560189 59.221 -0.771648 0.115953 0.940844 0.318384
0.504932 59.3866 -1.72157 0.145179 0.937399 0.316554
1.62432 59.5494 -2.7279 0.150265 0.938284 0.311518
3.19729 59.759 -4.15731 0.181702 0.930862 0.316987
3.96458 59.8477 -4.8607 0.199454 0.929595 0.309954
4.13082 59.4766 -3.85749 0.180176 0.931566 0.315787
2.64212 59.3036 -2.49104 0.181035 0.932094 0.313732
1.1883 59.0977 -1.17934 0.145179 0.937399 0.316554
-0.0229572 58.9268 -0.0936907 0.126515 0.944327 0.303711
-1.1441 58.7318 0.897801 0.102333 0.946309 0.306637
-2.19861 58.5447 1.8272 0.0893442 0.945509 0.313097
-3.19599 58.3308 2.70281 0.0788171 0.953484 0.290956
-4.22779 58.1342 3.62665 0.0788158 0.953484 0.290956
-5.19161 57.9012 4.47777 0.0380599 0.951173 0.306301
-6.46404 57.5844 5.60262 0.00189835 0.953472 0.301476
-7.94862 57.1756 6.90516 -0.0149994 0.949151 0.314464
-9.0979 56.7895 7.90705 -0.0319366 0.944386 0.327283
-10.142 56.4423 8.82098 -0.0416746 0.947584 0.316776
-11.4474 55.9574 9.95607 -0.0732537 0.942687 0.325538
-12.7428 55.4685 11.0803 -0.0771522 0.939995 0.332349
-13.7927 55.0359 11.9963 -0.0927324 0.936206 0.338997
-14.8518 54.5972 12.9181 -0.0963306 0.933315 0.345895
-15.8955 54.1312 13.8359 -0.11203 0.928454 0.354151
-17.0485 53.6072 14.845 -0.113533 0.926555 0.358616
-17.5133 53.3886 15.2544 -0.121406 0.923505 0.363867
-17.3149 53.0033 16.2986 -0.121406 0.923505 0.363867
-16.3287 53.4671 15.4298 -0.115031 0.924633 0.363072
-15.3268 53.927 14.5513 -0.105976 0.929424 0.353469
-14.2335 54.41 13.587 -0.0999204 0.930359 0.352771
-12.9566 54.9462 12.4727 -0.0868899 0.936738 0.339075
-11.8892 55.3784 11.5333 -0.0771522 0.939995 0.332349
-10.5937 55.8674 10.4091 -0.0732537 0.942687 0.325538
-9.2593 56.3403 9.24217 -0.0416746 0.947584 0.316776
-7.6121 56.8798 7.7915 -0.0350458 0.947228 0.31864
-6.45995 57.2127 6.77841 0.00185131 0.953477 0.301462
-5.34254 57.5109 5.79122 0.0346038 0.9591 0.280944
-4.13119 57.7823 4.71543 0.036335 0.955222 0.293649
-2.9892 58.0108 3.69557 0.0788158 0.953484 0.290956
-1.90227 58.2179 2.72237 0.077586 0.949104 0.305257
-0.618898 58.4435 1.58611 0.116521 0.942717 0.312583
0.573866 58.6469 0.52788 0.126515 0.944327 0.303711
1.54864 58.7787 -0.34629 0.136484 0.945767 0.294784
2.61781 58.914 -1.30839 0.172613 0.938292 0.299687
3.61994 59.0265 -2.23197 0.176596 0.935057 0.30738
2.16136 58.4994 0.260474 0.173084 0.938627 0.298366
1.17069 58.3671 1.14945 0.126513 0.944327 0.303711
-0.0220749 58.1636 2.20768 0.116521 0.942717 0.312583
-1.17619 57.9898 3.25006 0.104675 0.955106 0.277156
-2.14353 57.8268 4.12215 0.0654119 0.958556 0.277294
-3.22472 57.6205 5.09012 0.0618826 0.95731 0.282361
-4.24391 57.4099 5.99769 0.0583491 0.956028 0.287413
-5.9112 56.9918 7.47361 0.000708321 0.955551 0.294826
-6.97189 56.6993 8.42283 -0.0151729 0.953344 0.301503
-8.37661 56.2383 9.66337 -0.0416757 0.947584 0.316778
-9.72266 55.7701 10.8429 -0.0451965 0.945126 0.323566
-11.0356 55.2884 11.9863 -0.077152 0.939995 0.332349
-12.0551 54.8755 12.8836 -0.0810454 0.937239 0.339138
-13.0802 54.4591 13.7842 -0.0963289 0.933315 0.345897
-14.0531 54.0292 14.6423 -0.0999204 0.930359 0.352771
-15.0534 53.5905 15.5246 -0.118621 0.93374 0.337726
-16.0261 53.1342 16.3826 -0.134281 0.929439 0.343673
-17.0094 52.6719 17.2488 -0.13578 0.927602 0.34802
-17.1124 52.6215 17.3412 -0.146417 0.92382 0.353721
-17.0835 52.1601 18.5517 -0.155547 0.921815 0.355053
-16.0163 52.6867 17.5969 -0.13578 0.927602 0.34802
-15.0331 53.149 16.7307 -0.134281 0.929439 0.343673
-14.0601 53.5934 15.8635 -0.116339 0.935778 0.332844
-12.9383 54.0848 14.874 -0.111359 0.936301 0.333076
-11.7174 54.5892 13.7925 -0.093342 0.943904 0.316753
-10.4773 55.0787 12.6992 -0.0872001 0.940654 0.327974
-8.83997 55.6681 11.2641 -0.0451965 0.945126 0.323566
-7.49393 56.1363 10.0846 -0.0416757 0.947584 0.316778
-6.52613 56.4456 9.22211 -0.022036 0.949493 0.313013
-5.41439 56.7663 8.22828 -0.00774582 0.959478 0.281678
-3.80186 57.1462 6.78512 0.0522724 0.959349 0.27734
-2.45033 57.4255 5.58159 0.0618806 0.957311 0.282358
-1.46121 57.5968 4.69116 0.101442 0.95452 0.280358
0.0240299 57.8264 3.34716 0.107903 0.955672 0.273948
1.5683 58.0532 1.94777 0.112235 0.949401 0.293328
3.12779 58.2331 0.537752 0.173084 0.938627 0.298366
2.87858 57.8476 1.92143 0.167277 0.945047 0.280901
1.80284 57.7451 2.91796 0.135488 0.951078 0.277657
0.175447 57.5084 4.39421 0.11276 0.954557 0.275873
-0.985092 57.3263 5.44509 0.098879 0.955837 0.276764
-2.20255 57.1374 6.5405 0.0732212 0.959845 0.270808
-3.57365 56.8645 7.76044 0.0461902 0.962527 0.267224
-4.60806 56.6315 8.70511 0.0346859 0.959232 0.280485
-6.1075 56.194 10.046 -0.0305536 0.951527 0.306044
-7.33846 55.8065 11.1448 -0.0509264 0.95211 0.301485
-8.68873 55.337 12.3281 -0.0664925 0.951135 0.30153
-9.70992 54.9768 13.2289 -0.0802059 0.946934 0.311261
-11.5531 54.2483 14.8565 -0.0998633 0.94041 0.325048
-12.9494 53.6478 16.0988 -0.111357 0.936301 0.333076
-13.9235 53.2073 16.9653 -0.1209 0.931672 0.342595
-14.8477 52.784 17.7904 -0.127596 0.930577 0.343141
-15.7587 52.3414 18.6044 -0.137273 0.925743 0.352358
-16.6533 51.9034 19.4066 -0.146417 0.92382 0.353721
-16.4274 51.5457 20.4402 -0.177383 0.919326 0.351248
-15.5067 52.0064 19.612 -0.156236 0.927866 0.338606
-14.601 52.4561 18.7976 -0.147525 0.929926 0.33686
-13.1619 53.1223 17.5087 -0.135772 0.935369 0.326573
-11.9662 53.6485 16.4397 -0.11727 0.94057 0.318708
-11.0259 54.0493 15.6029 -0.105466 0.942034 0.318511
-9.35447 54.7124 14.1215 -0.0933341 0.943904 0.316756
-8.40117 55.0535 13.2776 -0.0670594 0.949764 0.305699
-7.3117 55.4364 12.3182 -0.050928 0.95211 0.301485
-6.25397 55.7743 11.3739 -0.0329688 0.953555 0.299409
-4.89624 56.1956 10.1622 -0.0305703 0.952896 0.301754
-3.93321 56.438 9.28371 0.0346875 0.959232 0.280484
-2.42143 56.7666 7.91363 0.0732212 0.959845 0.270808
-0.892353 56.9985 6.54625 0.100196 0.956442 0.274189
0.128318 57.1593 5.62428 0.098879 0.955837 0.276764
1.34655 57.3354 4.51413 0.112756 0.954558 0.275872
2.57131 57.4792 3.38628 0.158317 0.947427 0.278062
2.85293 57.5088 3.12522 0.163307 0.947693 0.274243
2.76815 57.1562 4.38717 0.154095 0.950676 0.269204
1.51153 57.0091 5.54749 0.136431 0.94833 0.286456
0.320096 56.8461 6.6373 0.10591 0.955388 0.27571
-1.11124 56.6277 7.91938 0.100196 0.956442 0.274189
-2.39531 56.4341 9.06926 0.099869 0.959358 0.263931
-3.33922 56.2527 9.95239 0.00922325 0.966069 0.258119
-4.83621 55.8454 11.3076 -0.0230368 0.955168 0.295166
-5.8691 55.5234 12.2294 -0.0414796 0.95414 0.296472
-7.10251 55.1306 13.3321 -0.0580139 0.953371 0.296171
-8.18774 54.7408 14.2959 -0.0670606 0.949764 0.305698
-9.59017 54.2141 15.5369 -0.0934923 0.943634 0.317512
-10.5768 53.8188 16.4183 -0.0936453 0.943364 0.318269
-11.8982 53.2584 17.5989 -0.12103 0.937448 0.326408
-12.8364 52.8441 18.4407 -0.128406 0.936435 0.326499
-13.762 52.4104 19.2723 -0.138806 0.931908 0.335084
-15.0244 51.8003 20.4095 -0.157519 0.930554 0.33054
-16.0033 51.3037 21.29 -0.180384 0.918597 0.351626
-15.5475 51.0777 22.1125 -0.180843 0.917405 0.354491
-14.3806 51.6773 21.0627 -0.157521 0.930553 0.330541
-13.4061 52.1482 20.1803 -0.14834 0.934097 0.324743
-12.2117 52.7059 19.1037 -0.135177 0.938033 0.319096
-10.9477 53.26 17.9695 -0.123596 0.941445 0.313696
-9.7806 53.7324 16.9243 -0.107179 0.947751 0.300467
-8.57115 54.2119 15.8433 -0.10042 0.945619 0.309388
-7.5968 54.5681 14.9755 -0.0745349 0.950143 0.302775
-6.15742 55.0632 13.6901 -0.0414737 0.956288 0.289471
-5.14421 55.3823 12.7821 -0.023034 0.955168 0.295166
-3.84002 55.7624 11.6101 -0.010157 0.95474 0.297268
-2.70222 56.0464 10.5767 0.0780239 0.960188 0.268237
-1.61577 56.219 9.5561 0.099869 0.959358 0.263931
-0.345674 56.4105 8.41862 0.0964356 0.95831 0.268965
0.895657 56.5761 7.29317 0.134861 0.951788 0.275522
2.00841 56.7184 6.27302 0.134769 0.94985 0.282173
2.54494 56.4418 6.96291 0.133105 0.951348 0.277885
1.55285 56.3157 7.87235 0.136618 0.952218 0.273159
0.417005 56.1803 8.9125 0.136617 0.952218 0.273159
-0.836229 56.004 10.0429 0.0998714 0.959357 0.263931
-2.08299 55.8158 11.2088 0.102805 0.957937 0.267931
-3.42283 55.5117 12.436 0.0226606 0.95988 0.279493
-4.46873 55.2203 13.3804 -0.0211613 0.959917 0.279485
-5.91942 54.7725 14.6819 -0.0420582 0.954761 0.294386
-7.13223 54.3542 15.7689 -0.0765538 0.952773 0.293875
-8.21893 53.9669 16.7437 -0.0845965 0.951722 0.295075
-9.7573 53.3551 18.1228 -0.11148 0.945018 0.307431
-11.0155 52.823 19.2542 -0.123596 0.941445 0.313696
-12.0237 52.3659 20.1621 -0.138934 0.935394 0.32517
-13.4238 51.7058 21.4292 -0.164818 0.9336 0.318161
-14.3492 51.256 22.2691 -0.172209 0.929691 0.325604
-15.1582 50.8236 23.0043 -0.194163 0.923348 0.331255
-14.5406 50.7053 23.6961 -0.194163 0.923347 0.331256
-13.408 51.2904 22.6544 -0.164938 0.933057 0.319689
-12.2271 51.8658 21.5796 -0.164818 0.9336 0.318161
-11.1775 52.3442 20.6303 -0.143709 0.94016 0.308944
-10.0773 52.8229 19.6346 -0.130996 0.946386 0.295286
-8.90613 53.3065 18.5792 -0.105652 0.948574 0.298404
-7.93439 53.6943 17.7043 -0.0842915 0.951351 0.296354
-6.71867 54.1339 16.6117 -0.0767583 0.954763 0.287289
-5.47737 54.5488 15.4943 -0.0578287 0.956922 0.284527
-4.21363 54.941 14.359 -0.0301162 0.958056 0.284995
-3.21729 55.2179 13.459 -0.00616368 0.959136 0.282879
-2.01691 55.5024 12.3612 0.056266 0.965108 0.255734
-0.876376 55.6717 11.2955 0.080835 0.967588 0.239246
0.39036 55.8383 10.1179 0.129946 0.955992 0.263045
1.35592 55.9534 9.2337 0.136618 0.952218 0.273159
2.37557 56.075 8.29996 0.134862 0.951787 0.275524
2.07023 55.7142 9.7703 0.123253 0.959613 0.252888
0.9259 55.5839 10.8224 0.125933 0.961132 0.245696
-0.301376 55.4469 11.9749 0.102953 0.963759 0.246106
-1.25909 55.3113 12.8733 0.0801245 0.966895 0.242269
-2.54455 55.0436 14.0575 0.0154304 0.959426 0.281537
-3.85992 54.6823 15.2468 -0.013213 0.956568 0.29121
-5.04175 54.3265 16.3128 -0.0213155 0.957967 0.286086
-6.40507 53.8754 17.5422 -0.0617878 0.957127 0.283003
-7.73876 53.3854 18.7465 -0.0956927 0.949117 0.300034
-8.86842 52.9415 19.7701 -0.103906 0.950013 0.294413
-10.1149 52.4133 20.897 -0.138948 0.940577 0.309853
-11.4083 51.8348 22.0731 -0.143709 0.94016 0.308945
-12.4001 51.3576 22.9784 -0.164938 0.933057 0.319686
-13.711 50.6937 24.1858 -0.179467 0.926234 0.331485
-13.787 50.6539 24.256 -0.179466 0.926234 0.331487
-13.2593 50.5069 25.0195 -0.202003 0.927472 0.314629
-11.8975 51.1994 23.7643 -0.174458 0.937475 0.301173
-10.7617 51.7355 22.7204 -0.158908 0.942947 0.292574
-9.78196 52.1674 21.8287 -0.157268 0.945495 0.285142
-8.73488 52.6165 20.873 -0.112577 0.95344 0.279783
-7.748 53.0048 19.9761 -0.111847 0.950884 0.288633
-6.67477 53.4107 19.0034 -0.0964839 0.951961 0.290623
-5.64928 53.7676 18.0751 -0.0608033 0.95804 0.280112
-4.29591 54.186 16.8478 -0.019302 0.960098 0.278997
-3.23481 54.4908 15.8872 -0.0031055 0.957255 0.289229
-2.21878 54.7711 14.9684 0.015431 0.959427 0.281533
-1.06633 55.0261 13.9116 0.0762329 0.960746 0.266749
0.0791469 55.1869 12.834 0.10161 0.963395 0.248084
1.517 55.3412 11.4833 0.128606 0.962592 0.238488
1.88589 55.3778 11.1366 0.125933 0.961132 0.245696
2.57055 55.1443 11.7096 0.129963 0.961969 0.240263
0.884845 54.9762 13.292 0.132266 0.961692 0.240115
-0.083014 54.8474 14.2044 0.0972824 0.96368 0.24871
-1.11544 54.6611 15.1634 0.0485608 0.960737 0.273179
-2.29535 54.3881 16.2433 -0.00545897 0.957937 0.286927
-3.4445 54.0778 17.2874 -0.0107929 0.961674 0.273982
-4.41729 53.8004 18.1735 -0.023403 0.960348 0.27782
-5.80685 53.3576 19.4356 -0.051763 0.95611 0.288398
-7.08804 52.8937 20.598 -0.103606 0.952618 0.285981
-8.06493 52.5201 21.4932 -0.113293 0.955914 0.270913
-9.6968 51.8318 22.9884 -0.158908 0.942947 0.292574
-10.6301 51.3995 23.844 -0.160537 0.940339 0.299985
-11.7391 50.872 24.8644 -0.168647 0.936241 0.308239
-12.5812 50.4417 25.6471 -0.202003 0.927471 0.31463
-12.0636 50.291 26.4237 -0.185514 0.931159 0.31389
-11.1499 50.7409 25.5738 -0.168972 0.934581 0.313062
-9.56522 51.4958 24.112 -0.160537 0.940339 0.299985
-8.61679 51.93 23.2392 -0.135928 0.951359 0.276478
-7.61638 52.3404 22.3168 -0.120171 0.955108 0.270791
-6.69159 52.685 21.4651 -0.0880098 0.959406 0.267945
-5.56889 53.0673 20.4373 -0.0631395 0.953879 0.293475
-4.43099 53.4414 19.4036 -0.0377843 0.958178 0.283666
-3.39447 53.7431 18.4576 -0.0234036 0.960347 0.277822
-2.13048 54.0726 17.3 -0.00211361 0.960137 0.279523
-0.868439 54.3693 16.1457 0.0448758 0.959446 0.278297
0.219513 54.5764 15.1382 0.0825911 0.958638 0.272383
1.41668 54.7255 14.007 0.133211 0.962038 0.238195
2.74026 54.8567 12.7599 0.131319 0.96134 0.242035
2.63011 54.5412 14.0729 0.132268 0.961691 0.240115
1.41792 54.4232 15.2273 0.131898 0.962906 0.235406
0.318132 54.2554 16.2577 0.0730169 0.96316 0.258828
-0.657597 54.0647 17.1605 0.0364407 0.960275 0.276666
-1.66837 53.8349 18.0895 0.0359698 0.960038 0.277549
-2.91196 53.5163 19.2314 0.00784941 0.959117 0.282901
-4.04864 53.1968 20.2727 -0.0306103 0.958311 0.284084
-5.22633 52.8179 21.3473 -0.0489498 0.961211 0.271435
-6.17251 52.5161 22.2203 -0.0544783 0.960411 0.27321
-7.26468 52.1261 23.2289 -0.120173 0.955108 0.270791
-8.19316 51.7437 24.087 -0.135997 0.951209 0.276957
-9.19609 51.2782 25.0095 -0.166426 0.941909 0.291737
-10.494 50.6559 26.2169 -0.189677 0.935297 0.298733
-10.8898 50.4577 26.5861 -0.189677 0.935297 0.298734
-10.4921 50.2593 27.4673 -0.192917 0.94089 0.278405
-9.39792 50.8053 26.4449 -0.178266 0.939338 0.293029
-7.80089 51.5391 24.9632 -0.166428 0.941908 0.291737
-6.88622 51.9118 24.1177 -0.116481 0.951895 0.283423
-5.84938 52.2686 23.1538 -0.0651616 0.958265 0.278355
-4.91786 52.5664 22.2933 -0.0483045 0.961218 0.271525
