-7.65771 59.6867 15.6294 -0.0979122 0.943394 0.316892
-6.80583 60.0976 14.6695 -0.0979875 0.943345 0.317015
-5.73933 60.4981 13.7224 -0.0583097 0.954873 0.291233
-4.72148 60.7312 13.1751 -0.0610338 0.958381 0.27877
-3.59086 60.9089 12.6932 -0.0156241 0.965145 0.261249
-2.46037 61.0174 12.321 0.00138591 0.971619 0.236547
-1.11078 60.9517 12.3477 0.080672 0.974177 0.210839
0.565628 60.6413 12.8728 0.162474 0.960942 0.223271
1.62313 60.2785 13.602 0.160314 0.958202 0.236958
2.56978 59.9092 14.4896 0.202339 0.95435 0.219717
3.16349 59.6039 15.2599 0.207379 0.951861 0.225065
3.7916 59.0922 16.6752 0.219318 0.941878 0.254335
4.06532 58.6819 17.9847 0.212362 0.943494 0.254403
3.93817 58.3983 19.1475 0.201818 0.943302 0.263536
3.66191 58.1648 20.2509 0.172507 0.949832 0.260168
3.48957 57.9098 21.2523 0.154137 0.949896 0.271897
3.48543 57.9025 21.2798 0.153071 0.949174 0.275022
-17.6514 31.2225 66.1369 -0.815921 0.530377 0.227806
-18.1299 30.9519 65.2781 -0.785943 0.553181 0.276195
-18.6392 30.8238 64.1465 -0.78637 0.533693 0.311117
-19.0945 30.8162 63.1171 -0.700138 0.609353 0.37215
-19.5185 30.846 62.2467 -0.715946 0.606106 0.346264
-20.078 31.0621 60.7577 -0.724104 0.561582 0.399845
-20.4537 31.4229 59.6293 -0.712763 0.567781 0.411746
-20.711 31.8175 58.6766 -0.687311 0.577639 0.440382
-20.8813 32.512 57.5747 -0.688922 0.55681 0.463981
-21.0234 33.0695 56.7746 -0.67075 0.544694 0.503392
-21.1684 33.6823 55.9321 -0.663136 0.543938 0.514134
-21.2772 34.2861 55.1444 -0.659661 0.549715 0.512504
-21.2314 35.0191 54.4176 -0.659643 0.549497 0.512761
-21.0958 35.9902 53.5659 -0.656197 0.540364 0.526532
-20.9021 36.8552 52.9349 -0.665645 0.531331 0.524026
-20.641 37.7128 52.3706 -0.661474 0.545406 0.514767
-20.3059 38.5204 51.9596 -0.69779 0.530451 0.48113
-20.2049 39.2956 51.2248 -0.703135 0.535316 0.468015
-20.7145 38.2938 51.6372 -0.673252 0.558624 0.484369
-21.3835 37.5089 51.5993 -0.675812 0.552455 0.487926
-22.12 36.0136 52.2895 -0.640638 0.546842 0.538892
-22.4497 35.167 52.7656 -0.64687 0.548809 0.529497
-22.647 34.3287 53.4142 -0.609472 0.583925 0.536261
-23.1058 33.3182 53.993 -0.610057 0.573598 0.546448
-23.3923 32.2577 54.7455 -0.614113 0.556958 0.559163
-23.4906 31.3804 55.6258 -0.596911 0.63005 0.496723
-23.4797 30.7756 56.3896 -0.557867 0.630457 0.539088
-23.3155 29.8795 57.6745 -0.550593 0.675921 0.487859
-23.2029 29.3571 58.5981 -0.536718 0.703927 0.46521
-22.9026 28.8088 59.9235 -0.565197 0.727679 0.388633
-22.8038 28.4187 60.7976 -0.558363 0.74033 0.373785
-22.7588 27.8975 61.9442 -0.53269 0.759441 0.373485
-22.9605 27.2923 62.8871 -0.556029 0.767502 0.312076
-23.8604 25.9422 64.7982 -0.559835 0.778961 0.282497
-24.6644 24.9524 65.9585 -0.548154 0.786389 0.284785
-25.2907 24.3645 66.3904 -0.545915 0.791432 0.274852
-26.4751 23.4314 66.7423 -0.510632 0.818106 0.260913
-27.2675 22.7668 67.4614 -0.47508 0.842224 0.254868
-27.4376 22.4308 68.2337 -0.478281 0.836522 0.267353
-26.4963 22.9512 68.2895 -0.476679 0.839374 0.261111
-25.0083 23.8954 68.3232 -0.535092 0.797081 0.279891
-24.0771 24.5375 68.2749 -0.535092 0.797081 0.27989
-22.9218 25.2781 68.4885 -0.555581 0.783191 0.279178
-21.9027 25.9333 68.6784 -0.557282 0.780948 0.282028
-20.896 26.7252 69.0654 -0.660699 0.71987 0.212754
-19.9698 27.4257 69.5713 -0.673703 0.708961 0.207814
-19.3475 27.8499 70.2182 -0.686705 0.698053 0.202875
-18.5995 28.2314 71.2688 -0.676063 0.698202 0.235484
-18.0934 28.4696 72.3843 -0.755986 0.62603 0.191198
-17.6538 28.6853 73.4371 -0.756353 0.626748 0.187396
-17.0798 28.9564 74.5662 -0.726325 0.650833 0.221062
-16.5527 29.2571 75.4383 -0.725626 0.654493 0.212381
-15.9047 29.7343 76.1768 -0.725052 0.654925 0.21301
-15.3154 30.1985 76.8243 -0.771966 0.589094 0.238455
-14.4971 30.8769 77.5754 -0.746793 0.604116 0.278107
-13.6803 31.6422 78.1064 -0.719542 0.619279 0.310966
-12.9292 32.3626 78.3398 -0.714152 0.595669 0.366554
-12.0197 33.4408 78.422 -0.699341 0.595217 0.394795
-11.1914 34.3121 78.4928 -0.679638 0.613421 0.402252
-10.3535 35.2122 78.6741 -0.671655 0.572453 0.466722
-9.38548 36.1595 78.744 -0.629216 0.607127 0.485266
-8.25781 37.6506 78.4642 -0.609105 0.580424 0.536979
-7.31046 38.5796 78.4142 -0.560937 0.602585 0.567663
-8.18981 38.1632 77.9873 -0.609103 0.580425 0.53698
-9.36914 37.8292 76.8245 -0.65727 0.558264 0.506298
-10.5396 37.8542 75.4174 -0.693102 0.499132 0.515317
-11.1184 37.9144 74.4532 -0.743324 0.470418 0.475581
-11.8131 37.9539 73.3715 -0.770031 0.401971 0.491843
-12.6298 37.2419 72.5855 -0.796656 0.40438 0.448866
-13.2372 36.215 72.2876 -0.830979 0.428352 0.354948
-13.9102 35.2571 71.8498 -0.838324 0.416434 0.351845
-14.4086 34.4813 71.4459 -0.869504 0.410024 0.27389
-15.0548 33.5946 70.8471 -0.852332 0.447392 0.270375
-15.7499 32.6856 70.2207 -0.843211 0.491929 0.216798
-16.4232 32.1021 68.9771 -0.835955 0.515059 0.189454
-16.9282 31.7546 67.74 -0.84332 0.499502 0.19813
-17.3067 31.4846 66.8551 -0.834862 0.506279 0.216073
-17.4793 31.3588 66.4828 -0.834862 0.506279 0.216073
-17.2674 32.0371 65.778 -0.835935 0.489037 0.248327
-17.9786 31.6306 64.4271 -0.789741 0.534505 0.300777
-18.3746 31.6357 63.4146 -0.774485 0.547411 0.316617
-18.84 31.6025 62.3874 -0.762537 0.565637 0.313365
-19.2298 31.7084 61.4406 -0.72461 0.572172 0.383819
-19.56 31.9947 60.386 -0.724104 0.561582 0.399844
-19.8645 32.2983 59.4275 -0.712028 0.572847 0.406032
-20.0773 32.664 58.5641 -0.658419 0.602192 0.448385
-20.1764 33.2595 57.688 -0.662121 0.537684 0.521654
-20.3423 33.9678 56.696 -0.663236 0.55343 0.503818
-20.4665 34.7636 55.6756 -0.660783 0.549428 0.511362
-20.4869 35.4968 54.8707 -0.672179 0.535464 0.511326
-20.3543 36.4382 54.0615 -0.672533 0.533723 0.512678
-20.1584 37.2896 53.4391 -0.66356 0.538368 0.519396
-19.8172 38.4053 52.7569 -0.696398 0.510703 0.504194
-19.5489 39.2073 52.2899 -0.692446 0.525583 0.494248
-19.1222 40.3861 51.6147 -0.73255 0.516874 0.442957
-18.6391 41.3108 51.2718 -0.705729 0.576867 0.411303
-18.1899 42.1241 50.8935 -0.71252 0.578668 0.396811
-17.6321 43.0885 50.5099 -0.73497 0.582903 0.346407
-17.1159 43.9006 50.2457 -0.720916 0.597222 0.350967
-16.0274 45.2389 50.1022 -0.69442 0.643626 0.318559
-15.1774 46.1542 50.1002 -0.712181 0.653441 0.256541
-14.1858 47.1575 50.1578 -0.685563 0.6906 0.230382
-12.9368 48.2771 50.3518 -0.652496 0.741194 0.157734
-12.1078 48.9683 50.6085 -0.645662 0.752195 0.122515
-11.2674 49.5841 50.8788 -0.613781 0.780028 0.121392
-10.2641 50.2695 51.3739 -0.587639 0.803141 0.0982147
-9.39169 50.7992 52.0436 -0.506401 0.855908 0.104243
-8.69723 51.1489 52.7367 -0.498329 0.86642 0.0313663
-8.02368 51.4561 53.4789 -0.435207 0.896823 0.0793957
-7.49128 51.5992 54.5229 -0.426293 0.898252 0.106853
-7.03223 51.6998 55.3802 -0.314536 0.940961 0.123883
-6.55609 51.733 56.4525 -0.308529 0.945092 0.107759
-6.37664 51.6287 57.5227 -0.282668 0.945807 0.159835
-6.1144 51.4998 58.6637 -0.252657 0.94952 0.185949
-5.94121 51.2767 59.7616 -0.227031 0.936971 0.265599
-6.15564 50.8791 60.9206 -0.260867 0.921927 0.286352
-6.14183 50.3773 62.4172 -0.24666 0.908404 0.337579
-6.38947 49.9066 63.4329 -0.269382 0.880327 0.390273
-6.86228 49.2888 64.5291 -0.274048 0.883589 0.379695
-6.79718 48.9212 65.4157 -0.304685 0.852423 0.424794
-5.51362 49.1186 65.9436 -0.296459 0.867141 0.400224
-4.20894 49.3926 66.3165 -0.307116 0.868168 0.389531
-2.86891 49.6025 66.9575 -0.292915 0.881171 0.370012
-1.7775 49.5285 67.952 -0.260372 0.891171 0.371277
-1.29979 49.1679 68.9213 -0.265309 0.826619 0.496298
-0.719892 48.7515 69.925 -0.26295 0.828322 0.494701
-0.241223 48.1084 71.1187 -0.245384 0.802637 0.543655
-0.108241 47.5143 72.0557 -0.247243 0.796106 0.552238
-0.227553 46.84 72.9521 -0.255631 0.793491 0.55217
-0.546175 45.9776 74.0637 -0.268337 0.780577 0.563879
-0.863782 45.1448 75.0031 -0.274515 0.763744 0.584241
-1.36807 44.1151 76.0121 -0.326085 0.737853 0.590947
-1.84683 43.1477 76.9667 -0.325981 0.740864 0.587246
-2.98322 42.1816 77.5473 -0.330229 0.73777 0.588765
-3.99816 41.4949 77.8183 -0.367604 0.701106 0.609536
-4.71803 40.8297 78.0826 -0.404427 0.680479 0.611054
-5.47471 40.2552 78.2208 -0.415038 0.683716 0.600231
-6.45667 39.5465 78.1185 -0.522785 0.643452 0.559164
-7.77231 39.0662 77.4413 -0.541861 0.623018 0.563414
-8.48976 38.8232 76.8701 -0.650075 0.543057 0.530674
-9.27143 38.781 76.0048 -0.642881 0.527847 0.555051
-10.4565 38.7362 74.6749 -0.693103 0.49913 0.515316
-11.1703 39.0493 73.3422 -0.743636 0.416796 0.521878
-12.1039 38.7663 72.2522 -0.770031 0.40197 0.491846
-12.8024 37.8001 71.7546 -0.814834 0.377894 0.439038
-13.4843 36.5955 71.4268 -0.851619 0.321616 0.413894
-13.9823 35.7668 71.0014 -0.884205 0.371488 0.282433
-14.5742 34.8368 70.388 -0.869505 0.410023 0.273889
-15.1569 33.9659 69.7934 -0.867577 0.439322 0.231824
-15.7801 33.1675 69.0968 -0.876447 0.438297 0.190857
-16.3094 32.7491 67.91 -0.843491 0.495674 0.20664
-16.7306 32.439 66.9075 -0.848413 0.481444 0.219926
-17.0148 32.2367 66.2779 -0.84101 0.49002 0.229308
-16.6603 32.9979 65.9135 -0.833067 0.505993 0.22246
-17.1232 32.6759 65.0041 -0.814435 0.523458 0.250376
-17.5503 32.4063 64.1794 -0.806383 0.525501 0.270522
-17.8859 32.4558 63.2076 -0.780517 0.546568 0.303409
-18.2475 32.4495 62.2553 -0.759791 0.577872 0.297963
-18.7371 32.647 60.932 -0.714388 0.584575 0.384603
-19.0083 32.9341 59.9894 -0.714264 0.585255 0.383801
-19.2662 33.2416 59.0975 -0.697772 0.562327 0.443737
-19.4677 33.8993 57.9954 -0.705108 0.531271 0.469651
-19.6056 34.5322 57.0761 -0.692207 0.549223 0.467627
-19.6862 35.1259 56.3014 -0.66429 0.54622 0.510257
-19.7027 35.8848 55.4922 -0.660032 0.527903 0.534487
-19.6172 36.9217 54.5252 -0.672533 0.533723 0.512679
-19.4326 37.7677 53.9494 -0.703625 0.501548 0.50335
-19.2109 38.5597 53.4494 -0.714126 0.498642 0.491093
-18.8429 39.6034 52.9146 -0.726649 0.50624 0.464429
-18.5166 40.4312 52.5386 -0.724688 0.492329 0.482121
-18.0867 41.3766 52.1273 -0.729521 0.545071 0.411241
-17.6082 42.1985 51.8992 -0.764662 0.525982 0.372338
-16.9838 43.4114 51.3578 -0.736334 0.584865 0.340213
-16.3997 44.2409 51.1962 -0.72551 0.615069 0.308749
-15.7363 45.1854 50.9858 -0.753314 0.599696 0.268618
-14.6896 46.3177 51.1094 -0.726123 0.647677 0.230237
-13.6715 47.3885 51.2078 -0.698262 0.692724 0.180399
-12.7501 48.2059 51.4583 -0.666584 0.730896 0.144868
-11.8353 49.0137 51.7659 -0.645661 0.752195 0.122518
-10.7639 49.7972 52.1421 -0.593523 0.797414 0.108915
-9.90451 50.4166 52.6315 -0.587895 0.807392 0.0112323
-8.90153 50.9869 53.966 -0.466767 0.881622 0.0553835
-8.25702 51.2038 55.0006 -0.386726 0.922165 0.00739048
-7.71424 51.4242 55.8971 -0.386724 0.922166 0.00738965
-7.34587 51.4311 56.9418 -0.270928 0.95771 0.0961764
-7.24772 51.3032 58.0018 -0.269237 0.951662 0.147822
-7.15922 51.173 59.0018 -0.251708 0.952468 0.169326
-6.96007 50.9929 59.9288 -0.227201 0.930163 0.286988
-7.16362 50.5973 60.9434 -0.239363 0.919882 0.310681
-7.0465 50.322 61.9049 -0.259439 0.921601 0.28869
-7.25898 49.9218 62.8253 -0.256272 0.892037 0.370658
-7.69834 49.3291 63.832 -0.269383 0.880327 0.390273
-7.99745 48.8333 64.7141 -0.305976 0.856295 0.416099
-8.32976 48.1981 65.7586 -0.322653 0.828092 0.456966
-8.55048 47.6263 66.6002 -0.365815 0.803829 0.469082
-7.54982 47.8697 66.9286 -0.353458 0.824495 0.4419
-6.62693 48.2584 66.9277 -0.328837 0.851686 0.408042
-5.18426 48.6437 67.2167 -0.307106 0.868168 0.38954
-3.86832 48.9027 67.725 -0.317502 0.869191 0.379077
-2.96568 48.992 68.2482 -0.317721 0.830611 0.457316
-2.27203 48.8322 68.9688 -0.260551 0.830036 0.493106
-1.75745 48.3285 70.0886 -0.257616 0.816903 0.515388
-1.38394 47.8511 70.9792 -0.254628 0.80377 0.537698
-1.22724 46.9075 72.4131 -0.249106 0.789572 0.560823
-1.41496 46.0752 73.5015 -0.255631 0.793491 0.55217
-1.8404 45.2992 74.2898 -0.326188 0.734817 0.594681
-2.26302 44.4017 75.167 -0.326187 0.734813 0.594687
-2.73297 43.7385 75.7295 -0.325983 0.740882 0.587222
-3.08277 43.0711 76.3767 -0.330285 0.737736 0.588776
-3.82698 42.4373 76.7535 -0.330229 0.737769 0.588766
-4.65553 41.7565 77.0773 -0.40275 0.70567 0.58212
-5.40453 41.1116 77.2939 -0.415029 0.683718 0.600234
-6.25572 40.4283 77.3525 -0.526114 0.610111 0.592427
-7.36736 39.8398 76.9714 -0.526121 0.610098 0.592433
-8.19503 39.7165 76.3959 -0.50486 0.605223 0.615485
-9.36547 39.6953 75.0886 -0.662503 0.480008 0.575049
-10.0453 39.6249 74.364 -0.66438 0.481362 0.571728
-10.5939 40.0538 73.3569 -0.666226 0.482706 0.568451
-11.2144 40.1946 72.4393 -0.745787 0.375888 0.54947
-11.7008 40.4669 71.6472 -0.74218 0.338023 0.578713
-12.3129 39.5527 71.4221 -0.738391 0.362669 0.56855
-12.9243 38.4364 71.0566 -0.815101 0.235725 0.529192
-13.6068 37.2482 70.6675 -0.880947 0.304604 0.355851
-13.9868 36.4136 70.3195 -0.898167 0.310522 0.311243
-14.5411 35.4714 69.6171 -0.901015 0.354572 0.249903
-15.1737 34.5075 68.7044 -0.867577 0.439322 0.231825
-15.7207 33.8098 67.9489 -0.862621 0.457817 0.21515
-16.1071 33.4576 67.1159 -0.855077 0.472077 0.214444
-16.6185 33.0308 66.0022 -0.833381 0.51439 0.202184
-0.185228 44.548 76.1021 -0.252406 0.758637 0.599998
-0.711065 43.4272 77.2072 -0.279256 0.732682 0.62064
-1.4273 42.4174 78.0771 -0.277958 0.74412 0.607216
-1.51171 41.6891 78.9644 -0.308768 0.739977 0.596502
-2.31123 41.8777 78.2816 -0.335828 0.723062 0.603617
-3.1787 41.3371 78.4513 -0.330779 0.721729 0.608024
-4.0244 40.4916 78.9182 -0.405186 0.677424 0.613923
-3.45354 40.3316 79.4822 -0.386116 0.693534 0.606993
-2.46493 41.1263 79.1026 -0.340876 0.724395 0.599212
-1.34767 41.4232 79.3792 -0.308766 0.739977 0.596504
-0.121744 42.0518 79.1505 -0.27666 0.755558 0.593795
1.13592 42.6789 78.9292 -0.247131 0.758836 0.602369
2.37691 43.0981 78.8795 -0.234365 0.759472 0.606857
3.65816 43.5849 78.765 -0.189642 0.772812 0.603829
4.80232 43.8896 78.6423 -0.144919 0.786154 0.6008
6.02731 44.27 78.4884 -0.171351 0.810919 0.559305
7.21335 44.8592 77.9321 -0.145919 0.826604 0.543538
7.42562 45.3505 77.242 -0.133571 0.818347 0.558587
6.72794 45.8093 76.4467 -0.121228 0.810089 0.573637
6.07334 46.2726 75.6454 -0.100341 0.834244 0.542139
5.27404 46.7203 74.8221 -0.0985068 0.831101 0.547327
4.44144 47.1704 73.9888 -0.108102 0.845096 0.522717
3.46668 47.5845 73.0446 -0.117296 0.859109 0.498169
2.49121 47.9207 72.235 -0.117297 0.859109 0.498169
1.47029 47.7507 72.2878 -0.111893 0.850421 0.513728
1.81305 48.4404 71.2601 -0.106488 0.841734 0.529287
0.824734 48.8959 70.2221 -0.163326 0.843185 0.512192
0.542421 48.8522 70.204 -0.163331 0.843181 0.512196
0.989392 48.2752 71.3081 -0.163451 0.845644 0.508104
0.916447 47.6881 72.2617 -0.204417 0.824142 0.525877
0.823551 46.8506 73.4435 -0.26216 0.797409 0.543517
0.404548 46.0517 74.4135 -0.26834 0.780575 0.56388
0.0831336 45.2186 75.3515 -0.274515 0.763744 0.584241
-5.27966 51.1808 60.7512 -0.254848 0.929384 0.266056
-4.52723 51.2955 61.0714 -0.254848 0.929384 0.266056
-4.41163 50.8939 62.3202 -0.263087 0.909215 0.322667
-3.65813 50.4633 64.1151 -0.262254 0.904944 0.33511
-4.92359 49.6959 65.0879 -0.297979 0.880093 0.369656
-5.36399 50.0694 63.8437 -0.280117 0.892519 0.352382
-5.14387 50.9648 61.5684 -0.247423 0.908155 0.337692
-5.29822 51.1223 60.9228 -0.262175 0.921655 0.286035
-3.2669 51.5422 61.3383 -0.226368 0.940011 0.255219
-2.83604 50.997 63.2974 -0.257624 0.924741 0.277035
-2.19189 50.6051 65.0805 -0.315485 0.894012 0.318138
-0.973364 50.3307 66.5647 -0.272299 0.885794 0.375423
0.747049 49.8643 68.6001 -0.149067 0.909148 0.388882
1.81449 49.2734 69.9075 -0.118392 0.85677 0.500835
3.46316 48.2595 71.8796 -0.111893 0.850421 0.513729
5.24976 47.591 73.4544 -0.117697 0.859091 0.498106
6.38152 46.9489 74.6741 -0.0969627 0.830995 0.547765
7.55856 46.1958 76.0525 -0.103719 0.837494 0.536514
9.00866 45.294 77.7171 -0.111555 0.829402 0.547401
8.36693 44.2916 79.1051 -0.128737 0.828004 0.545468
6.47389 43.7473 79.3728 -0.156532 0.813636 0.559905
4.34955 43.1264 79.5836 -0.192053 0.797491 0.57167
1.62197 42.0914 79.8685 -0.233244 0.765589 0.599559
-0.454039 41.1377 80.1588 -0.268838 0.753821 0.599485
-2.17392 40.2731 80.275 -0.350612 0.703754 0.6179
-4.08972 39.3464 80.1616 -0.421619 0.68331 0.596092
-5.7408 38.5521 79.8488 -0.432188 0.663031 0.611123
-7.29545 37.4891 79.5866 -0.560937 0.602585 0.567663
-8.48664 36.2405 79.8568 -0.568745 0.652307 0.501024
-10.0496 34.7668 79.6723 -0.64027 0.631316 0.437474
-11.8348 32.982 79.4366 -0.676982 0.618832 0.398384
-13.0309 31.6835 79.3378 -0.700774 0.624384 0.344799
-14.859 30.0666 78.3639 -0.721515 0.636502 0.269287
-16.0698 29.2161 77.1952 -0.725335 0.652815 0.218452
-17.4553 28.2729 75.3827 -0.726199 0.654062 0.21175
-18.3849 27.8167 73.4815 -0.708919 0.685315 0.166666
-19.3239 27.4204 71.5969 -0.672122 0.704209 0.228781
-20.934 26.366 70.145 -0.66504 0.713656 0.220039
-22.3695 25.287 69.6538 -0.577522 0.781199 0.237058
-23.8424 24.2918 69.4233 -0.545337 0.790135 0.279535
-25.7778 23.0852 69.2961 -0.517217 0.824735 0.228691
-27.7167 21.9377 69.2773 -0.480196 0.835298 0.267738
-29.2482 21.7343 67.3261 -0.446377 0.845899 0.291793
-27.5798 22.991 66.2218 -0.452283 0.845069 0.285128
-26.0526 24.1647 65.4773 -0.545646 0.788876 0.282745
-24.5424 25.8039 63.8655 -0.550663 0.783903 0.286822
-23.7622 27.1188 62.0518 -0.536007 0.763908 0.358861
-23.6847 28.0973 60.1183 -0.558365 0.740329 0.373783
-24.1845 29.0618 57.8873 -0.545937 0.70713 0.449301
-24.4035 30.5803 55.5992 -0.570126 0.652101 0.49972
-24.2435 31.9989 54.1217 -0.554985 0.608981 0.566686
-23.7953 33.4754 53.0381 -0.600939 0.582558 0.547089
-23.3347 34.8837 52.0603 -0.593511 0.577617 0.560431
-22.6571 36.6531 51.034 -0.622455 0.573383 0.531499
-21.7537 38.0523 50.4712 -0.673253 0.558622 0.484371
-20.5449 39.8905 50.0386 -0.684619 0.540814 0.488689
-19.4221 41.681 49.4123 -0.687281 0.588973 0.425154
-18.3309 43.2732 48.879 -0.685711 0.618534 0.383688
-17.1332 44.9692 48.1185 -0.666828 0.67113 0.321823
-16.3147 46.2646 47.1871 -0.626339 0.704187 0.330435
-15.5148 47.5009 45.7882 -0.608986 0.742731 0.276905
-14.5172 48.7997 44.3234 -0.556316 0.772038 0.30717
-13.7716 49.7556 42.942 -0.523469 0.807667 0.270915
-12.8224 50.8927 41.1062 -0.451846 0.8526 0.261366
-12.2504 51.7875 39.2128 -0.413098 0.869944 0.268415
-11.7795 52.713 36.7613 -0.376245 0.889445 0.259012
-12.2573 53.1459 34.7048 -0.365359 0.88961 0.274021
-13.0077 53.6373 32.3164 -0.337773 0.892813 0.297984
-14.3204 53.8027 30.4497 -0.292045 0.902653 0.315534
-15.2746 53.9923 28.9584 -0.261536 0.902216 0.342935
-16.3472 54.2706 27.4166 -0.256962 0.903097 0.344071
-17.5282 54.6359 25.5911 -0.237932 0.912275 0.333203
-18.3743 54.9779 24.0823 -0.220757 0.913103 0.342796
-19.1524 55.3887 22.4814 -0.215773 0.915644 0.339174
-19.7085 55.9486 20.7221 -0.198132 0.91638 0.347626
-20.2546 56.5444 18.9059 -0.172552 0.915647 0.362967
-20.5217 57.1681 17.224 -0.151909 0.919906 0.361475
-20.7 57.816 15.5422 -0.130977 0.916752 0.377314
-20.8928 58.5451 13.774 -0.103464 0.907016 0.408013
-21.0676 59.3176 11.9859 -0.0929729 0.908526 0.407352
-21.1248 60.0675 10.292 -0.070758 0.906131 0.417036
-21.2069 60.8125 8.65403 -0.0279248 0.911911 0.409436
-21.4248 61.6678 6.74731 -0.000683151 0.913976 0.405767
-21.503 62.4824 4.99139 0.0133604 0.898309 0.439161
-21.7917 63.2379 3.43151 0.0359331 0.900312 0.433759
-21.9301 64.0413 1.7978 0.0977729 0.88271 0.459281
-21.909 65.0633 -0.264239 0.125734 0.891858 0.434489
-21.9663 66.0269 -1.98912 0.162013 0.878628 0.44789
-22.2821 66.9585 -3.56667 0.221463 0.853237 0.472116
-22.2957 67.9394 -5.15979 0.265792 0.832931 0.484303
-22.2548 68.8822 -6.74811 0.324955 0.795264 0.511819
-21.9594 69.7151 -8.33945 0.365366 0.783604 0.502465
-20.4313 69.6986 -9.55846 0.300504 0.842953 0.445245
-18.9305 70.0326 -11.0358 0.0939059 0.890492 0.445203
-18.0236 70.8082 -12.7157 -0.0814991 0.8853 0.457824
-16.5074 71.4629 -13.6769 -0.0509738 0.839865 0.540396
-13.9333 71.9821 -14.2754 -0.03039 0.833965 0.550615
-12.4548 73.1636 -15.8476 0.0170691 0.791246 0.61126
-12.1087 75.0547 -18.1642 0.0145419 0.770998 0.636613
-12.2047 77.0297 -20.3518 0.12438 0.739827 0.6612
-12.8886 78.2783 -21.4119 0.19187 0.66616 0.720706
-13.3459 80.0042 -22.8438 0.212266 0.649786 0.72985
-13.0477 80.7544 -23.6065 0.209921 0.654445 0.726385
-11.5085 79.5946 -23.0327 0.232945 0.666649 0.708037
-9.46408 78.4049 -22.5625 0.292825 0.664417 0.687607
-7.77005 77.7466 -22.5507 0.33666 0.762299 0.552775
-5.67582 77.039 -22.8173 0.365602 0.768624 0.522415
-3.7057 76.5482 -23.5862 0.399515 0.824949 0.399809
-2.21061 76.2693 -24.5005 0.405892 0.842901 0.353228
-0.971875 76.1927 -25.7537 0.409441 0.852843 0.324062
0.41624 76.1198 -27.3617 0.400583 0.863896 0.305183
1.20665 76.268 -28.9632 0.406941 0.870637 0.276387
1.80238 76.4831 -30.6663 0.408105 0.879264 0.245615
2.24796 76.7126 -32.3983 0.408265 0.89004 0.202648
2.58816 77.0042 -34.4935 0.408985 0.896169 0.17192
2.68837 77.2842 -36.2897 0.412106 0.89715 0.15903
2.97079 77.4565 -38.1754 0.412159 0.900724 0.137189
3.63333 77.4808 -40.4851 0.385217 0.915217 0.118196
4.6063 77.2472 -42.0992 0.363495 0.927346 0.0871309
5.90226 76.9148 -43.9083 0.342667 0.936681 0.068918
7.63496 76.3927 -44.7362 0.310285 0.9468 0.084546
9.57835 75.8082 -45.1283 0.303939 0.94404 0.127705
11.4266 75.2293 -45.238 0.297148 0.944014 0.142706
13.5907 74.5586 -45.4027 0.303098 0.940707 0.152325
15.5167 73.8701 -45.0733 0.310191 0.935238 0.17062
17.3616 73.1732 -44.6884 0.3269 0.928468 0.176295
19.239 72.4411 -44.2666 0.319622 0.930074 0.18112
20.9308 71.775 -43.7941 0.312491 0.93249 0.181142
22.8078 71.0224 -43.2409 0.314709 0.929477 0.192435
24.6967 70.2545 -42.7211 0.317646 0.923038 0.217031
26.6994 69.5129 -42.4721 0.310458 0.925587 0.216556
28.4621 68.8253 -42.0372 0.302505 0.928262 0.216381
30.1109 68.2201 -41.7518 0.300043 0.925921 0.22934
31.2734 67.5666 -40.6039 0.293456 0.927671 0.23089
31.9482 66.9438 -38.9917 0.294661 0.92444 0.242047
32.4641 66.311 -37.2002 0.292472 0.924529 0.24434
32.3675 65.7901 -35.1283 0.288912 0.925519 0.244835
31.0641 65.7931 -33.6124 0.293058 0.922875 0.249819
29.1749 66.3774 -33.51 0.30453 0.919829 0.2473
27.3503 67.087 -33.8651 0.313969 0.916328 0.248527
25.2455 67.7959 -33.8012 0.319335 0.913961 0.25038
23.2503 68.398 -33.4199 0.328198 0.911841 0.246641
21.3253 68.917 -32.7566 0.335278 0.908818 0.248252
19.7656 69.2613 -31.8984 0.345807 0.904397 0.249923
18.2302 69.5132 -30.7087 0.345384 0.903305 0.254459
16.8522 69.6547 -29.2971 0.356631 0.897388 0.259784
15.4756 69.6848 -27.5201 0.362258 0.892702 0.267973
14.4919 69.4693 -25.5266 0.357485 0.893386 0.272137
13.6091 69.1744 -23.4654 0.361444 0.888054 0.284111
12.8738 68.774 -21.3227 0.35067 0.887814 0.298023
11.995 68.4219 -19.2394 0.346884 0.88712 0.304358
11.1838 68.1416 -17.5667 0.333276 0.887894 0.317123
10.6729 67.7049 -15.8135 0.321154 0.890823 0.321387
10.0187 67.2157 -13.8117 0.307487 0.892769 0.329232
9.47839 66.8038 -12.1802 0.303717 0.894115 0.329112
8.82454 66.1762 -9.88443 0.285152 0.901259 0.326222
8.39578 65.4877 -7.62209 0.259734 0.908701 0.326802
7.91156 64.8877 -5.58465 0.254924 0.908656 0.330693
7.56272 64.3893 -3.91065 0.255194 0.913634 0.316462
6.94753 63.7927 -1.72932 0.244434 0.917212 0.3146
6.58002 63.1863 0.338996 0.242716 0.919904 0.307946
6.37837 62.4732 2.67144 0.239617 0.924937 0.294971
6.01724 61.9443 4.64371 0.229649 0.930164 0.286372
5.85167 61.4251 6.50975 0.233221 0.930793 0.281461
5.67003 60.6833 9.16829 0.218559 0.935705 0.276925
5.77864 60.188 10.8603 0.214003 0.943592 0.252658
5.73664 59.7099 12.663 0.201709 0.946569 0.251635
5.77989 59.2469 14.3575 0.217616 0.943998 0.248015
6.19381 58.5525 16.6605 0.210767 0.947183 0.241707
6.80325 57.907 18.6838 0.204171 0.950351 0.234835
7.4131 57.371 20.3498 0.207492 0.952041 0.224866
8.25982 56.837 21.9707 0.194726 0.958534 0.208071
8.95829 56.3719 23.5993 0.187606 0.964987 0.183287
9.63187 55.957 25.2319 0.187781 0.968922 0.16091
9.62013 55.63 27.3239 0.186895 0.971007 0.149051
8.89936 55.4298 29.8539 0.167783 0.978119 0.12231
7.92393 55.4178 31.4708 0.165328 0.979959 0.111039
7.00638 55.4102 33.221 0.147319 0.984765 0.0913116
5.89318 55.3616 35.7827 0.135842 0.987831 0.0757473
5.34802 55.3006 37.5554 0.107478 0.991646 0.0713202
4.70284 55.2036 39.6476 0.0820435 0.991569 0.0961518
3.72263 55.0806 42.0221 0.0302884 0.995619 0.0884668
3.13767 54.9194 44.0214 -0.000754319 0.994192 0.0997491
2.30106 54.6668 46.036 -0.0356875 0.994747 0.0959455
1.49072 54.4273 48.2175 -0.0596148 0.992576 0.103014
0.893506 54.2146 50.1698 -0.103616 0.992882 0.0587248
0.0162755 54.0093 51.9085 -0.114177 0.989946 0.0834941
-0.702586 53.7889 53.5391 -0.157621 0.981983 0.0938411
-1.43233 53.3857 55.2115 -0.205865 0.965282 0.160692
-2.25829 52.9191 56.8405 -0.222045 0.94992 0.219481
-2.91411 52.2798 58.8556 -0.233898 0.946098 0.224031
-3.16405 51.7427 60.6911 -0.2309 0.940341 0.249786
-3.23311 51.6322 61.0372 -0.226375 0.94 0.255254
-1.87404 51.9396 61.1103 -0.226368 0.939996 0.255275
-1.64675 52.5304 59.1205 -0.234657 0.943389 0.234182
-1.15813 53.056 57.3091 -0.210192 0.953742 0.21493
-0.205485 53.6408 55.2181 -0.143364 0.976805 0.146503
0.904538 54.0099 52.9159 -0.0823269 0.990537 0.109811
1.7899 54.2179 50.9828 -0.0148577 0.997177 0.0735998
2.36052 54.39 48.7548 -0.0116666 0.995332 0.0934835
3.26661 54.6097 46.9194 -0.009641 0.993414 0.114173
4.02685 54.8006 44.9863 0.0377835 0.995431 0.0876877
4.59063 54.9612 42.9815 0.0355519 0.994837 0.0950564
5.22777 55.0814 41.0298 0.0753887 0.995471 0.0579161
5.94386 55.1323 39.1212 0.0777317 0.995587 0.0525762
6.56061 55.1616 37.4521 0.137615 0.988482 0.0629686
7.1606 55.1895 35.7547 0.135841 0.987833 0.0757112
7.87795 55.2233 33.8354 0.158842 0.985216 0.0641815
8.73446 55.2146 32.2039 0.155643 0.983178 0.0955796
9.8401 55.2169 30.3631 0.167921 0.981138 0.0950642
10.5275 55.2817 28.6204 0.182262 0.976792 0.112507
10.9706 55.4482 26.8296 0.175167 0.973473 0.147198
10.7056 55.7742 25.0983 0.188767 0.968053 0.165011
10.0701 56.2175 23.2897 0.192427 0.964581 0.180258
9.35613 56.6678 21.7005 0.198028 0.957464 0.209854
8.69247 57.1746 20.032 0.196732 0.957137 0.212571
7.93306 57.6963 18.5319 0.21125 0.949721 0.231054
7.17618 58.4205 16.2875 0.22256 0.945304 0.238469
6.98738 59.0056 14.1957 0.226723 0.941867 0.247957
6.92337 59.5412 12.2917 0.221007 0.941902 0.252936
6.86565 60.059 10.4245 0.21362 0.943381 0.253767
6.83583 60.6479 8.33258 0.237441 0.934587 0.264893
7.00257 61.1306 6.51768 0.235858 0.929643 0.283081
7.09569 61.6506 4.73288 0.235366 0.929676 0.283382
7.57629 62.2667 2.34602 0.239617 0.924937 0.294971
7.65838 62.8225 0.589496 0.240339 0.921869 0.303965
8.06088 63.3153 -1.20263 0.245063 0.917453 0.313405
8.53249 63.7902 -2.96636 0.25989 0.913037 0.314327
8.89299 64.3057 -4.7421 0.255056 0.911145 0.323581
9.27142 64.7903 -6.41529 0.271444 0.907851 0.31957
9.58586 65.3167 -8.15291 0.285342 0.904973 0.315601
9.9158 65.8994 -10.0849 0.288968 0.899775 0.32696
10.5453 66.3626 -11.9662 0.299006 0.89754 0.32397
11.0758 66.7761 -13.6215 0.318342 0.891995 0.320941
11.4404 67.2746 -15.378 0.323938 0.892237 0.314531
12.0769 67.6149 -17.0194 0.330395 0.889867 0.314605
12.9425 67.9877 -19.0463 0.34299 0.890315 0.299465
13.743 68.2376 -20.7318 0.343117 0.891713 0.295157
14.4391 68.5702 -22.6033 0.351037 0.892216 0.28412
15.1312 68.8115 -24.2219 0.3556 0.891993 0.279099
15.7929 69.0538 -25.863 0.355675 0.894602 0.270522
16.9043 69.1741 -27.7288 0.353962 0.897953 0.261515
17.8829 69.2407 -29.2799 0.343693 0.900907 0.265031
19.4544 68.9772 -30.4701 0.346124 0.902816 0.255191
20.9243 68.7064 -31.457 0.333022 0.906899 0.258131
22.6749 68.2663 -32.1966 0.32754 0.91032 0.253051
24.3211 67.8237 -32.7339 0.323348 0.911525 0.254071
26.1124 67.2127 -32.7965 0.315587 0.914486 0.253163
27.7855 66.6456 -32.7985 0.307615 0.917314 0.252801
29.7268 65.9386 -32.5595 0.301722 0.918402 0.255933
32.144 65.1728 -32.5788 0.289629 0.921894 0.257346
33.3012 65.2245 -34.1147 0.289308 0.924193 0.249335
33.453 65.6936 -36.0447 0.288898 0.925533 0.244798
33.3353 66.3555 -38.4271 0.289044 0.926507 0.240876
32.5752 67.1585 -40.6187 0.293445 0.927676 0.230883
31.5844 67.8109 -41.9967 0.295546 0.929011 0.22269
30.1084 68.4897 -42.8725 0.294811 0.929375 0.222145
27.5225 69.4711 -43.4572 0.308198 0.925958 0.218211
25.8567 70.0601 -43.6256 0.318715 0.928342 0.191314
24.2702 70.6966 -44.0802 0.310569 0.932373 0.185008
22.6492 71.3117 -44.4078 0.319387 0.929855 0.182651
20.8078 72.0459 -44.9781 0.3132 0.932516 0.179776
19.2354 72.6665 -45.4591 0.315612 0.932841 0.173772
17.265 73.4274 -45.9165 0.320993 0.933143 0.161889
15.4418 74.0895 -46.1751 0.305016 0.939337 0.15688
13.7402 74.6993 -46.5501 0.297303 0.943184 0.148375
11.8944 75.2727 -46.4862 0.298366 0.942765 0.148905
10.1311 75.7946 -46.2489 0.280468 0.952187 0.118602
8.45459 76.2559 -46.0163 0.28165 0.957032 0.0628211
6.82191 76.7214 -45.4327 0.310285 0.9468 0.084546
4.92632 77.3052 -44.7 0.328626 0.942251 0.0625169
3.95828 77.5636 -42.9449 0.365283 0.928178 0.071087
2.75669 77.9199 -41.0798 0.400399 0.912507 0.0827399
2.22939 77.9438 -39.2405 0.408152 0.905596 0.115358
1.88016 77.7819 -37.0175 0.429832 0.892228 0.138411
1.66045 77.5192 -34.9082 0.443051 0.881443 0.163597
1.44083 77.2697 -33.1933 0.426641 0.883639 0.192767
1.07423 76.994 -31.2699 0.426004 0.875636 0.227537
0.306694 76.7411 -29.0674 0.42506 0.866822 0.26066
-0.794048 76.6702 -27.267 0.420413 0.853492 0.307901
-2.17833 76.7596 -25.672 0.423175 0.830612 0.361751
-3.67847 77.0135 -24.5188 0.423182 0.8068 0.411849
-5.546 77.5267 -23.6853 0.394322 0.774545 0.494348
-7.47414 78.24 -23.4113 0.35082 0.730652 0.58387
-9.23527 79.1522 -23.3822 0.316323 0.673047 0.667778
-10.7147 80.078 -23.7491 0.216396 0.677242 0.702925
-12.4117 81.2022 -24.1938 0.207811 0.665268 0.716953
-13.7173 82.3439 -24.8514 0.197194 0.677473 0.708031
-14.8028 83.4909 -25.6369 0.262499 0.665728 0.698393
-15.8418 84.6245 -26.4857 0.250964 0.740263 0.623721
-15.9212 84.1807 -25.9271 0.246477 0.71576 0.652303
-15.4673 82.8226 -24.75 0.262492 0.665738 0.698387
-14.9191 81.4538 -23.6794 0.218902 0.661966 0.716856
-14.5744 79.9509 -22.438 0.224812 0.647461 0.728185
-14.1605 78.4292 -21.229 0.155616 0.671053 0.724895
-13.4221 76.9017 -19.9794 0.139803 0.713575 0.685386
-13.2644 75.6773 -18.7074 0.0545235 0.705013 0.707095
-13.2751 74.1931 -17.0899 0.0220084 0.76814 0.639904
-13.6583 73.1264 -15.7659 -0.00251264 0.792702 0.609285
-15.1692 72.3688 -14.8561 -0.0443206 0.78154 0.622279
-17.3474 72.0971 -14.6768 -0.0618261 0.765427 0.640484
-18.6251 71.4991 -14.1035 -0.0851865 0.807284 0.577652
-19.2088 70.7031 -12.4409 0.0773337 0.919119 0.386317
-20.3739 70.1252 -10.6466 0.251755 0.918539 0.304804
-21.8249 70.2891 -9.46574 0.403029 0.80265 0.439682
-23.353 70.789 -8.81776 0.411884 0.728856 0.546919
-23.3774 69.6197 -7.14351 0.344876 0.756001 0.556348
-23.2902 68.4305 -5.40058 0.308768 0.799071 0.515896
-23.3 67.326 -3.66702 0.258662 0.813029 0.521451
-23.0414 66.3136 -2.08144 0.192055 0.857737 0.476866
-23.1238 65.2887 -0.272615 0.15691 0.861832 0.482312
-23.0727 64.3879 1.41121 0.104992 0.874463 0.473594
-22.9671 63.4869 3.07112 0.0696059 0.873726 0.481412
-22.6319 62.6798 4.65188 0.0326849 0.899268 0.436175
-22.5156 61.7887 6.48199 0.0169324 0.904007 0.426772
-22.3184 60.8472 8.50083 -0.0236632 0.908015 0.418139
-22.1715 60.0672 10.1277 -0.0396857 0.896466 0.441332
-22.1343 59.2111 11.9897 -0.0764385 0.909561 0.408479
-21.9971 58.497 13.5867 -0.101739 0.902672 0.418047
-21.8972 57.7505 15.2988 -0.127946 0.914823 0.383052
-21.6557 57.1071 16.9412 -0.142428 0.91446 0.378784
-21.4276 56.4445 18.6283 -0.142548 0.914629 0.37833
-20.8637 55.7247 20.6832 -0.186634 0.911122 0.367456
-20.1405 55.0778 22.7098 -0.202574 0.907461 0.367707
-19.4019 54.6305 24.2941 -0.24577 0.89891 0.362704
-18.4936 54.2123 25.9949 -0.270443 0.899921 0.342055
-17.5831 53.876 27.507 -0.272876 0.892198 0.359682
-16.414 53.5736 29.1908 -0.259172 0.902505 0.34396
-15.1664 53.2831 31.094 -0.296562 0.895234 0.332576
-14.0552 53.1215 32.6742 -0.337799 0.892777 0.298062
-13.3974 52.8207 34.2769 -0.339684 0.88833 0.309004
-12.7151 52.213 37.1238 -0.361419 0.890859 0.275221
-13.1931 51.4152 38.8876 -0.432937 0.859836 0.270645
-13.7272 50.5894 40.6284 -0.433831 0.857344 0.27704
-14.5714 49.5744 42.0413 -0.49452 0.806309 0.324525
-15.3857 48.533 43.4003 -0.554949 0.776788 0.297711
-16.0131 47.5393 44.7424 -0.577758 0.750334 0.320162
-17.1229 46.0714 46.0668 -0.626336 0.704189 0.330437
-17.9033 44.7893 47.0656 -0.622192 0.690441 0.36901
-18.7895 43.4936 47.7934 -0.667595 0.622351 0.408653
-19.8336 42.0976 48.1487 -0.665563 0.60724 0.43341
-21.1516 40.1641 48.886 -0.67193 0.578526 0.459781
-22.1204 38.7492 49.2367 -0.576999 0.624522 0.52635
-23.0517 37.2725 49.8724 -0.601295 0.593448 0.535037
-23.9397 35.5547 50.7369 -0.594617 0.574037 0.562949
-24.5898 33.6114 52.0528 -0.592204 0.581346 0.557971
-25.0731 32.0443 53.3283 -0.518788 0.623338 0.584794
-25.3997 30.6445 54.4864 -0.512031 0.615117 0.599545
-25.2543 29.4163 56.2206 -0.49614 0.696408 0.518517
-24.9757 28.512 57.8621 -0.4865 0.747161 0.452844
-24.6854 27.7514 59.4289 -0.480806 0.761114 0.434712
-24.5975 26.9524 61.1996 -0.520484 0.774835 0.358785
-25.2434 25.7368 62.8802 -0.521364 0.773489 0.36041
-26.2569 24.4644 64.247 -0.506842 0.807085 0.299354
-27.6252 23.3956 65.0117 -0.468097 0.825247 0.315994
-29.0701 22.4292 65.533 -0.446281 0.848478 0.284461
-30.6247 21.0902 67.0876 -0.446376 0.845899 0.291793
-29.5181 21.0066 68.975 -0.436348 0.851371 0.290741
-28.139 21.423 70.1534 -0.480832 0.838779 0.255443
-25.8761 22.6895 70.5007 -0.509789 0.829132 0.229306
-24.3826 23.6333 70.4633 -0.501557 0.827959 0.250848
-22.7137 24.6874 70.7868 -0.584263 0.771884 0.250663
-21.1276 25.8572 71.2098 -0.662794 0.713998 0.225554
-19.9788 26.6324 72.0983 -0.66627 0.709356 0.229872
-19.0699 26.9988 73.9308 -0.70934 0.683714 0.171311
-18.2486 27.4304 75.5505 -0.695754 0.69299 0.188921
-17.1796 27.973 77.3391 -0.689721 0.689982 0.219569
-15.5029 29.1526 78.9899 -0.696238 0.668888 0.260464
-14.1583 30.1921 79.8322 -0.693326 0.640503 0.330233
-12.8828 31.3154 80.3311 -0.675043 0.651988 0.344346
-11.5854 32.5025 80.6096 -0.673329 0.623142 0.397897
-10.3175 33.7631 80.7578 -0.634105 0.63946 0.434743
-9.01691 34.9645 80.9087 -0.608199 0.636261 0.471843
-7.63517 36.1462 80.9461 -0.568575 0.652464 0.501013
-6.21204 37.3062 80.9154 -0.476671 0.661015 0.57952
-4.29833 38.4465 81.0361 -0.433095 0.694736 0.574256
-2.60621 39.295 81.169 -0.376093 0.728371 0.572739
-1.06493 40.1999 81.0302 -0.376224 0.728353 0.572675
0.820141 40.9338 80.9666 -0.261237 0.764413 0.58943
2.54037 41.6869 80.7423 -0.240819 0.767298 0.594282
4.19866 42.3871 80.5275 -0.223133 0.777914 0.586805
6.05986 43.0355 80.285 -0.192053 0.797491 0.57167
7.84786 43.4732 80.1587 -0.158195 0.814755 0.557807
9.62442 44.0927 79.6717 -0.113958 0.831533 0.54366
10.6541 45.0305 78.453 -0.0979419 0.832079 0.545703
9.7234 45.7624 77.1078 -0.0745057 0.85627 0.511127
8.19028 46.676 75.4139 -0.0891223 0.842605 0.531107
7.1444 47.4124 74.1035 -0.0822597 0.836017 0.542503
6.05681 48.0379 72.8601 -0.096634 0.876657 0.471312
4.58078 48.5091 71.6809 -0.0965821 0.876615 0.4714
3.4818 49.2998 70.1426 -0.0831181 0.860077 0.503348
2.28841 49.8874 68.9273 -0.0859095 0.862488 0.498733
0.629901 50.5136 67.0538 -0.159385 0.90362 0.397578
-0.481161 50.9772 65.4378 -0.212927 0.901286 0.377287
-1.3885 51.2542 63.9809 -0.279175 0.929341 0.241633
-1.86912 51.6821 62.0102 -0.236092 0.920131 0.312441
-1.87192 51.867 61.3796 -0.226368 0.940008 0.255229
30.532 66.988 -37.4316 0.300111 0.922977 0.240929
28.3732 68.2792 -39.6809 0.302123 0.923696 0.2356
27.5651 68.7623 -40.5268 0.312956 0.920514 0.233908
24.6606 69.8453 -40.928 0.323599 0.921571 0.214453
26.4699 68.7508 -39.016 0.312955 0.920513 0.233914
28.0017 67.8152 -37.4098 0.309386 0.919138 0.243855
29.5162 66.8938 -35.8344 0.306049 0.919694 0.245961
29.7037 66.7793 -35.6399 0.30287 0.920543 0.246721
27.0986 67.668 -35.6958 0.31255 0.917377 0.246439
25.6211 68.587 -37.2452 0.320011 0.917028 0.238019
23.6384 69.8153 -39.3406 0.325782 0.916509 0.232115
21.912 70.8773 -41.1835 0.318147 0.924619 0.209432
21.3998 71.1777 -41.732 0.316458 0.925431 0.208402
17.9827 72.5695 -42.7194 0.328248 0.926315 0.184916
19.5223 71.6771 -41.0586 0.329014 0.92189 0.204619
21.2032 70.6572 -39.2566 0.324882 0.917275 0.230345
23.1897 69.416 -37.1425 0.325319 0.91522 0.237781
24.8057 68.3908 -35.4363 0.320938 0.915569 0.242347
24.8494 68.3635 -35.3904 0.318254 0.915865 0.244754
22.4846 69.1618 -35.2161 0.331608 0.911462 0.24346
20.943 70.142 -36.8506 0.33084 0.914127 0.234342
19.4479 71.0894 -38.4467 0.332314 0.915581 0.226449
17.8557 72.0629 -40.1565 0.32541 0.92179 0.210738
16.1882 73.0573 -41.9652 0.328405 0.925519 0.188584
14.9525 73.7337 -43.3064 0.317412 0.931919 0.175435
12.3705 74.6301 -43.4073 0.319129 0.935649 0.150724
14.29 73.5802 -41.3149 0.332486 0.927332 0.171778
16.0007 72.5732 -39.4596 0.342326 0.917856 0.20088
17.9665 71.356 -37.3444 0.33328 0.915721 0.224453
19.5691 70.3389 -35.6337 0.340958 0.911351 0.230624
20.536 69.7065 -34.6066 0.339112 0.907892 0.246445
18.8464 70.1088 -33.7267 0.341569 0.90783 0.243261
17.0496 71.2885 -35.6344 0.346355 0.910334 0.226562
15.3587 72.3599 -37.4438 0.343601 0.913738 0.216847
13.8533 73.2824 -39.0712 0.335783 0.920734 0.198742
12.2801 74.2 -40.7838 0.333329 0.927605 0.168645
10.5719 75.1295 -42.6655 0.32434 0.934254 0.148233
9.88488 75.4766 -43.4209 0.317973 0.93839 0.13534
8.08482 76.0039 -42.6968 0.330284 0.935448 0.125899
9.59889 75.2228 -41.0195 0.340393 0.928925 0.145708
11.2172 74.3129 -39.2289 0.350619 0.918695 0.181839
12.7374 73.3993 -37.5621 0.354702 0.91444 0.194899
14.5192 72.2665 -35.6445 0.356274 0.911109 0.207242
16.0021 71.2908 -34.0683 0.358336 0.905689 0.226545
17.2997 70.4224 -32.6966 0.350721 0.904143 0.243967
16.213 70.4436 -31.1862 0.355645 0.901232 0.247584
14.435 71.6534 -33.0472 0.368042 0.898257 0.240165
12.9285 72.6585 -34.6483 0.369634 0.903501 0.216927
11.3089 73.7061 -36.3938 0.367673 0.909021 0.196208
9.74878 74.6708 -38.1188 0.359684 0.917466 0.169953
8.06318 75.6378 -39.9954 0.356938 0.923358 0.141437
6.41487 76.5109 -41.843 0.356648 0.928684 0.101726
6.31011 76.564 -41.9611 0.351838 0.929734 0.108653
5.49546 76.662 -40.1469 0.372226 0.920582 0.118221
7.21321 75.6784 -38.2011 0.376074 0.915785 0.141092
9.09034 74.5386 -36.106 0.359978 0.91553 0.179501
10.655 73.5306 -34.3823 0.375508 0.902542 0.210743
12.1499 72.5262 -32.7838 0.375313 0.895068 0.24082
13.6832 71.4604 -31.1701 0.364497 0.898045 0.246288
15.007 70.538 -29.8056 0.36404 0.89597 0.254388
14.0303 70.4719 -28.1884 0.362265 0.892721 0.267978
12.2792 71.7113 -29.983 0.37496 0.892156 0.251919
10.7789 72.7712 -31.5455 0.378269 0.893497 0.242026
9.11588 73.9277 -33.3307 0.391016 0.898919 0.197612
7.58809 74.9393 -35.0253 0.378291 0.908254 0.178806
5.92582 75.9897 -36.8975 0.383388 0.909439 0.161042
4.55203 76.8195 -38.475 0.390674 0.910272 0.137035
4.09849 76.6479 -36.2217 0.390222 0.906354 0.162016
5.54267 75.7143 -34.5656 0.386366 0.904245 0.181831
7.11498 74.6695 -32.8083 0.381721 0.902349 0.200137
8.58593 73.6272 -31.1883 0.395761 0.888143 0.233615
10.0665 72.5538 -29.6283 0.386205 0.886854 0.253644
11.726 71.3524 -27.9198 0.375215 0.884618 0.276882
12.7053 70.6385 -26.9533 0.368531 0.889145 0.271304
12.1571 70.2446 -24.9462 0.363374 0.886346 0.286968
10.5607 71.4066 -26.5141 0.375045 0.884666 0.27696
8.83623 72.6883 -28.2626 0.378715 0.885759 0.268339
7.33974 73.788 -29.8349 0.379552 0.889965 0.252791
5.83456 74.8933 -31.4786 0.383745 0.891171 0.241978
4.30607 75.9658 -33.194 0.39134 0.898395 0.199349
3.8897 76.2458 -33.6666 0.391435 0.902237 0.180963
3.51087 75.8562 -31.2889 0.398837 0.885045 0.240049
5.12785 74.6554 -29.5037 0.389424 0.885628 0.253008
6.65754 73.5064 -27.8901 0.38551 0.88339 0.266466
8.37903 72.2096 -26.115 0.383678 0.881006 0.276802
10.0352 70.9659 -24.4748 0.371437 0.881117 0.292691
11.5711 69.8505 -22.9965 0.356369 0.884687 0.30055
10.7296 69.6282 -21.3444 0.356369 0.884685 0.300555
8.92958 70.9417 -23.0106 0.371465 0.876705 0.305617
7.17506 72.2916 -24.7519 0.385869 0.875547 0.290729
5.36779 73.659 -26.5716 0.378901 0.88243 0.278839
3.86009 74.8018 -28.1222 0.388572 0.881775 0.267366
2.82844 75.5963 -29.2319 0.399427 0.875554 0.271777
2.1506 75.2586 -27.1845 0.390049 0.874211 0.289164
3.77914 73.9914 -25.5275 0.369792 0.880753 0.295852
5.42591 72.7491 -23.9052 0.359937 0.87853 0.314053
7.42665 71.2138 -21.9506 0.372318 0.874682 0.31034
9.50927 69.6661 -20.0277 0.353299 0.875117 0.330682
10.1322 69.2128 -19.4557 0.335157 0.886979 0.317706
9.44596 68.819 -17.6251 0.336884 0.884089 0.323875
7.91903 69.9294 -19.0276 0.35134 0.875428 0.331943
6.40385 71.0721 -20.42 0.363111 0.868325 0.33788
4.93448 72.2016 -21.8378 0.354307 0.879364 0.318097
3.11049 73.5761 -23.5754 0.358438 0.873756 0.328744
1.38691 74.925 -25.2556 0.375746 0.869553 0.320458
0.892865 75.3248 -25.7491 0.392341 0.866761 0.307887
-0.396034 75.356 -24.327 0.373942 0.865808 0.332482
1.10525 74.1537 -22.9099 0.362542 0.867199 0.341363
2.61949 72.9716 -21.4959 0.345721 0.870327 0.350725
4.15561 71.7998 -20.0588 0.334054 0.873383 0.354416
5.91599 70.4667 -18.4234 0.329219 0.872624 0.360752
7.43558 69.3481 -17.0505 0.317063 0.883679 0.344357
8.9736 68.266 -15.6686 0.328488 0.886158 0.326834
7.86872 68.1202 -14.2847 0.291347 0.896174 0.334648
5.80496 69.5783 -16.1295 0.295934 0.878846 0.374235
4.19823 70.7487 -17.5687 0.313683 0.875254 0.368149
2.57429 71.9824 -19.0614 0.322295 0.868547 0.376498
0.767023 73.3635 -20.6978 0.329596 0.868445 0.370366
-1.14997 74.8581 -22.4123 0.347448 0.860682 0.372165
-1.68064 75.2921 -22.8886 0.366328 0.851488 0.375197
-3.52904 75.6069 -21.9498 0.350922 0.831062 0.431497
-1.98673 74.3499 -20.6513 0.304784 0.856405 0.416747
-0.413056 73.1761 -19.297 0.296568 0.871349 0.390894
1.33136 71.8694 -17.7737 0.294974 0.873959 0.386245
3.18945 70.4581 -16.1088 0.301281 0.874677 0.379697
4.87548 69.2434 -14.6081 0.291459 0.884075 0.365326
6.42161 68.1858 -13.2179 0.277801 0.893831 0.351985
7.21835 67.6602 -12.4971 0.289427 0.895047 0.339299
6.87193 66.996 -10.4538 0.260835 0.902685 0.342236
4.98948 68.2143 -12.1598 0.277806 0.893829 0.351984
3.24079 69.3557 -13.7195 0.259839 0.883914 0.388817
1.41281 70.6852 -15.3321 0.273891 0.856817 0.436862
-0.174162 71.874 -16.7144 0.242562 0.877548 0.413611
-2.01631 73.1968 -18.272 0.248753 0.860467 0.444655
-3.68729 74.4239 -19.6681 0.266007 0.854379 0.446405
-5.24554 75.6748 -20.9067 0.271052 0.816379 0.509956
-5.83928 76.1591 -21.3632 0.31099 0.797553 0.516908
-8.76155 76.9171 -21.0729 0.239577 0.752335 0.613674
-6.87285 75.4861 -19.8171 0.217347 0.797919 0.562214
-5.21635 74.2378 -18.5517 0.224309 0.83884 0.496016
-3.50979 73.0047 -17.1886 0.232719 0.838064 0.493449
-1.92326 71.8994 -15.8605 0.205756 0.871117 0.445893
-0.231888 70.7233 -14.4287 0.213735 0.864496 0.454933
1.50071 69.5224 -12.9265 0.237094 0.870148 0.432006
3.20985 68.4032 -11.4074 0.236941 0.891459 0.386211
5.0978 67.2177 -9.71251 0.259301 0.90033 0.349528
6.35275 66.4332 -8.57354 0.260831 0.902685 0.34224
6.34493 65.5598 -6.2131 0.242407 0.910099 0.336094
4.73501 66.515 -7.68496 0.225703 0.903768 0.363677
3.06016 67.5308 -9.19563 0.219468 0.906854 0.359791
1.31239 68.5842 -10.7556 0.189816 0.896663 0.399957
-0.531346 69.7527 -12.3741 0.216106 0.880638 0.421634
-2.26649 70.8923 -13.8543 0.159556 0.865334 0.475119
-3.9515 72.0167 -15.2708 0.14985 0.854919 0.496647
-6.02905 73.3707 -16.9426 0.137186 0.828794 0.542476
-7.82496 74.6326 -18.339 0.124726 0.792913 0.596433
-9.52152 75.8262 -19.4708 0.117517 0.767457 0.630238
-10.2041 76.291 -19.8903 0.154661 0.746036 0.647696
-10.2561 74.6844 -17.9343 0.0815529 0.778182 0.622721
-8.46933 73.5123 -16.641 0.109137 0.811964 0.573414
-6.28775 72.1072 -14.9215 0.0744393 0.845916 0.528095
-3.88378 70.6897 -12.9301 0.122504 0.871207 0.475386
-1.89564 69.4741 -11.2376 0.13894 0.886968 0.440436
0.168293 68.2526 -9.43013 0.193566 0.904015 0.381169
1.83741 67.2795 -7.94031 0.184068 0.908505 0.37515
3.46344 66.3717 -6.47962 0.187238 0.915094 0.357133
5.24347 65.3315 -4.85406 0.234967 0.91733 0.321396
5.42115 65.2281 -4.68897 0.234966 0.91733 0.321399
5.38197 64.4076 -2.32186 0.237996 0.917455 0.318801
3.24631 65.6047 -4.30149 0.194409 0.923817 0.329799
1.53436 66.5202 -5.84896 0.166744 0.915394 0.366401
-0.505991 67.5855 -7.67733 0.138528 0.909356 0.392277
-2.46701 68.6554 -9.41633 0.116548 0.905891 0.407158
-4.53885 69.808 -11.1984 0.0781363 0.882746 0.463308
-6.50457 70.8919 -12.8455 0.0935325 0.863252 0.496032
-8.73773 72.1506 -14.6403 0.0532252 0.851051 0.522378
-10.7046 73.3048 -16.1326 0.0594333 0.79623 0.602068
-11.4811 72.2146 -14.5602 -0.0110882 0.818887 0.573848
-9.65082 71.2117 -13.1361 0.0141407 0.843766 0.536525
-7.90235 70.3365 -11.7584 0.0255902 0.869588 0.493115
-6.12972 69.4483 -10.2549 0.0318833 0.886632 0.461375
-3.99858 68.3781 -8.41995 0.0752595 0.901475 0.426238
-2.11654 67.4281 -6.73878 0.0992274 0.918384 0.383048
-0.348068 66.5521 -5.14655 0.129488 0.924146 0.359425
1.33023 65.7121 -3.63868 0.143028 0.933005 0.330219
3.01377 64.8936 -2.10956 0.200223 0.927499 0.315684
4.38874 64.1482 -0.833864 0.236444 0.918885 0.315822
4.41752 63.2981 1.60199 0.226253 0.923265 0.310469
2.52827 64.3163 -0.12139 0.198178 0.927266 0.317651
0.835076 65.1089 -1.65978 0.125213 0.935328 0.330882
-0.938362 65.8784 -3.27372 0.0922839 0.931865 0.350873
-2.60847 66.671 -4.78414 0.0727647 0.927539 0.366574
-4.54806 67.5452 -6.54616 0.044893 0.914946 0.401071
-6.60733 68.4942 -8.35566 0.0376731 0.899647 0.43499
-8.74818 69.4788 -10.1976 -0.01706 0.879136 0.476266
-10.8757 70.4552 -11.9282 -0.0102684 0.839453 0.543335
-12.3719 71.2026 -13.1121 -0.00501765 0.827366 0.56164
-14.2714 70.71 -12.4189 -0.00970607 0.839777 0.542844
-12.3545 69.8099 -10.9001 -0.00684268 0.854739 0.519013
-10.5125 69.0006 -9.38241 -0.0200076 0.881125 0.47246
-8.4684 68.1438 -7.64691 -0.0250918 0.89212 0.451102
-6.20449 67.2155 -5.63315 0.0182708 0.91213 0.409493
-4.17347 66.3577 -3.79365 0.042745 0.931175 0.362058
-1.83149 65.3876 -1.65783 0.0822563 0.940439 0.329862
-0.0413836 64.661 -0.0262483 0.101375 0.940529 0.324236
1.80769 63.8393 1.648 0.164666 0.931943 0.32306
3.88543 62.8062 3.54216 0.195636 0.933638 0.300077
4.13395 62.681 3.76967 0.210831 0.931847 0.295316
4.20653 61.8832 6.26531 0.209241 0.933674 0.29064
2.25717 62.8444 4.49714 0.195836 0.934865 0.296101
0.55 63.6303 2.94516 0.151125 0.943159 0.295993
-1.28425 64.3413 1.26972 0.0669249 0.950417 0.303693
-3.18864 65.0673 -0.46135 0.0486155 0.939701 0.338524
-4.8839 65.6608 -2.00172 0.0272505 0.926332 0.375722
-7.23445 66.5387 -4.14582 -0.00619714 0.93143 0.363869
-9.02624 67.2526 -5.75565 -0.012761 0.910803 0.412645
-10.8753 67.9269 -7.38589 -0.0389568 0.900167 0.4338
-12.6562 68.6518 -8.88013 -0.0290652 0.873506 0.485945
-14.7517 69.5823 -10.5679 -0.00784846 0.85996 0.510301
-16.0765 70.2134 -11.6194 -0.00573552 0.852609 0.522518
-17.2198 69.4454 -10.2681 0.0175175 0.873727 0.486102
-15.1232 68.4422 -8.58744 0.031072 0.868982 0.493867
-13.2994 67.6672 -7.107 -0.0236438 0.882009 0.470638
-11.3741 66.958 -5.42006 -0.0484506 0.902914 0.427083
-9.58532 66.3574 -3.85658 -0.0640155 0.919897 0.386899
-7.79868 65.7713 -2.2211 -0.0206691 0.926542 0.375623
-5.7337 65.0992 -0.341986 -0.00342511 0.940305 0.340315
-4.01662 64.5338 1.2226 0.0210161 0.943662 0.330244
-2.28282 63.9419 2.80603 0.0590388 0.95523 0.289915
-0.410917 63.2582 4.51021 0.0968201 0.946823 0.306841
1.59459 62.3887 6.32236 0.158952 0.940791 0.299412
3.21866 61.6301 7.81383 0.202449 0.93822 0.280637
3.8698 61.3132 8.41857 0.201422 0.939919 0.275645
3.80727 60.6172 10.8263 0.199379 0.942712 0.267474
1.59506 61.6252 8.77478 0.147016 0.948657 0.280064
-0.080776 62.3271 7.23979 0.118554 0.946806 0.299171
-1.86914 63.0441 5.62411 0.0706944 0.950048 0.303992
-3.68395 63.655 3.97848 0.0421514 0.950957 0.306437
-5.61846 64.2278 2.19899 0.00840203 0.945658 0.325053
-7.37986 64.7491 0.577952 -0.0418984 0.940159 0.33815
-9.19078 65.2722 -1.06642 -0.0471867 0.926547 0.373209
-11.3092 65.8833 -3.01465 -0.0640216 0.919897 0.386899
-13.0874 66.4597 -4.5532 -0.0506818 0.906619 0.418896
