-3.59308 63.5199 51.0886 0.248682 -0.950427 -0.184027
-2.47344 63.9097 50.2162 0.12525 -0.988204 -0.0881252
-1.03595 64.1341 49.4921 0.0120276 -0.995841 -0.0900781
0.492203 64.1949 48.6878 -0.077473 -0.994541 -0.0683854
1.80375 64.0659 48.9151 -0.087715 -0.994445 -0.0581846
1.6062 63.9907 50.5975 -0.129216 -0.990314 -0.0508023
1.43696 63.9117 52.0129 -0.110554 -0.989738 -0.0905379
1.18417 63.7301 53.3648 -0.00587255 -0.98073 -0.192766
0.835617 63.4598 55.0098 0.0515134 -0.980459 -0.18125
0.618237 63.1753 56.5006 0.130055 -0.978411 -0.160618
0.613208 62.9346 57.9627 0.132268 -0.977517 -0.164156
0.732907 62.692 59.6261 0.148644 -0.977732 -0.148138
0.750504 62.4541 61.6812 0.135418 -0.986464 -0.0924678
0.680478 62.2702 63.1605 0.0365379 -0.990548 -0.1314
0.740792 61.8907 65.4829 0.176778 -0.96301 -0.20179
0.814917 61.3791 67.4399 0.00287242 -0.948199 -0.315145
0.922777 60.6391 69.3761 -0.00117619 -0.933549 -0.358448
1.11541 60.0396 70.714 -0.0149042 -0.907856 -0.419018
2.63979 58.9081 72.9182 -0.0757454 -0.896949 -0.435598
1.70019 59.5395 71.7719 -0.0729965 -0.87644 -0.474338
0.470814 60.0466 70.7923 -0.10365 -0.935255 -0.338459
-1.30527 60.4808 69.432 0.0852715 -0.954696 -0.285106
-3.07078 60.5107 68.6044 0.169109 -0.946634 -0.274383
-4.63609 60.51 67.4569 0.479062 -0.866361 -0.141131
-4.56133 60.778 66.0655 0.271656 -0.931282 -0.0999341
-3.84044 61.1857 64.4178 0.24026 -0.958575 -0.144306
-3.2582 61.5694 62.6745 0.281924 -0.952322 -0.116621
-2.65353 61.8645 61.4326 0.244586 -0.964848 -0.0961606
-1.58734 62.2651 60.1253 0.216108 -0.96963 -0.109956
-1.21524 62.6028 58.4291 0.134482 -0.976623 -0.167694
-1.31603 62.8787 56.7415 0.132269 -0.977517 -0.164156
-1.52615 63.1803 55.097 0.107914 -0.97277 -0.205116
-2.10119 63.3205 53.6699 0.258967 -0.943139 -0.207353
-2.87369 63.5006 52.028 0.252354 -0.943108 -0.216462
-3.40393 63.4823 51.479 0.254139 -0.943199 -0.213983
-4.32584 63.0179 52.5072 0.231822 -0.940217 -0.249502
-5.22129 62.9893 51.2144 0.316414 -0.938618 -0.137397
-4.54292 63.4742 49.9804 0.275396 -0.941459 -0.186485
-3.26271 63.9219 49.2093 0.163253 -0.969676 -0.174347
-1.79681 64.2285 48.4375 0.0689816 -0.987973 -0.120704
-0.270851 64.3438 47.7448 -0.0458602 -0.986085 -0.136987
1.19536 64.2935 46.596 -0.119566 -0.99036 -0.0585711
2.41095 64.1521 45.7677 -0.154265 -0.984274 -0.0860686
3.39859 64.0533 44.7519 -0.180605 -0.982028 -0.0548019
3.92264 63.9412 44.9702 -0.190255 -0.980171 -0.0553854
3.62981 63.9111 46.9051 -0.15631 -0.986968 -0.0382375
3.28397 63.8827 48.824 -0.156604 -0.986494 -0.0480121
2.97516 63.8213 50.5624 -0.121985 -0.991039 -0.0544168
2.65924 63.7665 51.9972 -0.156402 -0.977581 -0.140782
2.43484 63.5752 53.537 -0.149516 -0.978309 -0.143374
2.19523 63.2731 55.4926 -0.0908645 -0.9881 -0.124106
1.98793 62.994 57.4349 -0.065212 -0.98494 -0.160125
1.99044 62.8406 58.8393 -0.025552 -0.993039 -0.113283
1.96692 62.6556 60.2552 -0.00828106 -0.993193 -0.115044
2.02263 62.4939 61.7052 0.0247381 -0.990953 -0.131907
2.01617 62.2531 63.6321 0.0292393 -0.99248 -0.118867
2.00712 62.0611 65.0008 0.0158988 -0.978782 -0.195454
2.07266 61.4917 67.1126 0.00287416 -0.948199 -0.315146
2.25154 60.7464 69.0925 -0.00444666 -0.934819 -0.355063
2.69548 60.0991 70.4516 -0.0756153 -0.897621 -0.434233
3.36534 59.4698 71.6354 -0.0757454 -0.896949 -0.435598
4.15479 58.8544 72.7653 -0.0757474 -0.896949 -0.435598
4.70037 58.2188 74.0091 -0.0699308 -0.877413 -0.472193
5.13632 57.4433 75.2347 -0.0756259 -0.854546 -0.51384
5.53064 56.6839 76.394 -0.0492938 -0.822352 -0.565936
6.28102 55.987 77.3666 -0.018869 -0.831231 -0.555494
6.98804 54.9906 78.817 -0.0308307 -0.827875 -0.560042
7.99046 53.8376 80.3209 -0.0213976 -0.809852 -0.585986
8.75952 53.029 81.3786 0.00718942 -0.768855 -0.639383
8.58456 52.0016 82.612 0.0304584 -0.7623 -0.64602
6.65827 51.1893 83.3303 0.0665982 -0.730194 -0.679986
5.19216 50.8495 83.4565 0.117229 -0.716537 -0.687628
3.73849 50.5344 83.5335 0.139924 -0.696442 -0.703494
1.7874 50.0771 83.5564 0.151448 -0.681989 -0.715509
0.378223 49.6762 83.5924 0.196183 -0.672906 -0.713095
-1.58358 48.5435 84.0762 0.215897 -0.663504 -0.716279
-3.76621 47.8744 84.0038 0.226404 -0.661013 -0.715404
-5.66008 47.0391 83.9866 0.287439 -0.644979 -0.708057
-7.04793 46.5118 83.8633 0.321952 -0.638696 -0.698859
-8.8052 45.6802 83.8167 0.317415 -0.637642 -0.701891
-10.111 44.9382 83.7763 0.383262 -0.607259 -0.69595
-11.3899 44.1957 83.7199 0.40828 -0.601119 -0.686447
-12.6297 43.3383 83.6062 0.453142 -0.556169 -0.696663
-13.9457 42.2496 83.4386 0.543017 -0.513506 -0.664412
-15.0034 41.2725 83.3293 0.572132 -0.501282 -0.648167
-16.5806 40.0086 82.785 0.60811 -0.477483 -0.634202
-17.8987 38.9798 81.9729 0.740007 -0.425073 -0.517617
-18.8515 38.1995 81.0982 0.798055 -0.345603 -0.489238
-19.6524 37.3765 80.2584 0.850502 -0.333278 -0.403247
-19.6853 37.6294 79.9598 0.878469 -0.312559 -0.361385
-19.0184 38.9839 80.2201 0.837391 -0.318881 -0.44395
-18.374 40.563 80.2125 0.776821 -0.326372 -0.538544
-17.5822 42.2226 80.18 0.640814 -0.37965 -0.66725
-16.8855 43.618 79.9047 0.571151 -0.485118 -0.662153
-15.4777 43.9261 80.8878 0.558603 -0.502718 -0.659726
-13.8751 44.6944 81.6207 0.515193 -0.525467 -0.676605
-12.4657 45.6813 81.8181 0.4138 -0.568386 -0.711115
-10.955 46.4756 82.0454 0.403027 -0.575885 -0.711284
-9.46652 47.0178 82.3022 0.345964 -0.680613 -0.645813
-7.47695 47.9624 82.3709 0.328697 -0.621469 -0.71115
-5.51912 48.9146 82.38 0.280149 -0.633474 -0.721268
-4.21878 49.4854 82.3857 0.248594 -0.64216 -0.724333
-2.72349 49.7568 82.5905 0.225433 -0.662713 -0.714137
-2.03166 50.7834 81.8695 0.218051 -0.646091 -0.731397
-0.410387 51.8841 81.2332 0.169861 -0.685043 -0.708127
0.800853 52.9906 80.4617 0.157659 -0.701077 -0.694751
1.40002 54.1979 79.3071 0.108969 -0.71414 -0.691469
1.91598 55.311 78.2388 0.0726002 -0.736956 -0.670325
2.10024 56.2258 77.1207 0.0102545 -0.774873 -0.632034
2.20151 57.4828 75.4287 -0.0395345 -0.841228 -0.539234
1.73694 58.3991 73.9722 -0.0241138 -0.853167 -0.52108
0.777652 58.9822 72.9436 -0.0729977 -0.876441 -0.474336
-0.321586 59.7716 71.7948 -0.104184 -0.899423 -0.415829
-1.50671 60.0721 70.7197 0.0809497 -0.951374 -0.297212
-3.22435 60.1242 69.8431 0.16911 -0.946635 -0.274381
-4.60186 59.9802 69.0256 0.326284 -0.886133 -0.3291
-6.28123 59.5985 67.8609 0.449878 -0.870782 -0.194285
-6.47919 59.8445 66.0448 0.424886 -0.888179 -0.17477
-5.5382 60.499 65.0432 0.41304 -0.89545 -0.164569
-5.04314 60.9055 63.7951 0.281739 -0.952511 -0.115524
-4.5599 61.2184 62.3943 0.281923 -0.952322 -0.11662
-3.89358 61.6147 60.7857 0.263346 -0.95849 -0.106941
-2.87333 62.0857 59.2103 0.232653 -0.960582 -0.152166
-2.52155 62.4777 57.5023 0.246885 -0.953565 -0.172514
-2.88348 62.7133 55.6408 0.25618 -0.950136 -0.177365
-3.51629 62.8872 53.8734 0.258968 -0.943138 -0.207354
-4.17876 63.0099 52.6741 0.231824 -0.940216 -0.249502
-4.96208 62.5652 53.622 0.305221 -0.91955 -0.235043
-6.24307 62.3272 52.315 0.406026 -0.888349 -0.2138
-7.13001 62.3075 50.7743 0.376183 -0.898796 -0.225059
-6.08513 63.0293 49.74 0.313323 -0.917557 -0.243455
-5.013 63.6049 48.8597 0.253092 -0.934271 -0.246469
-3.80585 64.02 48.1339 0.190349 -0.952658 -0.235282
-2.5839 64.3304 47.5095 0.0633881 -0.967895 -0.237975
-1.03029 64.5439 46.5593 -0.045863 -0.986084 -0.136992
0.571938 64.4805 45.5622 -0.143537 -0.980891 -0.124929
1.74245 64.3572 44.7244 -0.18041 -0.977247 -0.111467
2.79101 64.2596 43.5436 -0.201526 -0.976521 -0.0748361
3.8216 64.1053 42.4661 -0.221897 -0.973053 -0.0626928
4.6928 63.9347 41.3669 -0.229945 -0.972796 -0.0254031
5.57134 63.7656 40.3232 -0.235953 -0.971596 -0.0181149
6.4896 63.5583 39.2439 -0.231626 -0.972748 -0.0105465
7.22105 63.3961 37.9194 -0.238244 -0.971174 0.00204557
7.30753 63.3704 38.7219 -0.234569 -0.971975 -0.012612
7.39788 63.3373 39.6378 -0.232216 -0.972599 -0.0112983
6.8474 63.4498 40.9773 -0.228849 -0.97338 -0.0126317
6.33117 63.5489 42.3825 -0.223994 -0.97443 -0.0176655
5.81771 63.6161 43.9707 -0.205565 -0.978094 -0.0328024
5.28588 63.6343 46.1898 -0.179832 -0.983091 -0.0335523
4.85547 63.6669 47.7646 -0.203502 -0.978121 -0.0432053
4.54002 63.6359 49.4033 -0.178576 -0.982105 -0.0598302
4.36942 63.5772 50.8368 -0.17127 -0.982883 -0.0672571
3.98106 63.5174 52.1967 -0.163205 -0.976842 -0.138362
3.57232 63.3083 54.1577 -0.163227 -0.976869 -0.138146
3.65563 63.1226 55.5742 -0.122409 -0.984758 -0.123562
3.3897 62.9806 56.9466 -0.0780386 -0.98652 -0.142114
3.43639 62.8272 58.3978 -0.101598 -0.989687 -0.100983
3.24812 62.6662 60.1286 -0.053198 -0.991725 -0.104726
3.31326 62.4616 61.9198 -0.104699 -0.988501 -0.109107
3.33045 62.2364 63.6732 -0.129086 -0.983969 -0.123051
3.32855 61.9407 65.233 -0.131572 -0.959828 -0.247829
3.28597 61.5852 66.6328 -0.131598 -0.959811 -0.24788
3.40994 60.9592 68.2687 -0.121846 -0.923016 -0.364959
3.62969 60.4458 69.4711 -0.126317 -0.916466 -0.37965
4.35937 59.8897 70.5705 -0.126318 -0.916458 -0.379669
5.81765 58.8426 72.5381 -0.0642364 -0.900279 -0.430549
6.21774 58.2116 73.7978 -0.0699314 -0.877411 -0.472197
6.77154 57.5213 74.8748 -0.0408065 -0.858989 -0.510366
6.95544 56.7348 76.1584 -0.0740237 -0.839298 -0.538609
7.77912 55.9246 77.3772 -0.0709045 -0.853321 -0.516538
8.54012 55.0917 78.5822 -0.0308343 -0.827856 -0.56007
9.46301 54.0918 79.9482 -0.0055217 -0.815784 -0.57833
10.2765 53.2404 81.1414 0.000833819 -0.79232 -0.608856
10.2344 51.973 82.7079 0.0359618 -0.779851 -0.624931
9.46506 51.2362 83.5915 0.0369818 -0.785421 -0.617857
7.73794 50.4622 84.2613 0.0931269 -0.755123 -0.648935
5.80612 50.0521 84.4164 0.113603 -0.737431 -0.6658
3.98558 49.5944 84.5617 0.149888 -0.716216 -0.681592
2.29446 49.1889 84.5568 0.17515 -0.715946 -0.675828
0.959236 48.7809 84.6055 0.211079 -0.686527 -0.695789
-0.43715 48.0978 84.8586 0.209284 -0.686054 -0.6968
-1.7482 47.4928 85.0174 0.240296 -0.668384 -0.703933
-3.21883 46.9375 85.0426 0.23335 -0.664698 -0.709669
-4.85309 46.1607 85.1221 0.284954 -0.64948 -0.704966
-6.22168 45.7427 84.954 0.304369 -0.644827 -0.700815
-7.54501 45.2379 84.8028 0.323788 -0.64017 -0.696666
-8.83598 44.7412 84.6511 0.365655 -0.614768 -0.698826
-9.92131 43.8949 84.7663 0.411875 -0.61158 -0.675521
-11.6531 42.8405 84.6196 0.444193 -0.572953 -0.688153
-12.8231 42.0686 84.5034 0.491203 -0.547772 -0.677248
-14.2405 40.7755 84.3666 0.559025 -0.533925 -0.634362
-15.539 39.7501 84.0314 0.627498 -0.527987 -0.572255
-16.6249 38.9308 83.5966 0.635271 -0.517968 -0.572694
-18.0053 37.6617 82.9008 0.717382 -0.48107 -0.503919
-19.1374 36.6815 81.9468 0.801928 -0.405582 -0.435291
-20.0355 35.8723 80.8624 0.845694 -0.38998 -0.362412
-20.7656 35.2173 79.6438 0.891536 -0.364154 -0.26787
-21.3923 34.4911 78.5804 0.866048 -0.437903 -0.241252
-22.0349 33.6691 77.3787 0.893751 -0.415976 -0.164538
-22.5983 32.8912 75.9596 0.863544 -0.495448 -0.0939353
-23.0957 32.1901 75.0794 0.836354 -0.544308 -0.0651209
-23.1161 32.2421 74.1163 0.845831 -0.532312 0.0348492
-22.5962 33.0343 75.1165 0.889361 -0.4557 -0.0370668
-22.0283 34.0398 76.2363 0.907017 -0.405379 -0.107225
-21.5343 34.7734 77.1779 0.914278 -0.367733 -0.155488
-20.9434 36.0664 77.9106 0.913385 -0.326794 -0.242763
-20.3234 37.35 78.5988 0.905806 -0.278494 -0.319306
-19.6946 38.7773 79.0937 0.889456 -0.229224 -0.39538
-19.2207 40.0938 79.1939 0.82937 -0.263167 -0.492837
-18.6291 41.8924 79.1874 0.767744 -0.251139 -0.58949
-18.0294 43.3819 79.0909 0.605984 -0.432386 -0.6647
-17.9926 44.4834 78.327 0.595491 -0.479665 -0.644447
-16.7332 44.998 79.0495 0.558034 -0.486407 -0.672314
-15.7102 44.9011 79.9688 0.558403 -0.486453 -0.671975
-14.479 45.3331 80.6427 0.487483 -0.560674 -0.669331
-13.271 46.1383 80.8557 0.455648 -0.618917 -0.639786
-11.9598 46.9566 80.9421 0.400467 -0.67072 -0.624308
-10.2421 47.7249 81.1415 0.36189 -0.653087 -0.664202
-8.9479 48.32 81.3125 0.377927 -0.625497 -0.682587
-7.36104 49.013 81.481 0.346001 -0.636617 -0.689204
-5.7431 49.8697 81.4572 0.294595 -0.640321 -0.709053
-4.47951 50.418 81.4694 0.248595 -0.642159 -0.724334
-3.27786 50.8801 81.4126 0.215588 -0.653403 -0.725663
-2.24928 51.7933 80.8961 0.21571 -0.653231 -0.725781
-0.872436 52.8528 80.2187 0.152999 -0.678978 -0.718039
-0.253095 53.9265 79.3622 0.154078 -0.665014 -0.730764
0.595214 55.0842 78.302 0.0796674 -0.710052 -0.699628
0.857057 56.6797 76.5459 0.00725462 -0.775305 -0.631545
0.607169 57.9298 74.7854 0.0292031 -0.844996 -0.533975
-0.252992 58.6406 73.6068 0.0365514 -0.849064 -0.527024
-1.22701 59.207 72.6614 0.0462235 -0.832038 -0.55279
-2.28095 59.5856 71.6313 0.166645 -0.889886 -0.424655
-3.90999 59.5167 70.7158 0.286456 -0.849963 -0.442161
-5.17006 59.3314 69.9952 0.424955 -0.818193 -0.387264
-6.22489 59.2276 69.0755 0.412726 -0.822322 -0.391719
-8.07409 58.4628 68.405 0.461892 -0.857857 -0.224898
-9.04619 58.4543 66.5186 0.450529 -0.863077 -0.2283
-7.99636 59.1701 65.8402 0.404643 -0.895327 -0.186153
-6.84183 60.0641 64.1372 0.413038 -0.89545 -0.16457
-6.0185 60.6924 62.5297 0.40317 -0.903321 -0.146508
-5.21071 61.1948 60.6636 0.327485 -0.941789 -0.0760755
-4.40499 61.7446 58.8686 0.357986 -0.920446 -0.156922
-3.83046 62.1357 57.5194 0.248182 -0.953676 -0.169999
-4.22315 62.3517 55.7044 0.249478 -0.953787 -0.167484
-4.64874 62.5404 54.0363 0.258968 -0.943138 -0.207354
-4.76079 62.5628 53.8181 0.243437 -0.940004 -0.238482
17.9148 79.407 -28.5217 -0.342978 -0.896594 -0.28014
17.6836 79.0775 -27.2215 -0.346354 -0.892381 -0.289299
17.6633 78.5673 -25.6657 -0.349054 -0.888335 -0.298365
18.2235 78.3844 -25.7717 -0.346717 -0.8884 -0.300869
19.3644 78.2862 -26.804 -0.346591 -0.889647 -0.297327
21.1135 77.9732 -27.9106 -0.344944 -0.891385 -0.294017
22.6692 77.6906 -28.8525 -0.337343 -0.893937 -0.295088
24.0708 77.376 -29.5047 -0.339183 -0.890125 -0.304334
25.2655 77.058 -29.8876 -0.335234 -0.890964 -0.306271
26.6795 76.6689 -30.2971 -0.328072 -0.892704 -0.308946
28.133 76.1908 -30.4591 -0.330411 -0.891321 -0.310429
29.6889 75.6235 -30.4833 -0.326403 -0.890741 -0.316292
31.0926 75.1593 -30.6116 -0.322371 -0.892316 -0.31599
32.3285 74.75 -30.7163 -0.317425 -0.894441 -0.314964
33.7648 74.3059 -30.8901 -0.315432 -0.894063 -0.318046
33.6424 74.8707 -32.3754 -0.314181 -0.895944 -0.313965
33.3997 75.3769 -33.5752 -0.320639 -0.893423 -0.314617
32.8812 76.2767 -35.6193 -0.322286 -0.89388 -0.311624
32.0654 76.9515 -36.7092 -0.322404 -0.893673 -0.312095
30.5351 77.6763 -37.1894 -0.325401 -0.891918 -0.313994
29.2569 78.0877 -37.0428 -0.322865 -0.892589 -0.314711
27.6932 78.4197 -36.4032 -0.317643 -0.895095 -0.312902
26.3704 78.7294 -35.9552 -0.318257 -0.896815 -0.307302
25.0998 79.0495 -35.6055 -0.307078 -0.901127 -0.306062
23.4834 79.4791 -35.1835 -0.311718 -0.902524 -0.297021
21.403 80.1281 -34.9504 -0.318024 -0.904645 -0.283688
20.064 80.5073 -34.6699 -0.323737 -0.904986 -0.276032
19.1643 80.4642 -33.4639 -0.324433 -0.906165 -0.271294
18.8412 80.0451 -31.7091 -0.331736 -0.903237 -0.272175
18.2524 79.6684 -29.7638 -0.341968 -0.897805 -0.277495
18.0676 79.5221 -29.0732 -0.340978 -0.896913 -0.281568
16.88 80.0103 -29.1809 -0.344979 -0.896275 -0.278712
17.2458 80.3658 -30.799 -0.335876 -0.902067 -0.271039
17.5677 80.7357 -32.4377 -0.336152 -0.902811 -0.268206
17.9146 81.0429 -33.8963 -0.322091 -0.908366 -0.266701
18.5298 81.1977 -35.1725 -0.317571 -0.9103 -0.265476
19.9755 80.9266 -35.9416 -0.317058 -0.908759 -0.271271
21.1789 80.6303 -36.3176 -0.310227 -0.907848 -0.282083
22.4566 80.219 -36.3956 -0.306806 -0.90549 -0.293185
23.8618 79.7926 -36.5463 -0.305764 -0.905805 -0.293302
25.3683 79.3839 -36.8594 -0.307078 -0.901127 -0.306062
26.8556 79.0042 -37.2395 -0.311622 -0.897013 -0.313465
28.2062 78.7308 -37.8071 -0.315122 -0.895068 -0.315518
29.5826 78.4785 -38.4824 -0.321543 -0.892576 -0.316097
30.9134 77.9863 -38.4557 -0.325847 -0.891217 -0.315525
32.2281 77.3906 -38.1383 -0.329442 -0.892819 -0.30713
33.3922 76.7075 -37.3835 -0.323307 -0.893628 -0.311291
34.2211 75.8961 -35.9025 -0.317676 -0.895917 -0.310503
34.6621 75.2907 -34.6114 -0.315317 -0.896937 -0.309956
34.8451 74.8047 -33.3814 -0.312853 -0.897188 -0.311707
35.0518 74.2042 -31.8789 -0.31216 -0.896087 -0.315569
35.1531 73.5718 -30.1913 -0.310878 -0.895696 -0.317936
33.9592 73.6235 -29.1611 -0.31017 -0.897487 -0.313548
32.0738 74.3494 -29.3149 -0.321992 -0.89333 -0.313501
30.4271 74.9313 -29.2887 -0.321583 -0.89305 -0.314711
28.7013 75.554 -29.2484 -0.332756 -0.889936 -0.31191
27.2334 76.068 -29.1491 -0.330414 -0.891319 -0.31043
25.5295 76.509 -28.5773 -0.335731 -0.891177 -0.305103
24.2387 76.8852 -28.2559 -0.335729 -0.891178 -0.305103
23.0307 77.1722 -27.7335 -0.342636 -0.889075 -0.303555
21.7121 77.4345 -27.0076 -0.350162 -0.886867 -0.30142
20.5012 77.6135 -26.1329 -0.34738 -0.887806 -0.301874
19.4852 77.7106 -25.248 -0.348024 -0.887319 -0.302561
18.625 77.7077 -24.2519 -0.350565 -0.88463 -0.307462
17.6088 77.7327 -23.1623 -0.351547 -0.88469 -0.306167
16.8161 77.6497 -22.0141 -0.352759 -0.883102 -0.309341
15.8651 77.5037 -20.5071 -0.353072 -0.882545 -0.310565
15.5679 77.018 -18.8033 -0.350862 -0.881886 -0.314913
15.2455 76.7122 -17.595 -0.348722 -0.881639 -0.317963
14.579 76.4412 -16.1246 -0.347938 -0.880591 -0.321712
13.6726 76.318 -14.8289 -0.339683 -0.881697 -0.327449
13.0649 76.0548 -13.4996 -0.337846 -0.880595 -0.332276
12.5493 75.7965 -12.2992 -0.33743 -0.879945 -0.33442
12.2873 75.4516 -11.1378 -0.339729 -0.877262 -0.339109
11.4492 75.2257 -9.72837 -0.337866 -0.87668 -0.342461
11.0782 75.3264 -9.62107 -0.33512 -0.87781 -0.342262
11.2952 75.7226 -10.8521 -0.334203 -0.878958 -0.340204
11.5425 76.0993 -12.0804 -0.337135 -0.879659 -0.335467
12.086 76.4336 -13.5082 -0.337839 -0.880597 -0.332278
12.2873 76.8295 -14.7671 -0.340703 -0.88033 -0.330053
13.0163 77.2292 -16.6126 -0.343176 -0.881565 -0.324149
13.829 77.3893 -17.9254 -0.346994 -0.881809 -0.319387
14.3345 77.6655 -19.2439 -0.35288 -0.881346 -0.314167
14.7891 77.9702 -20.6068 -0.354577 -0.880682 -0.314124
15.2644 78.3044 -22.107 -0.354237 -0.883452 -0.30663
15.711 78.7604 -23.9598 -0.351204 -0.886929 -0.300023
16.3478 79.0028 -25.4215 -0.349392 -0.888394 -0.297795
16.4208 79.4414 -26.8327 -0.346708 -0.892092 -0.289768
16.7276 79.8443 -28.4582 -0.344471 -0.895355 -0.282253
16.8244 79.942 -28.8924 -0.344979 -0.896275 -0.278711
15.651 80.4518 -29.0781 -0.345341 -0.896076 -0.278904
15.3752 80.1659 -27.8277 -0.345604 -0.894438 -0.283794
15.1415 79.828 -26.4896 -0.347368 -0.892098 -0.288959
15.1122 79.4432 -25.287 -0.348964 -0.888635 -0.297578
14.4639 79.118 -23.5444 -0.354653 -0.885484 -0.300233
14.0563 78.7147 -21.8838 -0.35747 -0.882829 -0.30466
13.5045 78.4751 -20.5724 -0.354577 -0.880682 -0.314125
13.1007 78.2083 -19.3762 -0.352959 -0.880492 -0.316471
12.5322 77.8108 -17.6764 -0.345081 -0.880418 -0.325244
11.8012 77.6888 -16.5719 -0.344758 -0.880574 -0.325164
11.3437 77.3886 -15.2872 -0.34139 -0.88076 -0.328199
10.9232 77.0194 -13.8742 -0.339326 -0.879968 -0.332436
10.5772 76.6199 -12.4743 -0.340875 -0.878975 -0.333466
10.1997 76.2518 -11.1462 -0.333973 -0.879643 -0.33866
10.0388 75.7919 -9.79844 -0.335172 -0.878264 -0.341045
9.9264 75.0701 -7.8466 -0.333293 -0.87685 -0.346478
9.7027 74.6391 -6.5569 -0.330806 -0.874845 -0.353853
9.492 73.97 -4.70278 -0.326661 -0.87508 -0.357077
9.21344 73.4806 -3.26692 -0.322867 -0.876039 -0.358194
9.04485 73.0543 -2.07217 -0.318415 -0.876522 -0.361
9.02118 72.5138 -0.739646 -0.318616 -0.876237 -0.361515
8.79943 72.0182 0.630401 -0.312376 -0.875494 -0.368689
8.43863 71.6473 1.82579 -0.301924 -0.876985 -0.373816
8.66469 71.1085 2.95904 -0.304417 -0.884011 -0.354748
8.53787 70.4206 4.77018 -0.300387 -0.884931 -0.355899
8.4567 69.9208 6.08349 -0.292139 -0.890213 -0.349537
8.65374 69.3249 7.44797 -0.297079 -0.890655 -0.344207
8.60643 68.8603 8.66897 -0.297589 -0.885817 -0.356046
9.3985 68.1693 9.82527 -0.285721 -0.898497 -0.333267
9.42898 68.6052 8.64514 -0.284635 -0.89527 -0.342744
9.85958 68.9641 7.34936 -0.29095 -0.892191 -0.345449
9.88133 69.5888 5.73268 -0.295396 -0.889682 -0.348143
10.1441 70.0818 4.25985 -0.299203 -0.885245 -0.356117
10.2736 70.6177 2.8173 -0.299326 -0.885414 -0.355593
10.5355 71.0933 1.40111 -0.312084 -0.880291 -0.357333
10.8832 71.4927 0.114668 -0.314517 -0.880147 -0.355556
11.2727 71.946 -1.34305 -0.319503 -0.877905 -0.356652
11.534 72.3591 -2.59587 -0.321138 -0.878619 -0.35341
11.7982 72.7534 -3.8239 -0.326485 -0.87814 -0.349683
12.0392 73.1883 -5.14243 -0.329046 -0.878346 -0.346753
12.3997 73.6353 -6.60891 -0.334357 -0.875695 -0.348358
12.7073 74.2424 -8.44873 -0.33617 -0.876936 -0.343466
13.2456 74.642 -10.0045 -0.336082 -0.877656 -0.341714
13.7646 75.0522 -11.5786 -0.337122 -0.877597 -0.340839
14.3832 75.3346 -12.9325 -0.339359 -0.880641 -0.330616
14.9554 75.5769 -14.1731 -0.346787 -0.880184 -0.324059
15.6227 75.7218 -15.2839 -0.346564 -0.88083 -0.32254
16.1268 75.9555 -16.4646 -0.347874 -0.881559 -0.319107
16.5898 76.198 -17.6431 -0.349536 -0.879555 -0.322811
16.9999 76.5125 -18.9901 -0.35291 -0.881752 -0.312997
17.5701 76.7255 -20.2343 -0.353073 -0.882546 -0.310561
18.4922 76.8796 -21.7228 -0.351923 -0.883201 -0.310009
19.3927 77.0498 -23.2345 -0.350064 -0.884858 -0.307378
20.4153 77.0719 -24.4612 -0.34956 -0.885087 -0.307294
21.6561 76.9728 -25.5868 -0.349217 -0.885899 -0.305328
23.118 76.6808 -26.3935 -0.342558 -0.889048 -0.303721
24.2834 76.4308 -26.976 -0.342597 -0.889062 -0.303639
25.5704 76.0492 -27.2912 -0.339436 -0.887556 -0.311493
26.8002 75.7195 -27.6919 -0.336718 -0.888556 -0.311577
28.4674 75.1885 -27.9592 -0.332727 -0.889576 -0.312964
29.8254 74.7182 -28.0605 -0.329822 -0.891254 -0.311263
31.667 74.0469 -28.0369 -0.319945 -0.893465 -0.315206
32.9882 73.5025 -27.8333 -0.321472 -0.894658 -0.310231
34.3335 73.0455 -27.8718 -0.311207 -0.89824 -0.310347
35.9288 72.8505 -28.8858 -0.300775 -0.901916 -0.309971
36.4776 73.1072 -30.165 -0.300977 -0.90193 -0.309733
36.5308 73.5126 -31.3753 -0.303452 -0.89888 -0.316119
36.2419 74.1467 -32.8928 -0.312163 -0.896085 -0.315574
36.0559 74.7668 -34.501 -0.310685 -0.898548 -0.309978
35.6837 75.3681 -35.8721 -0.310546 -0.898816 -0.30934
35.1668 76.0322 -37.271 -0.319174 -0.895477 -0.310236
34.4052 76.6833 -38.3741 -0.320692 -0.896442 -0.305856
33.0124 77.5823 -39.5255 -0.326001 -0.893846 -0.307834
31.3077 78.3253 -39.8588 -0.334954 -0.889294 -0.311333
30.0772 78.8517 -40.0233 -0.329468 -0.88855 -0.319158
28.897 79.0965 -39.5222 -0.319435 -0.892535 -0.318344
27.5386 79.2932 -38.721 -0.309512 -0.895436 -0.319896
26.2498 79.5688 -38.2591 -0.302767 -0.900325 -0.312522
24.9597 79.9229 -38.0392 -0.295673 -0.905955 -0.303024
23.5896 80.2706 -37.7256 -0.303097 -0.904667 -0.299517
22.0388 80.7603 -37.6688 -0.301692 -0.910219 -0.283695
20.7754 81.1883 -37.6941 -0.291257 -0.917349 -0.271365
19.0267 81.5539 -36.9771 -0.313308 -0.911881 -0.265163
17.7812 81.7521 -36.1866 -0.312494 -0.914401 -0.257327
16.8553 81.6902 -34.838 -0.316916 -0.913576 -0.254789
16.4306 81.4556 -33.4763 -0.330166 -0.906829 -0.262014
16.1835 81.1387 -32.0738 -0.332778 -0.906032 -0.261445
15.9153 80.7969 -30.5457 -0.346743 -0.89946 -0.265972
15.6758 80.6017 -29.5902 -0.345002 -0.897101 -0.275995
-27.8737 28.4102 67.3469 0.523513 -0.830069 -0.188315
-27.9526 28.1445 68.462 0.543598 -0.824401 -0.157684
-29.0451 27.406 68.5568 0.551511 -0.813293 -0.183177
-30.1266 26.9214 67.8249 0.494346 -0.848602 -0.188406
-29.0934 27.6996 67.1406 0.519751 -0.828694 -0.207359
-28.0624 28.3721 67.0602 0.511645 -0.830857 -0.218563
-27.113 29.0401 66.6851 0.523513 -0.830068 -0.188316
-26.5985 29.1305 67.9937 0.538538 -0.827674 -0.157713
-26.364 29.0889 69.5366 0.584361 -0.803159 -0.115472
-27.3314 28.349 69.7501 0.593036 -0.793375 -0.136513
-28.6302 27.4011 69.7299 0.5695 -0.804188 -0.170152
-30.1318 26.5084 69.5352 0.469374 -0.866535 -0.169722
-31.1769 26.0727 68.8919 0.488575 -0.84681 -0.209141
-31.8406 26.0679 67.7043 0.455655 -0.853337 -0.253365
-31.1552 26.6819 66.7862 0.429406 -0.867968 -0.249483
-29.846 27.5567 66.091 0.461282 -0.843487 -0.27382
-28.5907 28.475 65.529 0.488473 -0.824625 -0.284922
-27.602 28.9419 65.9401 0.50241 -0.835939 -0.220875
-27.4087 28.9892 66.2022 0.502046 -0.836599 -0.219207
-26.5281 29.7027 65.5108 0.487249 -0.842636 -0.22852
-25.9671 29.7278 66.9089 0.509677 -0.849169 -0.138354
-25.5759 29.7988 68.2606 0.559453 -0.822846 -0.0988069
-24.9214 30.1597 69.8263 0.617251 -0.784676 -0.0573086
-24.4634 30.4167 71.3294 0.662065 -0.748256 -0.0422338
-23.8268 31.172 72.6262 0.780441 -0.625039 0.0154361
-24.5859 30.2897 72.1747 0.72867 -0.684767 0.0115533
-25.9844 29.1177 71.4975 0.628696 -0.770502 -0.105112
-27.0709 28.2947 71.1316 0.602491 -0.786321 -0.136765
-28.3469 27.3499 70.943 0.602477 -0.786336 -0.136736
-29.6415 26.51 71.0323 0.523619 -0.834355 -0.172265
-30.8228 25.85 70.659 0.5173 -0.82958 -0.210232
-31.9046 25.3351 70.1138 0.481657 -0.847186 -0.224235
-32.8139 25.1845 68.852 0.463689 -0.843489 -0.271144
-33.3228 25.2828 67.6821 0.433928 -0.855175 -0.283519
-32.8469 26.0886 66.0081 0.402863 -0.864445 -0.300726
-31.8293 26.7614 65.5463 0.377799 -0.843182 -0.382507
-30.8173 27.4165 65.102 0.377883 -0.843166 -0.38246
-29.4795 28.3742 64.4369 0.451024 -0.80887 -0.377236
-28.8115 29.1021 63.6768 0.452104 -0.806783 -0.380399
-28.2064 29.8764 62.7714 0.417875 -0.801593 -0.426443
-27.1558 30.0608 63.5359 0.422127 -0.829117 -0.36657
-26.7752 29.7695 64.7017 0.474414 -0.838165 -0.264298
-26.5887 29.6947 65.4038 0.502777 -0.835279 -0.222541
-16.5915 41.014 82.0176 0.656298 -0.4576 -0.596432
-16.9386 41.943 81.0223 0.660359 -0.418971 -0.623209
-15.8917 42.6286 81.4911 0.579425 -0.468132 -0.667173
-14.0381 43.6156 82.2929 0.529752 -0.504737 -0.681619
-13.899 43.573 82.4362 0.537543 -0.523697 -0.6609
-14.9932 42.5814 82.326 0.572133 -0.50128 -0.648167
-15.7923 41.6037 82.3224 0.601248 -0.489057 -0.63192
7.11176 53.0513 81.2753 0.0483607 -0.75309 -0.656102
5.98804 54.303 79.7148 0.0354814 -0.776639 -0.628946
5.39908 55.1297 78.6635 0.0152175 -0.800609 -0.596315
4.69283 55.8254 77.6307 -0.0289666 -0.817991 -0.57364
3.37338 56.5694 76.7324 -0.00856589 -0.795541 -0.604224
3.20665 55.496 78.0942 0.034631 -0.773377 -0.63264
2.59207 54.0868 79.6097 0.11381 -0.720097 -0.684396
2.0633 52.9055 80.7833 0.118655 -0.726051 -0.677326
1.35052 51.8343 81.7534 0.157659 -0.701078 -0.69475
0.126199 51.0618 82.1906 0.186722 -0.69112 -0.698204
1.54411 50.8748 82.7446 0.168727 -0.681753 -0.71164
3.73167 51.4629 82.5778 0.128404 -0.710896 -0.691476
5.77327 51.9078 82.4527 0.115202 -0.715457 -0.689088
7.03245 52.4261 81.9927 0.0537261 -0.755742 -0.652662
7.29255 52.6991 81.698 0.0537253 -0.755742 -0.652662
-28.4678 37.9191 54.1149 0.481587 -0.481249 -0.732443
-28.3334 38.9477 53.4748 0.538272 -0.470141 -0.69945
-28.3705 40.2421 52.518 0.569378 -0.466827 -0.67667
-28.6784 39.0478 53.142 0.523841 -0.490211 -0.696177
-28.7627 37.8576 53.95 0.51007 -0.50485 -0.696388
-28.6225 37.4353 54.331 0.481588 -0.481249 -0.732443
-17.1926 57.4196 43.9381 0.503076 -0.818851 -0.276402
-17.1192 56.9908 45.2822 0.520531 -0.799447 -0.299886
-16.4917 57.747 44.235 0.490857 -0.826141 -0.276678
-16.2577 58.4229 42.5706 0.473993 -0.838003 -0.269704
-16.4606 58.7949 41.1462 0.462514 -0.840797 -0.281284
-15.8322 59.4717 40.0627 0.438625 -0.853014 -0.281415
-16.6077 59.565 38.7265 0.418196 -0.855294 -0.305916
-16.3409 59.1612 40.242 0.417951 -0.857627 -0.299654
-16.8818 58.4046 41.6027 0.469935 -0.836016 -0.283263
-17.052 57.8723 42.8864 0.475709 -0.826356 -0.30139
-17.0191 57.5755 43.7922 0.503077 -0.81885 -0.276402
-28.4327 32.6953 58.4689 0.405767 -0.661513 -0.629563
-28.5926 33.3969 57.6763 0.425628 -0.625333 -0.654064
-28.8147 34.5147 56.4816 0.420233 -0.605961 -0.674842
-28.6902 35.8383 55.4961 0.44532 -0.550858 -0.705865
-28.7036 36.9374 54.6321 0.473376 -0.525987 -0.706578
-29.3488 36.5658 54.5075 0.444078 -0.554427 -0.703851
-29.3106 35.2836 55.5467 0.431372 -0.566358 -0.702251
-29.5852 33.972 56.5182 0.411368 -0.628506 -0.660119
-29.237 32.9702 57.6692 0.40913 -0.622086 -0.667549
-28.9879 31.9323 58.976 0.392746 -0.691198 -0.606475
-28.7932 31.1629 60.1128 0.413244 -0.721769 -0.555228
-27.8111 31.0591 61.0657 0.423219 -0.763558 -0.487714
-28.0525 31.7681 59.8733 0.403279 -0.734049 -0.546386
-28.4287 32.5655 58.6165 0.392751 -0.691195 -0.606476
-18.7321 55.482 46.4378 0.543779 -0.787097 -0.291143
-19.5719 54.6195 47.1068 0.578108 -0.751819 -0.315623
-18.8327 55.1289 47.1942 0.555799 -0.777453 -0.294121
-18.4838 55.7615 46.1389 0.541545 -0.789582 -0.2886
2.64694 51.9851 81.8394 0.128502 -0.710965 -0.691387
2.45729 52.0627 81.7243 0.128598 -0.711034 -0.691298
3.36905 53.1084 80.7946 0.106767 -0.72778 -0.677449
4.91351 52.453 81.7368 0.102451 -0.734516 -0.670813
5.1576 53.727 80.3791 0.0727618 -0.742839 -0.665504
3.53952 54.4234 79.3762 0.0550339 -0.76967 -0.636065
4.07134 55.5123 78.1086 -0.0289809 -0.818396 -0.573923
3.95586 55.5715 78.038 -0.00857431 -0.79632 -0.604814
-3.28819 60.9464 66.3203 0.197221 -0.962234 -0.187642
-1.70247 60.9304 67.9212 0.138104 -0.953466 -0.268011
-1.12898 60.8255 68.4376 0.124101 -0.936487 -0.328011
-0.548009 61.3654 66.7345 0.15154 -0.966551 -0.206918
-2.49362 61.3961 64.7922 0.198783 -0.964638 -0.173087
-3.09836 61.382 64.1766 0.198782 -0.964638 -0.173087
-2.14019 61.8162 62.8213 0.188544 -0.971159 -0.145947
-0.594484 61.8448 64.3983 0.183188 -0.967822 -0.172517
-0.344519 61.845 64.6473 0.177002 -0.968171 -0.176962
-0.753438 62.1997 61.9048 0.187635 -0.974412 -0.123755
-1.25505 62.1683 61.3911 0.187634 -0.974412 -0.123755
-0.0856198 62.4743 60.2414 0.142091 -0.98251 -0.120353
-0.125195 62.4743 60.2015 0.148644 -0.977732 -0.148139
-0.375444 62.8536 57.6415 0.134482 -0.976623 -0.167694
-0.571994 62.8605 57.4437 0.134482 -0.976623 -0.167694
-0.0357112 63.2245 55.6718 0.119021 -0.975896 -0.182925
-0.371642 63.2575 55.3382 0.107914 -0.97277 -0.205117
0.379464 63.6609 53.7926 0.051598 -0.982029 -0.181541
-1.32859 63.8519 52.1205 0.189711 -0.959907 -0.206367
-2.12903 63.8555 51.3136 0.184682 -0.975273 -0.121387
-0.756363 64.1051 50.3577 0.00187013 -0.999941 -0.0107282
0.77613 63.9974 51.8837 -0.0752019 -0.993626 -0.0839779
19.3577 78.5381 -27.5602 -0.347274 -0.891005 -0.292422
18.6568 79.0464 -28.2881 -0.345011 -0.893086 -0.288731
19.3634 79.2994 -29.939 -0.33927 -0.898497 -0.278567
20.6303 78.3964 -28.6259 -0.344713 -0.891349 -0.294396
20.7885 78.2809 -28.4615 -0.344886 -0.891278 -0.29441
22.0711 78.1366 -29.5198 -0.337341 -0.893936 -0.295091
20.3662 79.3433 -31.2806 -0.33375 -0.898645 -0.284689
20.0348 79.5748 -31.6229 -0.33375 -0.898645 -0.284688
20.3881 80.0761 -33.6335 -0.325145 -0.904795 -0.275003
21.7449 79.142 -32.2358 -0.323548 -0.901446 -0.287598
23.4452 77.9418 -30.4881 -0.335413 -0.89305 -0.299932
25.4358 77.3164 -30.8255 -0.332939 -0.892734 -0.303607
23.9905 78.3494 -32.3047 -0.324101 -0.897078 -0.30035
22.6986 79.2495 -33.6291 -0.323592 -0.899809 -0.292629
22.0341 79.7059 -34.3113 -0.31802 -0.904646 -0.283688
24.0933 79.0589 -34.5712 -0.318243 -0.899784 -0.298512
25.6859 77.942 -32.943 -0.329377 -0.893785 -0.304399
27.3326 76.764 -31.2653 -0.327699 -0.89237 -0.310306
27.3456 76.7546 -31.2521 -0.327881 -0.892538 -0.309627
29.6461 75.9215 -31.2812 -0.326905 -0.89143 -0.313824
27.9085 77.1723 -33.0477 -0.326001 -0.892746 -0.31101
26.6424 78.0749 -34.3366 -0.320451 -0.894647 -0.311318
26.2526 78.3526 -34.7334 -0.31935 -0.895735 -0.309312
27.6925 78.1499 -35.6308 -0.31803 -0.89471 -0.313609
29.4257 76.9106 -33.8701 -0.323864 -0.892343 -0.314383
30.778 75.9375 -32.4987 -0.321775 -0.892856 -0.315071
31.4051 75.487 -31.8618 -0.320674 -0.892938 -0.315958
32.2023 75.7484 -33.4097 -0.32064 -0.893424 -0.314618
30.9045 76.6768 -34.7275 -0.323357 -0.89242 -0.314684
29.49 77.6946 -36.1653 -0.322502 -0.893027 -0.31384
