-4.05292 63.9729 50.9715 0.216486 -0.96081 -0.173096
-3.03719 64.3125 50.3686 0.219745 -0.960487 -0.170811
-1.96986 64.5297 49.893 0.111404 -0.988235 -0.104791
-0.551579 64.6939 49.2575 0.0115208 -0.992865 -0.11869
0.642394 64.7326 48.6824 -0.064546 -0.992158 -0.107031
1.89033 64.61 48.7357 -0.115902 -0.988762 -0.0944267
2.38303 64.4972 49.3123 -0.120995 -0.989306 -0.0799941
2.18325 64.3948 51.184 -0.127999 -0.989375 -0.0689375
2.10228 64.2991 52.3048 -0.107551 -0.987487 -0.115337
1.75292 64.0841 53.96 -0.118964 -0.974239 -0.19159
1.49544 63.8568 55.5376 -0.0910852 -0.986489 -0.135495
1.42654 63.6697 56.8418 -0.0822587 -0.985889 -0.145799
1.39461 63.4853 58.3981 -0.0596296 -0.991169 -0.117413
1.31916 63.1643 59.9836 -0.0129671 -0.967853 -0.248765
1.29912 62.8686 61.2737 -0.00117403 -0.981658 -0.18665
1.3075 62.6391 62.785 -0.0120044 -0.988612 -0.15001
1.51561 62.4076 64.3796 0.011055 -0.987263 -0.156679
1.62059 62.1854 65.6021 0.0139193 -0.983925 -0.177946
1.59174 61.9572 66.8808 0.0168411 -0.977291 -0.208376
1.5648 61.5295 68.2939 -0.0547898 -0.938186 -0.341768
1.6561 61.1182 69.4084 -0.0547909 -0.938186 -0.341769
2.12984 60.645 70.667 -0.0851748 -0.924195 -0.367907
2.8997 60.01 71.9427 -0.0638936 -0.913455 -0.401892
3.63948 59.2761 73.493 -0.0666954 -0.918122 -0.39044
4.29908 58.468 74.7611 -0.0677534 -0.849681 -0.522926
3.00729 58.0252 75.6479 -0.112119 -0.832727 -0.539864
2.59591 59.0221 74.303 -0.112989 -0.869279 -0.467896
1.70287 59.5675 73.1387 -0.0666938 -0.918123 -0.390437
1.04183 60.1146 72.0769 -0.101699 -0.9027 -0.41808
0.12596 60.5784 71.2983 -0.0851725 -0.924196 -0.367907
-0.829706 60.801 70.5279 0.10371 -0.941356 -0.321081
-1.87362 60.9001 69.9003 0.109429 -0.943589 -0.312332
-2.8983 60.9532 69.3463 0.140552 -0.941698 -0.30461
-4.12677 60.94 68.7195 0.10992 -0.922796 -0.360544
-5.18138 61.0167 68.0648 0.42038 -0.829262 -0.31276
-5.30581 61.1957 66.4786 0.302173 -0.92608 -0.0664462
-4.54429 61.5099 65.1428 0.252124 -0.962628 -0.0988995
-3.96995 61.766 64.1144 0.252124 -0.962628 -0.0989006
-3.31767 62.0387 62.9496 0.241167 -0.96641 -0.0888249
-2.77932 62.378 61.6477 0.246801 -0.956981 -0.152567
-2.43601 62.602 60.4611 0.153586 -0.973813 -0.159544
-2.18497 62.8871 59.2261 0.231378 -0.962806 -0.13953
-1.92647 63.2046 57.6062 0.241479 -0.956003 -0.166571
-1.96416 63.4414 56.1929 0.242765 -0.956032 -0.164503
-2.14509 63.6387 54.7845 0.246455 -0.954746 -0.166496
-2.6722 63.7164 53.5584 0.240763 -0.950356 -0.194928
-3.1618 63.8433 52.5059 0.231284 -0.948679 -0.215479
-3.77786 63.885 51.6591 0.204606 -0.957211 -0.204656
-4.47588 63.5304 52.5375 0.209875 -0.946021 -0.246975
-5.32285 63.4936 51.5015 0.302221 -0.944291 -0.130295
-4.99423 63.8261 50.3188 0.301215 -0.927022 -0.223381
-4.00239 64.2133 49.7156 0.213238 -0.961128 -0.175392
-2.78563 64.5522 49.1448 0.102157 -0.976863 -0.187691
-1.64746 64.7591 48.7173 0.0537971 -0.984479 -0.15507
-0.0626339 64.8604 47.912 0.00503211 -0.992342 -0.123163
1.69053 64.7799 47.202 -0.0986507 -0.99087 -0.0901378
2.49536 64.6934 46.3874 -0.170555 -0.983983 -0.0518601
3.05547 64.6624 45.328 -0.196352 -0.978076 -0.0678984
4.54498 64.4196 44.1239 -0.200883 -0.978038 -0.0544766
4.25701 64.4026 45.6489 -0.192813 -0.980093 -0.0473408
4.25842 64.3544 46.7868 -0.194493 -0.980108 -0.0394984
3.76021 64.3559 48.383 -0.16951 -0.983096 -0.0691058
3.48667 64.3222 49.515 -0.172494 -0.982438 -0.0711362
3.26589 64.2412 51.1743 -0.161211 -0.984247 -0.0725842
3.00258 64.0863 52.9219 -0.154385 -0.977061 -0.146374
2.71494 63.8733 54.4344 -0.109437 -0.980664 -0.158393
2.65697 63.7182 55.7033 -0.0999132 -0.987088 -0.125196
2.64897 63.5512 56.9531 -0.0768013 -0.988782 -0.126491
2.58012 63.436 58.065 -0.0713433 -0.991676 -0.107184
2.43304 63.3099 59.2404 -0.108784 -0.986792 -0.120031
2.50844 63.0587 60.4958 0.0096562 -0.974705 -0.223288
2.41505 62.8067 61.5918 -0.00117355 -0.981658 -0.18665
2.43269 62.6161 62.8465 -0.00444454 -0.989866 -0.141472
2.60668 62.4063 64.4148 0.0031139 -0.99112 -0.132931
2.76573 62.1359 65.9921 0.0189954 -0.983405 -0.180428
2.66883 61.8745 67.202 -0.0126749 -0.934897 -0.354529
2.70925 61.3622 68.5917 -0.0174358 -0.938285 -0.345424
3.05761 60.7923 70.1221 -0.0524342 -0.924182 -0.375265
3.77712 60.1254 71.5036 -0.0899357 -0.916268 -0.390338
4.55422 59.3914 73.0474 -0.0899339 -0.916269 -0.390337
5.36305 58.3478 74.8138 -0.0877339 -0.855477 -0.510354
5.76866 57.497 76.1483 -0.054509 -0.818078 -0.569584
6.33061 56.9177 76.9298 -0.00853131 -0.824981 -0.564996
7.2951 55.8003 78.5245 -0.0191151 -0.8242 -0.565975
7.80297 54.8173 79.8441 -0.0240528 -0.800172 -0.599288
8.86082 53.9592 81.003 -0.000139278 -0.810639 -0.585546
9.34744 52.9292 82.2527 0.0304529 -0.764872 -0.643342
8.73878 52.2142 83.0804 0.0392773 -0.770361 -0.636397
7.58049 51.6593 83.5807 0.086974 -0.747026 -0.659081
6.53984 51.2926 83.875 0.0873279 -0.722436 -0.685376
5.31738 51.0568 83.9201 0.112341 -0.714319 -0.690744
4.19658 50.7631 84.0453 0.11357 -0.733448 -0.670191
2.76225 50.3394 84.1624 0.140049 -0.681202 -0.718575
1.43815 49.9566 84.2671 0.159011 -0.680471 -0.715054
0.0562059 49.4767 84.3593 0.192364 -0.666397 -0.720355
-1.27418 48.9923 84.4522 0.203937 -0.664988 -0.718374
-2.52187 48.7217 84.3294 0.213523 -0.668455 -0.712444
-4.46996 47.8438 84.5011 0.252686 -0.647329 -0.719107
-6.02706 47.1918 84.5292 0.273677 -0.642921 -0.715227
-7.07244 46.7264 84.5248 0.289799 -0.629597 -0.720794
-8.37763 46.266 84.3779 0.320883 -0.612768 -0.722079
-9.41366 45.7407 84.3472 0.332071 -0.612973 -0.716933
-10.9587 44.6917 84.3475 0.427274 -0.569534 -0.702186
-12.1328 43.9157 84.2593 0.440051 -0.567137 -0.696082
-13.3393 43.0465 84.1916 0.486685 -0.512955 -0.703636
-14.5655 41.9628 84.0087 0.561176 -0.501407 -0.658538
-15.4542 41.2127 83.8225 0.58425 -0.490954 -0.645606
-16.7911 40.2235 83.2686 0.614535 -0.468421 -0.634767
-17.639 39.5919 82.7767 0.697898 -0.434574 -0.569283
-18.4956 39.0233 82.0881 0.775845 -0.395106 -0.49189
-19.2079 38.4219 81.4475 0.762181 -0.37517 -0.525915
-20.0293 37.611 80.5423 0.854578 -0.315275 -0.408776
-20.035 38.0043 80.1939 0.881417 -0.30596 -0.35985
-19.4937 39.0781 80.5039 0.839066 -0.295857 -0.456548
-18.9427 40.2343 80.6523 0.752959 -0.345771 -0.559808
-18.2876 41.593 80.7223 0.713589 -0.363095 -0.595828
-17.7712 42.7293 80.5702 0.636233 -0.367658 -0.678259
-17.3284 43.8427 80.2411 0.563584 -0.474545 -0.676151
-15.9485 44.375 81.0114 0.550577 -0.503739 -0.665666
-14.6855 44.8703 81.6743 0.520354 -0.530723 -0.668157
-13.2261 45.711 82.0666 0.475615 -0.561626 -0.67649
-12.2474 46.3474 82.1563 0.437403 -0.583878 -0.683933
-11.3226 47.1313 82.0816 0.44033 -0.57894 -0.685474
-10.2928 47.7966 82.1313 0.412772 -0.583202 -0.699636
-9.12159 48.3002 82.3157 0.328569 -0.590151 -0.737403
-8.04402 48.7769 82.3503 0.273561 -0.631615 -0.725416
-6.69483 49.4596 82.2655 0.274177 -0.631183 -0.725559
-5.14171 49.9393 82.4017 0.248607 -0.642121 -0.725173
-2.75733 50.7984 82.3617 0.204783 -0.653104 -0.729054
-1.88897 51.5696 81.9041 0.201263 -0.66067 -0.723193
-0.675637 52.5693 81.258 0.164205 -0.67539 -0.718948
0.156964 53.5873 80.4586 0.129476 -0.705689 -0.695868
0.809447 54.4231 79.6855 0.100275 -0.716692 -0.690143
1.22711 55.1545 78.9361 0.0946569 -0.743853 -0.661607
1.71587 56.1761 77.8244 0.059972 -0.743015 -0.666583
1.89829 57.5556 76.2005 0.0184527 -0.771054 -0.636281
1.72405 58.2752 75.3509 0.00959024 -0.762093 -0.647397
0.995736 59.1317 73.9871 0.0665466 -0.887331 -0.456306
0.353873 59.5491 73.1132 0.0478158 -0.868392 -0.492258
-0.330813 60.0245 72.282 0.0447061 -0.85087 -0.52347
-1.28851 60.3321 71.5032 0.154419 -0.878825 -0.451465
-2.74499 60.5533 70.5746 0.215473 -0.856123 -0.464973
-3.73141 60.5619 69.9355 0.267614 -0.874046 -0.405495
-4.78463 60.4886 69.3755 0.325605 -0.870167 -0.369852
-6.09821 60.4025 68.4215 0.335596 -0.835277 -0.429851
-7.15037 60.0756 67.289 0.456906 -0.876071 -0.154067
-6.51766 60.5484 66.4767 0.456906 -0.876071 -0.154066
-5.95714 60.9858 65.5387 0.439066 -0.892516 -0.0967485
-5.4161 61.3194 64.4706 0.417922 -0.905693 -0.0711419
-4.60755 61.7009 63.1219 0.246646 -0.964519 -0.0938626
-3.94736 62.0808 61.6224 0.246801 -0.956981 -0.152567
-3.50535 62.3536 60.363 0.317551 -0.944626 -0.0827219
-3.23009 62.6675 59.0083 0.231377 -0.962806 -0.13953
-2.93091 62.9014 57.8907 0.236428 -0.959405 -0.153051
-2.90238 63.1033 56.773 0.242766 -0.956032 -0.164506
-3.26193 63.3103 55.0144 0.245254 -0.955403 -0.164466
-3.72481 63.4161 53.7227 0.240762 -0.950355 -0.194932
-4.21363 63.5196 52.8018 0.209874 -0.946022 -0.246973
-4.94815 63.1788 53.4827 0.282728 -0.926399 -0.236753
-6.13321 62.988 52.3008 0.391166 -0.893732 -0.218566
-7.25271 62.7664 51.1683 0.379265 -0.90164 -0.207855
-6.47301 63.3402 50.3436 0.373434 -0.879581 -0.29476
-5.64597 63.8243 49.5643 0.275387 -0.92839 -0.249508
-4.50134 64.3517 48.8505 0.180211 -0.942291 -0.282155
-3.52217 64.6422 48.3779 0.0994008 -0.938579 -0.324714
-2.22684 64.8972 47.9025 0.018268 -0.945714 -0.319882
-0.896056 65.0067 47.2391 -0.00907292 -0.979004 -0.20364
0.182278 65.014 46.6016 -0.118807 -0.983491 -0.136496
1.22788 64.9482 46.1429 -0.193967 -0.979029 -0.0622815
2.2688 64.855 44.7326 -0.183761 -0.980168 -0.0741845
3.25432 64.7084 43.9258 -0.208942 -0.975926 -0.0625316
4.20564 64.5447 43.3107 -0.228596 -0.972077 -0.0458036
4.81894 64.4324 42.2896 -0.232535 -0.972424 -0.0178593
5.86521 64.2048 41.0327 -0.237897 -0.971199 -0.00848119
6.5248 64.0539 39.9613 -0.234851 -0.971979 -0.0100496
7.38599 63.8534 39.1696 -0.246486 -0.969103 0.00917219
7.12581 63.9047 40.4158 -0.232591 -0.972521 -0.0102212
6.33179 64.0884 41.2785 -0.237897 -0.971199 -0.00848114
6.50432 64.0243 42.4562 -0.236366 -0.971445 -0.0206146
6.24158 64.0604 43.632 -0.22879 -0.973086 -0.0275517
5.78469 64.1079 45.0995 -0.221868 -0.974378 -0.0369009
5.5319 64.1244 46.1964 -0.211924 -0.976401 -0.0405767
5.20378 64.1174 47.7267 -0.204819 -0.977654 -0.0473321
4.78559 64.1001 49.4329 -0.172492 -0.982437 -0.0711553
4.5891 64.0587 50.6152 -0.180323 -0.981062 -0.0698118
4.27124 64.0029 51.9199 -0.173612 -0.980623 -0.0907599
4.03078 63.8302 53.4906 -0.163564 -0.976004 -0.143745
3.72636 63.7347 54.6362 -0.124427 -0.983955 -0.127867
3.79805 63.5259 56.1739 -0.12452 -0.983951 -0.127811
3.84326 63.3524 57.6032 -0.119648 -0.986651 -0.110477
3.6856 63.2319 58.7469 -0.108796 -0.986776 -0.120154
3.57056 63.0055 60.2987 -0.111896 -0.980391 -0.162215
3.50031 62.7529 61.8739 -0.0511203 -0.977547 -0.192753
3.58984 62.5328 63.4947 0.00311429 -0.99112 -0.132933
3.85091 62.3123 65.0699 -0.128894 -0.982373 -0.134547
3.84369 62.1072 66.4696 0.0547129 -0.986399 -0.154998
3.91229 61.6438 67.7658 -0.0126764 -0.9349 -0.354521
4.07365 61.1499 69.0993 -0.0524326 -0.924184 -0.375261
4.30367 60.645 70.184 -0.0874257 -0.910093 -0.405078
5.28283 59.8546 71.7922 -0.0899339 -0.916269 -0.390337
5.68279 59.3648 72.8281 -0.100352 -0.911896 -0.397964
6.38673 58.9055 73.7029 -0.0940627 -0.883682 -0.454165
6.62582 58.2292 74.7954 -0.087734 -0.855477 -0.510354
6.93009 57.5653 75.8988 -0.0256451 -0.870364 -0.491741
7.38739 56.9781 76.791 -0.0573434 -0.846163 -0.52983
8.71389 55.6478 78.6986 -0.0215826 -0.812187 -0.582631
9.5257 54.5652 80.1638 -0.00014222 -0.81064 -0.585545
10.1419 53.9663 80.9928 -0.00284717 -0.811096 -0.5849
10.5754 52.8977 82.3652 0.0222026 -0.7726 -0.634505
10.0748 52.0703 83.3371 0.0392772 -0.770361 -0.636397
9.01962 51.3417 84.1054 0.0477329 -0.753541 -0.655665
7.85943 50.9658 84.4035 0.0869755 -0.747026 -0.659081
6.84011 50.6507 84.6086 0.0994697 -0.732377 -0.673594
5.58288 50.4105 84.666 0.113479 -0.73353 -0.670117
4.56881 50.0986 84.8146 0.139965 -0.714482 -0.685511
3.43779 49.7543 84.9214 0.166989 -0.713325 -0.680648
2.29951 49.4248 84.9869 0.167331 -0.713393 -0.680493
1.10716 49.0195 85.0834 0.197583 -0.688138 -0.698159
-0.40084 48.4808 85.189 0.196893 -0.688011 -0.69848
-1.63222 48.0476 85.2324 0.223293 -0.671961 -0.706122
-2.90349 47.5079 85.3539 0.233107 -0.65789 -0.715777
-3.96884 47.0647 85.3785 0.252688 -0.647328 -0.719107
-5.30061 46.5834 85.3438 0.253144 -0.658047 -0.708996
-6.66955 46.0297 85.2894 0.296638 -0.635511 -0.712834
-7.99109 45.5532 85.1452 0.316362 -0.62834 -0.710707
-9.25476 44.8881 85.1118 0.374341 -0.600585 -0.706517
-10.3011 44.3082 85.0504 0.386357 -0.58848 -0.710011
-11.7146 43.375 84.9585 0.430637 -0.575114 -0.695554
-12.9719 42.5372 84.8186 0.472154 -0.562157 -0.679007
-13.8888 41.7135 84.7919 0.568724 -0.50979 -0.645497
-14.756 40.8834 84.6835 0.568697 -0.509793 -0.645519
-15.6462 40.2419 84.4116 0.619159 -0.515196 -0.592334
-16.7612 39.3638 83.9744 0.632347 -0.514843 -0.578856
-17.6362 38.6836 83.4926 0.716177 -0.473771 -0.512477
-18.4926 38.0201 82.8985 0.771706 -0.403023 -0.491896
-19.2072 37.3031 82.3825 0.767571 -0.410941 -0.491897
-19.8679 36.7552 81.6451 0.837402 -0.381299 -0.391597
-20.5104 36.1896 80.8333 0.850908 -0.384869 -0.355207
-21.3495 35.448 79.3732 0.878295 -0.380228 -0.28882
-22.0615 34.6123 78.4675 0.877857 -0.428906 -0.204749
-22.7129 33.718 77.0247 0.902363 -0.400471 -0.159258
-22.5237 34.1459 76.6099 0.903873 -0.427504 -0.0159482
-22.0201 35.1862 77.2594 0.903142 -0.413927 -0.08762
-21.4327 36.0914 78.0449 0.901572 -0.364802 -0.232567
-20.7973 37.2811 78.8392 0.912916 -0.262905 -0.302865
-20.2352 38.5701 79.3845 0.871231 -0.227097 -0.435181
-19.5447 40.0603 79.8411 0.811407 -0.283259 -0.511257
-19.1665 41.1527 79.8518 0.737146 -0.317948 -0.596259
-18.5854 42.2855 80.0438 0.766811 -0.206646 -0.607699
-18.2032 43.5334 79.7291 0.599908 -0.421101 -0.677206
-18.3095 44.4543 78.9994 0.590005 -0.465506 -0.658849
-17.4831 45.3174 79.0781 0.553468 -0.483833 -0.677923
-16.6126 45.0389 79.9875 0.552134 -0.484065 -0.678843
-15.6275 45.3943 80.5323 0.550698 -0.48431 -0.679835
-14.5878 45.7314 81.0305 0.498581 -0.553392 -0.667214
-13.3179 46.64 81.1675 0.460402 -0.600444 -0.653833
-12.4054 47.3097 81.1727 0.456052 -0.589217 -0.666624
-11.1644 48.118 81.3499 0.440326 -0.578943 -0.685475
-9.61332 48.886 81.6277 0.371377 -0.585991 -0.718675
-8.07297 49.5759 81.6437 0.279677 -0.631815 -0.722873
-6.62466 50.2809 81.5657 0.273524 -0.644249 -0.714233
-5.31226 50.788 81.5867 0.26085 -0.651897 -0.712031
-3.83257 51.2464 81.6584 0.20304 -0.656884 -0.726121
-2.83395 51.9459 81.2973 0.201312 -0.660643 -0.723205
-1.68281 52.9924 80.6305 0.164211 -0.675371 -0.718963
-0.930068 53.8058 79.9964 0.158676 -0.694683 -0.701596
-0.209399 54.6036 79.35 0.0974661 -0.730272 -0.675875
0.330067 55.4197 78.5192 0.0721258 -0.73085 -0.678717
0.697041 56.1569 77.7517 0.0657435 -0.742459 -0.666658
0.821546 57.1123 76.6998 0.0794675 -0.75685 -0.64817
0.657071 57.9547 75.6987 0.107866 -0.750934 -0.651508
0.327182 58.604 74.8677 0.154026 -0.807659 -0.569177
-0.365395 59.0124 74.0651 0.0509321 -0.885913 -0.461047
-1.0679 59.4288 73.1874 0.0478178 -0.868391 -0.49226
-2.07752 59.7845 72.2994 0.215473 -0.856123 -0.464973
-3.08818 59.8556 71.5915 0.276514 -0.833424 -0.478481
-4.39798 59.9906 70.6113 0.271875 -0.832148 -0.483336
-5.36176 59.9395 70.0459 0.412544 -0.807084 -0.422401
-6.2658 59.8477 69.3384 0.412527 -0.807062 -0.422459
-7.30801 59.6415 68.6581 0.433213 -0.80186 -0.411517
-8.35973 59.2926 67.8994 0.47046 -0.865183 -0.173538
-8.54627 59.3922 66.9026 0.467686 -0.866584 -0.174074
-7.59661 60.0905 65.8065 0.460219 -0.879331 -0.122374
-6.91919 60.5643 64.9495 0.460207 -0.87934 -0.122351
-6.16562 61.0314 63.734 0.417922 -0.905693 -0.0711419
-5.54931 61.3893 62.7971 0.410396 -0.906504 -0.0957307
-5.24698 61.6431 61.7815 0.318347 -0.944298 -0.0834019
-4.7405 61.938 60.3675 0.317548 -0.944626 -0.0827301
-4.50702 62.1666 59.2736 0.345388 -0.921601 -0.177084
-3.89881 62.6948 57.7109 0.28839 -0.9422 -0.158313
-4.09922 62.9413 55.9285 0.244054 -0.95606 -0.162438
-4.51286 63.1269 54.2148 0.245252 -0.955403 -0.164467
-4.73703 63.1789 53.6618 0.222474 -0.945992 -0.235171
26.3316 79.3788 -35.929 -0.31319 -0.897303 -0.311002
25.1653 79.6835 -35.6563 -0.312926 -0.898624 -0.307432
24.1237 79.9794 -35.4399 -0.312275 -0.901241 -0.300301
22.6818 80.4079 -35.2527 -0.30832 -0.904138 -0.295759
21.4668 80.785 -35.0943 -0.315472 -0.905203 -0.284724
20.5145 81.0099 -34.7661 -0.311839 -0.906869 -0.283451
19.585 81.111 -34.026 -0.32429 -0.904281 -0.277683
19.1525 80.9882 -33.1142 -0.32535 -0.904203 -0.276703
18.896 80.7608 -32.072 -0.325367 -0.904018 -0.277287
18.7275 80.4564 -30.9001 -0.335916 -0.897567 -0.285534
18.3418 80.3003 -29.9362 -0.340854 -0.897253 -0.280635
18.1025 80.0429 -28.8227 -0.34191 -0.895083 -0.286159
18.0409 79.6601 -27.576 -0.343317 -0.893074 -0.290778
17.6144 79.3657 -26.1844 -0.349222 -0.888203 -0.298562
17.4072 78.9507 -24.7143 -0.350166 -0.886755 -0.301744
17.3499 78.6211 -23.6783 -0.351498 -0.885574 -0.303641
18.0339 78.6424 -24.5319 -0.347715 -0.887686 -0.301841
18.7348 78.6257 -25.2903 -0.347532 -0.887502 -0.30259
19.6037 78.5804 -26.1576 -0.348218 -0.887502 -0.301802
21.0311 78.3134 -27.0115 -0.347068 -0.888245 -0.300941
22.3092 78.1224 -27.9031 -0.341722 -0.888859 -0.305216
23.7529 77.8386 -28.6931 -0.342279 -0.888566 -0.305443
25.1496 77.4413 -29.0721 -0.336307 -0.889604 -0.309035
26.4679 77.0603 -29.41 -0.33286 -0.890574 -0.309948
27.7025 76.6899 -29.6558 -0.329413 -0.891545 -0.310862
28.8767 76.3198 -29.8475 -0.332637 -0.888823 -0.315193
29.8208 75.9523 -29.8034 -0.328185 -0.888631 -0.320359
30.7655 75.5621 -29.689 -0.32461 -0.889767 -0.320826
31.7102 75.2015 -29.6309 -0.316883 -0.894261 -0.31604
33.1719 74.667 -29.5931 -0.317404 -0.89328 -0.318259
34.3547 74.364 -29.9071 -0.313791 -0.893654 -0.320808
34.5924 74.8021 -31.3576 -0.31299 -0.894365 -0.319601
34.4479 75.252 -32.4817 -0.310843 -0.895385 -0.318845
34.2524 75.6711 -33.4681 -0.311712 -0.896311 -0.315354
33.9511 76.2361 -34.7758 -0.316066 -0.894682 -0.31567
33.4956 76.8291 -35.9928 -0.32148 -0.892766 -0.315624
32.954 77.3222 -36.8349 -0.321551 -0.892656 -0.315864
31.6248 77.9753 -37.318 -0.325226 -0.890653 -0.317745
30.6467 78.3927 -37.4837 -0.324279 -0.890433 -0.319328
29.2955 78.7264 -37.0479 -0.323159 -0.890909 -0.319139
28.3754 78.884 -36.5708 -0.319124 -0.892777 -0.317976
27.1743 79.1507 -36.1313 -0.311914 -0.895125 -0.318529
27.0047 79.1981 -36.0984 -0.315361 -0.895085 -0.315195
27.1424 79.4776 -37.0177 -0.312803 -0.893902 -0.321083
28.3545 79.2299 -37.5174 -0.318378 -0.891986 -0.320927
29.2369 79.091 -38.0063 -0.32041 -0.891802 -0.319404
30.6423 78.7926 -38.5944 -0.324281 -0.89043 -0.319333
31.5915 78.3952 -38.4581 -0.331776 -0.890794 -0.310501
32.5314 77.9715 -38.2469 -0.328377 -0.891866 -0.311016
33.5354 77.4667 -37.8419 -0.323515 -0.894175 -0.309498
34.2205 76.9432 -37.0539 -0.319272 -0.893756 -0.315065
34.7426 76.3574 -35.9141 -0.317797 -0.895024 -0.31295
35.1143 75.8383 -34.8129 -0.314321 -0.895961 -0.313765
35.4346 75.2811 -33.5309 -0.312583 -0.897236 -0.311863
35.5768 74.8023 -32.3194 -0.310843 -0.895385 -0.318845
35.7779 74.2666 -31.0111 -0.310848 -0.895381 -0.318851
35.6644 73.8923 -29.8528 -0.308132 -0.897289 -0.316112
35.079 73.7614 -28.9105 -0.30811 -0.89729 -0.316132
33.7426 74.1068 -28.5886 -0.308802 -0.897766 -0.314091
32.3866 74.5922 -28.5852 -0.318836 -0.893537 -0.316118
30.8121 75.1695 -28.6394 -0.323641 -0.892556 -0.313933
29.8386 75.5456 -28.6778 -0.332149 -0.888984 -0.315253
28.5911 75.999 -28.6411 -0.333119 -0.888666 -0.315126
26.6337 76.6224 -28.3296 -0.331267 -0.890105 -0.312995
25.4952 76.9516 -28.0397 -0.336123 -0.889443 -0.309697
24.4912 77.2593 -27.8337 -0.336123 -0.889444 -0.309694
23.2549 77.5287 -27.234 -0.342835 -0.888271 -0.305676
22.1204 77.7574 -26.6287 -0.344609 -0.888457 -0.30311
20.6792 78.0035 -25.6963 -0.346911 -0.887669 -0.302814
19.8175 78.1446 -25.1225 -0.347876 -0.887502 -0.302195
19.1168 78.0958 -24.1814 -0.350128 -0.884956 -0.307023
18.4908 78.0353 -23.2932 -0.350125 -0.884957 -0.307023
17.8149 77.9367 -22.2338 -0.351102 -0.884179 -0.308139
17.1016 77.8463 -21.1659 -0.352699 -0.8832 -0.309128
16.6833 77.6658 -20.1763 -0.351761 -0.881965 -0.313692
16.2868 77.4417 -19.1016 -0.351324 -0.882039 -0.313973
15.9812 77.2173 -18.1435 -0.34753 -0.882098 -0.317988
15.4051 77.0054 -16.9385 -0.346133 -0.880562 -0.323729
14.9614 76.849 -16.0399 -0.345716 -0.879992 -0.325719
14.2155 76.6613 -14.7412 -0.342877 -0.880273 -0.327943
13.4995 76.5652 -13.7443 -0.340587 -0.880236 -0.33043
13.3702 76.2187 -12.6944 -0.338299 -0.879938 -0.33356
12.9394 76.0132 -11.723 -0.339819 -0.877191 -0.339202
12.6199 75.6321 -10.4155 -0.341562 -0.876811 -0.338431
11.7754 75.9491 -10.381 -0.342137 -0.875802 -0.340461
11.9588 76.2613 -11.3755 -0.341793 -0.87733 -0.336846
12.0132 76.6506 -12.4534 -0.340481 -0.879036 -0.33372
12.2355 76.938 -13.4374 -0.340579 -0.878994 -0.33373
12.779 77.1232 -14.4887 -0.341552 -0.879984 -0.330108
13.1236 77.4292 -15.6635 -0.341693 -0.880591 -0.328337
13.692 77.7312 -17.0755 -0.344229 -0.880488 -0.325957
14.0848 77.9526 -18.1025 -0.347343 -0.880906 -0.321492
14.7114 78.0128 -18.9456 -0.350407 -0.881376 -0.316835
15.072 78.3692 -20.343 -0.354539 -0.880449 -0.314813
15.5946 78.527 -21.3874 -0.353925 -0.882298 -0.310301
15.7893 78.8228 -22.4626 -0.354146 -0.884314 -0.304252
16.1064 79.1116 -23.675 -0.350682 -0.886867 -0.300814
16.4327 79.3698 -24.8149 -0.349671 -0.88747 -0.300207
16.5084 79.7034 -25.8954 -0.349203 -0.888193 -0.298615
16.8067 79.9619 -27.0246 -0.348275 -0.89083 -0.291745
17.0854 80.3103 -28.4386 -0.349357 -0.891358 -0.288844
17.5216 80.7654 -30.4281 -0.340493 -0.897432 -0.280499
17.8129 81.0613 -31.7684 -0.334246 -0.901921 -0.27345
17.9245 81.3389 -32.8028 -0.328545 -0.903878 -0.273947
18.3999 81.489 -33.8825 -0.324655 -0.905834 -0.272123
19.0191 81.6071 -34.9871 -0.317265 -0.908198 -0.2729
20.0053 81.4704 -35.6805 -0.313621 -0.910544 -0.269346
21.1131 81.2144 -36.0798 -0.311733 -0.9072 -0.282509
22.3119 80.8651 -36.2648 -0.305818 -0.906726 -0.290312
23.3828 80.51 -36.2956 -0.307288 -0.904468 -0.295821
24.4906 80.2038 -36.5059 -0.304533 -0.903968 -0.300132
25.5739 79.8982 -36.6846 -0.307547 -0.899857 -0.309309
26.5916 79.6298 -36.9049 -0.303754 -0.897561 -0.319404
26.6005 79.9761 -37.8954 -0.29471 -0.901221 -0.317722
25.2963 80.3242 -37.648 -0.301602 -0.902359 -0.307798
24.2653 80.5892 -37.4252 -0.302792 -0.903143 -0.304385
22.9351 80.9967 -37.3485 -0.297559 -0.909422 -0.290424
21.7001 81.3932 -37.2973 -0.304437 -0.9089 -0.284989
20.3199 81.7543 -36.9837 -0.291351 -0.917273 -0.271525
18.8424 82.0202 -36.1842 -0.307084 -0.913737 -0.265915
18.0867 82.0713 -35.4629 -0.319239 -0.908658 -0.269123
17.5836 81.95 -34.4545 -0.319752 -0.907974 -0.270796
17.0856 81.8383 -33.4778 -0.319667 -0.909287 -0.266477
16.7031 81.5655 -32.0569 -0.341875 -0.899631 -0.270937
16.4946 81.2301 -30.6836 -0.338228 -0.899774 -0.275698
16.1895 81.0329 -29.6572 -0.343546 -0.897989 -0.274925
15.9446 80.7648 -28.4845 -0.3451 -0.896572 -0.277603
15.7222 80.4463 -27.2089 -0.348274 -0.89083 -0.291745
15.5837 80.0686 -25.9013 -0.349139 -0.889937 -0.293453
15.4832 79.6701 -24.5979 -0.349491 -0.888994 -0.295864
15.1331 79.4617 -23.5648 -0.353658 -0.885665 -0.300871
14.8222 79.2566 -22.5929 -0.354173 -0.885724 -0.30009
14.6234 79.0019 -21.6216 -0.357263 -0.881342 -0.309192
14.0508 78.7944 -20.3843 -0.35423 -0.881203 -0.313054
13.7883 78.5596 -19.433 -0.354677 -0.87967 -0.316837
13.3042 78.4181 -18.5218 -0.350955 -0.8784 -0.324412
12.9124 78.1703 -17.4327 -0.347637 -0.879252 -0.325675
12.0892 77.8847 -15.8086 -0.342913 -0.87951 -0.329952
11.7299 77.6203 -14.7284 -0.344039 -0.879996 -0.327461
11.4001 77.3985 -13.7975 -0.34043 -0.879 -0.333866
11.0771 77.0073 -12.438 -0.34033 -0.879114 -0.333666
10.7924 76.5577 -10.9678 -0.3407 -0.878256 -0.335543
10.588 76.1114 -9.60502 -0.342543 -0.874778 -0.342668
10.5516 75.7628 -8.69058 -0.33752 -0.872826 -0.352497
10.2689 75.4792 -7.71783 -0.336674 -0.874002 -0.350377
10.2038 74.9955 -6.44642 -0.33496 -0.873693 -0.352793
10.2579 74.5568 -5.41421 -0.332994 -0.872851 -0.356709
9.90882 74.1884 -4.18639 -0.328619 -0.873968 -0.358019
9.76247 73.7418 -2.97075 -0.326539 -0.874387 -0.358915
9.63421 73.2297 -1.61292 -0.324706 -0.874348 -0.360669
9.48729 72.8327 -0.537735 -0.324549 -0.869414 -0.372541
9.27347 72.4932 0.461808 -0.314797 -0.875728 -0.366053
8.99279 72.1888 1.43387 -0.307463 -0.877915 -0.366967
8.90656 71.7239 2.59421 -0.302292 -0.879888 -0.366541
9.10358 71.3052 3.45797 -0.305205 -0.883246 -0.355951
9.00326 70.9545 4.40074 -0.302114 -0.881024 -0.364038
9.03306 70.5298 5.42273 -0.292782 -0.887258 -0.356309
8.89899 70.1385 6.53781 -0.295603 -0.887621 -0.353154
9.03463 69.6727 7.60394 -0.285485 -0.892037 -0.350326
8.8787 69.1564 9.0245 -0.271102 -0.892873 -0.359557
9.19326 68.6671 10.0388 -0.272304 -0.898969 -0.343082
9.68438 68.4541 10.2066 -0.273305 -0.898573 -0.343323
9.63532 69.0868 8.60957 -0.285513 -0.892987 -0.347931
10.0652 69.43 7.37184 -0.288028 -0.893413 -0.34475
10.2348 69.7762 6.33275 -0.287708 -0.893487 -0.344826
10.1791 70.2959 5.04923 -0.296929 -0.88737 -0.352668
10.4618 70.6763 3.87444 -0.297406 -0.885167 -0.357812
10.4484 71.303 2.33539 -0.299426 -0.884177 -0.358567
10.8605 71.487 1.52788 -0.31361 -0.878785 -0.359701
11.3092 71.8667 0.203572 -0.314708 -0.879507 -0.35697
11.5194 72.2412 -0.89403 -0.320652 -0.876912 -0.358061
11.7515 72.635 -2.06513 -0.32197 -0.876649 -0.357518
11.9542 72.9535 -3.03551 -0.327716 -0.87597 -0.353948
12.0552 73.4102 -4.26186 -0.327828 -0.876468 -0.352608
12.3497 73.7027 -5.27013 -0.330412 -0.876766 -0.349442
12.5044 74.0374 -6.255 -0.334045 -0.874458 -0.351761
12.8293 74.3691 -7.40525 -0.338462 -0.874678 -0.346962
13.2214 74.6576 -8.51499 -0.338513 -0.875517 -0.34478
13.3051 75.0394 -9.57431 -0.339607 -0.876366 -0.341538
13.8205 75.2435 -10.6159 -0.340775 -0.876375 -0.340352
14.0875 75.5107 -11.5741 -0.340317 -0.876748 -0.33985
14.5729 75.72 -12.6013 -0.340322 -0.878589 -0.335024
14.801 76.0555 -13.728 -0.340587 -0.880236 -0.33043
15.5202 76.1246 -14.6734 -0.346205 -0.879321 -0.327009
16.0563 76.3115 -15.7467 -0.34503 -0.880435 -0.325251
16.6771 76.5399 -17.0349 -0.348536 -0.880792 -0.320512
17.0677 76.7187 -17.9463 -0.350333 -0.880367 -0.319659
17.4728 76.9298 -18.9933 -0.352058 -0.881684 -0.314147
17.9881 77.1754 -20.2608 -0.352227 -0.882583 -0.311411
18.6613 77.3047 -21.3929 -0.351409 -0.883337 -0.310205
19.2123 77.514 -22.6131 -0.351103 -0.884179 -0.308139
20.0794 77.5587 -23.7283 -0.348729 -0.885561 -0.30687
20.7053 77.6043 -24.5709 -0.348255 -0.885543 -0.307461
21.9992 77.3765 -25.38 -0.348226 -0.885528 -0.307538
23.0979 77.1778 -26.0417 -0.343275 -0.88634 -0.310746
24.0252 76.9517 -26.4213 -0.343054 -0.887323 -0.308162
25.1777 76.6597 -26.8567 -0.337556 -0.888394 -0.311137
26.2592 76.3504 -27.1515 -0.338983 -0.887346 -0.312582
27.3374 76.0405 -27.4299 -0.333649 -0.888916 -0.313859
28.7848 75.5292 -27.5207 -0.333425 -0.888785 -0.314464
29.763 75.1764 -27.5508 -0.330142 -0.890692 -0.312529
30.8395 74.7744 -27.5422 -0.330005 -0.890743 -0.312527
31.8218 74.4439 -27.5971 -0.316824 -0.894655 -0.314983
32.8447 74.0713 -27.5671 -0.320061 -0.894548 -0.312
34.1602 73.5996 -27.5426 -0.309522 -0.898238 -0.312032
35.2972 73.319 -27.8617 -0.308066 -0.899312 -0.310377
36.3006 73.3068 -28.7936 -0.29944 -0.90136 -0.312868
36.7984 73.5178 -29.8779 -0.29943 -0.901372 -0.312842
36.8976 73.8746 -30.9909 -0.302473 -0.898147 -0.319127
36.7972 74.2479 -31.9464 -0.302465 -0.89815 -0.319127
36.5334 74.7051 -32.9789 -0.310845 -0.895383 -0.318848
36.4882 75.08 -34.0057 -0.309943 -0.897588 -0.313482
36.2573 75.4796 -34.9219 -0.309907 -0.897576 -0.313551
35.898 75.93 -35.8564 -0.309905 -0.897676 -0.313269
35.3765 76.6032 -37.2608 -0.318535 -0.894389 -0.314008
34.6744 77.2081 -38.2791 -0.320196 -0.895353 -0.309545
33.3409 78.0662 -39.3629 -0.32498 -0.892937 -0.311531
31.7649 78.755 -39.6755 -0.334867 -0.887635 -0.316098
30.5898 79.2373 -39.7672 -0.337929 -0.88449 -0.321686
29.6365 79.4241 -39.3241 -0.32299 -0.888854 -0.324981
28.3827 79.5911 -38.5438 -0.318319 -0.890982 -0.323766
27.4401 79.7529 -38.072 -0.303804 -0.894773 -0.327237
26.8935 79.8983 -37.9464 -0.303758 -0.897562 -0.319398
-13.5272 43.7107 83.5014 0.540676 -0.529479 -0.65367
-12.4323 44.5279 83.5607 0.451761 -0.565981 -0.689621
-10.9882 45.5572 83.6256 0.426204 -0.570777 -0.701829
-10.1558 46.2164 83.5944 0.40968 -0.584188 -0.698605
-9.09674 46.8324 83.5587 0.332646 -0.615521 -0.714479
-7.76058 47.3194 83.7226 0.280124 -0.633295 -0.721382
-6.59017 48.1419 83.4597 0.273673 -0.642923 -0.715227
-5.23008 48.4561 83.671 0.260987 -0.649379 -0.714278
-4.06556 48.9585 83.6398 0.256837 -0.648355 -0.716692
-4.03051 49.0782 83.5451 0.226695 -0.647612 -0.727113
-5.25943 49.0292 83.1531 0.25934 -0.629977 -0.732032
-6.6523 48.6388 82.9956 0.266759 -0.630579 -0.728796
-7.53513 47.9797 83.235 0.27388 -0.630131 -0.726584
-8.61524 47.6991 83.0469 0.338779 -0.607288 -0.718631
-9.96685 47.1366 82.8915 0.348348 -0.613463 -0.708541
-10.9473 46.5886 82.7771 0.44386 -0.570691 -0.690626
-11.6662 45.7021 83.0789 0.434909 -0.584144 -0.685289
-12.5861 44.9986 83.073 0.452125 -0.566748 -0.688752
-13.8715 44.3577 82.7154 0.520356 -0.530723 -0.668156
-15.0288 43.9023 82.1249 0.541599 -0.504954 -0.67208
-15.9848 43.5325 81.619 0.565055 -0.488409 -0.664623
-16.8835 42.889 81.2929 0.581665 -0.465548 -0.666977
-17.5838 41.6091 81.456 0.657017 -0.414329 -0.629809
-17.7089 40.4238 82.057 0.684061 -0.411844 -0.600647
-16.6653 41.1885 82.6782 0.610926 -0.474462 -0.633723
-15.6397 41.9313 83.0986 0.607324 -0.4805 -0.632675
-14.692 42.796 83.2664 0.553499 -0.514686 -0.654588
-13.951 43.4175 83.3837 0.545824 -0.527967 -0.650636
-29.848 27.8336 66.585 0.461532 -0.84662 -0.263922
-29.0433 28.4301 66.1682 0.482474 -0.835244 -0.26379
-28.1877 28.7174 67.025 0.515955 -0.830067 -0.211612
-27.7797 28.6346 68.5035 0.536824 -0.827517 -0.164376
-28.5036 28.0044 69.275 0.544389 -0.81395 -0.202797
-30.2863 26.9684 69.0493 0.484104 -0.846569 -0.22128
-31.4773 26.6692 67.755 0.435472 -0.865802 -0.246478
-30.4154 27.4647 66.8368 0.438031 -0.861898 -0.255267
-30.9903 27.4208 66.0203 0.44059 -0.857995 -0.264054
-29.9741 28.0776 65.582 0.461533 -0.846619 -0.263924
-29.1881 28.7127 65.0448 0.487093 -0.826949 -0.280886
-28.4206 29.3865 64.3921 0.458776 -0.842286 -0.281142
-27.7851 29.304 65.6156 0.462082 -0.851932 -0.240866
-27.1953 29.233 67.332 0.496542 -0.842538 -0.208749
-26.8971 29.2461 68.333 0.540146 -0.82541 -0.164138
-26.6588 29.1822 69.8111 0.564423 -0.821623 -0.0797607
-27.1722 28.7489 70.295 0.589153 -0.796483 -0.136066
-28.0233 28.1232 70.2729 0.589153 -0.796483 -0.136065
-29.0674 27.4075 70.2634 0.545052 -0.826345 -0.139682
-29.932 26.9048 70.1863 0.474733 -0.863521 -0.170174
-31.0239 26.4017 69.6932 0.496619 -0.846806 -0.187682
-32.3387 25.9835 68.523 0.472157 -0.839193 -0.269857
-32.5609 26.299 67.0396 0.461931 -0.85096 -0.249974
-31.618 27.0163 66.2876 0.438033 -0.861898 -0.255265
-32.2633 27.009 65.5123 0.395208 -0.840711 -0.370156
-30.9156 27.8899 64.9048 0.379057 -0.845662 -0.375728
-30.0832 28.4975 64.3719 0.409763 -0.833033 -0.370033
-29.5591 29.0755 63.7105 0.440887 -0.819436 -0.366256
-28.9159 29.8838 62.7229 0.427844 -0.804527 -0.411873
-28.7273 30.44 61.8484 0.43096 -0.800643 -0.416226
-28.2578 30.9308 61.4337 0.37753 -0.781704 -0.495761
-28.1749 30.4668 62.3115 0.37216 -0.822251 -0.430582
-27.6734 30.1212 63.5263 0.397096 -0.842868 -0.363165
-27.3263 29.9113 64.465 0.43037 -0.858839 -0.277807
-26.877 29.8271 65.6435 0.493706 -0.846238 -0.200338
-26.4925 29.7635 66.8602 0.42016 -0.881581 -0.199051
-26.082 29.8494 67.8996 0.535616 -0.832933 -0.139061
-25.6429 29.9412 69.1806 0.604636 -0.792947 -0.0437848
-25.2874 30.232 70.0855 0.644849 -0.76427 -0.00781016
-24.9642 30.478 71.1181 0.709542 -0.70405 0.0293914
-24.5956 30.8667 72.2967 0.773407 -0.63352 0.0222121
-24.3044 31.234 72.6406 0.771844 -0.635568 0.0165381
-23.8557 31.8583 73.9659 0.829272 -0.558647 0.0148978
-23.2981 32.7602 74.8375 0.855236 -0.517555 0.0023413
-23.6914 32.1471 74.6134 0.84154 -0.540195 0.000754612
-24.0639 31.5445 73.7836 0.799827 -0.598067 0.0129442
-24.6125 30.8654 72.8493 0.771845 -0.635566 0.0165391
-25.137 30.3181 71.9826 0.694982 -0.718905 -0.0132235
-26.1345 29.4247 71.5981 0.662747 -0.746195 -0.0629253
-27.1498 28.5977 71.4131 0.597036 -0.794743 -0.109231
-28.1325 27.8772 71.284 0.598367 -0.793229 -0.11282
-29.0129 27.2928 71.2298 0.527801 -0.83184 -0.171664
-29.8718 26.743 71.2538 0.52779 -0.831861 -0.171593
-30.8333 26.1982 70.998 0.518507 -0.83009 -0.205188
-31.6716 25.7827 70.5688 0.490042 -0.844349 -0.216642
-32.5038 25.4512 69.9787 0.489949 -0.844381 -0.216727
-33.3079 25.3413 68.8246 0.472252 -0.839144 -0.269843
-33.7042 25.4656 67.7932 0.440247 -0.846214 -0.299674
-33.5642 25.9047 66.7651 0.408358 -0.862654 -0.298449
-33.1954 26.4167 65.8502 0.398641 -0.838086 -0.37242
-32.435 26.9061 65.5628 0.396893 -0.839417 -0.37128
7.43249 53.9248 81.0184 0.0527112 -0.751122 -0.658051
6.73642 54.6985 80.0318 0.0466798 -0.772439 -0.633371
6.35968 55.524 78.9584 -0.0215829 -0.812186 -0.582633
5.68319 56.2368 77.9243 0.00205297 -0.825759 -0.564019
5.18535 56.9121 76.9339 -0.0196041 -0.806118 -0.590129
3.7882 57.3447 76.4754 -0.0412647 -0.786477 -0.616239
3.00858 57.8823 75.8414 -0.00697356 -0.783247 -0.6207
2.98815 57.0366 76.8956 0.0273207 -0.780013 -0.625166
2.67342 56.0943 78.0017 0.0629891 -0.751024 -0.65714
2.32174 55.2684 78.9337 0.0660057 -0.759031 -0.6477
2.03278 54.5454 79.7362 0.0974627 -0.730272 -0.675876
1.47705 53.7427 80.4891 0.100273 -0.716693 -0.690142
0.830298 52.8984 81.279 0.117965 -0.715608 -0.688347
-0.045779 51.9438 81.9947 0.178113 -0.680981 -0.71031
-1.29609 51.0382 82.5546 0.182708 -0.668046 -0.721062
-2.41132 50.081 83.1017 0.210146 -0.658342 -0.722722
-1.3097 49.777 83.7146 0.21551 -0.66358 -0.716392
-0.583023 50.5186 83.2248 0.185167 -0.673069 -0.715944
1.00594 50.6866 83.4617 0.17797 -0.679743 -0.711531
2.81915 51.082 83.4694 0.140052 -0.681203 -0.718574
4.93089 51.6526 83.2411 0.110628 -0.713551 -0.69181
6.17473 51.9371 83.1492 0.0873313 -0.72244 -0.685371
7.37937 52.3705 82.794 0.0585109 -0.741335 -0.668381
8.00739 53.0068 82.1175 0.0381585 -0.755778 -0.653487
7.7724 53.5227 81.5071 0.0381587 -0.755776 -0.65349
11.3557 75.2789 -8.26251 -0.336667 -0.874006 -0.350376
11.5953 75.1262 -8.11012 -0.337387 -0.874805 -0.347684
12.1461 75.3248 -9.15914 -0.338561 -0.876354 -0.342607
11.9021 75.5142 -9.39887 -0.342939 -0.873759 -0.344874
11.3926 75.3128 -8.38199 -0.343226 -0.873779 -0.344538
11.3882 75.3114 -8.37386 -0.340512 -0.873315 -0.348346
9.48558 67.8826 11.9153 -0.265376 -0.90575 -0.33044
9.11006 67.7494 12.585 -0.265736 -0.906068 -0.329279
9.34487 67.3345 13.5934 -0.254925 -0.917545 -0.305163
9.60208 67.3519 13.3331 -0.250874 -0.915192 -0.315415
9.60617 67.6957 12.3323 -0.258308 -0.910631 -0.322342
-29.0513 37.5216 54.4405 0.497991 -0.479155 -0.722781
-28.8578 38.5242 53.9114 0.499796 -0.484455 -0.71794
-28.5879 39.7877 53.2507 0.518928 -0.473076 -0.711978
-29.2569 38.8985 53.3735 0.500449 -0.491091 -0.713008
-29.4047 37.7968 54.0146 0.497991 -0.479157 -0.72278
-29.7116 36.8372 54.5423 0.42817 -0.565942 -0.704542
-29.5249 35.8789 55.4333 0.429397 -0.571076 -0.699636
-29.6981 34.9705 56.0584 0.378306 -0.606961 -0.698775
-29.9202 34.0301 56.7751 0.369102 -0.616919 -0.695107
-29.2901 33.5115 57.5924 0.375267 -0.632328 -0.677744
-29.634 32.785 58.0934 0.375203 -0.67185 -0.637881
-29.4765 31.9606 59.1121 0.385737 -0.692576 -0.609455
-28.9829 31.5517 59.982 0.393557 -0.731833 -0.556357
-28.9131 30.9039 60.9354 0.397476 -0.781759 -0.480486
-28.3462 31.6438 60.3113 0.386679 -0.738638 -0.552071
-29.0268 32.0829 59.2418 0.367109 -0.723441 -0.583073
-28.8289 32.9951 58.3613 0.401334 -0.638686 -0.656514
-28.9277 33.768 57.5537 0.387367 -0.634171 -0.66899
-29.0516 34.6155 56.7168 0.378303 -0.606961 -0.698776
-29.0996 35.9014 55.6549 0.399232 -0.563315 -0.723388
-29.275 36.9219 54.7396 0.433267 -0.551702 -0.71247
-29.0679 37.4135 54.501 0.496833 -0.480498 -0.722688
-17.1507 57.8162 44.5989 0.505191 -0.816993 -0.278035
-16.8335 58.3645 43.5599 0.48997 -0.826534 -0.277076
-16.3963 58.9025 42.6682 0.484677 -0.83699 -0.254037
-16.3349 59.4049 41.2623 0.463786 -0.841577 -0.276858
-16.553 59.7723 39.8241 0.425782 -0.851789 -0.305215
-16.9581 59.5875 39.7748 0.425786 -0.851788 -0.305214
-16.6684 59.34 40.8805 0.446563 -0.848429 -0.282693
-17.0807 58.7022 42.1179 0.468911 -0.836 -0.285003
-17.4652 58.0549 43.3358 0.491615 -0.819899 -0.292778
-17.7005 57.5891 44.2673 0.505338 -0.816501 -0.27921
-18.2705 56.9623 44.9614 0.522819 -0.797821 -0.300236
-17.8796 57.1253 45.2099 0.523433 -0.797512 -0.299988
-17.2166 57.6995 44.822 0.505192 -0.816993 -0.278036
-24.7577 48.7239 50.126 0.698293 -0.533272 -0.477502
-23.7267 50.0966 49.8304 0.673267 -0.588583 -0.447529
-23.1321 50.9619 49.446 0.646494 -0.647544 -0.403401
-23.7536 50.2329 49.5917 0.658752 -0.636686 -0.400844
-24.6646 48.9159 50.0106 0.648026 -0.606948 -0.460083
-24.6934 48.8674 50.0339 0.651569 -0.600701 -0.463202
-20.024 54.8062 47.3478 0.579324 -0.753631 -0.309706
-20.9657 53.7888 47.9498 0.592813 -0.735992 -0.326938
-21.4617 52.9717 48.6949 0.625264 -0.69131 -0.362123
-20.7946 53.7158 48.4244 0.609135 -0.713938 -0.343818
-19.7968 54.8484 47.6579 0.585026 -0.741749 -0.327953
-19.0431 55.6172 47.123 0.546222 -0.784572 -0.293408
-19.2718 55.5966 46.7525 0.559925 -0.775042 -0.292428
-19.8839 54.9762 47.1772 0.573625 -0.765512 -0.291456
5.98623 52.2698 82.7744 0.0873628 -0.7227 -0.685618
6.9083 52.798 82.2651 0.0547076 -0.752113 -0.65676
7.0565 53.6039 81.3545 0.0527114 -0.751124 -0.658053
5.66697 52.8207 82.1388 0.0765534 -0.742299 -0.665681
3.98742 51.7568 82.9856 0.108917 -0.712781 -0.692878
2.08422 51.2881 83.1309 0.131925 -0.694948 -0.706855
3.48657 52.2004 82.4505 0.116337 -0.71062 -0.693891
5.31358 53.3429 81.5142 0.102339 -0.733897 -0.671507
6.58108 54.059 80.8002 0.0487051 -0.761399 -0.646451
5.89879 54.3885 80.348 0.0466778 -0.77244 -0.63337
4.24298 53.4229 81.2636 0.102339 -0.733897 -0.671507
3.15534 52.752 81.8296 0.117973 -0.715667 -0.688406
1.45224 51.6462 82.6556 0.149449 -0.694155 -0.70414
0.916514 51.2628 82.8888 0.178039 -0.680362 -0.710922
1.03508 52.1444 82.0734 0.178113 -0.680981 -0.71031
2.95489 53.3733 81.133 0.105431 -0.727481 -0.677979
4.32879 54.2188 80.4143 0.0854593 -0.75049 -0.655333
5.44547 54.8427 79.7601 0.0576676 -0.775761 -0.628387
5.52058 54.8842 79.7157 0.0521759 -0.774115 -0.630892
5.60519 55.6301 78.8123 0.027417 -0.796354 -0.604209
4.32571 54.9199 79.562 0.0664771 -0.772911 -0.631023
2.6866 53.9521 80.4702 0.105431 -0.727481 -0.677979
2.2481 53.6776 80.6886 0.115291 -0.724602 -0.679456
3.19822 54.9803 79.3625 0.0683282 -0.759511 -0.646896
4.74678 55.8583 78.4704 0.0526984 -0.764463 -0.64251
5.00583 55.9822 78.2947 0.00205297 -0.825759 -0.564019
3.92905 56.1092 78.1048 0.0274185 -0.796355 -0.604208
3.04898 55.6076 78.6103 0.0671648 -0.759272 -0.647298
3.62675 58.5887 74.652 -0.0677534 -0.849681 -0.522926
3.58343 58.5714 74.6857 -0.112262 -0.833787 -0.540551
3.22858 59.0858 74.0318 -0.113711 -0.874835 -0.470886
3.23918 59.0888 74.0225 -0.069493 -0.922789 -0.378987
2.76887 59.4046 73.3399 -0.069493 -0.922789 -0.378987
2.77472 59.4062 73.3348 -0.0667008 -0.918196 -0.390471
-15.1869 43.1705 82.5473 0.54378 -0.516526 -0.661442
-15.3149 42.9608 82.6102 0.553569 -0.514751 -0.65467
-16.0267 42.9608 81.99 0.58169 -0.465561 -0.667
-16.3763 41.9663 82.365 0.595743 -0.469404 -0.651728
1.21454 60.8308 70.3118 -0.0686524 -0.945692 -0.317733
0.782333 60.7236 70.7241 -0.0686519 -0.945691 -0.317733
-0.0141476 60.9156 70.3248 -0.0686519 -0.945691 -0.317733
0.804822 61.1187 69.5435 -0.061729 -0.942036 -0.329784
0.00834213 61.3107 69.1441 -0.061729 -0.942036 -0.329784
-0.28309 61.2384 69.4222 0.017594 -0.947051 -0.3206
-1.56984 61.0767 69.4652 0.115146 -0.945822 -0.303582
-0.388512 61.5461 68.3296 0.0574883 -0.967741 -0.245301
0.901973 61.8847 67.1011 0.024839 -0.970136 -0.241287
0.582707 62.0722 66.185 0.00884212 -0.984446 -0.175465
-0.539415 61.8084 67.2596 0.0574893 -0.96774 -0.245304
-1.61545 61.429 68.3395 0.0900764 -0.964292 -0.249052
-1.66733 61.4098 68.3906 0.115146 -0.945822 -0.303582
-2.97922 61.2296 68.4545 0.140599 -0.942011 -0.304707
-1.81727 61.6733 67.3205 0.0900778 -0.964292 -0.249052
-0.784574 62.0278 66.2828 0.174365 -0.951687 -0.252762
0.164453 62.2155 65.3594 0.00884212 -0.984446 -0.175465
0.235161 62.2284 65.2909 0.0088425 -0.984446 -0.175465
0.755319 62.5299 63.5493 0.0345069 -0.986464 -0.160307
-0.201436 62.4626 64.506 -0.0572211 -0.993165 -0.101729
-1.13709 62.2504 65.4191 0.213389 -0.921456 -0.324629
-2.44378 61.7192 66.7209 0.134011 -0.974683 -0.17898
-3.52675 61.3948 67.8034 0.0834908 -0.973851 -0.21129
-3.82495 61.2499 68.0813 0.0538826 -0.908016 -0.415456
-4.4506 61.2924 67.4749 0.109188 -0.994017 0.00278063
-3.21287 61.6717 66.2528 0.226254 -0.959281 -0.169083
-1.95699 62.2046 65.0103 0.213391 -0.921455 -0.324632
-1.02838 62.4515 64.082 -0.0121497 -0.998687 0.0497567
0.503184 62.682 62.552 0.0809404 -0.982073 -0.170242
0.522906 62.687 62.5324 0.0345076 -0.986464 -0.160309
0.703315 62.9016 61.1039 -0.00117491 -0.982399 -0.186791
-0.37532 62.6741 62.1797 0.0809404 -0.982073 -0.170242
-1.40083 62.4122 63.2028 0.0346444 -0.997556 -0.0606784
-2.31217 62.1836 64.1161 0.276959 -0.958376 -0.0693424
-3.60785 61.7285 65.4019 0.239356 -0.961629 -0.134086
-4.17658 61.4964 65.9579 0.226254 -0.959281 -0.169084
-2.8828 62.1016 63.4462 0.241167 -0.96641 -0.0888249
-1.33669 62.6048 61.8936 0.14541 -0.983275 -0.109664
-0.303047 62.8727 60.862 0.153792 -0.975103 -0.159757
0.526417 63.17 60.0665 -0.0355909 -0.961001 -0.274247
0.782388 63.488 58.6067 -0.0479152 -0.990662 -0.127643
-0.45266 63.0803 59.803 0.201317 -0.95183 -0.231282
-1.38417 62.731 60.6991 0.145411 -0.983275 -0.109665
-1.49084 62.9481 59.5973 0.161765 -0.964351 -0.209426
-0.335619 63.3701 58.4805 0.164176 -0.980875 -0.104549
0.604105 63.6264 57.5524 0.150684 -0.980301 -0.127688
0.635549 63.6352 57.5214 0.0202673 -0.990264 -0.137717
0.749376 63.8241 56.1797 0.0202686 -0.990265 -0.137714
-0.425068 63.515 57.3396 0.137082 -0.979024 -0.15073
-1.29475 63.2611 58.1978 0.189557 -0.96893 -0.158881
-0.872319 63.5736 56.5525 0.129844 -0.981677 -0.139463
0.607081 63.9482 55.091 0.111313 -0.981646 -0.154858
0.963201 64.0267 54.7421 -0.0606542 -0.98415 -0.166641
1.24163 64.2377 53.2569 -0.00395863 -0.985736 -0.16825
0.313638 64.0845 54.1642 0.0921196 -0.981106 -0.170135
-0.793124 63.7758 55.249 0.0999505 -0.978315 -0.181413
-1.52188 63.7944 54.7474 0.0999505 -0.978315 -0.181413
-0.474267 64.0876 53.7202 0.0921197 -0.981106 -0.170133
0.461968 64.3248 52.8153 0.0607083 -0.984352 -0.165427
1.4944 64.4162 51.8004 -0.105251 -0.990204 -0.0917489
1.42174 64.5303 50.6525 -0.11664 -0.989918 -0.0803537
0.385906 64.509 51.685 -0.0127949 -0.994676 -0.102251
-0.579143 64.306 52.6205 0.059915 -0.965601 -0.25303
-1.50949 64.0237 53.5178 0.173686 -0.969229 -0.174437
-2.21621 63.9615 53.0005 0.231297 -0.948718 -0.215487
-1.26492 64.3431 52.0798 0.154817 -0.969401 -0.190509
-0.177648 64.5846 51.0202 -0.0127896 -0.994676 -0.102256
0.779639 64.6068 50.0721 -0.0426072 -0.996778 -0.0679586
1.27624 64.6205 49.5803 -0.0837778 -0.994192 -0.0675496
0.186505 64.6802 49.4437 -0.026529 -0.993247 -0.112949
-0.867429 64.5841 50.4778 0.1018 -0.988747 -0.109619
-1.83784 64.3805 51.4243 0.1292 -0.980655 -0.147046
-2.42455 64.131 51.9955 0.227501 -0.951393 -0.20759
-2.9853 64.1459 51.3267 0.224076 -0.951204 -0.212133
-2.39947 64.3901 50.7524 0.165925 -0.976422 -0.138093
-29.0472 27.7668 68.7693 0.539068 -0.821975 -0.183747
-28.557 28.2203 68.1074 0.514191 -0.833965 -0.200276
-28.8632 28.2662 67.1479 0.515955 -0.830067 -0.211612
-29.4438 27.7175 67.9243 0.514191 -0.833965 -0.200275
-29.4733 27.6897 67.9644 0.503454 -0.841393 -0.19645
33.9181 74.9331 -31.064 -0.31299 -0.894367 -0.319602
33.1855 74.9281 -30.3349 -0.313789 -0.893652 -0.320816
32.3158 75.3159 -30.5552 -0.321366 -0.891362 -0.319684
33.412 75.3179 -31.6499 -0.312405 -0.895175 -0.317906
33.4902 75.7054 -32.818 -0.316062 -0.893561 -0.31883
32.0077 75.7054 -31.3356 -0.320705 -0.891878 -0.318907
31.3205 75.7077 -30.647 -0.321366 -0.891362 -0.319684
29.9864 76.1048 -30.3962 -0.328186 -0.888631 -0.320359
31.3714 76.0959 -31.7872 -0.321699 -0.891824 -0.318055
32.993 76.0955 -33.409 -0.319632 -0.892414 -0.318484
33.4393 76.0946 -33.856 -0.320479 -0.892886 -0.316304
33.0246 76.4823 -34.5311 -0.321405 -0.892875 -0.315392
31.6745 76.4855 -33.1787 -0.319632 -0.892414 -0.318484
30.27 76.4907 -31.7707 -0.327961 -0.889897 -0.317056
29.7752 76.4956 -31.2726 -0.327961 -0.889897 -0.317058
27.9985 76.9005 -30.5737 -0.328986 -0.89128 -0.312071
29.6129 76.8834 -32.2 -0.324369 -0.891988 -0.314869
30.9348 76.8744 -33.5281 -0.3212 -0.892031 -0.317979
32.3629 76.8714 -34.9583 -0.320481 -0.892885 -0.316304
33.0466 76.8677 -35.6446 -0.321408 -0.892876 -0.315389
32.5359 77.2563 -36.2232 -0.321549 -0.892657 -0.315864
31.1843 77.2629 -34.8669 -0.322846 -0.891165 -0.318741
30.0242 77.2673 -33.7036 -0.32325 -0.891062 -0.318618
28.3968 77.2791 -32.0681 -0.326462 -0.891504 -0.314074
27.1333 77.2965 -30.7926 -0.328986 -0.891281 -0.312068
26.3749 77.3093 -30.0254 -0.332862 -0.89058 -0.309951
25.0446 77.7224 -29.7672 -0.336307 -0.889604 -0.309035
26.2316 77.6931 -30.9745 -0.332862 -0.89058 -0.309951
28.1615 77.6664 -32.9228 -0.326462 -0.891504 -0.314074
29.5023 77.6588 -34.2689 -0.323636 -0.891049 -0.318263
30.8001 77.6534 -35.5706 -0.322767 -0.891422 -0.318101
31.4084 77.6506 -36.181 -0.324736 -0.891335 -0.316336
30.8224 78.0419 -36.6821 -0.323752 -0.891379 -0.317219
29.6465 78.0468 -35.5027 -0.322874 -0.891437 -0.31795
28.1696 78.0521 -34.0221 -0.32132 -0.892811 -0.315662
26.4854 78.0688 -32.3263 -0.324378 -0.893961 -0.309213
25.0346 78.0971 -30.8559 -0.331286 -0.893459 -0.303283
23.8295 78.1277 -29.6296 -0.333468 -0.89272 -0.303068
23.2932 78.1437 -29.0823 -0.337597 -0.892413 -0.299378
20.493 78.6234 -27.3069 -0.346626 -0.888441 -0.300871
21.8637 78.5666 -28.718 -0.339534 -0.892838 -0.295901
23.5353 78.5099 -30.4291 -0.335646 -0.891978 -0.302847
24.9774 78.4742 -31.8958 -0.329416 -0.892532 -0.308014
26.7085 78.4447 -33.6473 -0.322629 -0.893454 -0.312491
27.8843 78.4394 -34.8269 -0.321097 -0.892873 -0.315711
29.1907 78.4373 -36.1348 -0.319319 -0.89259 -0.318305
29.7322 78.4354 -36.6778 -0.323159 -0.890909 -0.319139
27.5234 78.8248 -35.5574 -0.315365 -0.895095 -0.315198
26.2601 78.8326 -34.2884 -0.319844 -0.893991 -0.313816
24.8681 78.8546 -32.8812 -0.329415 -0.892531 -0.308016
23.5394 78.8831 -31.5328 -0.332758 -0.894847 -0.297524
21.8395 78.9338 -29.7983 -0.337596 -0.892413 -0.299379
20.6372 78.985 -28.5598 -0.343253 -0.891028 -0.297064
19.4987 79.0336 -27.3865 -0.344804 -0.89102 -0.295286
18.3001 79.0868 -26.1498 -0.34568 -0.889508 -0.298798
19.0759 79.4185 -28.0559 -0.343138 -0.892997 -0.291226
20.3387 79.3621 -29.3588 -0.339997 -0.893803 -0.292435
22.0508 79.2949 -31.1176 -0.329857 -0.897676 -0.292185
23.1796 79.2574 -32.2721 -0.327494 -0.89694 -0.297061
24.6628 79.2263 -33.7768 -0.319476 -0.898982 -0.299612
26.1677 79.2145 -35.2899 -0.313196 -0.89732 -0.311008
26.2457 79.214 -35.3683 -0.318808 -0.895044 -0.311862
24.3999 79.6007 -34.6127 -0.318282 -0.897686 -0.304723
23.0672 79.6264 -33.2623 -0.327491 -0.896942 -0.29706
21.6652 79.6668 -31.8327 -0.324595 -0.900228 -0.290218
20.2723 79.7202 -30.4033 -0.335913 -0.897571 -0.285533
19.012 79.7836 -29.0983 -0.341921 -0.895099 -0.28616
18.7503 79.7958 -28.828 -0.342968 -0.892914 -0.291681
18.9088 80.1386 -30.1081 -0.340854 -0.897253 -0.280635
20.5823 80.0627 -31.8342 -0.335188 -0.897266 -0.287337
22.3507 80.0086 -33.6395 -0.321763 -0.899837 -0.294555
23.3075 79.9851 -34.6124 -0.307292 -0.904469 -0.295817
21.7512 80.3823 -34.1394 -0.319115 -0.903534 -0.285991
19.7598 80.4546 -32.0987 -0.335188 -0.897266 -0.287337
19.6024 80.4615 -31.9365 -0.335189 -0.897265 -0.287339
19.7355 80.8022 -33.192 -0.32535 -0.904203 -0.276703
20.5277 80.7681 -34.0071 -0.317549 -0.905538 -0.28136
