5.89129 64.8326 79.7196 -0.125808 -0.790212 -0.599781
6.36823 63.7877 81.0019 -0.149205 -0.779254 -0.608017
6.80832 62.6335 82.2426 -0.0662272 -0.685605 -0.722909
7.18508 61.3779 83.3722 -0.0084678 -0.670447 -0.741909
7.4278 60.154 84.4573 -0.0181535 -0.649445 -0.758855
7.26185 58.9804 85.4257 0.0245949 -0.637489 -0.770066
5.92617 57.9379 86.2436 0.0387138 -0.637695 -0.76919
4.17685 57.5324 86.3972 0.0798423 -0.613609 -0.785563
2.4915 57.3227 86.3119 0.133005 -0.606707 -0.78372
0.457297 56.5635 86.5175 0.153028 -0.581885 -0.798745
-1.06959 55.7943 86.7613 0.181218 -0.575395 -0.797546
-0.171683 57.0634 86.0328 0.155327 -0.572966 -0.804652
0.957138 57.875 85.6733 0.121314 -0.585502 -0.801542
2.16971 58.9346 85.0576 0.106503 -0.607691 -0.787
3.12604 60.0285 84.2996 0.0844636 -0.634557 -0.768247
3.90575 61.3927 83.266 0.0910989 -0.628249 -0.772636
4.18028 62.7649 82.1545 0.0695999 -0.656702 -0.750932
4.52136 63.7394 81.1135 0.0411587 -0.724167 -0.688395
4.46997 64.7838 80.0355 -0.0170708 -0.744881 -0.664296
4.69859 65.6406 78.9304 -0.13673 -0.783672 -0.60594
4.25906 66.5726 77.8504 -0.166719 -0.696784 -0.695935
3.96644 67.6158 76.7978 -0.191634 -0.723211 -0.663507
5.16483 67.951 75.8891 -0.363303 -0.79718 -0.482197
6.0462 67.5396 75.9051 -0.382972 -0.793614 -0.472239
6.19173 66.5614 77.2881 -0.157107 -0.816421 -0.555675
5.97481 65.4394 78.9026 -0.131269 -0.78694 -0.602863
5.9125 65.2229 79.2009 -0.125805 -0.790211 -0.599784
7.28435 65.0036 79.1103 -0.261171 -0.795899 -0.5462
7.37576 65.9345 77.6323 -0.269887 -0.823128 -0.499621
7.31367 66.735 76.3996 -0.332698 -0.839734 -0.429137
7.26325 67.4114 75.1512 -0.342743 -0.82535 -0.448691
6.96896 68.3048 73.55 -0.462594 -0.804867 -0.371748
6.06835 68.656 73.8662 -0.46498 -0.770629 -0.429145
4.6886 68.688 75.1671 -0.411409 -0.723355 -0.554527
3.39207 68.869 75.7572 -0.228 -0.62312 -0.748156
2.55189 68.224 76.622 -0.00285113 -0.684236 -0.729255
2.72739 66.642 78.0847 -0.141801 -0.670357 -0.728364
3.23435 65.1248 79.6849 -0.0170728 -0.744878 -0.664299
3.1817 63.9368 80.8762 0.00490282 -0.708171 -0.706024
3.07055 62.7871 82.0286 0.0230284 -0.716169 -0.69721
2.66209 61.6698 82.9015 0.0855999 -0.63056 -0.771406
1.70693 60.1381 84.0468 0.0920121 -0.632911 -0.768738
0.52781 58.8773 84.8757 0.129694 -0.586234 -0.799649
-0.761674 57.9202 85.3296 0.151522 -0.559965 -0.814543
-2.23611 56.9584 85.6843 0.176959 -0.561972 -0.807943
-3.81168 56.1613 85.872 0.199904 -0.553193 -0.808576
-5.54703 55.5097 85.8568 0.222092 -0.549086 -0.80566
-5.692 54.352 86.6028 0.237145 -0.537232 -0.809312
-4.60956 53.8585 87.2912 0.239307 -0.579021 -0.779401
-2.8678 54.4523 87.3368 0.198785 -0.58131 -0.789027
-1.17067 54.7832 87.5001 0.18405 -0.601244 -0.77758
0.363243 55.261 87.4753 0.167164 -0.599679 -0.782572
2.58196 56.131 87.2458 0.139079 -0.598805 -0.788727
4.47876 56.4642 87.2622 0.0952496 -0.624391 -0.774982
6.0388 56.9188 87.1103 0.0822947 -0.640078 -0.763347
7.73802 57.5104 86.712 0.0436576 -0.659221 -0.75068
8.60775 58.6289 85.7546 -0.00204019 -0.677885 -0.734825
8.92347 59.643 84.7874 -0.0605201 -0.660575 -0.748317
8.95927 60.7418 83.8182 -0.0879026 -0.688112 -0.718257
8.26423 61.9751 82.6672 -0.140895 -0.718435 -0.681176
7.86827 63.2622 81.2309 -0.157398 -0.76363 -0.625909
7.32541 64.4455 79.9157 -0.201672 -0.800582 -0.561366
7.31293 64.5139 79.8102 -0.235597 -0.813755 -0.530158
8.65313 64.3903 79.4627 -0.210024 -0.831608 -0.514119
9.03238 63.5345 80.5575 -0.15579 -0.797758 -0.582504
9.32941 62.6264 81.6758 -0.156083 -0.768104 -0.621011
9.66772 61.6496 82.7188 -0.142134 -0.718602 -0.680742
10.3281 60.3956 83.9581 -0.0962587 -0.7342 -0.672062
10.3911 59.363 85.0171 -0.0879566 -0.710551 -0.698126
10.1184 58.3501 86.0029 -0.00953794 -0.693352 -0.720536
9.49556 57.4029 86.8451 0.00545834 -0.662417 -0.749116
8.57653 56.6064 87.5664 0.0524826 -0.688366 -0.723136
7.25857 56.0256 87.9656 0.0777583 -0.674878 -0.733821
5.75527 55.7634 88.0294 0.109417 -0.641265 -0.759436
4.35268 55.4261 88.1176 0.108184 -0.647358 -0.754469
2.28659 54.9064 88.1449 0.155079 -0.628202 -0.762439
0.907612 54.3375 88.3134 0.175761 -0.61883 -0.765609
-0.435081 53.9594 88.3112 0.181558 -0.604712 -0.77546
-1.91801 53.4311 88.3833 0.197463 -0.605212 -0.770956
-3.46919 53.1262 88.1934 0.205 -0.621296 -0.756284
-5.40345 52.2904 88.2427 0.280804 -0.610576 -0.740208
-6.03226 52.8795 87.5063 0.302445 -0.580869 -0.755298
-6.86116 53.9565 86.5101 0.242904 -0.527219 -0.814271
-7.93545 54.6496 85.7418 0.23384 -0.50085 -0.833348
-9.52931 54.8203 85.2618 0.192712 -0.572035 -0.796052
-8.41051 55.5892 85.0134 0.217298 -0.540039 -0.813105
-6.95514 56.2312 84.9653 0.219583 -0.544667 -0.809325
-5.53578 56.7163 85.0318 0.222244 -0.5538 -0.802442
-4.16652 57.2375 85.048 0.199902 -0.553189 -0.808579
-2.52913 57.9049 84.9549 0.18452 -0.565945 -0.803528
-1.08763 58.8992 84.5819 0.159579 -0.580423 -0.798227
-0.0913223 59.8204 84.0714 0.12046 -0.621706 -0.773932
0.870787 61.0873 83.1766 0.0871573 -0.630053 -0.771645
1.28619 62.1222 82.3625 0.104889 -0.653062 -0.750005
1.8156 63.3848 81.3039 0.0911783 -0.686577 -0.721317
1.78402 64.5201 80.2192 0.091146 -0.686606 -0.721293
1.78109 65.5398 79.259 0.00679528 -0.702351 -0.711798
1.29962 66.523 78.2824 -0.00505543 -0.706415 -0.70778
1.15492 67.5251 77.2832 -0.00395821 -0.695325 -0.718518
1.24128 68.9026 75.9474 0.0225537 -0.70339 -0.710446
1.42716 70.1544 74.5616 0.0706101 -0.793227 -0.604818
1.63019 71.0916 73.2621 0.0641291 -0.84292 -0.534204
2.67091 70.4414 74.3304 0.110398 -0.819238 -0.558826
3.93978 69.7626 74.846 -0.422467 -0.595671 -0.646345
5.02599 69.4404 73.7198 -0.604622 -0.700739 -0.359921
5.81284 69.4887 72.3027 -0.561141 -0.793877 -0.223211
5.90752 69.7121 70.7046 -0.547224 -0.826322 -0.133184
5.96553 69.8961 69.0811 -0.48005 -0.868496 -0.123131
5.87102 70.0824 67.6825 -0.444195 -0.891147 -0.0924576
5.68089 70.2942 66.293 -0.440999 -0.896613 -0.0400637
5.82925 70.2707 64.906 -0.417789 -0.908002 -0.0313771
5.6828 70.381 63.4574 -0.397751 -0.917039 -0.0288866
5.39199 70.5423 61.7038 -0.383268 -0.92284 -0.00327736
5.21418 70.659 59.9193 -0.355964 -0.934252 -0.0214004
5.32544 70.616 58.314 -0.326557 -0.944802 0.00516491
5.71327 70.5076 57.2103 -0.312413 -0.94982 -0.0154137
6.71461 70.16 57.9431 -0.319226 -0.947509 -0.0179299
6.88828 70.0453 59.4967 -0.33427 -0.941888 -0.0300667
7.16133 69.8794 61.3937 -0.351681 -0.935595 -0.0309152
7.33238 69.7333 62.9675 -0.342934 -0.938038 -0.0498097
7.63241 69.5313 64.3496 -0.356716 -0.932408 -0.0580449
7.56002 69.435 66.088 -0.383032 -0.921762 -0.0603445
7.80151 69.1138 68.2141 -0.42173 -0.898778 -0.115389
7.92103 68.8101 69.7442 -0.411034 -0.901092 -0.138144
8.00164 68.3825 71.6412 -0.451552 -0.863086 -0.221008
8.18361 67.8951 72.9939 -0.403723 -0.881359 -0.245386
8.39719 67.3323 74.2636 -0.402967 -0.857175 -0.320731
8.51615 66.5846 75.7639 -0.330582 -0.840377 -0.429512
8.62383 65.6058 77.4849 -0.301833 -0.819807 -0.486636
8.6102 64.6172 79.1132 -0.210022 -0.831608 -0.514119
5.7503 70.504 54.9281 -0.274544 -0.961394 -0.0186445
5.46662 70.5923 56.7884 -0.312809 -0.949631 0.0187672
6.1719 70.3696 55.9471 -0.274017 -0.96164 -0.0127693
6.40159 70.3289 54.0888 -0.268607 -0.963033 -0.016715
6.37141 70.3714 52.676 -0.259288 -0.965467 -0.0253445
5.8798 70.4773 54.3374 -0.277955 -0.960542 -0.00996929
5.83655 70.4871 54.5277 -0.274545 -0.961393 -0.0186519
4.51049 58.276 85.8424 0.0715562 -0.630226 -0.773107
3.06955 58.9396 85.1729 0.0771529 -0.624062 -0.777557
4.31177 60.0332 84.4185 0.071578 -0.622751 -0.779139
5.96597 59.2136 85.1848 0.0495491 -0.632448 -0.773017
6.12719 59.1371 85.2595 0.03872 -0.637757 -0.769264
6.63536 60.4793 84.1585 0.0290761 -0.644791 -0.763806
4.91961 61.4319 83.3237 -0.00891766 -0.618922 -0.785402
4.66893 61.5779 83.2115 0.0439035 -0.623313 -0.780739
5.98341 62.5374 82.3926 -0.0629387 -0.646332 -0.760456
4.99743 63.0919 81.8599 0.0611614 -0.749386 -0.659303
