6.36434 65.9289 79.9151 -0.276522 -0.752274 -0.598013
6.49993 64.843 81.1207 -0.254468 -0.722745 -0.642228
6.79885 63.7834 82.1515 -0.234652 -0.723505 -0.648859
7.16344 62.5819 83.2171 -0.116926 -0.665938 -0.736672
7.53717 61.2988 84.2608 -0.117824 -0.641989 -0.757576
7.30096 59.8539 85.4903 -0.0804487 -0.612131 -0.785166
6.56852 58.7748 86.2752 0.0163564 -0.611035 -0.790133
5.14268 58.1874 86.7055 0.0621314 -0.56819 -0.819999
3.02119 57.6548 86.875 0.114097 -0.575785 -0.808736
1.03949 57.1738 86.8435 0.137498 -0.550316 -0.823169
-0.39528 56.5793 86.9695 0.162328 -0.562498 -0.810707
-2.13348 56.1811 86.8523 0.189723 -0.576081 -0.794994
-2.16289 56.4143 86.6833 0.181598 -0.537921 -0.823141
-1.18258 56.7577 86.6763 0.191704 -0.555335 -0.80923
0.37444 57.8727 86.2734 0.176589 -0.51812 -0.83688
1.31843 58.8235 85.8334 0.126417 -0.530009 -0.838505
2.46127 59.9982 85.251 0.0713512 -0.551837 -0.830847
3.32238 61.1026 84.6129 0.0228925 -0.545832 -0.836448
4.13689 62.243 83.7968 -0.039646 -0.59294 -0.804112
4.65183 63.7687 82.5638 -0.109732 -0.639233 -0.761144
4.60633 65.0363 81.43 -0.172752 -0.697774 -0.695175
4.55109 66.045 80.4002 -0.184129 -0.722806 -0.666069
4.54115 67.0207 79.3119 -0.187658 -0.738835 -0.647231
5.5818 67.1854 78.6995 -0.27888 -0.750932 -0.598604
6.28454 66.5104 79.2205 -0.276523 -0.752276 -0.59801
7.58125 66.3143 78.7436 -0.347229 -0.754778 -0.556545
7.4985 67.4542 77.0828 -0.377139 -0.782545 -0.494858
7.45567 68.1623 75.6707 -0.465196 -0.802559 -0.373486
7.00072 67.926 76.7889 -0.479574 -0.754321 -0.434752
5.79056 68.204 77.4282 -0.44665 -0.718655 -0.532953
4.29333 68.4324 77.8699 -0.29415 -0.705749 -0.644511
3.26473 67.5026 79.1653 -0.212071 -0.713374 -0.667324
3.22551 66.4958 80.2663 -0.179016 -0.7167 -0.674013
3.28643 65.1208 81.6075 -0.115406 -0.660629 -0.741789
3.30673 63.8274 82.6925 -0.0552365 -0.5907 -0.804999
2.9077 62.623 83.5744 -0.00721338 -0.554819 -0.83194
2.15511 61.583 84.2481 0.0655854 -0.51931 -0.851971
1.32976 60.5919 84.76 0.127665 -0.48235 -0.866626
0.458375 59.457 85.3044 0.144498 -0.512185 -0.846633
-0.658699 58.5318 85.651 0.172241 -0.51534 -0.839498
-1.91291 57.6562 85.9232 0.180078 -0.512921 -0.839335
-3.41704 56.9906 86.0177 0.195236 -0.535642 -0.821566
-4.98318 56.3211 86.0403 0.232736 -0.520769 -0.821361
-4.7676 55.4678 86.6492 0.229854 -0.528918 -0.816953
-3.98511 54.4527 87.6309 0.233586 -0.569613 -0.78741
-2.29733 54.8879 87.7496 0.201935 -0.573929 -0.793614
-0.671755 55.3241 87.812 0.177105 -0.588184 -0.789024
0.632955 55.8214 87.7295 0.176772 -0.575631 -0.798374
2.22081 56.2957 87.6846 0.141408 -0.579375 -0.802701
4.18228 56.7765 87.6218 0.0970082 -0.596578 -0.796257
5.61235 57.235 87.4781 0.0849633 -0.616767 -0.781872
7.88078 58.2267 86.8084 0.0187278 -0.641913 -0.766056
8.51766 59.1876 85.9886 -0.0228197 -0.671632 -0.739555
9.04079 60.9164 84.3876 -0.103051 -0.66377 -0.739632
8.69632 61.9032 83.4804 -0.138434 -0.672586 -0.726032
8.25134 63.0111 82.5082 -0.189097 -0.688803 -0.6998
7.88012 64.301 81.1833 -0.234652 -0.723505 -0.648859
7.62443 65.4199 79.9716 -0.284449 -0.763915 -0.576604
7.59896 65.9641 79.2075 -0.347232 -0.754778 -0.556543
8.89217 65.709 78.8148 -0.325928 -0.791121 -0.517589
8.87856 64.899 80.0432 -0.284453 -0.763913 -0.576604
9.23778 63.7546 81.3544 -0.225369 -0.752898 -0.617569
9.66312 62.7109 82.452 -0.185586 -0.721632 -0.665348
10.1749 61.6132 83.4542 -0.159701 -0.714475 -0.681191
10.4067 60.5779 84.5143 -0.0966388 -0.718591 -0.688422
10.234 59.4812 85.613 -0.0372926 -0.697465 -0.715648
9.40453 57.9528 87.0234 -0.00834406 -0.645799 -0.763462
8.46629 57.0147 87.8517 0.0341107 -0.697688 -0.71559
7.0402 56.307 88.3369 0.0860725 -0.663548 -0.743166
5.27033 55.984 88.3981 0.114283 -0.621904 -0.774531
3.85192 55.6505 88.4669 0.112444 -0.634785 -0.764463
1.96428 55.0808 88.5434 0.158042 -0.613816 -0.773468
0.287392 54.6074 88.5521 0.177306 -0.605701 -0.775686
-1.42181 53.9253 88.6888 0.179443 -0.598548 -0.780731
-2.7688 53.6704 88.5428 0.219806 -0.591814 -0.775526
-4.44227 53.077 88.5319 0.236676 -0.605578 -0.759776
-5.58081 53.251 87.9643 0.331795 -0.602828 -0.725603
-5.56928 54.5389 87.033 0.357841 -0.540731 -0.754425
-6.5862 55.1636 86.3066 0.253563 -0.522845 -0.813842
-8.02787 55.5255 85.7056 0.223646 -0.524143 -0.821712
-9.72417 55.3077 85.4319 0.205905 -0.557364 -0.804331
-8.66749 56.1646 85.1176 0.230197 -0.524091 -0.819962
-7.36199 56.7205 85.1234 0.23105 -0.515438 -0.825191
-5.50715 57.4413 85.1884 0.226512 -0.517185 -0.825356
-3.85555 57.9832 85.2798 0.198598 -0.512896 -0.835162
-2.09259 58.8203 85.1693 0.187051 -0.517401 -0.83505
-0.636867 59.8823 84.834 0.170795 -0.508267 -0.844093
0.404667 61.0482 84.3534 0.167033 -0.499982 -0.849775
1.12836 62.1971 83.7832 0.07579 -0.515973 -0.853245
1.81822 63.3875 83.02 0.0428427 -0.558665 -0.828212
1.89203 64.896 81.9395 -0.0098389 -0.598385 -0.801148
1.87508 66.1487 80.8755 -0.0886064 -0.645603 -0.758516
1.84285 67.1371 79.882 -0.109841 -0.751093 -0.650994
2.01754 68.3734 78.5741 -0.0991339 -0.688114 -0.718798
2.24505 69.6024 77.3729 -0.0274411 -0.681869 -0.730959
2.79858 70.0662 76.9195 0.026746 -0.695011 -0.716182
4.37743 69.2406 76.9868 -0.357183 -0.625573 -0.693598
5.69688 68.9835 76.2919 -0.504087 -0.806123 -0.308094
6.62361 68.9914 74.626 -0.482696 -0.828663 -0.283023
6.9156 69.2769 73.1299 -0.513727 -0.831172 -0.204882
7.16282 69.4775 71.3922 -0.481748 -0.85846 -0.175958
7.01631 69.7988 69.9141 -0.436253 -0.890289 -0.130647
6.7819 70.1106 68.334 -0.411563 -0.909453 -0.0592584
6.77201 70.2303 66.6115 -0.368695 -0.927357 -0.0638157
6.56557 70.4109 65.2459 -0.368707 -0.926958 -0.0693101
6.38936 70.6003 63.349 -0.342423 -0.938588 -0.0395399
6.65697 70.5541 61.9534 -0.318389 -0.945514 -0.065019
7.54861 70.233 62.2191 -0.321556 -0.94586 -0.0441602
7.39554 70.1869 63.97 -0.353506 -0.934337 -0.045031
7.8314 69.8986 65.4344 -0.35152 -0.932789 -0.0788016
8.04151 69.6713 66.8982 -0.375577 -0.921618 -0.0953879
7.98362 69.5641 68.3747 -0.421973 -0.900348 -0.0980597
8.25951 69.2104 69.9172 -0.406373 -0.904712 -0.1279
8.42862 68.8427 71.4261 -0.421443 -0.890786 -0.16845
8.58795 68.4131 72.9602 -0.440047 -0.86897 -0.225126
8.54599 68.0546 74.2999 -0.430152 -0.869456 -0.242931
8.77136 67.466 75.6308 -0.429233 -0.837608 -0.337892
8.92481 66.8495 76.8941 -0.411022 -0.805945 -0.420701
8.82409 66.1632 78.1088 -0.337255 -0.825947 -0.451741
8.87635 65.9602 78.4408 -0.331579 -0.808515 -0.484704
7.09945 70.5076 58.8969 -0.304646 -0.95202 -0.029115
6.32127 70.7254 60.4788 -0.318816 -0.947594 -0.0203762
6.18192 70.8142 58.5207 -0.327011 -0.944669 -0.0237223
6.11688 70.8656 56.8428 -0.294956 -0.955339 -0.0181122
6.43454 70.7891 55.4268 -0.274883 -0.96125 -0.0207651
6.60021 70.7252 56.1151 -0.275884 -0.960919 -0.022884
6.99778 70.5784 57.4619 -0.303239 -0.952659 -0.0220605
7.05735 70.5272 58.6983 -0.304647 -0.95202 -0.0291203
6.39908 59.67 85.6365 -0.00730876 -0.549593 -0.835401
5.17146 59.0745 86.067 0.0388815 -0.584582 -0.810403
4.42697 58.6838 86.3016 0.085379 -0.551802 -0.829593
3.22135 58.8836 86.0479 0.0756708 -0.545291 -0.834824
4.57648 59.6143 85.6531 0.0304221 -0.561233 -0.827098
5.85315 60.2593 85.2424 0.00675153 -0.56994 -0.821658
6.67006 60.641 84.9413 -0.0805346 -0.612853 -0.786083
6.31748 61.3047 84.4402 -0.115175 -0.637427 -0.761854
4.87434 60.6197 84.9739 0.0230628 -0.56948 -0.821682
3.51313 59.9108 85.3953 0.0670312 -0.558385 -0.826869
3.04573 59.6577 85.5264 0.0756695 -0.545292 -0.834824
4.20737 61.1277 84.5984 0.0239847 -0.575977 -0.817114
5.3365 61.6772 84.1902 -0.0241965 -0.612224 -0.790314
6.59646 62.2196 83.6209 -0.120464 -0.646548 -0.753302
6.6254 62.2312 83.6063 -0.120464 -0.646545 -0.753304
6.39068 62.9265 83.0283 -0.11693 -0.665993 -0.736737
5.27511 62.4784 83.5879 -0.0662054 -0.628004 -0.775388
5.10229 62.3961 83.6541 -0.0240574 -0.595942 -0.802667
5.63734 63.4194 82.7151 -0.127814 -0.646817 -0.751859
6.16644 63.6209 82.4335 -0.145825 -0.654098 -0.74222
5.72118 64.2382 81.961 -0.167944 -0.701491 -0.692608
5.54751 64.1777 82.0645 -0.156985 -0.678236 -0.71788
