6.62718 67.1454 79.3705 -0.302237 -0.735029 -0.606913
7.02194 66.5099 79.9524 -0.297156 -0.738614 -0.605101
7.12072 65.7754 80.754 -0.28003 -0.712749 -0.643
7.27135 65.1173 81.4314 -0.272634 -0.719682 -0.638536
7.62176 63.9669 82.5297 -0.211908 -0.697296 -0.683299
7.79836 63.2123 83.1872 -0.191149 -0.677203 -0.710442
8.14124 62.1081 84.1019 -0.164881 -0.642788 -0.74809
8.1656 60.9861 85.0712 -0.0922565 -0.627841 -0.772855
7.96335 60.0323 85.8702 -0.062284 -0.660974 -0.746
7.20881 58.8058 86.8977 0.0530372 -0.634282 -0.771281
5.63661 58.1315 87.3441 0.0565327 -0.627883 -0.776202
4.1097 57.7812 87.4368 0.0842537 -0.579502 -0.810604
3.10901 57.5471 87.5002 0.0842556 -0.579504 -0.810602
1.87033 57.2223 87.5048 0.156275 -0.562247 -0.812069
0.707086 56.9482 87.4786 0.169096 -0.570477 -0.803458
-0.218539 56.5769 87.5234 0.189243 -0.568535 -0.800597
-1.04651 56.1544 87.6277 0.184903 -0.574444 -0.797346
-2.15866 55.767 87.6081 0.218303 -0.576783 -0.787188
-3.07223 56.0339 87.2027 0.207318 -0.541863 -0.814496
-3.37557 56.7331 86.6635 0.207525 -0.509958 -0.834791
-2.24307 57.2885 86.5896 0.182728 -0.519959 -0.834418
-1.45715 57.7401 86.4803 0.185693 -0.511125 -0.839143
-0.205298 58.6618 86.1927 0.167761 -0.519578 -0.837608
0.692249 59.4379 85.8798 0.138795 -0.514406 -0.846162
1.716 60.1785 85.5798 0.131828 -0.521705 -0.842874
2.4718 60.9626 85.1676 0.0594872 -0.51748 -0.853625
2.94414 61.6712 84.767 0.00344225 -0.568134 -0.822929
3.55034 62.8414 83.9786 -0.0203024 -0.565559 -0.823901
3.8872 63.6182 83.4043 -0.0431883 -0.58003 -0.813447
4.12496 64.8414 82.4418 -0.105241 -0.621938 -0.775962
4.13003 65.566 81.8428 -0.103549 -0.63376 -0.766568
4.11002 66.3589 81.1089 -0.165168 -0.688344 -0.70633
4.18542 67.0816 80.3935 -0.183903 -0.690676 -0.699144
5.28546 67.3035 79.858 -0.24946 -0.716327 -0.647723
6.10151 67.1708 79.6054 -0.307326 -0.731453 -0.608709
6.09587 67.8479 78.9243 -0.306338 -0.642049 -0.702802
7.07228 67.8219 78.1053 -0.509646 -0.687966 -0.516686
7.69542 67.9206 77.3377 -0.510657 -0.774974 -0.369589
7.97835 67.795 77.2463 -0.415603 -0.841821 -0.344326
7.82903 67.3197 78.1942 -0.383725 -0.791306 -0.476015
8.01294 66.7433 79.0042 -0.379919 -0.766801 -0.515288
8.0693 66.1732 79.729 -0.347051 -0.766924 -0.538206
8.11354 65.4641 80.672 -0.28693 -0.719884 -0.632011
8.29759 64.8326 81.3077 -0.266147 -0.741329 -0.615159
8.58202 64.0765 82.0757 -0.223543 -0.724631 -0.651873
8.81775 63.0319 83.0972 -0.176917 -0.684394 -0.707322
9.19108 62.1189 83.9123 -0.135358 -0.697701 -0.702761
9.30088 61.2841 84.6936 -0.100977 -0.657369 -0.745641
9.26701 60.3419 85.5128 -0.032313 -0.694113 -0.719141
9.06127 59.7024 86.1393 -0.032313 -0.694113 -0.719141
8.3809 58.4495 87.2359 -0.00523424 -0.643438 -0.76548
7.17947 57.6646 87.8342 0.0565361 -0.627884 -0.776201
5.74962 57.3097 88.0066 0.0600332 -0.621486 -0.781121
4.36188 56.9165 88.1064 0.122389 -0.60475 -0.786955
3.12957 56.6644 88.1333 0.120264 -0.570873 -0.811338
1.9644 56.2503 88.2063 0.148946 -0.572423 -0.806317
0.703298 56.0122 88.1424 0.169093 -0.570479 -0.803458
-0.228409 55.6173 88.2063 0.180561 -0.580355 -0.794094
-1.18154 55.2025 88.2928 0.199433 -0.57857 -0.790641
-2.17607 54.8598 88.2725 0.204295 -0.597623 -0.775313
-3.03906 54.5597 88.2764 0.235083 -0.589016 -0.772506
-3.65881 55.1665 87.6048 0.264002 -0.575081 -0.774295
-4.17511 55.8791 86.9892 0.259979 -0.508044 -0.821159
-4.92409 56.3748 86.4841 0.216899 -0.488943 -0.84492
-4.58713 57.2081 86.0804 0.216743 -0.496554 -0.84051
-3.77783 57.604 86.0361 0.198937 -0.505627 -0.839503
-2.80513 57.961 86.0475 0.185701 -0.511127 -0.839139
-1.75822 58.5323 85.9415 0.188661 -0.502289 -0.843868
-1.03654 59.0798 85.7665 0.174985 -0.508675 -0.842989
-0.156481 59.8332 85.4946 0.161649 -0.50847 -0.845661
0.56442 60.3955 85.2696 0.130901 -0.500339 -0.855559
1.20865 61.0058 85.0302 0.132548 -0.480091 -0.867147
2.07636 62.0339 84.4906 0.0708989 -0.518132 -0.852279
2.45678 62.9133 83.928 0.00250172 -0.549359 -0.835582
2.95874 64.2094 83.034 -0.0432684 -0.578314 -0.814666
3.03299 65.4917 82.0371 -0.055581 -0.642875 -0.763952
3.04956 66.4644 81.2329 -0.0929661 -0.650518 -0.751982
3.20695 67.737 80.0028 -0.0981106 -0.704573 -0.701842
3.59045 68.3633 79.4071 -0.103615 -0.651133 -0.751857
4.65667 68.0674 79.359 -0.264149 -0.613056 -0.74137
5.55921 67.8703 79.1377 -0.30634 -0.64205 -0.7028
5.4664 68.5136 78.5905 -0.311327 -0.63948 -0.702929
4.56113 68.7684 78.7669 -0.345524 -0.516093 -0.770855
3.72818 69.142 78.8307 -0.0219825 -0.408287 -0.912589
3.06022 69.6486 78.4975 0.120296 -0.660087 -0.741495
2.74936 70.2937 77.8728 0.0858043 -0.659208 -0.746237
2.42948 69.8924 78.2027 0.0513098 -0.658336 -0.750973
2.25014 69.2283 78.7727 0.0427194 -0.682179 -0.729171
2.06695 68.4561 79.4735 -0.0475424 -0.639287 -0.767497
1.9483 67.5454 80.3467 -0.0758406 -0.726923 -0.682518
1.85041 66.5009 81.3045 -0.0655518 -0.618806 -0.782804
1.93048 65.6254 82.0048 -0.0265518 -0.614797 -0.786869
1.97136 64.6757 82.693 0.00264993 -0.587481 -0.809233
1.70138 63.9162 83.2058 0.0521374 -0.546194 -0.836034
1.40441 63.1172 83.7291 0.0504852 -0.56284 -0.825023
0.909374 62.0497 84.3695 0.0809263 -0.516764 -0.852295
0.212435 61.2329 84.7371 0.172504 -0.500173 -0.848569
-0.575062 60.5576 84.9722 0.177766 -0.498644 -0.848383
-1.35598 59.9562 85.1725 0.173733 -0.507083 -0.844206
-2.07503 59.3225 85.3977 0.195475 -0.5035 -0.841584
-2.95278 58.7316 85.551 0.194459 -0.506712 -0.839898
-3.93627 58.4921 85.4643 0.199058 -0.504813 -0.839964
-4.91955 58.172 85.4216 0.213808 -0.512352 -0.831734
-5.80534 57.8629 85.3796 0.216473 -0.496457 -0.840637
-6.88821 57.3336 85.4205 0.196794 -0.503457 -0.841286
-7.88857 56.9311 85.4339 0.187266 -0.506843 -0.84143
-8.81446 56.1633 85.6955 0.180833 -0.517293 -0.836425
-7.85475 56.1658 85.9075 0.183729 -0.511341 -0.839508
-7.07393 56.2356 86.0155 0.181457 -0.470359 -0.862959
-5.78436 55.8556 86.5673 0.217115 -0.492792 -0.842479
-4.96633 55.3443 87.0696 0.23844 -0.498492 -0.83304
-4.82279 54.3792 87.7963 0.247638 -0.607299 -0.75403
-5.19248 53.6323 88.3161 0.236469 -0.632307 -0.737712
-4.84851 53.1736 88.8206 0.23082 -0.636412 -0.736004
-3.95699 53.4098 88.898 0.22941 -0.634192 -0.738357
-3.05764 53.6212 88.9959 0.227258 -0.631549 -0.741269
-2.20617 53.9379 88.9792 0.212298 -0.609435 -0.763884
-1.20411 54.3511 88.928 0.212533 -0.609416 -0.763834
0.0948147 54.8379 88.8641 0.191006 -0.602807 -0.774687
1.03599 55.1098 88.8758 0.169964 -0.606043 -0.777027
2.36568 55.5001 88.8507 0.164497 -0.610283 -0.774916
3.46759 55.9116 88.7555 0.155629 -0.608545 -0.778108
4.80312 56.1025 88.8089 0.118125 -0.631581 -0.766258
5.8898 56.4103 88.733 0.0912137 -0.613119 -0.784038
7.2236 56.6939 88.6275 0.0940454 -0.662963 -0.742721
8.17942 57.1349 88.3549 0.0797222 -0.663897 -0.743423
8.8968 57.6683 87.8946 0.040682 -0.696922 -0.715992
10.196 59.0439 86.7239 -0.0187738 -0.668776 -0.74231
10.3652 59.9538 85.838 -0.032313 -0.694113 -0.719141
10.3894 60.8326 84.9772 -0.087278 -0.703681 -0.705135
10.2959 61.6455 84.1415 -0.133636 -0.714896 -0.685764
10.1094 62.6517 83.1476 -0.160964 -0.708572 -0.687035
9.85163 63.2784 82.5755 -0.202639 -0.741891 -0.639168
9.58696 64.1154 81.6879 -0.21308 -0.733245 -0.645543
9.36682 64.7338 80.9952 -0.245349 -0.762779 -0.598307
9.07033 65.3504 80.3671 -0.30246 -0.755714 -0.576936
9.12204 65.8722 79.5419 -0.337418 -0.79003 -0.511861
9.0373 66.4483 78.6732 -0.345537 -0.829113 -0.439517
9.01376 67.0028 77.733 -0.399532 -0.789968 -0.465108
9.10066 67.4196 76.8018 -0.418761 -0.838122 -0.349557
8.97324 67.8268 75.9535 -0.42068 -0.845697 -0.328368
8.82662 68.3167 74.8068 -0.406834 -0.861374 -0.304172
8.85196 68.6448 73.6247 -0.422946 -0.873277 -0.241878
8.83091 68.9138 72.699 -0.390224 -0.893185 -0.223486
8.75036 69.1734 71.8321 -0.398863 -0.887887 -0.22927
8.77077 69.4054 70.7175 -0.413134 -0.894651 -0.170056
8.61554 69.6247 69.6751 -0.387831 -0.914165 -0.117854
8.23438 69.8981 68.8093 -0.402945 -0.906109 -0.127353
8.12979 70.0765 67.5022 -0.370955 -0.924196 -0.090852
7.95375 70.2505 66.4508 -0.365683 -0.926803 -0.0851121
8.08294 70.3046 65.1846 -0.354014 -0.932065 -0.0769952
7.97469 70.427 64.2 -0.347438 -0.93562 -0.0594865
8.02418 70.464 63.2265 -0.336289 -0.939991 -0.0576759
7.55319 70.6959 61.9714 -0.314221 -0.947905 -0.0523525
7.36065 70.8309 60.8612 -0.330207 -0.942233 -0.0476565
7.47996 70.8237 59.8465 -0.304984 -0.951417 -0.0423101
7.21934 70.9493 58.9 -0.304955 -0.951431 -0.0422177
6.94089 71.0731 57.798 -0.297627 -0.954412 -0.0200028
6.73171 71.1591 56.4698 -0.28118 -0.959381 -0.0229091
6.59756 71.1751 57.9502 -0.289968 -0.95695 -0.0128363
6.74694 71.0972 58.9802 -0.304927 -0.951443 -0.0421289
6.73807 71.0604 60.0694 -0.324909 -0.945564 -0.0185031
6.86944 70.9976 60.9695 -0.330207 -0.942233 -0.0476565
6.94353 70.8835 62.2341 -0.317064 -0.947426 -0.0415918
6.98379 70.8391 63.1807 -0.328102 -0.943468 -0.0442559
7.12505 70.7323 64.2699 -0.34087 -0.939173 -0.0419688
7.18933 70.6168 65.5379 -0.358564 -0.930785 -0.0712132
7.50109 70.4283 66.4239 -0.360408 -0.929411 -0.0793797
7.44077 70.3305 67.732 -0.381408 -0.921389 -0.0711759
7.45764 70.2647 68.776 -0.404959 -0.908317 -0.0941797
7.59884 70.0236 69.927 -0.402945 -0.906109 -0.127352
7.77974 69.8363 70.8581 -0.399166 -0.906104 -0.1343
7.73013 69.6471 71.7956 -0.462375 -0.870801 -0.167079
7.70575 69.4622 72.6902 -0.435346 -0.876948 -0.203558
7.56367 69.3212 73.691 -0.524356 -0.818296 -0.235462
7.60731 69.0336 74.6166 -0.476686 -0.839556 -0.258689
7.49235 68.7386 75.6963 -0.541369 -0.787399 -0.292611
7.01221 68.7363 76.4756 -0.524479 -0.785769 -0.327857
6.58422 68.5965 77.4241 -0.496832 -0.764184 -0.411316
5.80638 68.4911 78.4628 -0.407993 -0.665009 -0.609741
-1.27651 57.2247 86.8619 0.186938 -0.543367 -0.818417
-0.983831 57.1262 86.9884 0.170663 -0.546486 -0.819895
0.260355 58.4267 86.4267 0.152841 -0.528438 -0.8351
1.70467 57.8726 87.0226 0.156275 -0.562247 -0.812069
2.25329 59.4246 86.1339 0.13437 -0.522878 -0.84175
4.13715 58.5423 86.907 0.0911592 -0.54594 -0.83285
6.44798 59.0672 86.6304 0.0224967 -0.606735 -0.794586
4.56887 60.0376 85.9181 0.0377939 -0.557744 -0.829152
3.07428 60.7742 85.3238 0.0669292 -0.5368 -0.841051
4.0092 62.0799 84.4893 0.0191024 -0.570419 -0.821132
5.92278 61.0467 85.2623 -0.0181473 -0.593669 -0.804505
7.16997 60.3661 85.7114 -0.0801424 -0.605284 -0.791965
7.36218 61.8022 84.5132 -0.114991 -0.635995 -0.763077
5.47881 62.9984 83.7751 -0.0991332 -0.648152 -0.755031
4.44949 63.6218 83.3719 -0.0431884 -0.580031 -0.813449
5.05648 65.001 82.1728 -0.16948 -0.673967 -0.719058
6.92615 63.7152 82.9377 -0.11905 -0.662333 -0.739691
7.15473 63.565 83.0354 -0.158805 -0.666678 -0.728232
6.62033 65.5459 81.2264 -0.280045 -0.712795 -0.643038
4.99492 66.7629 80.491 -0.191165 -0.697846 -0.690266
