1.30599 58.0485 87.374 0.144174 -0.541311 -0.828033
3.61501 58.6568 87.3044 0.0880081 -0.556909 -0.825627
5.17304 58.9825 87.2397 0.0211727 -0.569974 -0.820905
7.08027 60.2831 86.3242 -0.00459498 -0.541535 -0.84004
7.47977 61.4784 85.3912 -0.127113 -0.614873 -0.778315
7.52319 62.7985 84.3162 -0.111898 -0.629982 -0.768506
7.13463 64.1855 83.2138 -0.115017 -0.647476 -0.753356
6.62714 65.5931 82.0939 -0.16171 -0.654365 -0.738685
5.39231 65.8546 82.1388 -0.180599 -0.634446 -0.751562
4.87922 64.9147 82.9463 -0.0980932 -0.610181 -0.786166
4.40528 63.456 84.0729 -0.00833512 -0.585454 -0.810662
3.76745 62.1127 85.02 0.00995053 -0.566086 -0.824286
3.00584 60.8427 85.8172 0.0786393 -0.553422 -0.82918
1.97255 59.9849 86.2773 0.111401 -0.528923 -0.840952
0.336995 58.8956 86.6823 0.152401 -0.525852 -0.836811
-0.953966 57.8547 87.0556 0.176336 -0.526049 -0.831666
-1.71866 56.875 87.5282 0.203766 -0.536527 -0.818913
-0.391446 57.4089 87.468 0.169979 -0.544948 -0.82106
0.568195 57.7987 87.4137 0.142465 -0.525486 -0.838728
0.630328 56.6057 88.2515 0.147491 -0.569633 -0.808558
-1.17193 55.9402 88.3134 0.198457 -0.575484 -0.793095
-2.58857 55.8333 87.9983 0.210592 -0.555823 -0.803833
-3.30356 56.8127 87.1702 0.209364 -0.53926 -0.815699
-2.96083 57.9179 86.5795 0.198951 -0.509911 -0.836722
-1.70312 58.6182 86.4404 0.183629 -0.500621 -0.845936
-0.390354 59.6801 86.0788 0.161213 -0.506876 -0.846698
0.776575 60.5183 85.7617 0.13028 -0.518363 -0.845179
1.9911 61.4912 85.3366 0.0628851 -0.516732 -0.853835
2.67445 62.6078 84.6668 0.00881475 -0.557393 -0.830135
3.27913 64.0606 83.6924 -0.0363435 -0.575603 -0.816915
3.60184 65.252 82.8439 -0.0674046 -0.591629 -0.802423
3.76425 66.3579 81.9792 -0.0392636 -0.619891 -0.783705
4.14452 67.424 81.1426 -0.167601 -0.520477 -0.82691
5.56732 66.9632 81.1609 -0.180599 -0.634446 -0.751563
7.00268 66.9497 80.6857 -0.341686 -0.639215 -0.688952
7.74418 66.2719 81.0288 -0.294474 -0.681284 -0.670177
8.08082 65.057 82.117 -0.230028 -0.697194 -0.678975
8.43836 63.7587 83.2673 -0.181993 -0.671729 -0.718094
8.89955 62.4538 84.3628 -0.105914 -0.677277 -0.728065
8.75398 60.9613 85.6424 -0.0905325 -0.619946 -0.779404
7.93696 59.0715 87.3066 5.41612e-05 -0.633069 -0.774095
6.59138 58.1766 87.9424 0.0540744 -0.626208 -0.777778
4.13866 57.6119 88.0965 0.10315 -0.586541 -0.802956
1.97157 57.0172 88.2063 0.151649 -0.563569 -0.811989
1.79576 56.9456 88.2246 0.147487 -0.569633 -0.808558
2.06666 55.892 89.0397 0.163531 -0.606357 -0.778196
0.682585 55.4935 89.0584 0.173783 -0.598511 -0.782038
-1.00442 54.857 89.1412 0.189301 -0.599311 -0.777812
-2.7327 54.3829 89.0532 0.242049 -0.583057 -0.774503
-3.82995 54.2715 88.7362 0.261078 -0.60346 -0.752386
-3.85826 55.6475 87.7069 0.277053 -0.569087 -0.774197
-4.91669 56.7257 86.7598 0.228783 -0.454686 -0.860766
-6.28261 57.2305 86.1465 0.195513 -0.49534 -0.846412
-5.85563 58.1784 85.7079 0.216313 -0.479321 -0.850564
-4.2084 58.7218 85.7997 0.200527 -0.499945 -0.842522
-2.62043 59.265 85.8497 0.195646 -0.502153 -0.842357
-1.51583 60.117 85.5841 0.17379 -0.5059 -0.844904
-0.449506 60.9959 85.2806 0.175518 -0.500456 -0.847783
0.793732 61.8545 85.0009 0.0835167 -0.518341 -0.851086
1.55164 63.2116 84.2149 0.056781 -0.562016 -0.825175
1.96827 64.5485 83.3391 0.0536313 -0.548524 -0.834413
2.28216 65.8804 82.4009 0.00569413 -0.579143 -0.815206
2.26334 67.2936 81.3799 0.0204578 -0.591337 -0.800803
2.81546 68.885 80.197 0.0862408 -0.621114 -0.778961
3.2832 69.2006 79.997 0.0454003 -0.604199 -0.794164
4.50727 68.4425 80.3787 -0.296827 -0.503041 -0.811692
5.87722 67.8859 80.2976 -0.339398 -0.574429 -0.744876
7.00547 68.0449 79.454 -0.460624 -0.750772 -0.465622
7.82238 68.2234 78.1535 -0.454753 -0.793632 -0.404163
8.24585 68.5836 76.8048 -0.448894 -0.831897 -0.325655
8.61508 68.905 75.4411 -0.438215 -0.854649 -0.274496
8.94111 68.7872 75.2509 -0.446406 -0.864894 -0.229522
8.93542 68.4325 76.2589 -0.430099 -0.844328 -0.31957
9.00445 67.846 77.6441 -0.428099 -0.836758 -0.341419
9.11023 67.1464 78.9337 -0.397638 -0.82388 -0.403863
9.03669 66.1524 80.5041 -0.361227 -0.725067 -0.579425
9.4467 64.9038 81.7851 -0.261218 -0.718965 -0.642818
9.73161 63.8864 82.8087 -0.209801 -0.725897 -0.655025
10.1727 62.4406 84.1267 -0.162119 -0.700906 -0.694585
10.2513 61.4398 85.118 -0.0269927 -0.687875 -0.725327
10.0405 60.3524 86.1567 -0.026436 -0.687793 -0.725425
9.34205 58.7778 87.5469 5.34627e-05 -0.633071 -0.774094
8.43931 57.8992 88.2685 0.0439398 -0.69154 -0.721001
6.92827 57.1483 88.7732 0.0954579 -0.657269 -0.747587
4.53471 56.5718 88.9435 0.119425 -0.612805 -0.780953
2.90037 56.2331 88.9492 0.158834 -0.605503 -0.779815
2.49953 56.0665 88.9947 0.163564 -0.606383 -0.778169
8.86022 69.5308 72.5113 -0.418876 -0.881691 -0.217173
8.76135 69.9237 70.736 -0.417045 -0.893905 -0.164339
8.49853 69.8991 71.5368 -0.412189 -0.894294 -0.173853
8.7576 69.567 72.5622 -0.418872 -0.881693 -0.217171
6.33502 60.3748 86.2712 -0.00223726 -0.514361 -0.857571
4.9702 59.7044 86.7242 0.049301 -0.571241 -0.8193
2.85172 59.3954 86.747 0.0878304 -0.5373 -0.838805
4.35089 60.2209 86.3304 0.0420978 -0.554456 -0.831148
5.52276 60.8316 85.9775 0.0272387 -0.555826 -0.830852
6.70765 61.3982 85.5807 -0.0846196 -0.595621 -0.798796
6.47594 62.1064 85.0369 -0.112278 -0.630663 -0.767892
5.33159 61.5768 85.4723 0.0425712 -0.564003 -0.824674
3.69142 60.7201 85.964 0.0603766 -0.554035 -0.830301
4.70107 62.0902 85.0798 0.0443266 -0.571938 -0.819099
5.93316 62.6807 84.6238 -0.00936656 -0.606807 -0.794794
6.77731 63.0259 84.2384 -0.111899 -0.629981 -0.768507
6.07416 63.5398 83.911 -0.106266 -0.636179 -0.764188
5.19312 63.1517 84.2845 -0.00833656 -0.585451 -0.810665
5.36071 64.0376 83.5798 -0.0896882 -0.637835 -0.764933
6.35643 64.4403 83.1135 -0.129728 -0.63594 -0.760757
5.83313 65.0448 82.7206 -0.144384 -0.624141 -0.767855
5.63276 64.9652 82.8158 -0.0946219 -0.611402 -0.785642
