0.165809 58.2665 88.0685 0.171961 -0.512116 -0.841405
1.69435 58.7282 88.1086 0.156929 -0.531353 -0.832126
3.52757 59.3216 88.0187 0.140195 -0.543997 -0.82726
4.75264 59.5018 88.038 0.0961433 -0.57545 -0.812166
6.04975 60.1371 87.7414 0.090767 -0.575053 -0.813047
7.15976 61.0911 87.1083 -0.0144116 -0.535782 -0.844233
7.74898 62.4872 86.0341 -0.103846 -0.629478 -0.770041
7.82736 63.3864 85.2832 -0.102804 -0.633215 -0.767118
7.65161 64.4269 84.4618 -0.134097 -0.617946 -0.774496
7.04422 65.4003 83.7714 -0.173267 -0.603833 -0.776854
5.35157 65.5627 83.9837 -0.101174 -0.5437 -0.833159
4.56965 64.1542 84.948 -0.00493979 -0.540288 -0.841466
3.69525 62.6572 85.8826 0.0460036 -0.544374 -0.83758
2.69794 61.5984 86.4653 0.0934883 -0.500623 -0.860602
1.47915 60.658 86.8901 0.119599 -0.526947 -0.841176
0.181815 59.6245 87.2693 0.158808 -0.490545 -0.856714
-0.431545 58.7305 87.6695 0.189366 -0.490727 -0.8503
-0.051738 58.3901 87.9505 0.189367 -0.490728 -0.850299
-1.19733 57.8864 87.9836 0.196386 -0.51552 -0.834069
-1.79615 58.6955 87.3738 0.19142 -0.47377 -0.859593
-1.72341 59.5098 86.9369 0.190945 -0.481046 -0.855649
-0.570757 60.3291 86.7264 0.158807 -0.490546 -0.856714
0.375934 61.2697 86.3664 0.148034 -0.471448 -0.869381
1.43985 62.0217 86.0781 0.110377 -0.50319 -0.857098
2.4503 63.0399 85.5655 0.0434066 -0.527239 -0.848362
3.1627 63.9658 85.0496 0.0408038 -0.510101 -0.859146
3.51873 65.4841 84.1385 -0.0089659 -0.504815 -0.863181
3.81785 66.6036 83.4808 -0.0530281 -0.525175 -0.847813
5.60047 66.5822 83.326 -0.195363 -0.479347 -0.846258
7.08224 66.352 83.0368 -0.213576 -0.604121 -0.767739
8.28564 66.2006 82.589 -0.308934 -0.657874 -0.683678
8.64344 65.2501 83.4516 -0.251058 -0.66971 -0.697254
8.94466 64.0097 84.5165 -0.194793 -0.68479 -0.702224
9.01227 62.5722 85.8195 -0.0901873 -0.662902 -0.741564
8.69783 61.1837 86.9774 -0.0524414 -0.656406 -0.751482
8.04619 60.0482 87.8997 0.0271938 -0.622055 -0.782502
7.22904 59.3031 88.454 0.0853891 -0.574656 -0.813928
5.75748 58.5682 88.8184 0.090767 -0.575053 -0.813047
4.28663 58.3017 88.8122 0.109147 -0.557955 -0.822662
3.05084 57.9716 88.8302 0.146018 -0.547061 -0.824259
1.27123 57.4492 88.839 0.166212 -0.549182 -0.819007
-0.268632 56.9126 88.8448 0.210052 -0.547623 -0.809806
-1.11662 57.7347 88.0964 0.196386 -0.515519 -0.83407
-2.16256 57.448 87.9835 0.24054 -0.499536 -0.832228
-1.90168 56.1664 88.8819 0.260301 -0.564531 -0.782856
-1.2604 55.6322 89.4988 0.251689 -0.604061 -0.75615
0.21139 55.9542 89.6591 0.216572 -0.579076 -0.785982
1.4373 56.3538 89.6466 0.176102 -0.580482 -0.79492
2.85816 56.6769 89.7035 0.145787 -0.572722 -0.806682
4.14176 57.2154 89.5454 0.130874 -0.571861 -0.809844
5.45955 57.3877 89.6246 0.122461 -0.581513 -0.804263
6.85058 57.8362 89.4845 0.0858045 -0.607159 -0.789934
8.14104 58.4646 89.1416 0.0855978 -0.590906 -0.801932
9.12806 59.2319 88.5641 0.00326573 -0.622423 -0.782675
9.68234 60.1037 87.8732 0.0032507 -0.622437 -0.782663
9.97867 61.016 87.0778 -0.032404 -0.683727 -0.729018
10.3625 62.1068 86.0713 -0.0901902 -0.662902 -0.741563
10.3417 63.1003 85.0639 -0.175998 -0.712875 -0.678847
10.0753 63.9994 84.2171 -0.189018 -0.684715 -0.703873
9.88639 65.1576 83.0375 -0.22685 -0.758693 -0.610675
9.61349 66.0791 82.1047 -0.313484 -0.724295 -0.613431
9.40845 66.9993 81.0185 -0.394064 -0.762988 -0.512409
9.22187 67.7476 80.0664 -0.40689 -0.787374 -0.458297
8.86197 68.0061 80.0161 -0.554113 -0.71748 -0.422044
8.13676 67.731 81.0255 -0.506799 -0.659168 -0.555565
7.41294 67.31 81.9876 -0.546786 -0.421821 -0.723251
5.99641 67.4749 82.6104 -0.311038 -0.50667 -0.804077
4.6663 67.8973 82.7408 -0.0468179 -0.47047 -0.880329
3.64531 68.3988 82.4241 0.07747 -0.520534 -0.849932
3.14179 69.3018 81.7893 0.0914119 -0.537407 -0.838354
2.71435 68.2277 82.4329 0.0910275 -0.538549 -0.837663
2.36012 66.8601 83.2389 0.0517595 -0.52042 -0.85234
2.09847 65.5363 84.0347 0.0673014 -0.513641 -0.855164
1.89749 64.4469 84.6643 0.0789431 -0.525485 -0.847132
1.06813 63.3291 85.2653 0.0981142 -0.518611 -0.849362
0.156565 62.3311 85.7337 0.107381 -0.499212 -0.8598
-1.13642 61.2624 86.0961 0.165051 -0.479862 -0.861679
-2.17721 60.7532 86.1761 0.168078 -0.478239 -0.861996
-3.75833 59.9905 86.2548 0.189555 -0.455068 -0.870047
-4.81358 59.4749 86.2948 0.188458 -0.45602 -0.869787
-5.05582 58.6684 86.6396 0.185335 -0.417679 -0.889492
-3.43979 58.3991 87.1514 0.183864 -0.444007 -0.876896
-2.50803 57.9185 87.5994 0.228995 -0.473755 -0.849585
4.39788 60.0393 87.6385 0.0787977 -0.540449 -0.837679
5.97884 60.9102 87.2121 0.0512913 -0.557723 -0.828441
6.20672 61.0251 87.1439 0.0348666 -0.560097 -0.827693
7.12602 62.2685 86.2965 -0.0436877 -0.613196 -0.788722
5.8499 61.6436 86.7104 0.0512928 -0.557718 -0.828444
3.6908 60.4658 87.2969 0.0925546 -0.541091 -0.835855
2.46393 59.7559 87.589 0.132906 -0.512265 -0.848481
1.40769 59.9601 87.3003 0.147262 -0.509993 -0.847479
1.38908 59.9487 87.3036 0.161587 -0.507612 -0.846298
6.93336 62.9425 85.7681 -0.101968 -0.63165 -0.768519
5.51256 62.2721 86.2661 0.0376902 -0.569585 -0.821068
4.23359 61.5831 86.6189 0.0661782 -0.55123 -0.831725
3.80653 61.3525 86.7357 0.0925546 -0.541091 -0.835855
4.32439 62.4516 86.0563 0.0646421 -0.547259 -0.834463
5.67726 63.1347 85.6361 0.010693 -0.591118 -0.806514
6.46592 63.5087 85.3647 -0.102384 -0.632433 -0.767819
6.56686 64.3087 84.728 -0.126665 -0.605965 -0.785342
5.09307 63.6507 85.2739 0.00239612 -0.542302 -0.84018
5.69403 64.7285 84.5122 -0.0938318 -0.609412 -0.787282
6.25653 64.9503 84.2735 -0.0975817 -0.577023 -0.810877
