7.4168 61.9648 87.2103 0.0325456 -0.572118 -0.819526
7.58405 63.516 86.0426 -0.0704235 -0.613081 -0.786875
7.5219 64.5446 85.26 -0.0895348 -0.586854 -0.804125
6.39816 64.9769 85.1119 -0.081849 -0.567101 -0.819058
5.09459 65.0041 85.1772 -0.017191 -0.536778 -0.842017
4.0965 63.7065 85.9163 0.0439539 -0.497352 -0.866163
3.07644 62.5149 86.5549 0.066077 -0.520908 -0.851052
2.17097 61.556 86.9964 0.107449 -0.484274 -0.868293
0.662158 60.4373 87.4109 0.168607 -0.492816 -0.853641
0.865389 59.2821 88.1142 0.181563 -0.495903 -0.849018
2.34596 59.2734 88.3991 0.147105 -0.526655 -0.837254
4.25592 59.7676 88.3831 0.114079 -0.54943 -0.827716
6.13461 60.2789 88.2725 0.0816503 -0.554538 -0.82813
7.13759 61.1667 87.7565 0.0347299 -0.566937 -0.823001
7.35823 61.7349 87.3685 0.0329607 -0.57231 -0.819375
8.58292 61.5062 87.5365 -0.0323907 -0.595874 -0.802424
8.06078 60.2858 88.4185 0.0702557 -0.593396 -0.801839
6.9882 59.4296 88.949 0.0904339 -0.582022 -0.807997
5.52013 58.9475 89.1053 0.110379 -0.573681 -0.811541
3.70026 58.5206 89.1259 0.135869 -0.537806 -0.831797
2.09536 58.0702 89.1142 0.155187 -0.547903 -0.821767
0.152664 57.9705 88.7623 0.180389 -0.530496 -0.828272
-0.576263 59.1321 87.9051 0.178496 -0.484551 -0.856359
-1.05928 60.1353 87.2507 0.181836 -0.467044 -0.8653
-0.318063 60.9403 86.9518 0.154244 -0.470765 -0.868585
0.684047 61.8918 86.6131 0.12113 -0.487155 -0.864874
1.733 62.8193 86.2376 0.114293 -0.485714 -0.866583
2.67234 63.8032 85.7623 0.0613154 -0.485687 -0.87198
3.43807 65.0258 85.1154 0.0248023 -0.491201 -0.870451
3.99405 66.4997 84.3375 -0.00621416 -0.488577 -0.871834
5.34522 66.0393 84.5508 -0.0509402 -0.49774 -0.865665
6.83329 65.9766 84.358 -0.138002 -0.552683 -0.821285
8.63069 65.5483 84.1896 -0.206665 -0.632074 -0.745528
8.90255 64.4933 85.0679 -0.170957 -0.656064 -0.735087
8.8884 63.2569 86.1357 -0.0702486 -0.666942 -0.740504
8.73773 62.1101 87.0818 -0.0363165 -0.613046 -0.7889
8.67143 61.8555 87.2736 -0.0323945 -0.595875 -0.802423
9.95592 61.7377 87.3305 -0.0419353 -0.64903 -0.759606
9.78438 60.757 88.1384 0.0186264 -0.615151 -0.788117
8.93468 59.5072 89.0712 0.0452421 -0.600097 -0.798219
7.98025 58.6704 89.5958 0.100079 -0.619067 -0.778935
6.56369 58.0759 89.8579 0.128292 -0.583325 -0.801629
5.2816 57.8144 89.8573 0.123537 -0.565684 -0.815279
3.92539 57.3873 89.9305 0.134444 -0.561709 -0.816338
2.57466 57.0027 89.948 0.158084 -0.562331 -0.811661
1.17394 56.6774 89.8693 0.195145 -0.573662 -0.795339
-0.551951 56.5577 89.4957 0.251176 -0.575461 -0.778303
-1.04365 57.5171 88.7257 0.229849 -0.507028 -0.830627
-1.50203 58.5692 87.972 0.224751 -0.471801 -0.851835
-2.50968 59.3451 87.3338 0.204961 -0.408517 -0.889039
-4.17635 59.423 86.9519 0.186139 -0.43061 -0.883135
-5.41394 59.5867 86.6239 0.174734 -0.426935 -0.886866
-3.96222 60.2149 86.6032 0.184878 -0.443576 -0.87696
-2.48574 60.9751 86.5208 0.170956 -0.457982 -0.872287
-1.29672 61.5325 86.4517 0.169088 -0.468624 -0.867065
-0.0428408 62.5692 86.1314 0.143382 -0.480335 -0.864948
0.750085 63.5435 85.6954 0.116473 -0.491826 -0.862829
1.92673 65.0087 84.989 0.101462 -0.490694 -0.865289
2.33935 66.3052 84.3114 0.0827731 -0.490393 -0.867554
2.62085 67.5843 83.6207 0.0962708 -0.470839 -0.876641
2.76206 68.7898 82.9809 0.153589 -0.500156 -0.852206
4.06752 68.0923 83.515 0.0229502 -0.456419 -0.889469
5.11743 67.1701 83.9842 -0.0155816 -0.407413 -0.913111
6.49712 66.9128 83.8573 -0.160975 -0.495013 -0.853844
7.77365 67.0823 83.2571 -0.308923 -0.62616 -0.709775
8.89033 67.238 82.4404 -0.399389 -0.713299 -0.572634
9.5076 67.071 82.2165 -0.357518 -0.752278 -0.553407
9.82872 65.9725 83.3592 -0.251198 -0.708751 -0.659221
10.1051 64.7261 84.5111 -0.247726 -0.674238 -0.695726
10.2205 63.6608 85.5734 -0.126549 -0.700262 -0.70258
10.1883 62.4506 86.7125 -0.0415389 -0.645688 -0.76247
10.0142 61.9478 87.1478 -0.0417289 -0.647266 -0.761118
2.17426 60.042 87.9081 0.144217 -0.495167 -0.856744
1.48034 60.3016 87.6412 0.144217 -0.495167 -0.856744
3.45115 61.0331 87.4883 0.109352 -0.522822 -0.845399
4.34441 60.6551 87.8261 0.0995172 -0.521936 -0.84716
6.20446 61.3225 87.5851 0.0712584 -0.540599 -0.838257
3.82939 62.3738 86.6998 0.0712881 -0.522172 -0.849855
5.19302 63.2823 86.2251 0.0281263 -0.562277 -0.82647
6.80924 62.5059 86.8126 0.0319043 -0.563448 -0.825535
6.77346 64.0176 85.728 -0.0895809 -0.587141 -0.804513
6.46042 64.2124 85.635 -0.0818803 -0.567337 -0.819405
