-1.37524 62.6183 91.6598 -0.145953 0.411885 0.899337
0.0754094 63.2442 91.5802 -0.121437 0.408825 0.90449
1.0686 64.3749 91.2079 -0.105637 0.399822 0.91046
2.1094 65.088 90.9961 -0.0739188 0.401065 0.912993
3.04689 66.0895 90.6178 -0.0439263 0.40754 0.911904
3.60209 67.1685 90.1323 -0.00952279 0.407519 0.912984
4.33125 68.2845 89.5336 0.0273179 0.49942 0.865284
4.85974 69.4584 88.792 0.115865 0.545154 0.83029
5.10818 70.6475 87.9174 0.162427 0.606783 0.778095
5.39084 71.8239 86.88 0.204993 0.647398 0.734066
5.77796 72.6465 85.9672 0.248859 0.702686 0.666556
6.20053 73.3952 85.0229 0.279519 0.709218 0.646109
6.53749 74.033 84.0656 0.317561 0.750118 0.57992
7.13376 74.4149 83.1625 0.364912 0.776189 0.513704
7.58388 73.6615 83.97 0.314925 0.775181 0.546981
7.73346 72.8793 84.931 0.283187 0.748957 0.598043
7.95434 71.6818 86.2414 0.220444 0.726612 0.650722
7.92428 70.6912 87.2617 0.161743 0.675138 0.719399
8.00091 69.8469 88.069 0.133413 0.654643 0.742216
8.00304 68.708 88.9763 0.0799387 0.630229 0.771326
7.76911 67.3671 89.9444 0.0218981 0.566804 0.823562
7.21177 66.5076 90.5106 -0.0112729 0.519163 0.853669
6.24807 65.572 91.0071 -0.0225926 0.465672 0.884344
5.15473 64.6189 91.4272 -0.0625405 0.434421 0.898536
4.21502 63.8481 91.732 -0.0635699 0.422392 0.904182
2.97964 62.93 92.0453 -0.0815004 0.4128 0.907167
1.37242 62.1097 92.2596 -0.0896711 0.410934 0.907243
0.274504 61.4824 92.4339 -0.112639 0.445697 0.888069
-0.732067 60.9155 92.5893 -0.114617 0.444338 0.888497
-2.20559 60.5189 92.6015 -0.124202 0.480985 0.867885
-3.4541 60.298 92.5467 -0.119791 0.48385 0.866913
-4.99085 59.995 92.4692 -0.14344 0.516523 0.844152
-4.99784 60.5805 92.1136 -0.160385 0.506165 0.847391
-3.72329 61.2417 91.9727 -0.166083 0.494079 0.853401
-2.48576 62.0215 91.7733 -0.14002 0.437108 0.888443
-1.50861 62.5598 91.6625 -0.150412 0.422234 0.893721
-2.00922 63.4811 91.1555 -0.160808 0.407358 0.899
-0.641068 64.1257 91.083 -0.14076 0.397377 0.906796
0.426724 65.1257 90.8025 -0.123878 0.398404 0.908717
1.62071 65.9694 90.5805 -0.0632507 0.371484 0.925824
2.36161 67.0042 90.1753 -0.0407727 0.386858 0.921232
2.91636 67.9342 89.7604 0.023167 0.468966 0.882873
3.47875 68.9604 89.1911 0.0298354 0.472262 0.880953
3.93372 70.2709 88.3831 0.113417 0.55142 0.826482
4.11365 71.373 87.5713 0.194227 0.593798 0.780461
4.39944 72.3343 86.7343 0.23844 0.634292 0.735238
4.89231 73.2773 85.7002 0.286142 0.668333 0.686123
5.37468 74.1851 84.5124 0.312512 0.728287 0.609864
5.77001 74.7537 83.581 0.375527 0.718204 0.585801
6.263 75.2642 82.545 0.402956 0.759501 0.510672
6.90555 75.568 81.518 0.441674 0.768698 0.462301
7.88491 75.514 80.6224 0.423837 0.788783 0.443408
8.20034 74.8173 81.6371 0.394182 0.803901 0.445201
8.50696 74.1025 82.6519 0.36182 0.803263 0.473133
8.65683 73.3753 83.738 0.295128 0.818917 0.492214
8.945 72.4977 84.8743 0.283734 0.780456 0.556819
9.12849 71.6755 85.8523 0.233508 0.744788 0.624107
9.07572 70.8272 86.871 0.158556 0.766797 0.621566
9.1878 69.8071 87.9322 0.0840188 0.68269 0.725563
9.19394 68.8434 88.7951 0.0450996 0.638615 0.768194
9.05307 67.6912 89.6832 0.0261736 0.568226 0.822456
8.64284 66.5563 90.4617 -0.0176483 0.545859 0.837235
7.89147 65.6118 91.04 -0.0319594 0.486151 0.873278
6.82376 64.66 91.5053 -0.0469942 0.457384 0.888027
5.96387 63.8427 91.8569 -0.0619804 0.42737 0.90195
4.79584 62.9783 92.1837 -0.0716818 0.419044 0.905081
3.92519 62.2535 92.4381 -0.0814978 0.4128 0.907167
2.56844 61.471 92.6693 -0.0846881 0.424723 0.901229
1.34083 60.8831 92.8486 -0.0785574 0.437612 0.895725
0.213034 60.2777 93.0288 -0.0967884 0.449451 0.888046
-1.06106 59.7439 93.1691 -0.0917949 0.472907 0.876318
-2.45815 59.5148 93.1254 -0.111425 0.493344 0.862668
-3.74932 59.2397 93.1113 -0.106401 0.505641 0.856157
-5.09428 58.9689 93.0795 -0.14344 0.516525 0.844151
-6.58019 58.9846 92.8357 -0.139404 0.549229 0.823743
-7.81038 59.1506 92.4871 -0.156746 0.547333 0.822089
-7.0921 60.2294 91.9124 -0.165645 0.536379 0.827471
-6.18078 60.9893 91.6309 -0.171314 0.518943 0.837466
-5.06545 61.6283 91.4844 -0.190738 0.491653 0.849645
-4.02268 62.2667 91.353 -0.191014 0.453127 0.870741
-2.77149 63.1108 91.1805 -0.186807 0.442486 0.876983
-2.12677 63.4298 91.1577 -0.160801 0.40736 0.899
-2.68264 64.2831 90.6313 -0.197213 0.409561 0.890461
-3.91024 63.6463 90.6795 -0.186678 0.429552 0.883536
-4.92653 62.9075 90.798 -0.225028 0.471811 0.8525
-5.87166 62.2549 90.9404 -0.190926 0.492292 0.849233
-6.97099 61.5635 91.0856 -0.206235 0.535478 0.818982
-8.12917 60.5856 91.4527 -0.184227 0.546959 0.816621
-8.91454 59.7685 91.8242 -0.196301 0.543569 0.816087
-9.44603 58.7671 92.4291 -0.157081 0.572944 0.804398
-8.78166 58.0106 93.098 -0.153689 0.566677 0.80941
-7.31124 57.9527 93.3994 -0.145326 0.565565 0.811793
-5.84767 57.9919 93.6123 -0.12794 0.565136 0.815017
-4.2937 58.1212 93.7141 -0.113051 0.529406 0.840803
-3.05867 58.4088 93.683 -0.115299 0.496391 0.860312
-1.91849 58.5706 93.7452 -0.0718611 0.499003 0.863615
-0.476259 58.8583 93.7131 -0.0751063 0.470184 0.879367
0.873916 59.4926 93.4902 -0.0761636 0.469943 0.879405
2.0214 60.0523 93.3178 -0.07818 0.446168 0.891528
3.18103 60.6123 93.136 -0.0684765 0.432202 0.899173
4.43173 61.2131 92.945 -0.0739926 0.406818 0.910507
5.53893 62.3136 92.5454 -0.0796113 0.404966 0.910851
6.53857 62.9276 92.3424 -0.0852499 0.437781 0.894955
7.43517 63.7333 92.0434 -0.0967127 0.439094 0.893221
8.27344 64.5429 91.6556 -0.0436388 0.493263 0.868785
9.2128 65.3539 91.2639 -0.0789714 0.495898 0.864783
9.79572 66.4415 90.6045 -0.0628046 0.55612 0.828726
10.1672 67.7434 89.686 -0.0576459 0.591792 0.804027
10.3166 68.634 88.8968 0.0491167 0.6363 0.769876
10.3917 69.5285 88.0967 0.0316444 0.686645 0.726304
10.3315 70.3085 87.1875 0.10392 0.771257 0.627984
10.3057 71.111 86.1544 0.200995 0.793165 0.574882
10.296 71.8763 85.1515 0.240689 0.782884 0.571891
9.88943 72.7375 84.0489 0.268061 0.807307 0.525502
9.70136 73.6091 82.6823 0.298341 0.836945 0.458799
9.35285 74.3302 81.5246 0.392656 0.825024 0.406394
8.98524 75.1599 80.2424 0.408945 0.821774 0.395986
8.4437 75.9573 79.0556 0.420737 0.832514 0.359976
7.92207 76.5816 78.297 0.478619 0.814237 0.328546
7.11276 76.6804 79.2383 0.52361 0.764064 0.373734
6.49992 76.5233 80.2622 0.498333 0.761679 0.414134
5.93771 76.1576 81.5106 0.499057 0.730319 0.466452
5.21129 75.9102 82.4582 0.427777 0.73033 0.532564
4.74982 75.4194 83.4546 0.391117 0.708257 0.587459
4.40748 74.8053 84.3955 0.378884 0.689393 0.616898
4.01073 73.9881 85.3919 0.319245 0.623609 0.713579
3.54595 73.1277 86.3517 0.31812 0.623674 0.714023
3.15041 72.2316 87.1808 0.208503 0.612855 0.762191
2.91377 71.0739 88.0698 0.137841 0.52135 0.841571
2.87859 69.9944 88.7213 0.107271 0.498274 0.860222
2.26612 69.1249 89.2343 0.0416913 0.420783 0.903816
1.69163 68.1104 89.6623 -0.0136107 0.410853 0.9116
1.02685 67.1257 90.0709 -0.0211211 0.370822 0.928464
-0.568353 65.7215 90.4074 -0.150187 0.336463 0.929643
-1.53579 64.9209 90.587 -0.153118 0.406739 0.900621
-1.95536 64.663 90.6321 -0.179221 0.398974 0.898863
7.29542 68.1321 89.4409 0.0603153 0.536991 0.841429
6.32221 66.5315 90.4825 -0.0054457 0.483178 0.875505
6.26604 66.4363 90.5343 -0.00473311 0.48001 0.87725
4.04084 64.5314 91.4006 -0.0604427 0.424043 0.903623
5.03898 66.0863 90.6956 -0.0292797 0.44871 0.893198
6.09624 67.8577 89.6972 0.0533438 0.533313 0.844234
7.15076 69.4802 88.4885 0.116324 0.618974 0.77675
7.20165 69.5513 88.4243 0.11631 0.618967 0.776757
7.09567 70.8276 87.3346 0.172948 0.659953 0.73113
6.13456 69.5466 88.5921 0.111163 0.57924 0.807542
5.08856 67.8981 89.7328 0.0273266 0.499694 0.865771
4.10887 66.2392 90.5921 -0.0323936 0.424821 0.904698
2.88213 64.458 91.3421 -0.0730003 0.415817 0.906514
1.43803 62.8321 91.9399 -0.0887832 0.409843 0.907825
1.22454 62.6148 92.0171 -0.103706 0.410425 0.905978
0.177647 62.7182 91.8307 -0.12427 0.406737 0.905054
-1.32511 61.332 92.3045 -0.128714 0.443522 0.886973
5.67734 70.4053 88.0019 0.137971 0.609867 0.780401
6.3234 71.247 87.1444 0.192822 0.659946 0.726148
6.98095 72.002 86.2137 0.226487 0.718106 0.658048
7.28579 72.3167 85.7715 0.232493 0.709488 0.665262
6.52109 72.7494 85.5813 0.24886 0.702687 0.666558
6.89232 73.1156 85.003 0.260652 0.738101 0.622308
