-1.58452 62.7172 92.1361 -0.14632 0.420617 0.895343
-0.370727 63.5262 91.9453 -0.14558 0.410472 0.900066
0.732744 64.438 91.6929 -0.115123 0.401508 0.908571
1.87206 65.3185 91.4386 -0.094508 0.403739 0.909824
2.65748 66.2459 91.0856 -0.0514241 0.392447 0.918336
3.2916 67.2817 90.643 -0.00335161 0.399974 0.916273
4.01687 68.2832 90.1378 0.0343102 0.485067 0.873111
4.48874 69.3031 89.5207 0.0891205 0.489492 0.86705
5.05585 70.4973 88.6943 0.110451 0.565609 0.815798
5.3754 71.6152 87.7746 0.164336 0.632322 0.755675
5.69653 72.5577 86.8481 0.199426 0.648831 0.734335
6.29904 73.2133 85.9576 0.246578 0.698707 0.671487
6.98933 73.8494 84.9518 0.287734 0.723153 0.627121
7.56412 73.0214 85.7046 0.25041 0.750862 0.611148
7.70693 71.9424 86.8652 0.215697 0.729651 0.64891
7.67632 71.0097 87.7659 0.148289 0.681732 0.716416
7.82917 70.0643 88.5878 0.112042 0.609694 0.784672
7.97766 68.793 89.5754 0.0294967 0.633902 0.772846
7.83973 67.6356 90.3676 0.00841438 0.557944 0.829836
7.24669 66.4871 91.0968 -0.0246597 0.510069 0.8589
6.10614 65.4521 91.6225 -0.0340576 0.457695 0.888062
4.95654 64.4249 92.0628 -0.0589832 0.435175 0.898333
3.90747 63.7761 92.2944 -0.0697835 0.417562 0.905893
2.66806 63.0378 92.521 -0.0828971 0.405776 0.910189
1.1228 62.1981 92.7449 -0.103131 0.405257 0.908194
-0.17291 61.6723 92.8388 -0.111699 0.44749 0.887286
-1.4477 61.0752 92.9774 -0.125404 0.445239 0.886501
-2.7079 60.861 92.9161 -0.121377 0.478322 0.869756
-4.04555 61.026 92.6244 -0.162127 0.487724 0.857811
-4.0692 61.3362 92.4425 -0.166492 0.491447 0.854845
-3.44539 61.4544 92.4868 -0.120133 0.478658 0.869743
-2.364 62.2057 92.268 -0.136635 0.442127 0.886481
-2.75963 63.2645 91.6824 -0.152184 0.445645 0.88199
-3.87481 62.6127 91.8033 -0.179394 0.446883 0.876345
-5.02443 61.9372 91.9177 -0.178667 0.484817 0.856058
-6.00101 61.0278 92.244 -0.172863 0.520519 0.836169
-6.82195 60.2289 92.5735 -0.165701 0.533209 0.829528
-5.68158 59.6601 93.1454 -0.141647 0.5098 0.848552
-4.3362 59.6729 93.3577 -0.123258 0.503727 0.854891
-2.56999 59.8418 93.4971 -0.112037 0.486902 0.866241
-1.34352 60.0835 93.518 -0.0928085 0.470561 0.877473
-0.181975 60.5426 93.4085 -0.113096 0.449 0.886345
1.15521 61.0238 93.3137 -0.0748709 0.437763 0.895968
2.5526 61.6419 93.1368 -0.0861419 0.421014 0.902868
3.74266 62.4513 92.8774 -0.0771471 0.409682 0.908961
4.87731 63.065 92.6955 -0.0742525 0.410284 0.90893
6.00874 63.8526 92.4132 -0.0742391 0.435459 0.897104
7.00178 64.8022 92.0052 -0.0532506 0.462417 0.885062
8.37778 65.9966 91.4206 -0.0246597 0.510064 0.858902
8.97966 67.1368 90.7118 -0.0392884 0.556586 0.829316
9.1097 68.4625 89.8004 0.0188773 0.594778 0.802232
9.16165 69.7556 88.7021 0.0896165 0.668626 0.738179
8.89934 70.8693 87.694 0.0785867 0.689124 0.72037
8.91709 71.7155 86.7334 0.20022 0.729802 0.653683
8.73003 72.7493 85.5741 0.2327 0.76809 0.596565
8.37752 73.5542 84.6686 0.25705 0.780943 0.569257
8.06106 74.3616 83.7073 0.358065 0.777359 0.517206
7.32777 75.2081 82.9433 0.365992 0.777557 0.511327
6.40332 74.9388 83.9066 0.332173 0.753038 0.567948
5.80517 74.3473 84.9828 0.329389 0.718539 0.612247
5.18118 73.6872 85.9225 0.312549 0.656827 0.686216
4.61515 72.8549 86.8955 0.230835 0.635694 0.736505
4.24604 71.7638 87.8921 0.170495 0.602658 0.779573
3.90157 70.6699 88.7391 0.118722 0.549145 0.827252
3.40991 69.7045 89.405 0.0891116 0.489489 0.867054
2.83617 68.5876 90.0314 0.0492075 0.444159 0.894595
2.10061 67.3401 90.5827 -0.0529313 0.397693 0.915991
1.24245 66.1754 91.0207 -0.0999379 0.372413 0.922671
0.274284 65.389 91.2328 -0.140839 0.375523 0.916049
-1.08077 64.3939 91.4462 -0.143887 0.402463 0.904025
-2.04492 63.6343 91.63 -0.146327 0.420606 0.895348
-2.39147 63.4422 91.6612 -0.151414 0.418222 0.895636
-2.94092 64.3445 91.1205 -0.172526 0.431451 0.885486
-4.05441 63.7785 91.1802 -0.202594 0.435996 0.876246
-5.21142 63.0863 91.23 -0.230171 0.466553 0.85402
-6.26428 62.1514 91.5146 -0.201912 0.489727 0.848127
-7.25864 61.294 91.7988 -0.199211 0.530925 0.823671
-8.14953 60.3206 92.2453 -0.176038 0.545554 0.819379
-8.42263 59.2636 92.8962 -0.166791 0.571174 0.803698
-7.31294 58.834 93.405 -0.158457 0.553643 0.817539
-5.82957 58.5762 93.8183 -0.107057 0.550176 0.828157
-4.59886 58.5932 93.9521 -0.108822 0.51184 0.85216
-2.92817 58.8269 94.0328 -0.122935 0.497449 0.858705
-1.58645 58.9704 94.1118 -0.0720342 0.500435 0.862772
-0.105639 59.4584 93.9808 -0.0761385 0.468293 0.880287
1.09635 59.8491 93.8923 -0.0847801 0.444318 0.891791
2.28725 60.3666 93.7328 -0.0641754 0.440938 0.895124
3.64019 60.9459 93.5491 -0.0631924 0.426635 0.902214
4.64506 61.7352 93.2716 -0.0732101 0.402183 0.912627
5.83635 62.3691 93.0928 -0.0781045 0.413703 0.907056
6.90932 63.1289 92.833 -0.0805374 0.41836 0.904688
7.76868 63.9547 92.5109 -0.0689936 0.478225 0.875523
8.81756 64.7173 92.1548 -0.0495417 0.487721 0.871593
9.63217 65.779 91.6318 -0.0778804 0.492125 0.867034
10.1719 67.0636 90.8124 -0.0544256 0.579307 0.813274
10.3101 68.0622 90.1149 -0.0507027 0.576603 0.81545
10.387 69.0508 89.2646 0.034314 0.633046 0.773354
10.3708 70.0283 88.3892 0.0110031 0.689534 0.724169
10.1743 70.8497 87.4816 0.102046 0.751902 0.651329
10.1419 71.9677 86.0712 0.174251 0.791843 0.585338
9.64142 72.9991 84.8416 0.241347 0.812985 0.529888
9.39461 73.927 83.5902 0.280696 0.816092 0.505177
8.91269 74.6596 82.6644 0.34255 0.797074 0.496943
8.29961 75.6064 81.5479 0.38254 0.805003 0.453468
7.26288 76.0351 81.7373 0.443358 0.749171 0.491612
6.26666 76.0259 82.557 0.416905 0.742787 0.523886
5.32238 75.5071 83.8892 0.389111 0.694807 0.604844
4.77962 74.9335 84.868 0.374542 0.673497 0.637276
4.0054 74.0853 86.0123 0.310626 0.615254 0.724551
3.41478 72.9734 87.1541 0.20169 0.620239 0.75804
3.1421 71.9898 87.996 0.218399 0.584191 0.781679
2.72247 70.7898 88.8375 0.130679 0.528007 0.838973
2.33219 69.7145 89.5011 0.089381 0.452836 0.887103
1.62266 68.6936 89.9594 -0.016127 0.413626 0.910116
0.873832 67.3369 90.54 -0.0562714 0.36707 0.927936
-0.425977 66.1689 90.8129 -0.137705 0.346837 0.927495
-1.46336 65.4316 90.9562 -0.161836 0.362727 0.917297
-2.65977 64.5821 91.0768 -0.168232 0.414926 0.894167
-2.6897 64.557 91.0828 -0.185944 0.401918 0.896325
2.31969 63.4397 92.3092 -0.0796376 0.409901 0.908647
3.77521 64.5799 91.9078 -0.0586746 0.420066 0.905595
5.36085 66.0223 91.3 -0.0340714 0.457863 0.88837
6.47912 67.4078 90.5332 0.0446522 0.531691 0.84576
7.18231 68.3225 89.9233 0.053857 0.524719 0.84957
7.13946 69.8618 88.8442 0.111392 0.611966 0.783
6.11955 68.536 89.8588 0.0519753 0.533938 0.843925
5.04775 67.1701 90.6909 0.0193848 0.462539 0.886387
3.66551 65.6344 91.4115 -0.0477407 0.4276 0.902707
2.04226 64.3136 91.8957 -0.0779609 0.401804 0.912401
0.456418 63.0693 92.2627 -0.12011 0.408864 0.904657
-0.445224 62.3659 92.4547 -0.118299 0.426354 0.896787
4.87916 68.5412 89.9346 0.0486443 0.512512 0.857301
5.57143 69.4327 89.3243 0.0755755 0.542775 0.836471
6.26988 70.3139 88.6187 0.139227 0.595844 0.79094
6.68126 70.8184 88.1539 0.156658 0.670022 0.725623
6.21569 71.73 87.4494 0.192283 0.657135 0.728835
6.94145 72.5051 86.487 0.222122 0.72051 0.656907
