-1.77008 62.9056 92.5916 -0.143825 0.419591 0.896244
-0.548512 63.7325 92.402 -0.137097 0.403574 0.904592
0.638184 64.5943 92.1771 -0.109186 0.404127 0.908136
1.74113 65.4413 91.9221 -0.0893789 0.40647 0.909153
2.80893 66.6708 91.442 -0.0464411 0.39764 0.916366
3.59405 67.8162 90.9249 0.0065007 0.44349 0.896254
4.36179 69.0034 90.2731 0.0299931 0.515157 0.856571
5.07258 70.2197 89.4894 0.110772 0.534844 0.837658
5.58683 71.1284 88.8164 0.122158 0.601996 0.789096
6.01774 72.2018 87.8947 0.155489 0.659016 0.735511
6.32735 73.0017 87.0417 0.203369 0.698122 0.686489
7.3987 72.8964 86.8382 0.224039 0.749363 0.623107
7.66603 71.95 87.765 0.181392 0.721712 0.667893
7.7289 70.889 88.6939 0.121025 0.629003 0.767925
7.82917 69.785 89.5449 0.0890858 0.604007 0.791985
7.78591 68.7718 90.2727 0.0204825 0.531994 0.846167
7.76297 67.7428 90.9448 0.00415625 0.546768 0.837274
7.34974 66.7444 91.5501 -0.0274011 0.497872 0.866173
6.51303 65.8973 91.9636 -0.0334989 0.469865 0.882053
5.58899 65.0701 92.3339 -0.0550924 0.439234 0.896682
4.39558 64.3022 92.625 -0.0625075 0.424836 0.903105
3.01384 63.5853 92.8541 -0.0732876 0.409891 0.909186
1.80927 62.878 93.0666 -0.0844164 0.402404 0.911562
0.577129 62.4443 93.133 -0.120207 0.40735 0.905311
-1.18317 62.1251 93.0531 -0.115764 0.443562 0.888736
-2.50621 61.6892 93.0691 -0.14156 0.441475 0.886036
-2.137 62.6461 92.6554 -0.138456 0.432134 0.891117
-2.0065 62.7165 92.6415 -0.142032 0.425364 0.893771
-2.85934 63.3875 92.1773 -0.1615 0.428818 0.888838
-4.36506 62.3883 92.3747 -0.187521 0.440039 0.878181
-5.36194 61.5986 92.6039 -0.165816 0.494655 0.853078
-5.78562 60.4357 93.2226 -0.149453 0.511528 0.84598
-4.44698 60.4567 93.4354 -0.149149 0.49326 0.856985
-2.7211 60.3958 93.7319 -0.120793 0.477912 0.870038
-1.07501 60.7824 93.7377 -0.106224 0.455703 0.883642
0.107373 61.2376 93.6616 -0.110752 0.440097 0.891094
1.37583 61.476 93.6733 -0.0778963 0.434993 0.897058
2.66703 62.0025 93.5409 -0.0713631 0.411111 0.908787
3.75159 62.7345 93.2972 -0.073326 0.409978 0.909143
4.97607 63.302 93.1356 -0.0634651 0.421649 0.904535
6.08065 64.0349 92.8788 -0.0769356 0.433504 0.897776
7.01625 64.8659 92.5334 -0.0526875 0.455219 0.888819
7.97347 65.6405 92.1733 -0.0437869 0.47485 0.878977
8.82902 66.6896 91.6149 -0.0472698 0.523548 0.850684
9.00526 68.017 90.7764 -0.0184165 0.541104 0.840754
9.09123 69.0631 90.0391 0.0189363 0.64119 0.767148
9.1307 70.037 89.2697 0.0837455 0.671244 0.73649
8.94313 71.0143 88.4137 0.139087 0.710431 0.689886
8.7836 71.913 87.5192 0.18572 0.73273 0.654382
8.41904 73.0537 86.3028 0.199054 0.749847 0.630957
8.01312 73.9901 85.2255 0.269619 0.769562 0.577152
7.31555 74.7058 84.6701 0.309427 0.7545 0.578779
6.11478 74.2038 85.8448 0.265451 0.717332 0.644182
5.40693 73.605 86.734 0.223801 0.671258 0.70663
4.8882 72.6625 87.743 0.200168 0.639296 0.742231
4.41531 71.4551 88.7825 0.161567 0.600859 0.782857
3.75659 70.3507 89.5691 0.0872266 0.516831 0.851632
3.04392 68.9747 90.3756 0.052468 0.462719 0.884951
2.33077 67.9186 90.8747 -0.00624032 0.416212 0.909246
1.39553 66.6984 91.3588 -0.0684715 0.388636 0.918524
0.281918 65.6527 91.6851 -0.108986 0.383028 0.917046
-1.07372 64.6965 91.8907 -0.13073 0.394157 0.90958
-2.29643 63.8258 92.0736 -0.168478 0.414024 0.894538
-2.60188 63.5947 92.1242 -0.161492 0.428824 0.888836
-3.3724 64.4362 91.5764 -0.184252 0.422611 0.887384
-4.5239 63.6695 91.7065 -0.182063 0.429046 0.884744
-5.75661 62.6875 91.9259 -0.199201 0.47421 0.857527
-6.74171 61.9504 92.0992 -0.197093 0.46637 0.862353
-7.49644 60.8716 92.6151 -0.169196 0.527118 0.832764
-7.32219 59.8022 93.339 -0.157884 0.551674 0.818947
-5.70554 59.1641 94.0225 -0.10031 0.555055 0.825743
-4.47328 59.3067 94.0955 -0.132319 0.491653 0.860679
-2.83659 59.3014 94.3365 -0.123561 0.50331 0.855226
-1.60557 59.425 94.4162 -0.07229 0.503223 0.861127
-0.14263 59.9524 94.2735 -0.075794 0.465001 0.882057
1.35391 60.3124 94.2424 -0.080496 0.444443 0.892183
2.97782 60.9175 94.0662 -0.064275 0.418991 0.905713
4.05891 61.5403 93.8555 -0.0653841 0.404011 0.912414
5.23257 62.0928 93.7002 -0.0731131 0.405346 0.911235
6.67928 63.084 93.3766 -0.079139 0.420627 0.903775
7.68223 63.9015 93.0807 -0.0784105 0.443334 0.89292
8.94425 64.8607 92.6717 -0.0743988 0.480115 0.874045
9.82123 65.9538 92.1242 -0.0811581 0.508092 0.857471
10.2512 66.9703 91.5389 -0.0791621 0.567768 0.819373
10.3095 68.1018 90.7587 -0.0138533 0.556098 0.831001
10.461 69.2487 89.8664 -0.00201348 0.648667 0.760742
10.283 70.3429 88.9128 0.0172234 0.656611 0.754033
10.1419 71.296 87.8901 0.133403 0.709369 0.692097
9.96521 72.1241 86.9756 0.151176 0.76955 0.620152
9.62448 72.9312 86.0323 0.179338 0.77411 0.607117
9.24678 73.7917 84.9635 0.271517 0.796152 0.540759
8.72063 74.6705 83.8654 0.30168 0.802833 0.51031
7.87615 75.6448 82.9913 0.351939 0.777299 0.521463
6.75546 75.7475 83.6058 0.353593 0.780508 0.515501
5.61322 75.4169 84.7385 0.359086 0.726658 0.585631
4.80956 74.8569 85.8132 0.289239 0.651307 0.699778
4.19369 73.9884 86.7867 0.267654 0.638727 0.720948
3.6743 73.0673 87.7029 0.191487 0.631788 0.751117
3.30854 72.1304 88.5175 0.167262 0.542869 0.820301
2.6966 70.8528 89.4079 0.122819 0.516404 0.847488
2.19664 69.8828 89.9823 0.047398 0.422025 0.904774
1.39598 68.5062 90.6004 -0.00774373 0.386661 0.922094
0.493588 67.339 91.0199 -0.0732827 0.353607 0.93246
-0.441796 66.4936 91.2397 -0.12801 0.346271 0.928851
-1.62669 65.7333 91.3781 -0.193132 0.363243 0.911457
-2.79963 64.9646 91.4478 -0.174562 0.40186 0.898908
-3.19641 64.6037 91.5332 -0.184242 0.422616 0.887384
7.00685 67.4258 91.1304 -0.0101803 0.517453 0.855651
6.66095 66.9179 91.4271 -0.0243397 0.467452 0.883683
6.97011 69.018 90.1528 0.0328947 0.54603 0.83712
5.26468 66.5338 91.5919 -0.0243384 0.467461 0.883679
3.35617 64.5344 92.4473 -0.0554874 0.423656 0.904122
0.157796 62.8854 92.8787 -0.124328 0.404208 0.906178
2.54706 64.9864 92.1896 -0.0744754 0.404141 0.91166
4.88657 67.5406 91.0616 -0.00429984 0.462109 0.886813
6.50899 69.9893 89.5374 0.0556805 0.539931 0.839865
7.03193 70.8491 88.8201 0.0876345 0.606238 0.79044
