3.45001 21.7267 22.8177 0.0383233 -0.97318 -0.22675
4.28577 21.5682 23.6714 0.0422196 -0.973703 -0.223867
4.95358 21.3567 24.7086 0.0400403 -0.973105 -0.22684
5.50204 21.1214 25.8311 0.0459614 -0.977824 -0.204321
5.97331 20.9384 26.8077 0.0335611 -0.976532 -0.212725
6.56964 20.6091 28.4055 0.0572607 -0.970512 -0.233797
7.25553 20.2309 30.232 0.0710685 -0.971881 -0.224491
7.68146 19.9352 31.6473 0.0710683 -0.971881 -0.224491
8.20884 19.6931 33.0018 0.0840682 -0.975486 -0.203368
8.59278 19.4816 34.0986 0.104614 -0.968632 -0.225183
9.44989 19.2868 35.4047 0.11086 -0.969764 -0.217413
10.7365 19.0828 36.9089 0.0815447 -0.975905 -0.202348
11.5639 18.9608 37.852 0.0852916 -0.975682 -0.201914
12.3589 18.8716 38.6191 0.0872201 -0.976087 -0.199117
13.3696 18.7967 39.4055 0.0694172 -0.9774 -0.199676
14.7566 18.7536 40.1186 0.063938 -0.979535 -0.19044
15.7095 18.6976 40.6793 0.0521705 -0.981062 -0.186535
16.928 18.5687 41.6982 0.0521701 -0.981062 -0.186535
18.1623 18.4823 42.6316 0.0608404 -0.98333 -0.171348
18.9991 18.3655 43.5388 0.0363158 -0.984965 -0.168893
20.0096 18.2106 44.8933 0.0607367 -0.9847 -0.162621
19.8517 17.9554 46.2626 0.069054 -0.982133 -0.175063
19.3981 17.7286 47.356 0.0790414 -0.983539 -0.16162
18.3641 17.4525 48.3882 0.0979655 -0.981316 -0.165597
17.3586 17.1915 49.3401 0.0979654 -0.981316 -0.165597
16.2739 16.8206 50.5706 0.117002 -0.97461 -0.19091
15.6408 16.5602 51.5855 0.122232 -0.978609 -0.165479
15.246 16.3096 52.6383 0.14371 -0.971016 -0.190985
14.6851 16.0138 53.6887 0.15051 -0.968293 -0.199269
13.496 15.3826 55.6772 0.176859 -0.963288 -0.20158
12.9407 15.065 56.7443 0.184173 -0.964124 -0.191166
12.6219 14.7529 57.9118 0.199739 -0.957 -0.210219
12.0601 14.2921 59.4347 0.207039 -0.954953 -0.212602
11.6706 13.9162 60.7681 0.206025 -0.955934 -0.209151
11.1105 13.5483 61.7264 0.243758 -0.944439 -0.220394
9.74744 12.8201 63.4769 0.257412 -0.943013 -0.209986
9.11819 12.3888 64.5337 0.270297 -0.938925 -0.21282
8.32815 11.821 66.103 0.282571 -0.934776 -0.214563
7.91012 11.464 67.0894 0.296413 -0.932103 -0.208142
7.55409 11.1306 68.0756 0.297094 -0.931723 -0.20887
6.75071 10.6692 68.9844 0.297774 -0.931343 -0.209599
5.62473 10.3537 68.7865 0.310784 -0.92723 -0.208496
4.52626 10.0175 68.568 0.324391 -0.922747 -0.208103
3.26878 9.60736 68.4229 0.324926 -0.922408 -0.208774
2.16111 9.15053 68.615 0.345865 -0.915478 -0.205617
0.407773 8.34271 69.2058 0.355373 -0.910279 -0.212372
-0.961001 7.65779 69.8115 0.369136 -0.905712 -0.208382
-2.30635 6.96591 70.445 0.368467 -0.906238 -0.207278
-4.14824 6.1341 70.6948 0.385528 -0.899861 -0.203999
-5.50718 5.59747 70.4992 0.385228 -0.900255 -0.20283
-6.55564 5.17412 70.3841 0.385714 -0.900033 -0.202889
-8.25886 4.56599 69.8728 0.374676 -0.904835 -0.202173
-9.42249 4.16931 69.5149 0.377883 -0.902892 -0.204811
-10.7573 3.66704 69.2198 0.380657 -0.899831 -0.212882
-11.8349 3.33714 68.6963 0.383548 -0.896449 -0.22197
-12.873 3.0003 68.2628 0.383543 -0.896451 -0.221971
-13.8176 2.75584 67.634 0.376292 -0.892479 -0.248766
-14.8185 2.52026 66.9664 0.379598 -0.889737 -0.253523
-15.6977 2.44061 65.9288 0.374269 -0.890679 -0.257938
-16.4051 2.41587 65.053 0.364678 -0.891195 -0.26978
-17.4907 2.40404 63.6587 0.363299 -0.887577 -0.2832
-18.2647 2.35102 62.8206 0.367251 -0.885998 -0.283079
-19.1987 2.26578 61.9752 0.347035 -0.884334 -0.312282
-20.2869 2.20299 60.9394 0.352044 -0.879817 -0.319354
-21.1652 2.12696 60.1909 0.339393 -0.884011 -0.321461
-22.3934 1.99066 59.3471 0.322006 -0.88342 -0.340395
-23.3534 1.85141 58.8161 0.31682 -0.883957 -0.343869
-24.4899 1.7019 58.1617 0.292474 -0.887358 -0.355809
-25.5054 1.60154 57.6265 0.28454 -0.885128 -0.368219
-26.4853 1.5398 57.0177 0.290796 -0.882339 -0.369953
-27.6924 1.68962 55.8241 0.249614 -0.880897 -0.402102
-28.0999 2.06782 54.7289 0.248604 -0.883267 -0.397537
-28.062 2.54372 53.6996 0.243487 -0.886544 -0.393389
-27.9112 3.23426 52.2368 0.247838 -0.885174 -0.393729
-27.5082 3.84903 51.1689 0.234944 -0.87382 -0.425723
-26.9104 4.53706 50.073 0.241163 -0.877909 -0.413546
-26.1402 5.3184 48.8889 0.248867 -0.877017 -0.410958
-24.9837 6.08444 47.9467 0.247908 -0.881179 -0.402508
-23.6736 6.82895 47.1611 0.2525 -0.873161 -0.416934
-22.4098 7.36949 46.8486 0.272358 -0.873357 -0.403707
-20.8826 7.92021 46.6582 0.267068 -0.877956 -0.397326
-19.8026 8.26866 46.6127 0.266465 -0.878084 -0.397449
-18.1824 8.63286 46.9356 0.283952 -0.879079 -0.382874
-16.8633 8.88947 47.3221 0.280677 -0.880391 -0.382271
-14.8211 9.49229 47.4904 0.293035 -0.882571 -0.367659
-13.5775 9.84765 47.6125 0.288747 -0.884723 -0.365912
-12.535 10.2034 47.6105 0.305579 -0.883941 -0.353934
-11.4884 10.8112 46.9616 0.297484 -0.89034 -0.344671
-10.6674 11.3645 46.2408 0.294093 -0.888204 -0.352873
-9.95306 11.9536 45.3352 0.281463 -0.89349 -0.349934
-9.16843 12.4417 44.7199 0.281453 -0.893496 -0.349928
-8.22703 12.918 44.2416 0.274224 -0.897882 -0.344367
-7.04582 13.4772 43.7081 0.269879 -0.899036 -0.344818
-6.08096 14.0901 42.8185 0.257249 -0.908318 -0.329813
-5.20883 14.7077 41.7902 0.250987 -0.913275 -0.320655
-4.41059 15.3624 40.5256 0.240829 -0.910465 -0.336235
-4.03562 15.791 39.584 0.229115 -0.919521 -0.31934
-3.68236 16.3493 38.1463 0.207467 -0.930481 -0.301671
-3.49187 16.7873 36.9684 0.201675 -0.928249 -0.312539
-3.05416 17.3925 35.3899 0.189109 -0.934065 -0.302647
-2.67116 17.8896 34.1273 0.180803 -0.932615 -0.312313
-2.26758 18.2933 33.1267 0.165066 -0.941854 -0.292685
-2.00032 18.7727 31.7347 0.165063 -0.941852 -0.292692
-1.88913 19.2233 30.3589 0.139489 -0.944912 -0.296116
-1.80882 19.5812 29.2503 0.129113 -0.949874 -0.284315
-1.79047 20.0037 27.7873 0.118539 -0.954358 -0.274134
-1.77191 20.3225 26.717 0.119127 -0.949954 -0.288785
-1.47085 20.866 24.9073 0.0992687 -0.95759 -0.270496
-1.40134 21.2058 23.6829 0.0672842 -0.964978 -0.253475
-1.77488 21.4662 22.6201 0.0781554 -0.962518 -0.25929
-2.3108 21.8681 20.9436 0.0775044 -0.957834 -0.275777
-2.94188 22.1635 19.8193 0.0594249 -0.958061 -0.280335
-3.75566 22.4038 18.8254 0.0574027 -0.957675 -0.282057
-4.77767 22.5686 18.07 0.0553396 -0.95741 -0.283379
-5.70225 22.778 17.181 0.0523925 -0.95675 -0.286121
-7.05622 23.1482 15.7162 0.05346 -0.95586 -0.288919
-7.87807 23.3771 14.8298 0.045169 -0.954317 -0.295361
-9.09221 23.6587 13.7561 0.0408961 -0.952419 -0.302036
-9.88785 23.8616 13.0088 0.0360163 -0.952038 -0.30381
-10.535 24.1332 12.0953 0.0310942 -0.951837 -0.305024
-11.1442 24.4386 11.08 0.0300379 -0.950398 -0.309543
-11.6376 24.7456 10.1071 0.028983 -0.94896 -0.314062
-12.1384 25.1247 8.9122 0.0334858 -0.948685 -0.314443
-12.5667 25.5454 7.67016 0.0192257 -0.944596 -0.327673
-12.9373 25.9397 6.51155 0.0192194 -0.944593 -0.32768
-13.1269 26.2843 5.48226 0.00218871 -0.948548 -0.316625
-13.074 26.8316 3.82184 -0.00607363 -0.948294 -0.317185
-13.3568 27.2925 2.4917 -0.00572708 -0.946043 -0.323951
-13.9105 27.9111 0.676226 -0.0119122 -0.948207 -0.31743
-14.5623 28.4048 -0.77416 -0.017209 -0.946644 -0.321746
-16.1865 29.0323 -2.46588 -0.0245148 -0.943569 -0.330261
-17.3445 29.5378 -3.81743 -0.0265072 -0.943529 -0.330229
-18.4536 29.9267 -4.80943 -0.030785 -0.940519 -0.338329
-19.2776 30.2288 -5.56361 -0.032749 -0.939608 -0.340682
-20.2663 30.5837 -6.45119 -0.0394776 -0.939315 -0.340713
-21.2458 30.8747 -7.11706 -0.0390509 -0.936896 -0.347337
-22.2872 31.2244 -7.95116 -0.0327234 -0.935671 -0.351352
-23.2667 31.5364 -8.64829 -0.0415573 -0.931791 -0.360609
-24.3212 31.8482 -9.34215 -0.0531783 -0.933532 -0.354404
-25.3004 32.1332 -9.92483 -0.0490244 -0.929027 -0.366646
-26.5587 32.4698 -10.6188 -0.0451045 -0.926873 -0.372646
-28.1688 32.838 -11.3284 -0.0473857 -0.926305 -0.373781
-29.3713 33.3337 -12.3923 -0.046439 -0.924518 -0.378299
-30.1851 33.77 -13.3385 -0.0462143 -0.922289 -0.383728
-31.14 34.3319 -14.5468 -0.0507837 -0.91876 -0.391538
-32.0035 34.7135 -15.3318 -0.0496332 -0.918658 -0.391923
-32.9166 35.0929 -16.1032 -0.0498875 -0.918341 -0.392634
-33.5091 35.548 -17.0793 -0.0554874 -0.917012 -0.39498
-33.5814 36.1496 -18.4376 -0.059333 -0.912986 -0.403654
-33.1319 36.5533 -19.4611 -0.0693955 -0.917144 -0.392448
-32.5346 36.9573 -20.5012 -0.0702531 -0.915579 -0.395955
-32.1733 37.4872 -21.8126 -0.0738134 -0.917665 -0.390438
-31.9504 37.9486 -22.9391 -0.0784509 -0.915252 -0.395107
-31.9591 38.4667 -24.1495 -0.0875667 -0.916321 -0.390752
-32.1417 38.9544 -25.2524 -0.0907333 -0.913157 -0.397302
-32.5023 39.4119 -26.1994 -0.0938995 -0.909994 -0.403848
-33.2763 39.9493 -27.2525 -0.0983406 -0.913176 -0.395519
-33.9671 40.5005 -28.3475 -0.0995088 -0.912601 -0.396557
-34.8833 41.0568 -29.3873 -0.0990513 -0.911243 -0.399779
-35.8084 41.4217 -29.9926 -0.0982829 -0.911575 -0.399213
-36.9939 41.9469 -30.9554 -0.0665864 -0.911197 -0.406551
-37.9213 42.4636 -31.9577 -0.0667656 -0.910688 -0.407665
-38.6907 42.8965 -32.8142 -0.0441908 -0.914096 -0.403082
-39.8613 43.4652 -33.9673 -0.0451479 -0.913307 -0.404761
-40.6281 43.8691 -34.8063 -0.0317024 -0.914768 -0.402733
-41.5552 44.1418 -35.3706 -0.0276931 -0.917911 -0.395819
-42.6647 44.4031 -35.9292 -0.00748176 -0.927682 -0.372641
-44.3309 44.6181 -36.5219 0.0102782 -0.937626 -0.347493
-46.0264 44.7845 -37.0209 0.00926151 -0.936367 -0.350879
-47.4998 44.9953 -37.7162 0.0595799 -0.934335 -0.351381
-48.2042 45.2824 -38.599 0.0661631 -0.93687 -0.343191
-48.6762 45.6461 -39.7214 0.0647149 -0.944389 -0.321997
-49.0596 46.1661 -41.448 0.0738989 -0.952751 -0.294624
-48.9607 46.6096 -42.8576 0.0738014 -0.952971 -0.293936
-48.9065 46.9821 -44.0579 0.0700774 -0.95451 -0.289826
-48.4153 47.4595 -45.5114 0.0700763 -0.95451 -0.289826
-47.933 47.7922 -46.5132 0.0733836 -0.960276 -0.269229
-47.2983 48.1577 -47.6107 0.0813084 -0.957401 -0.277079
-46.5713 48.5434 -48.7274 0.0822425 -0.957288 -0.277192
-45.8647 48.8118 -49.5725 0.087296 -0.965733 -0.244416
-44.6603 49.2219 -50.8262 0.0851358 -0.973994 -0.208247
-43.64 49.4571 -51.5814 0.0903888 -0.97911 -0.182135
-43.1191 49.5749 -51.9716 0.0463608 -0.983682 -0.17384
-43.9909 49.6511 -52.8005 0.090097 -0.979206 -0.181763
-42.2072 49.9591 -53.9031 0.0465669 -0.986725 -0.154322
-40.8504 50.0957 -54.5803 0.0171631 -0.994222 -0.105963
-39.9707 50.1801 -55.2413 0.0151974 -0.994215 -0.10633
-39.0935 50.2626 -55.9371 -0.000221618 -0.994919 -0.100674
-38.0973 50.3368 -56.6713 0.00867443 -0.995343 -0.0954565
-37.0925 50.3759 -57.5379 -0.0495833 -0.997369 -0.0528782
-35.2097 50.2422 -59.1579 -0.152514 -0.987364 -0.0427954
-33.7286 50.0612 -60.2519 -0.152971 -0.987425 -0.0397642
-32.5249 49.8745 -60.9993 -0.164933 -0.986184 -0.0154415
-31.4236 49.6937 -61.2188 -0.199202 -0.979243 -0.00241736
-30.06 49.3654 -61.2827 -0.233521 -0.972294 0.0106046
-28.2543 48.8629 -60.6506 -0.255424 -0.965947 -0.0412965
-27.0259 48.4788 -60.1308 -0.309348 -0.949867 -0.0453488
-25.8233 48.0655 -59.6797 -0.309357 -0.949868 -0.0452733
-24.7976 47.7037 -59.0935 -0.321275 -0.946283 -0.0363882
-23.3385 47.1892 -58.5348 -0.31941 -0.946866 -0.037718
-21.8473 46.6293 -57.9428 -0.345552 -0.935792 -0.0698377
-20.6738 46.1634 -57.4525 -0.342598 -0.936845 -0.07035
-19.4099 45.6586 -56.9926 -0.34542 -0.935103 -0.0790928
-18.4272 45.248 -56.3941 -0.342418 -0.936132 -0.0800459
-17.0706 44.6774 -55.8247 -0.35271 -0.930087 -0.101636
-16.0279 44.2366 -55.2682 -0.339509 -0.934795 -0.104363
-15.0811 43.8355 -54.7559 -0.339522 -0.934789 -0.104378
-13.7233 43.2202 -53.7826 -0.337895 -0.933215 -0.121973
-12.6871 42.7284 -52.8122 -0.330961 -0.935856 -0.120993
-11.7719 42.243 -51.6572 -0.331365 -0.932542 -0.143349
-10.9466 41.8597 -51.0468 -0.327944 -0.93382 -0.142943
-9.44109 41.2025 -50.1746 -0.311375 -0.93832 -0.150337
-8.17782 40.672 -49.5031 -0.328392 -0.935273 -0.131992
-7.12479 40.3171 -49.46 -0.30762 -0.94232 -0.131922
-6.07188 39.9529 -49.3137 -0.30762 -0.94232 -0.131922
-4.42751 39.4334 -49.2929 -0.292761 -0.947115 -0.131393
-3.33667 39.0727 -49.1126 -0.283293 -0.949868 -0.131738
-2.15964 38.7514 -49.3808 -0.286921 -0.950351 -0.120453
-0.816226 38.3628 -49.5149 -0.279802 -0.952136 -0.122835
0.47779 38.0196 -49.7178 -0.272619 -0.953936 -0.12524
1.87872 37.6602 -50.0301 -0.271075 -0.954654 -0.123072
2.88527 37.4353 -50.4947 -0.266797 -0.956894 -0.114775
4.21178 37.1443 -51.0431 -0.254643 -0.960849 -0.108916
5.49184 36.8419 -51.4277 -0.257464 -0.960948 -0.101446
6.92476 36.5386 -51.9467 -0.243214 -0.96473 -0.100653
8.06278 36.2509 -51.9583 -0.239633 -0.965686 -0.0999566
9.06433 36.0594 -52.4426 -0.23435 -0.966745 -0.102391
10.1307 35.833 -52.687 -0.227336 -0.968847 -0.0982499
11.2685 35.5914 -52.9248 -0.226427 -0.96901 -0.0987392
12.5671 35.3066 -52.9842 -0.215207 -0.971956 -0.0948067
13.7352 35.0776 -53.2356 -0.208488 -0.973133 -0.0976993
15.7703 34.7232 -53.9743 -0.201692 -0.975115 -0.0920338
16.8438 34.5473 -54.414 -0.197399 -0.975643 -0.0956798
18.018 34.3428 -54.7865 -0.196949 -0.976851 -0.0834669
19.1052 34.1623 -55.1214 -0.190086 -0.977772 -0.0884861
20.2352 33.9587 -55.2989 -0.186912 -0.978453 -0.0876527
20.8188 33.7473 -54.1514 -0.183758 -0.979126 -0.0868628
20.4338 33.7015 -52.9835 -0.188246 -0.976915 -0.100994
19.3296 33.8354 -52.2102 -0.188918 -0.976754 -0.101301
18.2376 33.9987 -51.7244 -0.192554 -0.975922 -0.102466
17.2179 34.1644 -51.3859 -0.195975 -0.975304 -0.101798
15.9089 34.3827 -50.9091 -0.199404 -0.974688 -0.101103
14.7005 34.5621 -50.2618 -0.208798 -0.971651 -0.110899
13.3069 34.8373 -50.0487 -0.207343 -0.972405 -0.106856
11.9074 35.1068 -49.6729 -0.218503 -0.969368 -0.112077
9.87028 35.4983 -49.0908 -0.219405 -0.968623 -0.116747
8.49533 35.7489 -48.4343 -0.234146 -0.96514 -0.116962
7.58894 35.8858 -47.7431 -0.23627 -0.964836 -0.115186
6.78673 35.9798 -46.8841 -0.237339 -0.963498 -0.123562
6.04374 36.0526 -46.0673 -0.239811 -0.962085 -0.129935
5.60182 36.0224 -45.0284 -0.239766 -0.962093 -0.129962
5.10761 35.989 -43.9285 -0.232459 -0.96183 -0.144378
4.75088 35.8526 -42.4451 -0.232452 -0.961832 -0.144381
4.31933 35.7557 -41.0978 -0.240233 -0.959393 -0.147761
3.97532 35.668 -40.0368 -0.227668 -0.961643 -0.153007
3.75342 35.5479 -38.9659 -0.225968 -0.960646 -0.161545
3.48485 35.4331 -37.9028 -0.228315 -0.959275 -0.16624
3.05539 35.3142 -36.6588 -0.222675 -0.960427 -0.167321
2.73719 35.1866 -35.5274 -0.220107 -0.959752 -0.174439
2.54483 35.0216 -34.3787 -0.216977 -0.959586 -0.179133
2.15632 34.9034 -33.3071 -0.214512 -0.959314 -0.18358
1.76258 34.7863 -32.2313 -0.214286 -0.958232 -0.189253
1.47073 34.6257 -31.0944 -0.206823 -0.960392 -0.186741
1.14064 34.4775 -29.9668 -0.201642 -0.959666 -0.195638
0.614031 34.3389 -28.8111 -0.196416 -0.958964 -0.204473
0.444166 34.0779 -27.3863 -0.186774 -0.960652 -0.205582
0.00925737 33.8058 -25.7197 -0.188365 -0.960406 -0.205269
-0.17803 33.5824 -24.5397 -0.174869 -0.961901 -0.210159
-0.393418 33.3886 -23.4734 -0.172338 -0.961095 -0.215766
-0.685572 33.1435 -22.1872 -0.169748 -0.960279 -0.221474
-0.820561 32.8444 -20.7921 -0.161812 -0.95983 -0.229222
-1.2227 32.5579 -19.3224 -0.152264 -0.96006 -0.234712
-1.52571 32.2697 -17.958 -0.143018 -0.962264 -0.231502
-1.87867 32.0681 -16.9188 -0.138872 -0.960772 -0.240068
-2.30982 31.8052 -15.6174 -0.138768 -0.960818 -0.239944
-2.63103 31.5254 -14.3571 -0.118918 -0.961685 -0.247022
-2.85452 31.2581 -13.2088 -0.118474 -0.961242 -0.248945
-3.24297 31.0063 -12.0606 -0.114479 -0.960591 -0.253232
-3.41154 30.7047 -10.8944 -0.102705 -0.959027 -0.264044
-3.51176 30.2226 -9.08326 -0.103913 -0.959873 -0.260472
-3.39545 29.8103 -7.58576 -0.0964528 -0.961075 -0.258903
-3.16463 29.4252 -6.2421 -0.0964902 -0.961081 -0.258868
-3.20479 29.1242 -5.11383 -0.0814052 -0.960255 -0.266951
-2.83665 28.6686 -3.54721 -0.0736431 -0.962273 -0.261929
-2.43149 28.2514 -2.11782 -0.0731075 -0.963232 -0.258534
-1.93229 27.8474 -0.773419 -0.0675933 -0.961634 -0.265878
-1.57571 27.439 0.641697 -0.0660793 -0.963583 -0.259115
-1.25824 27.1315 1.7083 -0.0622487 -0.965617 -0.252406
-0.86386 26.8069 2.8256 -0.0478264 -0.963212 -0.264454
-0.322752 26.3583 4.37092 -0.0480426 -0.964204 -0.260771
-0.383183 26.0736 5.4714 -0.0383306 -0.967557 -0.249727
0.0199297 25.7005 6.85503 -0.0382849 -0.967547 -0.249774
0.242041 25.3783 8.03768 -0.0253838 -0.965473 -0.259264
0.174715 25.0611 9.26325 -0.0262581 -0.967809 -0.250311
0.149542 24.7853 10.3668 -0.0149369 -0.970281 -0.241521
0.167607 24.3866 11.9448 -0.0124957 -0.968946 -0.246958
0.202389 24.0948 13.1019 -0.00117088 -0.969183 -0.246166
0.188228 23.7605 14.3892 0.00500731 -0.967894 -0.25131
0.396116 23.438 15.6352 0.00500514 -0.967858 -0.251448
0.673094 23.0483 17.1286 0.00718784 -0.96627 -0.257432
1.00853 22.773 18.1712 0.0070763 -0.966261 -0.257469
1.80769 22.4647 19.5197 0.0285106 -0.971399 -0.235735
2.68896 22.1921 20.7497 0.0226203 -0.971287 -0.236759
3.51065 22.0487 21.4745 0.0346439 -0.972223 -0.231479
4.56916 21.8682 22.4086 0.0325533 -0.975625 -0.21674
5.37969 21.6802 23.3657 0.0230331 -0.977115 -0.211461
6.09409 21.4548 24.4785 0.0376443 -0.972941 -0.227966
6.63471 21.1936 25.7407 0.0460005 -0.977828 -0.204295
7.24856 20.8484 27.4314 0.0338003 -0.977068 -0.210226
7.69823 20.5976 28.6945 0.0391399 -0.978375 -0.203101
8.3037 20.3597 29.9573 0.0391346 -0.97838 -0.20308
8.64283 20.081 31.3201 0.0775686 -0.973685 -0.213922
9.23707 19.7844 32.9621 0.0658594 -0.977036 -0.202642
9.75995 19.5907 34.1063 0.0734144 -0.978042 -0.195051
10.3688 19.4457 35.0358 0.0782861 -0.975752 -0.204402
11.2649 19.2975 36.0864 0.0815469 -0.975905 -0.202348
12.1632 19.1587 37.1435 0.0848068 -0.976058 -0.200295
13.117 19.0479 38.0869 0.0850498 -0.97587 -0.201105
14.2372 18.9732 38.8438 0.069554 -0.977365 -0.1998
15.564 18.9149 39.4859 0.0508405 -0.981839 -0.182777
16.9223 18.8396 40.2676 0.0508338 -0.981818 -0.182893
17.9245 18.7247 41.1565 0.0565059 -0.982196 -0.178942
18.9584 18.6497 41.8721 0.0363626 -0.984969 -0.168858
19.7213 18.5397 42.6782 0.0363161 -0.984965 -0.168896
20.4903 18.4354 43.5829 0.0524114 -0.987258 -0.150249
21.1855 18.2917 44.7705 0.0524212 -0.987268 -0.15018
21.0975 18.0668 46.1288 0.0790422 -0.983539 -0.161621
20.69 17.8711 47.1847 0.0890287 -0.984946 -0.148171
20.1185 17.6768 48.087 0.0961594 -0.981436 -0.165944
19.2855 17.4333 49.0443 0.0960635 -0.981444 -0.165949
18.335 17.1636 50.0832 0.107486 -0.977962 -0.178256
17.6256 16.9274 50.8808 0.122238 -0.978592 -0.165577
16.8425 16.6437 51.9799 0.122233 -0.978609 -0.165477
16.2434 16.3789 53.0362 0.143685 -0.970182 -0.19515
15.5877 16.0678 54.0769 0.151604 -0.969828 -0.190552
14.8348 15.7914 54.891 0.161012 -0.969079 -0.1869
14.5168 15.5279 55.9279 0.184173 -0.964125 -0.191165
14.0698 15.2389 56.9551 0.184173 -0.964124 -0.191166
13.6925 14.927 58.1001 0.192475 -0.959036 -0.207855
13.1925 14.5301 59.4686 0.199738 -0.957 -0.210219
12.7957 14.083 61.1139 0.206483 -0.955886 -0.208919
12.071 13.7209 62.0551 0.226352 -0.949162 -0.217547
11.2912 13.2477 63.3218 0.243002 -0.94941 -0.198924
10.453 12.8094 64.3899 0.257425 -0.943008 -0.209994
9.6909 12.3324 65.5451 0.269144 -0.941028 -0.205008
9.01307 11.9047 66.6258 0.27278 -0.939598 -0.206696
8.73028 11.533 67.9074 0.27524 -0.937871 -0.211286
8.40967 11.218 68.9117 0.290796 -0.938717 -0.185028
7.65563 10.7595 69.9822 0.305405 -0.933788 -0.186463
6.41172 10.355 69.9703 0.305397 -0.933789 -0.186469
5.35486 10.0427 69.7508 0.3369 -0.922753 -0.187152
4.11078 9.63068 69.6301 0.324935 -0.922401 -0.208792
2.99745 9.23652 69.639 0.335414 -0.918936 -0.207195
1.83018 8.7916 69.6563 0.345946 -0.91542 -0.205738
0.758136 8.28087 70.1017 0.363245 -0.909792 -0.200829
-0.25095 7.78463 70.5254 0.362752 -0.910154 -0.200078
-2.10926 6.80705 71.5172 0.374541 -0.906273 -0.195929
-3.44175 6.20025 71.7486 0.388245 -0.901425 -0.191571
-5.25385 5.45373 71.6183 0.385228 -0.900255 -0.202831
-6.27018 5.05348 71.4619 0.381983 -0.903448 -0.194349
-7.52382 4.59527 71.1446 0.378914 -0.906628 -0.185609
-9.05548 4.05504 70.6832 0.374676 -0.904835 -0.202172
-10.2649 3.61023 70.3863 0.389313 -0.896999 -0.209353
-11.2654 3.24578 70.0873 0.38758 -0.897528 -0.210288
-12.2011 2.96758 69.5654 0.381637 -0.901217 -0.205255
-13.5406 2.55697 68.9081 0.381819 -0.897682 -0.219958
-14.5776 2.29025 68.1825 0.387123 -0.896128 -0.217005
-15.8146 2.01573 67.2456 0.379543 -0.889757 -0.253535
-16.5384 1.99513 66.242 0.377085 -0.890466 -0.254709
-17.3865 1.93861 65.2744 0.370718 -0.886597 -0.276612
-18.1392 1.95987 64.202 0.369198 -0.884509 -0.285195
-19.0202 1.86848 63.3449 0.366982 -0.885278 -0.285659
-20.3015 1.77192 62.1267 0.352288 -0.881667 -0.313937
-21.1519 1.73138 61.2939 0.339077 -0.885453 -0.317803
-22.1032 1.59948 60.6512 0.330936 -0.884267 -0.329273
-23.2396 1.46972 59.894 0.326465 -0.882686 -0.338061
-24.4221 1.30429 59.228 0.301765 -0.887298 -0.348333
-25.3963 1.21539 58.66 0.28518 -0.892525 -0.349388
-26.4041 1.07624 58.1796 0.297011 -0.879797 -0.371135
-27.6329 0.982058 57.4204 0.296898 -0.879563 -0.37178
-28.4156 1.13703 56.5722 0.250624 -0.878527 -0.406666
-29.0372 1.41155 55.5962 0.248481 -0.87934 -0.406225
-29.171 1.91942 54.3979 0.245227 -0.882834 -0.400586
-29.1452 2.39752 53.3587 0.243483 -0.886552 -0.393373
-28.8329 3.21139 51.7766 0.220456 -0.878885 -0.423037
-28.46 3.75689 50.8327 0.234591 -0.873962 -0.425626
-27.8543 4.49681 49.6286 0.231818 -0.880882 -0.412683
-27.2159 5.09964 48.7005 0.241163 -0.877908 -0.413547
-26.5016 5.73609 47.7717 0.242478 -0.876869 -0.415097
-25.6933 6.22546 47.21 0.244782 -0.873152 -0.421456
-24.1805 7.08083 46.3403 0.244925 -0.86977 -0.428383
-23.1817 7.49253 46.0706 0.245909 -0.873889 -0.419312
-22.1158 7.93971 45.7862 0.267057 -0.877951 -0.397344
-20.6126 8.49765 45.5637 0.266783 -0.878017 -0.397382
-19.507 8.80251 45.6237 0.260204 -0.881336 -0.394386
-18.4533 9.01645 45.8541 0.283842 -0.879072 -0.382969
-17.315 9.31859 46.0023 0.280594 -0.880416 -0.382276
-16.2316 9.54359 46.2793 0.280556 -0.880419 -0.382298
-15.1819 9.81303 46.4324 0.289176 -0.880463 -0.375716
-14.0918 10.0576 46.699 0.288747 -0.884723 -0.365912
-12.8146 10.4091 46.8573 0.289085 -0.880504 -0.375688
-11.7276 11.0558 46.145 0.291771 -0.888442 -0.354241
-11.3214 11.5747 45.1985 0.286502 -0.88971 -0.355344
-10.4283 12.1773 44.3801 0.279095 -0.890397 -0.359424
-9.56863 12.6619 43.8224 0.270087 -0.896578 -0.350828
-8.52 13.2477 43.1448 0.278606 -0.896716 -0.343918
-7.57321 13.6956 42.726 0.269896 -0.899019 -0.344849
-6.66973 14.2487 41.9195 0.259414 -0.907622 -0.330041
-5.94796 14.7402 41.109 0.243861 -0.913996 -0.323992
-5.36259 15.257 40.1291 0.240825 -0.910475 -0.336212
-4.91996 15.7347 39.1046 0.231995 -0.918488 -0.320247
-4.67546 16.2543 37.7828 0.205717 -0.927738 -0.311421
-4.40796 16.719 36.5751 0.20569 -0.927735 -0.311448
-3.98981 17.2897 35.1546 0.18252 -0.932326 -0.312177
-3.39533 18.1639 32.8887 0.180835 -0.932593 -0.312359
-3.05429 18.5467 31.8802 0.157971 -0.937298 -0.310674
-3.00525 18.9127 30.8014 0.157964 -0.937259 -0.310796
-2.93329 19.4021 29.2918 0.139655 -0.945401 -0.294473
-2.89947 19.7496 28.1924 0.129108 -0.949875 -0.284312
-2.74746 20.193 26.7405 0.119128 -0.949953 -0.288786
-2.6342 20.5219 25.6988 0.109847 -0.954114 -0.27823
-2.36467 20.9114 24.419 0.0990112 -0.957596 -0.270567
-2.65938 21.2177 23.2226 0.0928437 -0.961134 -0.260002
-3.21528 21.5586 21.7644 0.077507 -0.957835 -0.275774
-3.79877 21.8524 20.6779 0.0620961 -0.954551 -0.291507
-4.49031 22.1242 19.6251 0.0574012 -0.957675 -0.282056
-5.35481 22.2792 18.9338 0.0553794 -0.957289 -0.283778
-6.38122 22.5282 17.8934 0.0553394 -0.95741 -0.283378
-7.41658 22.8083 16.7571 0.0708202 -0.952112 -0.297436
-8.15041 23.0087 15.9308 0.0704278 -0.948968 -0.307036
-9.12271 23.2334 15.0559 0.0595688 -0.950712 -0.304301
-9.96693 23.4221 14.3322 0.0527514 -0.948329 -0.312873
-10.8235 23.7234 13.2745 0.0527341 -0.948307 -0.312943
-11.6561 24.0563 12.1683 0.0508239 -0.945094 -0.322821
-12.3621 24.4241 11.0032 0.038078 -0.945026 -0.324556
-12.8806 24.7437 9.98254 0.0334904 -0.948686 -0.31444
-13.1973 25.0922 8.91856 0.0228335 -0.942055 -0.33468
-13.5666 25.4467 7.89579 0.0210234 -0.943294 -0.331265
-13.898 25.7974 6.86543 0.0192129 -0.944591 -0.327687
-14.1968 26.3978 5.12812 0.00535592 -0.948089 -0.317959
-14.1812 26.7775 4.00504 -0.000808586 -0.946555 -0.322543
-14.3493 27.2095 2.73781 -0.0034376 -0.945137 -0.326616
-14.6313 27.6039 1.61754 -0.0060694 -0.943712 -0.330711
-15.3646 28.1197 0.107538 -0.0172085 -0.946644 -0.321745
-16.0651 28.4429 -0.780782 -0.0225256 -0.94507 -0.32609
-17.0443 28.8711 -1.94149 -0.0197658 -0.941008 -0.337807
-18.3306 29.4048 -3.35806 -0.0282769 -0.942395 -0.333284
-19.3866 29.7073 -4.11472 -0.030783 -0.940519 -0.338329
-20.0788 30.0405 -4.96706 -0.032749 -0.939608 -0.340682
-20.883 30.378 -5.8293 -0.0291059 -0.937319 -0.347189
-21.8118 30.6229 -6.39372 -0.0327221 -0.935672 -0.351351
-22.9062 30.9207 -7.08494 -0.0327223 -0.935671 -0.351353
-24.0213 31.3306 -8.0296 -0.0415565 -0.931791 -0.36061
-25.1781 31.6571 -8.74617 -0.0420282 -0.929683 -0.365955
-26.7251 32.0359 -9.51951 -0.0451019 -0.926873 -0.372647
-28.2581 32.4154 -10.2821 -0.0378731 -0.924862 -0.378414
-29.1322 32.7374 -10.9777 -0.0399574 -0.924634 -0.378754
-30.1061 33.0673 -11.6602 -0.0430784 -0.921936 -0.384939
-30.9307 33.396 -12.3498 -0.0451325 -0.921016 -0.386886
-31.6094 33.7733 -13.1752 -0.0484568 -0.920549 -0.387579
-32.2997 34.2565 -14.2208 -0.0492497 -0.919033 -0.391093
-33.1915 34.6151 -14.9509 -0.0496333 -0.918658 -0.391924
-34.1581 35.0695 -15.8772 -0.0554874 -0.917012 -0.39498
-34.7732 35.5464 -16.8981 -0.0574103 -0.914999 -0.399317
-35.0231 35.9954 -17.8778 -0.0566513 -0.913404 -0.403092
-34.4072 36.4817 -19.0672 -0.0639361 -0.915848 -0.396296
-33.968 36.9037 -20.1229 -0.0702523 -0.915578 -0.395956
-33.4345 37.2987 -21.1309 -0.0720337 -0.916622 -0.393196
-33.1799 37.7043 -22.1258 -0.0830883 -0.91284 -0.399774
-32.8503 38.1421 -23.1939 -0.0830994 -0.912832 -0.399791
-33.2613 38.8519 -24.761 -0.0907314 -0.913157 -0.397303
-33.5094 39.382 -25.8977 -0.0938988 -0.909993 -0.403851
-34.2486 39.9022 -26.9 -0.0929821 -0.910665 -0.402445
-35.3286 40.6739 -28.405 -0.0996637 -0.911756 -0.398451
-36.9311 41.3255 -29.5685 -0.0664054 -0.911706 -0.405442
-38.3468 41.9487 -30.7378 -0.0665867 -0.911197 -0.406553
-39.1112 42.4345 -31.7204 -0.0442264 -0.91409 -0.403091
-39.941 42.8354 -32.5373 -0.0451575 -0.913291 -0.404797
-40.6886 43.1898 -33.2588 -0.031828 -0.914745 -0.402777
-41.4583 43.5923 -34.1124 -0.0317071 -0.914768 -0.402732
-42.9484 43.9874 -34.9478 -0.0115095 -0.919549 -0.392806
-44.1324 44.2341 -35.506 0.0177082 -0.930063 -0.366973
-45.6814 44.3588 -35.8965 0.0176599 -0.930071 -0.366956
-46.7457 44.4943 -36.2807 0.00586305 -0.93324 -0.359202
-47.9337 44.6467 -36.8164 0.0451918 -0.94283 -0.330196
-48.9481 44.9501 -37.8217 0.0451464 -0.942833 -0.330195
-49.3642 45.333 -38.9693 0.0460595 -0.942369 -0.331389
-49.7283 45.6627 -40.0001 0.0787895 -0.946809 -0.311981
-50.2765 46.1616 -41.736 0.0692584 -0.95374 -0.292547
-50.2221 46.5708 -43.0483 0.0738017 -0.952971 -0.293936
-50.0642 46.9885 -44.3664 0.0736781 -0.953204 -0.293212
-49.7248 47.3741 -45.5468 0.0700683 -0.954503 -0.289853
-49.1606 47.768 -46.7615 0.0733823 -0.960275 -0.269233
-48.565 48.0956 -47.7677 0.0771502 -0.958911 -0.272961
-47.8676 48.4397 -48.7522 0.0905604 -0.961515 -0.258535
-47.0968 48.7405 -49.6908 0.0925231 -0.969117 -0.228587
-46.3838 49.0004 -50.5043 0.0957574 -0.972189 -0.213118
-45.5175 49.2578 -51.4445 0.0906136 -0.979032 -0.182445
-44.64 49.4965 -52.2899 0.0903898 -0.979109 -0.182141
-44.288 49.5825 -52.5785 0.090125 -0.979199 -0.181789
16.4954 34.4301 -52.5223 -0.201778 -0.973999 -0.102967
16.658 34.4744 -53.2828 -0.201691 -0.975115 -0.0920347
17.9391 34.154 -52.6417 -0.194277 -0.975982 -0.098474
16.8714 34.3681 -52.6663 -0.199413 -0.974686 -0.101104
19.0678 34.0609 -53.9405 -0.185424 -0.977675 -0.09884
18.4176 34.1688 -53.7872 -0.190713 -0.976859 -0.0966568
18.0023 34.1419 -52.6485 -0.196001 -0.976042 -0.0944799
19.0324 33.9877 -53.1499 -0.185426 -0.977675 -0.0988391
-22.5379 2.57041 57.7348 0.320037 -0.877933 -0.356104
-24.2677 2.63795 56.0558 0.306991 -0.875633 -0.372858
-26.1467 2.80756 54.3043 0.247937 -0.88345 -0.397546
-26.426 2.84306 54.0513 0.247965 -0.883377 -0.397692
-26.0098 3.75128 52.3007 0.256092 -0.876236 -0.408199
-24.3636 3.57326 53.8137 0.292943 -0.880036 -0.373792
-22.4549 3.46247 55.6391 0.311838 -0.880732 -0.356467
-20.6142 3.39806 57.4321 0.315472 -0.881829 -0.350508
-19.1033 3.37137 58.9238 0.33201 -0.882288 -0.333673
-17.251 3.42234 60.8148 0.349341 -0.888042 -0.298902
-15.6707 3.52281 62.4698 0.361882 -0.886671 -0.287846
-13.779 3.67833 64.4747 0.366912 -0.893184 -0.259997
-12.061 3.86242 66.3237 0.376418 -0.892705 -0.247765
-11.158 3.97068 67.3024 0.372949 -0.900194 -0.224855
-8.11658 5.00926 68.257 0.381591 -0.897777 -0.219967
-9.75265 4.77055 66.4599 0.37929 -0.89376 -0.239441
-11.215 4.61675 64.8911 0.360716 -0.898642 -0.249654
-13.0152 4.44546 62.9682 0.365103 -0.887997 -0.279573
-14.6272 4.33622 61.2762 0.362003 -0.886636 -0.287804
-16.1093 4.24042 59.723 0.35609 -0.882261 -0.307921
-17.9032 4.21394 57.9084 0.336642 -0.880183 -0.33459
-20.0757 4.24716 55.7591 0.313328 -0.884406 -0.345907
-22.1928 4.33589 53.7072 0.308771 -0.878705 -0.364058
-23.7575 4.45842 52.2363 0.278604 -0.870904 -0.404852
-25.0025 4.60563 51.1028 0.254258 -0.875365 -0.411205
-23.7713 5.43655 50.1106 0.255948 -0.875785 -0.409256
-21.8868 5.25536 51.8569 0.302534 -0.872718 -0.383193
-19.9922 5.13777 53.6624 0.310941 -0.874128 -0.373116
-17.4511 5.06571 56.151 0.326391 -0.885186 -0.331534
-15.9543 5.0594 57.6445 0.341709 -0.882695 -0.322623
-14.24 5.11543 59.4012 0.362463 -0.884152 -0.294781
-12.7422 5.20636 60.966 0.361887 -0.88555 -0.291271
-11.2691 5.30901 62.5136 0.366556 -0.887328 -0.279796
-9.81584 5.43679 64.0579 0.371916 -0.889399 -0.265798
-8.37446 5.58597 65.6022 0.384047 -0.888895 -0.249748
-6.65346 5.82593 67.4857 0.386572 -0.895409 -0.220917
-5.67607 5.98152 68.5653 0.382656 -0.896934 -0.221549
-3.4953 6.89818 68.576 0.382531 -0.898885 -0.21372
-5.37217 6.61803 66.5177 0.376482 -0.895314 -0.238065
-7.07195 6.41526 64.6794 0.384264 -0.887344 -0.254875
-8.87104 6.22684 62.7504 0.369685 -0.888539 -0.271719
-10.3985 6.10645 61.1364 0.365624 -0.886888 -0.282398
-11.8759 6.00357 59.5842 0.357097 -0.888585 -0.28792
-13.4426 5.92953 57.9626 0.348744 -0.883443 -0.312898
-15.2684 5.89589 56.1104 0.335611 -0.882825 -0.328611
-16.8129 5.8988 54.5665 0.326527 -0.882999 -0.337185
-18.4964 5.95398 52.9237 0.302738 -0.878446 -0.369706
-20.157 6.06603 51.3467 0.295086 -0.876886 -0.379468
-21.7271 6.18557 49.8676 0.282295 -0.872445 -0.398935
-22.5922 6.27327 49.0691 0.280568 -0.872579 -0.39986
-21.0139 7.08398 48.4075 0.282295 -0.872445 -0.398935
-18.7228 6.89359 50.5549 0.29677 -0.876646 -0.378709
-16.9434 6.7876 52.2553 0.315729 -0.876221 -0.364078
-15.1032 6.74374 54.0637 0.335995 -0.877663 -0.341783
-13.5023 6.73495 55.66 0.335812 -0.880266 -0.335205
-11.9514 6.76439 57.2337 0.342289 -0.88662 -0.311036
-10.2171 6.85426 59.0345 0.360838 -0.887455 -0.286738
-8.25953 6.99528 61.0941 0.361647 -0.888307 -0.283059
-5.99114 7.19782 63.5035 0.365573 -0.894047 -0.258914
-3.98428 7.42809 65.6661 0.376482 -0.895314 -0.238065
-1.8761 7.71301 67.9575 0.365394 -0.904359 -0.220503
-1.62652 7.75165 68.2312 0.369805 -0.905185 -0.209485
-0.201981 8.52762 67.3929 0.3626 -0.90776 -0.210934
-2.37639 8.25759 65.0467 0.358802 -0.903114 -0.235893
-4.60548 8.01056 62.6535 0.365573 -0.894047 -0.258914
-6.41722 7.85297 60.7324 0.356574 -0.894213 -0.270626
-7.87639 7.7485 59.1989 0.357812 -0.89031 -0.281636
-9.29999 7.65512 57.7072 0.353952 -0.889264 -0.289701
-11.0004 7.59007 55.9577 0.348168 -0.8828 -0.315347
-12.5684 7.56753 54.3715 0.332289 -0.88365 -0.329769
-14.7727 7.59038 52.1811 0.317479 -0.882009 -0.348235
-16.3358 7.65426 50.6654 0.3059 -0.877758 -0.368735
-17.9022 7.7577 49.176 0.292209 -0.883918 -0.365107
-18.3071 7.78325 48.79 0.288345 -0.881282 -0.374433
-15.8776 8.53178 48.9336 0.29715 -0.88182 -0.366191
-14.2946 8.45467 50.4599 0.309065 -0.883098 -0.353009
-12.5939 8.41074 52.1298 0.319561 -0.886337 -0.335092
-11.0016 8.40361 53.7194 0.332122 -0.887287 -0.320026
-9.16488 8.43402 55.5805 0.341507 -0.888051 -0.307795
-7.6562 8.49932 57.1384 0.352746 -0.887207 -0.297379
-6.18023 8.58697 58.6783 0.353016 -0.892504 -0.280744
-4.56386 8.70041 60.3742 0.356574 -0.894213 -0.270626
-3.07814 8.82924 61.9487 0.354281 -0.896042 -0.267568
-1.39558 8.99998 63.7438 0.358959 -0.901104 -0.243229
0.0418736 9.15236 65.2785 0.34637 -0.910829 -0.22454
1.5296 9.32625 66.8748 0.33699 -0.914861 -0.22241
3.88427 10.1467 66.9907 0.319784 -0.922563 -0.215906
2.08388 9.97525 65.0874 0.322426 -0.919559 -0.224614
-0.106253 9.74564 62.7525 0.336649 -0.911838 -0.234989
-1.67905 9.61822 61.0955 0.337895 -0.906358 -0.253658
-3.27399 9.50234 59.4211 0.34293 -0.900511 -0.267355
-4.79895 9.39542 57.8213 0.34426 -0.895326 -0.282623
-6.86576 9.29901 55.6833 0.347999 -0.887397 -0.302363
-8.43124 9.24227 54.0743 0.335171 -0.887637 -0.31585
-10.252 9.22647 52.2389 0.328867 -0.884945 -0.329726
-11.755 9.23868 50.7422 0.318804 -0.885514 -0.337978
-13.1492 9.28311 49.3792 0.305214 -0.884434 -0.353018
-11.5314 10.0916 48.7564 0.305535 -0.88402 -0.353777
-9.53646 10.0452 50.7213 0.319549 -0.886862 -0.333713
-7.97145 10.0491 52.2924 0.318289 -0.894223 -0.314732
-6.48003 10.0629 53.7978 0.330084 -0.895063 -0.299844
-4.52924 10.1375 55.8053 0.338111 -0.89564 -0.288982
-2.56962 10.2341 57.8357 0.334613 -0.899685 -0.280358
-1.00098 10.3305 59.4706 0.334187 -0.903425 -0.268595
0.868618 10.4682 61.4317 0.335064 -0.906759 -0.25597
2.65378 10.6148 63.3096 0.320143 -0.919481 -0.228173
4.44442 10.7751 65.1969 0.315746 -0.921927 -0.224399
5.65336 10.8843 66.4695 0.310813 -0.927317 -0.208516
6.68802 11.5263 65.1587 0.295935 -0.928521 -0.224213
4.83179 11.3736 63.214 0.296779 -0.928487 -0.223236
3.31184 11.2631 61.6265 0.315295 -0.918556 -0.238422
1.57272 11.1597 59.8201 0.313029 -0.917132 -0.24674
0.0147183 11.0772 58.207 0.32832 -0.910267 -0.252229
-1.48325 10.9979 56.6544 0.320595 -0.907009 -0.273046
-2.99634 10.9227 55.0858 0.317895 -0.904365 -0.284723
-4.48444 10.8781 53.5627 0.334959 -0.896212 -0.290871
-6.02748 10.8448 51.9911 0.315766 -0.900238 -0.299772
-7.72396 10.8417 50.2872 0.317901 -0.894678 -0.313833
-9.27076 10.8634 48.7526 0.305427 -0.891668 -0.334129
-8.73143 11.6931 47.0633 0.290617 -0.896619 -0.334089
-7.21344 11.6442 48.5522 0.304214 -0.896546 -0.321961
-5.70967 11.626 50.0482 0.307676 -0.898892 -0.311974
-4.07665 11.6292 51.6902 0.315766 -0.900238 -0.299772
-2.1087 11.6746 53.6969 0.308427 -0.906165 -0.289374
-0.254278 11.732 55.5962 0.303146 -0.91391 -0.269946
1.344 11.797 57.2397 0.292946 -0.921788 -0.253949
2.83021 11.87 58.7749 0.310811 -0.916275 -0.25266
4.63248 11.9606 60.6367 0.287925 -0.928195 -0.235699
6.09853 12.0347 62.1483 0.296779 -0.928487 -0.223236
7.52746 12.1392 63.6372 0.272997 -0.936913 -0.218326
8.62256 12.7518 62.3716 0.27528 -0.936472 -0.21735
6.81189 12.6616 60.5087 0.271138 -0.935563 -0.226286
4.4607 12.5627 58.0938 0.288098 -0.925799 -0.244737
2.51196 12.4925 56.0967 0.288027 -0.920053 -0.265598
0.782684 12.4474 54.3345 0.29971 -0.914388 -0.272157
-1.14913 12.4086 52.3675 0.300957 -0.909833 -0.285706
-2.63284 12.3971 50.8692 0.29747 -0.909626 -0.289987
-4.2817 12.3959 49.2116 0.294618 -0.904619 -0.308001
-6.00433 12.4269 47.5023 0.298656 -0.899915 -0.317738
-7.39715 12.4699 46.1338 0.288429 -0.897312 -0.334126
-6.01274 13.2315 45.2425 0.28355 -0.9028 -0.323344
-4.25636 13.1745 46.9711 0.284294 -0.908924 -0.305016
-2.66388 13.1414 48.5506 0.275164 -0.914081 -0.297892
-0.494095 13.1397 50.7301 0.293959 -0.912475 -0.284564
1.43208 13.141 52.6698 0.279872 -0.922316 -0.266468
2.97342 13.1593 54.227 0.2785 -0.924766 -0.259317
4.63566 13.1922 55.9161 0.280898 -0.92447 -0.257781
6.16668 13.2382 57.48 0.26708 -0.932287 -0.243947
7.68559 13.2779 59.0255 0.272476 -0.934179 -0.230363
9.34646 13.3285 60.7171 0.243764 -0.94446 -0.220398
10.3021 13.9179 59.3024 0.247074 -0.942426 -0.225362
8.73754 13.883 57.7165 0.244515 -0.943278 -0.224586
6.763 13.8459 55.7144 0.252638 -0.940334 -0.227916
5.01156 13.8263 53.9432 0.261446 -0.93501 -0.239586
3.3306 13.8201 52.2499 0.256768 -0.932048 -0.255651
0.83294 13.8347 49.7473 0.270622 -0.922101 -0.276573
-0.670543 13.8427 48.2399 0.283054 -0.914697 -0.288462
-2.17236 13.8854 46.7548 0.2754 -0.911587 -0.305228
-4.42648 13.9614 44.5346 0.264396 -0.913835 -0.308223
-4.63628 13.97 44.3291 0.264396 -0.913835 -0.308223
-3.57775 14.6952 43.0872 0.259759 -0.911488 -0.318927
-1.84734 14.6066 44.7756 0.260645 -0.919298 -0.294881
0.0228203 14.5484 46.6257 0.264274 -0.9206 -0.287496
1.94409 14.5231 48.5395 0.260867 -0.924943 -0.276458
3.44748 14.4848 50.0342 0.251084 -0.927689 -0.276314
5.02702 14.463 51.6098 0.256915 -0.930286 -0.261845
7.12457 14.4487 53.7119 0.228239 -0.943108 -0.241773
8.90462 14.4532 55.5011 0.233142 -0.9484 -0.2149
10.6406 14.4669 57.2509 0.210136 -0.954699 -0.210694
11.7236 15.0052 55.9414 0.195776 -0.956162 -0.217774
9.66624 15.0239 53.8846 0.228288 -0.944578 -0.235917
7.7287 15.0499 51.9505 0.218415 -0.946595 -0.237179
6.14634 15.1129 50.3914 0.211913 -0.941421 -0.262335
4.50827 15.1366 48.7589 0.223806 -0.941029 -0.253723
2.82036 15.1682 47.0742 0.239747 -0.935989 -0.257771
1.181 15.2124 45.4529 0.248242 -0.933352 -0.259287
-0.941988 15.3143 43.3694 0.252888 -0.918412 -0.304249
-2.51032 15.405 41.8451 0.235867 -0.921054 -0.309881
-2.96494 15.4362 41.4064 0.235867 -0.921054 -0.309881
-2.27554 16.1527 39.7887 0.230653 -0.921329 -0.312972
-0.241886 16.0059 41.7496 0.213392 -0.933212 -0.289101
1.28346 15.9007 43.2287 0.214525 -0.937591 -0.273682
2.94737 15.8231 44.8611 0.217941 -0.941854 -0.25576
4.87271 15.7448 46.7572 0.204886 -0.947699 -0.244721
6.69225 15.6793 48.554 0.190157 -0.953965 -0.231931
8.73086 15.609 50.5689 0.200646 -0.951731 -0.232271
10.3136 15.5776 52.145 0.222314 -0.951002 -0.214877
12.4428 15.5106 54.2538 0.176085 -0.961513 -0.210918
13.0916 15.998 52.489 0.151761 -0.968485 -0.197497
11.5889 16.0594 51.006 0.165126 -0.965451 -0.20159
10.0691 16.1295 49.509 0.194677 -0.956253 -0.218359
8.1986 16.2022 47.6627 0.183495 -0.953972 -0.237208
6.45501 16.2866 45.9508 0.185719 -0.951538 -0.245121
4.58395 16.3941 44.1215 0.194492 -0.944682 -0.2641
2.71811 16.4973 42.2978 0.20572 -0.939073 -0.275357
1.23226 16.6014 40.8575 0.200999 -0.935047 -0.292037
-0.363043 16.7366 39.3208 0.201027 -0.935384 -0.290938
-1.49222 16.8233 38.2323 0.2117 -0.932838 -0.29154
-0.995701 17.5123 36.3943 0.182173 -0.939288 -0.290777
0.725498 17.3523 38.0485 0.184721 -0.942119 -0.279804
2.25101 17.2149 39.5146 0.174838 -0.945936 -0.273199
3.9495 17.0818 41.1571 0.191093 -0.947646 -0.255834
5.74268 16.9566 42.8993 0.175669 -0.950968 -0.254559
7.24475 16.8323 44.3504 0.17097 -0.954556 -0.244117
8.7977 16.7544 45.875 0.163136 -0.959642 -0.229069
10.3209 16.6662 47.3654 0.160761 -0.960831 -0.225743
12.4122 16.5332 49.411 0.159808 -0.964925 -0.208282
13.7199 16.4701 50.6979 0.146361 -0.968016 -0.203771
14.326 16.9098 48.8758 0.123631 -0.97438 -0.187883
12.0919 17.1005 46.7059 0.135329 -0.967232 -0.214822
10.0186 17.2505 44.6862 0.162147 -0.958734 -0.233534
8.19218 17.3878 42.9131 0.163008 -0.951657 -0.26034
6.52554 17.53 41.3035 0.141491 -0.961074 -0.237312
4.98251 17.6577 39.8123 0.1905 -0.946603 -0.260101
3.40867 17.7712 38.2851 0.174497 -0.953048 -0.247488
1.85462 17.9123 36.7886 0.152988 -0.950543 -0.2703
-0.023346 18.1135 34.9921 0.166885 -0.942823 -0.288502
-0.176364 18.1311 34.8461 0.163499 -0.945304 -0.282254
-0.204021 18.8164 32.4766 0.150626 -0.947219 -0.283
1.34183 18.6291 33.9493 0.123023 -0.955939 -0.266544
3.06655 18.4383 35.5985 0.151305 -0.957017 -0.247436
4.67807 18.2896 37.1496 0.14644 -0.957573 -0.248212
6.27956 18.1426 38.6917 0.138743 -0.960592 -0.240859
8.0079 17.9802 40.3548 0.133877 -0.963757 -0.230759
9.68675 17.8435 41.9803 0.137422 -0.962173 -0.235241
11.2556 17.6868 43.4911 0.132178 -0.965227 -0.225536
13.0127 17.5577 45.2024 0.13383 -0.968681 -0.209158
14.841 17.3877 46.9749 0.0883653 -0.97709 -0.193613
16.13 17.2575 48.2223 0.0940734 -0.979233 -0.179591
16.8731 17.6622 46.5257 0.0901625 -0.976939 -0.193546
14.9916 17.8531 44.7043 0.0872138 -0.976941 -0.194885
13.4922 18.008 43.255 0.0842439 -0.975988 -0.200875
11.9173 18.1733 41.7379 0.103803 -0.973338 -0.204543
10.3708 18.3262 40.247 0.106648 -0.972367 -0.207672
8.81811 18.4742 38.7519 0.111485 -0.971214 -0.21051
7.09703 18.635 37.096 0.12392 -0.96708 -0.22226
5.47026 18.7919 35.5325 0.118799 -0.963617 -0.239434
3.74504 18.9886 33.8846 0.135072 -0.960457 -0.24347
2.24174 19.163 32.45 0.122974 -0.956001 -0.266344
0.409821 19.418 30.7148 0.113244 -0.955213 -0.273392
-0.296096 19.5286 30.0542 0.107133 -0.955616 -0.274446
-0.17356 20.1837 27.8156 0.0939256 -0.962753 -0.253544
1.54911 19.9173 29.44 0.0866873 -0.963222 -0.254341
3.1944 19.6724 30.9936 0.103752 -0.961344 -0.255055
4.95693 19.4324 32.6655 0.112367 -0.961386 -0.25122
6.60579 19.2454 34.2407 0.106166 -0.966565 -0.233412
7.40529 19.1429 35.0038 0.104617 -0.968681 -0.225194
17.6075 18.0434 44.8119 0.0794934 -0.980986 -0.177053
16.3319 18.1867 43.5802 0.0716919 -0.978664 -0.192556
15.2743 18.305 42.5594 0.0842447 -0.975988 -0.200874
14.439 18.4034 41.7567 0.0757061 -0.978007 -0.194348
14.2048 18.4301 41.5313 0.0757053 -0.978007 -0.194348
0.0277235 20.7946 25.6387 0.0756449 -0.963372 -0.257277
2.91105 20.3265 28.3545 0.0960286 -0.963021 -0.25173
5.55906 19.952 30.8646 0.0786887 -0.971522 -0.223502
4.33298 20.717 27.3229 0.0893021 -0.969355 -0.228859
1.28797 21.2004 24.4473 0.0610241 -0.964971 -0.255162
0.348999 21.3658 23.5619 0.0711441 -0.966033 -0.248434
-10.5156 25.2229 8.73203 0.020263 -0.952475 -0.303944
-8.49074 24.6727 10.601 0.0249804 -0.954611 -0.296805
-6.46187 24.1594 12.4779 0.0284726 -0.956699 -0.289685
-4.28979 23.6451 14.4902 0.0340282 -0.960084 -0.277635
-2.27732 23.1886 16.3634 0.0400014 -0.96079 -0.274376
-2.45992 23.88 13.8271 0.0104533 -0.967224 -0.253708
-4.42582 24.3487 12.0017 0.00544664 -0.963614 -0.267242
-6.35582 24.8428 10.2228 -0.00285384 -0.959463 -0.281821
-8.58765 25.4412 8.16052 0.00930873 -0.95741 -0.288582
-10.6706 26.0385 6.24833 0.0067787 -0.95155 -0.307419
-11.0235 26.1415 5.92465 0.00357738 -0.949955 -0.312366
-10.9501 26.8891 3.63459 -0.00915282 -0.951527 -0.307429
-8.50155 26.1498 5.8913 -0.00394874 -0.957015 -0.290013
-6.25304 25.5123 7.95893 -0.00834016 -0.958101 -0.286309
-3.69468 24.8211 10.3159 0.00201025 -0.961624 -0.274365
-2.44823 24.5105 11.4688 -0.00124852 -0.965753 -0.259459
-2.66978 25.2055 8.90324 -0.00771124 -0.963833 -0.266396
-4.6211 25.7419 7.10542 -0.0182697 -0.960591 -0.277366
-6.50883 26.2859 5.36917 -0.0153162 -0.958992 -0.283019
-9.19534 27.0889 2.89608 -0.020247 -0.954139 -0.298677
-11.1068 27.698 1.13549 -0.0319072 -0.951 -0.30754
-12.8241 28.267 -0.457662 -0.0224243 -0.948654 -0.315521
-23.9078 32.368 -10.7501 -0.0592062 -0.930685 -0.360998
-25.7561 33.1435 -12.4332 -0.064378 -0.931076 -0.359099
-27.7001 33.9673 -14.1922 -0.0658319 -0.926814 -0.369706
-29.5657 34.8028 -15.9033 -0.0580059 -0.92283 -0.380816
-31.75 35.7844 -17.8873 -0.0670597 -0.916979 -0.393259
-31.1186 36.4863 -19.6531 -0.0680863 -0.920996 -0.383576
-29.0658 35.5484 -17.8171 -0.0806915 -0.924337 -0.372947
-26.8353 34.5225 -15.7381 -0.0690204 -0.924527 -0.374816
-24.4325 33.4869 -13.5608 -0.0654104 -0.931015 -0.359073
-22.2479 32.5748 -11.567 -0.0657003 -0.933047 -0.353704
-20.2124 31.7505 -9.67689 -0.0451689 -0.940625 -0.33643
-18.2519 31.0026 -7.83851 -0.0505524 -0.945419 -0.321913
-16.107 30.2072 -5.85547 -0.0461739 -0.94377 -0.327362
-14.1141 29.4974 -4.02914 -0.0397675 -0.947182 -0.318223
-11.581 28.6134 -1.66357 -0.035176 -0.951613 -0.305278
-9.20512 27.8282 0.534832 -0.0344169 -0.954209 -0.297153
-7.20388 27.1914 2.37209 -0.0247453 -0.956305 -0.291323
-4.55625 26.4118 4.81029 -0.0335194 -0.963275 -0.266418
-3.09665 25.9901 6.15494 -0.0254398 -0.963007 -0.268274
-3.59211 26.7903 3.33474 -0.0340751 -0.961097 -0.2741
-6.38164 27.6455 0.771695 -0.044345 -0.957415 -0.28529
-8.28962 28.2658 -0.978914 -0.0383861 -0.955379 -0.292879
-10.1911 28.8928 -2.73651 -0.045511 -0.954672 -0.294161
-12.4837 29.6825 -4.86911 -0.0507202 -0.952174 -0.301319
-14.5028 30.4084 -6.72964 -0.059865 -0.948765 -0.310259
-16.7459 31.2427 -8.80462 -0.0654819 -0.944726 -0.321256
-19.3491 32.2622 -11.2347 -0.0695291 -0.940829 -0.331672
-21.423 33.1114 -13.1486 -0.0706953 -0.932816 -0.353351
-23.3622 33.9227 -14.9237 -0.072026 -0.93474 -0.347955
-25.2052 34.7331 -16.6006 -0.0799476 -0.926389 -0.367984
-27.66 35.8587 -18.8786 -0.0817913 -0.92223 -0.377892
-29.5386 36.7312 -20.5968 -0.0839402 -0.921598 -0.378961
-30.7003 37.2893 -21.6738 -0.0955583 -0.917787 -0.385402
-30.2142 38.0675 -23.6422 -0.0976746 -0.914119 -0.393506
-28.0035 36.9865 -21.5788 -0.0979812 -0.921075 -0.376856
-26.1037 36.0862 -19.8214 -0.0961622 -0.92521 -0.367069
-23.7514 34.9898 -17.6172 -0.0887008 -0.929809 -0.357194
-21.9087 34.1837 -15.9417 -0.0868427 -0.933586 -0.347672
-20.0471 33.3989 -14.238 -0.076308 -0.936544 -0.342143
-17.8342 32.4913 -12.1867 -0.0710965 -0.942185 -0.327463
-15.6149 31.6092 -10.118 -0.0655781 -0.945611 -0.318621
-13.6291 30.862 -8.27632 -0.0628351 -0.947545 -0.313384
-11.3831 30.0494 -6.19958 -0.0577538 -0.950655 -0.304826
-9.46679 29.3836 -4.42407 -0.053655 -0.95383 -0.295517
-7.4563 28.71 -2.57127 -0.0439141 -0.955624 -0.291298
-5.569 28.0872 -0.83859 -0.052527 -0.96071 -0.27254
-4.56493 27.7691 0.0818572 -0.0514558 -0.95988 -0.275649
-5.30439 28.6824 -2.94943 -0.062707 -0.958341 -0.278657
-7.4912 29.4216 -4.96384 -0.0704582 -0.958697 -0.275564
-9.3732 30.0707 -6.70467 -0.0729115 -0.955026 -0.287419
-11.2471 30.7417 -8.43006 -0.0797415 -0.952878 -0.292686
-13.3682 31.5254 -10.3882 -0.0676849 -0.950904 -0.301994
-15.3438 32.2862 -12.2211 -0.0859724 -0.946294 -0.311666
-17.2112 33.0434 -13.969 -0.0905116 -0.941841 -0.323639
-19.2309 33.905 -15.8477 -0.0866637 -0.937057 -0.338251
-21.0897 34.705 -17.5393 -0.0913269 -0.933984 -0.345445
-23.354 35.7134 -19.6226 -0.110845 -0.930138 -0.350082
-25.3036 36.6461 -21.4734 -0.115393 -0.927782 -0.354831
-27.5293 37.7207 -23.5258 -0.115147 -0.924754 -0.362727
-29.628 38.7883 -25.5096 -0.118721 -0.91985 -0.373873
-31.3877 39.7199 -27.1863 -0.0971719 -0.913752 -0.39448
-42.7107 45.0638 -37.683 -0.001479 -0.935488 -0.353355
-44.5093 45.6947 -39.3827 0.0207999 -0.936666 -0.349605
-46.221 46.2071 -40.9801 0.0528885 -0.946904 -0.317137
-47.0177 46.3954 -41.7378 0.0703978 -0.948225 -0.309698
-46.3252 47.016 -43.5099 0.0782975 -0.954363 -0.288202
-44.8644 46.6476 -42.1154 0.0353602 -0.945239 -0.324458
-43.3902 46.2198 -40.7229 0.0208013 -0.936666 -0.349606
-41.6423 45.593 -39.0712 0.000189698 -0.934337 -0.35639
-40.0502 45.0157 -37.5956 -0.045268 -0.923666 -0.380515
-38.1386 44.1565 -35.8292 -0.0544464 -0.920416 -0.38713
-36.2881 43.2944 -34.1251 -0.0714455 -0.913357 -0.400842
-34.7502 42.5432 -32.7214 -0.0845432 -0.909221 -0.407639
-33.3771 41.8058 -31.4598 -0.114046 -0.905445 -0.408855
-31.8396 40.9934 -30.0263 -0.107457 -0.913534 -0.392313
-29.9123 39.9507 -28.192 -0.124811 -0.914139 -0.38571
-28.3462 39.1071 -26.701 -0.121174 -0.916726 -0.380698
-26.9431 38.3806 -25.3762 -0.119036 -0.921187 -0.370467
-25.4991 37.6627 -24.0333 -0.128292 -0.924558 -0.358794
-23.7369 36.8019 -22.3903 -0.11539 -0.927783 -0.35483
-22.0651 36.011 -20.816 -0.109232 -0.930367 -0.349979
-20.5343 35.3209 -19.3967 -0.102121 -0.935835 -0.337319
-18.8588 34.5766 -17.8621 -0.104124 -0.936952 -0.333586
-17.4176 33.9598 -16.5232 -0.0973549 -0.939871 -0.327361
-15.9361 33.3219 -15.1418 -0.109937 -0.942581 -0.315364
-14.1189 32.5747 -13.435 -0.0859697 -0.946295 -0.311666
-12.6041 31.9845 -12.0321 -0.0925613 -0.949036 -0.301269
-11.0968 31.406 -10.6347 -0.0887461 -0.950635 -0.297349
-9.21864 30.7132 -8.90884 -0.0847004 -0.955297 -0.283255
-6.73797 29.8452 -6.62945 -0.077646 -0.956415 -0.281497
-6.72344 29.8401 -6.61605 -0.0745596 -0.959084 -0.273127
-6.28499 30.351 -8.54118 -0.0910121 -0.957189 -0.274784
-8.3637 31.1068 -10.4563 -0.0876184 -0.95277 -0.290779
-9.7758 31.6352 -11.7618 -0.088773 -0.950394 -0.298111
-11.5958 32.3366 -13.451 -0.0925597 -0.949037 -0.301268
-13.4273 33.0638 -15.1539 -0.100423 -0.948642 -0.299991
