-2.79721 38.5752 -30.5108 -0.233721 -0.946803 -0.22122
-3.93441 38.5673 -29.378 -0.219677 -0.947393 -0.232784
-4.89439 38.5583 -28.4225 -0.219303 -0.94472 -0.243743
-6.16234 38.5055 -27.179 -0.211771 -0.942963 -0.256854
-7.02182 38.4681 -26.3372 -0.206609 -0.944052 -0.257056
-7.89346 38.4271 -25.4862 -0.198755 -0.942965 -0.267047
-8.88805 38.3482 -24.5326 -0.190852 -0.941872 -0.2765
-9.78853 38.2693 -23.6731 -0.184406 -0.941597 -0.281761
-11.0882 38.1372 -22.4393 -0.168883 -0.94311 -0.286395
-11.9662 38.0389 -21.6093 -0.157964 -0.939438 -0.304144
-12.851 37.9188 -20.7836 -0.153843 -0.939745 -0.305307
-13.9657 37.7542 -19.75 -0.144199 -0.93516 -0.323548
-15.4007 37.519 -18.4306 -0.139416 -0.935484 -0.324703
-16.5087 37.3092 -17.4269 -0.127215 -0.931509 -0.340744
-17.4793 37.1258 -16.5462 -0.112358 -0.938053 -0.32777
-18.5051 36.9258 -15.6176 -0.107254 -0.932129 -0.34588
-19.7419 36.627 -14.5262 -0.09037 -0.931844 -0.351427
-20.7729 36.3778 -13.6151 -0.0855562 -0.931309 -0.35404
-22.1048 36.0395 -12.4446 -0.0738598 -0.925928 -0.370408
-23.2146 35.7409 -11.478 -0.0704889 -0.924593 -0.374377
-23.6557 35.6164 -11.0953 -0.067545 -0.923206 -0.378323
-23.9758 35.993 -11.9573 -0.0704889 -0.924593 -0.374377
-22.4583 36.4007 -13.2772 -0.0736454 -0.925942 -0.370415
-21.53 36.6325 -14.0937 -0.0904838 -0.926739 -0.364647
-20.0739 36.9874 -15.376 -0.093549 -0.928863 -0.358417
-19.0747 37.2289 -16.2577 -0.107254 -0.932129 -0.34588
-17.7516 37.4881 -17.4519 -0.123867 -0.931817 -0.341137
-16.5971 37.7123 -18.4959 -0.127215 -0.931509 -0.340744
-15.609 37.8851 -19.3959 -0.139416 -0.935484 -0.324703
-14.4198 38.08 -20.4892 -0.14903 -0.937504 -0.314447
-13.5186 38.2052 -21.3287 -0.153843 -0.939744 -0.305308
-12.636 38.327 -22.1514 -0.163433 -0.941327 -0.295285
-11.5359 38.4524 -23.1892 -0.172268 -0.938541 -0.299106
-10.3009 38.58 -24.3615 -0.185563 -0.940518 -0.284593
-9.43198 38.6543 -25.1918 -0.194746 -0.940734 -0.277658
-7.78461 38.7574 -26.7865 -0.206608 -0.944052 -0.257058
-6.87398 38.8008 -27.6753 -0.21416 -0.941678 -0.259572
-5.6276 38.8504 -28.8985 -0.211236 -0.94391 -0.253797
-4.52544 38.8588 -29.9971 -0.227332 -0.945372 -0.233648
-3.58499 38.8682 -30.9327 -0.22671 -0.947137 -0.227011
-2.15665 38.8507 -32.3711 -0.238974 -0.946663 -0.21615
-1.30703 38.8253 -33.2347 -0.244369 -0.94609 -0.212598
-0.0509281 38.7689 -34.5213 -0.244385 -0.950105 -0.193846
0.796474 38.7298 -35.3883 -0.24216 -0.95067 -0.193872
1.49077 38.9274 -37.3414 -0.251209 -0.952708 -0.171001
0.566628 38.9917 -36.3856 -0.247224 -0.950439 -0.188536
-0.554621 39.0456 -35.2363 -0.246611 -0.949536 -0.193815
-1.5082 39.0934 -34.2571 -0.246611 -0.949536 -0.193816
-2.61941 39.1388 -33.1213 -0.238974 -0.946664 -0.216146
-3.78001 39.1537 -31.9518 -0.24175 -0.944341 -0.223109
-4.70191 39.1559 -31.0277 -0.230578 -0.943194 -0.239205
-6.26155 39.1465 -29.472 -0.219301 -0.944721 -0.243741
-7.93537 39.0845 -27.8288 -0.21532 -0.942997 -0.253758
-8.89754 39.0376 -26.8902 -0.202931 -0.94193 -0.267558
-10.051 38.9555 -25.7784 -0.193805 -0.94209 -0.273688
-10.9985 38.8706 -24.873 -0.183061 -0.940922 -0.284875
-12.1561 38.7524 -23.7735 -0.172269 -0.938541 -0.299106
-13.3889 38.6127 -22.6106 -0.170829 -0.934341 -0.312769
-14.3629 38.4671 -21.7093 -0.153843 -0.939744 -0.305308
-15.2641 38.3419 -20.8698 -0.14903 -0.937504 -0.314447
-16.3203 38.164 -19.9028 -0.134631 -0.935786 -0.325852
-17.3995 37.9768 -18.9194 -0.130929 -0.933682 -0.33331
-18.3769 37.7838 -18.0384 -0.120516 -0.932114 -0.341526
-19.4472 37.5697 -17.0763 -0.121654 -0.933459 -0.337423
-20.5076 37.3254 -16.136 -0.0954208 -0.92863 -0.358526
-21.4369 37.1044 -15.3162 -0.092953 -0.927692 -0.361589
-22.3301 36.8825 -14.5307 -0.0900922 -0.926789 -0.364618
-23.601 36.5537 -13.422 -0.0770011 -0.921557 -0.380532
-24.7369 36.2451 -12.4365 -0.0704889 -0.924593 -0.374377
-25.6126 35.9949 -11.6809 -0.0614515 -0.923349 -0.379013
-26.2741 36.2801 -12.2447 -0.0716732 -0.91845 -0.38899
-24.6606 36.7313 -13.6375 -0.0783109 -0.921303 -0.380878
-23.2903 37.0931 -14.8298 -0.0896997 -0.926838 -0.36459
-22.1782 37.3691 -15.805 -0.0900901 -0.926788 -0.36462
-21.2784 37.5862 -16.5969 -0.102899 -0.923247 -0.370171
-20.3969 37.799 -17.3726 -0.105266 -0.924893 -0.365365
-19.3332 38.0216 -18.3233 -0.134024 -0.925669 -0.353801
-18.2739 38.2324 -19.2761 -0.136479 -0.927209 -0.348792
-17.1658 38.4255 -20.2842 -0.153307 -0.927462 -0.341044
-16.1002 38.6071 -21.2569 -0.157979 -0.929307 -0.333813
-15.1082 38.7568 -22.1739 -0.16091 -0.931463 -0.32632
-14.1902 38.8955 -23.0226 -0.16091 -0.931463 -0.32632
-13.2913 38.9963 -23.8709 -0.1807 -0.936948 -0.299127
-11.9699 39.1354 -25.1233 -0.186449 -0.936999 -0.295414
-10.8819 39.2515 -26.1525 -0.20225 -0.934364 -0.293359
-9.95955 39.3086 -27.048 -0.214625 -0.935487 -0.280714
-9.06731 39.3648 -27.9134 -0.202935 -0.941928 -0.267561
-8.01341 39.406 -28.946 -0.227898 -0.935343 -0.270547
-7.00458 39.446 -29.9338 -0.233914 -0.937365 -0.25813
-6.00407 39.4544 -30.931 -0.233813 -0.940972 -0.244751
-5.09292 39.4638 -31.8378 -0.233813 -0.940972 -0.24475
-4.09579 39.4519 -32.8425 -0.249907 -0.941403 -0.226512
-3.16735 39.4317 -33.7833 -0.254674 -0.942476 -0.216516
-1.70011 39.3577 -35.2905 -0.259761 -0.943348 -0.206444
-0.140448 39.2788 -36.8926 -0.259896 -0.945045 -0.198351
0.846879 39.2009 -37.919 -0.25121 -0.952707 -0.171002
1.72142 39.1333 -38.827 -0.250876 -0.952758 -0.17121
2.02794 39.1099 -39.145 -0.251548 -0.953333 -0.16697
2.69404 39.2688 -41.088 -0.266715 -0.949994 -0.162401
1.8784 39.3411 -40.2372 -0.263363 -0.949263 -0.171869
0.935217 39.4279 -39.251 -0.269212 -0.946995 -0.175284
-0.191388 39.5226 -38.077 -0.268877 -0.945874 -0.181734
-1.37887 39.6091 -36.8436 -0.259896 -0.945045 -0.198351
-2.93853 39.6879 -35.2415 -0.259761 -0.943348 -0.206444
-4.00211 39.7411 -34.1482 -0.254674 -0.942476 -0.216516
-4.90431 39.7607 -33.234 -0.24516 -0.942015 -0.229137
-5.8338 39.768 -32.2996 -0.237116 -0.941811 -0.238259
-6.83668 39.7603 -31.2995 -0.239884 -0.939205 -0.245662
-7.84615 39.7544 -30.2913 -0.233914 -0.937365 -0.25813
-8.85497 39.7145 -29.3035 -0.227898 -0.935343 -0.270547
-10.4336 39.6323 -27.7642 -0.214244 -0.93668 -0.277002
-11.4997 39.5663 -26.7291 -0.202251 -0.934363 -0.293361
-12.6046 39.4484 -25.684 -0.197054 -0.93119 -0.306683
-13.9125 39.3015 -24.4518 -0.184128 -0.932645 -0.310274
-14.8559 39.1988 -23.56 -0.170829 -0.934341 -0.312769
-15.8499 39.0489 -22.6413 -0.162639 -0.93108 -0.326557
-16.8816 38.8949 -21.6884 -0.157979 -0.929307 -0.333813
-17.9472 38.7134 -20.7156 -0.153307 -0.927462 -0.341044
-18.8975 38.5406 -19.8569 -0.138929 -0.928719 -0.343772
-20.1091 38.3033 -18.7665 -0.12333 -0.926458 -0.35562
-21.1328 38.0741 -17.86 -0.10763 -0.926511 -0.360545
-22.0865 37.846 -17.0201 -0.104424 -0.923059 -0.370213
-23.3583 37.5369 -15.9053 -0.0987923 -0.919628 -0.380164
-24.3634 37.2817 -15.0268 -0.092475 -0.919773 -0.381401
-25.3015 37.0262 -14.2161 -0.0796208 -0.921048 -0.381223
-26.806 36.6065 -12.9171 -0.0681213 -0.918591 -0.389295
-26.9349 36.5688 -12.8069 -0.0645697 -0.91872 -0.389594
-27.7011 36.8241 -13.2821 -0.0645676 -0.91872 -0.389595
-26.7317 37.1066 -14.1118 -0.0756461 -0.919764 -0.385113
-25.6159 37.4148 -15.0741 -0.0809475 -0.917504 -0.389402
-24.5443 37.7036 -16.0002 -0.092475 -0.919773 -0.381401
-23.4682 37.9731 -16.9417 -0.105949 -0.92287 -0.370252
-22.3168 38.2465 -17.9526 -0.107609 -0.919321 -0.378509
-21.3682 38.4606 -18.7909 -0.116977 -0.924095 -0.363819
-20.4146 38.6752 -19.6349 -0.109424 -0.927768 -0.356753
-19.2584 38.8973 -20.6746 -0.138929 -0.928719 -0.343772
-18.2694 39.0794 -21.5663 -0.146122 -0.928115 -0.342419
-17.0387 39.2759 -22.6965 -0.16264 -0.931079 -0.326557
-15.9693 39.4355 -23.6841 -0.167878 -0.926098 -0.337875
-14.5936 39.6171 -24.9659 -0.187528 -0.928198 -0.321374
-13.6363 39.7344 -25.863 -0.195918 -0.928846 -0.314423
-12.3576 39.8554 -27.0788 -0.197054 -0.931189 -0.306685
-10.8022 39.9558 -28.5861 -0.213861 -0.937858 -0.273286
-9.35498 40.0365 -29.9954 -0.220886 -0.936625 -0.271924
-7.86265 40.0677 -31.4729 -0.239885 -0.939204 -0.245663
-6.61116 40.079 -32.7216 -0.249048 -0.937467 -0.24317
-5.75326 40.0643 -33.5881 -0.240405 -0.9426 -0.231756
-4.83687 40.0506 -34.5131 -0.254674 -0.942476 -0.216517
-3.82793 40.0002 -35.5504 -0.25941 -0.943433 -0.206495
-2.61728 39.9394 -36.7946 -0.259894 -0.945046 -0.198351
-1.39132 39.858 -38.0655 -0.260009 -0.94668 -0.190245
-0.460929 39.7831 -39.0341 -0.268877 -0.945874 -0.181734
0.936334 39.6498 -40.4988 -0.266451 -0.948675 -0.170349
1.78654 39.5745 -41.3856 -0.266715 -0.949994 -0.162401
2.9158 39.4452 -42.576 -0.263414 -0.952412 -0.15338
3.33919 39.4028 -43.0201 -0.260667 -0.95432 -0.146033
3.85967 39.5232 -44.829 -0.270822 -0.951848 -0.143668
2.79796 39.6559 -43.7071 -0.275731 -0.950635 -0.142357
1.77912 39.7771 -42.632 -0.270472 -0.950362 -0.153811
0.879034 39.8801 -41.6833 -0.266715 -0.949994 -0.1624
-0.196326 39.9821 -40.5568 -0.269536 -0.948076 -0.168826
-1.43506 40.1028 -39.2569 -0.269213 -0.946995 -0.175284
-2.62974 40.1883 -38.0165 -0.260009 -0.94668 -0.190245
-3.52529 40.259 -37.0826 -0.27785 -0.938054 -0.207012
-4.54986 40.3079 -36.0296 -0.270642 -0.936551 -0.222769
-5.67163 40.36 -34.878 -0.254674 -0.942476 -0.216517
-6.52101 40.3768 -34.0189 -0.255343 -0.938314 -0.233166
-7.36234 40.3942 -33.1675 -0.249045 -0.937467 -0.243169
-8.44378 40.3829 -32.0889 -0.242717 -0.936488 -0.253138
-9.42516 40.3727 -31.1101 -0.252431 -0.932579 -0.25802
-10.9238 40.3022 -29.644 -0.237896 -0.926635 -0.291124
-12.3522 40.2307 -28.249 -0.230542 -0.928146 -0.292224
-13.3596 40.1442 -27.286 -0.204855 -0.927513 -0.312656
-14.9995 39.9665 -25.7379 -0.190562 -0.927408 -0.321872
-16.3004 39.8134 -24.5167 -0.183366 -0.923914 -0.335796
-17.3714 39.6424 -23.5348 -0.173088 -0.920949 -0.349132
-18.4119 39.4763 -22.5808 -0.180457 -0.919206 -0.349993
-19.7935 39.2338 -21.329 -0.166154 -0.917395 -0.361635
-20.8752 39.0254 -20.3588 -0.129373 -0.920541 -0.368603
-21.9316 38.7933 -19.421 -0.127704 -0.919623 -0.371462
-22.9455 38.5642 -18.5273 -0.113947 -0.918076 -0.379674
-24.0244 38.2963 -17.588 -0.107607 -0.919322 -0.378508
-25.2602 37.983 -16.5108 -0.0861532 -0.91988 -0.382621
-26.5575 37.632 -15.3901 -0.0809475 -0.917504 -0.389403
-27.6208 37.3347 -14.4763 -0.0753187 -0.916299 -0.393348
-28.0214 37.2182 -14.1335 -0.0738757 -0.914815 -0.39706
-28.5912 37.5408 -14.7707 -0.0753186 -0.916299 -0.393348
-27.677 37.7974 -15.5553 -0.0767572 -0.917768 -0.389627
-26.8064 38.0413 -16.3028 -0.083551 -0.918701 -0.386016
-25.8406 38.3025 -17.136 -0.0961038 -0.910793 -0.401522
-24.4874 38.6551 -18.3069 -0.110351 -0.915439 -0.387033
-23.1649 38.9716 -19.4636 -0.118626 -0.920385 -0.372585
-22.2148 39.1876 -20.2997 -0.123166 -0.920014 -0.372028
-20.8927 39.4703 -21.4733 -0.13104 -0.921447 -0.365738
-19.6833 39.6912 -22.5646 -0.16033 -0.922657 -0.350713
-18.8068 39.8524 -23.3528 -0.17338 -0.917577 -0.357759
-17.0153 40.13 -24.9974 -0.183366 -0.923915 -0.335796
-15.8865 40.2628 -26.0571 -0.193593 -0.926608 -0.322364
-14.9557 40.3723 -26.9309 -0.197804 -0.922517 -0.331416
-13.7791 40.4973 -28.043 -0.205418 -0.925616 -0.317865
-12.6996 40.5769 -29.0818 -0.223177 -0.929604 -0.293306
-11.1147 40.6601 -30.6271 -0.237154 -0.928281 -0.286448
-10.0057 40.7077 -31.7147 -0.249293 -0.929343 -0.272351
-9.04993 40.7093 -32.6733 -0.262111 -0.928546 -0.26287
-8.15543 40.7108 -33.5705 -0.26208 -0.9289 -0.261647
-7.25752 40.6981 -34.4769 -0.262625 -0.932748 -0.247001
-6.40375 40.6859 -35.3386 -0.272233 -0.933623 -0.23289
-5.04315 40.6188 -36.7374 -0.27085 -0.937573 -0.218166
-4.1033 40.5681 -37.7072 -0.27785 -0.938054 -0.207012
-3.23647 40.4983 -38.6118 -0.284622 -0.93745 -0.200445
-2.18907 40.4072 -39.7085 -0.285101 -0.940415 -0.185303
-0.950938 40.2866 -41.0077 -0.285907 -0.940201 -0.185148
0.14604 40.1724 -42.162 -0.290927 -0.943501 -0.158644
0.965617 40.0735 -43.0281 -0.270903 -0.950093 -0.15471
1.87499 39.9702 -43.9863 -0.275777 -0.949778 -0.14788
2.84352 39.84 -45.0123 -0.270822 -0.951848 -0.143668
3.8889 39.7093 -46.117 -0.270821 -0.951849 -0.143667
5.11877 39.5289 -47.4163 -0.269212 -0.955308 -0.122112
5.43494 39.4846 -47.7427 -0.262693 -0.956824 -0.12442
4.4147 39.7969 -47.9293 -0.27572 -0.953744 -0.119796
3.25493 39.9783 -46.7042 -0.273292 -0.952867 -0.131742
2.35781 40.0905 -45.7562 -0.275732 -0.950635 -0.142355
1.53831 40.2036 -44.8872 -0.280633 -0.949396 -0.141041
0.444542 40.3368 -43.7323 -0.283497 -0.946391 -0.154833
-0.528305 40.4685 -42.6976 -0.285793 -0.944439 -0.162352
-1.41919 40.5759 -41.7539 -0.285868 -0.942384 -0.17376
-2.32953 40.6646 -40.7986 -0.285099 -0.940416 -0.1853
-3.73868 40.7984 -39.317 -0.284294 -0.940629 -0.185455
-4.68131 40.8771 -38.3318 -0.277848 -0.938055 -0.207011
-6.2476 40.9617 -36.7156 -0.27085 -0.937573 -0.218166
-7.12495 41.0136 -35.8093 -0.272233 -0.933623 -0.232891
-7.96346 41.0263 -34.9626 -0.27865 -0.927972 -0.24743
-9.46856 41.0446 -33.4402 -0.26208 -0.9289 -0.261647
-10.4977 41.0429 -32.408 -0.249293 -0.929342 -0.272354
-11.532 40.9985 -31.3938 -0.23641 -0.929903 -0.281765
-12.4189 40.9604 -30.524 -0.243137 -0.927336 -0.284485
-13.4186 40.8991 -29.5551 -0.241574 -0.918031 -0.314421
-14.3338 40.8364 -28.6719 -0.210052 -0.92436 -0.318492
-15.4065 40.7333 -27.6521 -0.214682 -0.923082 -0.31911
-16.6392 40.5822 -26.4983 -0.201989 -0.918319 -0.340428
-17.7302 40.4466 -25.4781 -0.183366 -0.923915 -0.335796
-19.0654 40.2485 -24.25 -0.187815 -0.91741 -0.350834
-20.0671 40.0684 -23.347 -0.158903 -0.917508 -0.364594
-20.9644 39.9037 -22.5398 -0.141583 -0.921086 -0.362705
-22.4758 39.5909 -21.196 -0.138969 -0.913475 -0.382427
-23.3889 39.3838 -20.3931 -0.13205 -0.913617 -0.384534
-24.3657 39.163 -19.533 -0.121755 -0.912672 -0.390135
-25.5126 38.8761 -18.5373 -0.11035 -0.915439 -0.387034
-26.383 38.646 -17.7853 -0.0961029 -0.910793 -0.401522
-27.4662 38.3513 -16.8543 -0.0934155 -0.908965 -0.406271
-28.5207 38.0468 -15.9541 -0.0886371 -0.907424 -0.410762
-29.4729 37.7719 -15.1413 -0.0827056 -0.912675 -0.400229
-29.6416 38.227 -16.1104 -0.0809123 -0.907909 -0.411284
-28.3362 38.604 -17.2248 -0.0886359 -0.907424 -0.410762
-27.2944 38.8906 -18.1184 -0.0981922 -0.910464 -0.401764
-25.6477 39.3222 -19.5387 -0.111439 -0.911603 -0.395679
-24.1835 39.6765 -20.8155 -0.13221 -0.912633 -0.386809
-23.3049 39.8773 -21.585 -0.132368 -0.911643 -0.389082
-22.3705 40.074 -22.4136 -0.145934 -0.913783 -0.379082
-21.3654 40.2855 -23.3027 -0.160421 -0.91307 -0.374925
-20.4419 40.4474 -24.1374 -0.158903 -0.917508 -0.364594
-19.5564 40.6104 -24.9335 -0.173382 -0.917576 -0.35776
-18.6863 40.7384 -25.7341 -0.187681 -0.917271 -0.351269
-17.3336 40.9181 -26.9893 -0.207867 -0.916231 -0.342508
-16.351 41.0411 -27.9071 -0.208352 -0.920773 -0.329796
-15.2658 41.1492 -28.9366 -0.216716 -0.919682 -0.327444
-14.3976 41.2283 -29.7641 -0.241573 -0.918031 -0.314421
-12.9483 41.3057 -31.1752 -0.249851 -0.924715 -0.287188
-11.3782 41.3614 -32.7203 -0.243139 -0.927336 -0.284486
-10.0476 41.3783 -34.0484 -0.262049 -0.929252 -0.260424
-9.10918 41.3782 -34.9924 -0.270366 -0.928664 -0.253942
-7.87837 41.3431 -36.2467 -0.278697 -0.928179 -0.2466
-6.89364 41.294 -37.2607 -0.284659 -0.930399 -0.230926
-6.06567 41.2388 -38.12 -0.292902 -0.929977 -0.222153
-5.21301 41.1824 -39.0047 -0.284466 -0.939067 -0.192955
-3.93583 41.0619 -40.3472 -0.293724 -0.935569 -0.196055
-2.6497 40.9414 -41.699 -0.294751 -0.937704 -0.183937
-1.75306 40.8328 -42.6495 -0.295872 -0.939663 -0.171738
-0.870926 40.7259 -43.5842 -0.297406 -0.940911 -0.161977
0.463813 40.5399 -45.0054 -0.297667 -0.943271 -0.147087
1.31823 40.4209 -45.9118 -0.280633 -0.949396 -0.141041
2.13773 40.3077 -46.7808 -0.275732 -0.950635 -0.142355
2.23878 40.2951 -46.8875 -0.273292 -0.952867 -0.131742
0.662154 40.6991 -46.4771 -0.289077 -0.946748 -0.141784
-0.237206 40.8391 -45.5149 -0.300531 -0.943373 -0.140455
-1.03576 40.9529 -44.6638 -0.294788 -0.943119 -0.153708
-1.93222 41.0822 -43.7054 -0.297406 -0.940911 -0.161977
-2.80079 41.1875 -42.7851 -0.295806 -0.939679 -0.171765
-3.67103 41.2922 -41.86 -0.295739 -0.939694 -0.171795
-5.04847 41.4245 -40.4109 -0.302037 -0.932702 -0.197079
-6.0205 41.5255 -39.3831 -0.297869 -0.930899 -0.211425
-7.4266 41.6202 -37.9225 -0.295643 -0.929302 -0.221343
-8.3295 41.6745 -36.9871 -0.287193 -0.927509 -0.239262
-9.61612 41.712 -35.6731 -0.270366 -0.928664 -0.253942
-10.5384 41.7121 -34.7454 -0.262049 -0.929252 -0.260424
-11.4721 41.7283 -33.797 -0.277453 -0.919545 -0.278311
-13.1196 41.6637 -32.1788 -0.256394 -0.918765 -0.300221
-14.5582 41.6127 -30.7631 -0.245739 -0.921471 -0.300838
-15.7993 41.5034 -29.5783 -0.216717 -0.919681 -0.327445
-16.9141 41.4019 -28.5147 -0.229917 -0.909664 -0.345903
-17.8339 41.2851 -27.6592 -0.214372 -0.909842 -0.35529
-19.0548 41.1187 -26.5293 -0.187543 -0.917131 -0.351707
-19.9312 40.9894 -25.7239 -0.173382 -0.917576 -0.35776
-20.8482 40.8273 -24.8959 -0.1745 -0.913573 -0.367333
-21.7822 40.6658 -24.0505 -0.160423 -0.91307 -0.374924
-22.7575 40.4606 -23.1878 -0.146304 -0.912332 -0.382421
-23.7078 40.2618 -22.3467 -0.146708 -0.908975 -0.39018
-24.6431 40.0491 -21.528 -0.137009 -0.909387 -0.392739
-25.6085 39.8172 -20.6881 -0.112985 -0.909966 -0.398994
-26.7167 39.5368 -19.7285 -0.112965 -0.910994 -0.396648
-27.7323 39.2645 -18.8587 -0.0979752 -0.909052 -0.405001
-28.7412 38.9909 -17.9922 -0.093417 -0.908964 -0.406272
-29.6837 38.7188 -17.1876 -0.0809122 -0.907909 -0.411285
-29.8003 38.6836 -17.0892 -0.0731824 -0.908339 -0.411782
-30.4624 38.9882 -17.6435 -0.0731824 -0.908339 -0.411782
-29.3787 39.3107 -18.5611 -0.093417 -0.908964 -0.406272
-28.0308 39.6803 -19.7118 -0.0977572 -0.907629 -0.408232
-26.9801 39.9557 -20.6155 -0.112984 -0.909967 -0.398993
-25.7359 40.2747 -21.6884 -0.113005 -0.908933 -0.401336
-24.8322 40.4873 -22.4767 -0.136963 -0.909332 -0.392883
-23.955 40.686 -23.2419 -0.146709 -0.908974 -0.390184
-23.07 40.8679 -24.0262 -0.156486 -0.908579 -0.387293
-22.1366 41.0583 -24.8539 -0.182607 -0.906711 -0.380171
-21.01 41.2572 -25.8705 -0.183043 -0.906597 -0.380232
-19.8786 41.4416 -26.8992 -0.197434 -0.90982 -0.36503
-18.888 41.5911 -27.8069 -0.2057 -0.909935 -0.360146
-18.0009 41.7041 -28.6321 -0.214817 -0.910221 -0.35405
-16.8454 41.8307 -29.7186 -0.244948 -0.90884 -0.337654
-15.5254 41.9443 -30.982 -0.247666 -0.910912 -0.33
-14.3857 41.9996 -32.0949 -0.262873 -0.912588 -0.313179
-13.2046 42.0554 -33.2488 -0.263838 -0.916607 -0.300368
-12.1995 42.078 -34.2468 -0.264755 -0.920459 -0.287506
-11.0341 42.067 -35.4254 -0.290078 -0.918406 -0.269044
-10.1881 42.0521 -36.2851 -0.295602 -0.918626 -0.262194
-9.26594 42.0203 -37.2311 -0.278745 -0.928384 -0.245771
-8.31395 41.9751 -38.2124 -0.29885 -0.928235 -0.221513
-7.26033 41.8983 -39.3122 -0.295643 -0.929302 -0.221346
-6.41911 41.8303 -40.1918 -0.303267 -0.931324 -0.201653
-5.54778 41.7412 -41.1125 -0.313638 -0.927943 -0.201379
-4.09613 41.5713 -42.6549 -0.304559 -0.935498 -0.179131
-3.10263 41.4517 -43.711 -0.295806 -0.939679 -0.171765
-2.23954 41.3295 -44.6328 -0.29891 -0.942066 -0.1522
-1.37406 41.2044 -45.5584 -0.296848 -0.942596 -0.152954
-0.276123 41.033 -46.7345 -0.298697 -0.943862 -0.141085
-1.84794 41.4798 -46.3079 -0.312936 -0.938361 -0.146798
-3.1578 41.6776 -44.9028 -0.310484 -0.93655 -0.16271
-4.05597 41.8142 -43.9356 -0.315329 -0.933029 -0.173272
-5.02196 41.9334 -42.9075 -0.313335 -0.931162 -0.18644
-6.45904 42.1065 -41.3766 -0.312524 -0.929832 -0.19427
-7.57533 42.2164 -40.1975 -0.31018 -0.924664 -0.220872
-8.47803 42.2806 -39.2559 -0.305468 -0.924053 -0.229815
-9.37428 42.3472 -38.3189 -0.314014 -0.916582 -0.247533
-10.1925 42.3808 -37.4761 -0.300272 -0.919752 -0.252771
-11.0415 42.4163 -36.6014 -0.290898 -0.917398 -0.271586
-12.3516 42.4375 -35.2697 -0.290491 -0.917903 -0.270314
-13.3296 42.4199 -34.2962 -0.282663 -0.910268 -0.302514
-14.207 42.4024 -33.4238 -0.276914 -0.911741 -0.303394
-15.5293 42.3469 -32.1288 -0.269438 -0.909697 -0.315996
-16.4634 42.2864 -31.2224 -0.247666 -0.910912 -0.33
-17.5148 42.1959 -30.2161 -0.244949 -0.90884 -0.337653
-18.5056 42.0792 -29.2902 -0.214816 -0.910221 -0.35405
-19.5336 41.9439 -28.3378 -0.197434 -0.90982 -0.36503
-20.6696 41.7734 -27.2973 -0.197863 -0.909702 -0.365092
-21.7997 41.585 -26.2719 -0.182607 -0.906711 -0.380171
-22.7263 41.4217 -25.4382 -0.170858 -0.905511 -0.388403
-24.1229 41.1276 -24.2063 -0.156021 -0.905036 -0.395686
-25.0558 40.9178 -23.3918 -0.148781 -0.902035 -0.405212
-26.908 40.467 -21.7863 -0.130091 -0.8998 -0.416457
-28.0269 40.1818 -20.8205 -0.1203 -0.900994 -0.416819
-28.9257 39.936 -20.0546 -0.109541 -0.901655 -0.418353
-29.7947 39.6979 -19.3138 -0.0981839 -0.902269 -0.419846
-29.0323 40.4173 -21.064 -0.109541 -0.901655 -0.418353
-28.0056 40.6959 -21.938 -0.1203 -0.900994 -0.416819
-26.8867 40.9812 -22.9038 -0.130091 -0.8998 -0.416457
-25.9785 41.202 -23.6891 -0.138787 -0.903186 -0.406194
-24.8845 41.4469 -24.6448 -0.152526 -0.906043 -0.394743
-23.5007 41.7437 -25.8608 -0.156019 -0.905037 -0.395685
-22.5339 41.9229 -26.7263 -0.18602 -0.903435 -0.386265
-21.4926 42.1061 -27.6634 -0.203071 -0.902109 -0.380738
-20.3821 42.2773 -28.6782 -0.209536 -0.900434 -0.381199
-19.1421 42.4378 -29.826 -0.227036 -0.906426 -0.356154
-18.1007 42.5683 -30.7935 -0.229916 -0.909665 -0.345903
-17.0969 42.6492 -31.758 -0.250366 -0.91292 -0.322325
-15.8909 42.7311 -32.9267 -0.259916 -0.911356 -0.319177
-14.4893 42.7804 -34.3068 -0.271154 -0.913179 -0.304269
-13.4913 42.8029 -35.2976 -0.285163 -0.914586 -0.286731
-12.6317 42.791 -36.1698 -0.287586 -0.918653 -0.270871
-11.6429 42.7719 -37.1763 -0.302291 -0.917529 -0.25838
-10.4201 42.7277 -38.4326 -0.304302 -0.915267 -0.263981
-9.25583 42.6413 -39.653 -0.323608 -0.917562 -0.230992
-8.36234 42.5737 -40.588 -0.310182 -0.924663 -0.220874
-7.07644 42.4435 -41.9495 -0.320872 -0.925828 -0.199709
-6.18004 42.3262 -42.9096 -0.327617 -0.924902 -0.192931
-5.11862 42.1933 -44.0426 -0.315327 -0.93303 -0.173272
-4.22786 42.0556 -45.0041 -0.317262 -0.93473 -0.160073
-3.3258 41.9194 -45.9743 -0.311447 -0.937537 -0.154998
-2.98484 41.8637 -46.3424 -0.312395 -0.938466 -0.147279
-4.12908 42.2577 -46.3643 -0.331504 -0.93094 -0.153152
-5.05343 42.4082 -45.362 -0.330411 -0.928019 -0.172076
-5.91987 42.5432 -44.4262 -0.327304 -0.92834 -0.17623
-6.75501 42.6587 -43.5273 -0.327617 -0.924902 -0.192931
-7.65141 42.776 -42.5671 -0.320869 -0.925829 -0.199708
-8.67597 42.8813 -41.4812 -0.327159 -0.921362 -0.209904
-9.6938 42.9838 -40.3999 -0.324952 -0.91633 -0.233978
-10.8798 43.087 -39.1485 -0.314013 -0.916582 -0.247533
-11.7322 43.1188 -38.2722 -0.320436 -0.909191 -0.265881
-12.6628 43.1646 -37.3074 -0.313401 -0.906541 -0.282776
-13.5966 43.1688 -36.3653 -0.306264 -0.903579 -0.299578
-14.5993 43.1725 -35.3536 -0.302778 -0.89999 -0.313598
-15.6202 43.1458 -34.3415 -0.301303 -0.895513 -0.327526
-17.2331 43.0517 -32.7716 -0.267523 -0.896614 -0.352867
-18.3393 42.9707 -31.7033 -0.247666 -0.910912 -0.33
-19.4529 42.8508 -30.6589 -0.238082 -0.903072 -0.357461
-20.3519 42.7529 -29.8182 -0.22303 -0.901835 -0.370069
-21.2675 42.6118 -28.9815 -0.203071 -0.902109 -0.380737
-22.4408 42.4188 -27.9163 -0.196597 -0.903744 -0.380259
-23.3055 42.2656 -27.1388 -0.189858 -0.899989 -0.392396
-24.5286 42.0184 -26.0563 -0.166814 -0.895253 -0.413152
-25.816 41.7377 -24.9281 -0.160762 -0.896468 -0.412918
-26.9014 41.4796 -23.991 -0.138787 -0.903186 -0.406194
-27.9842 41.2101 -23.0555 -0.1203 -0.900993 -0.416821
-29.0288 40.9269 -22.1664 -0.110497 -0.9021 -0.417141
-29.3472 41.3538 -22.9916 -0.127966 -0.893798 -0.429825
-28.0584 41.6983 -24.0917 -0.119241 -0.898008 -0.423513
-26.6148 42.0577 -25.3284 -0.140256 -0.895524 -0.422333
-25.6611 42.2755 -26.1562 -0.160763 -0.896466 -0.412921
-24.4714 42.523 -27.2053 -0.175843 -0.902271 -0.393684
-23.5333 42.7044 -28.0401 -0.184272 -0.89365 -0.409186
-22.2157 42.9244 -29.2344 -0.196597 -0.903744 -0.380259
-21.0424 43.1174 -30.2996 -0.203071 -0.902109 -0.380737
-20.0216 43.2416 -31.2458 -0.254733 -0.883219 -0.393744
-18.242 43.4139 -32.927 -0.271394 -0.895136 -0.353662
-16.8391 43.5261 -34.2757 -0.267523 -0.896614 -0.352867
-15.8375 43.5571 -35.2659 -0.301303 -0.895512 -0.327528
-14.5355 43.5571 -36.5793 -0.304185 -0.904275 -0.299596
-13.5207 43.5535 -37.6034 -0.313404 -0.90654 -0.282777
-12.59 43.5077 -38.5682 -0.320436 -0.909191 -0.265881
-11.6416 43.4633 -39.5504 -0.334945 -0.906379 -0.257466
-10.7539 43.385 -40.4894 -0.326294 -0.915086 -0.23696
-9.90596 43.3141 -41.3833 -0.326293 -0.915086 -0.236962
-9.06075 43.2123 -42.2889 -0.340155 -0.91586 -0.213295
-8.22714 43.1102 -43.1832 -0.345734 -0.9174 -0.197093
-7.41172 42.9935 -44.0632 -0.324188 -0.928636 -0.180381
-6.58743 42.8782 -44.9513 -0.327306 -0.928339 -0.176233
-5.70274 42.7383 -45.908 -0.329452 -0.931344 -0.155114
-6.26277 43.0444 -46.5566 -0.329452 -0.931344 -0.155114
-7.12906 43.1936 -45.6124 -0.329945 -0.929715 -0.163602
-8.04071 43.3347 -44.623 -0.353681 -0.91614 -0.188673
-9.24201 43.5138 -43.3192 -0.337739 -0.918536 -0.205486
-10.1842 43.6333 -42.3048 -0.338948 -0.917207 -0.209392
-11.0468 43.722 -41.3876 -0.335228 -0.911549 -0.23812
-12.1442 43.8299 -40.2187 -0.344131 -0.907925 -0.239261
-13.3931 43.9011 -38.9177 -0.32562 -0.904453 -0.275564
-14.4082 43.9503 -37.8637 -0.330667 -0.894152 -0.301915
-15.425 43.9435 -36.8422 -0.313667 -0.896253 -0.313597
-16.9036 43.9461 -35.3489 -0.302776 -0.899992 -0.313595
-18.5436 43.8376 -33.7611 -0.27526 -0.893642 -0.354451
-19.9355 43.7348 -32.4209 -0.27526 -0.893642 -0.354451
-20.8474 43.6266 -31.5752 -0.254733 -0.883219 -0.393744
-21.7238 43.5043 -30.776 -0.229514 -0.885571 -0.40384
-23.0264 43.2944 -29.5908 -0.227992 -0.884431 -0.407187
-24.1513 43.0975 -28.5789 -0.198456 -0.886951 -0.417054
-25.5673 42.8056 -27.3282 -0.177846 -0.887027 -0.42609
-26.4918 42.5896 -26.528 -0.158734 -0.893256 -0.420591
-27.6973 42.3053 -25.4871 -0.151435 -0.892242 -0.425408
-28.7346 42.0432 -24.6001 -0.128241 -0.891101 -0.435309
-29.369 41.8718 -24.0622 -0.128102 -0.892454 -0.432569
-29.4948 42.3659 -25.0364 -0.136319 -0.887974 -0.439226
-28.2176 42.6976 -26.1248 -0.151471 -0.889871 -0.430332
-27.1987 42.9454 -26.9975 -0.16275 -0.888777 -0.428471
-25.7372 43.2872 -28.2649 -0.163028 -0.88917 -0.427549
-24.5177 43.534 -29.3437 -0.204262 -0.889134 -0.409533
-23.4154 43.7347 -30.3293 -0.216141 -0.886848 -0.408391
-22.2984 43.9107 -31.3443 -0.231031 -0.886699 -0.400487
-21.3486 44.0517 -32.2044 -0.242902 -0.885028 -0.397146
-19.5567 44.2088 -33.9101 -0.27526 -0.893642 -0.354451
-17.9948 44.3398 -35.4017 -0.301263 -0.876452 -0.375597
-16.6567 44.3553 -36.7438 -0.32304 -0.887917 -0.327489
-15.5398 44.3628 -37.8659 -0.32304 -0.887917 -0.327489
-14.2363 44.3022 -39.2209 -0.338049 -0.899713 -0.276117
-13.218 44.2527 -40.2786 -0.334946 -0.906378 -0.257468
-12.3302 44.1654 -41.2243 -0.344131 -0.907925 -0.239262
-11.3909 44.0812 -42.221 -0.360298 -0.902464 -0.236102
-10.4069 43.9364 -43.2938 -0.353693 -0.911185 -0.211291
-9.39178 43.8076 -44.3867 -0.345733 -0.9174 -0.197094
-8.44592 43.6517 -45.4196 -0.349707 -0.921068 -0.171285
-7.5559 43.4954 -46.3967 -0.350203 -0.920907 -0.17114
-7.25437 43.4418 -46.7262 -0.350699 -0.920745 -0.170997
-8.77966 43.9425 -46.302 -0.349708 -0.921068 -0.171286
-9.88514 44.143 -45.0858 -0.374998 -0.908819 -0.182824
-11.1068 44.3317 -43.7479 -0.369527 -0.903521 -0.217024
-12.1211 44.481 -42.6422 -0.369528 -0.903521 -0.217023
-13.0923 44.5708 -41.6101 -0.350905 -0.901 -0.255077
-13.9448 44.6563 -40.6987 -0.371074 -0.886756 -0.275622
-15.0993 44.7133 -39.4954 -0.353275 -0.887136 -0.296963
-16.3115 44.7777 -38.2297 -0.330667 -0.894151 -0.301916
-17.2693 44.7804 -37.2608 -0.343261 -0.87866 -0.331856
-18.1209 44.7867 -36.3965 -0.324431 -0.880795 -0.344884
-19.0272 44.7401 -35.5077 -0.301263 -0.876452 -0.375597
-20.3731 44.6208 -34.2276 -0.296985 -0.870113 -0.393324
-21.4099 44.5289 -33.2414 -0.297886 -0.869747 -0.393451
-22.4432 44.3863 -32.2991 -0.255341 -0.86754 -0.42682
-23.4117 44.2404 -31.4232 -0.250428 -0.868905 -0.426955
-24.5251 44.0367 -30.429 -0.235532 -0.864966 -0.443124
-25.5919 43.8416 -29.4758 -0.198453 -0.886951 -0.417053
-26.7689 43.5672 -28.4537 -0.163028 -0.88917 -0.427549
-27.9617 43.288 -27.4184 -0.162888 -0.888974 -0.42801
-28.9494 43.0391 -26.5781 -0.140432 -0.891784 -0.430117
-30.1778 42.7168 -25.534 -0.136318 -0.887975 -0.439225
-30.4631 43.1739 -26.3695 -0.123192 -0.888832 -0.441363
-29.4798 43.4346 -27.1998 -0.150919 -0.873471 -0.462895
-27.9534 43.8436 -28.4906 -0.1743 -0.873495 -0.454561
-26.7711 44.1199 -29.517 -0.190371 -0.870593 -0.453682
-25.604 44.3821 -30.5297 -0.215941 -0.869206 -0.444803
-24.4992 44.5862 -31.5154 -0.235532 -0.864966 -0.443124
-23.4996 44.7518 -32.4148 -0.24551 -0.870247 -0.427077
-22.4236 44.9159 -33.3873 -0.260707 -0.869913 -0.418669
-21.2088 45.0392 -34.5212 -0.29879 -0.869379 -0.393579
-20.0596 45.1404 -35.6137 -0.301265 -0.876451 -0.375597
-19.1112 45.1891 -36.5438 -0.305429 -0.882464 -0.35773
-17.7873 45.2122 -37.8683 -0.344365 -0.875972 -0.337764
-16.3359 45.1637 -39.3699 -0.368812 -0.880585 -0.297569
-14.8855 45.0922 -40.8815 -0.353275 -0.887136 -0.296963
-13.8241 44.9829 -42.0216 -0.388584 -0.885693 -0.254066
-12.9664 44.8977 -42.9379 -0.360298 -0.902464 -0.236103
-11.8771 44.735 -44.1273 -0.365915 -0.907589 -0.205884
-10.7464 44.5602 -45.3667 -0.373252 -0.907382 -0.193239
-9.09509 44.2513 -47.1958 -0.36947 -0.910622 -0.18509
-9.64949 44.5916 -47.8322 -0.366118 -0.917214 -0.157089
-10.4495 44.75 -46.9458 -0.374999 -0.908819 -0.182824
-11.4753 44.9515 -45.7961 -0.373253 -0.907381 -0.193239
-12.4172 45.097 -44.7637 -0.365915 -0.907589 -0.205885
-13.687 45.3061 -43.3637 -0.396865 -0.886398 -0.238321
-14.7417 45.4408 -42.2147 -0.388585 -0.885693 -0.254066
-16.1221 45.5426 -40.7561 -0.368813 -0.880584 -0.29757
-17.5161 45.6497 -39.273 -0.384246 -0.873783 -0.298092
-18.7857 45.6534 -37.9856 -0.358171 -0.86826 -0.343276
-19.8002 45.6249 -36.9757 -0.343115 -0.852583 -0.394174
-20.7418 45.5768 -36.0521 -0.328636 -0.856832 -0.397287
-21.637 45.5012 -35.1994 -0.313649 -0.856058 -0.41084
-22.7043 45.3912 -34.2042 -0.287113 -0.850861 -0.440003
-24.1296 45.1763 -32.9175 -0.245512 -0.870247 -0.427076
-25.0733 45.0248 -32.0665 -0.240534 -0.867648 -0.435122
-26.0724 44.8235 -31.1873 -0.19626 -0.873096 -0.446302
-27.0272 44.6147 -30.359 -0.19332 -0.871854 -0.449998
-27.9116 44.4081 -29.5914 -0.174302 -0.873495 -0.454561
-29.2218 44.063 -28.4721 -0.158185 -0.876164 -0.455317
-30.1416 43.8137 -27.6995 -0.150919 -0.873471 -0.462895
-30.4846 43.7205 -27.4119 -0.132158 -0.875952 -0.463943
-30.9034 44.1501 -28.1212 -0.113349 -0.878118 -0.464824
-29.9586 44.4224 -28.9077 -0.154554 -0.87483 -0.459113
-28.8563 44.7127 -29.8493 -0.158185 -0.876164 -0.455317
-27.8697 44.9725 -30.6921 -0.174302 -0.873495 -0.454561
-26.7917 45.2146 -31.6236 -0.225596 -0.842335 -0.489467
-25.8413 45.4338 -32.4389 -0.234 -0.846466 -0.478267
-24.9017 45.604 -33.2735 -0.26961 -0.843147 -0.465203
-23.9504 45.7684 -34.1229 -0.277695 -0.84724 -0.452847
-22.9533 45.8997 -35.025 -0.30044 -0.853628 -0.425506
-22.0955 45.9727 -35.8413 -0.314075 -0.86088 -0.400304
-20.8425 46.0739 -37.0421 -0.314075 -0.860879 -0.400304
-19.8841 46.1236 -37.9814 -0.357124 -0.858225 -0.368664
-18.9936 46.1044 -38.8961 -0.37082 -0.863111 -0.34283
-17.3023 46.0285 -40.6592 -0.384246 -0.873783 -0.298092
-15.9083 45.9215 -42.1422 -0.368813 -0.880584 -0.29757
-15.0241 45.816 -43.1018 -0.387281 -0.887844 -0.248489
-14.046 45.6798 -44.1737 -0.406371 -0.884777 -0.228106
-13.1947 45.532 -45.117 -0.406371 -0.884777 -0.228107
-12.2168 45.3573 -46.2043 -0.407459 -0.891807 -0.196616
-11.3769 45.1869 -47.1505 -0.386915 -0.903283 -0.185408
-10.5402 45.002 -48.0931 -0.397364 -0.90277 -0.164644
-10.3319 44.9532 -48.3282 -0.397364 -0.90277 -0.164644
-11.0259 45.3441 -48.794 -0.399163 -0.901266 -0.168488
-11.8438 45.5312 -47.872 -0.393165 -0.901893 -0.178916
-12.7271 45.7309 -46.8644 -0.412893 -0.891715 -0.185376
-13.8241 45.9481 -45.6306 -0.401963 -0.891757 -0.207835
-14.8082 46.1235 -44.5368 -0.396865 -0.886397 -0.238322
-15.6111 46.2316 -43.657 -0.423744 -0.869159 -0.254959
-16.6273 46.3947 -42.5242 -0.412684 -0.864234 -0.287736
-17.7727 46.4766 -41.3089 -0.401121 -0.858253 -0.320163
-18.925 46.5666 -40.0776 -0.410024 -0.840686 -0.353734
-19.7763 46.5696 -39.2148 -0.397318 -0.831082 -0.389154
-20.6621 46.5869 -38.3062 -0.357124 -0.858225 -0.368664
-22.1145 46.4763 -36.9095 -0.314075 -0.860879 -0.400304
-23.4701 46.3775 -35.6026 -0.333824 -0.833377 -0.440504
-24.3569 46.2559 -34.8014 -0.285713 -0.851134 -0.440385
-25.4452 46.0824 -33.8256 -0.25601 -0.846866 -0.46613
-26.575 45.8592 -32.8328 -0.234 -0.846466 -0.478267
-27.5255 45.64 -32.0175 -0.225596 -0.842335 -0.489467
-29.0278 45.252 -30.7467 -0.189653 -0.845129 -0.49979
-30.3984 44.8741 -29.5875 -0.159623 -0.852461 -0.497826
-31.5406 44.5125 -28.6505 -0.122753 -0.869615 -0.478227
-31.882 44.9879 -29.3913 -0.132113 -0.860817 -0.491467
-30.1524 45.5499 -30.8235 -0.159623 -0.852461 -0.497826
-29.0145 45.8637 -31.786 -0.193016 -0.846275 -0.496551
-27.9162 46.1444 -32.7055 -0.211006 -0.844963 -0.49144
-26.6874 46.4073 -33.7726 -0.242358 -0.850416 -0.466964
-25.7325 46.5959 -34.6118 -0.251177 -0.836906 -0.48631
-24.4744 46.808 -35.7234 -0.292936 -0.830077 -0.474511
-23.5903 46.9193 -36.5397 -0.358655 -0.827325 -0.432319
-22.3273 47.009 -37.7591 -0.358655 -0.827325 -0.432319
-21.4257 47.0729 -38.6264 -0.371652 -0.831263 -0.413372
-20.044 47.0759 -40.0227 -0.397319 -0.831082 -0.389153
-18.645 46.9682 -41.5227 -0.422113 -0.849021 -0.31778
-17.4969 46.8832 -42.7443 -0.412685 -0.864233 -0.287736
-16.4807 46.72 -43.877 -0.423744 -0.869159 -0.254959
-15.4664 46.5586 -45.0078 -0.431007 -0.868954 -0.243211
-14.6488 46.3976 -45.9289 -0.429412 -0.873193 -0.230519
-13.7621 46.2244 -46.925 -0.431361 -0.878554 -0.205111
-12.6199 45.9673 -48.2284 -0.422182 -0.889797 -0.173272
-11.7506 45.7448 -49.2204 -0.399163 -0.901266 -0.168488
-12.4753 46.1455 -49.6469 -0.399163 -0.901266 -0.168488
-13.4821 46.4225 -48.4852 -0.425217 -0.891969 -0.153565
-14.7309 46.7244 -47.048 -0.433018 -0.883318 -0.179566
-15.6313 46.9078 -46.0314 -0.432756 -0.872034 -0.228648
-16.7586 47.1182 -44.7568 -0.42579 -0.866789 -0.259577
-18.2375 47.3509 -43.108 -0.42477 -0.867977 -0.257268
-19.5319 47.4767 -41.703 -0.422113 -0.849021 -0.31778
-20.6989 47.5835 -40.4383 -0.410026 -0.840685 -0.353734
-21.7401 47.5745 -39.3895 -0.384157 -0.83622 -0.391356
-22.6004 47.5398 -38.5437 -0.358901 -0.825751 -0.435115
-23.7976 47.4549 -37.3928 -0.333822 -0.833379 -0.440503
-25.1823 47.2804 -36.1128 -0.30088 -0.834559 -0.4615
-26.2833 47.0893 -35.1371 -0.275437 -0.835392 -0.475662
-27.2006 46.8948 -34.3436 -0.259837 -0.822866 -0.505348
-28.5323 46.5822 -33.2123 -0.207469 -0.835118 -0.509446
-29.6419 46.2986 -32.2834 -0.193016 -0.846275 -0.496551
-30.9077 45.8961 -31.2266 -0.12944 -0.858978 -0.495381
-31.8263 45.5938 -30.4624 -0.12944 -0.858978 -0.495381
-32.2214 45.4638 -30.1337 -0.130776 -0.8599 -0.493426
-31.9374 46.1521 -31.4015 -0.138578 -0.848262 -0.511124
-30.613 46.6001 -32.4848 -0.145072 -0.829207 -0.539786
-29.5861 46.9347 -33.3296 -0.205249 -0.82763 -0.522399
-28.2889 47.2631 -34.4155 -0.239276 -0.831621 -0.501153
-27.2182 47.505 -35.3281 -0.249573 -0.827296 -0.503284
-25.8805 47.7757 -36.4965 -0.289036 -0.805293 -0.51765
-24.8753 47.9172 -37.4159 -0.349372 -0.805269 -0.479041
-23.7841 48.0245 -38.4422 -0.381455 -0.806539 -0.451649
-22.6679 48.0865 -39.5254 -0.396999 -0.815375 -0.421373
-21.4899 48.1087 -40.7051 -0.422982 -0.821218 -0.382998
-19.7429 47.9566 -42.5945 -0.447322 -0.825205 -0.344876
-18.8435 47.8444 -43.5936 -0.454512 -0.840828 -0.293984
-17.9724 47.6925 -44.5749 -0.46619 -0.837797 -0.284189
-17.1329 47.5399 -45.5257 -0.466292 -0.849139 -0.248063
-15.9896 47.2964 -46.8347 -0.450997 -0.860257 -0.237822
-14.7534 46.9841 -48.2712 -0.426019 -0.885336 -0.186247
-13.846 46.7393 -49.3178 -0.425217 -0.891969 -0.153565
-13.4303 46.6239 -49.7982 -0.425217 -0.891969 -0.153565
-14.2064 47.065 -50.1484 -0.45097 -0.876186 -0.170073
-15.1521 47.3384 -49.0489 -0.456425 -0.873983 -0.166825
-16.2079 47.6313 -47.8081 -0.454301 -0.869086 -0.195703
-17.0627 47.8744 -46.7991 -0.467635 -0.856567 -0.218197
-18.4212 48.1635 -45.2346 -0.466883 -0.849018 -0.247365
-19.2824 48.3156 -44.2629 -0.454511 -0.84083 -0.293982
-20.1802 48.4277 -43.2654 -0.442722 -0.843659 -0.303705
-21.0677 48.5422 -42.2768 -0.465886 -0.818683 -0.33572
-21.9828 48.616 -41.2892 -0.441235 -0.82775 -0.346615
-22.84 48.6272 -40.4095 -0.397001 -0.815375 -0.421371
-23.6907 48.5975 -39.5698 -0.389968 -0.81741 -0.423987
-24.8315 48.5155 -38.4758 -0.351225 -0.810205 -0.469264
-25.7553 48.4165 -37.6134 -0.350303 -0.807751 -0.474158
-26.9763 48.1893 -36.5336 -0.281156 -0.80919 -0.51591
-28.1276 47.9505 -35.5316 -0.274842 -0.801807 -0.530629
-29.1626 47.7015 -34.6593 -0.235717 -0.797074 -0.555977
-30.4805 47.3157 -33.5818 -0.17396 -0.824843 -0.537933
-31.4388 46.9546 -32.7985 -0.142454 -0.821046 -0.552803
-32.4921 46.5869 -31.9371 -0.147654 -0.837167 -0.52664
-33.1467 46.3655 -31.4016 -0.119393 -0.8448 -0.521592
-33.8664 46.7142 -31.8493 -0.0984369 -0.844685 -0.526134
-32.8761 47.0768 -32.6185 -0.106912 -0.824417 -0.555794
-31.9518 47.4283 -33.3698 -0.14278 -0.82078 -0.553114
-31.0381 47.773 -34.1173 -0.139946 -0.80335 -0.57883
-30.0984 48.0868 -34.868 -0.202714 -0.799015 -0.566111
-29.0632 48.3908 -35.7124 -0.274841 -0.801808 -0.530629
-28.1324 48.5838 -36.5224 -0.296613 -0.785196 -0.543588
-26.798 48.8955 -37.6666 -0.316317 -0.767108 -0.558112
-25.9096 49.0191 -38.4702 -0.395038 -0.770447 -0.500357
-24.9985 49.1081 -39.3266 -0.394537 -0.76954 -0.502144
-24.0486 49.1457 -40.2587 -0.448372 -0.762349 -0.466676
-23.0301 49.1686 -41.2748 -0.448998 -0.767159 -0.458112
-22.2021 49.1039 -42.1687 -0.442234 -0.825713 -0.35018
-21.3895 49.0406 -43.0456 -0.465886 -0.818683 -0.33572
-20.5612 48.9124 -43.9839 -0.489161 -0.81098 -0.320987
-19.7212 48.7868 -44.9321 -0.454511 -0.84083 -0.293982
-18.9015 48.6153 -45.8787 -0.466882 -0.849018 -0.247364
-17.4503 48.2535 -47.5746 -0.469109 -0.863024 -0.187419
-16.6173 48.0144 -48.5589 -0.461724 -0.86609 -0.19157
-15.5506 47.6947 -49.8224 -0.46186 -0.87174 -0.163569
-14.5602 47.4076 -50.975 -0.45097 -0.876186 -0.170073
-14.2669 47.3228 -51.316 -0.454315 -0.879925 -0.139031
-14.9736 47.7411 -51.7436 -0.45721 -0.882795 -0.107852
-15.8598 48.0235 -50.7021 -0.456425 -0.873983 -0.166823
-17.0826 48.4176 -49.2421 -0.480363 -0.858695 -0.178587
-17.9281 48.6604 -48.2431 -0.470659 -0.861863 -0.188873
-18.8581 48.9653 -47.1216 -0.506694 -0.836755 -0.207611
-20.1323 49.2622 -45.6258 -0.487733 -0.827087 -0.279363
-20.9057 49.4048 -44.7337 -0.481204 -0.829129 -0.284584
-21.7113 49.539 -43.8145 -0.465888 -0.818683 -0.335719
-22.5688 49.6338 -42.8712 -0.529102 -0.761888 -0.373601
-23.4787 49.7653 -41.8507 -0.490089 -0.768061 -0.412183
-25.1429 49.7328 -40.1664 -0.421432 -0.765911 -0.485567
-26.0309 49.6478 -39.3425 -0.394535 -0.769542 -0.502143
-26.9326 49.5445 -38.508 -0.320964 -0.77408 -0.545695
-28.3871 49.241 -37.2587 -0.311599 -0.759963 -0.570405
-29.7835 48.8948 -36.0786 -0.220695 -0.77061 -0.597875
-30.6753 48.5707 -35.3707 -0.187963 -0.807715 -0.558808
-32.2708 47.9831 -34.1108 -0.139946 -0.80335 -0.57883
-33.1845 47.6384 -33.3633 -0.14278 -0.82078 -0.553114
-34.214 47.2202 -32.5739 -0.106913 -0.824417 -0.555794
-34.3338 47.1763 -32.4807 -0.105152 -0.838169 -0.535178
-34.4293 47.814 -33.3822 -0.0515627 -0.817744 -0.573267
-33.5035 48.1932 -34.1043 -0.139944 -0.80335 -0.57883
-32.5583 48.5921 -34.8373 -0.136972 -0.785137 -0.603986
-31.5376 48.9612 -35.6451 -0.185845 -0.783546 -0.592889
-30.433 49.4103 -36.5126 -0.1834 -0.758008 -0.62593
-28.8832 49.8417 -37.7882 -0.284659 -0.771014 -0.569654
-27.9836 50.0179 -38.5615 -0.320965 -0.77408 -0.545694
-27.0634 50.1875 -39.3584 -0.394535 -0.769542 -0.502143
-25.526 50.3346 -40.7848 -0.410481 -0.74793 -0.521638
-24.2909 50.356 -42.0528 -0.449581 -0.771896 -0.449504
-23.3509 50.2765 -43.0743 -0.529103 -0.761887 -0.373601
-22.265 50.13 -44.2984 -0.558006 -0.759722 -0.333845
-21.4311 49.9235 -45.2844 -0.516323 -0.798813 -0.308721
-20.5948 49.7579 -46.2546 -0.535331 -0.799839 -0.271437
-19.7281 49.5224 -47.2969 -0.491216 -0.839848 -0.231002
-18.478 49.1021 -48.818 -0.52177 -0.832994 -0.184057
-17.6021 48.8369 -49.8612 -0.480364 -0.858695 -0.178587
-16.391 48.4291 -51.3145 -0.484396 -0.86312 -0.142778
-15.5255 48.1052 -52.3546 -0.473284 -0.872105 -0.124237
-16.6445 48.7011 -52.2744 -0.473284 -0.872105 -0.124237
-17.4758 49.0187 -51.2639 -0.47847 -0.870249 -0.117189
-18.2514 49.2936 -50.3269 -0.49643 -0.847796 -0.186546
-19.097 49.5948 -49.2928 -0.52177 -0.832994 -0.184057
-20.0961 49.9506 -48.071 -0.506693 -0.836755 -0.207613
-21.2004 50.309 -46.7058 -0.553398 -0.799466 -0.233678
-22.06 50.4911 -45.7013 -0.550446 -0.78091 -0.295276
-22.9573 50.7764 -44.6122 -0.558006 -0.759722 -0.333845
-24.2812 50.9407 -43.1111 -0.529789 -0.758531 -0.379413
-25.1238 50.9683 -42.2268 -0.495553 -0.736636 -0.460212
-26.4026 50.9514 -40.9226 -0.436873 -0.736953 -0.515793
-27.4788 50.8439 -39.9257 -0.392914 -0.729356 -0.560051
-28.4193 50.6633 -39.1162 -0.359084 -0.731927 -0.579086
-29.9079 50.2901 -37.8901 -0.260396 -0.719315 -0.644034
-30.9103 49.9959 -37.0819 -0.220697 -0.770609 -0.597876
-31.84 49.6179 -36.3517 -0.183401 -0.758007 -0.625931
-32.7846 49.225 -35.6139 -0.112036 -0.798087 -0.592034
-34.1876 48.6272 -34.5335 -0.0644181 -0.799218 -0.597579
-34.5803 48.4076 -34.2338 -0.0262271 -0.815143 -0.578666
-35.4997 48.6264 -34.5002 -0.0262271 -0.815143 -0.578666
-34.3403 49.2749 -35.3853 -0.0147526 -0.797203 -0.603531
-33.2782 49.7325 -36.2033 -0.110153 -0.796938 -0.593932
-31.8931 50.3374 -37.2719 -0.119865 -0.763721 -0.634321
-30.8802 50.7637 -38.026 -0.252195 -0.724082 -0.641953
-29.7126 51.1507 -38.9303 -0.310288 -0.726904 -0.612643
-28.8041 51.3246 -39.7122 -0.358687 -0.731084 -0.580396
-27.8211 51.5141 -40.5584 -0.392914 -0.729358 -0.56005
-26.2505 51.6266 -42.0849 -0.446903 -0.746886 -0.492381
-25.1514 51.6096 -43.2236 -0.513594 -0.746506 -0.423024
-24.3587 51.5108 -44.122 -0.53045 -0.75514 -0.385208
-23.4801 51.3689 -45.1317 -0.583653 -0.761707 -0.281339
-22.2005 50.9621 -46.6849 -0.550446 -0.78091 -0.295276
-21.3247 50.6859 -47.7613 -0.538718 -0.823391 -0.178354
-20.5719 50.3996 -48.7133 -0.533064 -0.825835 -0.183952
-19.5842 50.0472 -49.9218 -0.527375 -0.828222 -0.189538
-18.7626 49.7272 -50.9487 -0.526444 -0.841143 -0.123834
-17.9947 49.3903 -51.9045 -0.47847 -0.870249 -0.11719
-16.9568 48.9968 -53.1606 -0.473233 -0.87511 -0.101159
-17.8476 49.4945 -53.3591 -0.479703 -0.873511 -0.0828408
-18.7447 49.8999 -52.2413 -0.528537 -0.840436 -0.119649
-19.5989 50.2815 -51.1686 -0.524337 -0.841833 -0.128015
-20.3141 50.5876 -50.2522 -0.526118 -0.835443 -0.158856
-21.5569 51.0434 -48.7102 -0.538719 -0.823391 -0.178353
-22.651 51.5181 -47.3155 -0.591776 -0.774947 -0.221941
-23.5115 51.8051 -46.2477 -0.583654 -0.761707 -0.281339
-24.342 52.0692 -45.2397 -0.558005 -0.759723 -0.333844
-25.7217 52.2412 -43.676 -0.530708 -0.755028 -0.385073
-27.0031 52.2499 -42.3471 -0.446903 -0.746886 -0.492381
-28.0937 52.1872 -41.2622 -0.497976 -0.705248 -0.504623
-29.0856 52.0119 -40.398 -0.373564 -0.714779 -0.59122
-30.0272 51.834 -39.588 -0.313775 -0.733647 -0.602749
-31.5665 51.3305 -38.4098 -0.243968 -0.72878 -0.639811
-32.9878 50.623 -37.3707 -0.129237 -0.728345 -0.672913
-34.1729 50.0648 -36.4832 -0.112037 -0.798088 -0.592033
-35.2407 49.5043 -35.6662 -0.014753 -0.797204 -0.60353
-35.8035 49.1895 -35.2366 -0.0147536 -0.797203 -0.60353
-36.2626 49.6491 -35.8593 0.0300711 -0.831533 -0.554662
-35.164 50.2507 -36.7016 0.029695 -0.812422 -0.582313
-33.2677 51.3154 -38.0673 -0.123991 -0.731679 -0.670278
-31.7848 52.0528 -39.1493 -0.186935 -0.729865 -0.657535
-30.3768 52.4918 -40.2495 -0.25271 -0.749539 -0.611825
-29.3047 52.7419 -41.1421 -0.361577 -0.690128 -0.626885
-28.0921 52.9231 -42.2084 -0.54681 -0.660442 -0.514601
-26.9943 52.9168 -43.3668 -0.497975 -0.705248 -0.504625
-25.9243 52.8268 -44.545 -0.530708 -0.755028 -0.385073
-25.04 52.7163 -45.5469 -0.53058 -0.755084 -0.38514
-24.1647 52.4216 -46.6393 -0.576251 -0.777892 -0.250636
-23.2945 52.1272 -47.7263 -0.591776 -0.774947 -0.221941
-22.3934 51.7072 -48.8803 -0.606667 -0.77117 -0.193008
-21.5017 51.2915 -50.0224 -0.573235 -0.798035 -0.185856
-20.7727 50.9803 -50.9561 -0.524337 -0.841833 -0.128015
-19.9718 50.6341 -51.9775 -0.519986 -0.848717 -0.0964109
-19.2678 50.289 -52.8557 -0.511083 -0.856417 -0.0731075
-18.8177 50.0683 -53.4172 -0.511084 -0.856416 -0.0731078
-19.5282 50.5246 -53.7963 -0.511083 -0.856417 -0.0731074
-20.6364 51.0887 -52.4211 -0.536591 -0.840505 -0.0749789
-21.5946 51.5515 -51.1773 -0.563263 -0.814753 -0.137521
-23.0076 52.3026 -49.3287 -0.599389 -0.784646 -0.158315
-23.9381 52.7363 -48.137 -0.591778 -0.774946 -0.221941
-24.7708 53.018 -47.0968 -0.576252 -0.777892 -0.250635
-25.8647 53.4697 -45.6649 -0.607662 -0.718212 -0.338997
-26.7078 53.5691 -44.7127 -0.573312 -0.694256 -0.435111
-27.9735 53.6584 -43.2781 -0.548477 -0.683568 -0.481567
-28.9357 53.6639 -42.2627 -0.45127 -0.667346 -0.592457
-30.0955 53.3819 -41.3835 -0.290049 -0.678432 -0.674983
-31.4944 52.9407 -40.2918 -0.285515 -0.718162 -0.634605
-32.5149 52.529 -39.5312 -0.122567 -0.729181 -0.673255
-33.9672 51.8106 -38.4784 -0.123991 -0.731679 -0.670278
-34.9929 51.12 -37.7717 0.079072 -0.764858 -0.639328
-36.4411 50.2112 -36.7116 0.029695 -0.812422 -0.582313
-36.6572 50.0928 -36.5459 0.0300699 -0.831532 -0.554663
-37.3304 50.3998 -36.9997 0.02929 -0.792395 -0.609305
-36.2975 51.0074 -37.7402 0.0403374 -0.78257 -0.621255
-35.3106 51.6826 -38.4841 0.079072 -0.764858 -0.639328
-33.9611 52.6549 -39.4011 -0.00870167 -0.749255 -0.662224
-32.9743 53.1411 -40.1067 -0.12115 -0.726668 -0.676222
-31.5134 53.7423 -41.1904 -0.275634 -0.697509 -0.661443
-30.579 54.0843 -41.8875 -0.26541 -0.675989 -0.687457
-29.34 54.3974 -42.786 -0.331718 -0.672337 -0.66176
-28.218 54.3387 -44.0502 -0.54925 -0.705583 -0.447747
-27.1095 54.2738 -45.3078 -0.561342 -0.699996 -0.441476
-25.921 53.8954 -46.8222 -0.635331 -0.734273 -0.239159
-24.6313 53.3621 -48.4857 -0.601366 -0.758852 -0.250006
-23.6284 52.8332 -49.7815 -0.591247 -0.796995 -0.123393
-22.672 52.3154 -51.0202 -0.588671 -0.798216 -0.127743
-21.6404 51.737 -52.4083 -0.562184 -0.824164 -0.0685798
-20.6543 51.2191 -53.669 -0.531352 -0.843319 -0.0804864
-20.0985 50.9347 -54.3581 -0.531353 -0.843318 -0.0804868
-21.5898 51.819 -53.779 -0.513486 -0.856882 -0.0456718
-22.4376 52.3281 -52.6325 -0.555144 -0.830818 -0.0394626
-23.2502 52.8187 -51.5299 -0.574809 -0.817739 -0.0299496
-24.152 53.33 -50.3668 -0.613358 -0.777727 -0.137597
-25.0475 53.8322 -49.2132 -0.62293 -0.771884 -0.127095
-25.7083 54.2137 -48.3061 -0.625883 -0.739057 -0.249129
-26.6705 54.6157 -47.0429 -0.635331 -0.734274 -0.239159
-27.4006 54.9696 -46.0131 -0.677694 -0.664051 -0.315858
-28.191 55.0809 -45.0701 -0.625868 -0.604327 -0.49303
-29.1709 55.1692 -43.9344 -0.625868 -0.604327 -0.49303
-30.1588 55.0537 -43.0313 -0.305827 -0.641353 -0.703659
-31.2279 54.7261 -42.268 -0.280045 -0.663775 -0.693526
-32.2462 54.3696 -41.5072 -0.167945 -0.667679 -0.725258
-33.1804 53.8456 -40.8728 -0.0683881 -0.763459 -0.642225
-34.473 53.0776 -39.9816 0.113574 -0.742359 -0.660306
-35.6283 52.2452 -39.1965 0.0790734 -0.764858 -0.639327
-36.4881 51.657 -38.5484 0.0513688 -0.772463 -0.632979
-37.7576 50.8603 -37.6191 0.02929 -0.792395 -0.609305
-38.0414 50.6933 -37.4156 0.02929 -0.792395 -0.609305
-38.408 51.1576 -38.1023 0.127567 -0.825296 -0.550103
-37.4396 51.7859 -38.783 0.112327 -0.788212 -0.605066
-35.9459 52.8079 -39.9089 0.0790734 -0.764858 -0.639327
-34.627 53.8037 -40.7917 0.120389 -0.727769 -0.675173
-33.7334 54.3441 -41.4065 -0.0535551 -0.719756 -0.692158
-32.5308 55.1247 -42.1798 -0.0384737 -0.672725 -0.738892
-31.6128 55.5159 -42.8415 -0.294567 -0.651296 -0.699316
-30.5741 55.8244 -43.5533 -0.387943 -0.674376 -0.628265
-29.1206 55.9472 -44.952 -0.54791 -0.654371 -0.521146
-28.1363 55.7457 -46.1683 -0.628304 -0.673493 -0.389411
-27.2992 55.3536 -47.3582 -0.721705 -0.649338 -0.239797
-26.6174 54.9959 -48.3427 -0.630567 -0.754188 -0.183266
