-7.59092 10.2246 70.5704 -0.403202 0.886902 0.225461
-6.41079 10.5964 71.2486 -0.406452 0.886588 0.220811
-5.28206 11.0788 71.3893 -0.40386 0.887764 0.220826
-4.18108 11.6816 70.9632 -0.401268 0.888939 0.220842
-3.06488 12.3786 70.2199 -0.398737 0.887724 0.229949
-2.0434 12.8979 69.943 -0.390624 0.891219 0.230526
-1.06098 13.3818 69.7368 -0.392323 0.891159 0.227832
-0.022595 13.9434 69.3017 -0.380561 0.892226 0.243116
1.03559 14.4386 69.1409 -0.380561 0.892227 0.243116
2.48338 15.0589 69.0152 -0.364638 0.900868 0.235533
3.93044 15.6958 68.7744 -0.352907 0.903754 0.24225
4.90471 16.1973 68.2294 -0.338934 0.911642 0.232448
5.75748 16.7336 67.4483 -0.329112 0.910486 0.250138
6.56738 17.186 66.8163 -0.319892 0.915179 0.245187
7.39762 17.6393 66.2091 -0.30789 0.921674 0.235361
8.24942 18.0929 65.5026 -0.290724 0.924252 0.247463
9.17576 18.5384 64.9271 -0.284417 0.927969 0.240582
9.8436 19.1947 63.1053 -0.277115 0.93133 0.236271
9.38769 19.3454 61.9844 -0.272419 0.932847 0.235763
9.00373 19.5066 60.9031 -0.272266 0.931452 0.24132
9.19132 19.9576 59.4097 -0.272142 0.930094 0.246705
9.36281 20.3064 58.284 -0.266629 0.930862 0.24973
9.86764 20.8262 56.756 -0.215516 0.945647 0.243524
10.2451 21.2314 55.5165 -0.212919 0.949328 0.230781
10.9095 21.599 54.5505 -0.196269 0.956797 0.213986
11.5306 21.961 53.4335 -0.182188 0.960618 0.209809
12.1425 22.3636 52.1709 -0.183338 0.958697 0.217455
13.1258 22.7915 50.8515 -0.136872 0.970389 0.198971
13.8845 23.1468 49.6695 -0.13677 0.969451 0.203613
14.7476 23.4399 48.6377 -0.10017 0.978858 0.178332
15.6675 23.7635 47.378 -0.0959661 0.977749 0.186317
15.8499 24.0627 45.8191 -0.0550297 0.983229 0.173876
14.8785 24.2974 44.1845 -0.0530335 0.984756 0.165424
13.8067 24.4038 43.1995 -0.0688886 0.981626 0.177945
12.7151 24.4691 42.4167 -0.0689047 0.98163 0.177916
11.6311 24.5128 41.6828 -0.109132 0.97458 0.195663
10.0133 24.535 40.7436 -0.0930443 0.97511 0.20125
9.0932 24.5908 40.0409 -0.0934548 0.975365 0.199823
7.74977 24.6777 38.8723 -0.122262 0.971363 0.20373
6.58338 24.7815 37.6608 -0.110173 0.974532 0.195319
5.9433 24.8873 36.776 -0.112164 0.969356 0.218559
5.12113 25.0562 35.67 -0.120922 0.96458 0.233561
4.13894 25.2316 34.3913 -0.134451 0.959892 0.245876
3.72945 25.443 33.3736 -0.12791 0.959948 0.249275
3.41702 25.732 32.1002 -0.12494 0.959677 0.251784
3.11122 25.9962 30.8702 -0.118317 0.966589 0.227393
2.96903 26.2996 29.5065 -0.101354 0.969561 0.222161
3.0925 26.6037 28.2542 -0.0918234 0.969665 0.226535
3.08019 26.9182 26.9031 -0.0792629 0.973907 0.211723
2.78964 27.2668 25.3689 -0.0450118 0.970007 0.238874
2.61595 27.5895 24.0256 -0.0450498 0.969955 0.239078
2.61199 27.8724 22.8361 -0.0294495 0.970118 0.240839
2.31256 28.1228 21.791 -0.0294501 0.970118 0.240838
1.96956 28.3966 20.662 -0.0299299 0.969153 0.244638
1.33155 28.6748 19.5095 -0.0254619 0.968327 0.248386
0.613796 29.0234 18.0719 -0.0148032 0.967646 0.251875
0.168072 29.3232 16.895 -0.0145746 0.96799 0.250561
0.0415974 29.6311 15.6909 -0.0145597 0.968354 0.249155
-0.158834 29.914 14.5795 -0.00912564 0.96759 0.252281
-0.377119 30.2893 13.1468 0.0157154 0.968119 0.249997
-0.552806 30.6363 11.8137 0.0154257 0.967135 0.253765
-0.45058 31.0193 10.3708 0.0151404 0.966168 0.257469
-0.429887 31.3666 9.10576 0.0289425 0.96303 0.267836
-0.543195 31.6675 8.03496 0.0289833 0.963118 0.267513
-0.80437 32.0272 6.74532 0.0530645 0.96541 0.255278
-1.13845 32.4185 5.40634 0.0593208 0.961249 0.269224
-1.50857 32.7874 4.17078 0.0590103 0.960523 0.271857
-1.86352 33.2165 2.73138 0.0561599 0.961041 0.270641
-2.37104 33.7703 0.894547 0.0604624 0.959507 0.275119
-2.50558 34.2343 -0.717517 0.0782018 0.957998 0.275907
-2.69495 34.6189 -1.99921 0.0846524 0.959358 0.269027
-2.75269 34.9268 -3.06113 0.0908874 0.95727 0.274543
-2.8434 35.2845 -4.27885 0.0909392 0.957385 0.274124
-2.86109 35.5976 -5.35449 0.100185 0.957395 0.270686
-2.80675 35.9059 -6.50329 0.106843 0.957075 0.269314
-2.7255 36.2654 -7.77779 0.115043 0.955549 0.271367
-2.54792 36.5417 -8.84988 0.120364 0.955997 0.267546
-2.23468 36.8722 -10.1659 0.120442 0.955681 0.268639
-1.99841 37.1903 -11.4036 0.128343 0.955482 0.265537
-1.68069 37.5127 -12.7565 0.152993 0.952498 0.263326
-1.38317 37.825 -14.059 0.152904 0.952458 0.263522
-0.955995 38.0265 -15.1075 0.158912 0.955695 0.247779
-0.56599 38.3322 -16.5191 0.171044 0.953229 0.249166
-0.374472 38.6347 -17.8198 0.174281 0.953131 0.247321
-0.11682 38.9172 -19.1009 0.174534 0.953789 0.244589
0.252444 39.1076 -20.1365 0.190357 0.952962 0.235828
0.46503 39.3554 -21.2931 0.194539 0.952689 0.233445
0.705269 39.5578 -22.3474 0.20238 0.950787 0.234621
0.977193 39.7605 -23.4034 0.205544 0.951511 0.228767
1.21037 39.9693 -24.5136 0.209076 0.951784 0.224483
1.50235 40.2539 -25.9873 0.217232 0.951328 0.218478
1.89428 40.4271 -27.1538 0.231645 0.946915 0.22292
2.37933 40.7804 -29.1741 0.237237 0.947549 0.214019
2.7429 40.958 -30.4059 0.242751 0.9478 0.206746
3.25008 41.1009 -31.6657 0.242551 0.948202 0.205137
3.81981 41.2201 -32.9852 0.25415 0.947689 0.193115
4.12963 41.3635 -34.1049 0.25919 0.948192 0.183718
4.59383 41.5783 -35.8682 0.263314 0.946376 0.187099
4.8502 41.7748 -37.3067 0.274495 0.945322 0.17612
5.1671 41.9314 -38.641 0.273747 0.946497 0.170811
5.55264 42.0477 -39.9554 0.27693 0.947141 0.161971
5.85058 42.153 -41.0807 0.277434 0.94813 0.155015
6.38807 42.1752 -42.232 0.277941 0.949119 0.148062
6.8756 42.1937 -43.2284 0.263908 0.953609 0.144689
7.6712 42.1433 -44.4529 0.264551 0.955477 0.130678
8.31383 42.0922 -45.3764 0.264196 0.955494 0.131267
9.12159 41.9881 -46.2444 0.260174 0.956643 0.130866
10.3293 41.7738 -47.1356 0.257407 0.959492 0.114527
11.4614 41.5605 -47.8933 0.256809 0.95959 0.115048
12.5633 41.3082 -48.2406 0.251059 0.961333 0.113015
13.7052 41.0551 -48.5764 0.244048 0.963287 0.11186
14.9929 40.7555 -48.7816 0.236791 0.96523 0.110552
16.2758 40.4855 -49.1134 0.230099 0.967062 0.108824
17.6338 40.2012 -49.439 0.228802 0.96726 0.109805
18.7476 39.9599 -49.5571 0.218083 0.970114 0.106386
20.4806 39.5862 -49.6899 0.213612 0.971177 0.105683
21.7915 39.3582 -50.2088 0.210198 0.972125 0.103875
21.8839 39.4797 -51.5047 0.203313 0.973678 0.10293
20.8789 39.7505 -52.0494 0.214472 0.972109 0.0948907
19.0827 40.1178 -51.7676 0.213851 0.972167 0.0957043
17.8385 40.3623 -51.3723 0.225149 0.969216 0.0996392
16.146 40.7306 -51.1056 0.226563 0.969051 0.0980257
14.9556 40.9913 -50.8112 0.239306 0.965647 0.101288
13.5475 41.3271 -50.649 0.247643 0.962989 0.106416
12.4559 41.5904 -50.4914 0.251415 0.962275 0.103904
11.3543 41.8793 -50.4589 0.258624 0.960383 0.103724
9.90312 42.2718 -50.4229 0.26206 0.959206 0.106057
8.51493 42.638 -50.1964 0.270232 0.957501 0.100825
7.32729 42.9394 -49.7904 0.281402 0.953417 0.10867
5.61847 43.4226 -49.4021 0.294085 0.950384 0.101414
4.2722 43.7809 -48.9002 0.295708 0.946859 0.126477
3.02496 44.1547 -48.6321 0.312558 0.940688 0.131962
1.8073 44.5357 -48.476 0.320753 0.939302 0.121233
0.588561 44.9657 -48.5006 0.324915 0.935301 0.140151
-0.483776 45.3435 -48.507 0.343783 0.928241 0.141509
-1.52366 45.728 -48.4187 0.349105 0.927442 0.134077
-2.7182 46.168 -48.352 0.371013 0.918518 0.134582
-2.9055 46.2555 -48.3966 0.393035 0.909544 0.135105
-2.88865 46.4238 -49.5785 0.393034 0.909544 0.135106
-1.25562 45.7817 -49.4881 0.349104 0.927442 0.134078
-0.0947219 45.3389 -49.488 0.34351 0.931333 0.119876
1.87116 44.6523 -49.5484 0.320753 0.939302 0.121233
3.1662 44.2408 -49.6821 0.315526 0.942894 0.106748
4.14901 43.9441 -49.9401 0.305366 0.945778 0.110701
5.18372 43.6609 -50.3748 0.299682 0.9481 0.106006
6.51664 43.2948 -50.8086 0.287759 0.951896 0.105039
7.84201 42.9387 -51.1169 0.281364 0.953427 0.108679
9.06156 42.6021 -51.3206 0.275799 0.955464 0.104751
10.3262 42.2732 -51.4952 0.262776 0.960439 0.092224
11.6808 41.9015 -51.4845 0.26275 0.960442 0.0922692
13.4223 41.4643 -51.6455 0.248287 0.96431 0.0919765
14.6577 41.1566 -51.6922 0.236599 0.96678 0.0967362
15.9475 40.8751 -52.0469 0.239295 0.965648 0.1013
17.0276 40.6354 -52.1961 0.225176 0.969212 0.0996198
18.3277 40.3661 -52.5145 0.22521 0.969203 0.0996296
19.7092 40.0976 -52.9617 0.214469 0.97211 0.09489
20.864 39.873 -53.2812 0.215091 0.972052 0.0940762
22.2019 39.5399 -52.7946 0.200643 0.975196 0.0934608
22.9454 39.2827 -51.7573 0.204228 0.973959 0.0984586
23.0612 39.0897 -50.1882 0.202397 0.973396 0.107406
22.5036 39.0902 -49.1423 0.206298 0.97276 0.105639
21.3867 39.2926 -48.786 0.20932 0.970991 0.115591
20.1473 39.5478 -48.6854 0.20939 0.97098 0.115563
18.7808 39.8299 -48.4395 0.218082 0.970115 0.106385
17.5566 40.0772 -48.1855 0.223442 0.968688 0.108093
15.9949 40.4086 -47.8211 0.231396 0.966864 0.107843
14.4827 40.7637 -47.7595 0.236791 0.96523 0.110552
13.386 41.0032 -47.4133 0.246997 0.961723 0.118387
12.1653 41.2736 -47.0722 0.248641 0.960411 0.125646
11.2326 41.4476 -46.4819 0.259756 0.95747 0.125607
10.2595 41.6313 -45.87 0.259762 0.957471 0.125589
9.34452 41.7541 -44.964 0.256153 0.957791 0.130466
8.50745 41.8355 -43.9085 0.267085 0.95367 0.138486
7.76775 41.8764 -42.7646 0.263908 0.953609 0.144689
6.96335 41.8492 -41.2015 0.260678 0.953587 0.15073
6.5405 41.7175 -39.6877 0.258851 0.953249 0.155924
6.17875 41.6302 -38.5683 0.257179 0.951939 0.166349
5.70546 41.4062 -36.574 0.255447 0.952187 0.167588
5.37789 41.2791 -35.3987 0.250435 0.950309 0.184919
5.13625 41.0975 -34.1381 0.250414 0.950314 0.184923
4.61849 40.8455 -32.1983 0.25415 0.947689 0.193115
4.13786 40.7381 -31.0388 0.24835 0.947945 0.199128
3.66081 40.5678 -29.7016 0.24295 0.947399 0.208354
3.23901 40.3668 -28.2961 0.237237 0.947549 0.214019
2.84142 40.1625 -26.9696 0.220478 0.952069 0.212023
2.51514 39.98 -25.8105 0.220473 0.952076 0.211998
2.18015 39.8129 -24.7686 0.213667 0.951018 0.223405
1.93947 39.5301 -23.3259 0.213465 0.951366 0.222116
1.70707 39.3237 -22.2373 0.197124 0.953559 0.227743
1.36883 39.0659 -20.8648 0.19454 0.952689 0.233445
1.09062 38.7736 -19.4478 0.189136 0.954029 0.232501
0.863722 38.5024 -18.1829 0.174526 0.953756 0.244724
0.618254 38.2709 -17.1168 0.165068 0.95664 0.239983
0.253971 38.0488 -15.9805 0.164499 0.955953 0.243073
0.0503801 37.8099 -14.9178 0.164016 0.955247 0.246175
-0.262727 37.5536 -13.7279 0.155865 0.954057 0.255746
-0.640046 37.3154 -12.6474 0.152356 0.952799 0.262604
-0.965437 37.0874 -11.5884 0.140863 0.958193 0.249046
-1.16825 36.7197 -10.1214 0.136243 0.955282 0.262437
-1.45771 36.4346 -8.95752 0.120367 0.955997 0.267546
-1.70754 36.0041 -7.29971 0.118797 0.956633 0.265967
-1.78581 35.72 -6.22789 0.104067 0.959332 0.262397
-1.90506 35.4204 -5.08805 0.103977 0.957545 0.268881
-1.81897 35.1079 -4.00859 0.102652 0.958049 0.267583
-1.73179 34.7534 -2.80701 0.0951407 0.956264 0.276601
-1.52366 34.4339 -1.72848 0.0911046 0.960719 0.262141
-1.38942 34.0188 -0.285531 0.077118 0.959566 0.270656
-1.27814 33.6257 1.10783 0.0740195 0.96154 0.264503
-0.927057 33.2483 2.39888 0.0746719 0.963426 0.25736
-0.548931 32.8738 3.66324 0.0586998 0.959797 0.27449
-0.128917 32.4832 4.95283 0.056164 0.96192 0.267473
0.0798562 32.142 6.14712 0.0530557 0.96257 0.265791
0.445844 31.8199 7.26961 0.0530651 0.96541 0.255281
0.594655 31.5316 8.32878 0.0530705 0.965413 0.255269
0.65427 31.2177 9.541 0.0425737 0.96937 0.241889
0.718824 30.7935 11.1492 0.0150997 0.966215 0.257294
0.687039 30.2767 13.1284 0.0156778 0.968125 0.249975
0.726957 29.9402 14.4569 0.00713655 0.969881 0.243474
1.1286 29.5969 15.8388 0.00789204 0.97115 0.23834
1.2281 29.3313 16.9209 0.0011572 0.972397 0.233331
1.9043 28.9871 18.2856 -0.00227337 0.969362 0.245627
2.67742 28.6727 19.6398 -0.0080486 0.972892 0.231116
3.18702 28.4154 20.7323 -0.00753248 0.972501 0.232778
3.39894 28.1544 21.7964 -0.0296901 0.969635 0.242738
3.80549 27.8857 22.9933 -0.0436443 0.972608 0.228315
3.85851 27.6176 24.1458 -0.0443195 0.971322 0.233537
3.89767 27.3535 25.2254 -0.0548068 0.971122 0.231889
3.93556 27.0868 26.3885 -0.0644091 0.972212 0.225069
4.17508 26.8532 27.5969 -0.0667006 0.97815 0.196909
4.20412 26.613 28.6649 -0.0900041 0.969225 0.22911
4.08845 26.344 29.7458 -0.0881941 0.968807 0.231592
4.22232 26.0979 30.8985 -0.0843925 0.972533 0.21693
4.58282 25.8974 31.9452 -0.0911854 0.9671 0.237493
4.73583 25.6504 33.0098 -0.0911852 0.9671 0.237493
5.25692 25.4276 34.1522 -0.101871 0.968298 0.228084
6.27318 25.211 35.527 -0.101998 0.968372 0.227712
7.04525 25.0873 36.4558 -0.112166 0.969232 0.219107
7.77709 24.9503 37.4917 -0.113232 0.974703 0.192655
8.59199 24.8764 38.3496 -0.0931103 0.978127 0.186008
10.1706 24.7708 39.6483 -0.0889419 0.977497 0.191283
11.0829 24.7105 40.3623 -0.0570826 0.98086 0.18616
12.4304 24.6852 41.0747 -0.0733482 0.982139 0.173271
13.4231 24.6558 41.6607 -0.0710216 0.981885 0.175637
14.3945 24.6078 42.3017 -0.0526735 0.98285 0.175963
15.408 24.4601 43.3494 -0.036436 0.984074 0.173987
16.3227 24.3708 44.1924 -0.0510306 0.986296 0.156894
17.079 24.1723 45.588 -0.0550455 0.98323 0.173866
16.8632 23.9027 47.1166 -0.0706403 0.984596 0.159939
16.3951 23.7056 48.1299 -0.0701667 0.98485 0.158575
15.751 23.4663 49.0754 -0.108567 0.97845 0.175639
15.0373 23.201 50.0599 -0.112328 0.976478 0.184045
14.2794 22.9527 50.8591 -0.136871 0.970389 0.19897
13.6429 22.6022 52.1624 -0.136972 0.971327 0.194328
13.0518 22.3421 53.0326 -0.183204 0.958737 0.217391
12.1909 21.8438 54.543 -0.182217 0.960586 0.209934
11.2725 21.4278 55.6494 -0.196269 0.956797 0.213986
10.8886 21.0157 56.9562 -0.230403 0.945245 0.23114
10.36 20.6372 57.9772 -0.230403 0.945245 0.23114
10.1868 20.3507 59.0114 -0.229802 0.947373 0.22288
10.0761 19.8596 60.7552 -0.272114 0.930045 0.246922
10.3515 19.6547 61.8746 -0.272504 0.932831 0.235728
10.8297 19.4919 63.0219 -0.259284 0.934189 0.245077
11.4332 19.252 64.6295 -0.25219 0.938123 0.237264
10.727 18.8863 65.3247 -0.252192 0.938124 0.237261
9.62075 18.4155 65.909 -0.292144 0.926439 0.23717
8.65957 17.9699 66.4892 -0.293585 0.928598 0.226968
7.75676 17.507 67.1802 -0.32223 0.914724 0.24382
6.53322 16.8139 68.1635 -0.322268 0.914774 0.243581
5.68297 16.2733 69.0661 -0.338934 0.911642 0.232448
4.93469 15.8008 69.828 -0.338963 0.911624 0.232476
3.94734 15.3585 70.0565 -0.353159 0.90361 0.242421
2.50026 14.7571 70.19 -0.353078 0.90363 0.242465
0.548101 13.9257 70.2601 -0.380575 0.892203 0.24318
-0.71107 13.3128 70.6058 -0.374988 0.899634 0.223703
-2.03618 12.6406 70.9642 -0.394023 0.8911 0.225138
-3.00425 12.137 71.2726 -0.389505 0.895087 0.217037
-4.37802 11.2605 72.3104 -0.403625 0.888888 0.216715
-5.52283 10.6849 72.5439 -0.407393 0.889091 0.208681
-6.92004 10.1491 72.1374 -0.403325 0.889426 0.215059
-8.01316 9.86135 71.2869 -0.399904 0.890964 0.215081
-9.64498 9.33414 70.4503 -0.398732 0.891008 0.217065
-10.712 8.95114 69.967 -0.417689 0.882339 0.216825
-11.7332 8.58245 69.5652 -0.407533 0.883056 0.232652
-12.8624 8.1453 69.241 -0.408578 0.882507 0.232907
-14.191 7.62909 68.9287 -0.39181 0.88907 0.236611
-15.2479 7.21879 68.7493 -0.386082 0.892445 0.233415
-16.4684 6.82941 68.2583 -0.379 0.894322 0.237796
-17.5411 6.53363 67.6879 -0.367073 0.898917 0.239131
-18.9235 6.20861 66.8171 -0.374919 0.894541 0.243107
-19.643 6.15585 65.893 -0.362517 0.893517 0.264969
-21.0874 6.03244 64.4406 -0.362387 0.883638 0.29641
-21.7833 6.06111 63.5361 -0.342497 0.888649 0.304957
-22.7868 5.85462 63.0109 -0.342511 0.888652 0.304931
-23.9211 5.6675 62.3173 -0.344554 0.879675 0.327746
-24.9879 5.40312 61.9139 -0.302004 0.913281 0.272623
-25.9981 5.15994 61.575 -0.318097 0.903869 0.286069
-27.8649 4.61979 61.3907 -0.291303 0.898095 0.329497
-28.9262 4.42429 61.0838 -0.249632 0.899913 0.357547
-29.8796 4.40907 60.4576 -0.245092 0.900883 0.358247
-29.9119 4.85689 59.3095 -0.24427 0.900522 0.359707
-29.1948 5.69089 57.7345 -0.256762 0.896973 0.35988
-28.6135 6.23203 56.8625 -0.26059 0.883906 0.388335
-27.9528 6.81504 55.9789 -0.258443 0.886963 0.3827
-27.4665 7.34565 55.0572 -0.256602 0.889886 0.377172
-26.5139 8.29714 53.6059 -0.287399 0.870526 0.399049
-25.8161 8.86092 52.893 -0.27725 0.866921 0.414223
-25.0044 9.53166 51.9944 -0.289294 0.871233 0.396564
-24.3072 10.1241 51.2015 -0.289301 0.871224 0.396577
-23.6606 10.7277 50.3347 -0.286902 0.873643 0.392982
-22.7333 11.4319 49.4522 -0.290834 0.872677 0.392237
-21.8245 12.0207 48.8139 -0.290481 0.873052 0.391664
-20.6631 12.6465 48.3152 -0.315165 0.86428 0.392035
-19.5563 13.2222 47.9377 -0.315494 0.863892 0.392625
-17.7243 14.0003 47.7054 -0.317592 0.863132 0.392605
-16.6846 14.3411 47.7975 -0.318724 0.862743 0.39254
-15.0261 15.1274 47.4209 -0.319798 0.862429 0.392359
-13.5072 15.9948 46.786 -0.335572 0.857815 0.389288
-12.7044 16.569 46.1869 -0.325507 0.867634 0.375842
-11.1278 17.6622 45.0036 -0.317961 0.870471 0.375741
-10.1579 18.264 44.4184 -0.316208 0.874246 0.368383
-9.59869 18.7919 43.6183 -0.29959 0.882804 0.361806
-8.74819 19.452 42.714 -0.292515 0.885285 0.361434
-7.849 20.0656 41.9088 -0.285285 0.888779 0.358725
-7.21441 20.6774 40.8628 -0.265764 0.902691 0.338406
-6.38006 21.4125 39.5438 -0.25962 0.904175 0.339212
-5.59101 22.0143 38.4453 -0.243942 0.916335 0.317527
-4.91577 22.4914 37.6052 -0.23156 0.910605 0.342312
-4.32015 22.9853 36.6046 -0.20734 0.924505 0.319844
-3.44284 23.5026 35.6779 -0.207339 0.924505 0.319844
-2.70115 23.9348 34.8888 -0.203759 0.929484 0.307476
-1.65143 24.6857 33.1718 -0.166237 0.943559 0.285887
-1.2077 25.0409 32.1853 -0.160859 0.94946 0.269537
-1.2701 25.3495 31.0823 -0.133419 0.950468 0.280281
-1.32562 25.6953 29.8242 -0.124454 0.955322 0.268086
-1.49529 26.0356 28.5818 -0.116727 0.948961 0.292999
-1.98478 26.3187 27.4698 -0.105985 0.9547 0.277349
-2.75882 26.6273 26.0888 -0.0988345 0.957511 0.270782
-3.30173 26.8382 25.1271 -0.10777 0.956614 0.270693
-4.07525 27.1176 23.9335 -0.0960299 0.951745 0.291477
-4.83827 27.3114 23.0505 -0.0963414 0.951355 0.292518
-5.59989 27.5456 22.0267 -0.104477 0.949771 0.294992
-6.70129 27.7783 20.9834 -0.0832263 0.948729 0.304907
-7.61902 27.9363 20.2336 -0.0824508 0.950049 0.301014
-8.6053 28.2972 18.9132 -0.068051 0.946075 0.31672
-9.48504 28.5187 18.028 -0.089366 0.943747 0.318364
-10.825 28.7703 16.9696 -0.081646 0.940066 0.331073
-11.6271 28.9924 16.1465 -0.0792469 0.935509 0.3443
-12.417 29.3532 14.9603 -0.074376 0.939223 0.335153
-13.224 29.6008 14.1259 -0.0631847 0.93647 0.345011
-13.6957 29.9526 13.0877 -0.0630963 0.93604 0.346192
-14.2097 30.3506 11.9223 -0.0606342 0.936107 0.346448
-14.6997 30.7857 10.6607 -0.0542896 0.935071 0.350198
-15.0964 31.1294 9.69682 -0.047958 0.934549 0.352587
-15.4135 31.7275 8.04516 -0.023819 0.940229 0.339696
-15.6977 32.1381 6.90035 -0.0101845 0.938693 0.344603
-15.7216 32.5306 5.83066 -0.0102313 0.938715 0.344543
-15.8145 33.0779 4.37483 -0.00942564 0.933996 0.35716
-16.0918 33.5563 3.05924 0.00894244 0.940908 0.338545
-16.5782 34.0088 1.85932 0.0151819 0.936753 0.349661
-16.9846 34.4285 0.746365 0.0233781 0.93782 0.346263
-17.928 34.9848 -0.675293 0.0152321 0.935239 0.353689
-18.6082 35.4271 -1.79515 0.0217767 0.933698 0.357399
-19.4967 35.9109 -3.00519 0.0281875 0.931848 0.361666
-20.1021 36.293 -3.91869 0.0346492 0.929942 0.366069
-21.0479 36.7487 -4.97589 0.0345048 0.928573 0.369543
-21.9697 37.1549 -5.88495 0.0463843 0.924112 0.379216
-23.5868 37.6991 -6.97572 0.0503059 0.922113 0.383631
-24.6754 38.0073 -7.55556 0.0503579 0.917833 0.39376
-25.5541 38.3128 -8.15532 0.0554168 0.915501 0.398415
-26.799 38.7436 -8.95876 0.0439023 0.910145 0.411957
-27.8175 39.1511 -9.71658 0.0559726 0.903281 0.425382
-28.901 39.6195 -10.5685 0.0561157 0.903214 0.425506
-29.487 40.0419 -11.3897 0.0639035 0.894041 0.443403
-30.4496 40.4803 -12.1338 0.0640657 0.893856 0.443753
-31.3884 41.0978 -13.2278 0.0695392 0.889589 0.451349
-32.1729 41.6023 -14.1081 0.0612958 0.888556 0.454655
-32.578 42.1257 -15.0526 0.0680076 0.880813 0.468555
-32.6618 42.6761 -16.075 0.07718 0.881779 0.465201
-32.3253 43.4861 -17.653 0.0855185 0.875658 0.475299
-31.9645 43.9888 -18.6439 0.0872522 0.870591 0.484103
-31.8223 44.5417 -19.6435 0.0901286 0.86613 0.491625
-31.7645 45.1096 -20.6547 0.0901995 0.866052 0.49175
-31.9706 46.0695 -22.2234 0.100338 0.854476 0.509709
-32.1526 46.6783 -23.1407 0.12449 0.826154 0.54952
-32.578 47.3451 -24.0469 0.127702 0.828012 0.545951
-32.9644 48.1394 -25.0766 0.0853054 0.804623 0.587626
-33.1257 48.9043 -26.1005 0.0853283 0.80458 0.587682
-33.7828 49.5862 -26.8037 0.117762 0.760616 0.638432
-34.1981 50.4905 -27.8044 0.117637 0.760565 0.638515
-34.6377 51.6239 -28.9071 0.0664787 0.700013 0.711029
-34.6413 52.4679 -29.7376 0.0740147 0.668805 0.738535
-34.7715 53.704 -30.7526 0.0664545 0.625548 0.777033
-34.8072 54.7469 -31.4857 0.0870064 0.568842 0.817831
-34.7469 55.7114 -32.1629 0.0870162 0.568865 0.817815
-34.833 57.3543 -32.9841 0.0272159 0.432387 0.901277
-35.1858 58.5921 -33.6708 -0.221632 0.465117 0.857057
-35.887 59.6544 -34.4851 -0.228904 0.495993 0.837612
-36.6186 60.3775 -35.3321 -0.366468 0.559337 0.743535
-37.2826 60.8036 -36.0566 -0.483758 0.627526 0.608827
-38.4965 60.7765 -36.9672 -0.461755 0.656987 0.595945
-39.5003 60.7705 -37.7745 -0.48829 0.733819 0.472315
-40.6906 60.5214 -38.6185 -0.470651 0.736827 0.484862
-41.4453 60.6395 -39.4809 -0.453031 0.739687 0.49762
-42.0833 61.1955 -41.2845 -0.461508 0.797152 0.388985
-42.0686 61.712 -42.2996 -0.450076 0.798542 0.399703
-41.9868 62.1482 -43.4186 -0.449894 0.845212 0.288463
-41.9104 62.6333 -44.6796 -0.465049 0.847229 0.253206
-41.617 63.0806 -45.842 -0.467949 0.857946 0.212019
-40.9177 63.7008 -47.0613 -0.412145 0.897583 0.156464
-40.3148 64.0776 -48.0986 -0.411175 0.909087 0.0670555
-39.5404 64.4714 -49.3053 -0.364913 0.930717 0.0245581
-38.7093 64.8197 -50.1894 -0.36501 0.930708 0.0234575
-37.9541 65.0458 -51.0509 -0.306803 0.950779 -0.0434825
-37.0314 65.3123 -51.7332 -0.336902 0.939322 -0.0547991
-35.8857 65.5405 -52.884 -0.257507 0.957855 -0.127294
-34.8372 65.6747 -53.6756 -0.146936 0.968624 -0.200419
-33.9496 65.5878 -54.652 -0.100177 0.962483 -0.252174
-33.0756 65.4204 -55.4551 0.0493967 0.961652 -0.269522
-32.2263 65.1484 -56.255 0.126781 0.949067 -0.279022
-31.5515 64.7445 -57.0479 0.194397 0.920414 -0.33809
-30.4502 63.9527 -58.2817 0.253492 0.892893 -0.372133
-29.6794 63.5301 -58.9414 0.276851 0.913598 -0.295243
-28.8032 62.931 -59.8083 0.34013 0.892925 -0.293145
-27.5384 62.2343 -60.3649 0.364855 0.889242 -0.275916
-26.5165 61.783 -60.4681 0.433454 0.859272 -0.260639
-25.5302 61.2193 -60.3537 0.502026 0.82413 -0.262257
-24.5291 60.6538 -60.213 0.543142 0.816566 -0.195491
-23.2097 59.8526 -59.8783 0.544483 0.816538 -0.191844
-22.2871 59.3321 -59.4757 0.544461 0.816554 -0.191837
-21.3279 58.6626 -59.1648 0.608668 0.774571 -0.171941
-20.2162 57.9045 -58.5532 0.634405 0.762197 -0.127699
-19.1613 57.0897 -58.1403 0.610126 0.78896 -0.0727212
-18.1642 56.3702 -57.58 0.606548 0.791648 -0.0733045
-17.1707 55.6282 -57.0472 0.632022 0.774382 -0.0296727
-16.3269 54.9511 -56.7436 0.632022 0.774382 -0.0296737
-14.9675 53.926 -56.2638 0.589931 0.807386 -0.010417
-13.3156 52.6983 -55.444 0.586001 0.808904 0.0477102
-12.4789 52.0879 -54.8233 0.529366 0.845672 0.0678992
-11.6691 51.5348 -54.2429 0.529036 0.845878 0.0679022
-10.9032 50.9943 -53.6268 0.535891 0.840845 0.0761607
-9.93409 50.3116 -52.9087 0.535865 0.84086 0.076181
-8.96371 49.6541 -52.001 0.473918 0.871471 0.126254
-8.09237 49.0639 -51.1978 0.473892 0.871483 0.126269
-7.05589 48.448 -50.4966 0.433029 0.892496 0.126241
-5.77079 47.7408 -49.9045 0.433014 0.892501 0.126255
-4.72253 47.2283 -49.6594 0.392203 0.910116 0.133653
-3.17977 46.5607 -49.653 0.393035 0.909544 0.135106
-3.0506 46.5051 -49.6544 0.393034 0.909544 0.135106
-8.58149 18.3577 45.5826 -0.323024 0.881253 0.344981
-7.98488 18.869 44.8165 -0.320933 0.883959 0.340028
-7.09123 19.5608 43.8827 -0.307661 0.885038 0.349219
-6.30091 20.1372 43.0732 -0.298007 0.891494 0.341219
-5.59249 20.7478 42.0259 -0.277393 0.904883 0.322862
-4.89308 21.2972 41.0714 -0.266257 0.910593 0.315912
-4.25398 21.7848 40.1721 -0.255769 0.914475 0.313556
-3.62549 22.2784 39.2436 -0.255738 0.914635 0.313113
-2.76187 22.8588 38.1225 -0.228401 0.926841 0.297991
-1.86318 23.4495 36.9841 -0.212639 0.930966 0.296287
-1.19361 23.8629 36.1091 -0.196735 0.93606 0.291696
-0.30112 24.4003 34.9181 -0.192415 0.941284 0.277419
0.509868 24.9161 33.605 -0.145364 0.954958 0.258602
0.958234 25.3018 32.4625 -0.144033 0.953343 0.265314
0.733771 25.5869 31.3135 -0.145343 0.95406 0.26199
2.004 25.9424 30.5229 -0.111038 0.965853 0.233887
2.26296 25.6654 31.798 -0.121969 0.959406 0.254292
2.48628 25.3332 33.1586 -0.124938 0.959677 0.251784
3.32259 24.9903 34.8911 -0.128887 0.958988 0.252448
4.18184 24.8162 36.084 -0.140015 0.960796 0.239305
5.04916 24.6717 37.1666 -0.155534 0.96151 0.225457
6.20468 24.5178 38.6741 -0.129496 0.968951 0.21063
7.0982 24.4534 39.5509 -0.122262 0.971363 0.20373
8.10796 24.4031 40.4374 -0.128365 0.972433 0.19467
9.39518 24.3213 41.4892 -0.0926349 0.974854 0.202679
10.3165 24.2815 42.1018 -0.100883 0.974717 0.19917
11.5604 24.2733 42.836 -0.108439 0.974201 0.197909
13.3898 24.1823 44.1307 -0.0866197 0.975172 0.203803
14.2779 24.081 45.0684 -0.0819561 0.978331 0.189984
14.5928 23.8957 46.1864 -0.0889934 0.978272 0.187252
14.185 23.5687 47.6573 -0.0917621 0.97664 0.194304
13.5215 23.3393 48.5011 -0.101772 0.977837 0.182903
12.6805 22.9866 49.6248 -0.13118 0.96946 0.207219
11.8909 22.6383 50.7547 -0.150935 0.96415 0.217067
11.126 22.24 51.8673 -0.170678 0.959095 0.225846
10.6285 21.9193 52.8535 -0.177008 0.958896 0.22165
9.91045 21.4545 54.2186 -0.210323 0.953008 0.218037
9.27388 21.0728 55.2728 -0.212921 0.949328 0.23078
8.94385 20.7417 56.2666 -0.229098 0.941397 0.247126
8.63996 20.3958 57.2652 -0.242677 0.937146 0.250728
8.40917 19.9792 58.5046 -0.261117 0.931629 0.252755
8.05407 19.2655 60.7685 -0.277376 0.925124 0.258588
8.45666 19.0269 62.1561 -0.276118 0.930975 0.238839
8.76987 18.8492 63.2108 -0.276118 0.930975 0.238839
7.71427 18.1784 64.5547 -0.292598 0.923832 0.246812
6.82147 17.674 65.3786 -0.307375 0.91661 0.255057
5.23247 16.7962 66.5297 -0.329111 0.910486 0.250138
4.32865 16.2483 67.2764 -0.338332 0.905793 0.25509
3.31233 15.7247 67.7761 -0.357153 0.899243 0.252348
1.944 15.1188 67.9509 -0.364638 0.900868 0.235533
0.581609 14.5242 68.1161 -0.372599 0.896547 0.239325
-0.468108 14.0127 68.3451 -0.386449 0.890762 0.239165
-1.41053 13.5009 68.7249 -0.396369 0.885681 0.241785
-3.09929 12.6263 69.2041 -0.398736 0.887724 0.22995
-4.27311 11.946 69.7446 -0.40685 0.884229 0.229373
-5.38531 11.3214 70.225 -0.403861 0.887764 0.220826
-6.51199 10.8342 70.1073 -0.406452 0.886588 0.220811
-7.75694 10.4435 69.4126 -0.403202 0.886902 0.225461
-8.89245 10.0962 68.7481 -0.403238 0.886885 0.225464
-9.99619 9.74375 68.1983 -0.402558 0.884766 0.234746
-11.2196 9.32176 67.6605 -0.407645 0.882411 0.234895
-12.3754 8.8779 67.3281 -0.390314 0.888295 0.241572
-13.4916 8.4586 67.071 -0.395972 0.880799 0.259612
-14.7041 7.99108 66.8077 -0.39157 0.882116 0.261761
-15.735 7.63331 66.4964 -0.378747 0.88865 0.258558
-17.6207 7.16109 65.362 -0.374625 0.885169 0.275388
-18.6417 7.04944 64.3994 -0.366977 0.882488 0.294135
-19.7393 6.99411 63.2224 -0.362477 0.883583 0.296465
-20.8309 6.96404 62.0074 -0.34685 0.882827 0.316329
-22.0702 6.76187 61.2846 -0.332995 0.885827 0.323148
-23.7622 6.41545 60.4769 -0.344556 0.879675 0.327745
-24.9988 6.09491 60.0543 -0.340052 0.880191 0.331101
-26.4185 5.79161 59.5482 -0.286981 0.880228 0.377942
-27.1281 5.90873 58.7325 -0.290156 0.880283 0.375381
-26.5468 6.58031 57.5902 -0.291149 0.883778 0.366273
-25.8935 7.23208 56.5486 -0.294091 0.882261 0.367595
-24.9671 7.99995 55.4815 -0.290599 0.876458 0.383823
-23.9673 8.98369 53.9678 -0.283651 0.878788 0.383763
-23.136 9.70451 52.9805 -0.289885 0.871457 0.395638
-22.4427 10.2879 52.2076 -0.291762 0.871394 0.394392
-21.6925 10.8998 51.4053 -0.290949 0.872218 0.393172
-20.8375 11.4642 50.7858 -0.30012 0.869075 0.393119
-19.7859 12.0745 50.2806 -0.311142 0.86363 0.396654
-18.7154 12.6282 49.9147 -0.315171 0.862156 0.396657
-17.6653 13.1234 49.6803 -0.317333 0.863063 0.392966
-16.5854 13.5894 49.529 -0.326765 0.859674 0.392536
-15.4049 14.1331 49.3538 -0.331101 0.861714 0.384324
-14.3167 14.644 49.1414 -0.34537 0.863118 0.368437
-13.1658 15.2906 48.6898 -0.33584 0.869791 0.36149
-12.1901 15.8687 48.2498 -0.352915 0.863112 0.361231
-11.1057 16.5386 47.6831 -0.33994 0.871299 0.353943
-9.72039 17.5075 46.619 -0.339524 0.872205 0.352111
-9.04624 17.9955 46.0601 -0.33232 0.875376 0.351023
-23.2832 62.2779 -46.3123 0.779419 0.6188 0.0813444
-23.3725 62.4478 -47.3161 0.745112 0.665106 0.00751228
-23.5964 62.6107 -48.5499 0.722289 0.687372 -0.0752317
-23.9644 62.8375 -49.8137 0.715615 0.692697 -0.0896177
-24.4931 63.1808 -50.7167 0.666963 0.730374 -0.147358
-24.9731 63.4622 -51.5049 0.660575 0.720462 -0.203533
-25.733 63.8107 -52.6267 0.620646 0.754757 -0.211371
-26.4903 64.1814 -53.3521 0.549559 0.786627 -0.27345
-27.489 64.5033 -54.12 0.564068 0.759605 -0.312717
-28.4752 64.8349 -54.5 0.395831 0.836442 -0.379055
-29.7744 65.254 -54.5755 0.23997 0.894667 -0.37681
-30.8576 65.6872 -54.1974 0.0181985 0.913661 -0.40607
-31.9106 65.8808 -53.895 0.0374097 0.936409 -0.343771
-32.7918 66.0812 -53.1049 -0.043107 0.966836 -0.251732
-33.3367 66.1964 -52.2771 -0.154043 0.959654 -0.233651
-34.2094 66.3078 -50.9246 -0.333559 0.926739 -0.172897
-34.8831 66.2995 -49.6695 -0.334504 0.924356 -0.183195
-35.2638 66.2867 -48.4518 -0.453833 0.884059 -0.11169
-35.7261 66.2023 -47.2415 -0.453666 0.885068 -0.103827
-35.8705 66.1464 -46.2005 -0.510627 0.859688 -0.0140436
-36.0079 66.0815 -45.1829 -0.51054 0.859718 -0.0152387
-36.1114 65.8759 -44.0088 -0.560046 0.818594 0.127488
-35.9211 65.8656 -43.0537 -0.573722 0.80229 0.164847
-35.7465 65.7331 -41.9283 -0.600412 0.777412 0.187445
-35.7973 65.4251 -40.8606 -0.59803 0.775842 0.201068
-35.6119 64.9997 -39.5097 -0.62456 0.698311 0.349697
-35.2722 64.8634 -38.5866 -0.670779 0.644973 0.361531
-34.7371 64.6333 -37.5461 -0.63888 0.603176 0.477505
-34.3172 64.2397 -36.7331 -0.527591 0.566115 0.633373
-33.7586 63.8311 -36.0581 -0.408535 0.425414 0.804602
-32.9051 63.3727 -35.3398 -0.319212 0.332792 0.870755
-31.5501 62.8874 -34.9674 -0.162193 0.259605 0.951997
-30.425 62.3952 -35.2217 0.390408 0.0805532 0.905914
-29.5953 62.1352 -35.6598 0.477213 0.132308 0.868771
-28.5415 62.0962 -36.3734 0.633398 0.120081 0.764453
-27.8986 62.2421 -37.208 0.773484 0.367098 0.4979
-26.9405 62.4337 -38.4348 0.718866 0.445928 0.525218
-26.2214 62.4708 -39.5001 0.679723 0.545157 0.490694
-25.5892 62.3357 -40.3745 0.751407 0.528235 0.394242
-25.0754 62.1603 -41.1884 0.755907 0.516566 0.401126
-24.5127 62.0783 -42.2122 0.779769 0.501015 0.375425
-24.1782 62.1393 -43.0938 0.787839 0.525357 0.321032
-23.7521 62.0794 -43.9938 0.786415 0.535337 0.306836
-23.4922 62.2097 -44.9914 0.793952 0.541317 0.276798
-23.3221 62.282 -46.101 0.790838 0.595104 0.142353
-23.8825 63.006 -46.3008 0.772033 0.634886 0.0297401
-24.0772 63.0578 -45.1492 0.790837 0.595105 0.142352
-24.3848 63.0729 -44.1234 0.792865 0.541443 0.279651
-24.7904 63.1332 -43.1949 0.795739 0.52148 0.30799
-25.3245 63.2002 -42.0232 0.760221 0.510264 0.400734
-25.948 63.2376 -40.9254 0.731674 0.542852 0.412269
-26.5567 63.3475 -40.0081 0.723003 0.563552 0.399458
-27.0414 63.303 -39.1903 0.723016 0.496624 0.480221
-27.5942 63.3733 -38.3686 0.74803 0.488859 0.448853
-28.2447 63.305 -37.3484 0.857263 0.331199 0.394217
-28.9532 63.065 -36.1845 0.584317 0.132624 0.798294
-29.7264 63.2875 -35.7633 0.497583 0.120875 0.858575
-30.6916 63.5896 -35.213 0.390408 0.0805538 0.905914
-31.7443 64.0609 -35.3297 -0.174298 0.280135 0.944004
-33.0046 64.4846 -35.9351 -0.464127 0.385444 0.797508
-33.6723 64.9114 -36.7312 -0.70608 0.499352 0.502094
-33.9345 65.4289 -37.4772 -0.583236 0.584646 0.555438
-34.6953 65.6318 -38.9151 -0.637573 0.653279 0.408322
-35.0786 65.8147 -40.078 -0.70613 0.628997 0.324924
-34.9977 66.1113 -41.1049 -0.605385 0.77011 0.201096
-35.059 66.3364 -42.1811 -0.61149 0.768825 0.18705
-35.1181 66.5398 -43.5402 -0.585456 0.802093 0.0914545
-35.1474 66.6061 -44.4624 -0.535254 0.839169 0.0555348
-35.0167 66.6593 -45.8485 -0.491573 0.869918 -0.0297411
-34.9909 66.6219 -46.8406 -0.46301 0.883112 -0.0706977
-34.4422 66.7427 -48.1802 -0.401098 0.903005 -0.140476
-34.2486 66.6482 -49.0937 -0.348362 0.921953 -0.169254
-33.3943 66.6759 -50.5243 -0.240107 0.938838 -0.222655
-32.784 66.5005 -51.5006 -0.159665 0.952497 -0.259338
-32.3481 66.355 -52.3209 -0.157187 0.940499 -0.298043
-30.9817 66.0786 -53.2983 0.017539 0.939242 -0.342808
-30.0379 65.8747 -53.7387 0.157268 0.859405 -0.459901
-28.8066 65.3314 -53.8542 0.429602 0.745864 -0.493961
-27.9833 65.0576 -53.4949 0.395813 0.83643 -0.379099
-27.1787 64.7815 -52.8846 0.564068 0.759604 -0.312718
-26.4527 64.5109 -52.2011 0.607054 0.761682 -0.226552
-25.8634 64.214 -51.511 0.630457 0.744022 -0.219916
-25.0411 63.8029 -50.3334 0.694472 0.700717 -0.163416
-24.4944 63.466 -49.5344 0.72304 0.670967 -0.157631
-24.1823 63.2843 -48.4724 0.764093 0.6353 -0.112051
-24.0296 63.1896 -47.4996 0.761834 0.645887 -0.0493856
-23.9076 63.0468 -46.5201 0.784755 0.617317 0.0477888
-23.8982 63.0315 -46.4372 0.772034 0.634885 0.029741
-28.1128 64.0629 -55.9297 0.37086 0.860651 -0.348916
-27.1937 63.2268 -57.0337 0.38117 0.864315 -0.32813
-26.8216 62.8933 -57.4802 0.38117 0.864315 -0.32813
-25.7321 62.16 -57.5329 0.531989 0.798457 -0.281877
-26.3366 62.9331 -56.6525 0.48646 0.826112 -0.284422
-27.1357 63.702 -55.6345 0.45289 0.824386 -0.339526
-26.5082 63.6138 -54.9065 0.49741 0.81525 -0.296565
-25.7806 62.8253 -55.911 0.535019 0.806315 -0.252211
-25.2822 62.1955 -56.6875 0.553134 0.766447 -0.326499
-25.0635 61.8938 -57.0251 0.53199 0.798456 -0.281877
-24.2763 61.4748 -56.7246 0.578047 0.789031 -0.208068
-24.8956 62.2234 -55.7343 0.594728 0.77307 -0.220592
-25.4645 62.9156 -54.8531 0.602639 0.765265 -0.226265
-25.731 63.2424 -54.4572 0.60264 0.765264 -0.226264
-24.9183 62.6941 -54.1308 0.61902 0.756542 -0.210855
-24.16 61.7501 -55.3542 0.608414 0.764339 -0.213583
-23.6606 61.1353 -56.211 0.591551 0.781776 -0.197213
-23.4214 60.8611 -56.6082 0.589612 0.785635 -0.187443
-22.328 59.9692 -56.8921 0.651448 0.738841 -0.172424
-22.9335 60.6681 -55.8823 0.591551 0.781777 -0.197212
-23.6737 61.5771 -54.5881 0.600952 0.771127 -0.210284
-24.3043 62.3694 -53.5267 0.608626 0.766019 -0.206853
-24.5436 62.6727 -53.1075 0.619019 0.756542 -0.210856
-24.0543 62.4407 -52.2844 0.662381 0.728865 -0.173222
-23.5902 61.8616 -53.1046 0.650743 0.744096 -0.151176
-22.8162 60.8898 -54.5197 0.668857 0.733394 -0.121508
-22.3149 60.2887 -55.3885 0.666343 0.735887 -0.120242
-21.8398 59.6896 -56.246 0.651449 0.738841 -0.172422
-21.1627 59.1639 -55.9405 0.65788 0.738884 -0.145754
-21.92 60.0652 -54.5722 0.663818 0.73837 -0.118976
-22.4739 60.7288 -53.6075 0.671416 0.728559 -0.135658
-22.9315 61.3449 -52.6895 0.673819 0.723557 -0.149776
-23.3798 61.9414 -51.806 0.656631 0.73656 -0.162216
-23.4263 62.0046 -51.7182 0.664728 0.729684 -0.160304
-23.1075 61.8489 -50.5541 0.705038 0.703022 -0.0931771
-22.5204 61.1082 -51.8155 0.696985 0.70971 -0.102579
-22.0589 60.5203 -52.7476 0.685656 0.716898 -0.126225
-21.1457 59.3901 -54.4415 0.679627 0.725497 -0.108445
-20.4636 58.5507 -55.7062 0.676929 0.73148 -0.0818797
-19.8772 58.0735 -55.2802 0.658133 0.750019 -0.0658242
-20.6861 59.0277 -53.8147 0.695079 0.712242 -0.0978571
-21.2246 59.6728 -52.7929 0.711683 0.697565 -0.0831262
-21.6649 60.2611 -51.8442 0.710224 0.697281 -0.0968545
-22.3859 61.1781 -50.3126 0.704057 0.706144 -0.0752664
-22.7455 61.6124 -49.533 0.714231 0.697126 -0.0623724
-22.4679 61.4426 -48.3033 0.727364 0.685109 -0.0395876
-21.7922 60.6107 -49.8487 0.71677 0.694736 -0.0598594
-21.2474 59.9306 -51.0609 0.722172 0.688193 -0.069706
-20.8136 59.3551 -52.0092 0.721914 0.684567 -0.101034
-20.2463 58.6759 -53.133 0.701029 0.710149 -0.065167
-19.6928 58.0085 -54.1776 0.676929 0.73148 -0.0818799
-19.1522 57.4543 -55.0872 0.658132 0.750019 -0.0658243
-18.6412 57.023 -54.5542 0.685908 0.726381 -0.0435955
-19.1814 57.5881 -53.6379 0.684694 0.728311 -0.0275104
-19.7084 58.1739 -52.6385 0.734254 0.677955 -0.0353183
-20.2154 58.7748 -51.6432 0.733519 0.679168 -0.0260913
-20.8267 59.5526 -50.3005 0.760188 0.649645 -0.00870378
-21.2789 60.0793 -49.3083 0.768895 0.639317 0.00863909
-21.69 60.5661 -48.3635 0.775382 0.631485 0.00308318
-22.2728 61.1713 -47.0545 0.77102 0.622852 0.132603
-22.4323 60.8789 -45.3762 0.78027 0.577207 0.240855
-21.7981 60.4687 -46.6042 0.784892 0.582374 0.211622
-21.2764 60.032 -47.7089 0.785031 0.607549 0.120874
-20.7348 59.4169 -48.9448 0.77254 0.634385 0.0271757
-20.2309 58.8591 -50.0294 0.760187 0.649646 -0.00870539
-19.5625 58.0768 -51.4362 0.73272 0.680321 -0.0168625
-19.109 57.5408 -52.3294 0.709298 0.704521 -0.0233842
-18.445 56.901 -53.4998 0.684694 0.728311 -0.0275104
-17.9175 56.3492 -54.3945 0.685908 0.726382 -0.0435947
-17.3693 55.859 -53.9372 0.658535 0.751995 -0.028888
-18.1013 56.5923 -52.6694 0.683297 0.730051 -0.0114161
-18.8303 57.2947 -51.3845 0.700409 0.713515 0.0179802
-19.4117 57.9117 -50.2211 0.764116 0.644013 0.0370613
-20.0049 58.5467 -48.9889 0.764559 0.643567 0.0356695
-20.4815 59.0739 -47.9503 0.779232 0.622686 0.0711219
-20.9808 59.4889 -46.9254 0.791332 0.579075 0.196128
-21.5256 59.834 -45.8804 0.784248 0.579198 0.222451
-22.1774 60.2086 -44.6438 0.773654 0.563269 0.290151
-22.8521 60.4867 -43.498 0.768485 0.548282 0.329876
-23.6429 60.7313 -42.2171 0.764099 0.511155 0.39354
-39.0343 64.1531 -44.325 -0.518768 0.832874 0.192876
-37.7073 65.1755 -46.0364 -0.508328 0.853762 0.112667
-37.5711 65.2707 -46.21 -0.440684 0.897416 0.0210318
-37.3395 65.2655 -45.059 -0.506105 0.853841 0.121709
-38.1563 64.615 -43.9582 -0.518768 0.832874 0.192876
-38.9587 63.7571 -42.9079 -0.520012 0.816399 0.251159
-39.4582 62.7073 -41.0333 -0.502535 0.771999 0.389198
-38.6757 63.5909 -41.7755 -0.50699 0.800522 0.31957
-37.966 64.3416 -42.6912 -0.531351 0.808133 0.25414
-37.2784 65.0769 -43.5914 -0.518768 0.832874 0.192873
-36.983 64.9432 -42.4373 -0.565058 0.800102 0.201361
-38.1067 63.5963 -40.9418 -0.546257 0.755821 0.361022
-38.9702 62.6219 -40.1531 -0.537178 0.764499 0.356344
-38.1237 62.9403 -39.56 -0.526597 0.738841 0.420488
-37.2409 64.0292 -40.5115 -0.555238 0.747008 0.365638
-37.0564 64.2862 -40.7564 -0.555237 0.747008 0.365637
-36.9297 63.7156 -39.299 -0.630881 0.661529 0.405423
-37.1313 63.3842 -39.1288 -0.590893 0.664443 0.45756
-36.6969 63.1659 -38.2335 -0.634364 0.621772 0.459327
-36.988 62.7979 -38.047 -0.545226 0.704646 0.454097
-33.7244 61.7653 -34.8587 -0.261684 0.434349 0.861895
-33.6596 61.8051 -34.8642 -0.167331 0.398137 0.901935
-33.3104 60.8871 -34.4587 -0.105024 0.356525 0.928364
-32.2072 61.3525 -34.6266 0.10456 0.274047 0.956015
-32.0347 61.4135 -34.6696 0.191584 0.268231 0.944112
-30.8029 60.7222 -34.7947 0.357291 0.196055 0.913184
-31.9316 60.3904 -34.4084 0.146932 0.258603 0.954744
-32.8709 60.0215 -34.1333 0.176762 0.293279 0.939544
-32.4106 59.1509 -33.9127 0.173054 0.349461 0.920831
-31.0614 59.6071 -34.4542 0.361197 0.286442 0.887405
-29.8889 59.9399 -34.9843 0.357291 0.196055 0.913184
-28.3925 60.1882 -35.9139 0.592621 0.280013 0.755244
-27.2318 60.3382 -36.7728 0.536276 0.320787 0.780707
-26.118 60.3684 -37.8727 0.646309 0.393084 0.654041
-25.305 60.3378 -38.791 0.738222 0.405336 0.539195
-24.5813 60.2157 -39.8574 0.805435 0.435949 0.401525
-23.8807 60.0861 -40.8724 0.744674 0.475583 0.468276
-22.6933 59.7798 -42.7444 0.748908 0.519156 0.411842
-22.055 59.5503 -43.8127 0.77315 0.547685 0.319814
-21.3403 59.2512 -45.0047 0.770846 0.575056 0.274058
-20.7833 58.9089 -46.0654 0.780868 0.583869 0.222131
-20.2568 58.5407 -47.0809 0.775887 0.606804 0.172596
-19.5287 57.9444 -48.5019 0.794426 0.592876 0.131854
-18.879 57.2581 -49.8459 0.742178 0.669124 0.0380269
-18.2832 56.7026 -50.9612 0.717973 0.694733 0.0431519
-17.648 56.1236 -52.0625 0.716517 0.695961 0.0473519
-17.0505 55.5913 -53.0885 0.664301 0.745261 0.0573612
-16.9319 55.5066 -53.2666 0.650391 0.758621 0.0385575
-15.9223 54.6439 -53.4735 0.650076 0.75986 0.00378111
-16.6293 55.1633 -52.4071 0.664301 0.745261 0.0573612
-17.3895 55.7946 -51.139 0.69766 0.715052 0.0443936
-18.1001 56.4505 -49.853 0.73286 0.676517 0.0723893
-19.0345 57.2108 -48.1503 0.738743 0.66312 0.120545
-19.698 57.7625 -46.8571 0.778101 0.596439 0.197027
-20.2629 58.1242 -45.824 0.779764 0.585651 0.221316
-21.2664 58.6166 -44.0823 0.759185 0.563069 0.326483
-22.455 59.0133 -42.2115 0.748908 0.519156 0.411842
-23.1664 59.1983 -41.1512 0.764099 0.511155 0.39354
-23.8682 59.3304 -40.1247 0.744674 0.475583 0.468275
-24.668 59.4582 -39.0019 0.737991 0.412045 0.534405
-25.8643 59.5164 -37.6002 0.627653 0.422725 0.653724
-27.6292 59.3703 -36.1022 0.536276 0.320787 0.780707
-28.7241 59.2309 -35.2864 0.505871 0.411476 0.758144
-29.9833 58.9236 -34.6115 0.36191 0.374293 0.853772
-31.2139 58.622 -33.9576 0.276299 0.357227 0.892215
-32.1985 58.2343 -33.6152 0.188176 0.336907 0.922542
-31.9164 57.3593 -33.3431 0.227238 0.46277 0.856858
-29.8065 58.0191 -34.2899 0.344828 0.388879 0.854322
-28.5803 58.3556 -34.9188 0.415724 0.405476 0.814103
-27.5374 58.5046 -35.6903 0.511695 0.419014 0.750064
-26.4385 58.6416 -36.5165 0.565699 0.410801 0.715001
-25.4776 58.681 -37.4312 0.627653 0.422724 0.653725
-24.6026 58.6419 -38.4477 0.73771 0.418725 0.529578
-23.6678 58.5579 -39.6123 0.734637 0.502682 0.455651
-22.6734 58.3926 -40.974 0.717836 0.539209 0.440414
-21.9515 58.2059 -42.0489 0.7338 0.551271 0.397036
-21.1619 57.9957 -43.1909 0.736968 0.574855 0.355556
-20.0129 57.5063 -45.0771 0.750289 0.588934 0.300372
-19.364 57.1152 -46.2384 0.750103 0.629108 0.203887
-18.6161 56.6361 -47.5531 0.747436 0.645192 0.158324
-17.7236 55.9171 -49.1844 0.745147 0.658469 0.10571
-17.1618 55.4886 -50.1546 0.695055 0.711483 0.103398
-16.208 54.7354 -51.7256 0.664301 0.745261 0.0573613
-15.5166 54.242 -52.7641 0.649919 0.756462 0.0732871
-15.1347 53.9694 -53.3378 0.650391 0.758621 0.0385567
-14.5079 53.3911 -52.9641 0.617642 0.781415 0.0889335
-15.1984 53.8838 -51.927 0.654799 0.751686 0.0787819
-16.0691 54.4887 -50.6004 0.671425 0.734412 0.0991313
-16.981 55.1598 -49.0953 0.695778 0.710985 0.101947
-17.5815 55.587 -48.0894 0.707648 0.686423 0.167505
-18.3265 56.0605 -46.8288 0.754766 0.626088 0.195812
-19.0322 56.5062 -45.5801 0.752141 0.609223 0.25126
-19.7105 56.8238 -44.4943 0.750289 0.588934 0.300372
-20.4336 57.1318 -43.3072 0.748376 0.590138 0.302772
-21.3251 57.3785 -42.0558 0.723238 0.557763 0.407219
-22.0527 57.5672 -40.9751 0.717835 0.539212 0.440414
-22.8499 57.6856 -39.9479 0.700232 0.525919 0.482788
-23.6941 57.8026 -38.8256 0.670268 0.481567 0.564655
-24.7671 57.8494 -37.5918 0.704846 0.450694 0.547784
-26.028 57.7965 -36.3903 0.61732 0.40086 0.676925
-27.0828 57.687 -35.5436 0.505871 0.411476 0.758143
-28.3503 57.4935 -34.6145 0.499969 0.403875 0.766105
-29.5234 57.1779 -34.0015 0.327572 0.403266 0.854443
-30.633 56.878 -33.4221 0.287215 0.481391 0.828113
-31.7585 56.5003 -32.921 0.227238 0.46277 0.856858
-31.5609 55.6591 -32.5153 0.217651 0.470507 0.855133
-30.3609 56.0703 -33.0469 0.287215 0.481391 0.828113
-29.334 56.3152 -33.6554 0.355148 0.489537 0.796382
-28.2235 56.6157 -34.2344 0.415726 0.405476 0.814101
-27.2085 56.7706 -34.9785 0.499968 0.403874 0.766105
-26.1878 56.9243 -35.7281 0.5657 0.410803 0.715
-25.0675 57.0101 -36.7207 0.551463 0.491226 0.674229
-23.9372 57.0278 -37.8618 0.669223 0.496293 0.553023
-22.9989 56.9769 -38.9467 0.703903 0.493141 0.511207
-22.2292 56.8603 -39.949 0.700232 0.525919 0.482788
-21.4321 56.7419 -40.9762 0.717835 0.539212 0.440414
-20.6104 56.5205 -42.1497 0.723238 0.557763 0.407219
-19.7326 56.2795 -43.3788 0.736969 0.574854 0.355554
-18.9999 55.9502 -44.5649 0.752191 0.587727 0.297969
-18.1722 55.5794 -45.868 0.70184 0.662382 0.262051
-17.0851 54.9603 -47.6315 0.700508 0.689468 0.184179
-16.293 54.4256 -48.9335 0.683905 0.711982 0.159238
-15.6165 54.0214 -49.9563 0.647808 0.756067 0.0933079
-14.4599 53.2188 -51.7192 0.654799 0.751686 0.078782
-14.3821 53.1632 -51.8361 0.617642 0.781415 0.0889335
-13.3593 52.4433 -51.9328 0.579023 0.809294 0.0988746
-14.2562 52.9354 -50.7082 0.617642 0.781415 0.0889336
-14.8809 53.366 -49.7528 0.650376 0.748327 0.130454
-15.773 53.8541 -48.4342 0.652005 0.739502 0.167411
-16.468 54.2637 -47.3709 0.707645 0.686425 0.167505
-17.6377 54.8766 -45.5343 0.712029 0.657946 0.245198
-18.3933 55.1889 -44.3863 0.691363 0.666549 0.2788
-19.1476 55.4746 -43.272 0.671669 0.639151 0.374628
-19.8991 55.6871 -42.213 0.689398 0.626611 0.36344
-20.778 55.9357 -40.9745 0.672693 0.611888 0.416025
-21.6357 56.0713 -39.8803 0.679924 0.579053 0.449891
-22.4418 56.2018 -38.8299 0.646669 0.563627 0.513949
-23.38 56.2241 -37.8149 0.669223 0.496292 0.553023
-24.3053 56.2532 -36.7927 0.551463 0.491226 0.674229
-25.2744 56.1744 -35.9427 0.549495 0.486606 0.679169
-26.6118 56.0035 -34.8845 0.437799 0.494794 0.750673
-27.9557 55.7677 -33.9453 0.443188 0.505423 0.740359
-29.0619 55.5074 -33.2802 0.355148 0.489537 0.796382
-30.0888 55.2625 -32.6718 0.287216 0.481393 0.828111
-31.2888 54.8513 -32.1401 0.217651 0.470507 0.855133
-31.7002 54.7103 -31.9578 0.224491 0.533625 0.815382
-31.8659 53.8119 -31.2178 0.191439 0.577643 0.793524
-30.0385 54.3787 -32.1983 0.224492 0.533625 0.815382
-28.8117 54.7049 -32.8818 0.328256 0.514915 0.791903
-26.9406 55.1034 -34.0994 0.443188 0.505423 0.740359
-25.8527 55.2943 -34.8597 0.493676 0.489396 0.718871
-24.7596 55.3929 -35.8041 0.547497 0.481961 0.684076
-23.7887 55.4763 -36.6492 0.612536 0.495533 0.61583
-22.9116 55.4472 -37.6166 0.609894 0.545131 0.575206
-21.9173 55.4373 -38.6616 0.609894 0.54513 0.575206
-21.06 55.3063 -39.7657 0.679924 0.579053 0.449891
-20.0742 55.158 -40.9686 0.672693 0.611888 0.416025
-19.1953 54.9094 -42.2072 0.689398 0.626611 0.36344
-18.3564 54.7016 -43.3073 0.67337 0.660552 0.332029
-17.2582 54.2519 -44.9608 0.669391 0.684627 0.288448
-16.4931 53.8953 -46.1139 0.658584 0.721658 0.213253
-15.77 53.5725 -47.173 0.640939 0.742148 0.195996
-14.8472 53.066 -48.5365 0.647128 0.745152 0.161166
-14.1939 52.7074 -49.5018 0.612918 0.772997 0.163727
-13.101 52.15 -50.9793 0.570318 0.816244 0.092102
-12.6584 51.9088 -51.5822 0.570318 0.816244 0.092102
-12.7314 51.8008 -50.1731 0.572434 0.809333 0.13153
-13.5119 52.1426 -49.1546 0.575575 0.80023 0.168358
-14.276 52.4791 -48.1169 0.612918 0.772997 0.163729
-14.9695 52.8598 -47.0921 0.640939 0.742148 0.195996
-15.6488 53.1445 -46.136 0.633938 0.738211 0.230578
-16.3887 53.4819 -45.0374 0.653564 0.712074 0.256523
-17.1268 53.7309 -44.0246 0.647246 0.701072 0.299284
-18.0498 54.0449 -42.7177 0.653541 0.651307 0.385594
-18.9367 54.2577 -41.5739 0.67167 0.639151 0.374628
-19.8925 54.4581 -40.3313 0.653796 0.595171 0.46725
-20.8657 54.6031 -39.1542 0.666963 0.587205 0.458641
-22.0971 54.6798 -37.7531 0.609895 0.54513 0.575205
-23.3634 54.7104 -36.3948 0.551626 0.61778 0.560408
-24.5831 54.581 -35.3733 0.504981 0.551433 0.664014
-25.6828 54.4817 -34.4232 0.493676 0.489396 0.718871
-27.131 54.237 -33.37 0.448465 0.515926 0.729862
-28.5014 53.9296 -32.5063 0.328257 0.514914 0.791903
-29.4909 53.7024 -31.8568 0.298141 0.591485 0.749171
-30.5236 53.3823 -31.2863 0.238444 0.588548 0.7725
-31.3398 53.1296 -30.8481 0.210816 0.585862 0.78251
-31.6732 52.1807 -29.9673 0.162995 0.677425 0.717306
-30.4322 52.5647 -30.6992 0.251414 0.610726 0.750869
-29.1551 52.9605 -31.4048 0.298143 0.591484 0.749171
-27.4364 53.3485 -32.5556 0.324526 0.617026 0.716911
-26.4588 53.5371 -33.2369 0.373615 0.609656 0.699094
-25.046 53.7814 -34.2693 0.450361 0.607197 0.65459
-23.766 53.9251 -35.3268 0.458913 0.617025 0.63928
-22.7242 54.0081 -36.2498 0.551626 0.61778 0.560408
-21.7151 53.9619 -37.3658 0.585109 0.636341 0.50271
-20.8103 53.9205 -38.3664 0.570405 0.645728 0.507616
-19.7988 53.7894 -39.5625 0.595442 0.688664 0.413752
-18.8216 53.6497 -40.7363 0.58925 0.691877 0.417241
-17.932 53.4478 -41.8679 0.610836 0.718806 0.33196
-17.0521 53.2285 -43.0121 0.601416 0.72422 0.33735
-16.3021 52.9804 -44.0355 0.609567 0.749112 0.259344
-15.5578 52.7286 -45.0575 0.60402 0.752347 0.262932
-14.8307 52.4313 -46.074 0.605135 0.769334 0.204783
