2.20067 43.899 -37.691 0.299596 0.935471 0.187446
3.13376 43.7955 -38.6759 0.299827 0.938594 0.170722
4.05351 43.6851 -39.649 0.283222 0.945104 0.162985
4.51398 43.631 -40.1354 0.283224 0.945103 0.162985
3.68044 43.503 -37.996 0.280977 0.942986 0.17841
2.76771 43.5885 -37.0449 0.277466 0.943445 0.181449
1.8406 43.6892 -36.0681 0.29344 0.936245 0.193231
0.717274 43.784 -34.8993 0.28833 0.935497 0.204233
-0.300387 43.8668 -33.8422 0.281388 0.935455 0.213879
-2.25206 43.9647 -31.8458 0.275957 0.933418 0.229301
-3.73216 43.9966 -30.3551 0.257652 0.932224 0.254114
-4.83662 44.014 -29.2447 0.269099 0.925792 0.265509
-6.46117 43.9886 -27.6454 0.26048 0.923187 0.282624
-7.55221 43.9559 -26.5853 0.248838 0.924871 0.287564
-8.70745 43.9011 -25.4866 0.241951 0.921143 0.304886
-9.81965 43.8418 -24.4372 0.228643 0.919238 0.320507
-10.7659 43.7497 -23.5703 0.218208 0.916412 0.335522
-11.7196 43.6577 -22.6954 0.205614 0.922254 0.327368
-12.9655 43.5114 -21.5595 0.199085 0.920306 0.336751
-14.1539 43.3497 -20.4901 0.184235 0.916249 0.355733
-15.0827 43.222 -19.6578 0.184532 0.910065 0.371118
-16.8247 42.9175 -18.1319 0.168808 0.913173 0.370971
-17.7858 42.7294 -17.2978 0.149383 0.912387 0.381096
-18.9708 42.4855 -16.2736 0.125096 0.911408 0.392028
-20.1254 42.2218 -15.2922 0.130789 0.909739 0.394042
-21.1208 41.9842 -14.4494 0.113038 0.913089 0.39178
-22.2131 41.7189 -13.5221 0.101841 0.910965 0.399714
-23.4101 41.4028 -12.5244 0.0932982 0.911431 0.400736
-24.9221 40.9789 -11.2606 0.082444 0.906712 0.413615
-24.9719 40.9643 -11.2189 0.0806372 0.906969 0.413405
-24.1319 40.6874 -10.7831 0.0842489 0.906451 0.413821
-23.127 40.978 -11.6242 0.0887767 0.908973 0.407292
-22.1557 41.2346 -12.4339 0.0932981 0.911431 0.400736
-20.982 41.5313 -13.4344 0.110377 0.910432 0.398661
-20.0014 41.7668 -14.2656 0.119187 0.912954 0.390269
-19.059 41.9824 -15.0756 0.125332 0.912782 0.388743
-17.7796 42.2599 -16.1728 0.149585 0.912755 0.380135
-16.6793 42.4779 -17.1292 0.149483 0.912571 0.380615
-15.7435 42.6441 -17.9509 0.158881 0.917565 0.364461
-14.6633 42.8381 -18.9001 0.156542 0.921324 0.355888
-13.5702 42.996 -19.8813 0.184236 0.916249 0.355733
-12.06 43.1992 -21.2416 0.198027 0.920578 0.336633
-11.0768 43.3173 -22.1404 0.205614 0.922254 0.327368
-10.042 43.4086 -23.102 0.214228 0.923513 0.318168
-9.079 43.5006 -23.9869 0.228643 0.919238 0.320507
-7.931 43.5583 -25.0746 0.244904 0.920526 0.304391
-6.56102 43.6243 -26.3764 0.246879 0.922736 0.295989
-5.4001 43.6488 -27.5133 0.26048 0.923187 0.282624
-4.28618 43.6723 -28.6047 0.241566 0.934204 0.262506
-3.3113 43.668 -29.5766 0.257653 0.932224 0.254113
-2.37549 43.6638 -30.5098 0.266794 0.932148 0.244788
-0.990684 43.6098 -31.9187 0.275957 0.933418 0.229301
0.00552065 43.5603 -32.935 0.274404 0.935283 0.223491
1.04086 43.4886 -34.0031 0.288331 0.935496 0.204235
2.09418 43.4028 -35.0973 0.278445 0.93931 0.20041
3.31707 43.2966 -36.3672 0.277466 0.943445 0.181449
3.6133 43.2689 -36.6759 0.277467 0.943445 0.181449
2.78782 43.0955 -34.5706 0.271076 0.942574 0.195121
1.17255 43.2088 -32.9074 0.278445 0.93931 0.200414
-0.0809062 43.2779 -31.6221 0.271671 0.937864 0.215884
-1.05192 43.3125 -30.6396 0.25946 0.937933 0.230136
-2.56008 43.3419 -29.1252 0.253689 0.936002 0.244011
-3.99787 43.3426 -27.6967 0.241566 0.934204 0.262506
-5.01766 43.3185 -26.6993 0.236526 0.934964 0.264382
-5.96335 43.2914 -25.7796 0.227282 0.933041 0.278885
-7.19665 43.2263 -24.6123 0.218896 0.933704 0.28334
-8.16216 43.1753 -23.6984 0.218904 0.933653 0.283503
-9.3493 43.0727 -22.5933 0.205143 0.927702 0.311908
-10.4339 42.977 -21.5853 0.205616 0.922255 0.327366
-11.9093 42.8067 -20.2318 0.18037 0.928308 0.325131
-13.5824 42.5773 -18.7239 0.174822 0.925955 0.334732
-15.1 42.3176 -17.3777 0.148927 0.92181 0.357892
-16.0512 42.1475 -16.5378 0.13891 0.922317 0.360604
-17.7295 41.8033 -15.0841 0.128474 0.920834 0.368184
-18.6757 41.5866 -14.2699 0.117453 0.916368 0.382719
-19.779 41.3342 -13.3215 0.119187 0.912954 0.390269
-20.8818 41.0582 -12.3818 0.110377 0.910432 0.398661
-22.0127 40.7728 -11.417 0.101841 0.910966 0.399712
-23.3742 40.3924 -10.2754 0.0767927 0.916596 0.39237
-23.658 40.3137 -10.0361 0.0767918 0.916596 0.392371
-22.7501 40.072 -9.64904 0.0767927 0.916596 0.39237
-21.6287 40.3849 -10.5982 0.083731 0.918772 0.385808
-20.6267 40.6401 -11.4564 0.0917103 0.919673 0.381825
-19.4745 40.933 -12.4387 0.100737 0.920074 0.37857
-18.5122 41.1576 -13.2697 0.109561 0.919853 0.376653
-17.549 41.3814 -14.0965 0.118932 0.920101 0.373188
-16.499 41.6027 -15.0116 0.128474 0.920834 0.368184
-15.3529 41.8315 -16.0088 0.149145 0.923094 0.354476
-14.2861 42.0218 -16.9532 0.143832 0.924502 0.353
-12.7517 42.2759 -18.324 0.169494 0.923426 0.344319
-11.1596 42.4959 -19.7624 0.174361 0.926047 0.334715
-10.1878 42.6056 -20.6557 0.1899 0.929887 0.315038
-8.96861 42.7273 -21.7845 0.196029 0.931761 0.305604
-7.7389 42.8415 -22.9261 0.208375 0.932622 0.294611
-6.79091 42.8927 -23.8262 0.218912 0.933601 0.283665
-5.56735 42.9573 -24.9845 0.227284 0.933041 0.278884
-4.22017 43.0008 -26.2893 0.236092 0.933641 0.269398
-3.24828 43.0179 -27.2432 0.246598 0.933416 0.260622
-2.03784 43.0223 -28.4421 0.249765 0.937208 0.243431
-1.13297 43.018 -29.3413 0.252451 0.938511 0.235512
-0.17089 42.9878 -30.3094 0.259249 0.938234 0.229143
0.807436 42.9472 -31.3035 0.265896 0.939731 0.214952
2.34847 42.8677 -32.8774 0.268502 0.94195 0.201585
2.3876 42.8649 -32.9177 0.268524 0.943004 0.196565
1.68525 42.6277 -30.9648 0.259235 0.942364 0.211537
0.372575 42.6751 -29.6404 0.253047 0.940527 0.226662
-1.069 42.7051 -28.197 0.245835 0.938397 0.242849
-2.16965 42.7054 -27.107 0.233476 0.939741 0.249751
-3.34501 42.6889 -25.9523 0.22605 0.939091 0.258863
-4.26429 42.6545 -25.0662 0.218806 0.939504 0.263545
-5.17135 42.6232 -24.1894 0.227284 0.933041 0.278884
-6.16181 42.5699 -23.2495 0.218912 0.933601 0.283665
-7.1098 42.5187 -22.3493 0.208374 0.932622 0.294611
-8.49099 42.3909 -21.0656 0.196458 0.933743 0.299211
-9.44407 42.291 -20.1835 0.193435 0.929318 0.314566
-10.8245 42.1276 -18.918 0.170523 0.92989 0.325923
-11.9698 41.978 -17.8756 0.160561 0.931814 0.325488
-13.3754 41.7546 -16.6115 0.151293 0.930378 0.333926
-14.9038 41.4711 -15.2592 0.143834 0.924502 0.352998
-16.1557 41.2151 -14.1659 0.128292 0.920257 0.369686
-17.221 40.9906 -13.2375 0.118933 0.920101 0.373188
-18.1834 40.7661 -12.4069 0.109756 0.920391 0.375279
-19.1453 40.5413 -11.5741 0.100737 0.920074 0.37857
-20.1966 40.2737 -10.6752 0.0918949 0.920658 0.379399
-21.1502 40.0273 -9.85447 0.0755547 0.916784 0.392171
-22.1396 39.7491 -9.0135 0.0755537 0.916784 0.392171
-21.4627 39.4473 -8.43844 0.0755547 0.916784 0.392171
-20.455 39.7307 -9.29497 0.0837294 0.918772 0.385806
-19.3893 40.0029 -10.2136 0.0845879 0.923264 0.374739
-17.8258 40.3878 -11.566 0.0954638 0.926378 0.364293
-16.8498 40.6193 -12.4104 0.102843 0.92693 0.360866
-15.2119 40.9707 -13.8391 0.110671 0.928662 0.354033
-13.7451 41.2575 -15.1322 0.130432 0.933823 0.333111
-12.6572 41.4537 -16.0987 0.144916 0.928185 0.34274
-11.6447 41.6141 -17.0123 0.154437 0.92989 0.333846
-10.4784 41.7781 -18.0709 0.163565 0.934458 0.316284
-9.16344 41.9404 -19.2758 0.179073 0.935922 0.303287
-8.18001 42.0466 -20.1842 0.179074 0.935935 0.303247
-7.24257 42.1292 -21.0608 0.195116 0.936018 0.292918
-6.03416 42.22 -22.1965 0.211209 0.936393 0.280284
-4.65994 42.3051 -23.4949 0.211179 0.939193 0.270777
-3.22686 42.3595 -24.876 0.218807 0.939503 0.263546
-2.1177 42.3852 -25.9571 0.233277 0.938608 0.254159
-0.765196 42.3926 -27.2916 0.245639 0.93881 0.241451
0.380878 42.3835 -28.4289 0.247125 0.942332 0.225698
0.952571 42.3701 -29 0.247044 0.94248 0.225166
0.630761 42.0866 -27.4652 0.247206 0.942183 0.226231
-0.487643 42.0882 -26.357 0.233578 0.943158 0.236419
-1.51755 42.0733 -25.3459 0.220414 0.943615 0.246999
-2.41884 42.0559 -24.4647 0.226051 0.939091 0.258862
-3.84844 42.0011 -23.0871 0.218847 0.939186 0.264644
-5.0216 41.9349 -21.9736 0.203489 0.939111 0.276881
-6.58468 41.8204 -20.5013 0.183911 0.939674 0.288426
-7.57129 41.7338 -19.5783 0.187102 0.936019 0.298095
-9.03757 41.5754 -18.224 0.179072 0.935909 0.303329
-10.227 41.4203 -17.1381 0.160522 0.935982 0.31332
-11.4971 41.235 -15.9837 0.142709 0.937797 0.316499
-12.4475 41.0739 -15.1255 0.132281 0.933638 0.332899
-13.4466 40.8962 -14.2363 0.125378 0.931005 0.342797
-14.7656 40.6271 -13.0774 0.115488 0.928377 0.353241
-16.1914 40.3177 -11.8308 0.110217 0.927419 0.357416
-17.3149 40.056 -10.8562 0.095533 0.926812 0.363172
-18.4169 39.7949 -9.89638 0.08644 0.926566 0.366065
-19.5331 39.5032 -8.93354 0.0769289 0.925275 0.371413
-20.3393 39.2859 -8.2381 0.0637199 0.924602 0.375568
-19.9855 38.9137 -7.38184 0.0639885 0.92584 0.372459
-18.9135 39.2005 -8.30988 0.0765853 0.924754 0.37278
-17.2835 39.6108 -9.72425 0.0955999 0.927244 0.362047
-16.1868 39.8707 -10.6794 0.0892019 0.929539 0.357771
-15.1667 40.1001 -11.5717 0.100204 0.930924 0.351197
-13.5896 40.4334 -12.957 0.113526 0.934369 0.337736
-12.5706 40.6376 -13.8543 0.125378 0.931005 0.342797
-11.3214 40.8597 -14.9785 0.13413 0.933451 0.332683
-10.1302 41.0451 -16.0586 0.160578 0.93669 0.311168
-8.91341 41.2065 -17.1724 0.160518 0.935983 0.31332
-7.93719 41.3188 -18.071 0.165064 0.940839 0.295933
-6.49466 41.4672 -19.4079 0.183821 0.940357 0.28625
-5.3698 41.5695 -20.4586 0.193535 0.940063 0.28076
-3.73713 41.6666 -22.0076 0.203313 0.939711 0.274968
-2.73167 41.7123 -22.9714 0.206618 0.943516 0.259012
-1.1669 41.7659 -24.4845 0.220415 0.943614 0.247003
-0.112243 41.7839 -25.5177 0.233576 0.942917 0.23738
0.338894 41.7847 -25.965 0.233576 0.942918 0.237378
0.165689 41.481 -24.5806 0.218272 0.946509 0.237652
-0.900359 41.4567 -23.5411 0.220415 0.943612 0.24701
-2.12558 41.4114 -22.3587 0.206617 0.943516 0.259013
-3.67245 41.3305 -20.882 0.191806 0.944004 0.268453
-4.82496 41.2577 -19.79 0.193535 0.940063 0.28076
-6.42679 41.1173 -18.2929 0.183733 0.941034 0.284071
-7.46534 41.0041 -17.3335 0.165064 0.940839 0.295933
-8.76771 40.8481 -16.1337 0.144589 0.942453 0.301457
-10.0201 40.6745 -14.9902 0.144593 0.942425 0.301542
-11.3317 40.4527 -13.8001 0.123528 0.939355 0.319926
-12.5966 40.2096 -12.6717 0.114977 0.9341 0.33799
-13.6361 40.0043 -11.7545 0.10687 0.93269 0.344483
-15.5548 39.5828 -10.0684 0.0911947 0.932909 0.348373
-16.5766 39.3362 -9.17905 0.0827981 0.931774 0.353471
-17.5591 39.1012 -8.32111 0.0738417 0.933277 0.351484
-19.1111 38.6932 -6.97232 0.067147 0.931113 0.358497
-19.2345 38.6589 -6.86541 0.0603041 0.927463 0.369019
-18.3254 38.4499 -6.4863 0.0577798 0.933293 0.354437
-16.9908 38.8024 -7.64777 0.0653521 0.931385 0.358122
-16.052 39.0242 -8.47205 0.0823227 0.935058 0.344803
-15.065 39.2605 -9.33358 0.0911935 0.932909 0.348374
-14.0182 39.4881 -10.2566 0.0995797 0.933954 0.343239
-12.9997 39.7096 -11.1547 0.0998924 0.932448 0.347222
-11.9105 39.9248 -12.1216 0.116427 0.933827 0.338248
-10.8391 40.1358 -13.0731 0.119997 0.935757 0.3316
-9.47024 40.3708 -14.3146 0.130878 0.938555 0.31935
-7.92749 40.5894 -15.7278 0.154951 0.942539 0.295989
-6.3344 40.7647 -17.2032 0.165178 0.941672 0.293208
-5.23032 40.8686 -18.2314 0.169567 0.945901 0.27662
-4.29338 40.956 -19.1044 0.180199 0.946217 0.268703
-3.3483 41.0142 -20.0011 0.191807 0.944004 0.268453
-2.43835 41.0742 -20.8624 0.198986 0.944293 0.262135
-0.889169 41.1392 -22.3508 0.201247 0.945979 0.25421
-0.57348 41.1502 -22.6555 0.211712 0.947212 0.240763
-0.979988 40.8156 -21.0666 0.196343 0.947436 0.252616
-2.053 40.7619 -20.0395 0.191304 0.945194 0.264597
-3.67203 40.6647 -18.5019 0.190798 0.946368 0.260737
-4.70489 40.5716 -17.5378 0.169567 0.945901 0.27662
-5.78052 40.4704 -16.5341 0.162384 0.946101 0.28022
-7.28863 40.3004 -15.1392 0.154132 0.944907 0.28878
-8.63726 40.1134 -13.8974 0.133934 0.942232 0.30702
-9.88393 39.9019 -12.7646 0.127603 0.941741 0.311194
-10.9654 39.7001 -11.7966 0.105393 0.94165 0.319668
-11.9802 39.5066 -10.892 0.103906 0.940297 0.324106
-12.9826 39.296 -10.0014 0.0868903 0.938292 0.334751
-14.3001 39.0038 -8.84055 0.0869399 0.938907 0.333009
-15.3824 38.7497 -7.88754 0.0778375 0.936407 0.342173
-16.394 38.5112 -6.99929 0.0738418 0.933277 0.351484
-17.8216 38.1387 -5.75051 0.0647744 0.934184 0.350864
-18.1718 38.0423 -5.4464 0.0507806 0.932346 0.357984
-17.5235 37.7723 -4.83529 0.0505377 0.931807 0.359419
-16.4412 38.0582 -5.7831 0.0563793 0.93644 0.346268
-15.3148 38.3415 -6.77486 0.073297 0.938647 0.337
-14.093 38.6345 -7.84789 0.0733501 0.93773 0.339533
-12.9703 38.8818 -8.84375 0.0869426 0.938907 0.333008
-11.8535 39.1221 -9.83249 0.102414 0.938922 0.328536
-10.4344 39.4038 -11.0987 0.108692 0.94112 0.320125
-9.39875 39.5971 -12.0278 0.119729 0.942025 0.313453
-7.86137 39.8506 -13.4295 0.133934 0.942232 0.307018
-6.32531 40.0531 -14.8476 0.15302 0.943375 0.294327
-5.07865 40.1892 -16.0038 0.169524 0.945737 0.277205
-3.84725 40.3055 -17.1538 0.169546 0.945819 0.276913
-2.30785 40.418 -18.6049 0.190796 0.946368 0.260737
-1.22739 40.4904 -19.6292 0.187092 0.949913 0.250325
-1.63881 40.1388 -18.0455 0.180305 0.949275 0.257617
-2.66937 40.0704 -17.0677 0.173301 0.951346 0.25477
-3.86176 39.9581 -15.9538 0.155725 0.951822 0.264167
-5.07564 39.8422 -14.8208 0.15318 0.950107 0.271722
-6.05762 39.7179 -13.9124 0.146464 0.946424 0.287801
-7.07726 39.589 -12.9691 0.146566 0.943835 0.296131
-8.24701 39.4001 -11.9001 0.127457 0.943363 0.306302
-9.38781 39.2005 -10.8678 0.111989 0.94058 0.320574
-10.7144 38.9491 -9.67568 0.0922968 0.942693 0.320643
-11.6423 38.7584 -8.84764 0.092331 0.943132 0.319338
-12.6187 38.5445 -7.97927 0.0828498 0.940812 0.328648
-13.5955 38.3294 -7.11278 0.0801736 0.938654 0.33541
-15.063 37.9806 -5.81608 0.0732431 0.939558 0.334464
-16.0979 37.7136 -4.90698 0.0563779 0.93644 0.346269
-16.882 37.507 -4.21666 0.0480822 0.935342 0.350463
-16.3118 37.2226 -3.53597 0.0480851 0.935341 0.350464
-14.8085 37.6186 -4.86019 0.0563826 0.936807 0.345272
-13.6577 37.8973 -5.87865 0.0638969 0.94208 0.329246
-12.5413 38.1549 -6.87225 0.0787314 0.943176 0.322832
-11.4129 38.4072 -7.87361 0.0787028 0.94208 0.326024
-10.3192 38.6308 -8.85341 0.0923335 0.943133 0.319336
-9.2537 38.837 -9.80965 0.110003 0.944779 0.308695
-8.16088 39.0335 -10.7973 0.110438 0.947072 0.301426
-6.68944 39.277 -12.1372 0.116607 0.946592 0.300608
-5.0521 39.4934 -13.6544 0.139892 0.949384 0.281247
-4.09345 39.6047 -14.5439 0.15318 0.950107 0.271722
-2.87956 39.7205 -15.6769 0.155725 0.951822 0.264167
-1.82906 39.8094 -16.6648 0.173301 0.951346 0.25477
-2.43953 39.4312 -14.894 0.162742 0.951025 0.262804
-3.60126 39.311 -13.8121 0.150626 0.948328 0.279261
-4.76807 39.1774 -12.729 0.14526 0.94887 0.280258
-5.7209 39.0521 -11.8419 0.152893 0.938957 0.308194
-6.86837 38.873 -10.7891 0.115843 0.948019 0.296378
-8.36258 38.6143 -9.43412 0.105026 0.946073 0.306455
-10.0236 38.2935 -7.93844 0.0889945 0.94462 0.315869
-11.1907 38.05 -6.89505 0.0787315 0.943176 0.322832
-12.2712 37.8129 -5.92856 0.0787646 0.944261 0.319636
-13.404 37.546 -4.92259 0.0638836 0.942245 0.328775
-14.6043 37.2451 -3.8584 0.0473403 0.939338 0.33971
-15.6472 36.965 -2.93877 0.0475155 0.939957 0.337969
-15.9311 36.8855 -2.68826 0.0358874 0.937617 0.345812
-15.8164 36.4833 -1.60545 0.0333535 0.938041 0.344915
-14.4382 36.8624 -2.82311 0.0476904 0.940573 0.336228
-13.2939 37.1596 -3.83497 0.0638729 0.942411 0.3283
-12.1729 37.4308 -4.83148 0.0608132 0.943016 0.327143
-10.9308 37.7087 -5.94336 0.0740135 0.945626 0.316723
-9.85817 37.9362 -6.90664 0.0856681 0.9463 0.311732
-8.76467 38.1622 -7.88631 0.0856175 0.945653 0.313705
-7.77649 38.3392 -8.78204 0.104725 0.947592 0.301831
-6.33105 38.5898 -10.0932 0.120784 0.947254 0.296852
-5.40503 38.7337 -10.9429 0.129844 0.947986 0.290627
-4.13556 38.9082 -12.1233 0.137603 0.951364 0.275632
-3.14532 39.0185 -13.0441 0.142341 0.953074 0.267189
-3.04492 38.6943 -11.9414 0.14234 0.953074 0.267188
-4.54684 38.4943 -10.5471 0.133409 0.949503 0.283982
-6.1716 38.246 -9.05399 0.116666 0.950656 0.287477
-7.19831 38.0648 -8.12095 0.100794 0.948831 0.299267
-8.24479 37.8782 -7.17203 0.0951773 0.946682 0.30779
-9.60655 37.5996 -5.94726 0.0857155 0.946944 0.309759
-10.6791 37.3681 -4.98522 0.0740532 0.946129 0.315208
-12.3138 36.987 -3.52172 0.0577569 0.943611 0.325979
-13.937 36.5716 -2.08065 0.0476904 0.940573 0.336228
-15.3344 36.1867 -0.844752 0.0333555 0.938215 0.344443
-14.7559 35.9182 -0.169523 0.0335609 0.938185 0.344502
-13.7913 36.1921 -1.02337 0.0433961 0.942315 0.331904
-12.2921 36.5869 -2.3543 0.0526511 0.944015 0.325674
-11.153 36.8638 -3.37081 0.0567738 0.944674 0.323059
-10.2074 37.0776 -4.21991 0.0724087 0.94719 0.312392
-8.61921 37.416 -5.65016 0.0793348 0.948916 0.305391
-7.20324 37.6935 -6.93057 0.0968727 0.950346 0.295735
-6.19099 37.8769 -7.84823 0.096859 0.950047 0.296697
-5.13707 38.0464 -8.81383 0.116666 0.950656 0.287477
-4.1387 38.1989 -9.73117 0.124404 0.951365 0.281831
-3.50619 38.2829 -10.3183 0.131617 0.951529 0.277975
-3.70748 37.9071 -8.93667 0.124403 0.951366 0.281828
-4.67025 37.7575 -8.05257 0.116154 0.950168 0.289291
-5.69328 37.5967 -7.11353 0.106512 0.950159 0.293008
-7.13691 37.3362 -5.79989 0.0968848 0.950644 0.294771
-8.13658 37.1337 -4.8985 0.0793348 0.948916 0.305391
-9.13565 36.9237 -3.99598 0.0789413 0.948061 0.308138
-10.7454 36.5605 -2.54593 0.0621476 0.945599 0.319342
-11.7995 36.298 -1.60598 0.0495093 0.942262 0.331197
-12.8585 36.0222 -0.663121 0.0464519 0.942293 0.331551
-13.8959 35.7314 0.255274 0.0323815 0.940066 0.339453
-14.2559 35.6298 0.575268 0.0312012 0.941917 0.334393
-13.9158 35.3024 1.46577 0.0281556 0.940442 0.338786
-12.6992 35.6494 0.384258 0.0287127 0.944472 0.327336
-11.6379 35.9263 -0.562022 0.0392242 0.947219 0.31818
-10.6093 36.1916 -1.4785 0.0489603 0.947805 0.31507
-8.93473 36.5782 -2.98779 0.0696178 0.946594 0.314822
-7.98763 36.7785 -3.84324 0.0789413 0.948061 0.308138
-7.02013 36.9821 -4.71744 0.0791381 0.94849 0.306764
-5.94583 37.1824 -5.69363 0.0945045 0.951165 0.293861
-5.00684 37.3535 -6.54946 0.100839 0.953185 0.28508
-4.08458 37.4953 -7.39728 0.107157 0.95509 0.276261
-4.24551 37.1246 -6.05317 0.100839 0.953185 0.28508
-5.18451 36.9535 -5.19734 0.0945045 0.951165 0.293861
-6.11276 36.7897 -4.34908 0.0861607 0.95299 0.290495
-7.68573 36.4655 -2.92415 0.070181 0.951958 0.298079
-8.65393 36.2534 -2.04755 0.0627748 0.949384 0.30778
-9.60358 36.0349 -1.1913 0.0586913 0.948292 0.311926
-10.546 35.8077 -0.34358 0.0392242 0.947219 0.31818
-11.4718 35.569 0.481303 0.0376714 0.945997 0.321979
-12.4757 35.2981 1.37817 0.0287111 0.944471 0.327339
-13.8374 34.8958 2.58717 0.014942 0.940956 0.3382
-13.558 34.5588 3.535 0.0118266 0.944548 0.328161
-12.4519 34.8874 2.54929 0.0133846 0.942766 0.333185
-11.4267 35.1696 1.63455 0.0361173 0.944758 0.325773
-9.98682 35.5518 0.349532 0.0489599 0.947806 0.315067
-8.50138 35.9008 -0.991152 0.0535546 0.94947 0.309256
-7.57492 36.1085 -1.83072 0.0657756 0.949332 0.307316
-6.57792 36.324 -2.73292 0.0757356 0.95162 0.297799
-5.39761 36.5592 -3.80748 0.0812899 0.951251 0.297512
-4.40805 36.7348 -4.71172 0.0910244 0.954657 0.283451
-4.55831 36.3534 -3.37891 0.0861595 0.952991 0.290492
-5.52786 36.1602 -2.49623 0.0778747 0.953699 0.290506
-6.60392 35.9455 -1.51394 0.0624888 0.953375 0.295249
-7.61364 35.7243 -0.597207 0.058872 0.953683 0.294998
-8.70472 35.4664 0.388044 0.0484152 0.950615 0.306572
-9.74643 35.2145 1.32812 0.0291416 0.949521 0.312347
-11.0271 34.8752 2.47421 0.0278994 0.94958 0.31228
-12.3403 34.5039 3.649 0.0128659 0.944483 0.328308
-13.1671 34.2582 4.38608 0.00498682 0.941998 0.335581
-13.1037 33.8472 5.52754 -0.00663457 0.942862 0.333117
-11.6961 34.2787 4.27154 0.0128656 0.944484 0.328306
-10.2206 34.6945 2.95156 0.0278979 0.94958 0.31228
-8.89639 35.0449 1.76088 0.0379805 0.952001 0.303729
-7.61502 35.3422 0.600931 0.0469971 0.952531 0.300791
-6.31222 35.6359 -0.580491 0.0661058 0.953053 0.295499
-4.62956 35.9775 -2.11606 0.0744544 0.956083 0.283481
-4.23333 36.054 -2.47797 0.078943 0.955621 0.283826
-4.37525 35.6706 -1.14769 0.0789431 0.955621 0.283826
-5.35855 35.4674 -0.25062 0.0631693 0.955116 0.28942
-6.37222 35.2571 0.675505 0.0557479 0.955535 0.289561
-7.29575 35.0449 1.51356 0.0455733 0.954411 0.294998
-8.5164 34.751 2.61712 0.0303834 0.949459 0.312416
-9.92984 34.3772 3.89049 0.0291399 0.94952 0.312349
-11.0985 34.0408 4.93618 0.0123003 0.945539 0.325276
-12.0515 33.7597 5.78923 0.00412268 0.944107 0.329614
-13.23 33.3794 6.83673 -0.0108585 0.939461 0.342483
-12.8369 33.0735 7.68243 -0.0116156 0.942432 0.334196
-11.8691 33.3938 6.82442 -0.00543361 0.940975 0.338431
-10.7319 33.7361 5.80801 0.00414476 0.946951 0.321352
-9.77991 34.025 4.95695 0.00451933 0.949114 0.314901
-8.61665 34.3328 3.90687 0.0222558 0.954684 0.296789
-7.47801 34.6312 2.8802 0.0379806 0.952001 0.303729
-6.55132 34.8439 2.03908 0.0512648 0.953881 0.295775
-5.60361 35.0601 1.17758 0.0557479 0.955535 0.289561
-4.3833 35.3133 0.0626718 0.0652093 0.956907 0.282978
-3.89717 35.4097 -0.3843 0.0738617 0.958126 0.276656
-3.9755 35.0383 0.892405 0.070185 0.956661 0.282621
-5.73875 34.6569 2.5012 0.0512644 0.953882 0.295774
-6.78734 34.4241 3.45671 0.0405066 0.955849 0.291053
-8.28703 34.0431 4.81413 0.0222551 0.954684 0.296787
-9.27645 33.7715 5.70667 0.013048 0.94987 0.312373
-10.3403 33.4528 6.65932 -0.00401113 0.948283 0.317401
-11.4508 33.1075 7.65361 -0.0145778 0.945373 0.325665
-12.5191 32.7616 8.6046 -0.0164166 0.945425 0.325426
-12.767 32.6764 8.82506 -0.0351135 0.939291 0.341321
-12.4564 32.3507 9.7533 -0.0354726 0.940018 0.339275
-11.1949 32.7748 8.62858 -0.0127397 0.945319 0.325897
-9.74569 33.2306 7.33065 -0.004003 0.948256 0.317482
-8.67534 33.5457 6.36835 0.0111044 0.950856 0.309435
-7.48689 33.8745 5.29643 0.0281303 0.954348 0.29737
-6.16322 34.2029 4.09369 0.0340051 0.953977 0.297944
-5.09831 34.4402 3.12322 0.0470043 0.957632 0.284134
-4.11122 34.6592 2.22294 0.0531721 0.959442 0.276847
-3.91439 34.6978 2.04118 0.0612317 0.960269 0.272275
-3.51123 34.4364 2.87995 0.0531721 0.959442 0.276847
-4.44816 34.2271 3.73584 0.0451123 0.957861 0.283667
-5.4263 34.0097 4.62819 0.0405065 0.955849 0.291053
-6.3609 33.779 5.47801 0.0315289 0.956395 0.290371
-7.66822 33.4404 6.6652 0.0110747 0.951733 0.306727
-9.05064 33.0378 7.91115 0.000593049 0.948131 0.317879
-10.4486 32.6001 9.16459 -0.014938 0.947047 0.320749
-11.3757 32.3065 9.99705 -0.0284541 0.945013 0.325793
-12.0797 32.0526 10.6247 -0.0377985 0.940899 0.336572
-11.6285 31.7847 11.4287 -0.0397644 0.941052 0.335918
-10.5621 32.1616 10.4767 -0.0171361 0.948741 0.315589
-9.40932 32.5267 9.44175 -0.0159978 0.948761 0.315589
-8.46015 32.8189 8.58562 -0.0100125 0.952564 0.304175
-7.35419 33.1391 7.58587 0.0121983 0.953324 0.301702
-5.92817 33.5174 6.29256 0.0315273 0.956395 0.290371
-4.79433 33.7951 5.25894 0.0361037 0.958319 0.283409
-3.84817 34.0042 4.39285 0.0451123 0.957861 0.283667
-3.46864 34.089 4.04614 0.0451135 0.957861 0.283667
-3.26027 33.7817 5.06322 0.0437755 0.959781 0.277316
-4.17443 33.5812 5.90126 0.0437741 0.959781 0.277316
-5.77697 33.1876 7.36342 0.0278619 0.957849 0.285919
-7.19444 32.806 8.65281 0.0114036 0.954986 0.296433
-8.19737 32.5069 9.55838 -0.0148611 0.94878 0.315588
-9.18943 32.1936 10.4536 -0.0148598 0.94878 0.315589
-10.0969 31.9063 11.2693 -0.0284539 0.945012 0.325794
-11.2211 31.5023 12.2728 -0.0402055 0.9433 0.329496
-10.7421 31.2492 13.0557 -0.0402061 0.9433 0.329497
-9.53604 31.678 11.9755 -0.0399859 0.942181 0.332709
-8.25094 32.0874 10.817 -0.0148598 0.94878 0.315589
-7.01467 32.4778 9.70139 -0.0124387 0.950692 0.309887
-5.56849 32.8718 8.38436 0.00909723 0.95532 0.295433
-4.45065 33.1502 7.36232 0.0272889 0.958922 0.282354
-2.85697 33.5203 5.90411 0.0440546 0.959738 0.277421
-2.59466 33.2283 6.87222 0.0435813 0.961145 0.272582
-3.81062 32.9473 7.98949 0.0254421 0.959215 0.281531
-4.73202 32.7251 8.83301 0.0181927 0.957183 0.288911
-5.90542 32.4144 9.90578 0.00466763 0.961866 0.273482
-6.81922 32.1573 10.7398 -0.0226333 0.954168 0.298413
-8.0294 31.7744 11.8316 -0.0313652 0.95354 0.299629
-9.38489 31.3279 13.0553 -0.0499629 0.948346 0.31328
-10.3921 30.9668 13.9569 -0.0594434 0.947829 0.313188
-9.37488 30.9299 14.2618 -0.049963 0.948346 0.31328
-8.17775 31.3377 13.1816 -0.0404789 0.948777 0.313343
-6.781 31.7876 11.9201 -0.0313122 0.953001 0.301345
-5.51617 32.1664 10.7712 -0.00461361 0.958408 0.285363
-4.22882 32.4941 9.58804 0.0177315 0.961777 0.273261
-2.65547 32.8736 8.14431 0.0235952 0.959504 0.280706
-2.37239 32.9371 7.88374 0.0428286 0.96257 0.26763
-2.01356 32.675 8.76917 0.0332148 0.961103 0.274186
-3.48241 32.3258 10.1213 0.0240218 0.962531 0.270105
-4.41197 32.0966 10.9776 0.0114039 0.959511 0.281439
-5.67503 31.7425 12.131 -0.0151153 0.955212 0.295536
-6.63925 31.4443 13.0072 -0.0198786 0.95219 0.304858
-8.16775 30.9397 14.3881 -0.0404789 0.948777 0.313343
-9.26853 30.5647 15.3814 -0.0445537 0.95051 0.307482
-9.35925 30.5339 15.4634 -0.0658388 0.947493 0.312926
-8.3746 30.4794 15.7946 -0.050165 0.950811 0.305682
-7.44291 30.7937 14.9527 -0.0486265 0.952192 0.301605
-5.79515 31.3186 13.4551 -0.023407 0.954483 0.297346
-4.68357 31.661 12.445 -0.00187765 0.956712 0.291029
-3.26044 32.0365 11.1385 0.0130712 0.961372 0.274943
-2.3454 32.2506 10.2935 0.0200259 0.963781 0.265943
-2.31429 31.9209 11.4859 0.0200268 0.963781 0.265942
-3.33103 31.6573 12.4207 0.00611427 0.958833 0.283906
-4.70646 31.2797 13.6845 -0.0279062 0.956748 0.289577
-5.76144 30.9588 14.646 -0.030423 0.954895 0.29538
-6.85726 30.6045 15.6445 -0.0412699 0.952643 0.301278
-7.90353 30.2455 16.5903 -0.0517027 0.949411 0.309752
-7.30821 30.0609 17.2756 -0.0610996 0.952304 0.298971
-5.85529 30.5481 15.9543 -0.0472053 0.95749 0.284579
-4.8665 30.8615 15.0516 -0.0289781 0.958263 0.284414
-3.68285 31.2238 13.9715 -0.0288789 0.956791 0.28934
-2.66696 31.4827 13.0325 0.00192001 0.964726 0.263251
-1.76939 31.7115 12.2038 0.0130712 0.961372 0.274943
-2.03852 31.305 13.6799 -0.00558577 0.965428 0.260611
-2.99303 31.0657 14.5632 -0.0134831 0.960961 0.276354
-4.6036 30.5819 16.0388 -0.0290768 0.959711 0.27948
-5.57471 30.2701 16.9253 -0.0509403 0.953447 0.297227
-6.51748 29.9513 17.7862 -0.0560209 0.952889 0.298102
-5.35961 29.9606 17.9569 -0.0577218 0.955142 0.290469
-4.41668 30.2794 17.0958 -0.0472826 0.956409 0.288177
-3.45479 30.5673 16.2124 -0.0338316 0.960743 0.275368
-2.49238 30.8545 15.3287 -0.0220308 0.961828 0.272767
-1.63383 31.0768 14.5338 -0.0055847 0.965428 0.260612
-2.24629 30.5763 16.3293 -0.0220308 0.961828 0.272767
-3.2087 30.2891 17.2131 -0.0338316 0.960743 0.275368
-4.16309 29.9917 18.0923 -0.0472826 0.956409 0.288177
-5.10602 29.6729 18.9533 -0.0577218 0.955142 0.290469
-5.11407 29.6702 18.9607 -0.0582165 0.954203 0.293439
-4.75436 29.4113 19.8644 -0.0587113 0.953255 0.296407
-3.13812 29.9459 18.3778 -0.0368397 0.957565 0.285852
-2.00019 30.2982 17.33 -0.0220308 0.961828 0.272767
-1.25123 30.5006 16.6367 -0.0102257 0.962771 0.270126
-1.26809 30.1626 17.8824 -0.0249922 0.965484 0.25926
-2.31946 29.8534 18.8557 -0.0527298 0.962575 0.265838
-3.76661 29.3805 20.1889 -0.0708075 0.954532 0.289577
-4.1993 29.2277 20.5869 -0.0708072 0.954532 0.289576
-3.51549 29.0955 21.1897 -0.0737251 0.958838 0.274217
-2.44093 29.4751 20.2013 -0.0617763 0.958668 0.277741
-1.51365 29.7573 19.345 -0.0259647 0.964476 0.262891
-0.406575 29.7309 19.5512 -0.0259654 0.964476 0.26289
-1.5325 29.4156 20.5971 -0.0393512 0.963613 0.264389
-2.8 28.9963 21.7708 -0.0766242 0.962891 0.258786
-1.95197 28.9412 22.2288 -0.0774217 0.962994 0.258162
-0.939782 29.259 21.2851 -0.0405515 0.967891 0.248078
0.127387 29.5505 20.2898 -0.031698 0.965585 0.258148
-0.0648752 29.1845 21.7115 -0.0345663 0.970061 0.240389
-1.03346 28.9012 22.619 -0.0465304 0.965624 0.255744
-1.29667 28.8232 22.8656 -0.0619833 0.964426 0.256984
-1.18109 28.527 24.0038 -0.0742399 0.96241 0.261257
-0.180243 28.8241 23.0655 -0.0465309 0.965624 0.255745
0.549138 29.0402 22.382 -0.0405506 0.967891 0.248079
0.958353 28.8418 23.2462 -0.0478682 0.969524 0.240273
-0.0335264 28.5526 24.1765 -0.0562323 0.968829 0.241265
-0.193011 28.5061 24.3261 -0.0603992 0.96614 0.25085
-0.109066 28.1947 25.4987 -0.064558 0.963339 0.260405
1.11182 28.5755 24.3515 -0.0478676 0.969525 0.240273
0.717919 28.1319 25.9723 -0.0729388 0.965864 0.248567
0.164219 27.9561 26.4929 -0.0729379 0.965865 0.248567
-22.9642 9.93526 54.6374 -0.309456 0.885579 0.346391
-21.5958 11.0346 53.2897 -0.30338 0.868161 0.392756
-20.7965 11.6739 52.4865 -0.317796 0.86443 0.389571
-17.8954 13.4989 50.8236 -0.320503 0.862255 0.392167
-19.7377 11.9628 52.7094 -0.317796 0.86443 0.389572
-21.4843 10.5416 54.4733 -0.315881 0.871619 0.374833
-22.806 9.53698 55.7875 -0.319152 0.881095 0.34902
-24.2571 8.43112 57.2433 -0.320088 0.87979 0.351446
-25.4757 7.50852 58.4575 -0.31736 0.879322 0.35507
-25.144 7.22903 59.4374 -0.314942 0.876811 0.363336
-23.5869 8.41877 57.8847 -0.320088 0.87979 0.351445
-22.231 9.45445 56.5216 -0.309455 0.885579 0.346392
-20.8725 10.4744 55.1674 -0.339452 0.867354 0.363963
-19.4978 11.598 53.7777 -0.34168 0.867849 0.360684
-18.2171 12.6537 52.4598 -0.349876 0.863858 0.362403
-16.7171 13.9078 50.9243 -0.352283 0.862245 0.36391
-15.956 14.5645 50.1439 -0.355909 0.854574 0.378195
-14.0081 15.6661 49.4581 -0.346867 0.860031 0.374206
-15.4689 14.4148 50.9406 -0.355191 0.85784 0.371417
-17.1671 12.9814 52.693 -0.350111 0.863429 0.363199
-18.7148 11.6924 54.2923 -0.34168 0.867849 0.360684
-20.0481 10.595 55.6488 -0.341543 0.866303 0.364511
-21.5836 9.42626 57.1821 -0.322594 0.884922 0.335926
-22.9757 8.36307 58.5924 -0.325795 0.880553 0.344214
-23.9906 7.59067 59.6164 -0.335612 0.877492 0.342596
-22.8464 7.94197 59.7945 -0.323955 0.883011 0.339624
-20.98 9.37344 57.8935 -0.323066 0.882699 0.341278
-19.6313 10.3872 56.5336 -0.348461 0.866402 0.357662
-18.3244 11.4648 55.2099 -0.342657 0.866551 0.362872
-16.8597 12.6868 53.6932 -0.349642 0.864286 0.361607
-15.4819 13.8469 52.2689 -0.354452 0.861056 0.364618
-13.8821 15.2072 50.6222 -0.346753 0.858973 0.376733
-12.5591 16.3341 49.2806 -0.353973 0.858931 0.370054
-11.6414 17.1173 48.3369 -0.353106 0.859522 0.36951
1.415 26.0924 34.1112 -0.140933 0.957736 0.250757
-0.583448 25.2102 36.0212 -0.189819 0.938229 0.289301
2.14422 26.0509 34.6739 -0.12293 0.960291 0.250457
-0.416512 24.9055 37.1261 -0.217117 0.936193 0.276411
-2.64303 23.6809 39.2899 -0.244826 0.922746 0.297657
-4.6299 22.4649 41.2425 -0.263905 0.910127 0.319409
-22.3706 7.79017 60.6429 -0.323955 0.883011 0.339625
-21.3871 8.53657 59.6522 -0.325214 0.880792 0.344153
-20.4636 9.24888 58.6996 -0.324634 0.881029 0.344093
-19.5872 9.91191 57.8095 -0.321493 0.884358 0.338459
-18.7059 10.611 56.9127 -0.356875 0.859257 0.366494
-17.6645 11.468 55.8502 -0.36518 0.865207 0.3436
-16.6008 12.3551 54.7459 -0.362696 0.865018 0.346692
-15.4984 13.2762 53.6009 -0.364275 0.864318 0.346783
-14.6729 13.9823 52.7461 -0.362381 0.859618 0.36019
-13.849 14.687 51.893 -0.356223 0.864205 0.355323
-12.8494 15.5125 50.8765 -0.349921 0.857046 0.378189
-11.8402 16.3855 49.849 -0.353531 0.85703 0.374853
-10.9707 17.1327 48.9515 -0.363387 0.857979 0.363072
-10.1207 17.8538 48.0739 -0.349679 0.866431 0.356402
-9.09207 18.7035 47.0074 -0.349361 0.867472 0.354174
-8.21851 19.4054 46.1106 -0.33326 0.876958 0.34624
-6.88442 20.4355 44.753 -0.324094 0.882104 0.341843
-5.82305 21.2041 43.7036 -0.301477 0.888015 0.34719
-4.54732 22.0788 42.4478 -0.284926 0.904948 0.316048
-3.64355 22.6528 41.5559 -0.279043 0.911041 0.303544
-2.78158 23.1933 40.7049 -0.258184 0.919125 0.297575
-1.81649 23.7586 39.7595 -0.253316 0.921808 0.293428
-0.896121 24.2803 38.8601 -0.217429 0.935609 0.278138
0.358102 24.9313 37.6468 -0.193599 0.943399 0.269292
2.0948 25.7015 35.9809 -0.168105 0.94777 0.27106
2.13481 25.7188 35.9426 -0.131936 0.959054 0.250617
3.09601 25.7728 36.2775 -0.138034 0.960822 0.240349
2.06736 25.3502 37.2685 -0.18008 0.950017 0.255027
0.965363 24.8572 38.3271 -0.180294 0.949667 0.256177
-0.0502488 24.3463 39.3132 -0.22993 0.935755 0.267385
-1.35592 23.6231 40.5872 -0.254004 0.922274 0.291363
-2.82326 22.7415 42.0311 -0.262347 0.915914 0.303768
-3.70202 22.1876 42.8985 -0.284927 0.904948 0.316048
-4.91654 21.3565 44.0973 -0.288207 0.899432 0.32857
-5.90951 20.6555 45.0776 -0.305905 0.893384 0.329069
-6.77109 20.0177 45.9386 -0.324094 0.882104 0.341842
-7.71322 19.2827 46.8989 -0.335059 0.874434 0.350858
-9.12465 18.1418 48.351 -0.34968 0.86643 0.356402
-9.96477 17.443 49.2175 -0.349995 0.865384 0.358628
-10.82 16.7102 50.1008 -0.363079 0.859237 0.360396
-11.9177 15.7638 51.226 -0.377872 0.852137 0.362043
-12.7827 15.0268 52.1158 -0.350035 0.868721 0.350427
-13.8807 14.1068 53.2459 -0.362382 0.859618 0.36019
-14.8111 13.3222 54.2113 -0.365445 0.863982 0.346389
-16.3832 12.0069 55.8421 -0.362696 0.865018 0.346692
-17.3366 11.2173 56.83 -0.36518 0.865207 0.3436
-18.3241 10.3641 57.8376 -0.379597 0.863209 0.33283
-19.2839 9.63404 58.8236 -0.318269 0.885592 0.338277
-20.1678 8.95647 59.7333 -0.351574 0.883147 0.31056
-21.0455 8.28918 60.6386 -0.357227 0.879948 0.313177
-21.7659 7.74532 61.3657 -0.337448 0.884816 0.321294
-20.9906 7.84721 61.9173 -0.363102 0.875702 0.318283
-20.0291 8.59174 60.9294 -0.351324 0.884126 0.308048
-19.1888 9.23378 60.0618 -0.376192 0.874303 0.306716
-18.0218 10.146 58.8487 -0.368195 0.879575 0.301298
-17.0087 10.9666 57.8099 -0.36518 0.865206 0.343601
-16.0815 11.7331 56.8496 -0.361625 0.866989 0.342866
-15.0633 12.5799 55.7934 -0.364276 0.864317 0.346783
-14.1259 13.3664 54.8239 -0.365444 0.863982 0.346389
-12.8397 14.4441 53.4882 -0.363719 0.862008 0.353058
-11.987 15.168 52.6068 -0.37403 0.859585 0.34816
-11.0287 15.9917 51.6174 -0.370337 0.856345 0.359896
-9.81165 17.0257 50.3642 -0.363082 0.859236 0.360396
-8.9687 17.731 49.4945 -0.349995 0.865384 0.358628
-8.16728 18.3977 48.6679 -0.359357 0.864805 0.350679
-7.29453 19.0933 47.7755 -0.346458 0.873869 0.341056
-6.46372 19.7479 46.9288 -0.32609 0.884904 0.332583
-5.41112 20.5287 45.8762 -0.321278 0.885155 0.336573
-4.33418 21.3003 44.8065 -0.305059 0.896652 0.320865
-2.95183 22.2334 43.4429 -0.294421 0.902126 0.315411
-2.06207 22.7828 42.5641 -0.262347 0.915914 0.303768
-0.853876 23.5128 41.374 -0.247403 0.923857 0.292027
0.171009 24.0972 40.3694 -0.24079 0.925398 0.292676
1.84217 24.9099 38.7476 -0.180513 0.949315 0.257324
3.08821 25.4477 37.5474 -0.139336 0.959524 0.244743
4.09075 25.5181 37.8425 -0.139336 0.959524 0.244743
3.08021 25.1266 38.8182 -0.172409 0.960646 0.217793
2.10929 24.6866 39.7589 -0.180513 0.949315 0.257324
1.08576 24.2145 40.7511 -0.235386 0.930677 0.280061
0.155208 23.6922 41.6633 -0.263902 0.930069 0.255593
-0.785404 23.1529 42.586 -0.276372 0.917363 0.286468
-1.76786 22.5573 43.5554 -0.274057 0.918107 0.286307
-2.80457 21.8828 44.5805 -0.290926 0.903029 0.316072
-3.72565 21.2628 45.4899 -0.305061 0.896651 0.320865
-4.86888 20.4443 46.6275 -0.312216 0.891473 0.328324
-5.99514 19.6088 47.7546 -0.326352 0.884241 0.334085
-6.95814 18.8521 48.7351 -0.346459 0.873869 0.341056
-7.7732 18.2098 49.5656 -0.357305 0.870024 0.339692
-8.91231 17.2579 50.7405 -0.368787 0.863899 0.343038
-10.0215 16.319 51.8839 -0.377314 0.859498 0.344816
-11.0406 15.4572 52.9386 -0.385376 0.859548 0.335652
-12.1957 14.4736 54.1373 -0.386491 0.860003 0.333195
-13.1867 13.6235 55.1727 -0.376617 0.861758 0.339902
-14.0778 12.8762 56.0953 -0.369082 0.863869 0.342796
-15.6212 11.5974 57.6946 -0.383073 0.866213 0.320827
-16.5324 10.8448 58.6386 -0.382092 0.868868 0.314761
-17.4366 10.1411 59.578 -0.368195 0.879575 0.301298
-18.3502 9.43151 60.5267 -0.376191 0.874303 0.306716
-19.3264 8.65705 61.5434 -0.363503 0.879858 0.306131
-20.2696 7.92968 62.513 -0.363101 0.875702 0.318283
-19.4111 8.12902 62.9747 -0.372349 0.880211 0.294254
-18.5057 8.84121 62.0269 -0.375619 0.875441 0.304159
-17.6957 9.48269 61.1836 -0.372198 0.876952 0.304012
-16.621 10.3141 60.0705 -0.368655 0.879438 0.301134
-15.5404 11.1712 58.9419 -0.382092 0.868868 0.314761
-14.6292 11.9238 57.9979 -0.383073 0.866213 0.320827
-13.8218 12.5744 57.1548 -0.366993 0.876036 0.312854
-12.5771 13.634 55.8544 -0.38927 0.856879 0.337975
-11.7893 14.3097 55.0315 -0.388133 0.859014 0.333839
-10.8191 15.1338 54.0212 -0.385113 0.86027 0.334101
-9.65975 16.1108 52.8191 -0.375358 0.865277 0.332268
-8.65488 16.9545 51.7802 -0.368911 0.863703 0.343397
-7.41435 17.9925 50.4995 -0.357305 0.870024 0.339693
-6.58775 18.6425 49.6579 -0.345884 0.875803 0.336649
-5.27327 19.6592 48.3264 -0.326351 0.884241 0.334084
-3.98895 20.6041 47.0408 -0.322068 0.892093 0.316926
-3.10285 21.236 46.1582 -0.302617 0.900884 0.311176
-2.18035 21.8509 45.246 -0.290926 0.903028 0.316072
-1.26696 22.4615 44.3421 -0.282542 0.910727 0.301242
0.0802782 23.2817 43.0158 -0.278685 0.916613 0.286629
1.03594 23.8281 42.0784 -0.244481 0.934035 0.260399
2.1415 24.385 40.9989 -0.208574 0.946562 0.246004
3.16637 24.8543 40.0059 -0.207066 0.949657 0.235106
4.06394 25.2308 39.1373 -0.172409 0.960646 0.217794
5.11489 25.3561 39.3916 -0.136045 0.968266 0.209649
4.17383 24.9758 40.3019 -0.174901 0.958235 0.226264
3.2413 24.5739 41.2047 -0.208575 0.946561 0.246004
2.13687 24.0344 42.2827 -0.217517 0.940515 0.260993
1.11457 23.5057 43.2801 -0.24356 0.927556 0.283405
-0.30508 22.6459 44.6746 -0.270892 0.917152 0.292319
-1.42277 21.916 45.7766 -0.297311 0.905101 0.303969
-2.37918 21.2851 46.7197 -0.302617 0.900884 0.311176
-3.38695 20.578 47.7261 -0.322069 0.892093 0.316926
-4.59303 19.689 48.9341 -0.33463 0.882749 0.329813
-6.13603 18.5011 50.4967 -0.360234 0.873694 0.326942
-7.0555 17.7753 51.4335 -0.357305 0.870024 0.339693
-7.9985 16.9906 52.4085 -0.37815 0.866182 0.326698
-9.02167 16.1404 53.4691 -0.380886 0.864177 0.328822
-9.83451 15.4611 54.3133 -0.380374 0.862429 0.333965
-10.7904 14.6494 55.3085 -0.384848 0.86099 0.332549
-11.6788 13.8921 56.2347 -0.38927 0.856879 0.337974
-12.7456 12.953 57.3636 -0.381371 0.859458 0.340424
-13.6499 12.2333 58.3117 -0.366993 0.876036 0.312854
-14.5484 11.4975 59.2452 -0.382091 0.868868 0.31476
-15.4386 10.776 60.1831 -0.381093 0.871484 0.30868
-16.3796 10.0426 61.1592 -0.368655 0.879438 0.301134
-17.4156 9.23947 62.2399 -0.378635 0.876059 0.29859
-18.3687 8.48675 63.2389 -0.37889 0.875958 0.298563
-18.7673 8.17545 63.6569 -0.374609 0.87945 0.293659
-17.8285 8.45087 64.0297 -0.376753 0.87771 0.296112
-16.6513 9.38006 62.7959 -0.378379 0.87616 0.298618
-15.793 10.0408 61.8955 -0.369884 0.882762 0.289685
-14.4466 11.1024 60.4864 -0.381093 0.871484 0.30868
-13.5565 11.8239 59.5485 -0.382091 0.868868 0.31476
-12.3845 12.7839 58.3153 -0.398788 0.866056 0.301522
-11.4746 13.5596 57.3513 -0.408326 0.857564 0.312817
-10.12 14.719 55.9256 -0.39606 0.858808 0.32494
-8.64503 15.9561 54.3899 -0.38146 0.866096 0.323056
-7.47509 16.9293 53.1766 -0.37815 0.866182 0.326698
-6.58224 17.6667 52.2507 -0.36783 0.872024 0.322916
-5.70812 18.3559 51.3562 -0.360234 0.873694 0.326942
-4.82855 19.0543 50.459 -0.349257 0.880462 0.320634
-3.41987 20.0923 49.0451 -0.336429 0.88493 0.322048
-2.47318 20.7633 48.0984 -0.307894 0.896578 0.318353
-0.975802 21.7826 46.611 -0.297311 0.905101 0.30397
0.18895 22.541 45.4636 -0.275717 0.914472 0.296179
1.68676 23.4364 43.9986 -0.243561 0.927556 0.283405
2.8027 24.0136 42.9124 -0.217555 0.940397 0.261388
3.78882 24.495 41.9498 -0.221103 0.94181 0.253196
4.83192 24.9417 40.936 -0.16952 0.95838 0.229717
5.73187 25.3006 40.0655 -0.13749 0.968916 0.205668
6.49013 25.2942 40.6028 -0.133765 0.969345 0.206101
5.4149 24.8854 41.6435 -0.170822 0.964069 0.203448
4.39177 24.4569 42.6388 -0.229247 0.94002 0.252602
3.10693 23.8041 43.8934 -0.223236 0.937418 0.267234
2.01519 23.2273 44.9524 -0.252953 0.923429 0.288608
1.07192 22.6691 45.8719 -0.265868 0.920569 0.286123
-0.0349497 21.9663 46.9595 -0.285503 0.908159 0.306164
-0.931839 21.3833 47.8429 -0.302617 0.900884 0.311177
-1.96156 20.6736 48.8713 -0.318719 0.900271 0.29653
-3.39886 19.6515 50.3118 -0.336734 0.887453 0.314701
-4.32572 18.9686 51.2421 -0.349257 0.880462 0.320633
-5.20318 18.2737 52.1383 -0.360057 0.876953 0.318296
-6.0722 17.5931 53.0305 -0.36783 0.872024 0.322917
-7.42926 16.4732 54.4391 -0.377966 0.86914 0.318964
-8.65169 15.4706 55.7101 -0.382023 0.867982 0.317279
-9.48883 14.7616 56.5823 -0.39606 0.858808 0.32494
-10.3705 14.0192 57.5131 -0.398475 0.862252 0.312631
-11.1761 13.33 58.3702 -0.40488 0.858899 0.313632
-12.0858 12.5678 59.3332 -0.400972 0.866628 0.296946
-13.0398 11.7821 60.3445 -0.398483 0.868772 0.294018
-13.8572 11.117 61.207 -0.397311 0.869356 0.293877
-14.9196 10.2619 62.3369 -0.380796 0.879217 0.286308
-15.7767 9.60768 63.2362 -0.374141 0.879482 0.294159
-16.7937 8.80518 64.3021 -0.382955 0.878185 0.286594
-17.402 8.34221 64.9451 -0.383215 0.884443 0.266282
-16.7822 8.39374 65.6577 -0.380412 0.885485 0.266841
-15.8054 9.13915 64.6265 -0.387465 0.880062 0.274521
-14.9927 9.76714 63.7671 -0.391213 0.875405 0.283934
-14.1023 10.4727 62.816 -0.392859 0.874806 0.283509
-12.7882 11.5351 61.4153 -0.398484 0.868772 0.294017
-11.8903 12.2719 60.4608 -0.400314 0.867409 0.295553
-10.918 13.0743 59.4318 -0.402444 0.865715 0.297617
-9.85536 13.972 58.2999 -0.398476 0.862252 0.312632
-8.59935 15.0252 56.9696 -0.395801 0.861563 0.317887
-7.6279 15.8317 55.9585 -0.386408 0.866716 0.315425
-6.41197 16.8267 54.6932 -0.380335 0.871205 0.310398
-5.56216 17.5195 53.8102 -0.36783 0.872024 0.322917
-4.69314 18.2001 52.918 -0.360057 0.876953 0.318296
-3.82289 18.8829 52.0252 -0.349257 0.880462 0.320633
-2.89829 19.5623 51.0957 -0.335261 0.887855 0.31514
-2.06625 20.1735 50.259 -0.335261 0.887855 0.31514
-1.09664 20.8418 49.2902 -0.318719 0.900271 0.29653
-0.223842 21.4279 48.4204 -0.299205 0.908059 0.293094
0.826143 22.0928 47.3871 -0.290045 0.909849 0.29673
1.84883 22.7344 46.3837 -0.252954 0.923428 0.288607
3.04352 23.4088 45.2229 -0.239993 0.92612 0.29104
3.93504 23.8706 44.3585 -0.235188 0.934579 0.266924
4.95619 24.406 43.3653 -0.236007 0.940894 0.242937
6.14161 24.8872 42.2141 -0.161082 0.963669 0.21306
6.96941 25.1939 41.41 -0.143344 0.967578 0.207954
8.02331 25.2957 41.6624 -0.143343 0.967578 0.207954
6.93033 24.8888 42.7249 -0.136875 0.966585 0.216745
5.80553 24.4538 43.8165 -0.16542 0.953929 0.250312
4.82032 23.9858 44.7702 -0.22079 0.933449 0.28271
3.90637 23.4969 45.6541 -0.232187 0.932009 0.278296
2.99797 22.986 46.5368 -0.249345 0.929013 0.273425
1.73182 22.2648 47.7703 -0.279188 0.915545 0.289535
0.552411 21.5178 48.9309 -0.294555 0.911437 0.287264
-0.409703 20.8805 49.8879 -0.303834 0.904622 0.298906
-1.27782 20.2957 50.7534 -0.327022 0.89415 0.305865
-2.22546 19.6024 51.7061 -0.344941 0.891404 0.293963
-3.15051 18.938 52.6354 -0.350053 0.887089 0.30089
-3.9825 18.2956 53.4905 -0.371306 0.875877 0.308173
-4.88184 17.5894 54.414 -0.372177 0.874901 0.30989
-6.00322 16.6891 55.5803 -0.380336 0.871205 0.310398
-7.04534 15.8344 56.6648 -0.386408 0.866716 0.315425
-8.02214 15.035 57.691 -0.396832 0.865836 0.304718
-9.22856 14.0215 58.9687 -0.400832 0.864872 0.302209
-10.4438 13.0087 60.2642 -0.403915 0.864799 0.298287
-11.3309 12.2774 61.2044 -0.399655 0.868186 0.294157
-12.5367 11.2881 62.4861 -0.398484 0.868772 0.294017
-13.6309 10.4075 63.6676 -0.391878 0.87459 0.285523
-15.125 9.23643 65.2749 -0.386695 0.880381 0.274582
-15.83 8.69471 66.0165 -0.383945 0.882788 0.270687
-14.3337 9.42316 65.788 -0.385925 0.880701 0.274643
-13.4752 10.0878 64.8631 -0.388358 0.877999 0.279816
-12.6363 10.76 63.9571 -0.392984 0.873916 0.286068
-11.1095 12.0065 62.3077 -0.405785 0.870481 0.27857
-10.2935 12.6753 61.4398 -0.400314 0.867408 0.295553
-9.35567 13.4541 60.4422 -0.399727 0.86645 0.299138
-8.53098 14.1379 59.5637 -0.399727 0.86645 0.299138
-7.63953 14.8827 58.6186 -0.391721 0.86836 0.304147
-6.79544 15.5738 57.726 -0.38927 0.870603 0.300864
-5.68587 16.4778 56.5624 -0.383376 0.868969 0.312914
-4.32285 17.5675 55.1448 -0.373048 0.873921 0.311606
-3.43482 18.2677 54.2299 -0.363235 0.879318 0.307994
-2.44315 19.0223 53.2101 -0.350053 0.887089 0.30089
-1.5181 19.6867 52.2808 -0.344941 0.891404 0.293963
-0.582764 20.352 51.3427 -0.322995 0.902243 0.285712
0.291813 20.9232 50.472 -0.303834 0.904622 0.298906
1.17919 21.5131 49.5885 -0.299205 0.908059 0.293094
2.89167 22.5532 47.9098 -0.26375 0.919418 0.291731
3.774 23.0426 47.0524 -0.249345 0.929014 0.273424
5.18985 23.7738 45.6808 -0.20099 0.940135 0.275227
6.13415 24.2609 44.7686 -0.180472 0.944731 0.273701
7.10703 24.6521 43.8264 -0.133686 0.961829 0.238774
8.27297 25.0969 42.6961 -0.152696 0.964516 0.21539
8.38037 25.1372 42.5917 -0.152697 0.964516 0.21539
9.2411 25.1705 43.0279 -0.117749 0.970106 0.212203
8.29489 24.8141 43.9464 -0.160671 0.959527 0.231284
7.05304 24.3164 45.1482 -0.147192 0.960773 0.235053
6.07946 23.8592 46.0874 -0.206502 0.945049 0.253455
5.09391 23.3816 47.0384 -0.231422 0.932873 0.276029
4.06671 22.8311 48.0377 -0.240394 0.930983 0.274738
2.81261 22.1015 49.2619 -0.26375 0.919418 0.291731
1.89388 21.5623 50.1615 -0.281031 0.919972 0.273265
1.02042 21.0055 51.029 -0.316106 0.907761 0.275765
0.148451 20.4382 51.8971 -0.322995 0.902243 0.285712
-0.807987 19.7711 52.853 -0.329829 0.896565 0.295608
-1.73579 19.1065 53.7847 -0.350054 0.887089 0.30089
-3.26966 17.9393 55.3621 -0.363235 0.879318 0.307994
-4.12556 17.2608 56.2539 -0.38341 0.874666 0.296574
-4.94254 16.6137 57.1061 -0.383683 0.874291 0.297327
-5.88961 15.851 58.0997 -0.392249 0.870053 0.298578
-6.9009 15.0238 59.1685 -0.394906 0.867878 0.301391
-8.48642 13.7138 60.8534 -0.403478 0.866186 0.294836
-9.44632 12.919 61.8748 -0.402843 0.868484 0.288881
-10.4262 12.1266 62.9276 -0.405785 0.870481 0.27857
-11.3216 11.4025 63.886 -0.407469 0.869107 0.280395
-12.5303 10.4028 65.2074 -0.410595 0.867963 0.279377
-13.4719 9.67521 66.226 -0.399751 0.88092 0.253335
-12.6013 9.94674 66.6556 -0.39975 0.880921 0.253334
-11.7096 10.6445 65.6715 -0.412034 0.868192 0.276533
-10.7839 11.4051 64.6628 -0.410201 0.869029 0.276628
-9.60449 12.3615 63.3988 -0.408455 0.869725 0.277025
-8.43821 13.3018 62.1299 -0.402843 0.868484 0.288881
-7.47831 14.0966 61.1085 -0.403478 0.866186 0.294836
-6.40486 14.9703 59.9724 -0.39497 0.869389 0.296919
-5.39576 15.7973 58.9048 -0.392248 0.870053 0.298578
-4.53655 16.4853 58.0057 -0.383955 0.873915 0.298079
-3.26657 17.4926 56.6807 -0.38341 0.874666 0.296574
-2.30157 18.2373 55.6721 -0.365714 0.885819 0.285617
-1.30249 18.9822 54.6411 -0.360452 0.884324 0.296726
-0.0767719 19.8573 53.4074 -0.329829 0.896565 0.295608
0.879666 20.5244 52.4515 -0.322996 0.902243 0.285712
1.75252 21.0855 51.5837 -0.285184 0.916943 0.27908
2.62891 21.6217 50.7175 -0.281031 0.919972 0.273265
3.99669 22.4201 49.3782 -0.269896 0.924808 0.268118
5.01975 22.9702 48.3803 -0.24874 0.936656 0.246585
6.20269 23.579 47.2325 -0.206083 0.945089 0.253646
7.34747 24.1243 46.1298 -0.188926 0.950265 0.247594
8.66627 24.6621 44.856 -0.166492 0.960705 0.222096
10.1103 25.1826 43.4568 -0.129743 0.97223 0.194771
10.186 25.2074 43.3833 -0.123754 0.971222 0.203499
11.0999 25.2519 43.77 -0.129745 0.97223 0.194771
9.64783 24.7532 45.1754 -0.136603 0.966755 0.216156
8.56277 24.3196 46.2238 -0.172124 0.955073 0.241264
7.33529 23.7789 47.406 -0.205663 0.945129 0.253839
6.14381 23.222 48.5578 -0.22631 0.943067 0.243738
5.22181 22.7408 49.4555 -0.24874 0.936656 0.246585
4.22845 22.1816 50.4272 -0.262916 0.926622 0.268788
2.76255 21.3131 51.868 -0.285184 0.916943 0.27908
1.75566 20.6971 52.8632 -0.291091 0.918148 0.26883
0.704109 19.9864 53.9139 -0.341908 0.897899 0.277265
-0.210859 19.3552 54.8299 -0.34303 0.896648 0.279917
-1.15325 18.6707 55.7966 -0.362792 0.886607 0.286896
-2.21247 17.8696 56.8982 -0.371563 0.880263 0.295091
-3.22456 17.0774 57.9598 -0.383683 0.874291 0.297327
-4.20184 16.3001 58.9796 -0.383955 0.873915 0.298079
-5.09216 15.5892 59.9103 -0.393578 0.868968 0.299986
-5.89658 14.9362 60.7606 -0.395024 0.870882 0.29244
-6.81248 14.196 61.7277 -0.399255 0.868545 0.293642
-7.65639 13.499 62.6342 -0.402193 0.870747 0.282916
-8.81029 12.572 63.8968 -0.393949 0.877491 0.273522
-9.67816 11.8716 64.8284 -0.408455 0.869725 0.277026
-10.507 11.1983 65.7216 -0.408367 0.869863 0.27672
-11.3244 10.5146 66.6171 -0.428518 0.850413 0.305237
